ply
format ascii 1.0
element vertex 2112
property float x
property float y
property float z
end_header
2.1832 0.0058 -0.6018
2.1885 0.0134 -0.6065
2.1954 0.0248 -0.6025
2.2010 0.0332 -0.6040
2.2064 0.0415 -0.6051
2.2121 0.0507 -0.6032
2.2168 0.0576 -0.6061
1.0935 -1.6721 0.1103
1.0460 -1.7575 0.0682
0.8244 -2.1733 -0.2200
0.4189 -2.9116 -0.6233
0.9589 -2.0232 -0.6014
1.0785 -1.8306 -0.6199
1.2096 -1.6163 -0.6213
1.6770 -0.8501 -0.6181
1.7755 -0.6868 -0.6065
1.8391 -0.5837 -0.6127
1.8982 -0.4865 -0.6102
1.9471 -0.4060 -0.6082
1.9879 -0.3390 -0.6073
2.0037 -0.3139 -0.6113
2.0228 -0.2818 -0.6068
2.0551 -0.2280 -0.6019
2.0911 -0.1699 -0.6069
2.1029 -0.1505 -0.6057
2.1149 -0.1300 -0.6018
2.1232 -0.1174 -0.6069
2.1328 -0.1016 -0.6067
2.1421 -0.0861 -0.6057
2.1509 -0.0716 -0.6048
2.1584 -0.0598 -0.6073
2.1654 -0.0488 -0.6104
2.1753 -0.0307 -0.5999
2.1809 -0.0226 -0.6060
2.1886 -0.0093 -0.6017
2.1942 -0.0009 -0.6058
2.2001 0.0085 -0.6072
2.2062 0.0189 -0.6058
2.2120 0.0285 -0.6050
2.2173 0.0368 -0.6062
2.2227 0.0461 -0.6044
1.1909 -1.6154 0.0701
-0.0114 -3.7033 0.0154
0.5285 -2.8081 -0.1594
1.1073 -1.8255 -0.2391
0.3855 -3.1359 -0.5393
0.8443 -2.3520 -0.5793
0.9768 -2.1289 -0.6059
1.0372 -2.0347 -0.6538
1.2046 -1.7429 -0.6405
1.4480 -1.3178 -0.6186
1.6029 -1.0488 -0.6111
1.6961 -0.8908 -0.6251
1.7940 -0.7190 -0.6127
1.8273 -0.6622 -0.6157
1.8587 -0.6081 -0.6168
1.8925 -0.5485 -0.6110
1.9206 -0.4995 -0.6087
1.9626 -0.4285 -0.6156
2.0081 -0.3476 -0.6049
2.0388 -0.2959 -0.6107
2.0707 -0.2394 -0.6045
2.0933 -0.2020 -0.6119
2.1177 -0.1589 -0.6071
2.1283 -0.1403 -0.6061
2.1378 -0.1241 -0.6069
2.1472 -0.1076 -0.6059
2.1567 -0.0906 -0.6031
2.1646 -0.0772 -0.6044
2.1725 -0.0635 -0.6040
2.1795 -0.0518 -0.6061
2.1861 -0.0410 -0.6086
2.1945 -0.0248 -0.6008
2.2003 -0.0156 -0.6043
2.2065 -0.0048 -0.6040
2.2120 0.0041 -0.6067
2.2179 0.0146 -0.6053
2.2233 0.0237 -0.6059
2.2286 0.0333 -0.6047
2.2342 0.0438 -0.6005
0.5780 -2.7979 0.2413
0.5542 -2.9151 -0.0604
0.6273 -2.8009 -0.1392
0.7246 -2.6410 -0.2111
1.1577 -1.8540 -0.2266
0.9946 -2.2270 -0.5344
1.4912 -1.3391 -0.6105
1.7325 -0.9002 -0.6165
1.8890 -0.6123 -0.6081
1.9114 -0.5734 -0.6163
1.9859 -0.4363 -0.6112
2.0060 -0.3994 -0.6108
2.0252 -0.3641 -0.6091
2.0878 -0.2487 -0.6046
2.0992 -0.2286 -0.6078
2.1101 -0.2095 -0.6109
2.1525 -0.1310 -0.6068
2.1614 -0.1149 -0.6070
2.1706 -0.0971 -0.6035
2.1867 -0.0671 -0.6007
2.1938 -0.0541 -0.6007
2.2003 -0.0426 -0.6022
2.2059 -0.0338 -0.6075
2.2122 -0.0220 -0.6069
2.2189 -0.0086 -0.6022
2.2242 0.0003 -0.6049
2.2295 0.0097 -0.6061
2.2348 0.0195 -0.6055
2.2401 0.0297 -0.6033
2.2445 0.0369 -0.6068
2.2489 0.0446 -0.6087
0.3536 -3.3429 0.4810
0.9010 -2.3591 0.2126
1.2032 -1.8180 0.0567
0.7410 -2.7398 -0.0417
0.7656 -2.7134 -0.1177
1.0162 -2.2442 -0.1737
1.2089 -1.8827 -0.2140
1.0723 -2.2106 -0.4411
1.1030 -2.1688 -0.5039
1.1545 -2.1047 -0.6308
1.6550 -1.1324 -0.6170
1.8060 -0.8393 -0.6139
1.8735 -0.7106 -0.6201
1.9371 -0.5855 -0.6130
1.9654 -0.5291 -0.6076
1.9839 -0.4955 -0.6149
2.0893 -0.2907 -0.6119
2.1185 -0.2311 -0.6012
2.1291 -0.2113 -0.6035
2.1389 -0.1931 -0.6065
2.1482 -0.1760 -0.6095
2.1691 -0.1330 -0.6004
2.1753 -0.1237 -0.6099
2.1850 -0.1030 -0.6029
2.1925 -0.0887 -0.6035
2.1989 -0.0773 -0.6075
2.2065 -0.0616 -0.6037
2.2194 -0.0366 -0.6033
2.2309 -0.0143 -0.6038
2.2366 -0.0029 -0.6020
2.2417 0.0066 -0.6032
2.2463 0.0147 -0.6064
2.2515 0.0256 -0.6030
2.2557 0.0328 -0.6066
2.2600 0.0406 -0.6086
0.4890 -3.2546 0.5640
0.6934 -2.9225 0.2873
0.9064 -2.6075 -0.0974
1.1360 -2.1532 -0.1536
1.2105 -2.0172 -0.2081
1.2919 -1.8648 -0.2550
1.2560 -1.9608 -0.3243
1.2238 -2.0509 -0.3990
1.2255 -2.0921 -0.5390
1.2386 -2.0868 -0.6066
1.3509 -1.8591 -0.6172
1.4454 -1.6675 -0.6259
1.5515 -1.4455 -0.6143
1.6094 -1.3309 -0.6278
1.7316 -1.0791 -0.6266
1.8222 -0.8931 -0.6276
1.9074 -0.7119 -0.6090
1.9335 -0.6597 -0.6140
1.9627 -0.5985 -0.6101
2.0067 -0.5094 -0.6141
2.0310 -0.4567 -0.6059
2.0501 -0.4169 -0.6043
2.0629 -0.3935 -0.6136
2.0806 -0.3557 -0.6091
2.0984 -0.3163 -0.6005
2.1107 -0.2921 -0.6036
2.1223 -0.2690 -0.6062
2.1348 -0.2426 -0.6038
2.1433 -0.2276 -0.6121
2.1542 -0.2049 -0.6107
2.1722 -0.1691 -0.6148
2.1826 -0.1454 -0.6075
2.1910 -0.1277 -0.6063
2.2057 -0.0979 -0.6079
2.2202 -0.0665 -0.6025
2.2259 -0.0560 -0.6064
2.2324 -0.0413 -0.6024
2.2376 -0.0319 -0.6063
2.2428 -0.0219 -0.6087
2.2484 -0.0091 -0.6049
2.2534 0.0010 -0.6051
2.2582 0.0110 -0.6048
2.2629 0.0214 -0.6027
2.2671 0.0293 -0.6052
2.2713 0.0376 -0.6059
0.1123 -4.2320 0.7571
0.5349 -3.3898 0.5235
0.5971 -3.2884 0.4271
1.2462 -2.0060 0.0378
1.2368 -2.0466 -0.0175
1.2119 -2.1226 -0.0760
1.2810 -1.9915 -0.1326
1.3192 -1.9279 -0.1875
0.9779 -2.7841 -0.4832
1.2321 -2.2234 -0.4749
1.2829 -2.1587 -0.6031
1.3678 -1.9821 -0.6300
1.5017 -1.6820 -0.6127
1.6431 -1.3775 -0.6285
1.7061 -1.2395 -0.6291
1.7652 -1.1083 -0.6246
1.8598 -0.8980 -0.6171
1.9372 -0.7233 -0.6036
1.9878 -0.6141 -0.6087
2.0324 -0.5160 -0.6081
2.0660 -0.4453 -0.6161
2.0838 -0.4049 -0.6128
2.0993 -0.3707 -0.6120
2.1390 -0.2831 -0.6106
2.1522 -0.2519 -0.6041
2.1812 -0.1892 -0.6066
2.1895 -0.1713 -0.6083
2.1978 -0.1531 -0.6082
2.2062 -0.1338 -0.6054
2.2203 -0.1031 -0.6064
2.2273 -0.0868 -0.6037
2.2335 -0.0734 -0.6043
2.2453 -0.0473 -0.6035
2.2506 -0.0359 -0.6043
2.2555 -0.0265 -0.6079
2.2609 -0.0130 -0.6031
2.2656 -0.0028 -0.6034
2.2703 0.0085 -0.6008
2.2743 0.0154 -0.6061
2.2786 0.0257 -0.6037
2.2826 0.0347 -0.6033
1.3605 -1.8726 0.0958
1.3662 -1.8804 0.0448
1.3776 -1.8754 -0.0078
1.4056 -1.8315 -0.0609
1.3780 -1.9431 -0.1737
1.2504 -2.3069 -0.3283
1.0505 -2.8340 -0.4672
1.2998 -2.2767 -0.5358
1.3063 -2.2930 -0.6121
1.4001 -2.0823 -0.6353
1.5580 -1.6966 -0.5995
1.8823 -0.9459 -0.6266
1.9176 -0.8633 -0.6270
1.9660 -0.7383 -0.6000
1.9888 -0.6879 -0.6073
2.0126 -0.6324 -0.6086
2.0366 -0.5746 -0.6051
2.0577 -0.5243 -0.6032
2.0723 -0.4937 -0.6121
2.1217 -0.3748 -0.6055
2.1334 -0.3496 -0.6108
2.1477 -0.3132 -0.6042
2.1685 -0.2665 -0.6095
2.1886 -0.2185 -0.6072
2.1980 -0.1951 -0.6042
2.2055 -0.1793 -0.6087
2.2141 -0.1573 -0.6044
2.2205 -0.1449 -0.6108
2.2283 -0.1244 -0.6055
2.2348 -0.1097 -0.6067
2.2412 -0.0946 -0.6063
2.2470 -0.0817 -0.6081
2.2528 -0.0678 -0.6072
2.2580 -0.0566 -0.6100
2.2636 -0.0406 -0.6034
2.2686 -0.0286 -0.6027
2.2732 -0.0187 -0.6047
2.2777 -0.0084 -0.6052
2.2820 0.0024 -0.6039
2.2862 0.0129 -0.6021
2.2900 0.0204 -0.6060
0.5593 -3.8038 0.6277
0.6959 -3.5208 0.4959
1.3483 -2.3567 -0.5302
1.3783 -2.3116 -0.5952
1.4731 -2.0816 -0.6154
1.5828 -1.8020 -0.6104
1.6479 -1.6451 -0.6262
1.7695 -1.3428 -0.6366
1.8875 -1.0320 -0.6095
1.9224 -0.9457 -0.6135
1.9578 -0.8548 -0.6103
1.9852 -0.7871 -0.6138
2.0121 -0.7188 -0.6131
2.0362 -0.6576 -0.6125
2.0572 -0.6051 -0.6135
2.0742 -0.5651 -0.6198
2.1129 -0.4618 -0.6079
2.1266 -0.4288 -0.6115
2.1385 -0.4020 -0.6181
2.1540 -0.3583 -0.6085
2.1775 -0.2971 -0.6050
2.1882 -0.2692 -0.6028
2.1974 -0.2463 -0.6039
2.2046 -0.2328 -0.6135
2.2143 -0.2047 -0.6060
2.2216 -0.1880 -0.6098
2.2294 -0.1673 -0.6076
2.2366 -0.1484 -0.6061
2.2433 -0.1312 -0.6056
2.2555 -0.1011 -0.6068
2.2610 -0.0881 -0.6088
2.2666 -0.0720 -0.6050
2.2718 -0.0582 -0.6036
2.2768 -0.0453 -0.6025
2.2813 -0.0345 -0.6041
2.2858 -0.0233 -0.6040
2.2899 -0.0141 -0.6069
2.2940 -0.0038 -0.6070
2.2979 0.0063 -0.6066
2.3017 0.0174 -0.6032
2.3053 0.0259 -0.6043
0.6463 -3.8174 0.7375
0.7280 -3.6568 0.6212
0.7739 -3.5840 0.5237
1.3748 -2.2416 -0.0310
1.4826 -2.2312 -0.5587
1.5101 -2.1892 -0.6205
1.6375 -1.8304 -0.6000
1.6956 -1.6827 -0.6201
1.8191 -1.3468 -0.6227
1.9130 -1.0889 -0.6196
1.9506 -0.9855 -0.6183
1.9834 -0.8954 -0.6174
2.0104 -0.8235 -0.6204
2.0347 -0.7588 -0.6233
2.0661 -0.6626 -0.6041
2.0816 -0.6267 -0.6159
2.0981 -0.5846 -0.6217
2.1177 -0.5275 -0.6146
2.1499 -0.4349 -0.6060
2.1629 -0.3990 -0.6056
2.1734 -0.3741 -0.6122
2.1967 -0.3061 -0.6040
2.2138 -0.2640 -0.6127
2.2307 -0.2166 -0.6102
2.2385 -0.1939 -0.6075
2.2458 -0.1723 -0.6046
2.2583 -0.1401 -0.6084
2.2640 -0.1272 -0.6130
2.2703 -0.1042 -0.6023
2.2754 -0.0918 -0.6054
2.2802 -0.0824 -0.6120
2.2853 -0.0657 -0.6067
2.2899 -0.0520 -0.6048
2.2942 -0.0424 -0.6088
2.2985 -0.0291 -0.6056
2.3063 -0.0082 -0.6065
2.3100 0.0014 -0.6074
2.3135 0.0114 -0.6067
0.5905 -4.1494 1.0072
0.6228 -4.1148 0.9075
0.7448 -3.8429 0.7606
0.8078 -3.7233 0.6510
0.8530 -3.6498 0.5523
0.9118 -3.5381 0.4503
1.1138 -3.1648 0.0825
0.9891 -3.5813 0.0067
0.9457 -3.7690 -0.0892
0.8798 -4.0315 -0.1985
0.9481 -3.8911 -0.2996
0.9655 -3.9060 -0.4084
0.9839 -3.9201 -0.5197
0.9860 -3.9884 -0.6411
1.5620 -2.2645 -0.6171
1.7335 -1.7602 -0.6245
1.7965 -1.5760 -0.6287
1.9563 -1.0875 -0.6055
1.9869 -1.0006 -0.6119
2.0131 -0.9276 -0.6199
2.0370 -0.8611 -0.6271
2.0714 -0.7452 -0.6042
2.1063 -0.6511 -0.6195
2.1227 -0.6052 -0.6239
2.1439 -0.5316 -0.6069
2.1711 -0.4523 -0.6092
2.1959 -0.3750 -0.6031
2.2148 -0.3238 -0.6108
2.2231 -0.3023 -0.6161
2.2481 -0.2234 -0.6085
2.2620 -0.1802 -0.6051
2.2680 -0.1646 -0.6085
2.2739 -0.1463 -0.6075
2.2792 -0.1340 -0.6132
2.2847 -0.1157 -0.6096
2.2898 -0.0970 -0.6040
2.2945 -0.0833 -0.6046
2.2990 -0.0699 -0.6045
2.3033 -0.0607 -0.6102
2.3113 -0.0337 -0.6048
2.3151 -0.0237 -0.6068
2.3187 -0.0133 -0.6072
2.3221 -0.0030 -0.6070
2.3253 0.0077 -0.6051
0.6173 -4.2278 1.3147
0.7548 -3.9082 1.1348
0.8465 -3.7072 0.9977
0.8301 -3.8012 0.9397
0.8288 -3.8561 0.8679
0.8893 -3.7378 0.7572
0.9042 -3.7482 0.6736
0.9341 -3.7162 0.5813
0.9920 -3.6014 0.4776
1.1165 -3.3937 0.1987
0.9383 -4.0127 0.1414
0.9390 -4.0814 0.0406
1.0052 -3.9410 -0.0650
0.9585 -4.1704 -0.1752
1.4270 -2.9904 -0.6591
1.6107 -2.3648 -0.6180
1.7776 -1.8281 -0.6254
1.8297 -1.6695 -0.6402
1.9921 -1.1161 -0.6032
2.0125 -1.0665 -0.6267
2.0705 -0.8744 -0.6212
2.0969 -0.7822 -0.6120
2.1154 -0.7255 -0.6170
2.1340 -0.6646 -0.6163
2.1508 -0.6098 -0.6158
2.1662 -0.5593 -0.6149
2.1796 -0.5164 -0.6161
2.2047 -0.4318 -0.6117
2.2152 -0.3983 -0.6126
2.2259 -0.3598 -0.6071
2.2345 -0.3346 -0.6110
2.2430 -0.3074 -0.6115
2.2513 -0.2777 -0.6076
2.2656 -0.2318 -0.6084
2.2783 -0.1904 -0.6081
2.2897 -0.1518 -0.6056
2.2948 -0.1359 -0.6067
2.2997 -0.1231 -0.6109
2.3043 -0.1035 -0.6046
2.3088 -0.0938 -0.6114
2.3129 -0.0776 -0.6075
2.3170 -0.0649 -0.6081
2.3206 -0.0499 -0.6037
2.3243 -0.0390 -0.6052
2.3279 -0.0289 -0.6073
2.3312 -0.0184 -0.6078
2.3344 -0.0080 -0.6078
0.6783 -4.4345 1.3021
0.8009 -4.1367 1.1284
0.9114 -3.9870 0.8261
1.0278 -3.6885 0.6804
1.0305 -3.7412 0.6039
0.9832 -4.2570 0.1780
1.3018 -3.8026 -0.6663
1.5311 -2.9495 -0.6270
1.6520 -2.5178 -0.6284
1.7540 -2.1463 -0.6210
1.8770 -1.7197 -0.6377
1.9829 -1.3258 -0.6200
2.0264 -1.1588 -0.6060
2.0519 -1.0767 -0.6174
2.1019 -0.9012 -0.6217
2.1263 -0.8064 -0.6127
2.1428 -0.7545 -0.6213
2.1762 -0.6333 -0.6194
2.1915 -0.5738 -0.6137
2.2032 -0.5364 -0.6194
2.2270 -0.4452 -0.6119
2.2371 -0.4073 -0.6100
2.2465 -0.3717 -0.6076
2.2622 -0.3220 -0.6156
2.2768 -0.2670 -0.6120
2.2895 -0.2177 -0.6072
2.2951 -0.1977 -0.6076
2.3005 -0.1781 -0.6071
2.3055 -0.1603 -0.6074
2.3103 -0.1435 -0.6077
2.3148 -0.1270 -0.6073
2.3190 -0.1100 -0.6051
2.3232 -0.0983 -0.6091
2.3269 -0.0805 -0.6032
2.3309 -0.0725 -0.6113
2.3342 -0.0566 -0.6060
2.3377 -0.0463 -0.6088
2.3409 -0.0348 -0.6088
2.3439 -0.0235 -0.6083
2.3470 -0.0137 -0.6096
2.3498 -0.0034 -0.6093
1.1541 -4.0684 0.1919
1.5372 -3.3566 -0.6714
1.7865 -2.3364 -0.6441
2.0895 -1.0988 -0.6130
2.1368 -0.9103 -0.6135
2.1598 -0.8068 -0.6010
2.1736 -0.7661 -0.6159
2.1857 -0.7347 -0.6340
2.2027 -0.6552 -0.6216
2.2285 -0.5472 -0.6163
2.2499 -0.4570 -0.6108
2.2595 -0.4131 -0.6048
2.2672 -0.3894 -0.6126
2.2826 -0.3233 -0.6072
2.2955 -0.2734 -0.6092
2.3070 -0.2321 -0.6138
2.3121 -0.2044 -0.6062
2.3170 -0.1846 -0.6058
2.3260 -0.1497 -0.6069
2.3303 -0.1359 -0.6104
2.3341 -0.1188 -0.6085
2.3378 -0.1034 -0.6077
2.3413 -0.0889 -0.6072
2.3450 -0.0788 -0.6122
2.3481 -0.0648 -0.6104
2.3512 -0.0523 -0.6101
2.3541 -0.0407 -0.6104
2.3566 -0.0274 -0.6066
2.3594 -0.0175 -0.6079
2.3618 -0.0065 -0.6065
2.3647 0.0012 -0.6106
1.2742 -4.0447 0.2140
1.6199 -3.4625 -0.6616
1.9768 -1.8264 -0.6327
2.1261 -1.1340 -0.6135
2.1686 -0.9484 -0.6185
2.1904 -0.8313 -0.6014
2.2032 -0.7929 -0.6183
2.2311 -0.6653 -0.6165
2.2436 -0.6031 -0.6109
2.2540 -0.5590 -0.6136
2.2729 -0.4748 -0.6140
2.2889 -0.4016 -0.6129
2.3026 -0.3365 -0.6097
2.3087 -0.3107 -0.6113
2.3144 -0.2838 -0.6102
2.3248 -0.2367 -0.6097
2.3338 -0.1934 -0.6072
2.3384 -0.1804 -0.6142
2.3420 -0.1581 -0.6087
2.3495 -0.1269 -0.6108
2.3530 -0.1128 -0.6123
2.3560 -0.0967 -0.6100
2.3584 -0.0789 -0.6037
2.3617 -0.0683 -0.6073
2.3645 -0.0564 -0.6081
2.3675 -0.0460 -0.6107
2.3697 -0.0332 -0.6082
2.3720 -0.0220 -0.6074
2.3745 -0.0121 -0.6084
2.3768 -0.0025 -0.6090
1.4154 -4.1590 0.0384
1.8195 -2.9882 -0.6492
2.0296 -1.8830 -0.6301
2.1062 -1.4866 -0.6283
2.1361 -1.3301 -0.6260
2.1622 -1.1902 -0.6215
2.1823 -1.0941 -0.6275
2.2017 -0.9924 -0.6256
2.2189 -0.8986 -0.6219
2.2351 -0.8011 -0.6108
2.2591 -0.6885 -0.6189
2.2800 -0.5658 -0.6075
2.2884 -0.5384 -0.6195
2.2966 -0.4911 -0.6157
2.3041 -0.4463 -0.6109
2.3110 -0.4156 -0.6143
2.3173 -0.3812 -0.6130
2.3232 -0.3515 -0.6135
2.3336 -0.2911 -0.6080
2.3428 -0.2444 -0.6087
2.3471 -0.2231 -0.6091
2.3514 -0.2068 -0.6136
2.3545 -0.1817 -0.6068
2.3583 -0.1659 -0.6096
2.3615 -0.1475 -0.6079
2.3650 -0.1337 -0.6112
2.3674 -0.1144 -0.6058
2.3712 -0.1054 -0.6137
2.3733 -0.0881 -0.6088
2.3755 -0.0731 -0.6062
2.3782 -0.0618 -0.6083
2.3805 -0.0494 -0.6076
2.3824 -0.0365 -0.6052
2.3853 -0.0284 -0.6103
2.3868 -0.0159 -0.6068
2.3892 -0.0074 -0.6099
1.8290 -3.6540 -0.7402
1.9371 -2.9510 -0.7059
2.0488 -2.1224 -0.6062
2.0845 -1.9421 -0.6275
2.1278 -1.6518 -0.6083
2.1522 -1.5386 -0.6291
2.1763 -1.4091 -0.6385
2.2214 -1.1099 -0.6205
2.2522 -0.9358 -0.6270
2.2662 -0.8329 -0.6151
2.2773 -0.7836 -0.6258
2.2976 -0.6390 -0.6115
2.3061 -0.5976 -0.6175
2.3139 -0.5518 -0.6182
2.3272 -0.4557 -0.6080
2.3329 -0.4130 -0.6026
2.3384 -0.3818 -0.6039
2.3532 -0.3024 -0.6096
2.3574 -0.2778 -0.6101
2.3644 -0.2268 -0.6042
2.3682 -0.2096 -0.6079
2.3707 -0.1852 -0.6021
2.3745 -0.1715 -0.6077
2.3775 -0.1544 -0.6081
2.3805 -0.1398 -0.6105
2.3833 -0.1247 -0.6113
2.3855 -0.1084 -0.6093
2.3877 -0.0938 -0.6087
2.3899 -0.0801 -0.6083
2.3914 -0.0646 -0.6041
2.3935 -0.0528 -0.6046
2.3962 -0.0438 -0.6091
2.3984 -0.0336 -0.6109
2.3991 -0.0197 -0.6051
1.5567 -4.5473 0.2125
2.0337 -2.8545 -0.6628
2.0973 -2.3450 -0.6363
2.1324 -2.1343 -0.6571
2.1794 -1.6888 -0.6024
2.2032 -1.5410 -0.6140
2.2243 -1.4041 -0.6217
2.2449 -1.2326 -0.6095
2.2595 -1.1707 -0.6312
2.2875 -0.9404 -0.6167
2.3087 -0.7881 -0.6165
2.3174 -0.7062 -0.6068
2.3259 -0.6718 -0.6201
2.3329 -0.6072 -0.6129
2.3396 -0.5610 -0.6139
2.3455 -0.5139 -0.6116
2.3508 -0.4693 -0.6082
2.3609 -0.4014 -0.6104
2.3659 -0.3769 -0.6164
2.3695 -0.3423 -0.6120
2.3728 -0.3098 -0.6073
2.3766 -0.2866 -0.6096
2.3822 -0.2344 -0.6034
2.3884 -0.1970 -0.6070
2.3932 -0.1592 -0.6053
2.3959 -0.1445 -0.6079
2.3980 -0.1278 -0.6068
2.4003 -0.1136 -0.6080
2.4031 -0.1024 -0.6126
2.4035 -0.0830 -0.6041
2.4053 -0.0701 -0.6042
2.4082 -0.0616 -0.6104
2.4099 -0.0498 -0.6106
2.4112 -0.0375 -0.6091
2.4125 -0.0261 -0.6082
2.4154 -0.0195 -0.6152
2.1168 -2.8760 -0.6433
2.1654 -2.4050 -0.6287
2.1936 -2.2420 -0.6636
2.2286 -1.8270 -0.6231
2.2698 -1.4796 -0.6314
2.2867 -1.2950 -0.6179
2.3005 -1.1436 -0.6070
2.3402 -0.7998 -0.6110
2.3482 -0.7507 -0.6200
2.3549 -0.6890 -0.6191
2.3646 -0.5581 -0.6017
2.3757 -0.4916 -0.6144
2.3796 -0.4506 -0.6122
2.3829 -0.4104 -0.6080
2.3896 -0.3467 -0.6065
2.3971 -0.3019 -0.6152
2.4014 -0.2484 -0.6092
2.4061 -0.2066 -0.6092
2.4084 -0.1882 -0.6100
2.4106 -0.1708 -0.6109
2.4112 -0.1484 -0.6043
2.4138 -0.1353 -0.6082
2.4152 -0.1188 -0.6066
2.4157 -0.1003 -0.6011
2.4185 -0.0907 -0.6072
2.4203 -0.0785 -0.6086
2.4214 -0.0650 -0.6073
2.4233 -0.0545 -0.6098
2.4248 -0.0435 -0.6108
2.4261 -0.0326 -0.6112
2.1940 -3.0817 -0.6566
2.2317 -2.6291 -0.6541
2.2603 -2.3182 -0.6614
2.3312 -1.3533 -0.6239
2.3420 -1.2128 -0.6198
2.3507 -1.0804 -0.6114
2.3602 -1.0136 -0.6243
2.3660 -0.8960 -0.6100
2.3741 -0.8473 -0.6234
2.3795 -0.7721 -0.6202
2.3839 -0.6991 -0.6139
2.3891 -0.6486 -0.6169
2.3995 -0.4977 -0.6089
2.4035 -0.4642 -0.6126
2.4064 -0.4278 -0.6121
2.4095 -0.3962 -0.6134
2.4122 -0.3659 -0.6139
2.4158 -0.3045 -0.6084
2.4181 -0.2805 -0.6093
2.4202 -0.2577 -0.6099
2.4225 -0.2377 -0.6120
2.4247 -0.2187 -0.6140
2.4251 -0.1939 -0.6080
2.4282 -0.1584 -0.6082
2.4303 -0.1444 -0.6115
2.4309 -0.1262 -0.6081
2.4330 -0.1141 -0.6120
2.4338 -0.0986 -0.6102
2.4351 -0.0855 -0.6108
2.4367 -0.0740 -0.6129
2.4374 -0.0606 -0.6113
2.4386 -0.0495 -0.6123
2.4392 -0.0372 -0.6106
2.4401 -0.0264 -0.6106
2.2811 -3.2421 -0.6595
2.3299 -2.3761 -0.6542
2.3428 -1.8704 -0.5999
2.3572 -1.7244 -0.6193
2.3771 -1.3823 -0.6192
2.3935 -1.1633 -0.6314
2.4038 -0.9559 -0.6256
2.4106 -0.7837 -0.6149
2.4184 -0.6701 -0.6189
2.4238 -0.5671 -0.6170
2.4278 -0.4779 -0.6128
2.4323 -0.4093 -0.6145
2.4360 -0.3143 -0.6085
2.4385 -0.2934 -0.6128
2.4394 -0.2672 -0.6105
2.4406 -0.2446 -0.6104
2.4426 -0.2262 -0.6134
2.4446 -0.2090 -0.6165
2.4446 -0.1866 -0.6125
2.4441 -0.1639 -0.6065
2.4462 -0.1505 -0.6108
2.4461 -0.1314 -0.6066
2.4488 -0.1214 -0.6137
2.4495 -0.1065 -0.6131
2.4510 -0.0796 -0.6131
2.4511 -0.0654 -0.6104
2.4527 -0.0555 -0.6139
2.4529 -0.0431 -0.6123
2.4546 -0.0343 -0.6161
2.3994 -2.3741 -0.6333
2.4131 -1.7750 -0.6166
2.4296 -1.4914 -0.6405
2.4368 -1.3790 -0.6521
2.4344 -1.1804 -0.6246
2.4405 -0.9791 -0.6237
2.4429 -0.8027 -0.6133
2.4479 -0.6864 -0.6175
2.4459 -0.6099 -0.6035
2.4494 -0.5737 -0.6110
2.4523 -0.4900 -0.6118
2.4543 -0.4166 -0.6108
2.4570 -0.3918 -0.6168
2.4561 -0.3540 -0.6102
2.4577 -0.2998 -0.6099
2.4605 -0.2571 -0.6145
2.4595 -0.2299 -0.6086
2.4600 -0.2094 -0.6082
2.4603 -0.1892 -0.6070
2.4621 -0.1747 -0.6112
2.4645 -0.1627 -0.6177
2.4642 -0.1442 -0.6149
2.4633 -0.1252 -0.6103
2.4631 -0.1088 -0.6077
2.4658 -0.0859 -0.6142
2.4642 -0.0688 -0.6073
2.4650 -0.0575 -0.6086
2.4669 -0.0491 -0.6140
2.4691 -2.3922 -0.6170
2.4711 -1.8272 -0.6137
2.4797 -1.5235 -0.6355
2.4757 -1.1976 -0.6177
2.4677 -1.0211 -0.5899
2.4727 -0.9637 -0.6046
2.4752 -0.8182 -0.6098
2.4762 -0.6937 -0.6109
2.4763 -0.6384 -0.6104
2.4774 -0.5928 -0.6129
2.4775 -0.5039 -0.6118
2.4768 -0.4257 -0.6084
2.4807 -0.4074 -0.6202
2.4805 -0.3751 -0.6192
2.4797 -0.3154 -0.6155
2.4783 -0.2617 -0.6104
2.4802 -0.2239 -0.6157
2.4803 -0.2043 -0.6157
2.4802 -0.1850 -0.6149
2.4779 -0.1614 -0.6074
2.4783 -0.1458 -0.6085
2.4801 -0.1342 -0.6138
2.4791 -0.1168 -0.6105
2.4787 -0.0880 -0.6089
2.4787 -0.0750 -0.6087
2.4796 -0.0643 -0.6112
2.4807 -0.0545 -0.6145
2.4821 -0.0455 -0.6185
2.5939 -3.8557 -0.6762
2.5327 -1.8959 -0.6145
2.5429 -1.8101 -0.6505
2.5324 -1.4368 -0.6424
2.5192 -1.2285 -0.6156
2.5167 -0.9517 -0.6254
2.5107 -0.7872 -0.6174
2.5090 -0.7230 -0.6165
2.5068 -0.6617 -0.6137
2.5028 -0.5162 -0.6105
2.5015 -0.4752 -0.6092
2.5014 -0.4416 -0.6112
2.4999 -0.3762 -0.6108
2.5000 -0.3493 -0.6127
2.4967 -0.2902 -0.6065
2.4973 -0.2695 -0.6094
2.4968 -0.2085 -0.6119
2.4974 -0.1922 -0.6148
2.4972 -0.1746 -0.6151
2.4952 -0.1387 -0.6114
2.4952 -0.1242 -0.6123
2.4939 -0.1077 -0.6094
2.4931 -0.0929 -0.6078
2.4920 -0.0784 -0.6056
2.4938 -0.0698 -0.6115
2.4931 -0.0571 -0.6103
2.7186 -4.0860 -0.6804
2.6453 -2.7543 -0.6476
2.5994 -1.9815 -0.6186
2.6040 -1.8636 -0.6482
2.5789 -1.4488 -0.6315
2.5616 -1.2460 -0.6085
2.5708 -1.2119 -0.6401
2.5520 -1.0325 -0.6096
2.5443 -0.8091 -0.6174
2.5434 -0.7536 -0.6223
2.5387 -0.6871 -0.6178
2.5326 -0.5806 -0.6146
2.5282 -0.4943 -0.6133
2.5236 -0.3654 -0.6175
2.5204 -0.3320 -0.6126
2.5185 -0.3041 -0.6108
2.5153 -0.2545 -0.6082
2.5149 -0.2167 -0.6124
2.5125 -0.1779 -0.6105
2.5133 -0.1643 -0.6149
2.5111 -0.1448 -0.6109
2.5085 -0.1257 -0.6059
2.5067 -0.1091 -0.6030
2.5087 -0.1001 -0.6099
2.5085 -0.0876 -0.6111
2.5076 -0.0632 -0.6119
2.5099 -0.0562 -0.6195
2.8355 -4.1683 -0.6618
2.7918 -3.5212 -0.6706
2.7347 -2.8564 -0.6446
2.7190 -2.5535 -0.6625
2.6657 -2.0426 -0.6157
2.6629 -1.8923 -0.6387
2.6287 -1.4787 -0.6264
2.6057 -1.2704 -0.6036
2.5937 -1.0041 -0.6244
2.5771 -0.8246 -0.6140
2.5657 -0.6906 -0.6092
2.5610 -0.6339 -0.6074
2.5609 -0.5971 -0.6149
2.5533 -0.5376 -0.6053
2.5560 -0.5145 -0.6178
2.5501 -0.4388 -0.6166
2.5457 -0.3758 -0.6171
2.5381 -0.3114 -0.6088
2.5369 -0.2688 -0.6141
2.5330 -0.2242 -0.6121
2.5326 -0.2068 -0.6145
2.5315 -0.1889 -0.6152
2.5306 -0.1721 -0.6161
2.5267 -0.1502 -0.6094
2.5235 -0.1179 -0.6070
2.5245 -0.0955 -0.6145
2.5226 -0.0809 -0.6120
2.5214 -0.0680 -0.6111
2.5240 -0.0616 -0.6200
2.9075 -3.6722 -0.6675
2.7843 -2.5269 -0.6360
2.7629 -2.2612 -0.6487
2.7097 -1.8532 -0.6114
2.6934 -1.6676 -0.6167
2.6776 -1.4998 -0.6182
2.6448 -1.1997 -0.6086
2.6113 -0.8440 -0.6123
2.5991 -0.7164 -0.6130
2.5866 -0.6037 -0.6089
2.5834 -0.5313 -0.6197
2.5661 -0.3810 -0.6124
2.5640 -0.3539 -0.6140
2.5566 -0.2775 -0.6140
2.5533 -0.2528 -0.6117
2.5524 -0.2342 -0.6143
2.5489 -0.2111 -0.6107
2.5495 -0.1970 -0.6161
2.5436 -0.1714 -0.6068
2.5437 -0.1579 -0.6107
2.5419 -0.1415 -0.6101
2.5411 -0.1276 -0.6118
2.5404 -0.1027 -0.6167
2.5377 -0.0872 -0.6133
2.5357 -0.0735 -0.6115
2.5354 -0.0628 -0.6136
2.8697 -2.6142 -0.6328
2.8567 -2.4154 -0.6641
2.8020 -2.0384 -0.6413
2.7711 -1.7984 -0.6375
2.7337 -1.5502 -0.6189
2.7220 -1.4256 -0.6287
2.6933 -1.2436 -0.6114
2.6466 -0.8228 -0.6253
2.6158 -0.6205 -0.6091
2.6150 -0.5873 -0.6181
2.6085 -0.5402 -0.6159
2.6053 -0.5046 -0.6192
2.5876 -0.3889 -0.6097
2.5856 -0.3633 -0.6131
2.5842 -0.3207 -0.6234
2.5772 -0.2704 -0.6211
2.5694 -0.2233 -0.6158
2.5655 -0.2011 -0.6124
2.5620 -0.1809 -0.6098
2.5597 -0.1506 -0.6137
2.5564 -0.1328 -0.6105
2.5561 -0.1205 -0.6138
2.5542 -0.1062 -0.6134
2.5540 -0.0951 -0.6168
2.5502 -0.0689 -0.6151
3.0128 -3.0971 -0.6178
2.9259 -2.4333 -0.6479
2.8414 -1.8768 -0.6421
2.8061 -1.6558 -0.6353
2.7817 -1.4905 -0.6354
2.7420 -1.2820 -0.6117
2.7241 -1.1627 -0.6111
2.7098 -1.0629 -0.6123
2.7034 -0.9946 -0.6223
2.6892 -0.9063 -0.6193
2.6814 -0.8422 -0.6238
2.6592 -0.7405 -0.6047
2.6496 -0.6796 -0.6030
2.6476 -0.6429 -0.6124
2.6431 -0.6012 -0.6168
2.6308 -0.5419 -0.6072
2.6260 -0.5043 -0.6093
2.6218 -0.4467 -0.6208
2.6011 -0.3214 -0.6151
2.5945 -0.2742 -0.6161
2.5855 -0.2268 -0.6110
2.5789 -0.1873 -0.6090
2.5780 -0.1727 -0.6123
2.5726 -0.1514 -0.6062
2.5732 -0.1403 -0.6122
2.5707 -0.1249 -0.6116
2.5674 -0.1090 -0.6092
2.5660 -0.0963 -0.6103
2.5644 -0.0838 -0.6109
2.5642 -0.0737 -0.6144
3.0473 -2.7767 -0.6212
3.0004 -2.4720 -0.6361
2.9047 -1.9180 -0.6361
2.8536 -1.6577 -0.6202
2.8257 -1.4934 -0.6216
2.7814 -1.2857 -0.5996
2.7770 -1.2174 -0.6187
2.7536 -1.0949 -0.6129
2.7419 -1.0144 -0.6187
2.6745 -0.7450 -0.5644
2.6740 -0.7109 -0.5786
2.6826 -0.7017 -0.6050
2.6830 -0.6721 -0.6194
2.6644 -0.5976 -0.6045
2.6594 -0.5338 -0.6202
2.6453 -0.4559 -0.6184
2.6340 -0.3909 -0.6183
2.6177 -0.3220 -0.6068
2.6157 -0.3015 -0.6110
2.6103 -0.2754 -0.6086
2.6092 -0.2580 -0.6135
2.6059 -0.2376 -0.6142
2.6023 -0.2175 -0.6139
2.6000 -0.2001 -0.6155
2.5914 -0.1614 -0.6106
2.5874 -0.1324 -0.6134
2.5832 -0.1050 -0.6147
2.5797 -0.0902 -0.6123
2.5816 -0.0829 -0.6204
3.0972 -2.6957 -0.5853
3.0943 -2.5774 -0.6374
3.0513 -2.3261 -0.6542
2.9533 -1.9057 -0.6159
2.8965 -1.5817 -0.6343
2.8169 -1.2277 -0.6094
2.6942 -0.7301 -0.5471
2.7028 -0.7209 -0.5736
2.7126 -0.7145 -0.6017
2.7042 -0.6376 -0.6191
2.6655 -0.4580 -0.6106
2.6544 -0.3962 -0.6135
2.6434 -0.3397 -0.6140
2.6352 -0.2926 -0.6168
2.6289 -0.2666 -0.6137
2.6247 -0.2452 -0.6137
2.6148 -0.2026 -0.6100
2.6123 -0.1862 -0.6118
2.6095 -0.1700 -0.6130
2.6033 -0.1494 -0.6074
2.6039 -0.1392 -0.6142
2.6016 -0.1253 -0.6153
2.6003 -0.1131 -0.6180
2.5976 -0.0996 -0.6180
3.1549 -2.4639 -0.6655
3.0607 -2.0806 -0.6425
2.9968 -1.8118 -0.6317
2.8745 -1.2863 -0.6173
2.7545 -0.7248 -0.6287
2.7007 -0.5110 -0.6127
2.6874 -0.4439 -0.6167
2.6777 -0.4068 -0.6130
2.6568 -0.3186 -0.6096
2.6462 -0.2711 -0.6096
2.6426 -0.2512 -0.6115
2.6397 -0.2333 -0.6143
2.6361 -0.2148 -0.6154
2.6333 -0.1982 -0.6176
2.6257 -0.1755 -0.6114
2.6207 -0.1571 -0.6090
2.6171 -0.1413 -0.6088
2.6174 -0.1312 -0.6152
2.6098 -0.1015 -0.6126
2.6109 -0.0934 -0.6199
3.6714 -4.2412 -0.6847
3.4649 -3.4349 -0.6649
3.2100 -2.4395 -0.6402
3.1099 -2.0647 -0.6209
3.0460 -1.8132 -0.6158
2.9626 -1.4691 -0.6190
2.8553 -1.1005 -0.5782
2.7423 -0.7566 -0.5088
2.7859 -0.7673 -0.6088
2.7827 -0.7321 -0.6221
2.7463 -0.6060 -0.6092
2.7314 -0.5316 -0.6174
2.7064 -0.4450 -0.6083
2.6953 -0.3894 -0.6147
2.6843 -0.3381 -0.6186
2.6772 -0.3113 -0.6173
2.6691 -0.2841 -0.6139
2.6628 -0.2606 -0.6127
2.6568 -0.2384 -0.6113
2.6522 -0.2190 -0.6117
2.6473 -0.1998 -0.6111
2.6415 -0.1802 -0.6088
2.6372 -0.1633 -0.6085
2.6291 -0.1318 -0.6077
2.6266 -0.1187 -0.6094
2.6239 -0.1058 -0.6106
4.3081 0.0969 0.3110
4.3120 0.0590 0.3179
4.2686 0.0379 0.3135
4.2053 0.0258 0.3040
4.2071 -0.0127 0.3106
4.1818 -0.0401 0.3105
4.1780 -0.0780 0.3160
4.1795 -0.1200 0.3231
4.1858 -0.1664 0.3319
4.2306 -0.2374 0.3516
4.2393 -0.2909 0.3620
4.2354 -0.3387 0.3691
3.6062 -0.0875 0.2137
3.5747 -0.0958 0.2094
3.5542 -0.1132 0.2085
3.5664 -0.1630 0.2188
3.5430 -0.1786 0.2172
3.5021 -0.1745 0.2091
3.4724 -0.1808 0.2047
3.3944 -0.2056 0.1946
3.3715 -0.2160 0.1921
3.3589 -0.2409 0.1939
3.3345 -0.2480 0.1906
3.3194 -0.2692 0.1914
3.3007 -0.2845 0.1905
3.2981 -0.3294 0.1974
3.2980 -0.4393 0.2153
3.2822 -0.4660 0.2168
3.1007 -0.1962 0.1397
3.0813 -0.1931 0.1357
3.0620 -0.1882 0.1314
3.0542 -0.2176 0.1348
5.9715 0.4540 0.4972
5.8491 0.4127 0.4832
5.8462 0.3647 0.4898
5.5821 0.2935 0.4570
4.0922 0.3893 0.1982
4.1003 0.2857 0.2148
4.0750 0.2648 0.2137
4.0546 0.2426 0.2136
4.1494 -0.0220 0.2683
4.1766 -0.0744 0.2804
4.1508 -0.1023 0.2803
4.1849 -0.1632 0.2949
4.2051 -0.2199 0.3066
4.2320 -0.2839 0.3205
4.2279 -0.3316 0.3268
3.6381 -0.1525 0.2035
3.5299 -0.1654 0.1877
3.5092 -0.1831 0.1869
3.4722 -0.1815 0.1806
3.4431 -0.1873 0.1767
3.4139 -0.1917 0.1725
3.3874 -0.1980 0.1691
3.3659 -0.2101 0.1673
3.3489 -0.2284 0.1673
3.3302 -0.2439 0.1665
3.3122 -0.2602 0.1659
3.3032 -0.2924 0.1692
3.2915 -0.3211 0.1715
3.2936 -0.3782 0.1803
3.0961 -0.1896 0.1200
3.0755 -0.1830 0.1157
3.0591 -0.1863 0.1135
3.0524 -0.2193 0.1172
5.9549 0.2618 0.4619
4.1065 0.4147 0.1708
4.1313 0.3618 0.1814
4.1236 0.3376 0.1834
4.0579 0.2728 0.1823
4.1234 -0.0853 0.2389
4.1898 -0.1632 0.2589
4.1913 -0.2093 0.2652
4.2058 -0.2654 0.2747
4.2535 -0.3460 0.2923
3.5439 -0.1806 0.1665
3.5067 -0.1811 0.1611
3.4234 -0.1645 0.1467
3.3954 -0.1693 0.1432
3.3811 -0.1912 0.1440
3.3616 -0.2060 0.1431
3.3373 -0.2132 0.1405
3.3247 -0.2379 0.1419
3.3148 -0.2678 0.1443
3.2988 -0.2883 0.1447
3.0910 -0.1818 0.1002
3.0767 -0.1926 0.0995
3.0570 -0.1868 0.0959
3.0476 -0.2114 0.0977
4.1425 0.3891 0.1521
4.1300 0.3660 0.1531
4.1098 0.3441 0.1530
4.0982 0.3204 0.1542
4.0778 0.2984 0.1542
4.0611 0.2755 0.1546
4.1486 -0.0955 0.2086
4.1712 -0.1503 0.2178
4.1843 -0.2027 0.2255
4.2172 -0.2700 0.2375
4.2532 -0.3435 0.2505
4.2416 -0.7634 0.2973
3.5309 -0.1674 0.1372
3.4731 -0.1446 0.1271
3.4412 -0.1474 0.1234
3.4081 -0.1469 0.1190
3.3851 -0.1574 0.1173
3.3651 -0.1712 0.1163
3.3441 -0.1829 0.1149
3.3263 -0.1990 0.1145
3.3151 -0.2254 0.1161
3.3000 -0.2941 0.1220
3.2918 -0.3299 0.1251
3.1083 -0.1833 0.0846
3.0906 -0.1866 0.0827
3.0718 -0.1849 0.0801
3.0572 -0.1943 0.0793
3.0454 -0.2119 0.0798
4.1450 0.3927 0.1243
4.1248 0.3709 0.1242
4.1084 0.3483 0.1246
4.0966 0.3245 0.1256
4.0763 0.3025 0.1255
4.0524 0.2813 0.1250
4.1006 -0.0680 0.1647
4.1760 -0.1501 0.1811
4.1772 -0.1960 0.1858
4.2349 -0.2784 0.2002
4.2728 -0.3539 0.2119
4.4012 -0.4966 0.2401
3.5040 -0.1397 0.1056
3.4578 -0.1284 0.0993
3.4270 -0.1318 0.0963
3.3976 -0.1353 0.0934
3.3789 -0.1508 0.0928
3.3538 -0.1575 0.0907
3.3361 -0.1736 0.0903
3.3251 -0.1996 0.0916
3.3045 -0.2110 0.0905
3.3021 -0.2529 0.0943
3.2929 -0.2850 0.0965
3.1074 -0.1867 0.0662
3.0885 -0.1868 0.0641
3.0708 -0.1886 0.0624
3.0543 -0.1923 0.0609
4.1526 0.3956 0.0967
4.1235 0.3751 0.0957
4.1118 0.3515 0.0965
4.0830 0.3312 0.0955
4.0675 0.3082 0.0960
4.0472 0.2862 0.0959
4.1825 -0.1964 0.1477
4.2542 -0.2876 0.1618
4.2441 -0.3331 0.1646
3.9114 -0.4510 0.1434
3.4803 -0.1153 0.0761
3.4469 -0.1170 0.0731
3.4213 -0.1260 0.0715
3.3934 -0.1312 0.0693
3.3674 -0.1374 0.0674
3.3541 -0.1597 0.0680
3.3276 -0.1634 0.0659
3.3089 -0.1773 0.0653
3.2849 -0.2268 0.0671
3.2820 -0.2691 0.0703
3.1202 -0.1752 0.0476
3.1014 -0.1768 0.0460
3.0892 -0.1948 0.0463
3.0663 -0.1820 0.0432
3.0473 -0.1776 0.0411
3.0374 -0.2009 0.0420
3.0314 -0.2402 0.0447
4.1562 0.3992 0.0683
4.1233 0.3791 0.0671
4.1030 0.3571 0.0670
4.0742 0.3368 0.0662
4.0469 0.3166 0.0655
4.0537 0.2881 0.0678
4.1346 0.2078 0.0790
4.1503 -0.0877 0.0992
4.1679 -0.1402 0.1039
4.1932 -0.1999 0.1096
4.2402 -0.2765 0.1181
4.2436 -0.3304 0.1218
4.1804 -0.3413 0.1178
3.9671 -0.3391 0.1019
3.9167 -0.3486 0.0987
3.8690 -0.3583 0.0958
3.5294 -0.1276 0.0558
3.4889 -0.1248 0.0526
3.4390 -0.1090 0.0478
3.4149 -0.1195 0.0467
3.3918 -0.1305 0.0457
3.3665 -0.1377 0.0443
3.3480 -0.1531 0.0439
3.3235 -0.1594 0.0425
3.3203 -0.1971 0.0447
3.2961 -0.2031 0.0433
3.2818 -0.2248 0.0437
3.2691 -0.2495 0.0443
3.2654 -0.2924 0.0468
3.2667 -0.3485 0.0505
3.1203 -0.1805 0.0288
3.1014 -0.1824 0.0275
3.0805 -0.1770 0.0256
3.0641 -0.1823 0.0248
3.0496 -0.1919 0.0243
3.0417 -0.2237 0.0258
3.0317 -0.2502 0.0267
2.9545 -0.4738 0.0354
2.9404 -0.4998 0.0361
2.9263 -0.5276 0.0368
4.1724 0.4010 0.0402
4.1305 0.3819 0.0388
4.0929 0.3629 0.0376
4.1151 0.1860 0.0472
4.1329 -0.0760 0.0606
4.1781 -0.1429 0.0662
4.2167 -0.2107 0.0716
4.2801 -0.2982 0.0792
4.2453 -0.4997 0.0868
3.5306 -0.1290 0.0297
3.4843 -0.1205 0.0267
3.4466 -0.1181 0.0245
3.4092 -0.1138 0.0222
3.3636 -0.1354 0.0207
3.3413 -0.1457 0.0200
3.3236 -0.1617 0.0197
3.3060 -0.1777 0.0195
3.2930 -0.2010 0.0199
3.2804 -0.2255 0.0203
3.2651 -0.2962 0.0228
3.2725 -0.3654 0.0265
3.1311 -0.1633 0.0091
3.1155 -0.1740 0.0088
3.0996 -0.1835 0.0083
3.0823 -0.1883 0.0076
3.0608 -0.1792 0.0060
3.0477 -0.1934 0.0059
3.0397 -0.2252 0.0070
3.0308 -0.2565 0.0080
2.9530 -0.4875 0.0146
2.9379 -0.5070 0.0146
2.9236 -0.5349 0.0152
2.9076 -0.5491 0.0149
4.1583 0.4073 0.0101
4.1463 0.3835 0.0103
3.7843 0.4027 -0.0035
4.1410 0.2135 0.0152
4.1639 -0.0887 0.0250
4.1711 -0.1362 0.0267
4.1843 -0.1895 0.0287
4.6775 -0.6040 0.0591
4.4351 -0.7131 0.0535
3.5428 -0.1415 0.0039
3.4740 -0.1101 0.0004
3.4386 -0.1100 -0.0009
3.4082 -0.1137 -0.0019
3.3806 -0.1191 -0.0027
3.3619 -0.1348 -0.0029
3.3371 -0.1417 -0.0036
3.3152 -0.1516 -0.0041
3.3018 -0.1738 -0.0040
3.2877 -0.1952 -0.0038
3.2734 -0.2168 -0.0037
3.2617 -0.2434 -0.0034
3.2521 -0.2753 -0.0028
3.1312 -0.1683 -0.0104
3.1111 -0.1686 -0.0111
3.0961 -0.1802 -0.0113
3.0773 -0.1806 -0.0120
3.0590 -0.1805 -0.0126
3.0443 -0.1902 -0.0129
3.0420 -0.2419 -0.0114
3.0257 -0.2472 -0.0119
2.9510 -0.4972 -0.0072
2.9353 -0.5142 -0.0072
2.9222 -0.5559 -0.0065
4.1705 0.4098 -0.0193
4.1582 0.3858 -0.0192
4.1399 0.2486 -0.0178
4.1340 0.0102 -0.0151
4.1193 -0.0225 -0.0149
4.1465 -0.0769 -0.0138
4.1876 -0.1422 -0.0123
4.2020 -0.1968 -0.0114
5.1675 -1.0043 0.0151
3.4694 -0.1057 -0.0252
3.4376 -0.1097 -0.0257
3.4039 -0.1096 -0.0263
3.3776 -0.1167 -0.0267
3.3596 -0.1333 -0.0268
3.3397 -0.1472 -0.0270
3.3129 -0.1503 -0.0274
3.2977 -0.1698 -0.0274
3.2709 -0.2157 -0.0273
3.2611 -0.2461 -0.0271
3.2422 -0.2604 -0.0273
3.1477 -0.1630 -0.0301
3.1240 -0.1566 -0.0306
3.1038 -0.1557 -0.0310
3.0910 -0.1726 -0.0310
3.0754 -0.1818 -0.0311
3.0560 -0.1785 -0.0315
3.0424 -0.1916 -0.0316
3.0388 -0.2398 -0.0311
3.0248 -0.2535 -0.0312
2.9480 -0.5014 -0.0295
2.9335 -0.5293 -0.0294
4.2298 0.4061 -0.0495
4.1498 0.3648 -0.0495
4.1434 0.0093 -0.0516
4.1225 -0.0209 -0.0518
4.1560 -0.0787 -0.0522
4.1692 -0.1295 -0.0525
4.1946 -0.1898 -0.0529
3.4864 -0.0857 -0.0508
3.4613 -0.0977 -0.0508
3.4297 -0.1016 -0.0508
3.4089 -0.1166 -0.0508
3.3805 -0.1216 -0.0508
3.3591 -0.1342 -0.0508
3.2475 -0.2249 -0.0511
3.2270 -0.2350 -0.0512
3.1737 -0.1760 -0.0507
3.1464 -0.1647 -0.0506
3.1201 -0.1522 -0.0505
3.1050 -0.1641 -0.0505
3.0879 -0.1704 -0.0505
3.0697 -0.1720 -0.0505
3.0559 -0.1854 -0.0505
3.0394 -0.1896 -0.0505
3.0344 -0.2330 -0.0508
3.0241 -0.2608 -0.0509
2.9289 -0.5201 -0.0522
2.9141 -0.5482 -0.0524
4.2023 0.3876 -0.0810
4.1755 0.3646 -0.0810
4.1537 0.3409 -0.0811
4.1693 0.2796 -0.0829
4.1418 0.0133 -0.0887
4.1480 -0.0297 -0.0899
4.1491 -0.0722 -0.0909
4.1622 -0.1228 -0.0924
4.2065 -0.1937 -0.0951
4.7948 -0.6691 -0.1193
5.0682 -0.9301 -0.1316
3.5749 -0.0558 -0.0780
3.5095 -0.0710 -0.0770
3.4804 -0.0799 -0.0765
3.4498 -0.0860 -0.0760
3.4205 -0.0921 -0.0755
3.4059 -0.1140 -0.0757
3.3691 -0.1087 -0.0748
3.1604 -0.1526 -0.0713
3.1345 -0.1430 -0.0705
3.1179 -0.1520 -0.0704
3.1014 -0.1607 -0.0702
3.0877 -0.1757 -0.0703
3.0716 -0.1841 -0.0702
3.0514 -0.1788 -0.0696
3.0401 -0.2001 -0.0699
3.0328 -0.2366 -0.0706
3.0199 -0.2551 -0.0707
2.9103 -0.5471 -0.0754
4.2581 0.4115 -0.1142
4.1351 0.2916 -0.1142
4.1183 0.2660 -0.1146
4.1090 0.2379 -0.1154
4.1273 0.2010 -0.1177
4.1336 0.1659 -0.1195
4.1284 0.1333 -0.1206
4.1389 0.0938 -0.1227
4.1400 0.0561 -0.1244
4.1569 0.0101 -0.1271
3.5803 0.0107 -0.1030
3.5684 -0.0142 -0.1035
3.5546 -0.0382 -0.1040
3.5216 -0.0454 -0.1029
3.5034 -0.0652 -0.1030
3.4737 -0.0734 -0.1021
3.4488 -0.0855 -0.1016
3.4290 -0.1024 -0.1015
3.3909 -0.0973 -0.0997
3.1811 -0.1092 -0.0914
3.1736 -0.1382 -0.0923
3.1525 -0.1402 -0.0915
3.1148 -0.1497 -0.0904
3.0984 -0.1585 -0.0901
3.0853 -0.1756 -0.0902
3.0685 -0.1819 -0.0898
3.0495 -0.1800 -0.0889
3.0377 -0.2002 -0.0893
3.0271 -0.2252 -0.0899
3.0164 -0.2518 -0.0906
2.9947 -0.5027 -0.1004
2.8914 -0.5772 -0.0992
2.8769 -0.6228 -0.1005
4.3433 0.4054 -0.1529
4.2215 0.3657 -0.1478
4.2255 0.3061 -0.1517
4.1637 0.1247 -0.1589
4.1715 0.0469 -0.1642
4.1797 -0.0379 -0.1698
3.6238 0.0137 -0.1323
3.5910 0.0035 -0.1309
3.5660 -0.0117 -0.1302
3.5475 -0.0318 -0.1303
3.5147 -0.0390 -0.1287
3.4988 -0.0608 -0.1291
3.4820 -0.0820 -0.1293
3.4568 -0.0944 -0.1285
3.1669 -0.0860 -0.1101
3.1617 -0.1184 -0.1117
3.1474 -0.1338 -0.1118
3.1287 -0.1393 -0.1110
3.1112 -0.1463 -0.1103
3.0961 -0.1583 -0.1101
3.0818 -0.1723 -0.1101
3.0657 -0.1807 -0.1096
3.0446 -0.1724 -0.1078
3.0343 -0.1970 -0.1086
3.0286 -0.2403 -0.1109
3.0146 -0.2555 -0.1110
2.9996 -0.2658 -0.1107
3.0167 -0.5297 -0.1279
2.9918 -0.5062 -0.1249
2.9745 -0.5219 -0.1248
2.9569 -0.5350 -0.1245
2.9052 -0.5732 -0.1236
2.8891 -0.5980 -0.1242
4.2132 0.3995 -0.1779
4.1908 0.3752 -0.1780
4.2023 0.3448 -0.1814
4.2046 0.3148 -0.1840
4.1878 0.2567 -0.1873
4.1944 0.2226 -0.1905
4.1700 0.1961 -0.1907
4.1708 0.1616 -0.1935
4.2275 0.0281 -0.2088
4.2303 -0.0146 -0.2125
4.2330 -0.0590 -0.2163
3.5868 0.0411 -0.1550
3.5622 0.0262 -0.1542
3.5441 0.0065 -0.1542
3.5405 -0.0254 -0.1565
3.5101 -0.0347 -0.1547
3.4883 -0.0509 -0.1543
3.4773 -0.0776 -0.1555
3.1633 -0.0428 -0.1268
3.1614 -0.0789 -0.1296
3.1595 -0.1178 -0.1325
3.1424 -0.1275 -0.1319
3.1265 -0.1389 -0.1315
3.1089 -0.1460 -0.1306
3.0921 -0.1539 -0.1299
3.0783 -0.1689 -0.1299
3.0582 -0.1656 -0.1280
3.0426 -0.1736 -0.1273
3.0318 -0.1971 -0.1283
3.0272 -0.2449 -0.1318
3.0108 -0.2509 -0.1309
3.0050 -0.4875 -0.1494
2.9875 -0.5021 -0.1491
2.9542 -0.5425 -0.1496
2.9413 -0.5949 -0.1527
2.9232 -0.6072 -0.1522
4.2579 0.3978 -0.2159
4.2889 0.3023 -0.2286
4.2988 0.2676 -0.2330
3.6572 0.0608 -0.1874
3.6289 0.0462 -0.1859
3.5888 0.0408 -0.1823
3.5687 0.0221 -0.1821
3.5504 0.0022 -0.1822
3.5381 -0.0228 -0.1834
3.5151 -0.0389 -0.1826
3.4989 -0.0609 -0.1831
3.4635 -0.0640 -0.1798
3.2454 0.0721 -0.1438
3.2197 0.0735 -0.1410
3.1488 0.0159 -0.1394
3.1527 -0.0269 -0.1440
3.1601 -0.1229 -0.1543
3.1484 -0.1445 -0.1552
3.1229 -0.1355 -0.1517
3.1041 -0.1396 -0.1502
3.0890 -0.1516 -0.1498
3.0763 -0.1698 -0.1503
3.0609 -0.1806 -0.1498
3.0399 -0.1726 -0.1468
3.0284 -0.1938 -0.1478
3.0245 -0.2450 -0.1524
3.0112 -0.2638 -0.1529
2.9967 -0.2780 -0.1528
2.9689 -0.5340 -0.1754
2.9518 -0.5526 -0.1754
2.9340 -0.5660 -0.1749
2.9166 -0.5805 -0.1746
2.8993 -0.5962 -0.1744
4.3779 0.2193 -0.2866
4.7972 -0.0795 -0.3741
4.9176 -0.1778 -0.4007
4.9433 -0.2475 -0.4122
5.0756 -0.3663 -0.4427
5.3677 -0.5684 -0.5029
5.2009 -0.5685 -0.4822
3.6575 0.0622 -0.2158
3.6191 0.0541 -0.2120
3.6003 0.0337 -0.2120
3.5728 0.0199 -0.2103
3.5457 0.0066 -0.2085
3.5153 -0.0031 -0.2058
3.5090 -0.0332 -0.2086
3.4770 -0.0402 -0.2055
3.4331 -0.0338 -0.1993
3.3859 -0.0209 -0.1919
3.2849 0.0561 -0.1702
3.2433 0.0737 -0.1630
3.2158 0.0774 -0.1591
3.1946 0.0748 -0.1568
3.1797 0.0646 -0.1562
3.1651 0.0545 -0.1555
3.1555 0.0368 -0.1564
3.1525 0.0074 -0.1596
3.1595 -0.0418 -0.1663
3.1680 -0.0982 -0.1740
3.1602 -0.1270 -0.1765
3.1379 -0.1265 -0.1736
3.1188 -0.1311 -0.1718
3.1018 -0.1393 -0.1707
3.0879 -0.1545 -0.1707
3.0757 -0.1749 -0.1716
3.0553 -0.1708 -0.1686
3.0385 -0.1759 -0.1671
3.0281 -0.2017 -0.1689
3.0218 -0.2450 -0.1732
3.0090 -0.2661 -0.1742
2.9926 -0.2723 -0.1729
3.0000 -0.4988 -0.2006
2.9705 -0.5701 -0.2054
2.9093 -0.7704 -0.2216
4.5307 0.1878 -0.3543
4.4855 0.1590 -0.3517
4.3552 0.1554 -0.3333
4.9476 -0.1245 -0.4582
4.8944 -0.1633 -0.4558
4.9739 -0.2537 -0.4799
5.0335 -0.3425 -0.5008
5.1841 -0.4788 -0.5416
5.1533 -0.5397 -0.5455
3.6874 0.0785 -0.2468
3.6424 0.0732 -0.2409
3.6193 0.0553 -0.2400
3.5839 0.0126 -0.2408
3.5125 0.0337 -0.2275
3.2800 0.0610 -0.1899
3.2374 0.0799 -0.1811
3.2199 0.0711 -0.1798
3.1980 0.0690 -0.1769
3.1818 0.0602 -0.1757
3.1692 0.0465 -0.1758
3.1610 0.0260 -0.1774
3.1508 0.0078 -0.1785
3.1616 -0.0485 -0.1878
3.1745 -0.1141 -0.1988
3.1518 -0.1141 -0.1955
3.1329 -0.1201 -0.1935
3.1144 -0.1257 -0.1916
3.1011 -0.1430 -0.1921
3.0909 -0.1686 -0.1941
3.0748 -0.1788 -0.1932
3.0532 -0.1718 -0.1891
3.0361 -0.1759 -0.1872
3.0237 -0.1951 -0.1880
3.0194 -0.2461 -0.1944
3.0045 -0.2593 -0.1941
2.9898 -0.2724 -0.1938
2.9808 -0.6699 -0.2474
2.9425 -0.7157 -0.2482
5.8936 0.2604 -0.6163
5.9145 0.1982 -0.6296
5.7734 0.1574 -0.6125
5.7248 0.1047 -0.6127
5.5927 0.0679 -0.5964
4.5732 0.1832 -0.4078
4.4404 0.1759 -0.3868
4.3681 0.1564 -0.3778
4.8604 -0.0890 -0.4989
4.9100 -0.1631 -0.5189
4.8959 -0.2172 -0.5251
4.9352 -0.2954 -0.5440
4.9928 -0.3867 -0.5681
5.0895 -0.5032 -0.6027
5.0096 -0.5381 -0.5948
3.6553 0.0667 -0.2729
3.6186 0.0571 -0.2682
3.6069 0.0314 -0.2703
3.5995 0.0019 -0.2738
3.6405 -0.0672 -0.2916
3.6523 -0.1176 -0.3015
3.3333 0.0340 -0.2242
3.2817 0.0585 -0.2117
3.2429 0.0725 -0.2030
3.2197 0.0704 -0.1995
3.2019 0.0625 -0.1977
3.1849 0.0542 -0.1962
3.1732 0.0387 -0.1967
3.1652 0.0171 -0.1988
3.1595 -0.0093 -0.2020
3.1674 -0.1041 -0.2184
3.1495 -0.1134 -0.2168
3.1302 -0.1186 -0.2144
3.1171 -0.1371 -0.2152
3.0988 -0.1426 -0.2130
3.0865 -0.1631 -0.2142
3.0715 -0.1764 -0.2138
3.0517 -0.1749 -0.2102
3.0346 -0.1791 -0.2080
3.0236 -0.2039 -0.2101
3.0181 -0.2516 -0.2167
3.0017 -0.2593 -0.2152
2.9874 -0.2748 -0.2153
3.0165 -0.7793 -0.2999
3.1113 -2.8983 -0.6510
3.0564 -2.8989 -0.6419
3.0078 -2.9802 -0.6467
2.9598 -3.0926 -0.6564
5.5209 0.3613 -0.6025
5.4962 0.3132 -0.6064
5.4356 0.2689 -0.6028
5.3930 0.2228 -0.6030
5.3333 0.1794 -0.5995
5.2753 0.1365 -0.5961
4.4112 0.2265 -0.4168
4.3563 0.2026 -0.4107
4.3148 0.1762 -0.4075
4.2872 0.1463 -0.4076
4.3241 0.0949 -0.4238
4.3507 0.0438 -0.4379
4.8417 -0.3134 -0.5944
4.7743 -0.3464 -0.5876
4.8636 -0.4580 -0.6244
4.7670 -0.4770 -0.6095
3.6383 0.0455 -0.3030
3.6267 0.0186 -0.3056
3.6218 -0.0138 -0.3104
3.6268 -0.0556 -0.3188
3.6438 -0.1099 -0.3317
3.3308 0.0362 -0.2465
3.2729 0.0677 -0.2300
3.2470 0.0668 -0.2252
3.2279 0.0589 -0.2230
3.2057 0.0562 -0.2193
3.1902 0.0452 -0.2183
3.1826 0.0227 -0.2209
3.1656 -0.1043 -0.2403
3.1436 -0.1053 -0.2364
3.1265 -0.1152 -0.2349
3.1156 -0.1385 -0.2370
3.0983 -0.1472 -0.2353
3.0848 -0.1647 -0.2359
3.0668 -0.1699 -0.2334
3.0479 -0.1705 -0.2299
3.0311 -0.1758 -0.2277
3.0237 -0.2138 -0.2331
3.0144 -0.2481 -0.2374
2.9999 -0.2638 -0.2375
2.9860 -0.2818 -0.2381
3.0405 -0.7978 -0.3404
3.0168 -0.8121 -0.3385
3.1083 -2.4286 -0.6442
3.0708 -2.5648 -0.6614
3.0199 -2.5472 -0.6486
2.9699 -2.5100 -0.6326
5.3123 0.3882 -0.6184
5.2584 0.3469 -0.6152
5.2485 0.3008 -0.6223
5.1938 0.2598 -0.6189
5.0326 0.2368 -0.5894
4.3835 0.2380 -0.4521
4.3290 0.2144 -0.4453
4.2526 0.1981 -0.4324
4.2198 0.1711 -0.4308
4.2919 0.0267 -0.4748
4.2404 -0.0405 -0.4773
4.5515 -0.4191 -0.6183
3.6562 -0.0385 -0.3535
3.6381 -0.0637 -0.3547
3.6471 -0.1121 -0.3662
3.6481 -0.1563 -0.3752
3.3329 0.0336 -0.2708
3.2777 0.0617 -0.2536
3.2510 0.0611 -0.2481
3.2299 0.0553 -0.2448
3.2076 0.0523 -0.2407
3.1993 0.0306 -0.2432
3.1586 -0.0944 -0.2595
3.1417 -0.1055 -0.2581
3.1233 -0.1127 -0.2557
3.1103 -0.1311 -0.2566
3.0974 -0.1507 -0.2578
3.0804 -0.1593 -0.2559
3.0650 -0.1717 -0.2551
3.0285 -0.1757 -0.2482
3.0183 -0.2038 -0.2516
3.0129 -0.2536 -0.2604
2.9957 -0.2581 -0.2576
2.9837 -0.2852 -0.2605
3.0270 -0.7458 -0.3613
3.0050 -0.7654 -0.3605
3.0759 -2.2052 -0.6619
3.0268 -2.1620 -0.6429
2.9829 -2.1543 -0.6321
2.9423 -2.1799 -0.6286
5.0450 0.3766 -0.6195
4.9505 0.3446 -0.6044
4.6553 0.3428 -0.5358
4.3155 0.3265 -0.4600
4.4033 0.2386 -0.4998
4.4181 0.1970 -0.5124
4.2945 0.1912 -0.4848
4.2019 0.1809 -0.4654
4.1816 0.1504 -0.4674
4.4648 0.0125 -0.5639
4.5361 -0.0623 -0.5970
4.5016 -0.0996 -0.5971
4.4588 -0.1333 -0.5945
4.4245 -0.1705 -0.5946
4.3575 -0.1911 -0.5835
4.2347 -0.1791 -0.5522
4.3622 -0.3056 -0.6098
4.3270 -0.3438 -0.6099
3.6695 -0.0878 -0.4000
3.6650 -0.1265 -0.4074
3.6631 -0.1693 -0.4164
3.3316 0.0345 -0.2941
3.2862 0.0514 -0.2798
3.2592 0.0504 -0.2737
3.2233 0.0297 -0.2699
3.2121 0.0106 -0.2715
3.2235 -0.0432 -0.2860
3.1549 -0.0909 -0.2804
3.1407 -0.1076 -0.2807
3.1269 -0.1253 -0.2814
3.1094 -0.1344 -0.2793
3.0957 -0.1521 -0.2800
3.0819 -0.1699 -0.2807
3.0677 -0.1868 -0.2811
3.0421 -0.1680 -0.2710
3.0269 -0.1788 -0.2698
3.0156 -0.2037 -0.2726
3.0109 -0.2567 -0.2832
2.9913 -0.2512 -0.2774
3.0566 -0.7913 -0.4113
3.0231 -0.7502 -0.3944
3.0008 -0.7687 -0.3933
2.9958 -1.8890 -0.6382
2.9205 -1.9255 -0.6287
4.8877 0.4386 -0.6202
4.8440 0.4038 -0.6174
4.7714 0.3727 -0.6063
4.3349 0.3609 -0.4971
4.4114 0.2789 -0.5365
4.4538 0.2326 -0.5585
4.4243 0.2007 -0.5586
4.3887 0.1704 -0.5568
4.2357 0.1752 -0.5164
4.1371 0.1690 -0.4926
4.4241 -0.0149 -0.6104
4.4413 -0.0703 -0.6282
4.3914 -0.0993 -0.6224
4.3664 -0.1389 -0.6255
4.2654 -0.1407 -0.6000
4.2336 -0.1752 -0.6002
4.2296 -0.2257 -0.6113
4.2333 -0.2831 -0.6261
4.1719 -0.3007 -0.6146
4.1260 -0.3267 -0.6090
3.6636 -0.1695 -0.4525
3.3699 0.0281 -0.3296
3.3289 0.0368 -0.3170
3.2976 0.0378 -0.3087
3.2666 0.0406 -0.3001
3.2539 0.0226 -0.3012
3.3650 -0.2610 -0.3979
3.1576 -0.0999 -0.3060
3.1343 -0.0986 -0.2997
3.1241 -0.1237 -0.3031
3.1102 -0.1415 -0.3038
3.0939 -0.1535 -0.3025
3.0775 -0.1644 -0.3009
3.0622 -0.1781 -0.3003
3.0399 -0.1688 -0.2923
3.0243 -0.1787 -0.2907
3.0135 -0.2058 -0.2945
3.0055 -0.2466 -0.3022
3.0424 -0.7391 -0.4303
2.9903 -0.7285 -0.4144
2.9667 -0.7303 -0.4088
2.9396 -1.7479 -0.6468
2.9039 -1.7489 -0.6379
4.7139 0.4588 -0.6181
4.4966 0.3414 -0.5881
4.5219 0.3007 -0.6059
4.4845 0.2699 -0.6035
4.4325 0.2427 -0.5961
4.4106 0.2093 -0.5987
4.3812 0.1774 -0.5988
4.2974 0.1616 -0.5795
4.2255 0.1448 -0.5638
4.0506 0.1662 -0.5093
4.2371 0.0601 -0.5893
4.2213 0.0236 -0.5944
4.1922 -0.0079 -0.5945
4.1810 -0.0479 -0.6019
4.1279 -0.0679 -0.5923
4.0929 -0.0961 -0.5899
4.0875 -0.1408 -0.6001
4.0581 -0.1727 -0.6002
4.0455 -0.2155 -0.6079
3.9994 -0.2363 -0.6005
3.9647 -0.2642 -0.5981
3.8821 -0.2538 -0.5722
3.7827 -0.2240 -0.5366
3.4415 -0.0067 -0.3842
3.3353 0.0295 -0.3450
3.3032 0.0308 -0.3357
3.2800 0.0237 -0.3311
3.3761 -0.2288 -0.4242
3.3631 -0.2610 -0.4289
3.3413 -0.2805 -0.4279
3.3295 -0.3168 -0.4342
3.1341 -0.1024 -0.3233
3.1216 -0.1230 -0.3252
3.1104 -0.1475 -0.3285
3.0894 -0.1481 -0.3228
3.0727 -0.1579 -0.3207
3.0575 -0.1716 -0.3200
3.0376 -0.1696 -0.3139
3.0247 -0.1891 -0.3154
3.0130 -0.2143 -0.3188
3.0018 -0.2431 -0.3232
2.9894 -0.2690 -0.3265
2.9838 -0.7150 -0.4419
2.9630 -0.7376 -0.4419
2.9202 -0.7700 -0.4385
2.9005 -0.8053 -0.4422
2.8812 -0.8553 -0.4499
4.4954 0.3825 -0.6216
4.4669 0.3517 -0.6217
4.4253 0.3231 -0.6172
4.3830 0.2952 -0.6123
4.3487 0.2662 -0.6101
4.3406 0.2313 -0.6176
4.3124 0.2007 -0.6177
4.2771 0.1722 -0.6151
4.2126 0.1533 -0.6009
4.0077 0.1847 -0.5298
4.1635 0.0918 -0.6035
4.1768 0.0455 -0.6206
4.1485 0.0148 -0.6207
4.1148 -0.0134 -0.6185
4.0753 -0.0383 -0.6136
4.0422 -0.0659 -0.6114
4.0243 -0.1018 -0.6162
3.9913 -0.1293 -0.6140
3.9784 -0.1694 -0.6215
3.9400 -0.1931 -0.6166
3.8976 -0.2130 -0.6093
3.8220 -0.2053 -0.5842
3.7381 -0.1859 -0.5533
3.3926 0.0047 -0.3944
3.3377 0.0265 -0.3716
3.3179 0.0134 -0.3693
3.2936 0.0063 -0.3639
3.3896 -0.2508 -0.4660
3.3653 -0.2675 -0.4634
3.3265 -0.2599 -0.4495
3.1321 -0.1025 -0.3459
3.1178 -0.1194 -0.3463
3.1047 -0.1392 -0.3479
3.0883 -0.1514 -0.3464
3.0718 -0.1624 -0.3446
3.0565 -0.1762 -0.3438
3.0337 -0.1651 -0.3338
3.0210 -0.1857 -0.3358
3.0146 -0.2312 -0.3468
2.9973 -0.2363 -0.3429
2.9851 -0.2632 -0.3469
2.9949 -0.6591 -0.4622
2.9769 -0.6980 -0.4678
2.9360 -0.7464 -0.4691
2.9142 -0.7562 -0.4653
2.8928 -0.7656 -0.4615
2.8718 -0.7746 -0.4577
4.2479 0.4765 -0.5571
4.3854 0.4340 -0.6151
4.3342 0.4086 -0.6061
4.3150 0.3796 -0.6087
4.2595 0.3564 -0.5977
4.2394 0.3278 -0.5998
4.2255 0.2976 -0.6045
4.1997 0.2697 -0.6046
4.1902 0.2375 -0.6113
4.1432 0.2153 -0.6028
4.0813 0.1988 -0.5875
3.9843 0.1964 -0.5566
4.0314 0.1447 -0.5878
4.0304 0.1081 -0.5986
4.0004 0.0824 -0.5967
3.9936 0.0463 -0.6055
3.9583 0.0232 -0.6010
3.9285 -0.0023 -0.5991
3.9031 -0.0299 -0.5992
3.8695 -0.0525 -0.5952
3.8364 -0.0748 -0.5911
3.8151 -0.1046 -0.5933
3.8050 -0.1430 -0.6017
3.7502 -0.1477 -0.5852
3.4669 0.0065 -0.4454
3.4270 0.0070 -0.4322
3.3870 0.0102 -0.4181
3.3527 0.0100 -0.4070
3.3343 -0.0059 -0.4058
3.3440 -0.0555 -0.4242
3.4092 -0.2818 -0.5147
3.3747 -0.2850 -0.5044
3.2867 -0.2504 -0.4650
3.2489 -0.2366 -0.4484
3.1297 -0.1017 -0.3682
3.1141 -0.1159 -0.3674
3.1017 -0.1375 -0.3700
3.0887 -0.1585 -0.3721
3.0744 -0.1767 -0.3730
3.0511 -0.1677 -0.3627
3.0316 -0.1669 -0.3561
3.0183 -0.1854 -0.3574
3.0109 -0.2277 -0.3679
2.9954 -0.2404 -0.3667
2.9699 -0.6799 -0.4927
2.9902 -1.0560 -0.6144
2.9635 -1.0767 -0.6120
2.8899 -0.7953 -0.5019
2.8673 -0.7828 -0.4907
2.8466 -0.7916 -0.4866
4.2146 0.5110 -0.5719
4.2314 0.4830 -0.5870
4.2664 0.4517 -0.6096
4.2589 0.4232 -0.6163
4.2287 0.3972 -0.6142
4.2041 0.3705 -0.6143
4.1795 0.3439 -0.6144
4.1549 0.3172 -0.6145
4.1302 0.2906 -0.6146
4.1056 0.2639 -0.6147
4.0810 0.2372 -0.6148
4.0106 0.2248 -0.5942
3.9573 0.2091 -0.5806
3.9548 0.1765 -0.5904
3.9239 0.1186 -0.5986
3.9290 0.0793 -0.6132
3.9088 0.0506 -0.6156
3.8960 0.0177 -0.6218
3.8270 -0.0245 -0.6114
3.8026 -0.0509 -0.6116
3.7713 -0.0726 -0.6077
3.4492 0.0226 -0.4633
3.4191 0.0145 -0.4554
3.3813 0.0156 -0.4418
3.3643 -0.0029 -0.4418
3.3527 -0.0277 -0.4459
3.4439 -0.3350 -0.5788
3.4189 -0.3566 -0.5771
3.3980 -0.3847 -0.5790
3.2419 -0.2279 -0.4727
3.2129 -0.2266 -0.4621
3.1140 -0.1206 -0.3925
3.1006 -0.1406 -0.3944
3.0867 -0.1597 -0.3958
3.0723 -0.1780 -0.3967
3.0475 -0.1642 -0.3835
3.0308 -0.1727 -0.3804
3.0155 -0.1852 -0.3792
3.0096 -0.2338 -0.3930
2.9934 -0.2445 -0.3908
3.0776 -0.8841 -0.6303
2.9779 -0.9989 -0.6329
2.9522 -1.0200 -0.6308
2.9271 -1.0471 -0.6309
4.2398 0.5662 -0.5987
4.2316 0.5412 -0.6044
4.1993 0.5170 -0.6008
4.1813 0.4921 -0.6028
4.1586 0.4675 -0.6029
4.1269 0.4440 -0.5992
4.1176 0.4177 -0.6049
4.1089 0.3907 -0.6111
4.0720 0.3683 -0.6051
4.0409 0.3453 -0.6015
4.0398 0.3158 -0.6114
4.0208 0.2898 -0.6134
3.9809 0.2695 -0.6055
3.9581 0.2448 -0.6056
3.9353 0.2201 -0.6057
3.9013 0.1995 -0.6002
3.9052 0.1646 -0.6139
3.8669 0.1460 -0.6060
3.8441 0.1213 -0.6061
3.8179 0.0983 -0.6043
3.8019 0.0701 -0.6082
3.7790 0.0454 -0.6083
3.7633 0.0162 -0.6126
3.7239 0.0019 -0.6028
3.6709 -0.0017 -0.5842
3.5247 0.0314 -0.5176
3.4992 0.0159 -0.5135
3.4651 0.0087 -0.5032
3.4353 -0.0008 -0.4953
3.3938 0.0028 -0.4784
3.3762 -0.0162 -0.4785
3.4899 -0.2342 -0.5977
3.4772 -0.2709 -0.6058
3.4566 -0.2986 -0.6078
3.4339 -0.3233 -0.6079
3.4070 -0.3416 -0.6042
3.3902 -0.3759 -0.6100
3.3598 -0.3873 -0.6025
3.1953 -0.1960 -0.4736
3.1094 -0.1152 -0.4130
3.1002 -0.1454 -0.4201
3.0868 -0.1666 -0.4225
3.0712 -0.1822 -0.4221
3.0460 -0.1677 -0.4076
3.0292 -0.1764 -0.4043
3.0147 -0.1921 -0.4044
3.0050 -0.2270 -0.4129
2.9913 -0.2485 -0.4154
2.9563 -0.8516 -0.6137
2.8884 -0.9426 -0.6202
2.8645 -0.9510 -0.6141
2.8415 -0.9759 -0.6142
4.1758 0.5728 -0.6073
4.1637 0.5490 -0.6113
4.1560 0.5246 -0.6174
4.1074 0.4773 -0.6156
4.0642 0.4559 -0.6063
4.0503 0.4315 -0.6098
4.0372 0.4066 -0.6139
4.0196 0.3821 -0.6160
4.0101 0.3558 -0.6220
