ply
format ascii 1.0
element vertex 2128
property float x
property float y
property float z
end_header
1.8187 -1.0601 -0.1780
1.6968 -1.0336 -0.1973
1.6685 -1.1464 -0.1679
1.5412 -1.1114 -0.1901
1.5177 -1.2090 -0.1645
1.4406 -1.1624 -0.1852
1.3041 -1.2559 -0.1717
1.2464 -1.2606 -0.1760
1.2046 -1.2937 -0.1705
1.1635 -1.3257 -0.1654
1.2851 -2.0072 0.0406
1.2621 -2.0254 0.0436
0.7906 -1.7143 -0.0905
0.6157 -1.8479 -0.0692
0.5477 -1.8802 -0.0666
0.4760 -1.8718 -0.0759
3.0127 -0.9306 -0.0476
3.0122 -0.8217 -0.0755
2.9831 -0.4805 -0.1654
2.9224 -0.4969 -0.1666
2.8486 -0.5599 -0.1570
2.7971 -0.5448 -0.1654
2.7330 -0.5772 -0.1628
2.6700 -0.6082 -0.1604
2.6132 -0.6096 -0.1651
2.5532 -0.6258 -0.1662
2.4933 -0.6420 -0.1674
2.4334 -0.6582 -0.1685
2.3760 -0.6447 -0.1771
2.3153 -0.6611 -0.1782
2.2526 -0.7351 -0.1648
2.1937 -0.7230 -0.1731
2.1340 -0.7532 -0.1707
2.0751 -0.7831 -0.1683
2.0159 -0.7991 -0.1694
1.9554 -0.8015 -0.1741
1.8958 -0.8176 -0.1753
1.8384 -0.8471 -0.1728
1.7767 -0.8498 -0.1776
1.7143 -0.8527 -0.1823
1.6543 -0.8689 -0.1835
1.5944 -0.8851 -0.1846
1.5425 -0.9272 -0.1785
1.4834 -0.9432 -0.1796
1.4337 -0.9846 -0.1734
1.3702 -0.9878 -0.1782
1.3169 -1.0162 -0.1756
1.2467 -1.0072 -0.1841
1.2001 -1.0478 -0.1779
1.1350 -1.0514 -0.1827
1.0762 -1.0673 -0.1838
1.0317 -1.1063 -0.1778
1.0103 -1.1781 -0.1613
0.9313 -1.1605 -0.1728
0.8495 -1.1426 -0.1846
0.7911 -1.1584 -0.1857
0.7327 -1.1742 -0.1868
0.6743 -1.1900 -0.1880
1.2532 -1.9676 0.0623
1.2592 -2.0169 0.0754
0.7798 -1.6965 -0.0490
0.8607 -1.8167 -0.0111
0.7842 -1.7974 -0.0228
-0.0030 -1.4522 -0.1807
-0.0593 -1.4674 -0.1818
3.0171 -0.8962 -0.0035
3.0714 -0.1730 -0.1636
3.0036 -0.1913 -0.1649
2.9645 -0.1061 -0.1874
2.9054 -0.0808 -0.1979
2.8141 -0.1861 -0.1813
2.7205 -0.3223 -0.1579
2.6576 -0.3212 -0.1632
2.5819 -0.3951 -0.1526
2.5048 -0.4996 -0.1350
2.4124 -0.1295 -0.2266
2.3267 -0.3553 -0.1822
2.2589 -0.3554 -0.1876
2.1905 -0.3155 -0.2022
2.1197 -0.3145 -0.2082
2.0534 -0.4292 -0.1874
1.9865 -0.4664 -0.1844
1.9242 -0.5377 -0.1732
1.8532 -0.5206 -0.1828
1.7859 -0.5388 -0.1841
1.7251 -0.5915 -0.1770
1.6512 -0.5752 -0.1867
1.5882 -0.6104 -0.1838
1.5068 -0.5770 -0.1979
1.3332 -0.7157 -0.1804
1.1943 -0.7351 -0.1872
1.1500 -0.7995 -0.1761
1.0616 -0.7710 -0.1897
1.0120 -0.8197 -0.1827
0.8968 -0.9970 -0.1517
0.7890 -0.9465 -0.1718
0.7547 -1.0042 -0.1615
0.6515 -0.9676 -0.1781
1.2370 -1.9885 0.1012
-0.2399 -1.3347 -0.1666
-0.1492 -1.4492 -0.1332
-0.1635 -1.4914 -0.1248
3.4480 0.1943 -0.1375
3.3364 0.0768 -0.1223
3.3762 0.3669 -0.1771
3.3265 0.4326 -0.1939
3.2640 0.4706 -0.2060
3.1719 0.4172 -0.2021
3.0511 0.2535 -0.1783
2.9337 0.0776 -0.1518
2.8758 0.1320 -0.1669
2.7990 0.1112 -0.1684
2.7178 0.0659 -0.1653
2.5998 -0.2240 -0.1162
2.5305 -0.2428 -0.1175
2.4678 -0.1998 -0.1306
2.4057 -0.1099 -0.1531
2.3371 -0.0371 -0.1726
2.2603 -0.0812 -0.1694
2.1846 -0.1474 -0.1618
2.1118 -0.2331 -0.1500
2.0314 -0.0964 -0.1831
1.9616 -0.2077 -0.1660
1.8850 -0.2061 -0.1720
1.8188 -0.2910 -0.1599
1.7489 -0.3313 -0.1570
1.6764 -0.3509 -0.1584
1.6083 -0.3906 -0.1554
1.5312 -0.3901 -0.1611
1.4414 -0.3484 -0.1760
1.3671 -0.3685 -0.1774
1.3135 -0.4490 -0.1653
1.2185 -0.4087 -0.1803
1.1359 -0.4087 -0.1863
1.0518 -0.4081 -0.1926
0.9763 -0.4285 -0.1940
0.9008 -0.4489 -0.1955
0.8978 -0.6031 -0.1650
0.8858 -0.7252 -0.1416
0.7218 -0.5877 -0.1809
0.8468 -0.9125 -0.1071
0.8020 -0.9571 -0.1015
0.5023 -0.6471 -0.1851
0.4427 -0.6846 -0.1820
0.3976 -0.7384 -0.1746
0.3950 -0.8397 -0.1546
1.3547 -2.2357 0.1935
1.2851 -2.2332 0.1879
1.0843 -2.1341 0.1535
-0.6101 -1.0719 -0.1818
-0.1984 -1.4054 -0.0853
0.0375 -1.6067 -0.0280
3.0728 -0.9194 0.1067
3.4513 0.2392 -0.0671
3.3479 0.1437 -0.0575
3.3589 0.3596 -0.0937
3.3508 0.7934 -0.1686
3.2503 0.7334 -0.1649
3.1364 0.9483 -0.2092
3.0496 0.9627 -0.2173
2.9292 0.8186 -0.2005
2.7291 0.1892 -0.1058
2.6098 -0.0989 -0.0643
2.5524 -0.0039 -0.0843
2.4571 -0.2221 -0.0532
2.4182 0.1563 -0.1205
2.3455 0.2738 -0.1454
2.2626 0.2811 -0.1521
2.1783 0.3483 -0.1692
2.0906 0.3553 -0.1761
2.0014 0.3629 -0.1833
1.9154 0.3079 -0.1795
1.8493 0.0833 -0.1453
1.7360 0.2911 -0.1884
1.6372 0.3299 -0.2015
1.5345 0.3707 -0.2152
1.4837 0.1605 -0.1825
1.0802 -0.0387 -0.1748
1.0067 -0.0883 -0.1711
0.9451 -0.1612 -0.1627
0.8509 -0.1581 -0.1694
0.7022 -0.0509 -0.1975
0.6299 -0.1012 -0.1936
0.8306 -0.6221 -0.0912
0.5658 -0.4706 -0.1345
0.7434 -0.9711 -0.0371
1.2885 -1.9895 0.1731
1.4041 -2.2171 0.2197
1.3981 -2.2413 0.2234
1.3737 -2.2479 0.2230
1.3449 -2.2506 0.2216
1.3157 -2.2533 0.2201
1.2776 -2.2493 0.2169
-0.0540 -1.5849 0.0158
3.4049 0.1586 0.0198
3.3507 0.1883 0.0124
3.3321 0.3246 -0.0083
3.3420 0.5676 -0.0427
3.3203 0.7453 -0.0696
3.2319 0.7213 -0.0713
3.1622 0.7685 -0.0821
3.1178 0.9328 -0.1083
3.0783 1.1594 -0.1433
2.9861 1.1767 -0.1511
2.7128 0.1571 -0.0202
2.6392 0.1619 -0.0252
2.5645 0.1675 -0.0303
2.4707 -0.0043 -0.0110
2.4285 0.4102 -0.0732
2.3634 0.8051 -0.1338
2.0650 1.0162 -0.1816
1.9505 1.1730 -0.2108
1.8597 0.9164 -0.1791
1.7867 0.6110 -0.1394
1.6859 0.6219 -0.1468
1.5702 0.7102 -0.1662
1.4924 0.5695 -0.1505
1.2705 0.6292 -0.1720
1.1136 0.8043 -0.2063
1.1163 0.4296 -0.1522
1.0438 0.3358 -0.1429
0.9377 0.3432 -0.1502
0.8149 0.3863 -0.1635
0.7181 0.3601 -0.1654
0.5885 0.4034 -0.1791
0.4714 0.4130 -0.1873
0.3909 0.3500 -0.1829
0.3690 0.1894 -0.1611
0.3837 -0.0160 -0.1306
1.4199 -2.1283 0.2338
1.4110 -2.1544 0.2370
1.4041 -2.1811 0.2404
1.4101 -2.2186 0.2462
1.4019 -2.2404 0.2489
1.3733 -2.2430 0.2476
1.3335 -2.2362 0.2443
1.2927 -2.2297 0.2410
1.2821 -2.2481 0.2430
1.2573 -2.2548 0.2425
3.0300 -0.8756 0.1968
2.9994 -0.8444 0.1916
3.3344 0.8412 0.0113
3.2548 0.8539 0.0058
3.1637 0.8293 0.0040
3.1924 1.3067 -0.0504
2.7148 0.2310 0.0513
2.6209 0.1058 0.0611
2.5509 0.1357 0.0541
2.4920 0.3047 0.0313
2.5024 1.5627 -0.1154
2.3931 1.6454 -0.1307
2.2743 1.5561 -0.1263
2.0437 1.4387 -0.1242
1.9536 0.9717 -0.0741
1.8187 1.3238 -0.1222
1.6127 1.1133 -0.1080
1.5546 0.7765 -0.0716
1.4374 0.8321 -0.0840
1.1389 1.1399 -0.1353
1.1725 0.5900 -0.0692
0.9570 0.9359 -0.1206
0.7285 1.2534 -0.1694
0.1842 0.9908 -0.1663
1.3842 -1.7904 0.2202
1.3759 -1.8384 0.2254
1.3907 -1.9133 0.2349
1.4069 -1.9837 0.2440
1.4061 -2.1087 0.2586
1.3694 -2.1061 0.2564
1.3952 -2.1677 0.2649
1.4121 -2.2161 0.2715
1.4040 -2.2381 0.2736
1.3542 -2.2214 0.2691
1.2991 -2.2020 0.2641
1.2779 -2.2400 0.2674
2.8701 -0.8034 0.2324
3.1965 0.6991 0.1107
3.0926 0.6093 0.1142
3.1610 1.2402 0.0601
2.8022 0.3570 0.1244
2.6547 -0.0671 0.1563
2.6035 0.0520 0.1433
2.4765 0.2416 0.1206
1.9121 1.5493 -0.0224
1.8128 1.3016 -0.0043
1.6951 1.3232 -0.0114
1.3652 1.1805 -0.0129
1.2532 1.1503 -0.0150
0.8368 1.3171 -0.0483
1.4073 -1.8199 0.2605
1.3728 -1.8292 0.2599
1.4544 -2.1212 0.2898
1.4325 -2.1334 0.2900
1.3928 -2.1263 0.2876
1.3815 -2.1493 0.2892
1.4057 -2.2055 0.2953
1.4018 -2.2317 0.2976
1.3430 -2.2068 0.2927
1.2940 -2.1928 0.2893
1.2776 -2.2349 0.2924
-1.2859 -0.5446 0.0275
-1.2455 -0.6530 0.0391
2.8856 -1.0936 0.3030
2.8586 -1.0619 0.3000
2.8244 -1.0458 0.2977
2.8471 -0.8478 0.2858
2.8222 -0.7796 0.2805
3.0712 0.2960 0.2204
3.1018 0.6987 0.1956
2.7691 0.2396 0.2130
2.6711 0.0918 0.2189
2.5836 -0.0226 0.2231
2.5065 -0.0867 0.2244
2.4548 0.1050 0.2101
2.4541 1.2122 0.1389
0.9906 1.2203 0.0848
1.4255 -2.1213 0.3157
1.4125 -2.1428 0.3166
1.3995 -2.1632 0.3175
1.4312 -2.2263 0.3227
1.4110 -2.2360 0.3226
1.3407 -2.2002 0.3177
1.2695 -2.1667 0.3129
-1.0507 -0.7683 0.1381
0.0227 -1.5906 0.2303
2.8593 -0.9184 0.3385
2.8156 -0.9207 0.3373
2.8669 -0.5976 0.3264
3.0717 0.3438 0.2961
3.0939 0.7217 0.2822
2.7386 0.1315 0.2945
2.6528 0.0393 0.2955
2.5802 0.0197 0.2941
2.5130 0.0471 0.2910
2.4371 0.0033 0.2905
2.4640 1.5426 0.2319
2.3521 1.5123 0.2297
2.2358 1.1833 0.2390
2.1310 1.2017 0.2352
2.0219 1.2689 0.2293
1.9011 1.4445 0.2190
1.7970 1.3101 0.2211
1.6745 1.3832 0.2146
1.5965 1.1050 0.2231
1.5200 0.8984 0.2288
1.3830 1.0472 0.2190
1.4177 -2.1774 0.3444
1.4232 -2.2142 0.3460
1.4053 -2.2264 0.3459
1.3384 -2.1935 0.3427
1.2949 -2.1841 0.3410
1.2960 -2.2135 0.3422
-0.0837 -1.2448 0.2640
-0.1573 -1.2499 0.2620
-0.3111 -1.1990 0.2555
-0.5732 -1.0787 0.2431
-0.7650 -1.0137 0.2349
0.0299 -1.5849 0.2804
-0.0315 -1.5909 0.2789
2.8248 -0.8650 0.3841
2.5737 0.0389 0.3665
2.4961 -0.0260 0.3656
2.3273 1.1463 0.3463
2.2247 1.0746 0.3449
2.1145 1.7661 0.3332
1.4638 1.1995 0.3259
1.3347 1.2695 0.3221
1.4414 -2.1306 0.3693
1.4351 -2.1912 0.3700
1.4269 -2.2137 0.3701
1.4110 -2.2276 0.3699
1.2694 -2.1568 0.3657
1.2278 -2.1509 0.3647
0.0197 -1.3122 0.3262
-0.1043 -1.2772 0.3229
-0.3167 -1.1827 0.3168
-0.2811 -1.2662 0.3187
-0.0944 -1.4458 0.3253
-0.0214 -1.5416 0.3283
-0.0120 -1.5926 0.3292
3.9715 0.6061 0.4678
2.8305 -0.8193 0.4327
3.2134 0.9746 0.4600
2.7122 0.0974 0.4416
2.6326 0.0316 0.4396
2.5640 0.0346 0.4385
2.4896 -0.0070 0.4368
2.4498 0.3552 0.4405
2.3165 1.1287 0.4475
2.2194 1.4884 0.4502
2.1027 1.8589 0.4528
1.6202 1.7284 0.4435
1.4181 1.4355 0.4368
1.3818 1.0128 0.4312
1.3068 0.8556 0.4282
1.1007 1.2386 0.4294
1.4428 -2.1950 0.3942
1.4265 -2.2091 0.3938
1.4089 -2.2214 0.3934
1.3411 -2.1869 0.3927
1.2772 -2.1589 0.3920
0.7776 -1.8445 0.3877
-0.2159 -1.1204 0.3804
-0.0541 -1.3030 0.3809
-0.0438 -1.3660 0.3803
-0.1253 -1.3622 0.3790
-0.0603 -1.4578 0.3789
0.0092 -1.5511 0.3789
-0.0057 -1.5864 0.3783
2.8124 -0.8513 0.4797
2.8480 -0.5680 0.4904
2.6261 0.0506 0.5109
2.4739 -0.0775 0.5048
2.4402 0.3477 0.5200
2.3897 0.8520 0.5379
2.3059 1.1116 0.5466
2.2101 1.6265 0.5645
2.1022 1.2856 0.5511
1.4767 1.0687 0.5374
1.1403 1.0743 0.5344
0.9927 1.1886 0.5372
1.4348 -2.1826 0.4183
1.4138 -2.2220 0.4166
1.3787 -2.2173 0.4165
1.3094 -2.1829 0.4171
0.7580 -1.8217 0.4251
0.0717 -1.5817 0.4275
0.0019 -1.5810 0.4269
2.8117 -0.8267 0.5282
2.4222 0.2316 0.5915
2.4016 1.2550 0.6537
2.2982 1.1822 0.6490
1.4141 0.8141 0.6242
1.3073 0.8267 0.6247
1.0105 1.1205 0.6417
1.4722 -2.0791 0.4483
1.4624 -2.1758 0.4424
1.4417 -2.1858 0.4418
1.4376 -2.2121 0.4402
1.4214 -2.2252 0.4393
1.3930 -2.2263 0.4392
1.2773 -2.1789 0.4417
0.8565 -1.8553 0.4603
0.8044 -1.8519 0.4603
0.7681 -1.8617 0.4596
0.7200 -1.8626 0.4595
0.3686 -1.7280 0.4667
0.4300 -1.8077 0.4620
0.4275 -1.8422 0.4599
2.9905 0.9218 0.7227
2.7560 0.1271 0.6562
2.6585 -0.0491 0.6416
2.5938 -0.0456 0.6422
2.5229 -0.0857 0.6390
2.4635 -0.0181 0.6450
2.4022 0.0765 0.6532
1.3044 1.3370 0.7643
1.4947 -2.0632 0.4752
1.4618 -2.1713 0.4662
1.4228 -2.2226 0.4619
1.3927 -2.2219 0.4621
1.3489 -2.2095 0.4633
1.2866 -2.1823 0.4659
0.8473 -1.8408 0.4965
0.8011 -1.8422 0.4965
0.8024 -1.8815 0.4932
0.7875 -1.9065 0.4911
0.7637 -1.9239 0.4897
2.7243 0.0094 0.7129
2.6667 0.0571 0.7187
2.5936 0.0151 0.7149
2.5143 -0.0884 0.7045
2.4510 -0.0645 0.7077
2.3922 0.0494 0.7206
1.4531 -2.2199 0.4841
1.4323 -2.2278 0.4834
1.3979 -2.2227 0.4843
1.3675 -2.2220 0.4847
1.3163 -2.2037 0.4872
0.8979 -1.9143 0.5229
0.8443 -1.9077 0.5241
0.8761 -2.0311 0.5104
0.8579 -2.0482 0.5087
2.8336 -1.0637 0.6354
2.7791 -1.1154 0.6295
2.7953 0.0897 0.7880
2.6914 -0.1193 0.7622
2.6361 -0.0762 0.7688
2.5905 0.0567 0.7870
2.5369 0.1785 0.8040
2.4448 -0.0464 0.7758
2.3977 0.2402 0.8144
1.5037 -2.1439 0.5150
1.4813 -2.1522 0.5143
1.4528 -2.2157 0.5064
1.4285 -2.2201 0.5062
1.3995 -2.2201 0.5067
1.3710 -2.2211 0.5070
1.3316 -2.2128 0.5087
2.8228 0.2770 0.8825
2.6855 -0.1021 0.8270
2.6115 -0.1772 0.8170
2.5503 -0.1758 0.8186
2.4950 -0.1154 0.8292
2.4329 -0.0917 0.8343
2.3688 -0.0685 0.8394
1.4978 -2.1329 0.5397
1.4807 -2.1477 0.5378
1.4733 -2.2037 0.5293
1.4577 -2.2169 0.5276
1.4282 -2.2158 0.5284
1.4204 -2.2360 0.5255
2.8112 0.2712 0.9512
2.6904 -0.0231 0.9024
2.6177 -0.0824 0.8940
2.5420 -0.1776 0.8793
2.4627 -0.3384 0.8531
2.4180 -0.1749 0.8833
2.3683 0.0370 0.9224
1.4994 -2.1312 0.5627
1.4865 -2.1834 0.5539
1.4780 -2.2049 0.5503
1.4626 -2.2181 0.5484
1.4262 -2.2099 0.5509
1.3792 -2.2203 0.5504
0.7439 -1.9810 0.6111
2.7633 0.0774 0.9824
2.6737 -0.0677 0.9566
2.5857 -0.2374 0.9257
2.4705 -0.1979 0.9376
1.5125 -2.0261 0.6058
1.5160 -2.1118 0.5886
1.4917 -2.1856 0.5747
1.4776 -2.2008 0.5721
1.4588 -2.2105 0.5709
1.4367 -2.2165 0.5704
2.7366 -0.0123 1.0270
2.6512 -0.1479 1.0004
2.5830 -0.2020 0.9912
2.4591 -0.2355 0.9888
1.5391 -1.9688 0.6419
1.5179 -1.9849 0.6392
1.5210 -2.0345 0.6281
1.5223 -2.0778 0.6184
1.5138 -2.1054 0.6126
1.5019 -2.1614 0.6007
1.4897 -2.1796 0.5972
1.4773 -2.1968 0.5939
1.4620 -2.2101 0.5915
4.4989 -0.8290 0.9912
5.6251 -0.1501 1.3005
5.6178 -0.2713 1.2920
6.3971 0.2446 1.5086
6.1246 -0.3563 1.4094
6.1951 -0.4322 1.4221
6.0582 -0.6432 1.3773
4.2800 -1.8964 0.8787
4.2639 -1.9633 0.8711
4.3384 -1.9820 0.8880
4.3310 -2.0438 0.8828
6.7762 -2.2096 1.4626
7.4141 -2.6045 1.5942
7.3824 -2.7282 1.5797
5.0285 -3.5974 0.9638
4.9962 -3.6423 0.9535
5.9979 -4.5986 1.1414
5.4062 0.0045 1.1715
5.7020 -0.0690 1.2325
5.4164 -0.4296 1.1521
6.2126 -0.4110 1.3270
4.3337 -1.9224 0.8410
4.3159 -1.9909 0.8337
4.2986 -2.0572 0.8267
7.0735 -2.1621 1.4276
7.3216 -2.6179 1.4590
7.2295 -2.7426 1.4327
4.9069 -3.6262 0.8812
4.9670 -3.6943 0.8909
5.5943 -4.4833 0.9886
4.6163 -0.6848 0.9008
5.5614 0.0546 1.1181
6.3047 -0.4683 1.2407
4.4211 -1.8717 0.8106
7.0500 -2.4097 1.3015
6.2744 -2.5998 1.1414
6.4214 -2.6863 1.1663
6.9212 -2.7634 1.2608
5.0019 -3.5521 0.8506
5.0006 -3.6059 0.8480
4.9384 -3.6425 0.8342
4.9388 -3.6941 0.8321
5.5298 -4.5207 0.9115
4.4952 -0.7992 0.8110
6.2334 -0.5053 1.1221
4.4414 -1.7928 0.7644
4.2027 -2.0440 0.7137
7.0796 -2.4114 1.1965
6.4140 -2.5918 1.0748
6.1990 -2.7068 1.0334
6.1864 -2.8013 1.0276
6.9828 -3.0993 1.1539
6.4451 -3.1778 1.0581
6.1981 -3.2524 1.0127
4.9556 -3.4948 0.7891
4.9556 -3.5488 0.7870
4.9710 -3.6062 0.7875
4.8947 -3.6383 0.7732
4.9096 -3.6936 0.7737
4.9708 -3.7635 0.7816
4.9702 -3.8651 0.7777
5.1828 -3.9950 0.8095
5.8467 -4.6941 0.8978
3.6450 -1.3180 0.6060
3.6616 -1.3508 0.6074
5.6427 0.6790 0.9668
4.4936 -0.7894 0.7492
5.6243 -0.2159 0.9360
5.6501 -0.3117 0.9368
5.8957 -0.5976 0.9645
4.4038 -1.8109 0.7038
4.2745 -1.9457 0.6803
4.2521 -2.0732 0.6729
4.2458 -2.1324 0.6701
4.3613 -2.3103 0.6818
4.4644 -2.3342 0.6964
6.8787 -2.2065 1.0608
6.9944 -2.4267 1.0712
6.3478 -2.6029 0.9691
6.1034 -2.7185 0.9290
6.6113 -3.0961 0.9930
6.5493 -3.1921 0.9808
5.0573 -3.4666 0.7494
4.9263 -3.4957 0.7290
4.9572 -3.5567 0.7317
4.8963 -3.5948 0.7214
4.9413 -3.6591 0.7261
4.9119 -3.7023 0.7203
4.7726 -3.7087 0.6993
4.6974 -3.7306 0.6874
4.7232 -3.7852 0.6896
4.7615 -3.8451 0.6934
5.6617 -4.5547 0.8055
3.6620 -1.1700 0.5726
3.6352 -1.3209 0.5654
3.6844 -1.3111 0.5719
4.8063 -0.1518 0.7418
4.5160 -0.5824 0.6945
4.4470 -0.7446 0.6818
4.4642 -0.8086 0.6824
4.4398 -0.9150 0.6767
4.2778 -1.4992 0.6417
4.5578 -1.3543 0.6805
4.6363 -1.4493 0.6880
4.7673 -1.5179 0.7027
4.3779 -1.8222 0.6462
4.1745 -1.9976 0.6163
4.2168 -2.0317 0.6207
4.2204 -2.0864 0.6198
4.3036 -2.1043 0.6298
4.3884 -2.2433 0.6370
4.4026 -2.2961 0.6375
6.8274 -2.3358 0.9411
6.0677 -2.5390 0.8405
6.1291 -2.6276 0.8460
6.0455 -2.7275 0.8330
6.1790 -2.8134 0.8477
6.0247 -2.9088 0.8259
6.0142 -2.9969 0.8224
6.1068 -3.0869 0.8318
6.5691 -3.2019 0.8870
6.3432 -3.2810 0.8566
5.1125 -3.4848 0.6969
4.9124 -3.5000 0.6714
4.9125 -3.5537 0.6701
4.9124 -3.6066 0.6687
4.8679 -3.6465 0.6622
4.7579 -3.6640 0.6479
4.6366 -3.7176 0.6313
4.6156 -3.7543 0.6278
4.6396 -3.8070 0.6295
4.6651 -3.8606 0.6313
4.6782 -3.9095 0.6318
5.6736 -4.5139 0.7417
5.6922 -4.5832 0.7423
3.6408 -1.1892 0.5290
4.5275 -0.4663 0.6325
4.3740 -0.7313 0.6120
4.3266 -0.8650 0.6047
4.3557 -0.9121 0.6068
4.2405 -1.1076 0.5914
4.2597 -1.2323 0.5911
5.3696 -0.2993 0.7212
5.2569 -0.5082 0.7059
4.1018 -1.5709 0.5687
4.1064 -1.6286 0.5681
4.1425 -1.7224 0.5701
4.1848 -1.7532 0.5738
4.1603 -1.8295 0.5699
4.1738 -1.8797 0.5703
4.0964 -1.9831 0.5605
4.1092 -2.0308 0.5609
4.2047 -2.0354 0.5706
4.2084 -2.0901 0.5699
4.3614 -2.1944 0.5836
4.3986 -2.2388 0.5865
4.3576 -2.3108 0.5810
6.2891 -2.4160 0.7754
6.2348 -2.5241 0.7679
5.9652 -2.6470 0.7382
5.9892 -2.7363 0.7390
6.2726 -2.8159 0.7663
6.1814 -2.9131 0.7552
6.2431 -3.2814 0.7546
5.1159 -3.4931 0.6361
4.9452 -3.5145 0.6184
4.9292 -3.5652 0.6158
4.8987 -3.6108 0.6119
4.8997 -3.6634 0.6110
4.5929 -3.7539 0.5781
4.5826 -3.7931 0.5764
4.6188 -3.8502 0.5790
4.8454 -4.0818 0.5977
5.4125 -4.4010 0.6494
5.3106 -4.4054 0.6390
5.2889 -4.4470 0.6360
3.7848 -1.2186 0.4987
3.9189 -1.1783 0.5096
4.0559 -1.1533 0.5205
4.0615 -1.2148 0.5202
4.0841 -1.2582 0.5214
4.0706 -1.3378 0.5194
4.0762 -1.6466 0.5161
4.0046 -1.7609 0.5092
4.0336 -1.7961 0.5110
4.0896 -1.8140 0.5152
4.0768 -1.8799 0.5134
4.1243 -1.9066 0.5167
4.0933 -1.9817 0.5134
4.1061 -2.0295 0.5138
4.1830 -2.0441 0.5196
4.2060 -2.0890 0.5209
4.1544 -2.1687 0.5159
4.3486 -2.1983 0.5306
4.4431 -2.2217 0.5376
4.4949 -2.2642 0.5411
6.2792 -2.3177 0.6785
6.0709 -2.4505 0.6608
5.9196 -2.5643 0.6477
5.7520 -2.6702 0.6335
5.8368 -2.7509 0.6391
5.9581 -2.8334 0.6475
5.9482 -2.9222 0.6456
5.9717 -3.0099 0.6464
6.1351 -3.1029 0.6579
6.4343 -3.2112 0.6798
6.3379 -3.2984 0.6713
6.3230 -3.3887 0.6690
5.1940 -3.5165 0.5801
4.9797 -3.5297 0.5634
4.8849 -3.5621 0.5557
4.8416 -3.6034 0.5518
4.7314 -3.6230 0.5430
4.5757 -3.6233 0.5310
4.5888 -3.6722 0.5314
4.5812 -3.7575 0.5298
4.5820 -3.8008 0.5293
4.6291 -3.8628 0.5322
4.6779 -3.9268 0.5352
4.8051 -4.0273 0.5439
5.3568 -4.3862 0.5823
5.2579 -4.3908 0.5745
5.0675 -4.3432 0.5604
4.1444 -1.2561 0.4726
4.1487 -1.3202 0.4725
4.2040 -1.3370 0.4753
4.2522 -1.3631 0.4777
4.0774 -1.5784 0.4673
4.0295 -1.6780 0.4643
4.0596 -1.7136 0.4657
4.0647 -1.7687 0.4656
4.0431 -1.8416 0.4641
4.0560 -1.8895 0.4645
4.0438 -1.9529 0.4635
4.0817 -1.9852 0.4654
4.1576 -1.9980 0.4693
4.1074 -2.0810 0.4662
4.1470 -2.1157 0.4681
4.1601 -2.1643 0.4685
4.2499 -2.1802 0.4732
4.3359 -2.2022 0.4776
4.3835 -2.2427 0.4799
6.2412 -2.4306 0.5769
5.8979 -2.5709 0.5580
5.8563 -2.6658 0.5553
6.1621 -2.7366 0.5711
6.2659 -2.8287 0.5761
5.8946 -2.9290 0.5559
5.8538 -3.0148 0.5533
5.7837 -3.0962 0.5492
5.8060 -3.1792 0.5499
6.1619 -3.2918 0.5681
6.0112 -3.3631 0.5597
5.6706 -3.4005 0.5415
5.5096 -3.4496 0.5328
5.2803 -3.4780 0.5205
5.1977 -3.5253 0.5159
4.9019 -3.5197 0.5003
4.8560 -3.5625 0.4977
4.8129 -3.6034 0.4952
4.7014 -3.9012 0.4877
4.7529 -3.9681 0.4900
4.8739 -4.0680 0.4959
5.6908 -4.6235 0.5360
5.7349 -4.7072 0.5378
3.8386 -1.1270 0.4098
4.1378 -0.8923 0.4178
4.2539 -0.8320 0.4210
4.2122 -0.9572 0.4199
4.2789 -1.0373 0.4219
4.6219 -0.9453 0.4314
5.0483 -0.6556 0.4429
4.0018 -1.6944 0.4150
4.0308 -1.7303 0.4159
4.0025 -1.8091 0.4152
3.9998 -1.8672 0.4152
3.9960 -1.9249 0.4151
4.0664 -1.9351 0.4171
4.0961 -1.9734 0.4180
4.0830 -2.0366 0.4177
4.0958 -2.0845 0.4181
4.1001 -2.1366 0.4183
4.1215 -2.1802 0.4190
4.1990 -2.2004 0.4212
4.3027 -2.2142 0.4241
4.3598 -2.2506 0.4257
6.0628 -2.4592 0.4734
6.1644 -2.5455 0.4764
6.0759 -2.6520 0.4740
6.0640 -2.7480 0.4738
6.4787 -2.9312 0.4856
6.4619 -3.0324 0.4853
6.1268 -3.1179 0.4760
5.7268 -3.1813 0.4650
5.8840 -3.4384 0.4697
5.7559 -3.4977 0.4662
5.8362 -3.5887 0.4685
5.3037 -3.5553 0.4536
4.9669 -3.5422 0.4442
4.7183 -3.5853 0.4374
4.6556 -3.6160 0.4357
5.6737 -4.6287 0.4653
5.5070 -4.6001 0.4606
3.8057 -1.1585 0.3619
4.7372 -0.4517 0.3586
5.0327 -0.2400 0.3577
4.9191 -0.4611 0.3592
4.9847 -0.4987 0.3596
3.9348 -1.7426 0.3669
3.9942 -1.7529 0.3671
3.9758 -1.8237 0.3677
4.0289 -1.8424 0.3679
4.0500 -1.8851 0.3683
4.0630 -1.9335 0.3688
4.0585 -1.9923 0.3692
4.0890 -2.0303 0.3696
4.0936 -2.0831 0.3700
4.1065 -2.1313 0.3705
4.1365 -2.1715 0.3709
4.1774 -2.2082 0.3713
4.3325 -2.2012 0.3716
4.4275 -2.2250 0.3721
6.0769 -2.4611 0.3783
5.9221 -2.5767 0.3788
5.9121 -2.6706 0.3795
6.0783 -2.7527 0.3806
6.3832 -2.8380 0.3821
6.4988 -2.9385 0.3832
6.6683 -3.0445 0.3845
6.3370 -3.1351 0.3844
5.7963 -3.1935 0.3835
5.8494 -3.2801 0.3843
5.4465 -3.5253 0.3852
5.0200 -3.5042 0.3839
4.8430 -3.5212 0.3836
4.8148 -3.5674 0.3839
4.7458 -3.6004 0.3840
4.6803 -3.6309 0.3840
4.9049 -4.0538 0.3880
5.2197 -4.2474 0.3904
5.1456 -4.2657 0.3904
5.2344 -4.3620 0.3914
5.2882 -4.4428 0.3922
5.3848 -4.5481 0.3933
3.8523 -1.0857 0.3120
5.9190 1.0030 0.2334
5.2423 -0.0048 0.2640
4.9214 -0.4451 0.2779
4.9002 -0.5674 0.2803
4.9648 -0.6067 0.2794
4.0061 -1.6189 0.3165
3.9619 -1.7149 0.3189
3.9826 -1.7565 0.3191
3.9875 -1.8102 0.3198
4.0503 -1.8228 0.3185
4.0302 -1.8941 0.3200
4.1130 -1.8983 0.3182
4.1082 -1.9594 0.3192
4.0948 -2.0240 0.3205
4.1427 -2.1668 0.3215
4.1473 -2.2196 0.3222
4.2870 -2.2181 0.3190
4.4256 -2.2248 0.3159
6.8010 -1.6168 0.2523
6.7299 -2.0156 0.2599
6.8731 -2.1103 0.2580
5.9442 -2.4830 0.2849
5.9691 -2.5759 0.2857
6.1820 -2.6535 0.2820
6.1309 -2.7555 0.2846
6.1566 -2.8513 0.2855
6.0823 -3.1315 0.2914
5.9675 -3.2134 0.2952
6.4943 -3.3502 0.2852
5.8209 -3.3671 0.3009
5.4605 -3.3957 0.3096
4.8587 -3.4222 0.3238
4.8587 -3.4776 0.3246
4.7578 -3.5086 0.3274
4.8297 -3.5789 0.3268
4.8301 -3.6317 0.3276
4.8026 -3.6755 0.3289
4.8024 -3.7262 0.3296
4.7892 -3.7719 0.3306
5.1559 -4.0111 0.3258
4.9066 -4.0154 0.3315
4.9373 -4.0783 0.3318
5.1501 -4.2266 0.3291
5.1310 -4.2702 0.3302
5.1128 -4.3128 0.3313
5.1632 -4.3900 0.3312
5.1967 -4.4594 0.3315
3.9565 -0.8628 0.2521
3.9111 -0.9957 0.2572
3.8771 -1.1084 0.2613
5.2011 0.3297 0.1651
5.1981 0.2036 0.1680
5.2808 0.1742 0.1646
5.0156 -0.2274 0.1864
4.8389 -0.5149 0.2013
4.8600 -0.5936 0.2020
4.7253 -0.8176 0.2135
4.0319 -1.5276 0.2629
3.9779 -1.6365 0.2680
3.9426 -1.7248 0.2716
3.9475 -1.7783 0.2725
4.0340 -1.7708 0.2682
4.1385 -1.7560 0.2627
4.1052 -1.8398 0.2662
4.0648 -1.9247 0.2700
4.0353 -1.9994 0.2731
4.0573 -2.0421 0.2729
4.0703 -2.0902 0.2734
4.0488 -2.1554 0.2758
4.1306 -2.2794 0.2746
4.2884 -2.2745 0.2667
4.3459 -2.3123 0.2648
6.5374 -1.8203 0.1469
6.7330 -2.1403 0.1443
6.1189 -2.3610 0.1792
6.0681 -2.4702 0.1840
5.9825 -2.5789 0.1906
6.2108 -2.8563 0.1855
6.0464 -2.9543 0.1957
6.0353 -3.0463 0.1982
6.2896 -3.1496 0.1881
5.8170 -3.2104 0.2125
6.3844 -3.3493 0.1878
5.9598 -3.3928 0.2095
4.8916 -3.4921 0.2639
4.8918 -3.5479 0.2651
4.8612 -3.5949 0.2676
4.8312 -3.6401 0.2701
4.8316 -3.6925 0.2712
4.9080 -3.7691 0.2692
4.7638 -3.8206 0.2773
4.7112 -3.8485 0.2805
4.8342 -3.9456 0.2766
4.9086 -4.0262 0.2748
5.0016 -4.1175 0.2722
5.0003 -4.1677 0.2734
5.0995 -4.2663 0.2707
5.1497 -4.3432 0.2699
5.4365 -4.6027 0.2616
3.8439 -1.0724 0.2116
4.9968 0.1062 0.0908
5.1484 0.1655 0.0777
5.1731 0.0736 0.0785
5.2255 0.0110 0.0764
5.0664 -0.2695 0.0965
4.0195 -1.5314 0.2117
3.9575 -1.6474 0.2197
3.9706 -1.6960 0.2201
4.0174 -1.7183 0.2173
3.9967 -1.7932 0.2210
4.0580 -1.9824 0.2219
4.0538 -2.0410 0.2239
4.0412 -2.1030 0.2266
4.0974 -2.1291 0.2231
4.1375 -2.1654 0.2212
4.2081 -2.1904 0.2166
4.3154 -2.2043 0.2089
4.3747 -2.2418 0.2056
4.5143 -2.2550 0.1954
6.6520 -2.1589 0.0320
6.0949 -2.3683 0.0799
6.0447 -2.4774 0.0869
6.0707 -2.5741 0.0877
6.5231 -2.6374 0.0555
6.2414 -2.7615 0.0803
6.0728 -2.8664 0.0960
6.6102 -2.9614 0.0584
6.5907 -3.0682 0.0629
5.9677 -3.1415 0.1119
5.8915 -3.2240 0.1200
6.2787 -3.3483 0.0945
6.2646 -3.4401 0.0982
5.1602 -3.4319 0.1810
4.9245 -3.5636 0.2025
4.8776 -3.6073 0.2073
4.8469 -3.6528 0.2109
4.8327 -3.7013 0.2134
4.8635 -3.8666 0.2158
4.9092 -3.9352 0.2144
5.0718 -4.0534 0.2056
5.3772 -4.2396 0.1880
5.1913 -4.3230 0.2044
5.2456 -4.4043 0.2027
5.3821 -4.5307 0.1961
5.5078 -4.6556 0.1903
3.8395 -1.0658 0.1606
3.8683 -1.0958 0.1587
5.0000 0.1290 -0.0007
5.0999 0.1285 -0.0108
5.1508 0.0668 -0.0138
5.2030 0.0042 -0.0168
5.1203 -0.1990 -0.0011
4.0947 -1.3888 0.1463
4.0708 -1.4778 0.1519
4.0439 -1.6295 0.1601
3.9804 -1.7415 0.1706
4.0360 -1.7587 0.1656
4.3988 -1.7739 0.1292
4.2298 -1.9383 0.1523
4.1261 -2.0552 0.1671
4.0855 -2.1327 0.1740
4.1347 -2.1648 0.1702
6.4154 -1.9744 -0.0688
6.3980 -2.0952 -0.0627
6.7865 -2.1367 -0.1008
5.9479 -2.4942 -0.0025
6.0472 -2.5813 -0.0095
5.9989 -2.6838 -0.0008
6.2172 -2.7689 -0.0200
6.6035 -2.8602 -0.0560
6.7868 -2.9699 -0.0707
6.4265 -3.0722 -0.0304
6.0155 -3.1519 0.0144
6.0051 -3.2411 0.0186
6.4648 -3.3771 -0.0232
6.8841 -3.5293 -0.0604
6.9694 -3.6496 -0.0648
5.6873 -3.5323 0.0615
5.2432 -3.5203 0.1063
5.1999 -3.5759 0.1127
5.1013 -3.6150 0.1241
4.9429 -3.6329 0.1409
4.9265 -3.6841 0.1444
4.9267 -3.7391 0.1464
4.9918 -3.8150 0.1425
5.5126 -4.0549 0.0982
5.4373 -4.0918 0.1072
5.5219 -4.2521 0.1043
5.6401 -4.3668 0.0964
5.6860 -4.4525 0.0949
6.0220 -4.6779 0.0688
5.2903 -4.3844 0.1327
5.4332 -4.5138 0.1228
5.3869 -4.5466 0.1287
5.6319 -4.7386 0.1107
5.0027 0.1516 -0.0939
5.0778 0.1218 -0.1023
3.9811 -1.4879 0.1088
4.0122 -1.5231 0.1063
4.2606 -1.3716 0.0677
4.0400 -1.6264 0.1072
3.9447 -1.7639 0.1254
4.0153 -1.7689 0.1165
4.5726 -1.5105 0.0336
4.5746 -1.5870 0.0366
4.5470 -1.6802 0.0442
4.1747 -2.0858 0.1097
6.0836 -2.0578 -0.1373
5.9822 -2.2913 -0.1141
6.4778 -2.3143 -0.1770
5.9978 -2.4917 -0.1075
6.0872 -2.6824 -0.1107
6.3184 -2.7702 -0.1367
6.1798 -2.8770 -0.1142
6.2063 -2.9759 -0.1133
6.2329 -3.0747 -0.1125
6.2186 -3.1712 -0.1064
6.0538 -3.2535 -0.0817
6.4401 -3.3847 -0.1257
6.9116 -3.5447 -0.1795
5.7545 -3.5538 -0.0301
5.5027 -3.5813 0.0035
5.2670 -3.5997 0.0347
4.8959 -3.6286 0.0837
4.9120 -3.6886 0.0843
4.9281 -3.7485 0.0848
5.0112 -3.8310 0.0777
5.5190 -4.0688 0.0226
5.6399 -4.1804 0.0118
5.9460 -4.3706 -0.0193
5.6281 -4.3094 0.0189
5.5976 -4.3614 0.0251
5.7753 -4.5076 0.0086
5.9110 -4.6399 -0.0032
5.4203 -4.4622 0.0523
5.4829 -4.5532 0.0482
5.3299 -4.5292 0.0669
5.3886 -4.6173 0.0631
4.7966 0.1448 -0.1547
4.7986 -0.0767 -0.1438
4.6251 -0.3887 -0.1009
3.9012 -1.4312 0.0650
3.9388 -1.4567 0.0604
3.9948 -1.4668 0.0522
4.0632 -1.4692 0.0416
4.1374 -1.4708 0.0301
4.1314 -1.5438 0.0348
3.9813 -1.7293 0.0676
4.0373 -1.7469 0.0598
4.1654 -1.7161 0.0382
4.3752 -1.6383 0.0015
4.6373 -1.5414 -0.0444
4.9317 -1.4425 -0.0954
4.3168 -1.9475 0.0263
4.4731 -2.0026 0.0047
5.3223 -1.7014 -0.1432
5.4849 -1.7305 -0.1672
5.5696 -1.7974 -0.1770
5.6570 -1.8672 -0.1871
5.7151 -1.9499 -0.1920
5.6599 -2.2597 -0.1677
5.7818 -2.3316 -0.1830
5.7980 -2.5217 -0.1759
5.8474 -2.7056 -0.1743
5.7728 -2.8023 -0.1578
5.9315 -2.8889 -0.1782
5.8537 -2.9811 -0.1613
5.8779 -3.0713 -0.1605
5.7573 -3.3208 -0.1291
5.7802 -3.4061 -0.1283
5.8031 -3.4913 -0.1276
5.4104 -3.5718 -0.0622
5.3146 -3.6196 -0.0448
4.9465 -3.7076 0.0172
4.9293 -3.7579 0.0224
4.8664 -3.7913 0.0339
5.0650 -3.9160 0.0092
5.5210 -4.1474 -0.0502
5.8950 -4.3641 -0.0977
5.8567 -4.4199 -0.0889
5.7361 -4.4365 -0.0692
5.3463 -4.3218 -0.0141
5.7502 -4.5768 -0.0643
5.9131 -4.7251 -0.0822
5.4448 -4.5470 -0.0181
5.3970 -4.5792 -0.0090
5.3727 -4.6222 -0.0030
3.9719 -0.7686 -0.0389
4.0467 -0.7438 -0.0541
4.3455 -0.5218 -0.1219
4.4689 -0.4616 -0.1481
4.5370 -0.4763 -0.1598
4.5568 -0.5500 -0.1591
4.4373 -0.8633 -0.1189
4.4556 -0.9316 -0.1183
4.5355 -0.9410 -0.1325
4.4474 -1.1094 -0.1065
4.5255 -1.1236 -0.1200
4.4542 -1.2674 -0.0985
4.0473 -1.6709 -0.0002
4.0520 -1.7301 0.0023
4.6343 -1.4564 -0.1207
4.5730 -1.5772 -0.1024
4.4765 -1.7866 -0.0725
4.3875 -1.9062 -0.0491
4.3658 -1.9847 -0.0406
4.2883 -2.0868 -0.0204
4.3853 -2.1067 -0.0371
5.1005 -2.0547 -0.1716
5.0131 -2.1654 -0.1491
4.9724 -2.2564 -0.1363
4.9518 -2.3389 -0.1278
4.9912 -2.4060 -0.1311
5.0309 -2.4742 -0.1344
5.1794 -2.5265 -0.1587
5.1999 -2.6026 -0.1580
5.1747 -2.6833 -0.1487
5.1509 -2.7614 -0.1398
5.1495 -2.8361 -0.1352
5.2128 -2.9085 -0.1426
5.3021 -2.9834 -0.1547
5.2753 -3.0579 -0.1454
5.2499 -3.1300 -0.1366
5.3635 -3.2118 -0.1527
5.4081 -3.2906 -0.1563
5.3325 -3.3543 -0.1387
5.2397 -3.4105 -0.1184
5.1539 -3.4626 -0.0996
5.2144 -3.5402 -0.1062
5.2973 -3.6249 -0.1165
5.1288 -3.7103 -0.0805
5.0702 -3.7537 -0.0672
5.0161 -3.7951 -0.0549
5.2133 -4.1575 -0.0701
5.2911 -4.2501 -0.0790
5.5574 -4.4338 -0.1173
5.5769 -4.5064 -0.1167
5.3449 -4.4505 -0.0773
5.3187 -4.5500 -0.0666
4.3610 -0.5783 -0.1939
4.4094 -0.6117 -0.2020
4.4127 -0.6991 -0.1969
4.4313 -0.7684 -0.1963
4.4807 -0.8055 -0.2044
4.5155 -0.8598 -0.2082
4.5506 -0.9153 -0.2120
4.5869 -0.9710 -0.2160
4.5089 -1.1287 -0.1891
3.9739 -1.7233 -0.0366
4.0041 -1.7608 -0.0405
4.4481 -1.5010 -0.1518
4.5090 -1.5357 -0.1624
4.3371 -1.7242 -0.1136
4.2933 -1.8207 -0.0979
4.3203 -1.8722 -0.1002
4.3978 -1.8973 -0.1150
4.4243 -2.1540 -0.1038
4.3657 -2.2408 -0.0857
4.3458 -2.3097 -0.0769
4.4458 -2.3395 -0.0962
4.8261 -2.5844 -0.1607
4.8441 -2.6513 -0.1601
4.8975 -2.7146 -0.1673
4.9524 -2.7797 -0.1747
4.9339 -2.8502 -0.1661
4.9521 -2.9856 -0.1611
4.9885 -3.0535 -0.1643
5.0068 -3.1213 -0.1637
5.0063 -3.1875 -0.1593
5.1225 -3.2659 -0.1788
5.1612 -3.3386 -0.1822
5.2012 -3.4124 -0.1859
5.0041 -3.4427 -0.1421
5.0592 -3.5161 -0.1489
5.1148 -3.5913 -0.1558
5.1927 -3.6741 -0.1668
5.0930 -3.7096 -0.1434
5.0369 -3.7531 -0.1286
5.2435 -4.0027 -0.1560
5.1431 -4.0240 -0.1333
5.0866 -4.0584 -0.1191
5.0830 -4.2221 -0.1076
5.2910 -4.3788 -0.1414
5.2278 -4.4034 -0.1264
4.8719 -4.2681 -0.0598
5.3029 -4.5548 -0.1323
5.4484 -4.6937 -0.1541
3.9476 -0.9268 -0.1423
3.9625 -0.9824 -0.1418
3.9586 -1.0614 -0.1351
4.0864 -1.0587 -0.1661
4.0920 -1.1282 -0.1623
4.1507 -1.1409 -0.1755
4.1777 -1.1893 -0.1784
4.2289 -1.2152 -0.1888
4.2333 -1.2875 -0.1846
4.0110 -1.5591 -0.1112
3.9482 -1.6768 -0.0874
3.9617 -1.7270 -0.0870
3.9502 -1.7963 -0.0791
4.0231 -1.8025 -0.0962
4.1653 -1.8308 -0.1284
4.2672 -1.8324 -0.1528
4.2487 -1.9096 -0.1427
4.2867 -1.9539 -0.1486
4.2907 -2.0171 -0.1449
4.1009 -2.1707 -0.0879
4.3484 -2.1833 -0.1466
4.3756 -2.2362 -0.1492
4.2770 -2.3325 -0.1184
4.4576 -2.3359 -0.1616
4.4376 -2.4669 -0.1472
4.4531 -2.5246 -0.1467
4.4820 -2.5798 -0.1496
4.4841 -2.6400 -0.1457
4.4743 -2.7009 -0.1389
4.4897 -2.7578 -0.1384
4.5306 -2.8130 -0.1442
4.5600 -2.8701 -0.1471
4.5486 -2.9286 -0.1400
4.5912 -2.9863 -0.1460
4.6200 -3.0448 -0.1487
4.6357 -3.1033 -0.1482
4.6380 -3.1605 -0.1445
4.6121 -3.2137 -0.1344
4.6410 -3.2726 -0.1370
4.7279 -3.3418 -0.1528
4.8041 -3.4125 -0.1660
4.8364 -3.4766 -0.1691
4.7605 -3.5157 -0.1479
4.7763 -3.5745 -0.1474
4.8378 -3.6463 -0.1569
4.8692 -3.7110 -0.1598
4.7223 -3.7174 -0.1239
4.6565 -3.7452 -0.1061
4.9178 -3.8919 -0.1582
4.9183 -3.9460 -0.1543
4.9186 -3.9993 -0.1505
4.9025 -4.0963 -0.1395
4.7844 -4.0906 -0.1115
4.8724 -4.1824 -0.1259
5.1013 -4.3505 -0.1687
5.0474 -4.3744 -0.1540
5.1346 -4.4744 -0.1676
3.8766 -1.1512 -0.1648
3.8590 -1.2416 -0.1527
3.9657 -1.1859 -0.1860
4.0180 -1.1989 -0.1991
4.0331 -1.2548 -0.1986
3.9114 -1.5145 -0.1447
3.8851 -1.6023 -0.1305
3.9724 -1.5859 -0.1554
3.9693 -1.6523 -0.1491
4.0506 -1.7137 -0.1661
4.1850 -1.6794 -0.2051
4.0977 -1.8071 -0.1712
4.1028 -1.8669 -0.1677
4.1471 -1.9019 -0.1768
4.1513 -1.9622 -0.1730
4.0621 -2.1869 -0.1307
4.1748 -2.5320 -0.1331
4.4443 -2.8785 -0.1776
4.4682 -3.0972 -0.1663
4.4357 -3.1472 -0.1535
4.3830 -3.1923 -0.1357
4.5506 -3.3186 -0.1706
4.6306 -3.3862 -0.1866
4.6193 -3.4371 -0.1795
4.6077 -3.4866 -0.1723
4.6494 -3.5490 -0.1785
4.7195 -3.6208 -0.1916
4.7208 -3.6738 -0.1876
4.6287 -3.6949 -0.1611
4.6819 -3.7630 -0.1699
4.7827 -3.9525 -0.1817
4.8427 -4.0795 -0.1876
4.7859 -4.1019 -0.1704
4.7859 -4.1499 -0.1665
4.8297 -4.2204 -0.1726
4.8600 -4.2847 -0.1756
4.8751 -4.3410 -0.1751
3.7662 -1.2778 -0.1773
3.7651 -1.3438 -0.1711
3.7992 -1.3677 -0.1792
3.8429 -1.3829 -0.1909
3.8795 -1.4085 -0.1996
3.8777 -1.4754 -0.1931
3.8371 -1.5788 -0.1718
3.8004 -1.6741 -0.1523
3.8409 -1.6961 -0.1624
3.8538 -1.7439 -0.1620
3.8821 -1.7793 -0.1673
3.9025 -1.8220 -0.1696
3.9312 -1.8591 -0.1749
3.9945 -1.8736 -0.1926
3.9417 -1.9679 -0.1683
3.9394 -2.0259 -0.1625
3.9678 -2.0651 -0.1675
4.0429 -2.4111 -0.1591
4.0385 -2.4646 -0.1531
4.0429 -2.5145 -0.1500
4.0817 -2.5555 -0.1579
4.0684 -2.6093 -0.1491
4.1076 -2.6518 -0.1570
4.1376 -2.6973 -0.1620
4.1106 -2.7996 -0.1448
4.1321 -2.8462 -0.1471
4.1664 -2.9409 -0.1489
4.2070 -2.9889 -0.1568
4.2110 -3.0369 -0.1537
4.2048 -3.0837 -0.1476
4.2176 -3.1314 -0.1472
4.2590 -3.1825 -0.1551
4.2628 -3.2295 -0.1520
4.2560 -3.2743 -0.1460
4.3074 -3.3295 -0.1564
4.3405 -3.3826 -0.1616
4.3240 -3.4244 -0.1529
4.3466 -3.4754 -0.1552
4.3296 -3.5152 -0.1465
4.3933 -3.5791 -0.1599
4.3858 -3.6213 -0.1539
4.4099 -3.6739 -0.1564
4.4440 -3.7308 -0.1615
4.4572 -3.7802 -0.1611
4.6091 -3.8886 -0.1968
3.6941 -1.4194 -0.1933
3.6998 -1.4735 -0.1899
3.7061 -1.5263 -0.1868
3.7123 -1.5786 -0.1838
3.7245 -1.6241 -0.1834
3.7367 -1.6697 -0.1830
3.7612 -1.7608 -0.1822
3.7784 -1.8578 -0.1784
3.8102 -1.9430 -0.1806
3.8370 -2.3867 -0.1463
3.8631 -2.5643 -0.1377
3.9688 -3.1115 -0.1193
4.0796 -3.2899 -0.1384
4.0985 -3.3346 -0.1403
4.3050 -3.7266 -0.1702
4.2807 -3.7568 -0.1592
4.2749 -3.7938 -0.1537
4.2261 -3.8097 -0.1361
4.2377 -3.8529 -0.1358
4.2927 -3.9184 -0.1475
4.3164 -4.0068 -0.1467
3.5028 -1.3664 -0.1810
3.5414 -1.4847 -0.1824
3.5476 -1.5331 -0.1795
3.5536 -1.5810 -0.1766
3.5700 -1.6164 -0.1788
3.5811 -1.6580 -0.1784
3.5870 -1.7054 -0.1755
3.5982 -1.7469 -0.1752
3.5993 -1.7983 -0.1702
3.6103 -1.8394 -0.1698
3.6214 -1.8805 -0.1695
3.6372 -1.9175 -0.1712
3.6379 -1.9673 -0.1662
3.6489 -2.0082 -0.1659
3.6599 -2.0492 -0.1655
3.6602 -2.0976 -0.1606
3.6877 -2.1272 -0.1673
3.7330 -2.1470 -0.1815
3.7098 -2.2094 -0.1666
3.7208 -2.2505 -0.1662
3.7370 -2.2890 -0.1680
3.7481 -2.3303 -0.1676
3.7714 -2.3662 -0.1722
3.7527 -2.4200 -0.1598
3.7876 -2.4518 -0.1690
3.7871 -2.4972 -0.1641
3.7981 -2.5383 -0.1637
3.8321 -2.6177 -0.1676
3.8497 -2.6578 -0.1697
3.8865 -2.8673 -0.1608
3.9101 -2.9079 -0.1650
3.9349 -2.9493 -0.1696
3.9324 -2.9909 -0.1643
3.9237 -3.0314 -0.1569
3.9457 -3.1132 -0.1562
3.9638 -3.1551 -0.1583
3.9606 -3.1940 -0.1531
3.9715 -3.2347 -0.1527
3.9969 -3.2784 -0.1572
4.0007 -3.3179 -0.1544
3.9845 -3.3519 -0.1450
4.0153 -3.3977 -0.1513
4.0411 -3.4429 -0.1558
4.0372 -3.4791 -0.1506
4.0481 -3.5199 -0.1502
4.0591 -3.5606 -0.1499
4.0777 -3.6043 -0.1519
4.0963 -3.6484 -0.1540
4.1217 -3.6958 -0.1581
4.1329 -3.7373 -0.1578
4.1519 -3.7825 -0.1598
4.1788 -3.8320 -0.1643
4.1436 -3.8499 -0.1498
4.1774 -3.9031 -0.1563
4.1966 -3.9491 -0.1584
4.1847 -3.9774 -0.1511
4.1957 -4.0185 -0.1508
3.4946 -1.8957 -0.1638
3.5047 -1.9335 -0.1635
3.5428 -2.1761 -0.1508
3.5848 -2.1918 -0.1654
3.5925 -2.3611 -0.1492
3.6076 -2.3957 -0.1512
3.6621 -2.6202 -0.1469
3.7482 -2.8398 -0.1556
3.7579 -2.9157 -0.1508
3.7863 -3.1007 -0.1408
3.8456 -3.1806 -0.1549
3.8272 -3.2134 -0.1440
3.8372 -3.2505 -0.1437
3.8624 -3.3262 -0.1449
3.8672 -3.3620 -0.1427
3.8772 -3.3992 -0.1424
3.8988 -3.4402 -0.1462
3.9749 -3.5360 -0.1650
3.9594 -3.5646 -0.1556
3.9882 -3.7116 -0.1502
4.0040 -3.7523 -0.1517
4.0277 -3.7974 -0.1559
4.1043 -3.9058 -0.1734
4.0355 -3.9307 -0.1438
3.3268 -1.5050 -0.1829
3.3332 -1.5465 -0.1806
3.3360 -1.5930 -0.1761
3.3457 -1.6288 -0.1758
3.3448 -1.6793 -0.1693
3.3685 -1.6958 -0.1772
3.3817 -1.7272 -0.1790
3.3950 -1.7589 -0.1807
3.3866 -1.8169 -0.1701
3.4035 -1.8441 -0.1739
3.4206 -1.8718 -0.1777
3.4265 -1.9119 -0.1753
3.4438 -1.9403 -0.1791
3.4555 -2.0199 -0.1744
3.4777 -2.0450 -0.1806
3.4709 -2.0952 -0.1717
3.4806 -2.1310 -0.1714
3.5110 -2.1514 -0.1817
3.5079 -2.1971 -0.1749
3.5136 -2.2359 -0.1725
3.5150 -2.2771 -0.1681
3.5329 -2.3079 -0.1719
3.5300 -2.3509 -0.1654
3.5438 -2.3843 -0.1672
3.5491 -2.4221 -0.1648
3.5759 -2.4501 -0.1726
3.6387 -2.6658 -0.1728
3.6637 -2.7374 -0.1746
3.6735 -2.7738 -0.1743
3.7070 -2.9918 -0.1618
3.7408 -3.0995 -0.1629
3.7305 -3.1328 -0.1545
3.7646 -3.2062 -0.1600
3.7691 -3.2409 -0.1576
3.8089 -3.3174 -0.1651
3.7926 -3.3462 -0.1547
3.8126 -3.3849 -0.1584
3.8222 -3.4206 -0.1581
3.8531 -3.4639 -0.1658
3.8414 -3.4921 -0.1575
3.8456 -3.5257 -0.1551
3.8552 -3.5613 -0.1548
3.8811 -3.6042 -0.1605
3.8798 -3.6350 -0.1562
3.8839 -3.6681 -0.1539
3.8934 -3.7037 -0.1536
3.9254 -3.7511 -0.1613
3.9126 -3.7749 -0.1530
3.9278 -3.8137 -0.1546
3.9488 -3.8562 -0.1583
3.2987 -1.8265 -0.1691
3.3140 -1.8517 -0.1727
3.3231 -1.8853 -0.1725
3.3328 -2.0460 -0.1559
3.3514 -2.0691 -0.1614
3.3664 -2.0964 -0.1646
3.4413 -2.4354 -0.1543
3.5019 -2.6293 -0.1564
3.5291 -2.7625 -0.1514
3.5467 -2.8279 -0.1508
3.5555 -2.8606 -0.1505
3.5295 -2.8954 -0.1343
3.6031 -2.9918 -0.1550
3.6131 -3.0892 -0.1468
3.6129 -3.1206 -0.1427
3.6745 -3.1936 -0.1610
3.6785 -3.2260 -0.1586
3.6872 -3.2904 -0.1541
3.7013 -3.3251 -0.1560
3.6967 -3.3542 -0.1501
3.7139 -3.3899 -0.1532
3.7376 -3.4284 -0.1590
3.7321 -3.4860 -0.1490
3.7549 -3.5249 -0.1542
3.7780 -3.5645 -0.1595
3.7827 -3.5961 -0.1575
3.7818 -3.6248 -0.1533
3.8007 -3.6632 -0.1569
3.7997 -3.6914 -0.1528
3.8187 -3.7303 -0.1563
3.8470 -3.8035 -0.1596
3.2034 -1.6842 -0.1804
3.1987 -1.7372 -0.1707
3.2152 -1.7562 -0.1761
3.2291 -1.7800 -0.1795
3.2322 -1.8196 -0.1755
3.2407 -1.8514 -0.1753
3.2520 -1.8794 -0.1768
3.2493 -1.9255 -0.1691
3.2634 -1.9499 -0.1726
3.2777 -1.9748 -0.1760
3.2921 -2.0002 -0.1795
3.2918 -2.0416 -0.1736
3.2944 -2.0794 -0.1696
3.3113 -2.1423 -0.1690
3.3228 -2.1711 -0.1706
3.3406 -2.1950 -0.1759
3.3367 -2.2368 -0.1682
3.4388 -2.4722 -0.1850
3.4247 -2.5503 -0.1673
3.4551 -2.6777 -0.1644
3.4864 -2.7377 -0.1712
3.4769 -2.7728 -0.1617
3.4874 -2.8682 -0.1535
3.5144 -2.8981 -0.1624
3.5266 -2.9295 -0.1640
3.5578 -2.9612 -0.1747
3.5627 -2.9933 -0.1726
3.5736 -3.1186 -0.1605
3.5865 -3.1808 -0.1581
3.6236 -3.2485 -0.1667
3.5995 -3.2717 -0.1518
3.6079 -3.3028 -0.1515
3.6246 -3.3649 -0.1510
3.6497 -3.4020 -0.1580
3.6582 -3.4335 -0.1577
3.6922 -3.4754 -0.1684
3.6837 -3.5002 -0.1608
3.6879 -3.5299 -0.1587
3.6920 -3.5595 -0.1566
3.7136 -3.5975 -0.1618
3.7133 -3.6247 -0.1579
3.7263 -3.6587 -0.1594
3.7615 -3.7054 -0.1700
3.7523 -3.7273 -0.1625
3.7654 -3.7620 -0.1640
3.1669 -1.8210 -0.1777
3.1750 -1.8511 -0.1775
3.1916 -1.9513 -0.1712
3.1946 -1.9873 -0.1675
3.2104 -2.0074 -0.1727
3.2155 -2.0406 -0.1705
3.2163 -2.0785 -0.1653
3.2535 -2.1539 -0.1734
3.2480 -2.1964 -0.1642
3.2453 -2.2353 -0.1571
3.2508 -2.2664 -0.1554
3.2609 -2.2936 -0.1566
3.2719 -2.3203 -0.1583
3.2874 -2.4131 -0.1526
3.3114 -2.4324 -0.1622
3.3111 -2.4664 -0.1570
3.3132 -2.4986 -0.1533
3.3068 -2.5345 -0.1448
3.3204 -2.5604 -0.1479
3.3451 -2.5822 -0.1575
3.3555 -2.6106 -0.1587
3.3496 -2.6447 -0.1506
3.3869 -2.6645 -0.1669
3.3678 -2.7019 -0.1515
3.3844 -2.7288 -0.1562
3.3923 -2.7581 -0.1559
3.3849 -2.7901 -0.1474
3.4108 -2.8163 -0.1569
3.4146 -2.8760 -0.1500
3.4548 -2.9033 -0.1668
3.4330 -2.9340 -0.1510
3.4163 -2.9631 -0.1381
3.4790 -2.9932 -0.1660
3.4794 -3.0228 -0.1619
3.4681 -3.0508 -0.1519
3.4692 -3.0793 -0.1482
3.4838 -3.1093 -0.1514
3.5084 -3.1413 -0.1594
3.5055 -3.1689 -0.1538
3.4974 -3.1947 -0.1458
3.5253 -3.2286 -0.1552
3.5332 -3.2581 -0.1549
3.5370 -3.2864 -0.1528
3.5593 -3.3204 -0.1593
3.5642 -3.3491 -0.1576
3.5753 -3.3799 -0.1587
3.5760 -3.4068 -0.1551
3.5839 -3.4364 -0.1548
3.5961 -3.4678 -0.1565
3.5998 -3.4955 -0.1543
3.6002 -3.5215 -0.1507
3.6081 -3.5509 -0.1504
3.6204 -3.5825 -0.1521
3.6672 -3.6590 -0.1650
3.6676 -3.6847 -0.1614
3.1145 -1.8115 -0.1849
3.1183 -1.8467 -0.1815
3.1194 -1.8856 -0.1761
3.1337 -1.9040 -0.1810
3.1414 -1.9327 -0.1808
3.1512 -1.9586 -0.1821
3.1589 -1.9873 -0.1818
3.1645 -2.0188 -0.1800
3.1722 -2.0474 -0.1798
3.1799 -2.0761 -0.1795
3.1826 -2.1104 -0.1756
3.2186 -2.2549 -0.1728
3.2308 -2.2795 -0.1757
3.2385 -2.3080 -0.1754
3.2493 -2.3342 -0.1773
3.2539 -2.3652 -0.1749
3.2568 -2.3970 -0.1716
3.2692 -2.4223 -0.1744
3.2791 -2.5149 -0.1654
3.2993 -2.6003 -0.1631
3.3317 -2.7419 -0.1588
3.3764 -2.7621 -0.1802
3.3699 -2.8525 -0.1625
3.4001 -2.9651 -0.1615
3.4265 -2.9939 -0.1715
3.4295 -3.0501 -0.1643
3.4772 -3.2728 -0.1557
3.4877 -3.3018 -0.1570
3.4798 -3.3245 -0.1491
3.4935 -3.3545 -0.1519
3.5135 -3.3872 -0.1578
3.5347 -3.4210 -0.1642
3.5318 -3.4449 -0.1588
3.5436 -3.4751 -0.1606
3.5609 -3.5081 -0.1649
3.5513 -3.5279 -0.1566
3.5665 -3.5601 -0.1599
3.5741 -3.5884 -0.1596
3.5883 -3.6205 -0.1624
3.5993 -3.6509 -0.1637
3.6226 -3.6890 -0.1705
3.0786 -1.9407 -0.1760
3.0918 -1.9588 -0.1807
3.0971 -1.9889 -0.1788
3.1004 -2.0217 -0.1753
3.1015 -2.0569 -0.1701
3.1128 -2.0784 -0.1732
3.1124 -2.1147 -0.1669
3.1153 -2.1463 -0.1634
3.1203 -2.1752 -0.1615
3.1353 -2.1931 -0.1673
3.1446 -2.2175 -0.1687
3.1416 -2.2544 -0.1608
3.1635 -2.2668 -0.1715
3.1685 -2.2958 -0.1697
3.1779 -2.3207 -0.1711
3.1722 -2.3581 -0.1616
3.1747 -2.3880 -0.1581
3.1841 -2.4127 -0.1595
3.1998 -2.4332 -0.1652
3.2070 -2.4599 -0.1650
3.2078 -2.4904 -0.1604
3.2173 -2.5155 -0.1618
3.2171 -2.5459 -0.1567
3.2316 -2.5686 -0.1613
3.2296 -2.5992 -0.1551
3.2458 -2.6217 -0.1609
3.2571 -2.6466 -0.1634
3.2601 -2.6748 -0.1604
3.2646 -2.7021 -0.1585
3.2623 -2.7311 -0.1523
3.2736 -2.7563 -0.1548
3.2957 -2.8075 -0.1592
3.2904 -2.8358 -0.1514
3.3073 -2.8609 -0.1572
3.3171 -2.8871 -0.1586
3.3160 -2.9141 -0.1535
3.3302 -2.9667 -0.1530
3.3326 -2.9928 -0.1501
3.3660 -3.0207 -0.1649
3.3542 -3.0459 -0.1539
3.3804 -3.0745 -0.1645
3.3848 -3.1010 -0.1626
3.3956 -3.1791 -0.1560
3.4136 -3.2084 -0.1617
3.4268 -3.2369 -0.1647
3.4280 -3.2621 -0.1612
3.4150 -3.2823 -0.1502
3.4343 -3.3129 -0.1564
3.4435 -3.3403 -0.1573
3.4310 -3.3591 -0.1469
3.4495 -3.3902 -0.1525
3.4534 -3.4152 -0.1507
3.4669 -3.4446 -0.1537
3.4623 -3.4654 -0.1475
3.4865 -3.5004 -0.1559
3.4969 -3.5288 -0.1573
3.5041 -3.5556 -0.1570
3.5025 -3.5773 -0.1525
3.5284 -3.6150 -0.1614
3.5556 -3.6543 -0.1708
3.0681 -2.0237 -0.1865
3.0711 -2.0556 -0.1828
3.0748 -2.0862 -0.1797
3.0797 -2.1148 -0.1778
3.0908 -2.1355 -0.1810
3.0936 -2.1665 -0.1773
3.1048 -2.1876 -0.1806
3.1096 -2.2159 -0.1786
3.1247 -2.2993 -0.1733
3.1385 -2.3508 -0.1729
3.1893 -2.5296 -0.1730
3.2055 -2.6376 -0.1641
3.2148 -2.6621 -0.1656
3.2422 -2.7368 -0.1695
3.2811 -2.9430 -0.1575
3.3258 -3.0204 -0.1716
3.3223 -3.0454 -0.1651
3.3245 -3.0704 -0.1621
3.3353 -3.1209 -0.1599
3.3459 -3.1947 -0.1536
3.3544 -3.2435 -0.1503
3.3797 -3.3206 -0.1525
3.3916 -3.3478 -0.1551
3.4236 -3.4292 -0.1606
3.4474 -3.4631 -0.1694
3.4786 -3.5244 -0.1779
3.4652 -3.5394 -0.1670
3.4721 -3.5654 -0.1668
3.4967 -3.6018 -0.1756
3.4916 -3.6207 -0.1692
3.0033 -2.0084 -0.1780
3.0023 -2.0453 -0.1705
3.0178 -2.0557 -0.1787
3.0179 -2.0901 -0.1725
3.0357 -2.0986 -0.1825
3.0391 -2.1280 -0.1793
3.0444 -2.1546 -0.1779
3.0476 -2.1835 -0.1746
3.0480 -2.2156 -0.1690
3.0608 -2.2327 -0.1742
3.0576 -2.2681 -0.1656
3.0690 -2.2871 -0.1696
3.0720 -2.3150 -0.1663
3.0771 -2.3407 -0.1649
3.0821 -2.3662 -0.1635
3.0952 -2.3846 -0.1687
3.0966 -2.4132 -0.1643
3.1121 -2.4304 -0.1713
3.1134 -2.4588 -0.1669
3.1214 -2.4821 -0.1679
3.1280 -2.5065 -0.1676
3.1345 -2.5309 -0.1674
3.1381 -2.5847 -0.1598
3.1526 -2.6048 -0.1656
3.1550 -2.6310 -0.1624
3.1574 -2.6569 -0.1592
3.1697 -2.6787 -0.1632
3.1762 -2.7030 -0.1630
3.1794 -2.7283 -0.1604
3.1858 -2.7524 -0.1601
3.2000 -2.7747 -0.1653
3.2066 -2.7991 -0.1651
3.2027 -2.8253 -0.1577
3.2138 -2.8736 -0.1561
3.2310 -2.8968 -0.1630
3.2375 -2.9211 -0.1628
3.2441 -2.9454 -0.1626
3.2543 -2.9698 -0.1648
3.2525 -2.9939 -0.1592
3.2815 -3.0438 -0.1689
3.2671 -3.0889 -0.1513
3.2850 -3.1148 -0.1582
3.2983 -3.1404 -0.1621
3.2932 -3.1621 -0.1548
3.2957 -3.1851 -0.1522
3.3091 -3.2111 -0.1561
3.3245 -3.2380 -0.1612
3.3290 -3.2617 -0.1598
3.3376 -3.2867 -0.1608
3.3350 -3.3076 -0.1553
3.3435 -3.3326 -0.1563
3.3572 -3.3599 -0.1602
3.3544 -3.3800 -0.1546
3.3683 -3.4077 -0.1586
3.3843 -3.4367 -0.1637
3.3940 -3.4629 -0.1652
3.3953 -3.4847 -0.1621
3.3890 -3.5019 -0.1548
3.3934 -3.5249 -0.1534
3.4020 -3.5503 -0.1543
3.4063 -3.5731 -0.1530
2.9723 -2.0519 -0.1775
3.0035 -2.1378 -0.1823
3.0099 -2.1616 -0.1821
3.0116 -2.1915 -0.1775
3.0092 -2.2262 -0.1691
3.0210 -2.3038 -0.1622
3.0333 -2.3498 -0.1618
3.0719 -2.4867 -0.1618
3.1107 -2.5436 -0.1775
3.1171 -2.5673 -0.1773
3.1096 -2.6507 -0.1561
3.1174 -2.6728 -0.1571
3.1277 -2.6942 -0.1600
3.1372 -2.7161 -0.1623
3.1404 -2.7650 -0.1551
3.1526 -2.8107 -0.1547
3.1632 -2.8567 -0.1530
3.1769 -2.9481 -0.1447
3.2020 -2.9709 -0.1576
3.2249 -3.0629 -0.1556
3.2430 -3.1100 -0.1589
3.2655 -3.1366 -0.1692
3.2470 -3.1756 -0.1490
3.2591 -3.2001 -0.1525
3.2926 -3.2743 -0.1612
3.3039 -3.2996 -0.1641
3.3319 -3.3532 -0.1729
3.3249 -3.3709 -0.1647
3.3375 -3.4180 -0.1643
3.3607 -3.4910 -0.1661
3.3507 -3.5243 -0.1528
2.9381 -2.1014 -0.1709
2.9416 -2.1278 -0.1680
2.9539 -2.1401 -0.1744
2.9634 -2.1889 -0.1714
2.9747 -2.2040 -0.1765
2.9755 -2.2336 -0.1710
2.9774 -2.2611 -0.1669
2.9875 -2.2784 -0.1706
2.9921 -2.3024 -0.1691
2.9967 -2.3262 -0.1676
3.0083 -2.3426 -0.1726
3.0129 -2.3665 -0.1711
3.0133 -2.3944 -0.1657
3.0207 -2.4153 -0.1668
3.0252 -2.4389 -0.1653
3.0341 -2.4586 -0.1677
3.0401 -2.4810 -0.1675
3.0461 -2.5033 -0.1673
3.0506 -2.5267 -0.1658
3.0581 -2.5480 -0.1670
3.0579 -2.5741 -0.1615
3.0685 -2.5935 -0.1653
3.0730 -2.6166 -0.1638
3.0789 -2.6388 -0.1636
3.0801 -2.6632 -0.1595
3.0876 -2.6846 -0.1606
3.0952 -2.7061 -0.1617
3.1061 -2.7266 -0.1654
3.1121 -2.7489 -0.1652
3.1131 -2.7726 -0.1611
3.1421 -2.8606 -0.1642
3.1393 -2.8838 -0.1575
3.1435 -2.9060 -0.1560
3.1548 -2.9278 -0.1597
3.1571 -2.9500 -0.1569
3.1685 -2.9721 -0.1606
3.1835 -2.9948 -0.1669
3.1731 -3.0160 -0.1551
3.1845 -3.0386 -0.1588
3.1905 -3.0608 -0.1586
3.1870 -3.0814 -0.1519
3.2198 -3.1297 -0.1658
3.2124 -3.1490 -0.1565
3.2319 -3.1747 -0.1654
3.2360 -3.1966 -0.1639
3.2361 -3.2172 -0.1598
3.2500 -3.2422 -0.1648
3.2560 -3.2647 -0.1646
3.2601 -3.2864 -0.1631
3.2519 -3.3029 -0.1539
3.2782 -3.3339 -0.1666
3.2699 -3.3499 -0.1573
3.2862 -3.3771 -0.1636
3.2840 -3.3954 -0.1582
3.2795 -3.4121 -0.1516
3.2959 -3.4399 -0.1578
3.3104 -3.4671 -0.1628
3.3058 -3.4832 -0.1562
3.3203 -3.5107 -0.1611
3.3155 -3.5262 -0.1545
2.9700 -2.2948 -0.1808
2.9725 -2.3207 -0.1772
2.9742 -2.3470 -0.1729
2.9902 -2.4664 -0.1597
3.0039 -2.4808 -0.1670
3.0097 -2.5023 -0.1668
3.0212 -2.5949 -0.1558
3.0369 -2.6102 -0.1645
3.0325 -2.6369 -0.1555
3.0525 -2.6750 -0.1626
3.0542 -2.6979 -0.1590
3.0656 -2.7403 -0.1586
3.0697 -2.7619 -0.1571
3.0712 -2.7842 -0.1535
3.0900 -2.8246 -0.1592
3.1071 -2.8883 -0.1587
3.1459 -3.0159 -0.1609
3.1792 -3.1830 -0.1507
3.1927 -3.2065 -0.1559
3.2090 -3.2508 -0.1589
3.2018 -3.2670 -0.1500
3.2255 -3.2957 -0.1619
3.2353 -3.3189 -0.1644
3.2279 -3.3343 -0.1555
3.2738 -3.4689 -0.1617
3.2764 -3.4884 -0.1595
3.2735 -3.5043 -0.1540
2.8812 -2.1535 -0.1681
2.8898 -2.1689 -0.1715
2.8941 -2.1915 -0.1699
2.9009 -2.2102 -0.1712
2.9033 -2.2356 -0.1674
2.9088 -2.2561 -0.1672
2.9162 -2.2739 -0.1692
2.9231 -2.2928 -0.1704
2.9260 -2.3168 -0.1674
2.9315 -2.3374 -0.1672
2.9330 -2.3626 -0.1628
2.9439 -2.3769 -0.1683
2.9481 -2.3990 -0.1667
2.9563 -2.4167 -0.1694
2.9640 -2.4353 -0.1713
2.9773 -2.4749 -0.1731
2.9771 -2.5005 -0.1672
2.9812 -2.5222 -0.1656
2.9830 -2.5455 -0.1619
2.9989 -2.5586 -0.1716
3.0032 -2.6044 -0.1649
3.0080 -2.6254 -0.1640
3.0181 -2.6434 -0.1681
3.0198 -2.6661 -0.1644
3.0245 -2.6870 -0.1635
3.0348 -2.7055 -0.1675
3.0404 -2.7262 -0.1674
3.0459 -2.7468 -0.1672
3.0531 -2.7670 -0.1684
3.0463 -2.7911 -0.1576
3.0642 -2.8085 -0.1680
3.0723 -2.8287 -0.1700
3.0712 -2.8507 -0.1642
3.0796 -2.8921 -0.1617
3.0817 -2.9129 -0.1587
3.1032 -2.9536 -0.1668
3.0981 -2.9741 -0.1582
3.1199 -3.0158 -0.1662
3.1237 -3.0563 -0.1602
3.1403 -3.1178 -0.1597
3.1420 -3.1374 -0.1567
3.1465 -3.1575 -0.1558
3.1741 -3.1846 -0.1718
3.1633 -3.2002 -0.1597
3.1639 -3.2190 -0.1560
3.1694 -3.2394 -0.1558
3.1739 -3.2594 -0.1550
3.1824 -3.2811 -0.1569
3.2009 -3.3074 -0.1658
3.2015 -3.3259 -0.1621
3.2070 -3.3465 -0.1619
3.2064 -3.3640 -0.1576
3.2202 -3.3890 -0.1630
3.2206 -3.4068 -0.1593
3.2282 -3.4286 -0.1605
3.2316 -3.4480 -0.1589
3.2265 -3.4619 -0.1518
3.2448 -3.4906 -0.1600
2.8644 -2.2055 -0.1671
2.8667 -2.2303 -0.1633
2.8768 -2.2420 -0.1690
2.8881 -2.2807 -0.1694
2.8934 -2.3006 -0.1692
2.9048 -2.3658 -0.1635
2.9128 -2.3823 -0.1663
2.9201 -2.3998 -0.1683
2.9227 -2.4226 -0.1652
2.9321 -2.4380 -0.1695
2.9428 -2.4778 -0.1691
2.9460 -2.4996 -0.1667
2.9545 -2.5410 -0.1642
2.9673 -2.5789 -0.1660
2.9712 -2.5997 -0.1644
2.9848 -2.6602 -0.1617
2.9839 -2.6829 -0.1556
2.9912 -2.7232 -0.1524
3.0020 -2.7404 -0.1573
3.0064 -2.7602 -0.1564
3.0116 -2.7798 -0.1563
3.0169 -2.7993 -0.1561
3.0271 -2.8176 -0.1603
3.0207 -2.8396 -0.1499
3.0353 -2.8777 -0.1532
3.0440 -2.8968 -0.1560
3.0526 -2.9161 -0.1587
3.0614 -2.9356 -0.1615
3.0658 -2.9554 -0.1606
3.0720 -2.9751 -0.1611
3.0720 -2.9946 -0.1566
3.0692 -3.0135 -0.1498
3.0843 -3.0340 -0.1577
3.0823 -3.0526 -0.1517
3.0912 -3.0727 -0.1544
3.1066 -3.0942 -0.1623
3.1082 -3.1132 -0.1592
3.1145 -3.1332 -0.1597
3.1245 -3.1543 -0.1632
3.1165 -3.1701 -0.1528
3.1246 -3.1906 -0.1549
3.1357 -3.2122 -0.1590
3.1400 -3.2316 -0.1581
3.1513 -3.2538 -0.1623
3.1703 -3.3149 -0.1640
3.1666 -3.3303 -0.1573
3.1729 -3.3506 -0.1578
3.1782 -3.3703 -0.1577
3.1742 -3.3848 -0.1510
3.1941 -3.4296 -0.1571
3.2058 -3.4534 -0.1613
2.8478 -2.2276 -0.1716
2.8511 -2.2498 -0.1691
2.8556 -2.2699 -0.1682
2.8595 -2.2909 -0.1665
2.8690 -2.3034 -0.1717
2.8691 -2.3298 -0.1654
