ply
format ascii 1.0
element vertex 2101
property float x
property float y
property float z
end_header
5.1479 2.8882 -0.2696
5.1784 1.2497 -0.5121
5.1923 0.9799 -0.5288
5.2438 0.3901 -0.5106
5.2634 0.0720 -0.5219
5.3809 -0.8969 -0.4063
5.3399 -0.8323 -0.5003
5.3493 -0.9284 -0.4946
5.3532 -0.9979 -0.4982
5.3607 -1.0690 -0.4927
5.3599 -1.0904 -0.4989
5.3653 -1.1256 -0.4917
5.3683 -1.1729 -0.4933
5.3713 -1.1981 -0.4904
5.3743 -1.2221 -0.4872
5.3757 -1.2415 -0.4874
5.3778 -1.2615 -0.4859
5.3781 -1.2917 -0.4910
5.3830 -1.3274 -0.4852
5.3825 -1.3511 -0.4914
5.3851 -1.3669 -0.4876
5.3831 -1.3749 -0.4945
5.6792 3.2150 1.4599
5.6421 2.7191 1.2394
5.6093 2.8328 1.1845
5.5731 3.0609 1.1499
5.5427 2.7715 0.9990
5.5107 2.6932 0.8973
5.4839 2.4833 0.7756
5.4345 2.8795 0.7501
5.3918 3.0079 0.6736
5.3842 2.4815 0.5206
5.3519 2.4518 0.4308
5.3097 2.5569 0.3497
5.2606 2.7194 0.2654
5.2070 2.8952 0.1732
5.1596 2.9729 0.0717
5.1222 1.0252 -0.5175
5.2157 0.0978 -0.5139
5.3571 -0.8857 -0.4024
5.3177 -0.7968 -0.4803
5.3123 -0.8156 -0.4990
5.3272 -0.9220 -0.4879
5.3272 -0.9508 -0.4952
5.3334 -0.9939 -0.4903
5.3384 -1.0555 -0.4931
5.3474 -1.1199 -0.4866
5.3502 -1.1649 -0.4908
5.3517 -1.1860 -0.4924
5.3539 -1.2077 -0.4921
5.3590 -1.2493 -0.4897
5.3598 -1.2799 -0.4954
5.3641 -1.3009 -0.4897
5.3645 -1.3144 -0.4923
5.3684 -1.3332 -0.4869
5.3677 -1.3439 -0.4915
5.3681 -1.3560 -0.4934
5.6484 3.1482 1.6286
5.6140 3.1165 1.5328
5.5512 2.7067 1.2493
5.5158 2.8180 1.1951
5.4500 2.7574 1.0115
5.4170 2.7270 0.9198
5.3916 2.5598 0.8046
5.3452 2.7623 0.7507
5.3080 2.7808 0.6634
5.3152 2.2249 0.5104
5.2602 2.4850 0.4527
5.2194 2.5451 0.3691
5.1669 2.7047 0.2867
5.1820 2.2306 0.1786
5.0921 2.6911 0.0952
5.0010 3.0940 -0.0087
5.0970 0.6124 -0.5321
5.1498 0.1961 -0.5279
5.1585 0.0808 -0.5416
5.2843 -0.7988 -0.4975
5.2960 -0.8920 -0.4968
5.3107 -0.9825 -0.4880
5.3099 -1.0051 -0.4969
5.3130 -1.0356 -0.4985
5.3282 -1.1308 -0.4897
5.3293 -1.1516 -0.4933
5.3366 -1.2001 -0.4900
5.3411 -1.2242 -0.4862
5.3417 -1.2404 -0.4897
5.3459 -1.2622 -0.4859
5.3475 -1.2787 -0.4869
5.3504 -1.2966 -0.4852
5.3515 -1.3110 -0.4869
5.3518 -1.3235 -0.4900
5.3544 -1.3391 -0.4883
5.3551 -1.3513 -0.4903
5.4587 2.7854 1.2834
5.4199 2.9012 1.2298
5.3410 3.0472 1.0883
5.3297 2.6666 0.9239
5.2868 2.7786 0.8588
5.2202 2.7173 0.6733
5.1772 2.7844 0.5918
5.0142 2.8622 0.2192
4.8294 2.3060 -0.4344
4.8138 2.1915 -0.5137
5.2042 -0.1035 -0.3792
5.1978 -0.1449 -0.4097
5.1861 -0.1649 -0.4457
5.3203 -0.8647 -0.3675
5.2558 -0.7489 -0.4844
5.2566 -0.7837 -0.4948
5.2625 -0.8296 -0.4968
5.2861 -0.9910 -0.4968
5.2967 -1.0577 -0.4948
5.3071 -1.1180 -0.4910
5.3090 -1.1399 -0.4940
5.3175 -1.1729 -0.4851
5.3192 -1.1924 -0.4878
5.3218 -1.2124 -0.4887
5.3304 -1.2559 -0.4833
5.3308 -1.2700 -0.4873
5.3356 -1.2906 -0.4828
5.3360 -1.3034 -0.4866
5.3349 -1.3137 -0.4930
5.3403 -1.3442 -0.4905
4.5569 -1.9217 0.1972
4.5782 -1.8877 0.1993
5.0010 -1.4897 0.1943
5.0099 -1.4817 0.1941
5.0236 -1.5047 0.1879
5.0333 -1.5064 0.1860
5.0482 -1.4752 0.1887
5.0567 -1.4675 0.1886
5.0650 -1.4570 0.1889
5.0734 -1.4465 0.1892
5.0820 -1.4373 0.1893
5.0990 -1.4012 0.1925
4.4758 -1.8973 0.2027
4.5452 -1.8347 0.2015
4.7791 -1.6147 0.1985
4.7905 -1.6074 0.1979
5.0345 -1.5046 0.1759
5.0413 -1.4837 0.1780
5.0498 -1.4760 0.1778
5.0576 -1.4588 0.1792
5.0661 -1.4495 0.1793
5.0746 -1.4361 0.1800
5.0832 -1.4239 0.1805
5.0919 -1.4072 0.1816
4.4130 -1.8986 0.1988
4.4294 -1.8780 0.1993
4.4679 -1.8374 0.1993
4.4753 -1.8264 0.1998
4.4792 -1.8140 0.2008
4.5763 -1.7381 0.1975
5.0349 -1.4963 0.1666
5.0418 -1.4754 0.1684
5.0504 -1.4662 0.1684
5.0589 -1.4556 0.1686
5.0671 -1.4380 0.1698
5.0762 -1.4341 0.1691
5.0846 -1.4120 0.1708
4.3853 -1.8298 0.1964
4.5953 -1.6243 0.1944
4.6844 -1.4946 0.1983
4.8102 -1.4042 0.1934
4.8531 -1.3350 0.1961
5.0276 -1.5023 0.1562
5.0353 -1.4880 0.1568
5.0431 -1.4723 0.1577
5.0517 -1.4630 0.1577
5.0599 -1.4470 0.1585
5.0688 -1.4375 0.1585
5.0773 -1.4211 0.1593
5.0862 -1.4072 0.1598
5.0953 -1.3890 0.1608
5.1046 -1.3791 0.1608
4.3973 -1.9123 0.1720
4.0035 -1.8112 0.2226
4.0236 -1.7959 0.2219
3.9954 -1.7695 0.2274
3.9700 -1.7420 0.2326
4.3257 -1.7494 0.1949
4.3388 -1.7361 0.1948
4.6422 -1.6221 0.1741
4.6115 -1.4654 0.1922
4.6267 -1.4531 0.1917
4.6433 -1.4424 0.1910
4.7298 -1.3629 0.1896
4.7638 -1.3466 0.1876
4.7867 -1.3518 0.1847
4.8163 -1.3309 0.1836
4.8497 -1.2100 0.1916
4.8678 -1.2066 0.1901
4.8831 -1.1942 0.1896
5.0286 -1.4994 0.1455
5.0361 -1.4825 0.1464
5.0439 -1.4654 0.1472
5.0527 -1.4560 0.1471
5.0613 -1.4425 0.1475
5.0698 -1.4261 0.1482
5.0789 -1.4151 0.1483
5.0877 -1.3941 0.1494
5.1066 -1.3598 0.1507
4.3793 -1.9119 0.1598
4.3255 -1.8904 0.1661
4.3012 -1.8723 0.1696
4.3088 -1.8596 0.1699
3.9914 -1.7512 0.2060
3.9684 -1.7232 0.2101
3.9722 -1.7012 0.2115
4.6334 -1.6153 0.1603
4.6158 -1.4995 0.1707
4.6145 -1.4692 0.1731
4.6223 -1.4478 0.1740
4.6259 -1.4202 0.1758
4.6475 -1.3807 0.1770
4.7427 -1.3019 0.1747
4.7661 -1.2578 0.1760
4.7754 -1.2280 0.1775
4.7954 -1.2242 0.1760
4.8151 -1.2208 0.1746
4.8318 -1.2100 0.1739
4.8508 -1.2072 0.1725
4.8859 -1.1969 0.1702
4.9055 -1.2022 0.1681
5.0210 -1.5044 0.1349
5.0288 -1.4902 0.1353
5.0359 -1.4680 0.1363
5.0451 -1.4611 0.1361
5.0538 -1.4490 0.1362
5.0625 -1.4354 0.1365
5.0710 -1.4149 0.1373
5.0894 -1.3839 0.1381
5.0989 -1.3653 0.1387
4.4099 -1.9192 0.1428
4.3426 -1.8960 0.1489
4.3390 -1.8822 0.1500
4.3269 -1.8661 0.1518
3.9286 -1.7166 0.1886
3.9607 -1.7019 0.1872
4.6201 -1.5317 0.1504
4.6130 -1.4969 0.1530
4.6196 -1.4753 0.1538
4.6024 -1.4240 0.1579
4.6074 -1.3612 0.1612
4.6259 -1.3104 0.1629
4.6359 -1.2843 0.1637
4.6842 -1.2321 0.1633
4.7141 -1.2421 0.1606
4.7341 -1.2340 0.1597
4.7529 -1.2242 0.1589
4.7749 -1.2228 0.1574
4.7987 -1.2283 0.1554
4.8137 -1.2119 0.1553
4.8505 -1.2000 0.1534
4.8705 -1.2018 0.1519
5.0123 -1.5047 0.1243
5.0220 -1.5016 0.1238
5.0290 -1.4811 0.1245
5.0374 -1.4678 0.1247
5.0455 -1.4492 0.1252
5.0543 -1.4355 0.1254
5.0636 -1.4257 0.1253
5.0724 -1.4078 0.1257
5.0911 -1.3724 0.1264
5.1008 -1.3565 0.1266
4.4081 -1.9214 0.1290
4.3701 -1.9033 0.1317
4.3337 -1.8839 0.1344
4.3270 -1.8688 0.1354
4.2957 -1.8476 0.1379
4.2956 -1.8322 0.1385
4.3008 -1.8177 0.1388
3.9875 -1.7133 0.1597
4.2467 -1.3565 0.1597
5.0229 -1.4977 0.1126
5.0378 -1.4573 0.1134
5.0465 -1.4425 0.1135
5.0555 -1.4287 0.1135
5.0646 -1.4148 0.1136
5.0740 -1.4021 0.1136
5.0833 -1.3838 0.1138
5.0928 -1.3555 0.1144
5.1028 -1.3365 0.1146
4.3876 -1.9208 0.1157
4.3739 -1.9065 0.1165
4.3622 -1.8918 0.1172
4.3220 -1.8706 0.1191
4.3035 -1.8522 0.1201
4.2984 -1.8357 0.1206
3.9464 -1.7058 0.1360
3.9667 -1.6875 0.1357
3.9536 -0.9148 0.1516
4.0243 -0.9254 0.1488
4.5707 -1.3499 0.1205
4.5913 -1.0507 0.1257
4.6021 -1.0100 0.1261
4.6116 -0.9635 0.1267
4.6266 -0.9261 0.1269
4.4669 -0.2170 0.1469
4.4964 -0.1666 0.1468
5.0039 -1.5005 0.1017
5.0150 -1.5032 0.1012
5.0243 -1.4975 0.1010
5.0325 -1.4832 0.1010
5.0565 -1.4194 0.1014
5.0662 -1.4106 0.1012
5.0755 -1.3924 0.1013
5.0848 -1.3672 0.1014
5.0947 -1.3470 0.1015
5.1050 -1.3251 0.1015
4.3936 -1.9357 0.1010
4.3820 -1.9225 0.1012
4.3841 -1.9108 0.1012
4.3763 -1.8970 0.1013
4.3589 -1.8806 0.1017
4.3450 -1.8639 0.1019
4.1932 -1.7960 0.1048
3.9745 -1.6937 0.1090
3.9490 -1.6609 0.1095
4.5530 -1.3652 0.0983
4.5717 -1.3511 0.0980
4.3437 -0.3789 0.1029
4.3527 -0.2871 0.1028
4.3996 -0.2810 0.1019
4.4286 -0.2311 0.1014
4.4513 -0.1605 0.1010
4.4849 -0.1175 0.1004
4.5064 -0.0326 0.1000
5.0160 -1.5006 0.0895
5.0251 -1.4925 0.0893
5.0318 -1.4655 0.0892
5.0396 -1.4431 0.0891
5.0486 -1.4280 0.0889
5.0580 -1.4153 0.0888
5.0672 -1.3959 0.0886
5.0768 -1.3789 0.0884
5.0866 -1.3575 0.0883
5.0967 -1.3372 0.0881
5.1072 -1.3054 0.0879
4.3852 -1.9135 0.0862
4.3877 -1.9016 0.0859
4.3615 -1.8838 0.0856
4.2846 -1.8382 0.0849
4.2157 -1.8049 0.0843
3.9749 -1.7217 0.0830
3.9462 -1.6895 0.0824
3.9365 -1.6345 0.0814
2.7331 -0.3819 0.0589
2.7132 -0.2739 0.0569
3.9636 -0.8664 0.0667
3.9966 -0.8366 0.0661
4.5461 -1.3570 0.0754
4.5702 -1.3491 0.0752
4.3433 -0.3712 0.0569
4.3679 -0.3144 0.0558
4.4001 -0.2729 0.0550
4.4256 -0.2124 0.0538
4.4384 -0.1109 0.0518
4.4926 -0.1270 0.0521
5.0071 -1.5017 0.0776
5.0175 -1.5006 0.0776
5.0256 -1.4850 0.0773
5.0329 -1.4617 0.0768
5.0409 -1.4393 0.0764
5.0501 -1.4241 0.0761
5.0595 -1.4100 0.0758
5.0687 -1.3879 0.0754
5.0783 -1.3667 0.0750
5.0885 -1.3534 0.0747
5.0988 -1.3316 0.0743
5.1095 -1.2942 0.0736
5.1209 -1.2660 0.0730
4.4184 -1.9327 0.0723
4.3928 -1.9173 0.0713
4.3786 -1.9026 0.0705
4.3439 -1.8831 0.0691
4.3094 -1.8619 0.0677
4.2582 -1.8352 0.0658
4.2093 -1.8065 0.0639
4.0097 -1.7350 0.0577
3.9436 -1.6928 0.0550
3.9408 -1.6665 0.0539
3.9332 -1.6375 0.0527
3.9191 -1.6049 0.0512
3.4569 -1.0661 0.0224
2.6052 -0.2999 -0.0217
2.7456 -0.3038 -0.0192
3.3983 -0.4739 -0.0016
3.6039 -0.5840 0.0061
3.9754 -0.8800 0.0239
4.5700 -1.3488 0.0521
4.2995 -0.3797 0.0099
4.3997 -0.4873 0.0158
4.4480 -0.4932 0.0168
4.4213 -0.3165 0.0095
4.4229 -0.1940 0.0047
4.4322 -0.0797 0.0004
4.4877 -0.0970 0.0021
5.0079 -1.4982 0.0653
5.0332 -1.4506 0.0639
5.0510 -1.4139 0.0628
5.0610 -1.4048 0.0626
5.0706 -1.3879 0.0621
5.0806 -1.3720 0.0616
5.0905 -1.3479 0.0609
5.1009 -1.3193 0.0599
5.1119 -1.2915 0.0590
4.3874 -1.9191 0.0560
4.3722 -1.9041 0.0546
4.3540 -1.8877 0.0530
4.3097 -1.8649 0.0501
4.2928 -1.8460 0.0484
4.2161 -1.8114 0.0437
3.9123 -1.6881 0.0257
3.9204 -1.6644 0.0246
3.9345 -1.6421 0.0238
3.9130 -1.6069 0.0210
3.0806 -0.6340 -0.0656
3.0443 -0.5274 -0.0732
2.8530 -0.2943 -0.0937
3.3854 -0.4654 -0.0649
3.9666 -0.8725 -0.0205
4.5674 -1.3453 0.0284
3.7202 -0.0566 -0.0774
3.6487 0.1699 -0.0932
4.0611 -0.1396 -0.0605
4.1043 -0.1006 -0.0613
4.3523 -0.4820 -0.0301
4.4158 -0.5161 -0.0258
4.4572 -0.5075 -0.0249
4.4694 -0.4282 -0.0292
4.4162 -0.1646 -0.0466
4.4646 -0.1606 -0.0451
4.5171 -0.1747 -0.0425
4.9993 -1.5032 0.0529
5.0092 -1.4970 0.0529
5.0432 -1.4268 0.0499
5.0531 -1.4165 0.0496
5.0622 -1.3932 0.0486
5.0720 -1.3761 0.0479
5.0823 -1.3627 0.0475
5.0926 -1.3439 0.0467
5.1143 -1.2874 0.0442
4.3717 -1.9194 0.0398
4.3632 -1.9053 0.0382
4.3366 -1.8873 0.0353
4.3150 -1.8688 0.0327
4.2752 -1.8450 0.0287
4.2514 -1.8230 0.0257
3.9248 -1.6959 -0.0019
3.9058 -1.6642 -0.0054
3.9169 -1.6406 -0.0067
3.9437 -1.6218 -0.0068
3.8199 -1.2857 -0.0401
3.6664 -1.1476 -0.0593
3.9990 -0.9069 -0.0607
4.5462 -1.3575 0.0044
4.5667 -1.3443 0.0045
3.7304 -0.0692 -0.1416
2.7326 1.7779 -0.3418
2.7944 1.9111 -0.3491
4.1535 -0.1894 -0.1094
4.3561 -0.4841 -0.0752
4.3968 -0.4677 -0.0743
4.4369 -0.4519 -0.0734
4.4644 -0.4067 -0.0755
4.9904 -1.5074 0.0401
5.0008 -1.5033 0.0403
5.0101 -1.4936 0.0400
5.0352 -1.4384 0.0370
5.0449 -1.4256 0.0365
5.0542 -1.4077 0.0356
5.0645 -1.3997 0.0355
5.0844 -1.3628 0.0336
5.0947 -1.3413 0.0325
4.3780 -1.9230 0.0246
4.3569 -1.9070 0.0215
4.3467 -1.8919 0.0193
4.3337 -1.8754 0.0167
4.3046 -1.8544 0.0125
4.2853 -1.8341 0.0090
4.2474 -1.8077 0.0037
4.2708 -1.7960 0.0042
3.9216 -1.6463 -0.0360
3.9257 -1.6197 -0.0384
3.9061 -1.5835 -0.0434
3.8294 -1.2511 -0.0823
3.8436 -1.2141 -0.0850
3.8466 -1.1682 -0.0894
3.8526 -1.0145 -0.1043
3.8805 -0.9799 -0.1058
3.9537 -0.8626 -0.1123
4.5326 -1.3413 -0.0225
4.5568 -1.3316 -0.0217
3.5421 0.3373 -0.2622
2.9535 1.6483 -0.4361
4.2689 -0.4069 -0.1352
4.3451 -0.4553 -0.1248
4.3835 -0.4314 -0.1244
4.4377 -0.4459 -0.1191
4.4594 -0.3845 -0.1237
4.9919 -1.5076 0.0273
5.0019 -1.5012 0.0274
5.0372 -1.4397 0.0238
5.0467 -1.4257 0.0231
5.0565 -1.4115 0.0223
5.0661 -1.3934 0.0212
5.0763 -1.3802 0.0206
5.0865 -1.3615 0.0195
5.0969 -1.3440 0.0185
5.1077 -1.3249 0.0174
4.3417 -1.9074 0.0035
4.3357 -1.8928 0.0012
4.3218 -1.8759 -0.0022
4.3171 -1.8600 -0.0045
4.3096 -1.8428 -0.0073
4.2842 -1.8027 -0.0145
4.2781 -1.7829 -0.0174
3.8917 -1.6123 -0.0733
3.8826 -1.5791 -0.0782
3.8106 -1.5196 -0.0919
3.8034 -1.4820 -0.0972
3.6803 -1.1648 -0.1468
3.8221 -1.2040 -0.1291
3.8691 -1.1871 -0.1269
3.8460 -1.1209 -0.1370
3.8328 -1.0579 -0.1459
3.8478 -1.0135 -0.1499
4.5409 -1.3515 -0.0458
4.5606 -1.3363 -0.0458
4.9924 -1.5033 0.0138
5.0024 -1.4957 0.0138
5.0387 -1.4375 0.0100
5.0486 -1.4259 0.0095
5.0580 -1.4066 0.0081
5.0683 -1.3960 0.0077
5.0784 -1.3815 0.0069
5.0887 -1.3656 0.0059
5.0992 -1.3494 0.0049
5.1099 -1.3277 0.0032
5.1210 -1.3070 0.0017
4.3343 -1.9224 -0.0124
4.3456 -1.9109 -0.0128
4.3582 -1.8995 -0.0131
4.3610 -1.8863 -0.0146
4.3439 -1.8685 -0.0190
4.3337 -1.8512 -0.0226
4.3185 -1.8317 -0.0271
4.3055 -1.8115 -0.0314
4.2635 -1.7816 -0.0403
4.2443 -1.7564 -0.0460
3.8559 -1.6046 -0.1105
3.8624 -1.5762 -0.1139
3.8439 -1.5371 -0.1215
3.8089 -1.4889 -0.1322
3.8121 -1.4541 -0.1368
2.9969 -0.9008 -0.3056
3.1611 -0.9240 -0.2842
3.2969 -0.9383 -0.2672
3.4767 -0.9873 -0.2404
3.6954 -1.0730 -0.2040
3.5573 -0.7830 -0.2606
4.5517 -1.3645 -0.0679
4.5712 -1.3496 -0.0679
4.6658 -1.3998 -0.0503
4.6994 -1.4120 -0.0449
4.7227 -1.4109 -0.0425
4.7470 -1.4129 -0.0395
4.7660 -1.4077 -0.0381
4.7894 -1.4118 -0.0350
4.8093 -1.4111 -0.0329
4.8245 -1.4014 -0.0326
4.9702 -1.5051 -0.0017
4.9814 -1.5004 -0.0012
4.9928 -1.4980 -0.0002
5.0507 -1.4285 -0.0038
5.0609 -1.4193 -0.0039
5.0706 -1.4012 -0.0054
5.0909 -1.3670 -0.0081
5.1014 -1.3548 -0.0087
5.1121 -1.3358 -0.0102
4.3571 -1.9021 -0.0301
4.3637 -1.8896 -0.0313
4.3645 -1.8756 -0.0335
4.3400 -1.8555 -0.0399
4.2747 -1.8063 -0.0565
4.2734 -1.7876 -0.0597
4.2303 -1.7552 -0.0706
3.8758 -1.5539 -0.1497
3.8426 -1.5073 -0.1617
3.8315 -1.4672 -0.1697
3.7729 -1.4026 -0.1879
2.8576 -0.8338 -0.4001
3.1083 -0.9005 -0.3566
3.2390 -0.9092 -0.3382
3.3897 -0.9368 -0.3141
3.5988 -1.0120 -0.2746
3.5548 -0.9198 -0.2955
3.5515 -0.8515 -0.3071
3.4908 -0.7334 -0.3344
3.5049 -0.6692 -0.3431
3.3411 -0.4422 -0.4016
3.3671 -0.3738 -0.4095
4.5543 -1.3677 -0.0922
4.5653 -1.3419 -0.0950
4.6319 -1.3900 -0.0784
4.7363 -1.4317 -0.0580
4.7550 -1.4254 -0.0566
4.7993 -1.4290 -0.0503
4.8197 -1.4303 -0.0474
4.8579 -1.4328 -0.0421
4.8731 -1.4270 -0.0410
4.8880 -1.4215 -0.0400
4.9721 -1.5066 -0.0151
4.9829 -1.5008 -0.0147
4.9928 -1.4906 -0.0151
5.0827 -1.3856 -0.0206
5.0931 -1.3710 -0.0217
5.1036 -1.3575 -0.0225
4.3671 -1.9066 -0.0453
4.3627 -1.8922 -0.0486
4.3542 -1.8763 -0.0528
4.1950 -1.7684 -0.0967
4.1948 -1.7476 -0.1006
3.8412 -1.5451 -0.1912
3.8567 -1.4827 -0.2005
3.7789 -1.4101 -0.2257
3.7244 -1.3426 -0.2464
3.3355 -1.0344 -0.3619
3.5062 -1.0743 -0.3289
3.5930 -1.0707 -0.3166
3.6816 -1.0720 -0.3031
3.7035 -1.0299 -0.3077
3.7529 -1.0075 -0.3044
3.6823 -0.8904 -0.3368
3.6160 -0.7668 -0.3697
3.5387 -0.6229 -0.4080
3.6742 -0.6684 -0.3793
3.9484 -0.8638 -0.3019
3.9783 -0.8264 -0.3044
4.5550 -1.3687 -0.1172
4.5649 -1.3413 -0.1208
4.7912 -1.4503 -0.0667
4.8282 -1.4457 -0.0620
4.8460 -1.4441 -0.0596
4.8980 -1.4456 -0.0516
4.9136 -1.4446 -0.0494
4.9728 -1.5039 -0.0295
4.9848 -1.5023 -0.0281
4.9933 -1.4854 -0.0299
4.3673 -1.9094 -0.0621
3.8635 -1.5248 -0.2277
3.8622 -1.4895 -0.2353
3.7687 -1.4100 -0.2677
3.5937 -1.2830 -0.3238
3.4898 -1.1803 -0.3629
3.5348 -1.1514 -0.3612
3.5141 -1.0841 -0.3788
3.6890 -1.0811 -0.3497
3.6891 -1.0237 -0.3616
3.7470 -1.0066 -0.3554
3.8343 -1.0150 -0.3388
3.8570 -0.9737 -0.3436
3.6991 -0.6946 -0.4285
3.9673 -0.8845 -0.3434
4.0021 -0.8530 -0.3441
4.5476 -1.3600 -0.1459
4.5676 -1.3446 -0.1457
4.8191 -1.4638 -0.0783
4.8378 -1.4637 -0.0751
4.8565 -1.4651 -0.0716
4.8781 -1.4755 -0.0658
4.8935 -1.4733 -0.0636
4.9072 -1.4675 -0.0625
4.9223 -1.4668 -0.0601
4.9619 -1.5053 -0.0454
4.9739 -1.5023 -0.0440
4.9849 -1.4962 -0.0434
5.0012 -1.4542 -0.0493
5.0097 -1.4309 -0.0527
5.0197 -1.4141 -0.0546
5.0304 -1.4018 -0.0553
5.0415 -1.3917 -0.0555
5.0519 -1.3720 -0.0579
5.0624 -1.3507 -0.0605
5.0734 -1.3291 -0.0631
5.0845 -1.2996 -0.0674
5.0966 -1.2991 -0.0655
5.1604 -0.9278 -0.1319
3.8457 -1.7838 -0.2079
3.8598 -1.7619 -0.2102
3.8630 -1.7371 -0.2154
2.8362 -1.3992 -0.4885
2.9052 -1.3679 -0.4826
2.9479 -1.3293 -0.4834
2.9524 -1.2774 -0.4945
3.9036 -1.5454 -0.2519
3.9328 -1.5242 -0.2512
3.3323 -1.1037 -0.4624
3.7427 -1.1738 -0.3682
3.5745 -1.0091 -0.4382
3.5795 -0.9503 -0.4508
3.6001 -0.8322 -0.4742
3.9446 -0.9916 -0.3719
3.9566 -0.9407 -0.3814
4.5703 -1.3479 -0.1708
4.3220 -0.6702 -0.3744
4.8612 -1.4730 -0.0866
4.8794 -1.4758 -0.0825
4.8986 -1.4831 -0.0772
4.9162 -1.4892 -0.0724
4.9331 -1.4958 -0.0677
4.9618 -1.4997 -0.0613
4.9747 -1.4996 -0.0589
5.0034 -1.4569 -0.0633
5.0128 -1.4394 -0.0656
5.0325 -1.4023 -0.0704
5.0437 -1.3934 -0.0703
5.0548 -1.3821 -0.0708
5.0658 -1.3708 -0.0713
5.1567 -0.7035 -0.2080
3.8364 -1.8110 -0.2345
3.8620 -1.7917 -0.2340
3.8530 -1.7653 -0.2426
3.8439 -1.7375 -0.2515
3.0895 -1.4770 -0.4766
3.0724 -1.4257 -0.4932
3.1971 -1.4171 -0.4691
3.2052 -1.3726 -0.4787
3.3484 -1.3292 -0.4595
3.4048 -1.2540 -0.4667
3.4063 -1.2026 -0.4794
3.4970 -1.1951 -0.4622
3.5925 -1.0845 -0.4701
3.5907 -1.0245 -0.4857
3.6293 -0.9897 -0.4864
3.7129 -0.9886 -0.4691
3.7283 -0.9375 -0.4788
3.7589 -0.8970 -0.4826
3.8178 -0.8811 -0.4743
3.9481 -0.8686 -0.4500
4.5554 -1.3697 -0.1949
4.5695 -1.3467 -0.1978
4.1676 -0.6808 -0.4514
4.3894 -0.8615 -0.3588
4.4324 -0.8585 -0.3505
4.9014 -1.4871 -0.0923
4.9326 -1.4897 -0.0850
4.9489 -1.4968 -0.0798
4.9756 -1.4971 -0.0741
4.9857 -1.4854 -0.0749
5.0637 -0.0808 -0.4148
5.1611 -0.7048 -0.2360
3.8362 -1.8159 -0.2647
3.8631 -1.7967 -0.2638
3.8956 -1.7789 -0.2612
3.8566 -1.7453 -0.2796
3.2555 -1.4870 -0.4903
3.3189 -1.4628 -0.4823
3.3371 -1.4247 -0.4886
3.3731 -1.3922 -0.4893
3.4003 -1.3562 -0.4930
3.4279 -1.3198 -0.4966
3.4897 -1.2984 -0.4883
3.5090 -1.2581 -0.4950
3.5533 -1.2296 -0.4926
3.6753 -1.2442 -0.4603
3.7093 -1.2135 -0.4609
3.6388 -1.1180 -0.5037
3.6754 -1.0849 -0.5043
3.7469 -1.0764 -0.4901
3.7764 -1.0396 -0.4935
3.8055 -1.0019 -0.4972
3.8086 -0.9418 -0.5131
4.0129 -0.9980 -0.4502
4.0105 -0.9327 -0.4689
4.5533 -1.3672 -0.2229
4.5693 -1.3464 -0.2249
4.4367 -0.9363 -0.3692
4.8758 -1.4606 -0.1223
4.8935 -1.4625 -0.1177
4.9374 -1.5005 -0.0970
4.9518 -1.5016 -0.0934
4.9654 -1.5021 -0.0901
4.9758 -1.4914 -0.0906
4.8735 -0.2388 -0.4611
4.9016 -0.1664 -0.4746
4.9343 -0.1279 -0.4777
4.9698 -0.1239 -0.4706
5.0062 -0.1547 -0.4536
5.0390 -0.1429 -0.4493
5.0716 -0.1568 -0.4379
5.1453 -0.7105 -0.2675
3.4106 -1.4983 -0.4997
3.4833 -1.4807 -0.4866
3.5095 -1.4482 -0.4897
3.5643 -1.4265 -0.4824
3.5618 -1.3820 -0.4964
3.5954 -1.3516 -0.4970
3.6492 -1.3309 -0.4896
3.7271 -1.3237 -0.4721
3.8065 -1.3204 -0.4530
3.7863 -1.2627 -0.4754
3.7945 -1.2187 -0.4866
3.8657 -1.1632 -0.4852
3.8815 -1.1211 -0.4939
3.9147 -1.0912 -0.4945
3.9639 -1.0746 -0.4870
3.9868 -1.0363 -0.4928
4.0445 -1.0297 -0.4802
4.0714 -0.9952 -0.4837
4.5500 -1.3635 -0.2521
4.5675 -1.3439 -0.2535
4.4759 -1.0624 -0.3612
4.3734 -0.7492 -0.4812
4.8785 -1.4639 -0.1388
4.9137 -1.2235 -0.2021
4.8500 -0.6918 -0.3779
4.8838 -0.7157 -0.3622
4.9294 -0.6366 -0.3745
5.0145 -0.6912 -0.3365
5.0384 -0.6798 -0.3339
5.0627 -0.6933 -0.3237
5.1078 -0.7347 -0.2999
5.1285 -0.7464 -0.2911
5.1483 -0.7563 -0.2831
5.1697 -0.7154 -0.2900
3.3094 -1.7754 -0.4868
3.7627 -1.8142 -0.3498
3.7945 -1.7943 -0.3475
3.8009 -1.7696 -0.3537
3.7576 -1.7335 -0.3774
3.5069 -1.6448 -0.4749
3.4963 -1.6067 -0.4902
3.5475 -1.5843 -0.4834
3.5378 -1.5441 -0.4991
3.5958 -1.5244 -0.4896
3.6268 -1.4964 -0.4901
3.6520 -1.4661 -0.4930
3.6831 -1.4380 -0.4936
3.7012 -1.4041 -0.4996
3.7563 -1.3870 -0.4901
3.7872 -1.3591 -0.4906
3.8129 -1.3284 -0.4935
3.8490 -1.3033 -0.4917
3.8799 -1.2754 -0.4923
3.9165 -1.2512 -0.4901
3.9323 -1.2131 -0.4982
3.9640 -1.1329 -0.5154
4.0394 -1.1402 -0.4924
4.0610 -1.1043 -0.4981
4.1050 -1.0885 -0.4911
4.1396 -1.0648 -0.4893
4.5522 -1.3662 -0.2784
4.5674 -1.3437 -0.2815
4.5276 -1.1952 -0.3406
4.3836 -0.8446 -0.4938
4.4051 -0.8013 -0.5019
4.4391 -0.7793 -0.4997
4.4725 -0.7568 -0.4979
4.5263 -0.6843 -0.5066
4.5621 -0.6683 -0.5020
4.6193 -0.6003 -0.5083
4.9185 -1.2339 -0.2208
4.9963 -0.7230 -0.3650
5.0205 -0.7150 -0.3610
5.0449 -0.7231 -0.3517
5.0680 -0.7199 -0.3464
5.1120 -0.7667 -0.3191
5.1323 -0.7735 -0.3114
5.1517 -0.7836 -0.3028
5.1724 -0.7511 -0.3076
3.4850 -1.8064 -0.4693
3.7994 -1.8003 -0.3783
3.8229 -1.7791 -0.3787
3.6314 -1.6804 -0.4698
3.6370 -1.6492 -0.4790
3.6476 -1.6185 -0.4866
3.6765 -1.5924 -0.4871
3.7165 -1.5700 -0.4831
3.7293 -1.5385 -0.4903
3.7951 -1.5264 -0.4750
3.7920 -1.4881 -0.4893
3.8469 -1.4734 -0.4781
3.8698 -1.4453 -0.4811
3.8840 -1.4125 -0.4883
3.9266 -1.3940 -0.4822
3.9458 -1.3630 -0.4873
4.0016 -1.3537 -0.4740
4.0031 -1.3112 -0.4884
4.0489 -1.2972 -0.4796
4.0566 -1.2567 -0.4915
4.1364 -1.2706 -0.4630
4.1414 -1.2274 -0.4766
4.1617 -1.1954 -0.4817
4.1899 -1.1700 -0.4822
4.2253 -1.1517 -0.4781
4.2463 -1.1190 -0.4833
4.5425 -1.3549 -0.3133
4.5743 -1.3523 -0.3048
4.5810 -1.3177 -0.3149
4.4262 -0.9828 -0.4774
4.4329 -0.9231 -0.4962
4.4794 -0.9285 -0.4806
4.5162 -0.9202 -0.4726
4.5168 -0.8412 -0.4999
4.5342 -0.7906 -0.5124
4.5701 -0.7794 -0.5057
4.6111 -0.7835 -0.4921
4.6356 -0.7476 -0.4973
4.6677 -0.7324 -0.4931
4.9016 -1.2362 -0.2482
4.9204 -1.2318 -0.2442
4.8385 -0.5844 -0.4941
4.8667 -0.5589 -0.4946
4.8966 -0.5456 -0.4904
4.9246 -0.5204 -0.4909
4.9513 -0.4826 -0.4962
4.9800 -0.4629 -0.4945
5.0088 -0.4505 -0.4903
5.0380 -0.4566 -0.4795
5.0664 -0.4733 -0.4653
5.1159 -0.8273 -0.3273
5.1364 -0.7851 -0.3359
5.1550 -0.8081 -0.3223
5.1777 -0.7379 -0.3401
3.4975 -1.8707 -0.4827
3.4821 -1.8413 -0.4986
3.5577 -1.8225 -0.4815
3.7808 -1.8276 -0.4086
3.7997 -1.8056 -0.4108
3.8199 -1.7836 -0.4125
3.7903 -1.7510 -0.4341
3.7103 -1.6736 -0.4885
3.7469 -1.6517 -0.4850
3.7894 -1.6319 -0.4789
3.7959 -1.6012 -0.4882
3.8083 -1.5715 -0.4954
3.8695 -1.5595 -0.4803
3.8774 -1.5277 -0.4897
3.9183 -1.5093 -0.4835
3.9361 -1.4809 -0.4885
3.9676 -1.4587 -0.4867
3.9945 -1.4343 -0.4872
4.0172 -1.4076 -0.4900
4.0524 -1.3882 -0.4860
4.0833 -1.3666 -0.4842
4.0828 -1.3237 -0.5004
4.1185 -1.3051 -0.4960
4.1487 -1.2828 -0.4947
4.2168 -1.2460 -0.4867
4.2200 -1.1998 -0.5029
4.5632 -1.3797 -0.3265
4.5852 -1.3660 -0.3246
4.8599 -1.2292 -0.2881
4.8851 -1.2423 -0.2752
4.9040 -1.2364 -0.2714
4.9251 -1.2421 -0.2626
4.8806 -0.6170 -0.5099
4.9062 -0.5803 -0.5155
4.9362 -0.5779 -0.5068
4.9627 -0.5478 -0.5096
4.9921 -0.5523 -0.4986
5.0189 -0.5329 -0.4972
5.0453 -0.5042 -0.4995
5.1201 -0.8262 -0.3556
5.1406 -0.7903 -0.3624
5.1619 -0.7500 -0.3707
5.1822 -0.7392 -0.3683
3.5906 -1.8858 -0.4851
3.6477 -1.8662 -0.4735
3.6466 -1.8401 -0.4842
3.7494 -1.8284 -0.4538
3.8138 -1.8132 -0.4379
3.8175 -1.7619 -0.4570
3.7930 -1.7289 -0.4786
3.8001 -1.7016 -0.4870
3.8162 -1.6760 -0.4917
3.8471 -1.6542 -0.4898
3.8858 -1.6353 -0.4842
3.9190 -1.6151 -0.4809
3.9683 -1.6013 -0.4696
3.9817 -1.5745 -0.4757
3.9827 -1.5416 -0.4884
4.0127 -1.5207 -0.4865
4.0381 -1.4978 -0.4870
4.0669 -1.4767 -0.4855
4.0813 -1.4477 -0.4921
4.1207 -1.4330 -0.4846
4.1499 -1.4128 -0.4826
4.1781 -1.3922 -0.4812
4.1964 -1.3647 -0.4859
4.2282 -1.3470 -0.4821
4.2468 -1.3192 -0.4869
4.2755 -1.2994 -0.4849
4.3139 -1.2892 -0.4759
4.5698 -1.4264 -0.3340
4.5767 -1.3551 -0.3600
4.5691 -1.1999 -0.4244
4.6519 -1.2271 -0.3853
4.6856 -1.2335 -0.3713
4.7164 -1.2376 -0.3592
4.7430 -1.2357 -0.3509
4.7680 -1.2327 -0.3435
4.7934 -1.2331 -0.3347
4.8174 -1.2323 -0.3268
4.8406 -1.2322 -0.3190
4.8752 -1.2721 -0.2913
4.8978 -1.2799 -0.2804
4.9155 -1.2726 -0.2773
4.9319 -1.2615 -0.2762
4.9471 -1.2452 -0.2774
4.9604 -1.2173 -0.2840
4.9802 -0.6828 -0.4900
5.0015 -0.6121 -0.5109
5.0288 -0.6193 -0.4987
5.1042 -0.9058 -0.3589
5.1469 -0.7336 -0.4130
5.1712 -0.6527 -0.4369
5.2039 -0.4710 -0.4980
5.2284 -0.4538 -0.4965
3.6819 -1.9001 -0.4841
3.7060 -1.8782 -0.4845
3.7255 -1.8558 -0.4870
3.7923 -1.8149 -0.4799
3.8073 -1.7917 -0.4843
3.8314 -1.7699 -0.4848
3.8685 -1.7511 -0.4793
3.8796 -1.7264 -0.4857
3.8923 -1.7016 -0.4916
3.9034 -1.6757 -0.4985
3.9559 -1.6624 -0.4850
3.9839 -1.6420 -0.4834
4.0040 -1.6190 -0.4859
4.0243 -1.5958 -0.4883
4.0557 -1.5772 -0.4848
4.0761 -1.5539 -0.4872
4.1207 -1.5088 -0.4901
4.1382 -1.4832 -0.4945
4.1600 -1.4599 -0.4965
4.1899 -1.4414 -0.4934
4.2325 -1.4322 -0.4818
4.2353 -1.3956 -0.4963
4.2712 -1.3827 -0.4887
4.2951 -1.3610 -0.4891
4.3136 -1.3346 -0.4936
4.3350 -1.3104 -0.4961
4.5472 -1.3173 -0.4159
4.5125 -1.2232 -0.4684
4.5551 -1.2310 -0.4495
4.5802 -1.2157 -0.4469
4.5623 -1.1296 -0.4899
4.5910 -1.1170 -0.4848
4.6146 -1.0957 -0.4852
4.8855 -1.2993 -0.3004
4.9025 -1.2889 -0.2986
4.9187 -1.2766 -0.2979
4.9329 -1.2553 -0.3018
4.9529 -1.2617 -0.2918
4.9683 -1.2477 -0.2921
4.9810 -1.2155 -0.3011
4.9947 -1.1849 -0.3091
5.0702 -0.9511 -0.3806
5.0894 -0.9484 -0.3748
5.1558 -0.6157 -0.4915
5.1801 -0.5766 -0.4991
5.2063 -0.5189 -0.5141
3.8291 -1.8504 -0.4857
3.8566 -1.8304 -0.4841
3.8795 -1.8098 -0.4845
3.9287 -1.7944 -0.4724
3.9467 -1.7732 -0.4749
3.9765 -1.7548 -0.4716
4.0019 -1.7355 -0.4704
4.0039 -1.7096 -0.4813
4.0534 -1.6975 -0.4676
4.0560 -1.6710 -0.4785
4.0690 -1.6472 -0.4841
4.1038 -1.6314 -0.4777
4.1326 -1.6139 -0.4745
4.1398 -1.5869 -0.4838
4.1624 -1.5664 -0.4842
4.1825 -1.5447 -0.4862
4.2019 -1.5223 -0.4888
4.2416 -1.5118 -0.4781
4.2608 -1.4896 -0.4806
4.3008 -1.4813 -0.4689
4.2983 -1.4438 -0.4867
4.3231 -1.4250 -0.4855
4.3555 -1.4126 -0.4785
4.3757 -1.3907 -0.4805
4.5132 -1.2739 -0.4798
4.5477 -1.2705 -0.4679
4.5823 -1.2695 -0.4550
4.5848 -1.2213 -0.4757
4.5913 -1.1756 -0.4937
4.6302 -1.1840 -0.4749
4.6410 -1.1428 -0.4892
4.6619 -1.1191 -0.4917
4.6833 -1.0962 -0.4938
4.7059 -1.0757 -0.4942
4.8812 -1.3429 -0.3063
4.8931 -1.3177 -0.3130
4.9065 -1.2959 -0.3176
4.9198 -1.2718 -0.3233
4.9384 -1.2695 -0.3171
4.9607 -1.2893 -0.2996
4.9769 -1.2831 -0.2961
4.9913 -1.2665 -0.2980
5.0022 -1.2216 -0.3139
5.0148 -1.1800 -0.3277
5.0308 -1.1655 -0.3280
5.0466 -1.1465 -0.3305
5.0623 -1.1238 -0.3346
5.1134 -0.7247 -0.4940
5.1359 -0.6996 -0.4966
5.1584 -0.6793 -0.4970
5.1810 -0.6553 -0.4991
5.2044 -0.6220 -0.5049
5.2260 -0.6146 -0.4999
3.8898 -1.9077 -0.4683
4.1992 -1.8323 -0.3770
4.2168 -1.8164 -0.3773
4.2282 -1.7989 -0.3810
4.2192 -1.7531 -0.4065
4.1446 -1.6514 -0.4855
4.1725 -1.6345 -0.4820
4.1852 -1.6111 -0.4879
4.2207 -1.5982 -0.4795
4.2453 -1.5496 -0.4924
4.2743 -1.5342 -0.4878
4.2913 -1.5117 -0.4916
4.3320 -1.5049 -0.4781
4.3702 -1.4633 -0.4822
4.3957 -1.4474 -0.4792
4.5869 -1.5159 -0.3682
4.5179 -1.3263 -0.4866
4.5200 -1.2824 -0.5066
4.5591 -1.2855 -0.4891
4.5806 -1.2661 -0.4895
4.6491 -1.2151 -0.4856
4.6691 -1.1934 -0.4877
4.6892 -1.1716 -0.4897
4.7080 -1.1463 -0.4941
4.7241 -1.1138 -0.5029
4.8742 -1.3752 -0.3170
4.8871 -1.3552 -0.3212
4.8983 -1.3283 -0.3294
4.9085 -1.2951 -0.3410
4.9198 -1.2621 -0.3520
4.9412 -1.2715 -0.3387
4.9609 -1.2778 -0.3277
4.9804 -1.2890 -0.3144
4.9958 -1.2798 -0.3124
5.0335 -1.1618 -0.3530
5.0481 -1.1222 -0.3658
5.0647 -1.1049 -0.3672
5.0818 -1.1075 -0.3590
5.0982 -1.1010 -0.3553
5.1144 -1.0924 -0.3527
5.1828 -0.7105 -0.5062
5.2042 -0.6947 -0.5049
4.2157 -1.9276 -0.3489
4.2257 -1.9126 -0.3521
4.2235 -1.8955 -0.3616
4.2223 -1.8598 -0.3801
4.2200 -1.8404 -0.3908
4.2268 -1.8224 -0.3969
4.2074 -1.7756 -0.4288
4.2329 -1.7609 -0.4251
4.2302 -1.7372 -0.4382
4.2067 -1.7049 -0.4646
4.1832 -1.6701 -0.4922
4.2140 -1.6554 -0.4862
4.2522 -1.6447 -0.4750
4.2604 -1.6207 -0.4835
4.2758 -1.5996 -0.4874
4.2989 -1.5823 -0.4860
4.3306 -1.5703 -0.4782
4.3377 -1.5437 -0.4885
4.3712 -1.5337 -0.4790
4.3914 -1.5154 -0.4793
4.4096 -1.4955 -0.4815
4.4375 -1.4834 -0.4754
4.5368 -1.3913 -0.4784
4.5519 -1.3670 -0.4841
4.5662 -1.3410 -0.4909
4.5899 -1.3267 -0.4877
4.6058 -1.3017 -0.4934
4.6293 -1.2876 -0.4903
4.6549 -1.2776 -0.4842
4.6690 -1.2482 -0.4928
4.6929 -1.2361 -0.4884
4.7125 -1.2161 -0.4900
4.8641 -1.3970 -0.3333
4.8783 -1.3818 -0.3348
4.9039 -1.2694 -0.3800
4.9206 -1.2555 -0.3797
4.9388 -1.2486 -0.3753
4.9608 -1.2644 -0.3578
4.9809 -1.2772 -0.3426
5.0002 -1.2931 -0.3262
5.0169 -1.2982 -0.3164
5.0449 -1.0135 -0.4471
5.2201 -0.7899 -0.4832
4.2267 -1.9164 -0.3741
4.2190 -1.8986 -0.3871
4.1107 -1.8216 -0.4775
4.1302 -1.8040 -0.4778
4.1497 -1.7864 -0.4782
4.1873 -1.7737 -0.4676
4.2476 -1.7689 -0.4425
4.2591 -1.7502 -0.4471
4.2512 -1.7243 -0.4644
4.2307 -1.6920 -0.4909
4.2461 -1.6722 -0.4943
4.2731 -1.6573 -0.4898
4.2971 -1.6415 -0.4871
4.3077 -1.6190 -0.4942
4.3276 -1.6010 -0.4946
4.3837 -1.5751 -0.4825
4.4132 -1.5332 -0.4911
4.6093 -1.5698 -0.3817
4.5545 -1.4115 -0.4906
4.5741 -1.3938 -0.4910
4.5981 -1.3815 -0.4864
4.6166 -1.3625 -0.4880
4.6752 -1.3096 -0.4891
4.6947 -1.2920 -0.4894
4.8558 -1.4228 -0.3463
4.8695 -1.4070 -0.3484
4.8931 -1.2192 -0.4369
4.9158 -1.2246 -0.4235
4.9267 -1.1793 -0.4425
5.0042 -1.3042 -0.3409
5.0204 -1.3061 -0.3324
5.0365 -1.3152 -0.3202
5.0508 -1.0543 -0.4516
5.0697 -1.0620 -0.4388
5.1426 -0.9277 -0.4764
5.1719 -1.0194 -0.4145
5.1873 -1.0208 -0.4067
4.2206 -1.9513 -0.3824
4.0974 -1.9043 -0.4681
4.1080 -1.8866 -0.4729
4.1089 -1.8671 -0.4833
4.1353 -1.8514 -0.4792
4.1667 -1.8371 -0.4720
4.1675 -1.8164 -0.4831
4.1813 -1.7982 -0.4866
4.2122 -1.7843 -0.4793
4.2494 -1.7730 -0.4676
4.2610 -1.7543 -0.4724
4.2748 -1.7360 -0.4759
4.2787 -1.7138 -0.4864
4.2975 -1.6967 -0.4867
4.3286 -1.6851 -0.4782
4.3412 -1.6655 -0.4830
4.3542 -1.6456 -0.4878
4.3730 -1.6286 -0.4881
4.4029 -1.6180 -0.4796
4.4230 -1.6022 -0.4786
4.4386 -1.5834 -0.4815
4.4587 -1.5677 -0.4806
4.6205 -1.6090 -0.3793
4.5547 -1.4869 -0.4791
4.5701 -1.4670 -0.4826
4.5899 -1.4516 -0.4817
4.6101 -1.4368 -0.4801
4.6232 -1.4133 -0.4868
4.6398 -1.3936 -0.4898
4.6595 -1.3781 -0.4888
4.6825 -1.3679 -0.4834
4.6961 -1.3428 -0.4908
4.7209 -1.3368 -0.4821
4.8620 -1.4343 -0.3596
4.8317 -1.2367 -0.4841
4.8502 -1.2200 -0.4845
4.8673 -1.1987 -0.4881
4.8872 -1.1867 -0.4852
4.9018 -1.1535 -0.4965
4.9206 -1.1365 -0.4969
4.9420 -1.1336 -0.4881
5.0246 -1.3214 -0.3437
5.0393 -1.3176 -0.3387
5.0543 -1.3239 -0.3279
5.0736 -1.0734 -0.4580
5.0911 -1.0553 -0.4596
5.1088 -0.9807 -0.4925
5.1275 -0.9579 -0.4961
5.1453 -0.9665 -0.4827
5.1600 -1.0141 -0.4491
5.1764 -1.0087 -0.4442
5.1930 -0.9984 -0.4419
5.2200 -0.8826 -0.4932
4.0953 -1.9620 -0.4642
4.1152 -1.9464 -0.4632
4.1142 -1.9288 -0.4740
4.1195 -1.9112 -0.4816
4.1420 -1.8955 -0.4793
4.1736 -1.8623 -0.4826
4.1843 -1.8445 -0.4875
4.2077 -1.8293 -0.4846
4.2409 -1.7958 -0.4872
4.2658 -1.7814 -0.4829
4.2839 -1.7651 -0.4832
4.3075 -1.7508 -0.4796
4.3217 -1.7333 -0.4826
4.3594 -1.7016 -0.4819
4.3739 -1.6838 -0.4849
4.3919 -1.6675 -0.4852
4.4280 -1.6350 -0.4859
4.4406 -1.6154 -0.4909
4.4670 -1.6045 -0.4839
4.4849 -1.5883 -0.4842
4.6227 -1.6382 -0.3849
4.5751 -1.5405 -0.4662
4.5937 -1.4924 -0.4848
4.6104 -1.4750 -0.4865
4.6294 -1.4601 -0.4855
4.6500 -1.4473 -0.4825
4.6688 -1.4327 -0.4815
4.6831 -1.4116 -0.4865
4.7010 -1.3955 -0.4868
4.8306 -1.4946 -0.3629
4.8439 -1.4804 -0.3645
4.8149 -1.3147 -0.4760
4.8278 -1.2868 -0.4857
4.8423 -1.2610 -0.4935
4.8614 -1.2483 -0.4911
4.8778 -1.2266 -0.4955
4.8936 -1.2018 -0.5019
4.9143 -1.1959 -0.4948
4.9327 -1.1816 -0.4938
4.9496 -1.1594 -0.4981
4.9680 -1.1451 -0.4971
5.0426 -1.3265 -0.3532
5.0710 -1.3265 -0.3388
5.1124 -1.0299 -0.4909
5.1303 -1.0079 -0.4947
5.1480 -0.9954 -0.4930
5.1628 -1.0308 -0.4647
5.1784 -1.0342 -0.4548
5.1928 -1.0445 -0.4415
4.0912 -1.9990 -0.4714
4.1034 -1.9833 -0.4745
4.1181 -1.9677 -0.4761
4.1306 -1.9518 -0.4792
4.1479 -1.9362 -0.4795
4.1607 -1.9201 -0.4826
4.1713 -1.9035 -0.4870
4.1932 -1.8884 -0.4846
4.2106 -1.8727 -0.4849
4.2385 -1.8590 -0.4783
4.2475 -1.8417 -0.4842
4.2588 -1.8246 -0.4886
4.2822 -1.8103 -0.4848
4.3035 -1.7958 -0.4824
4.3170 -1.7790 -0.4854
4.3417 -1.7658 -0.4802
4.3571 -1.7496 -0.4819
4.3726 -1.7334 -0.4836
4.3812 -1.7140 -0.4908
4.4122 -1.7045 -0.4801
4.4277 -1.6882 -0.4818
4.4337 -1.6667 -0.4918
4.4559 -1.6536 -0.4880
4.4793 -1.6416 -0.4828
4.5838 -1.5496 -0.4833
4.5985 -1.5317 -0.4863
4.6157 -1.5162 -0.4867
4.6295 -1.4968 -0.4911
4.6513 -1.4863 -0.4859
4.6696 -1.4722 -0.4848
4.6847 -1.4539 -0.4879
4.7029 -1.4398 -0.4868
4.8221 -1.5155 -0.3768
4.8347 -1.5006 -0.3791
4.8240 -1.3328 -0.4876
4.8399 -1.3138 -0.4908
4.8583 -1.3018 -0.4883
4.8738 -1.2809 -0.4928
4.8911 -1.2653 -0.4931
4.9117 -1.2628 -0.4836
4.9256 -1.2341 -0.4937
4.9429 -1.2185 -0.4941
4.9616 -1.2108 -0.4888
4.9775 -1.1873 -0.4947
4.9945 -1.1696 -0.4964
5.0153 -1.1866 -0.4749
5.0601 -1.3351 -0.3600
5.0742 -1.3420 -0.3482
5.0984 -1.0689 -0.5026
5.1158 -1.0554 -0.5015
5.1334 -1.0350 -0.5046
5.1496 -1.0457 -0.4894
5.1662 -1.0376 -0.4854
5.1817 -1.0410 -0.4751
5.1961 -1.0486 -0.4627
5.2158 -1.0020 -0.4807
4.1421 -1.9891 -0.4763
4.1563 -1.9740 -0.4780
4.1600 -1.9581 -0.4861
4.1918 -1.9443 -0.4772
4.2061 -1.9291 -0.4789
4.2183 -1.9136 -0.4820
4.2371 -1.8988 -0.4809
4.3016 -1.8383 -0.4836
4.3095 -1.8209 -0.4903
4.3225 -1.8046 -0.4935
4.3639 -1.7969 -0.4752
4.3739 -1.7799 -0.4805
4.3886 -1.7643 -0.4822
4.4252 -1.7358 -0.4800
4.4325 -1.7167 -0.4882
4.4476 -1.7007 -0.4899
4.4684 -1.6877 -0.4866
4.4851 -1.6726 -0.4869
4.4995 -1.6562 -0.4894
4.6335 -1.6737 -0.4031
4.6209 -1.5546 -0.4865
4.6375 -1.5396 -0.4868
4.6541 -1.5246 -0.4871
4.6718 -1.5109 -0.4859
4.6894 -1.4973 -0.4848
4.7039 -1.4797 -0.4880
4.7181 -1.4611 -0.4919
4.8181 -1.5435 -0.3831
4.8292 -1.5267 -0.3877
4.8061 -1.3954 -0.4847
4.8215 -1.3781 -0.4872
4.8380 -1.3632 -0.4875
4.8539 -1.3466 -0.4893
4.8710 -1.3334 -0.4881
4.9025 -1.2981 -0.4931
4.9201 -1.2868 -0.4905
4.9358 -1.2680 -0.4937
4.9532 -1.2569 -0.4911
4.9694 -1.2400 -0.4929
4.9866 -1.2290 -0.4902
5.0028 -1.2121 -0.4920
5.0772 -1.3531 -0.3599
5.0903 -1.3550 -0.3514
5.1512 -1.0907 -0.4867
5.1676 -1.0736 -0.4884
5.1833 -1.0674 -0.4836
5.2001 -1.0465 -0.4876
4.1819 -1.9946 -0.4757
4.1895 -1.9798 -0.4812
4.2319 -1.9517 -0.4751
4.2422 -1.9368 -0.4791
4.2582 -1.9223 -0.4794
4.2807 -1.9088 -0.4753
4.2859 -1.8928 -0.4830
4.3041 -1.8787 -0.4818
4.3150 -1.8631 -0.4858
4.3381 -1.8502 -0.4809
4.3502 -1.8347 -0.4841
4.3797 -1.8240 -0.4740
4.3842 -1.8063 -0.4832
4.4030 -1.7927 -0.4813
4.4252 -1.7806 -0.4764
4.4384 -1.7653 -0.4789
4.4483 -1.7484 -0.4844
4.4727 -1.7377 -0.4772
4.4845 -1.7215 -0.4813
4.4948 -1.7041 -0.4868
4.5094 -1.6888 -0.4886
4.5390 -1.6824 -0.4754
4.6043 -1.7006 -0.4249
4.6272 -1.6936 -0.4162
4.5993 -1.6235 -0.4796
4.6138 -1.6081 -0.4814
4.6265 -1.5909 -0.4854
4.6425 -1.5765 -0.4857
4.6579 -1.5615 -0.4867
4.6756 -1.5489 -0.4848
4.6969 -1.5410 -0.4776
4.7012 -1.5122 -0.4944
4.7209 -1.5024 -0.4894
4.7474 -1.5033 -0.4732
4.8183 -1.5425 -0.4053
4.8038 -1.4355 -0.4856
4.8197 -1.4211 -0.4859
4.8306 -1.3954 -0.4967
4.8508 -1.3908 -0.4880
4.8676 -1.3789 -0.4860
4.8806 -1.3559 -0.4938
4.8999 -1.3521 -0.4851
4.9127 -1.3269 -0.4944
4.9297 -1.3161 -0.4917
4.9459 -1.3026 -0.4912
4.9613 -1.2853 -0.4938
4.9762 -1.2639 -0.4994
4.9931 -1.2543 -0.4959
5.0098 -1.2449 -0.4924
5.0252 -1.2253 -0.4965
5.0930 -1.3638 -0.3639
5.1535 -1.1152 -0.4950
5.1690 -1.1068 -0.4915
5.1857 -1.0827 -0.4979
5.2009 -1.0769 -0.4929
4.2093 -1.9995 -0.4812
4.2130 -1.9849 -0.4892
4.2322 -1.9710 -0.4872
4.2558 -1.9575 -0.4821
4.2747 -1.9438 -0.4801
4.3056 -1.9159 -0.4806
4.3147 -1.9010 -0.4855
4.3365 -1.8880 -0.4812
4.3539 -1.8745 -0.4799
4.3799 -1.8455 -0.4843
4.3906 -1.8301 -0.4885
4.4034 -1.8152 -0.4911
4.4644 -1.7782 -0.4796
4.4704 -1.7604 -0.4884
4.4934 -1.7497 -0.4817
4.5120 -1.7374 -0.4789
4.5305 -1.7252 -0.4761
4.5472 -1.7124 -0.4748
4.5878 -1.7140 -0.4488
4.6104 -1.6835 -0.4563
4.6025 -1.6535 -0.4821
4.6191 -1.6407 -0.4808
4.6319 -1.6247 -0.4842
4.6638 -1.5981 -0.4832
4.6774 -1.5825 -0.4859
4.6956 -1.5717 -0.4822
4.7099 -1.5566 -0.4841
4.7252 -1.5427 -0.4844
4.7415 -1.5302 -0.4831
4.7616 -1.5234 -0.4756
4.8052 -1.5548 -0.4268
4.8099 -1.5270 -0.4434
4.8068 -1.4825 -0.4764
4.8149 -1.4550 -0.4907
4.8318 -1.4442 -0.4879
4.8479 -1.4319 -0.4866
4.8616 -1.4139 -0.4908
4.8792 -1.4059 -0.4856
4.8934 -1.3886 -0.4890
4.9234 -1.3581 -0.4919
4.9406 -1.3516 -0.4859
4.9559 -1.3378 -0.4862
4.9863 -1.3092 -0.4876
5.0013 -1.2934 -0.4894
5.0167 -1.2795 -0.4897
5.0318 -1.2636 -0.4916
5.0475 -1.2540 -0.4887
5.0627 -1.2380 -0.4905
5.0784 -1.2362 -0.4822
5.0957 -1.3781 -0.3722
5.1079 -1.3716 -0.3693
5.1197 -1.3710 -0.3624
5.1711 -1.1278 -0.5012
5.1865 -1.1149 -0.5007
5.2514 -2.9980 -0.4691
5.2665 -2.9800 -0.4663
5.2815 -2.9643 -0.4651
5.2965 -2.9498 -0.4646
5.3117 -2.9373 -0.4656
5.3277 -2.9318 -0.4719
5.3429 -2.9181 -0.4722
5.3736 -2.8917 -0.4735
5.3875 -2.8715 -0.4684
5.4187 -2.8480 -0.4720
5.4337 -2.8335 -0.4715
5.4474 -2.8156 -0.4680
5.4634 -2.8046 -0.4705
5.4782 -2.7902 -0.4700
5.5085 -2.7630 -0.4706
5.5224 -2.7472 -0.4685
5.5400 -2.7381 -0.4734
5.5694 -2.7095 -0.4724
5.5832 -2.6939 -0.4703
5.5978 -2.6797 -0.4698
5.6133 -2.6668 -0.4709
5.6284 -2.6533 -0.4711
5.6429 -2.6391 -0.4706
5.6563 -2.6239 -0.4686
5.6719 -2.6110 -0.4696
5.6918 -2.6020 -0.4760
5.7019 -2.5840 -0.4702
5.7169 -2.5706 -0.4704
5.7333 -2.5581 -0.4722
5.7470 -2.5436 -0.4710
5.7598 -2.5288 -0.4689
5.7807 -2.5189 -0.4753
5.7920 -2.5032 -0.4717
5.8086 -2.4906 -0.4735
5.8237 -2.4771 -0.4738
5.8387 -2.4636 -0.4741
5.8487 -2.4479 -0.4697
5.8671 -2.4359 -0.4731
5.8875 -2.4243 -0.4780
5.9026 -2.4107 -0.4782
5.9150 -2.3963 -0.4762
5.9291 -2.3825 -0.4757
5.9413 -2.3683 -0.4736
5.9602 -2.3557 -0.4770
5.9743 -2.3420 -0.4765
5.9873 -2.3281 -0.4752
6.0044 -2.3150 -0.4770
6.0227 -2.3019 -0.4796
6.0357 -2.2881 -0.4783
6.0507 -2.2746 -0.4786
6.0647 -2.2610 -0.4780
6.0774 -2.2473 -0.4767
6.0877 -2.2336 -0.4739
6.1027 -2.2202 -0.4742
6.1213 -2.2069 -0.4768
6.1400 -2.1934 -0.4794
6.1588 -2.1799 -0.4820
5.1759 -3.1178 -0.4772
5.1919 -3.1034 -0.4775
5.2079 -3.0902 -0.4785
5.2239 -3.0781 -0.4802
5.2400 -3.0636 -0.4805
5.2561 -3.0470 -0.4793
5.2721 -3.0326 -0.4796
5.2879 -3.0129 -0.4762
5.3032 -2.9913 -0.4714
5.3198 -2.9843 -0.4768
5.3364 -2.9750 -0.4807
5.3517 -2.9557 -0.4774
5.3680 -2.9433 -0.4791
5.3834 -2.9261 -0.4772
5.4155 -2.8984 -0.4785
5.4320 -2.8859 -0.4802
5.4461 -2.8654 -0.4754
5.4599 -2.8452 -0.4705
5.4740 -2.8269 -0.4671
5.4936 -2.8228 -0.4762
5.5095 -2.8086 -0.4765
5.5261 -2.7959 -0.4782
5.5427 -2.7832 -0.4800
5.5570 -2.7659 -0.4773
5.5750 -2.7554 -0.4813
5.5878 -2.7361 -0.4764
5.5998 -2.7164 -0.4708
5.6326 -2.6903 -0.4735
5.6532 -2.6819 -0.4805
5.6652 -2.6634 -0.4756
5.6798 -2.6480 -0.4743
5.6949 -2.6334 -0.4739
5.7155 -2.6238 -0.4801
5.7230 -2.6025 -0.4707
5.7459 -2.5943 -0.4792
5.7631 -2.5812 -0.4809
5.7818 -2.5689 -0.4842
5.7977 -2.5546 -0.4845
5.8047 -2.5349 -0.4758
5.8249 -2.5234 -0.4805
5.8384 -2.5080 -0.4786
5.8541 -2.4939 -0.4789
5.8699 -2.4798 -0.4791
5.8839 -2.4650 -0.4779
5.9040 -2.4526 -0.4819
5.9189 -2.4381 -0.4815
5.9356 -2.4242 -0.4825
5.9505 -2.4098 -0.4820
5.9625 -2.3945 -0.4793
5.9752 -2.3797 -0.4773
5.9939 -2.3664 -0.4799
6.0147 -2.3533 -0.4839
6.0253 -2.3382 -0.4804
6.0399 -2.3240 -0.4799
6.0746 -2.2962 -0.4827
6.0881 -2.2819 -0.4815
6.0970 -2.2672 -0.4773
6.1195 -2.2537 -0.4821
6.1352 -2.2396 -0.4823
6.1449 -2.2253 -0.4789
6.1605 -2.2113 -0.4791
6.1749 -2.1974 -0.4787
5.4221 -2.9126 -0.4656
5.4385 -2.8990 -0.4666
5.4547 -2.8845 -0.4669
5.5023 -2.8384 -0.4656
5.5192 -2.8255 -0.4673
5.5353 -2.8110 -0.4676
5.5519 -2.7973 -0.4686
5.5706 -2.7873 -0.4731
5.5852 -2.7697 -0.4706
5.6005 -2.7537 -0.4694
5.6153 -2.7371 -0.4676
5.6304 -2.7213 -0.4664
5.6455 -2.7055 -0.4653
5.6653 -2.6956 -0.4706
5.6827 -2.6823 -0.4723
5.6948 -2.6635 -0.4676
5.7133 -2.6514 -0.4707
5.7314 -2.6386 -0.4731
5.7464 -2.6229 -0.4720
5.7592 -2.6058 -0.4687
5.7753 -2.5913 -0.4690
5.7950 -2.5794 -0.4728
5.8141 -2.5667 -0.4760
5.8289 -2.5512 -0.4748
5.8428 -2.5353 -0.4730
5.8735 -2.5055 -0.4721
5.8914 -2.4918 -0.4738
5.9101 -2.4784 -0.4763
5.9246 -2.4631 -0.4751
5.9426 -2.4492 -0.4768
5.9524 -2.4325 -0.4721
5.9666 -2.4175 -0.4709
5.9932 -2.4061 -0.4791
6.0076 -2.3910 -0.4780
6.0208 -2.3757 -0.4761
6.0401 -2.3618 -0.4785
6.0511 -2.3463 -0.4752
6.0651 -2.3315 -0.4741
6.0855 -2.3177 -0.4772
6.0995 -2.3029 -0.4761
6.1157 -2.2884 -0.4764
6.1318 -2.2739 -0.4766
6.1479 -2.2595 -0.4769
6.1593 -2.2447 -0.4743
6.1778 -2.2304 -0.4760
6.1915 -2.2159 -0.4749
6.2100 -2.2015 -0.4766
6.2312 -2.1871 -0.4798
5.1967 -3.1839 -0.4771
5.2140 -3.1684 -0.4774
5.2314 -3.1483 -0.4750
5.2486 -3.1284 -0.4726
5.2657 -3.1130 -0.4729
5.2828 -3.0976 -0.4732
5.2998 -3.0801 -0.4722
5.3175 -3.0711 -0.4765
5.3354 -3.0619 -0.4809
5.3527 -3.0463 -0.4812
5.3688 -3.0228 -0.4761
5.3864 -3.0093 -0.4778
5.4036 -2.9939 -0.4781
5.4199 -2.9747 -0.4756
5.4371 -2.9593 -0.4759
5.4547 -2.9458 -0.4776
5.4719 -2.9304 -0.4779
5.4897 -2.9167 -0.4796
5.5056 -2.8979 -0.4771
5.5214 -2.8792 -0.4747
5.5392 -2.8655 -0.4764
5.5547 -2.8470 -0.4739
5.5725 -2.8333 -0.4756
5.5913 -2.8210 -0.4786
5.6075 -2.8042 -0.4776
5.6209 -2.7831 -0.4724
5.6427 -2.7749 -0.4795
5.6568 -2.7554 -0.4757
5.6712 -2.7369 -0.4726
5.6881 -2.7217 -0.4729
5.7056 -2.7072 -0.4739
5.7431 -2.6804 -0.4786
5.7614 -2.6662 -0.4803
5.7700 -2.6437 -0.4716
5.7902 -2.6313 -0.4754
5.8071 -2.6161 -0.4757
5.8255 -2.6019 -0.4773
5.8439 -2.5876 -0.4790
5.8594 -2.5715 -0.4779
5.8842 -2.5607 -0.4851
5.8998 -2.5444 -0.4841
5.9169 -2.5291 -0.4844
5.9374 -2.5152 -0.4874
5.9477 -2.4968 -0.4822
5.9665 -2.4823 -0.4839
5.9854 -2.4676 -0.4856
6.0026 -2.4522 -0.4859
6.0178 -2.4363 -0.4848
6.0330 -2.4204 -0.4837
6.0481 -2.4046 -0.4826
6.0651 -2.3893 -0.4829
6.0801 -2.3736 -0.4818
6.0949 -2.3580 -0.4807
6.1065 -2.3419 -0.4775
6.1255 -2.3272 -0.4792
6.1402 -2.3118 -0.4781
6.1593 -2.2969 -0.4798
6.1761 -2.2818 -0.4801
6.1989 -2.2671 -0.4839
6.2206 -2.2522 -0.4870
6.2328 -2.2367 -0.4845
6.2411 -2.2212 -0.4799
6.2529 -2.2061 -0.4774
6.2722 -2.1911 -0.4791
5.5004 -2.9395 -0.4710
5.5501 -2.8846 -0.4660
5.5668 -2.8673 -0.4650
5.5850 -2.8533 -0.4667
5.6046 -2.8414 -0.4702
5.6199 -2.8219 -0.4673
5.6355 -2.8034 -0.4649
5.6529 -2.7878 -0.4653
5.6887 -2.7579 -0.4672
5.7051 -2.7410 -0.4662
5.7652 -2.7020 -0.4757
5.7772 -2.6810 -0.4700
5.7933 -2.6642 -0.4690
5.8121 -2.6496 -0.4706
5.8296 -2.6340 -0.4709
5.8427 -2.6153 -0.4673
5.8645 -2.6026 -0.4716
5.8858 -2.5893 -0.4752
5.9034 -2.5735 -0.4755
5.9169 -2.5556 -0.4725
5.9327 -2.5392 -0.4715
5.9518 -2.5243 -0.4731
5.9736 -2.5105 -0.4767
5.9930 -2.4955 -0.4784
6.0061 -2.4780 -0.4753
6.0217 -2.4617 -0.4743
6.0411 -2.4466 -0.4760
6.0567 -2.4303 -0.4749
6.0642 -2.4120 -0.4686
6.0916 -2.3990 -0.4755
6.1163 -2.3849 -0.4805
6.1265 -2.3677 -0.4762
6.1397 -2.3513 -0.4738
6.1593 -2.3360 -0.4754
6.1789 -2.3207 -0.4771
6.1941 -2.3047 -0.4760
6.2116 -2.2891 -0.4764
6.2172 -2.2726 -0.4700
6.2297 -2.2568 -0.4676
6.2492 -2.2416 -0.4692
6.2738 -2.2264 -0.4736
6.2962 -2.2109 -0.4765
6.3187 -2.1954 -0.4795
5.2025 -3.2741 -0.4746
5.2588 -3.2284 -0.4781
5.2775 -3.2093 -0.4771
5.2962 -3.1924 -0.4775
5.3151 -3.1778 -0.4791
5.3339 -3.1609 -0.4794
5.3527 -3.1441 -0.4797
5.3699 -3.1159 -0.4732
5.3897 -3.1063 -0.4779
5.4088 -3.0915 -0.4795
5.4271 -3.0728 -0.4785
5.4463 -3.0579 -0.4801
5.4633 -3.0345 -0.4761
5.4819 -3.0178 -0.4764
5.5011 -3.0029 -0.4780
5.5185 -2.9827 -0.4758
5.5377 -2.9678 -0.4774
5.5532 -2.9435 -0.4720
5.5708 -2.9253 -0.4711
5.5900 -2.9105 -0.4727
5.6130 -2.9026 -0.4799
5.6316 -2.8859 -0.4803
5.6471 -2.8639 -0.4762
5.6604 -2.8392 -0.4696
5.6786 -2.8229 -0.4699
5.6995 -2.8099 -0.4734
5.7190 -2.7948 -0.4749
5.7335 -2.7737 -0.4708
5.7547 -2.7605 -0.4743
5.7797 -2.7508 -0.4816
5.7927 -2.7287 -0.4762
5.8098 -2.7110 -0.4753
5.8308 -2.6968 -0.4781
5.8507 -2.6814 -0.4797
5.8678 -2.6637 -0.4788
5.8913 -2.6507 -0.4836
5.9099 -2.6340 -0.4839
5.9301 -2.6183 -0.4855
5.9432 -2.5984 -0.4814
5.9617 -2.5818 -0.4817
5.9769 -2.5635 -0.4795
5.9987 -2.5486 -0.4823
6.0172 -2.5320 -0.4827
6.0340 -2.5147 -0.4817
6.0506 -2.4975 -0.4808
6.0644 -2.4793 -0.4779
6.0960 -2.4671 -0.4872
6.1166 -2.4510 -0.4888
6.1352 -2.4343 -0.4891
6.1407 -2.4144 -0.4811
6.1632 -2.3988 -0.4840
6.1817 -2.3822 -0.4843
6.2077 -2.3670 -0.4891
6.2208 -2.3495 -0.4862
6.2326 -2.3319 -0.4827
6.2373 -2.3138 -0.4753
6.2403 -2.2960 -0.4673
6.2440 -2.2788 -0.4599
6.2460 -2.2620 -0.4518
6.2511 -2.2458 -0.4457
6.2856 -2.2310 -0.4550
6.3246 -2.2158 -0.4663
5.2449 -3.3059 -0.4820
5.2647 -3.2882 -0.4823
5.3236 -3.2295 -0.4804
5.3435 -3.2140 -0.4819
5.3819 -3.1713 -0.4784
5.4015 -3.1538 -0.4788
5.4202 -3.1312 -0.4761
5.4379 -3.1059 -0.4717
5.4735 -3.0600 -0.4652
5.4904 -3.0355 -0.4607
5.6770 -2.8623 -0.4610
5.6903 -2.8376 -0.4547
5.7977 -2.7693 -0.4708
5.8148 -2.7504 -0.4694
5.8326 -2.7322 -0.4685
5.8562 -2.7192 -0.4731
5.8684 -2.6965 -0.4673
5.8894 -2.6812 -0.4695
5.9274 -2.6472 -0.4701
5.9440 -2.6287 -0.4686
5.9708 -2.6164 -0.4751
5.9859 -2.5970 -0.4724
6.0049 -2.5800 -0.4727
6.0222 -2.5622 -0.4718
6.0429 -2.5459 -0.4734
6.0646 -2.5300 -0.4755
6.0791 -2.5111 -0.4728
6.1046 -2.4964 -0.4774
6.1285 -2.4808 -0.4808
6.1379 -2.4607 -0.4750
6.1619 -2.4450 -0.4784
6.1790 -2.4274 -0.4775
6.1928 -2.4091 -0.4748
6.2118 -2.3921 -0.4751
6.2221 -2.3735 -0.4705
6.2442 -2.3572 -0.4727
6.2653 -2.3406 -0.4743
6.2877 -2.3241 -0.4765
6.2555 -2.2839 -0.4408
6.2479 -2.2662 -0.4281
6.2627 -2.2505 -0.4272
6.3187 -2.2366 -0.4466
6.3951 -2.2219 -0.4754
6.4204 -2.2051 -0.4788
5.2707 -3.3346 -0.4772
5.2914 -3.3185 -0.4787
5.3122 -3.3034 -0.4807
5.3328 -3.2849 -0.4811
5.3535 -3.2664 -0.4815
5.3737 -3.2447 -0.4801
5.3940 -3.2241 -0.4793
5.4140 -3.2027 -0.4780
5.4345 -3.1843 -0.4783
5.4536 -3.1600 -0.4753
5.4747 -3.1447 -0.4773
5.4931 -3.1188 -0.4731
5.5147 -3.1053 -0.4763
5.5336 -3.0825 -0.4738
5.5778 -3.0558 -0.4809
5.5994 -3.0400 -0.4829
5.6368 -2.9958 -0.4785
5.6559 -2.9751 -0.4771
5.6762 -2.9569 -0.4775
5.6832 -2.8693 -0.4384
5.7081 -2.8611 -0.4456
5.7589 -2.8863 -0.4806
5.8031 -2.8538 -0.4848
5.8153 -2.8263 -0.4771
5.8385 -2.8114 -0.4803
5.8575 -2.7920 -0.4795
5.8739 -2.7702 -0.4764
5.8994 -2.7568 -0.4814
5.9197 -2.7386 -0.4817
5.9400 -2.7204 -0.4821
5.9588 -2.7012 -0.4813
5.9790 -2.6830 -0.4816
5.9993 -2.6649 -0.4820
6.0195 -2.6467 -0.4824
6.0512 -2.6348 -0.4909
6.0617 -2.6112 -0.4842
6.0846 -2.5943 -0.4863
6.1023 -2.5749 -0.4849
6.1253 -2.5578 -0.4871
6.1327 -2.5346 -0.4792
6.1660 -2.5213 -0.4878
6.1815 -2.5015 -0.4852
6.2018 -2.4833 -0.4856
6.2220 -2.4651 -0.4859
6.2423 -2.4470 -0.4863
6.2531 -2.4267 -0.4813
6.2764 -2.4093 -0.4835
6.2965 -2.3913 -0.4838
6.3199 -2.3738 -0.4859
6.3401 -2.3557 -0.4863
6.3603 -2.3376 -0.4866
6.3711 -2.3185 -0.4823
6.2769 -2.2555 -0.4096
6.4534 -2.2282 -0.4758
6.4938 -2.2108 -0.4856
5.2775 -3.3908 -0.4744
5.2997 -3.3863 -0.4819
5.3629 -3.3106 -0.4743
5.3843 -3.2914 -0.4747
5.4927 -3.2013 -0.4798
5.5158 -3.1877 -0.4835
5.6888 -2.9232 -0.4367
5.6987 -2.8906 -0.4260
5.9221 -2.7770 -0.4695
5.9616 -2.7381 -0.4686
5.9802 -2.7179 -0.4673
5.9986 -2.6978 -0.4660
6.0192 -2.6793 -0.4663
6.0399 -2.6608 -0.4667
6.0630 -2.6436 -0.4687
6.0719 -2.6190 -0.4613
6.1044 -2.6065 -0.4694
6.1224 -2.5867 -0.4681
6.1860 -2.5583 -0.4823
6.1929 -2.5342 -0.4743
6.2079 -2.5136 -0.4713
6.2346 -2.4969 -0.4750
6.2554 -2.4782 -0.4753
6.2731 -2.4587 -0.4740
6.2939 -2.4401 -0.4744
6.3179 -2.4222 -0.4764
6.3387 -2.4035 -0.4768
6.3529 -2.3837 -0.4738
6.3736 -2.3651 -0.4742
6.3977 -2.3470 -0.4762
6.4150 -2.3280 -0.4749
6.4093 -2.3069 -0.4629
6.2788 -2.2598 -0.3859
6.5147 -2.2350 -0.4750
6.5431 -2.2166 -0.4788
5.2625 -3.4816 -0.4751
5.2853 -3.4648 -0.4771
5.3075 -3.4365 -0.4738
5.3300 -3.4163 -0.4742
5.3523 -3.3927 -0.4731
5.3739 -3.3650 -0.4699
5.3972 -3.3524 -0.4739
5.4202 -3.3354 -0.4758
5.4421 -3.3121 -0.4747
5.4638 -3.2879 -0.4730
5.4848 -3.2619 -0.4703
5.5078 -3.2449 -0.4722
5.5320 -3.2316 -0.4762
5.5545 -3.2114 -0.4766
5.5769 -3.1913 -0.4770
5.5981 -3.1675 -0.4753
5.6851 -3.0822 -0.4738
5.7100 -3.0671 -0.4773
5.8241 -2.9696 -0.4814
5.8466 -2.9495 -0.4818
5.8667 -2.9266 -0.4801
5.8891 -2.9065 -0.4804
5.9183 -2.8935 -0.4866
5.9364 -2.8689 -0.4833
5.9563 -2.8463 -0.4816
5.9745 -2.8227 -0.4789
5.9940 -2.8005 -0.4771
6.0191 -2.7828 -0.4796
6.0413 -2.7629 -0.4800
6.0605 -2.7408 -0.4783
6.0882 -2.7244 -0.4824
6.1049 -2.7011 -0.4791
6.1188 -2.6766 -0.4742
6.0965 -2.6342 -0.4470
6.1148 -2.6142 -0.4458
6.1847 -2.6175 -0.4753
6.2249 -2.6054 -0.4863
6.2379 -2.5818 -0.4814
6.2668 -2.5643 -0.4855
6.2921 -2.5452 -0.4875
6.3144 -2.5252 -0.4879
6.3267 -2.5022 -0.4830
6.3530 -2.4834 -0.4855
6.3784 -2.4642 -0.4875
6.3975 -2.4435 -0.4863
6.4198 -2.4235 -0.4867
6.4454 -2.4041 -0.4887
6.4449 -2.3806 -0.4784
6.4633 -2.3605 -0.4771
6.5983 -2.2431 -0.4811
5.2699 -3.5692 -0.4795
5.2942 -3.5523 -0.4819
5.3160 -3.4916 -0.4657
5.3369 -3.4378 -0.4519
5.3582 -3.4018 -0.4455
5.3825 -3.3969 -0.4527
5.4097 -3.4076 -0.4673
5.4806 -3.3476 -0.4700
5.7156 -3.0728 -0.4483
5.7228 -2.9721 -0.4104
6.0830 -2.7942 -0.4752
6.1414 -2.7249 -0.4694
6.1610 -2.7025 -0.4678
6.1069 -2.6422 -0.4230
6.1253 -2.6221 -0.4219
6.1938 -2.6247 -0.4489
6.2498 -2.6192 -0.4679
6.2792 -2.6014 -0.4719
6.3127 -2.5846 -0.4778
6.4361 -2.4824 -0.4834
6.4638 -2.4624 -0.4858
6.5088 -2.3954 -0.4759
6.4956 -2.3698 -0.4605
6.3363 -2.3277 -0.3831
6.3446 -2.3094 -0.3789
