ply
format ascii 1.0
element vertex 2102
property float x
property float y
property float z
end_header
3.6645 -3.1335 -0.2496
3.6555 -3.1337 -0.2628
3.6331 -3.1145 -0.2519
3.6048 -3.0972 -0.2538
3.5923 -3.0903 -0.2562
3.5792 -3.0817 -0.2559
3.5535 -3.0636 -0.2521
3.5329 -3.0520 -0.2555
5.0202 -3.5039 0.7369
4.9943 -3.5060 0.6960
4.9685 -3.5081 0.6554
4.9576 -3.5178 0.6181
4.9539 -3.5314 0.5817
4.9973 -3.5706 0.5520
4.9781 -3.5768 0.5111
4.9428 -3.5739 0.4686
4.9099 -3.5721 0.4270
4.8910 -3.5782 0.3869
4.8644 -3.5796 0.3466
4.8630 -3.6138 0.2662
4.8503 -3.6240 0.2251
4.8098 -3.6167 0.1857
4.7780 -3.6145 0.1465
4.8852 -3.7244 0.0432
4.9390 -3.7824 -0.0152
4.9172 -3.7894 -0.0615
4.8869 -3.7903 -0.1057
4.8568 -3.7911 -0.1493
4.8602 -3.8166 -0.2031
4.7827 -3.7813 -0.2297
4.7471 -3.7767 -0.2689
4.5044 -3.6272 -0.2628
4.3276 -3.5192 -0.2607
4.1898 -3.4351 -0.2591
4.0838 -3.3718 -0.2611
3.9205 -3.2737 -0.2629
3.8500 -3.2282 -0.2563
3.7955 -3.1952 -0.2564
3.7472 -3.1656 -0.2554
3.7031 -3.1372 -0.2517
3.6824 -3.1235 -0.2489
3.6661 -3.1146 -0.2511
3.6341 -3.0956 -0.2521
3.6205 -3.0885 -0.2546
3.6052 -3.0784 -0.2526
3.5947 -3.0747 -0.2587
3.5819 -3.0672 -0.2594
3.5682 -3.0575 -0.2562
3.5520 -3.0432 -0.2457
3.5435 -3.0406 -0.2518
3.5346 -3.0373 -0.2564
5.0737 -3.4983 0.7027
5.0150 -3.4854 0.6536
4.9804 -3.4836 0.6109
4.9850 -3.5010 0.5755
5.0295 -3.5392 0.5450
5.1134 -3.5992 0.5165
5.0745 -3.5962 0.4707
5.0281 -3.5887 0.4252
4.9753 -3.5773 0.3806
4.9400 -3.5749 0.3382
4.9600 -3.6037 0.2967
4.9399 -3.6102 0.2541
4.8598 -3.6359 0.0835
4.9273 -3.6985 0.0263
4.9308 -3.7215 -0.0237
4.9093 -3.7284 -0.0695
4.8877 -3.7353 -0.1153
5.1024 -3.9064 -0.2307
4.9298 -3.8096 -0.2349
4.7919 -3.7335 -0.2413
4.7270 -3.7078 -0.2686
4.2376 -3.4220 -0.2538
4.1870 -3.3961 -0.2610
4.0245 -3.3003 -0.2540
4.0045 -3.2964 -0.2720
3.9157 -3.2406 -0.2599
3.8744 -3.2135 -0.2514
3.8243 -3.1883 -0.2597
3.7944 -3.1695 -0.2555
3.7709 -3.1564 -0.2564
3.7461 -3.1412 -0.2538
3.7243 -3.1284 -0.2530
3.7036 -3.1161 -0.2519
3.6688 -3.0972 -0.2542
3.6377 -3.0805 -0.2568
3.6209 -3.0695 -0.2536
3.6071 -3.0619 -0.2543
3.5795 -3.0450 -0.2515
3.5578 -3.0347 -0.2565
3.5354 -3.0213 -0.2550
6.0698 -3.7081 1.3814
8.0811 -4.7155 1.5659
5.0683 -3.4787 0.6156
5.0742 -3.4968 0.5785
5.1430 -3.5457 0.5491
5.1697 -3.5755 0.5108
5.1384 -3.5773 0.4647
5.0811 -3.5656 0.4173
5.0604 -3.5722 0.3734
5.0142 -3.5654 0.3289
4.9939 -3.5719 0.2856
4.9898 -3.5874 0.2418
4.9863 -3.6036 0.1971
4.9656 -3.6102 0.1530
4.9531 -3.6218 0.1078
5.0479 -3.6974 0.0469
5.0444 -3.7160 -0.0039
5.0218 -3.7233 -0.0521
4.9808 -3.7189 -0.0959
5.1702 -3.8878 -0.2615
4.9867 -3.7897 -0.2631
4.8242 -3.7016 -0.2614
4.7147 -3.6466 -0.2711
4.6238 -3.6023 -0.2826
4.4945 -3.5277 -0.2701
4.3220 -3.4337 -0.2670
4.2378 -3.3847 -0.2580
4.1960 -3.3673 -0.2704
4.0176 -3.2634 -0.2509
3.9851 -3.2488 -0.2579
3.8800 -3.1923 -0.2581
3.8200 -3.1590 -0.2556
3.7971 -3.1480 -0.2589
3.7660 -3.1279 -0.2505
3.7485 -3.1210 -0.2568
3.6867 -3.0866 -0.2538
3.6521 -3.0676 -0.2530
3.6397 -3.0633 -0.2588
3.6228 -3.0528 -0.2554
3.6120 -3.0496 -0.2618
3.5954 -3.0383 -0.2558
3.5827 -3.0315 -0.2560
3.5702 -3.0246 -0.2555
3.5586 -3.0183 -0.2555
3.5468 -3.0113 -0.2538
3.5370 -3.0069 -0.2559
6.0816 -3.6465 1.3665
5.9820 -3.6291 1.2817
6.0273 -3.6639 1.2509
6.0176 -3.6792 1.1990
6.1228 -3.7386 1.1829
6.7144 -4.0142 1.2426
5.5442 -3.6385 0.6882
5.3039 -3.5505 0.6023
5.2504 -3.5434 0.5510
5.2286 -3.5504 0.5047
5.2273 -3.5670 0.4602
5.4084 -3.6717 0.4264
5.2452 -3.6115 0.3690
5.2017 -3.6085 0.3203
5.0544 -3.5521 0.2739
5.0161 -3.5498 0.2299
5.0306 -3.5752 0.1835
5.0263 -3.5911 0.1368
5.0995 -3.6502 0.0799
5.0860 -3.6626 0.0304
5.0353 -3.6538 -0.0129
4.9763 -3.6396 -0.0528
4.9632 -3.6519 -0.1015
5.1351 -3.8008 -0.2613
5.0163 -3.7490 -0.2825
4.8336 -3.6531 -0.2731
4.7169 -3.5966 -0.2794
4.5511 -3.5040 -0.2567
4.3888 -3.4258 -0.2663
4.2410 -3.3502 -0.2639
4.1930 -3.3291 -0.2721
4.1225 -3.2894 -0.2616
4.0147 -3.2309 -0.2510
3.9843 -3.2188 -0.2593
3.9463 -3.1994 -0.2589
3.8723 -3.1592 -0.2516
3.8208 -3.1352 -0.2570
3.7647 -3.1038 -0.2490
3.7478 -3.0979 -0.2558
3.7259 -3.0863 -0.2545
3.6860 -3.0651 -0.2518
3.6552 -3.0515 -0.2569
3.6379 -3.0417 -0.2541
3.6252 -3.0369 -0.2581
3.6103 -3.0287 -0.2566
3.5952 -3.0198 -0.2532
3.5824 -3.0134 -0.2532
3.5724 -3.0101 -0.2578
3.5589 -3.0015 -0.2533
3.5498 -2.9987 -0.2581
3.5368 -2.9899 -0.2522
6.1156 -3.6664 1.1611
6.0871 -3.6756 1.1005
5.9304 -3.6373 1.0048
6.0682 -3.7084 0.9888
6.6877 -3.9677 1.0789
6.1858 -3.8181 0.8436
5.7674 -3.6896 0.6580
5.3807 -3.5455 0.5545
5.3462 -3.5479 0.5041
5.3694 -3.5758 0.4589
5.4576 -3.6338 0.4152
5.3464 -3.6209 0.3091
5.1096 -3.5266 0.2616
5.0513 -3.5155 0.2174
5.0484 -3.5314 0.1713
5.1319 -3.5917 0.1157
5.2035 -3.6479 0.0556
5.1908 -3.6615 0.0032
5.1241 -3.6460 -0.0398
5.0316 -3.6153 -0.0747
4.9728 -3.6020 -0.1136
4.9421 -3.6040 -0.1579
4.9917 -3.6532 -0.2268
4.9238 -3.6334 -0.2599
4.8119 -3.5854 -0.2730
4.6595 -3.5096 -0.2628
4.5426 -3.4530 -0.2591
4.3665 -3.3698 -0.2595
4.2280 -3.3045 -0.2599
4.1236 -3.2572 -0.2655
4.0516 -3.2167 -0.2483
4.0298 -3.2128 -0.2652
3.9509 -3.1753 -0.2648
3.8792 -3.1395 -0.2596
3.8202 -3.1106 -0.2570
3.7927 -3.0966 -0.2545
3.7734 -3.0895 -0.2598
3.7453 -3.0734 -0.2523
3.7246 -3.0636 -0.2522
3.6898 -3.0489 -0.2568
3.6733 -3.0416 -0.2583
3.6538 -3.0306 -0.2534
3.6250 -3.0179 -0.2559
3.6110 -3.0114 -0.2561
3.5984 -3.0060 -0.2577
3.5717 -2.9918 -0.2536
3.5605 -2.9868 -0.2543
3.5505 -2.9830 -0.2567
3.5393 -2.9771 -0.2553
7.8421 -4.1412 1.7498
7.1152 -3.9296 1.4458
6.1746 -3.6962 0.9393
6.0627 -3.6760 0.8582
6.1682 -3.7576 0.7604
6.0537 -3.7351 0.6823
5.6728 -3.6053 0.5758
5.4408 -3.5302 0.4998
5.3218 -3.4985 0.4417
5.1988 -3.5137 0.2479
5.0790 -3.4762 0.2050
5.0855 -3.4962 0.1575
5.1940 -3.5654 0.0978
5.2026 -3.5884 0.0441
5.2012 -3.6071 -0.0099
5.1882 -3.6204 -0.0629
5.3185 -3.7085 -0.1484
5.0973 -3.6132 -0.1546
4.9964 -3.5788 -0.1827
4.9384 -3.5663 -0.2192
4.8659 -3.5447 -0.2483
4.7982 -3.5247 -0.2757
4.6428 -3.4515 -0.2628
4.5397 -3.4064 -0.2639
4.4543 -3.3701 -0.2674
4.3733 -3.3345 -0.2680
4.2942 -3.2984 -0.2646
4.2433 -3.2791 -0.2732
4.1737 -3.2460 -0.2665
4.1119 -3.2165 -0.2603
4.0305 -3.1834 -0.2681
3.9429 -3.1416 -0.2593
3.9098 -3.1272 -0.2599
3.8753 -3.1109 -0.2568
3.8228 -3.0890 -0.2604
3.7695 -3.0636 -0.2551
3.7286 -3.0464 -0.2573
3.7064 -3.0353 -0.2535
3.6878 -3.0268 -0.2529
3.6546 -3.0124 -0.2535
3.6411 -3.0076 -0.2568
3.6263 -3.0010 -0.2566
3.6144 -2.9972 -0.2607
3.5976 -2.9874 -0.2540
3.5873 -2.9846 -0.2589
3.5738 -2.9776 -0.2558
3.5631 -2.9735 -0.2576
3.5511 -2.9674 -0.2554
3.5409 -2.9631 -0.2560
3.5313 -2.9594 -0.2573
7.9947 -4.1996 1.4134
6.2880 -3.7468 0.6958
5.9581 -3.6472 0.5925
5.7524 -3.5899 0.5141
5.5455 -3.5293 0.4437
5.5756 -3.5593 0.3923
5.6389 -3.6036 0.3389
5.8475 -3.7092 0.2803
5.1264 -3.4443 0.1911
5.1143 -3.4556 0.1440
5.1612 -3.4934 0.0899
5.1696 -3.5149 0.0372
5.2684 -3.5794 -0.0325
5.4093 -3.6664 -0.1176
5.5132 -3.7387 -0.2044
5.3288 -3.6702 -0.2247
4.9043 -3.4937 -0.2171
4.8511 -3.4836 -0.2513
4.7631 -3.4538 -0.2697
4.6267 -3.3955 -0.2626
4.5374 -3.3611 -0.2689
4.3801 -3.2993 -0.2766
4.2974 -3.2634 -0.2707
4.2339 -3.2375 -0.2713
4.1626 -3.2053 -0.2625
4.0618 -3.1635 -0.2611
4.0216 -3.1478 -0.2633
3.9758 -3.1272 -0.2580
3.9030 -3.0963 -0.2548
3.8464 -3.0741 -0.2576
3.7951 -3.0531 -0.2579
3.7706 -3.0426 -0.2565
3.7486 -3.0335 -0.2563
3.7289 -3.0259 -0.2575
3.7085 -3.0170 -0.2560
3.6892 -3.0085 -0.2543
3.6750 -3.0043 -0.2589
3.6611 -3.0000 -0.2629
3.6413 -2.9894 -0.2558
3.6248 -2.9815 -0.2524
3.6119 -2.9768 -0.2542
3.6009 -2.9737 -0.2584
3.5855 -2.9655 -0.2527
3.5759 -2.9634 -0.2580
3.5651 -2.9595 -0.2597
3.5531 -2.9538 -0.2574
3.5442 -2.9516 -0.2614
3.5337 -2.9469 -0.2604
6.6203 -3.7799 0.7190
5.6694 -3.4945 0.4911
5.4377 -3.4292 0.4226
5.7096 -3.5454 0.3827
6.1284 -3.7443 0.2609
5.1359 -3.3950 0.1792
5.6819 -3.6991 -0.1159
5.5855 -3.6790 -0.1657
5.6397 -3.7261 -0.2466
5.4088 -3.6421 -0.2573
5.1920 -3.5607 -0.2594
4.8844 -3.4481 -0.2716
4.7103 -3.3771 -0.2563
4.6002 -3.3358 -0.2578
4.5143 -3.3053 -0.2640
4.4106 -3.2634 -0.2561
4.3554 -3.2464 -0.2679
4.2799 -3.2167 -0.2648
4.1528 -3.1668 -0.2593
4.1029 -3.1480 -0.2598
4.0482 -3.1252 -0.2534
3.9689 -3.0953 -0.2540
3.9392 -3.0857 -0.2591
3.8961 -3.0663 -0.2495
3.8734 -3.0601 -0.2569
3.8477 -3.0513 -0.2597
3.8187 -3.0393 -0.2569
3.7975 -3.0327 -0.2610
3.7470 -3.0113 -0.2541
3.7317 -3.0077 -0.2609
3.7094 -2.9978 -0.2566
3.6746 -2.9849 -0.2573
3.6573 -2.9777 -0.2555
3.6403 -2.9704 -0.2527
3.6260 -2.9650 -0.2530
3.6147 -2.9623 -0.2577
3.6015 -2.9573 -0.2577
3.5902 -2.9539 -0.2603
3.5776 -2.9487 -0.2591
3.5653 -2.9434 -0.2573
3.5552 -2.9403 -0.2594
3.5457 -2.9376 -0.2622
3.5347 -2.9327 -0.2598
5.6215 -3.4157 0.4721
5.5256 -3.4006 0.4137
5.9886 -3.7507 -0.1849
5.9775 -3.7707 -0.2608
5.6527 -3.6581 -0.2630
5.3264 -3.5392 -0.2468
5.1912 -3.4992 -0.2695
4.9277 -3.4156 -0.2957
4.6611 -3.3062 -0.2436
4.6021 -3.2924 -0.2650
4.5016 -3.2569 -0.2638
4.4215 -3.2300 -0.2668
4.3620 -3.2121 -0.2762
4.2693 -3.1756 -0.2626
4.1451 -3.1306 -0.2574
4.0547 -3.1001 -0.2608
4.0218 -3.0909 -0.2679
3.9786 -3.0747 -0.2642
3.9214 -3.0486 -0.2446
3.9059 -3.0481 -0.2602
3.8719 -3.0350 -0.2565
3.8428 -3.0245 -0.2553
3.7900 -3.0052 -0.2526
3.7486 -2.9919 -0.2560
3.7090 -2.9779 -0.2555
3.6765 -2.9678 -0.2594
3.6433 -2.9552 -0.2563
3.6300 -2.9513 -0.2585
3.6175 -2.9478 -0.2612
3.6016 -2.9406 -0.2559
3.5908 -2.9379 -0.2594
3.5776 -2.9325 -0.2569
3.5673 -2.9297 -0.2593
3.5444 -2.9206 -0.2558
5.4825 -3.3129 0.4473
6.0667 -3.5252 0.3611
6.1056 -3.6893 -0.1429
6.1433 -3.7273 -0.2292
6.0604 -3.7204 -0.2939
5.6833 -3.5970 -0.2837
5.2868 -3.4595 -0.2470
5.1471 -3.4207 -0.2661
4.8391 -3.3239 -0.2711
4.6882 -3.2729 -0.2614
4.5877 -3.2419 -0.2649
4.3269 -3.1577 -0.2614
4.2625 -3.1375 -0.2626
4.1428 -3.0982 -0.2589
4.0889 -3.0799 -0.2554
4.0536 -3.0708 -0.2624
4.0169 -3.0602 -0.2661
3.9649 -3.0400 -0.2542
3.9372 -3.0331 -0.2605
3.8788 -3.0156 -0.2644
3.8474 -3.0046 -0.2610
3.8182 -2.9942 -0.2575
3.7917 -2.9850 -0.2548
3.7703 -2.9786 -0.2564
3.7488 -2.9717 -0.2562
3.7291 -2.9655 -0.2566
3.7135 -2.9620 -0.2613
3.6755 -2.9485 -0.2567
3.6586 -2.9427 -0.2554
3.6445 -2.9387 -0.2570
3.6323 -2.9360 -0.2611
3.6148 -2.9284 -0.2543
3.6043 -2.9265 -0.2593
3.5887 -2.9197 -0.2530
3.5802 -2.9191 -0.2601
3.5649 -2.9115 -0.2512
3.5562 -2.9104 -0.2564
3.5478 -2.9091 -0.2612
5.6727 -3.3073 0.4459
6.2189 -3.6446 -0.1777
6.3985 -3.7302 -0.2944
6.0989 -3.6502 -0.3180
5.6612 -3.5158 -0.2914
5.3107 -3.4065 -0.2646
4.9684 -3.3099 -0.2732
4.6832 -3.2253 -0.2663
4.5953 -3.2022 -0.2745
4.4831 -3.1673 -0.2660
4.3944 -3.1406 -0.2628
4.3266 -3.1218 -0.2657
4.2036 -3.0866 -0.2669
4.1387 -3.0656 -0.2593
4.0940 -3.0533 -0.2618
4.0525 -3.0419 -0.2640
4.0052 -3.0267 -0.2587
3.9642 -3.0139 -0.2554
3.9270 -3.0024 -0.2527
3.9029 -2.9974 -0.2599
3.8751 -2.9899 -0.2617
3.8458 -2.9809 -0.2600
3.8206 -2.9738 -0.2607
3.7706 -2.9582 -0.2568
3.7535 -2.9548 -0.2621
3.7267 -2.9444 -0.2530
3.7099 -2.9403 -0.2556
3.6940 -2.9365 -0.2584
3.6610 -2.9269 -0.2581
3.6439 -2.9209 -0.2548
3.6334 -2.9199 -0.2616
3.6187 -2.9151 -0.2599
3.6043 -2.9102 -0.2573
3.5913 -2.9061 -0.2562
3.5812 -2.9043 -0.2600
3.5673 -2.8986 -0.2543
3.5582 -2.8971 -0.2583
3.5473 -2.8937 -0.2571
3.5400 -2.8935 -0.2639
5.6108 -3.2306 0.4274
5.7357 -3.2763 0.3793
5.7415 -3.2933 0.3227
7.7366 -3.9591 -0.2089
7.6840 -3.9760 -0.3208
6.2343 -3.5641 -0.1971
6.2237 -3.5834 -0.2775
5.9988 -3.5339 -0.3110
5.2481 -3.3234 -0.2575
4.6668 -3.1742 -0.2662
4.4714 -3.1232 -0.2658
4.3926 -3.1028 -0.2667
4.3147 -3.0816 -0.2633
4.1924 -3.0497 -0.2632
4.1393 -3.0357 -0.2627
4.0858 -3.0206 -0.2586
4.0512 -3.0135 -0.2654
4.0060 -3.0006 -0.2615
3.9328 -2.9809 -0.2594
3.9013 -2.9728 -0.2595
3.8756 -2.9671 -0.2632
3.8168 -2.9500 -0.2569
3.7928 -2.9437 -0.2568
3.7754 -2.9408 -0.2628
3.7537 -2.9350 -0.2622
3.7306 -2.9278 -0.2579
3.7118 -2.9229 -0.2579
3.6929 -2.9174 -0.2559
3.6773 -2.9139 -0.2578
3.6628 -2.9107 -0.2599
3.6468 -2.9061 -0.2583
3.6328 -2.9026 -0.2591
3.6175 -2.8978 -0.2560
3.6064 -2.8959 -0.2596
3.5939 -2.8926 -0.2595
3.5822 -2.8897 -0.2599
3.5693 -2.8853 -0.2563
3.5616 -2.8853 -0.2637
3.5487 -2.8803 -0.2577
3.5390 -2.8780 -0.2584
8.4894 -3.4770 1.8083
8.6532 -3.5527 1.6635
5.6077 -3.1705 0.4129
5.8649 -3.2420 0.3681
5.6937 -3.2328 0.2506
5.8508 -3.2862 0.1858
6.3826 -3.4561 0.0077
6.4575 -3.4968 -0.0818
6.2498 -3.4836 -0.2165
6.0247 -3.4410 -0.2537
5.7891 -3.3924 -0.2774
5.4112 -3.2979 -0.2518
5.2709 -3.2712 -0.2745
4.9349 -3.1942 -0.2784
4.6457 -3.1231 -0.2638
4.4698 -3.0840 -0.2703
4.2942 -3.0394 -0.2559
4.2337 -3.0256 -0.2569
4.1931 -3.0188 -0.2670
4.1414 -3.0068 -0.2672
4.0932 -2.9955 -0.2666
4.0546 -2.9875 -0.2703
4.0054 -2.9741 -0.2629
3.9633 -2.9631 -0.2582
3.9341 -2.9573 -0.2621
3.8724 -2.9427 -0.2609
3.8184 -2.9297 -0.2593
3.7985 -2.9262 -0.2637
3.7749 -2.9204 -0.2622
3.7294 -2.9081 -0.2559
3.7137 -2.9056 -0.2600
3.6978 -2.9025 -0.2626
3.6761 -2.8955 -0.2549
3.6586 -2.8906 -0.2519
3.6467 -2.8892 -0.2569
3.6345 -2.8873 -0.2605
3.6174 -2.8817 -0.2542
3.6052 -2.8792 -0.2554
3.5933 -2.8766 -0.2562
3.5827 -2.8747 -0.2586
3.5723 -2.8728 -0.2605
3.5596 -2.8688 -0.2562
3.5497 -2.8667 -0.2571
3.5418 -2.8663 -0.2625
8.3752 -3.3236 1.8307
8.3738 -3.4374 1.3691
8.0300 -3.4078 1.2046
5.7858 -3.1462 0.4070
6.0478 -3.2122 0.3567
7.8809 -3.6573 0.0719
6.6903 -3.4636 -0.1293
6.3265 -3.3979 -0.1643
5.9530 -3.3437 -0.2539
5.7126 -3.2992 -0.2728
5.4226 -3.2383 -0.2662
5.2463 -3.2051 -0.2775
4.5344 -3.0564 -0.2646
4.4672 -3.0450 -0.2742
4.3743 -3.0240 -0.2664
4.3036 -3.0094 -0.2654
4.1799 -2.9832 -0.2618
4.0848 -2.9641 -0.2631
4.0000 -2.9461 -0.2605
3.9602 -2.9371 -0.2572
3.9309 -2.9320 -0.2607
3.8964 -2.9241 -0.2572
3.8642 -2.9166 -0.2535
3.8362 -2.9105 -0.2520
3.8172 -2.9082 -0.2584
3.7925 -2.9028 -0.2569
3.7716 -2.8989 -0.2583
3.7479 -2.8931 -0.2545
3.7319 -2.8910 -0.2591
3.7144 -2.8877 -0.2604
3.6953 -2.8832 -0.2581
3.6644 -2.8775 -0.2604
3.6372 -2.8728 -0.2640
3.6224 -2.8692 -0.2618
3.6084 -2.8659 -0.2598
3.5948 -2.8624 -0.2572
3.5815 -2.8589 -0.2538
3.5722 -2.8580 -0.2579
3.5620 -2.8562 -0.2592
3.5520 -2.8544 -0.2601
3.5394 -2.8501 -0.2531
8.1647 -3.1896 1.7353
8.3706 -3.3895 1.0372
7.5584 -3.2943 0.8303
6.7981 -3.1995 0.6609
5.9731 -3.1148 0.3994
7.2064 -3.4074 0.0816
7.4817 -3.5344 -0.2527
7.1131 -3.4816 -0.3059
5.8968 -3.2380 -0.1841
5.9456 -3.2660 -0.2669
5.3297 -3.1536 -0.2522
4.9919 -3.0963 -0.2625
4.8802 -3.0794 -0.2748
4.7537 -3.0571 -0.2753
4.6211 -3.0315 -0.2660
4.5371 -3.0179 -0.2715
4.4567 -3.0043 -0.2741
4.2868 -2.9709 -0.2599
4.2310 -2.9617 -0.2626
4.1310 -2.9448 -0.2659
4.0818 -2.9355 -0.2635
4.0306 -2.9248 -0.2563
3.9991 -2.9205 -0.2618
3.9645 -2.9146 -0.2626
3.9351 -2.9101 -0.2659
3.8931 -2.9002 -0.2551
3.8716 -2.8980 -0.2620
3.8442 -2.8930 -0.2612
3.7939 -2.8835 -0.2589
3.7737 -2.8804 -0.2609
3.7486 -2.8746 -0.2552
3.7345 -2.8738 -0.2623
3.7124 -2.8687 -0.2571
3.6933 -2.8647 -0.2544
3.6802 -2.8635 -0.2595
3.6625 -2.8596 -0.2561
3.6488 -2.8576 -0.2580
3.6348 -2.8552 -0.2582
3.6094 -2.8511 -0.2599
3.5985 -2.8498 -0.2626
3.5851 -2.8467 -0.2592
3.5741 -2.8448 -0.2598
3.5629 -2.8426 -0.2587
3.5524 -2.8406 -0.2582
3.5441 -2.8401 -0.2622
8.2875 -3.0751 1.8255
5.7096 -2.9987 0.4276
6.2333 -3.0849 0.3921
6.5802 -3.1507 0.3296
6.9907 -3.2495 0.1611
7.2686 -3.3147 0.0549
6.9835 -3.2884 -0.0192
7.4041 -3.3824 -0.1593
7.2212 -3.3731 -0.2408
6.6200 -3.2843 -0.2465
5.9390 -3.1897 -0.2798
5.6369 -3.1445 -0.2800
5.2919 -3.0867 -0.2524
4.9752 -3.0421 -0.2654
4.7292 -3.0068 -0.2724
4.6402 -2.9953 -0.2805
4.5442 -2.9809 -0.2805
4.4547 -2.9670 -0.2782
4.3758 -2.9548 -0.2763
4.2927 -2.9403 -0.2673
4.2274 -2.9298 -0.2640
4.1751 -2.9222 -0.2651
4.1215 -2.9136 -0.2622
4.0803 -2.9080 -0.2649
4.0266 -2.8978 -0.2553
3.9935 -2.8937 -0.2591
3.9658 -2.8910 -0.2654
3.8970 -2.8795 -0.2601
3.8415 -2.8709 -0.2590
3.8153 -2.8666 -0.2573
3.7960 -2.8647 -0.2616
3.7737 -2.8612 -0.2610
3.7532 -2.8582 -0.2610
3.7298 -2.8535 -0.2556
3.7148 -2.8522 -0.2600
3.7007 -2.8511 -0.2648
3.6807 -2.8469 -0.2593
3.6672 -2.8457 -0.2627
3.6492 -2.8418 -0.2574
3.6346 -2.8394 -0.2564
3.6203 -2.8368 -0.2546
3.6086 -2.8355 -0.2566
3.5977 -2.8345 -0.2591
3.5849 -2.8320 -0.2566
3.5755 -2.8314 -0.2605
3.5637 -2.8291 -0.2581
3.5527 -2.8271 -0.2562
3.5434 -2.8260 -0.2576
7.7643 -3.0028 1.3214
7.8424 -3.1192 0.8103
5.7619 -2.9345 0.4690
5.7664 -2.9461 0.4160
7.2079 -3.1449 0.3133
7.2896 -3.1742 0.2214
7.2887 -3.1938 0.1270
7.2879 -3.2138 0.0306
7.3320 -3.2407 -0.0721
7.0753 -3.2242 -0.1443
5.8471 -3.0853 -0.2029
5.9331 -3.1146 -0.2927
5.5706 -3.0665 -0.2756
5.3025 -3.0314 -0.2657
4.9759 -2.9929 -0.2739
4.8303 -2.9745 -0.2715
4.6879 -2.9551 -0.2623
4.4989 -2.9323 -0.2645
4.3786 -2.9212 -0.2823
4.2764 -2.9043 -0.2617
4.2220 -2.8981 -0.2641
4.1134 -2.8838 -0.2593
4.0343 -2.8749 -0.2636
4.0026 -2.8720 -0.2685
3.9608 -2.8657 -0.2627
3.8980 -2.8579 -0.2622
3.8721 -2.8551 -0.2643
3.8387 -2.8494 -0.2567
3.7518 -2.8392 -0.2590
3.7330 -2.8370 -0.2596
3.7153 -2.8350 -0.2602
3.6986 -2.8331 -0.2610
3.6811 -2.8305 -0.2591
3.6502 -2.8264 -0.2578
3.6367 -2.8250 -0.2587
3.6235 -2.8234 -0.2590
3.6101 -2.8215 -0.2576
3.5997 -2.8209 -0.2612
3.5868 -2.8188 -0.2586
3.5742 -2.8166 -0.2553
3.5635 -2.8152 -0.2550
3.5550 -2.8150 -0.2592
3.5442 -2.8132 -0.2567
7.9984 -2.8359 1.7558
7.9300 -2.9128 1.3309
7.7400 -2.9190 1.2062
7.8976 -2.9622 1.0641
8.0099 -2.9874 0.9909
7.2340 -2.9662 0.7167
5.5866 -2.8607 0.4426
6.0393 -2.9103 0.4134
6.6754 -2.9810 0.3669
7.6333 -3.1084 0.1898
7.1033 -3.0723 0.1127
7.2199 -3.1223 -0.0842
7.6459 -3.1932 -0.2353
7.4461 -3.1901 -0.3180
6.6539 -3.1078 -0.2891
5.9371 -3.0278 -0.2348
5.8865 -3.0349 -0.2960
5.4810 -2.9895 -0.2643
5.3256 -2.9780 -0.2826
4.9596 -2.9414 -0.2765
4.8108 -2.9260 -0.2715
4.6901 -2.9140 -0.2697
4.6001 -2.9063 -0.2749
4.4968 -2.8951 -0.2687
4.3484 -2.8810 -0.2701
4.2787 -2.8737 -0.2669
4.1979 -2.8630 -0.2525
4.1607 -2.8613 -0.2618
4.1159 -2.8573 -0.2638
4.0754 -2.8539 -0.2662
4.0245 -2.8473 -0.2580
3.9843 -2.8429 -0.2551
3.9496 -2.8394 -0.2544
3.8982 -2.8362 -0.2635
3.8633 -2.8314 -0.2563
3.8373 -2.8288 -0.2558
3.8153 -2.8271 -0.2582
3.7925 -2.8249 -0.2579
3.7694 -2.8222 -0.2558
3.7496 -2.8203 -0.2560
3.7145 -2.8174 -0.2585
3.6827 -2.8148 -0.2608
3.6680 -2.8136 -0.2619
3.6529 -2.8120 -0.2613
3.6232 -2.8083 -0.2569
3.6121 -2.8078 -0.2597
3.6000 -2.8066 -0.2598
3.5876 -2.8051 -0.2582
3.5739 -2.8026 -0.2524
3.5658 -2.8030 -0.2580
3.5553 -2.8018 -0.2571
3.5450 -2.8005 -0.2558
8.1629 -2.7256 1.8571
8.0309 -2.7680 1.5763
7.9869 -2.7822 1.4828
8.3241 -2.8066 1.4796
8.2765 -2.8219 1.3783
7.9110 -2.8425 1.1266
7.9174 -2.8590 1.0392
7.7761 -2.8858 0.8395
7.5886 -2.8929 0.7293
6.0140 -2.8214 0.5121
7.2377 -3.0407 -0.2074
7.1099 -3.0468 -0.2892
5.8179 -2.9433 -0.2242
5.7191 -2.9448 -0.2702
5.4374 -2.9237 -0.2641
5.2539 -2.9121 -0.2719
5.0877 -2.9011 -0.2759
4.9439 -2.8915 -0.2790
4.8051 -2.8812 -0.2764
4.7153 -2.8767 -0.2867
4.5919 -2.8662 -0.2770
4.4991 -2.8593 -0.2751
4.3509 -2.8489 -0.2757
4.2058 -2.8359 -0.2608
4.1532 -2.8320 -0.2599
4.1168 -2.8307 -0.2671
4.0638 -2.8257 -0.2600
4.0234 -2.8226 -0.2592
3.9902 -2.8208 -0.2619
3.9522 -2.8174 -0.2583
3.9242 -2.8160 -0.2614
3.8893 -2.8125 -0.2559
3.8387 -2.8093 -0.2580
3.7959 -2.8071 -0.2622
3.7741 -2.8054 -0.2617
3.7528 -2.8036 -0.2601
3.7202 -2.8024 -0.2661
3.6824 -2.7986 -0.2595
3.6538 -2.7969 -0.2617
3.6385 -2.7954 -0.2591
3.6259 -2.7947 -0.2602
3.6135 -2.7939 -0.2607
3.6008 -2.7928 -0.2596
3.5873 -2.7911 -0.2555
3.5763 -2.7903 -0.2554
3.5671 -2.7902 -0.2585
3.5555 -2.7887 -0.2551
7.8110 -2.6820 1.4101
7.7816 -2.7383 1.0758
7.8353 -2.7540 0.9984
7.8968 -2.7864 0.8267
5.7738 -2.7504 0.4779
7.6888 -2.9694 -0.2894
7.2125 -2.9542 -0.3263
5.8125 -2.8753 -0.2364
5.6336 -2.8716 -0.2623
5.4218 -2.8635 -0.2708
5.0779 -2.8498 -0.2815
4.7794 -2.8349 -0.2735
4.5643 -2.8246 -0.2702
4.4841 -2.8214 -0.2729
4.4074 -2.8180 -0.2730
4.2537 -2.8087 -0.2596
4.2085 -2.8077 -0.2659
4.1685 -2.8072 -0.2731
4.1084 -2.8028 -0.2638
4.0644 -2.8007 -0.2628
3.9897 -2.7974 -0.2633
3.9579 -2.7962 -0.2649
3.9189 -2.7932 -0.2578
3.8648 -2.7911 -0.2595
3.8129 -2.7882 -0.2564
3.7711 -2.7866 -0.2580
3.7525 -2.7860 -0.2596
3.7343 -2.7853 -0.2605
3.7132 -2.7836 -0.2558
3.6959 -2.7826 -0.2549
3.6673 -2.7820 -0.2588
3.6535 -2.7816 -0.2599
3.6399 -2.7810 -0.2604
3.6261 -2.7802 -0.2591
3.6114 -2.7788 -0.2550
3.5987 -2.7780 -0.2535
3.5897 -2.7784 -0.2585
3.5781 -2.7777 -0.2572
3.5684 -2.7776 -0.2590
3.5583 -2.7771 -0.2592
3.5484 -2.7766 -0.2589
8.0025 -2.6382 1.0862
7.6240 -2.6815 0.7691
6.2248 -2.6877 0.5551
5.9652 -2.6950 0.4766
5.8546 -2.7027 0.4152
6.0189 -2.7141 0.3647
6.6864 -2.7488 0.2319
6.7724 -2.7636 0.1507
7.2333 -2.8372 -0.2500
6.9535 -2.8404 -0.3048
6.1277 -2.8259 -0.3183
5.5131 -2.8017 -0.2447
5.3574 -2.8017 -0.2639
5.0156 -2.7957 -0.2694
4.7487 -2.7901 -0.2682
4.6553 -2.7892 -0.2740
4.5464 -2.7860 -0.2676
4.4607 -2.7841 -0.2664
4.3876 -2.7827 -0.2671
4.3152 -2.7807 -0.2640
4.2479 -2.7787 -0.2597
4.2026 -2.7787 -0.2654
4.1490 -2.7772 -0.2629
4.0939 -2.7750 -0.2561
4.0657 -2.7761 -0.2661
3.9924 -2.7748 -0.2673
3.9620 -2.7746 -0.2701
3.9167 -2.7716 -0.2570
3.8105 -2.7690 -0.2541
3.7750 -2.7697 -0.2630
3.7501 -2.7682 -0.2564
3.7327 -2.7680 -0.2579
3.7155 -2.7678 -0.2586
3.7027 -2.7685 -0.2644
3.6701 -2.7675 -0.2623
3.6408 -2.7666 -0.2605
3.6275 -2.7663 -0.2602
3.6127 -2.7653 -0.2559
3.6023 -2.7656 -0.2589
3.5910 -2.7654 -0.2592
3.5782 -2.7645 -0.2554
3.5674 -2.7642 -0.2546
3.5579 -2.7642 -0.2558
3.5481 -2.7639 -0.2553
7.7681 -2.5300 1.1035
7.6790 -2.5450 1.0052
7.5933 -2.5597 0.9092
7.3839 -2.5770 0.7995
6.7947 -2.6010 0.6567
6.4533 -2.6679 0.2183
6.6661 -2.6791 0.1361
6.8384 -2.7173 -0.1259
6.7667 -2.7293 -0.2039
6.7605 -2.7423 -0.2915
6.2447 -2.7431 -0.2805
5.9511 -2.7464 -0.2935
5.5243 -2.7433 -0.2588
5.4048 -2.7481 -0.2875
5.0159 -2.7485 -0.2778
4.8771 -2.7491 -0.2779
4.7441 -2.7490 -0.2731
4.6355 -2.7493 -0.2715
4.5208 -2.7483 -0.2611
4.4269 -2.7478 -0.2545
4.3937 -2.7509 -0.2748
4.3183 -2.7505 -0.2697
4.2507 -2.7501 -0.2649
4.1949 -2.7502 -0.2637
4.1471 -2.7506 -0.2645
4.1012 -2.7507 -0.2639
4.0512 -2.7500 -0.2574
3.9837 -2.7509 -0.2618
3.9526 -2.7513 -0.2633
3.9174 -2.7508 -0.2590
3.8676 -2.7518 -0.2641
3.8390 -2.7514 -0.2603
3.8125 -2.7510 -0.2568
3.7938 -2.7516 -0.2605
3.7726 -2.7517 -0.2600
3.7385 -2.7526 -0.2655
3.6964 -2.7512 -0.2543
3.6691 -2.7521 -0.2596
3.6539 -2.7519 -0.2583
3.6397 -2.7519 -0.2573
3.6158 -2.7524 -0.2602
3.6019 -2.7519 -0.2562
3.5934 -2.7528 -0.2622
3.5806 -2.7523 -0.2583
3.5686 -2.7519 -0.2550
3.5591 -2.7521 -0.2561
3.5518 -2.7530 -0.2619
7.7396 -2.4359 1.0718
7.7440 -2.4470 0.9895
7.6552 -2.4630 0.8925
6.4858 -2.5364 0.6058
5.8708 -2.5771 0.4403
6.5879 -2.5697 0.3421
6.3289 -2.5868 0.2719
6.2739 -2.5975 0.2059
6.6241 -2.5992 0.1196
6.7676 -2.6072 0.0310
7.0374 -2.6144 -0.0787
7.1493 -2.6256 -0.1838
6.8164 -2.6416 -0.2300
6.1649 -2.6674 -0.2798
5.4940 -2.6845 -0.2622
5.3665 -2.6917 -0.2870
5.0082 -2.7016 -0.2833
4.8641 -2.7054 -0.2805
4.7279 -2.7083 -0.2731
4.6163 -2.7110 -0.2690
4.5414 -2.7142 -0.2760
4.4405 -2.7157 -0.2660
4.3853 -2.7185 -0.2746
4.2534 -2.7218 -0.2701
4.0499 -2.7261 -0.2586
3.9847 -2.7288 -0.2643
3.9415 -2.7287 -0.2548
3.9268 -2.7311 -0.2690
3.8598 -2.7314 -0.2569
3.7927 -2.7337 -0.2595
3.7730 -2.7344 -0.2605
3.7515 -2.7347 -0.2579
3.7339 -2.7354 -0.2590
3.7147 -2.7356 -0.2565
3.7019 -2.7367 -0.2619
3.6653 -2.7365 -0.2527
3.6528 -2.7372 -0.2553
3.6392 -2.7376 -0.2551
3.6277 -2.7383 -0.2578
3.6141 -2.7383 -0.2554
3.6031 -2.7389 -0.2570
3.5918 -2.7392 -0.2569
3.5824 -2.7399 -0.2601
3.5704 -2.7398 -0.2566
3.5608 -2.7402 -0.2576
3.5514 -2.7406 -0.2582
7.5827 -2.3634 0.9389
7.7199 -2.3641 0.8755
7.0841 -2.4178 0.7179
6.4504 -2.4684 0.5840
6.6025 -2.4932 0.3236
6.5154 -2.5068 0.2526
6.2425 -2.5291 0.1904
6.5548 -2.5232 0.1052
6.8488 -2.5202 0.0054
6.8774 -2.5297 -0.0821
6.8054 -2.5433 -0.1598
6.5467 -2.5734 -0.2892
6.0914 -2.5964 -0.2794
5.7086 -2.6148 -0.2639
5.4907 -2.6275 -0.2724
5.3528 -2.6374 -0.2932
5.1767 -2.6471 -0.2954
4.8296 -2.6629 -0.2746
4.7172 -2.6690 -0.2752
4.6024 -2.6743 -0.2687
4.5388 -2.6791 -0.2800
4.4671 -2.6834 -0.2841
4.3667 -2.6868 -0.2689
4.3073 -2.6903 -0.2712
4.2446 -2.6933 -0.2682
4.1850 -2.6958 -0.2636
4.0919 -2.7006 -0.2622
4.0184 -2.7049 -0.2652
3.9807 -2.7066 -0.2627
3.9470 -2.7082 -0.2612
3.9125 -2.7095 -0.2568
3.8347 -2.7136 -0.2569
3.7517 -2.7182 -0.2581
3.7348 -2.7193 -0.2600
3.7169 -2.7202 -0.2592
3.6869 -2.7222 -0.2623
3.6687 -2.7225 -0.2571
3.6529 -2.7230 -0.2543
3.6418 -2.7241 -0.2584
3.6278 -2.7246 -0.2565
3.6166 -2.7254 -0.2585
3.6050 -2.7261 -0.2589
3.5918 -2.7263 -0.2551
3.5819 -2.7271 -0.2569
3.5619 -2.7283 -0.2579
3.5531 -2.7290 -0.2597
7.6896 -2.2624 0.9295
7.4359 -2.2952 0.8139
7.1002 -2.3344 0.6977
6.3713 -2.4064 0.5590
6.3010 -2.4563 0.1718
6.5417 -2.4474 0.0882
6.6771 -2.4470 0.0011
6.6708 -2.4566 -0.0784
6.7256 -2.4626 -0.1676
6.7196 -2.4728 -0.2516
6.3982 -2.5006 -0.2785
6.1260 -2.5241 -0.3010
5.4494 -2.5729 -0.2722
5.0993 -2.6007 -0.2794
4.9438 -2.6123 -0.2767
4.8239 -2.6219 -0.2794
4.7073 -2.6306 -0.2774
4.5846 -2.6388 -0.2664
4.5097 -2.6451 -0.2714
4.4297 -2.6511 -0.2698
4.3726 -2.6562 -0.2763
4.2911 -2.6613 -0.2657
4.1927 -2.6695 -0.2716
4.0828 -2.6764 -0.2580
4.0227 -2.6825 -0.2706
3.9372 -2.6872 -0.2539
3.8855 -2.6917 -0.2585
3.8546 -2.6934 -0.2531
3.8290 -2.6952 -0.2513
3.7964 -2.6992 -0.2643
3.7527 -2.7020 -0.2592
3.7143 -2.7045 -0.2550
3.7015 -2.7060 -0.2601
3.6870 -2.7073 -0.2617
3.6707 -2.7083 -0.2595
3.6536 -2.7091 -0.2544
3.6303 -2.7115 -0.2596
3.6172 -2.7123 -0.2581
3.6050 -2.7131 -0.2572
3.5942 -2.7141 -0.2581
3.5830 -2.7148 -0.2573
3.5642 -2.7167 -0.2607
3.5558 -2.7177 -0.2638
7.6165 -2.1699 0.9744
7.5338 -2.1878 0.8824
6.5762 -2.3176 0.5583
6.4012 -2.3633 0.2872
6.2998 -2.3802 0.2221
6.3146 -2.3857 0.1548
6.6700 -2.3597 0.0618
6.6637 -2.3684 -0.0158
6.4115 -2.3990 -0.0661
6.5644 -2.3937 -0.1629
6.6745 -2.3929 -0.2619
6.4131 -2.4228 -0.2972
6.1187 -2.4541 -0.3137
5.3973 -2.5218 -0.2686
5.0370 -2.5579 -0.2675
4.8121 -2.5819 -0.2817
4.6914 -2.5935 -0.2769
4.5962 -2.6031 -0.2771
4.4944 -2.6125 -0.2690
4.4097 -2.6205 -0.2641
4.2966 -2.6327 -0.2726
4.2175 -2.6392 -0.2583
4.1756 -2.6439 -0.2635
4.0908 -2.6527 -0.2662
4.0202 -2.6602 -0.2706
3.9740 -2.6638 -0.2603
3.9378 -2.6670 -0.2558
3.9088 -2.6699 -0.2558
3.8828 -2.6726 -0.2568
3.8362 -2.6776 -0.2597
3.8185 -2.6799 -0.2653
3.7981 -2.6821 -0.2667
3.7730 -2.6840 -0.2608
3.7478 -2.6857 -0.2528
3.7302 -2.6875 -0.2532
3.7186 -2.6895 -0.2606
3.6824 -2.6924 -0.2538
3.6581 -2.6956 -0.2609
3.6431 -2.6968 -0.2582
3.6335 -2.6984 -0.2639
3.6178 -2.6993 -0.2577
3.6050 -2.7003 -0.2555
3.5954 -2.7016 -0.2587
3.5848 -2.7027 -0.2590
3.5744 -2.7038 -0.2589
3.5658 -2.7050 -0.2622
7.6654 -2.0449 1.2674
6.3821 -2.2668 0.5857
6.6250 -2.2597 0.3393
6.4882 -2.2831 0.2695
6.5852 -2.2779 0.1973
6.3521 -2.3123 0.1365
6.4966 -2.3230 -0.1700
6.7522 -2.3028 -0.2926
6.4815 -2.3394 -0.3265
6.0478 -2.3916 -0.3120
5.7119 -2.4320 -0.3008
5.4325 -2.4654 -0.2885
4.7686 -2.5458 -0.2715
4.6762 -2.5576 -0.2766
4.5838 -2.5691 -0.2769
4.4884 -2.5803 -0.2710
4.4119 -2.5896 -0.2696
4.3398 -2.5982 -0.2665
4.2810 -2.6056 -0.2671
4.2226 -2.6125 -0.2647
4.1689 -2.6189 -0.2620
4.1252 -2.6244 -0.2631
4.0127 -2.6386 -0.2663
3.9747 -2.6430 -0.2625
3.9110 -2.6505 -0.2590
3.8849 -2.6538 -0.2598
3.8624 -2.6568 -0.2628
3.8358 -2.6599 -0.2598
3.7924 -2.6652 -0.2601
3.7658 -2.6678 -0.2520
3.7508 -2.6700 -0.2566
3.7166 -2.6743 -0.2573
3.6864 -2.6782 -0.2593
3.6695 -2.6800 -0.2556
3.6575 -2.6818 -0.2588
3.6425 -2.6834 -0.2559
3.6310 -2.6850 -0.2580
3.6184 -2.6865 -0.2573
3.6062 -2.6879 -0.2561
3.5977 -2.6894 -0.2616
3.5865 -2.6907 -0.2607
3.5641 -2.6930 -0.2560
7.9999 -1.9037 1.3153
7.7121 -2.0119 0.5126
7.7155 -2.0188 0.4224
7.1392 -2.1111 0.3253
7.1010 -2.1234 0.2441
6.8012 -2.1731 0.1720
7.1278 -2.1477 -0.0994
7.2832 -2.1341 -0.2095
6.5390 -2.2415 -0.1930
6.6457 -2.2340 -0.2914
6.3655 -2.2773 -0.3192
5.9430 -2.3376 -0.3019
5.5596 -2.3914 -0.2739
4.4746 -2.5497 -0.2691
4.3389 -2.5696 -0.2699
4.2781 -2.5784 -0.2690
4.2304 -2.5857 -0.2728
4.1720 -2.5937 -0.2670
4.1316 -2.5999 -0.2703
4.0420 -2.6124 -0.2632
3.9703 -2.6227 -0.2604
3.9431 -2.6269 -0.2633
3.9114 -2.6313 -0.2606
3.8796 -2.6356 -0.2556
3.8509 -2.6394 -0.2516
3.8376 -2.6423 -0.2624
3.8099 -2.6458 -0.2563
3.7918 -2.6487 -0.2596
3.7719 -2.6516 -0.2595
3.7472 -2.6546 -0.2519
3.7332 -2.6571 -0.2567
3.7180 -2.6595 -0.2589
3.7010 -2.6618 -0.2576
3.6864 -2.6641 -0.2586
3.6741 -2.6662 -0.2622
3.6568 -2.6682 -0.2566
3.6457 -2.6702 -0.2602
3.6335 -2.6720 -0.2611
3.6202 -2.6738 -0.2592
3.6067 -2.6755 -0.2555
3.5959 -2.6771 -0.2560
3.5846 -2.6786 -0.2548
3.5675 -2.6817 -0.2613
7.7274 -1.9085 0.5777
7.7308 -1.9143 0.4891
7.6422 -1.9359 0.3964
7.4263 -1.9788 0.3052
7.5570 -1.9633 0.2151
7.3864 -1.9982 0.1296
7.1495 -2.0436 0.0540
7.4291 -2.0043 -0.0568
7.2219 -2.0445 -0.1296
7.0684 -2.0756 -0.2017
6.7594 -2.1308 -0.2440
6.3884 -2.1946 -0.2617
6.2127 -2.2272 -0.3029
5.5568 -2.3365 -0.2841
4.8676 -2.4523 -0.2783
4.6481 -2.4892 -0.2763
4.3285 -2.5425 -0.2680
4.2045 -2.5628 -0.2597
4.1149 -2.5780 -0.2611
3.9718 -2.6023 -0.2632
3.9077 -2.6128 -0.2582
3.8599 -2.6211 -0.2617
3.8131 -2.6289 -0.2604
3.7920 -2.6324 -0.2600
3.7705 -2.6359 -0.2578
3.7340 -2.6420 -0.2574
3.7180 -2.6448 -0.2585
3.7024 -2.6475 -0.2590
3.6741 -2.6524 -0.2612
3.6587 -2.6548 -0.2587
3.6475 -2.6570 -0.2622
3.6327 -2.6592 -0.2585
3.6201 -2.6612 -0.2575
3.6084 -2.6632 -0.2572
3.5994 -2.6650 -0.2614
3.5893 -2.6668 -0.2627
3.5759 -2.6686 -0.2559
3.5573 -2.6718 -0.2575
7.4441 -1.8808 0.3691
7.6203 -1.8582 0.1907
7.2059 -1.9418 0.1161
7.1296 -1.9614 0.0350
7.2028 -1.9531 -0.0580
7.3213 -1.9368 -0.1613
7.2795 -1.9502 -0.2501
7.0459 -1.9984 -0.3078
6.0365 -2.1893 -0.2800
5.7912 -2.2368 -0.2917
5.5008 -2.2915 -0.2801
4.4705 -2.4879 -0.2765
4.3284 -2.5147 -0.2717
4.2168 -2.5359 -0.2706
4.1195 -2.5543 -0.2669
4.0348 -2.5701 -0.2616
3.9139 -2.5934 -0.2652
3.8819 -2.5992 -0.2597
3.8601 -2.6035 -0.2627
3.8101 -2.6127 -0.2574
3.7905 -2.6165 -0.2585
3.7690 -2.6205 -0.2561
3.7524 -2.6238 -0.2584
3.7390 -2.6267 -0.2640
3.7080 -2.6328 -0.2666
3.6870 -2.6363 -0.2580
3.6706 -2.6392 -0.2548
3.6586 -2.6417 -0.2575
3.6455 -2.6442 -0.2575
3.6219 -2.6488 -0.2594
3.6108 -2.6509 -0.2602
3.5993 -2.6531 -0.2593
3.5904 -2.6550 -0.2630
3.5781 -2.6571 -0.2587
3.5600 -2.6607 -0.2616
7.6821 -1.7467 0.2588
7.5064 -1.7886 0.1710
7.2230 -1.8527 0.0946
7.2998 -1.8411 0.0025
7.3398 -1.8374 -0.0914
7.2188 -1.8671 -0.1698
7.2166 -1.8723 -0.2613
6.8549 -1.9509 -0.2948
5.7373 -2.1884 -0.2907
5.4729 -2.2442 -0.2831
4.2116 -2.5118 -0.2704
4.1500 -2.5244 -0.2607
4.0408 -2.5480 -0.2683
3.9651 -2.5637 -0.2605
3.9076 -2.5759 -0.2603
3.8756 -2.5824 -0.2543
3.8212 -2.5948 -0.2703
3.7921 -2.6005 -0.2606
3.7516 -2.6089 -0.2573
3.7339 -2.6127 -0.2568
3.7201 -2.6158 -0.2606
3.7051 -2.6191 -0.2618
3.6862 -2.6228 -0.2560
3.6711 -2.6259 -0.2548
3.6618 -2.6283 -0.2618
3.6473 -2.6312 -0.2595
3.6217 -2.6366 -0.2576
3.6112 -2.6389 -0.2595
3.5991 -2.6414 -0.2573
3.5896 -2.6435 -0.2595
3.5797 -2.6456 -0.2602
7.5568 -1.6653 0.6619
7.4359 -1.6973 0.5720
7.5182 -1.6812 0.4950
7.3972 -1.7131 0.4075
7.4381 -1.7070 0.3245
7.5663 -1.6805 0.2370
7.3984 -1.7233 0.1526
7.4828 -1.7074 0.0594
7.2777 -1.7585 -0.0166
7.4409 -1.7246 -0.1223
7.4856 -1.7183 -0.2228
5.7184 -2.1352 -0.2976
4.9300 -2.3190 -0.2768
4.5135 -2.4163 -0.2700
4.4289 -2.4359 -0.2646
4.3741 -2.4490 -0.2707
4.2382 -2.4803 -0.2587
4.1565 -2.4998 -0.2678
3.9953 -2.5373 -0.2609
3.9079 -2.5578 -0.2617
3.8823 -2.5638 -0.2619
3.8565 -2.5698 -0.2603
3.8279 -2.5762 -0.2541
3.8087 -2.5808 -0.2565
3.7851 -2.5861 -0.2526
3.7705 -2.5898 -0.2580
3.7538 -2.5938 -0.2600
3.7200 -2.6017 -0.2600
3.7035 -2.6055 -0.2589
3.6881 -2.6091 -0.2583
3.6716 -2.6128 -0.2547
3.6576 -2.6161 -0.2538
3.6471 -2.6187 -0.2580
3.6329 -2.6219 -0.2548
3.6209 -2.6247 -0.2546
3.6129 -2.6268 -0.2612
3.5989 -2.6299 -0.2551
3.5912 -2.6319 -0.2611
3.5801 -2.6344 -0.2590
3.5704 -2.6367 -0.2591
3.5632 -2.6386 -0.2642
7.3374 -1.6388 0.5435
7.4550 -1.6136 0.3869
7.4555 -1.6161 0.3026
7.1861 -1.6874 0.2216
7.2582 -1.6716 0.1367
7.3755 -1.6445 0.0443
7.3749 -1.6475 -0.0451
7.2551 -1.6805 -0.1237
5.6841 -2.0873 -0.3004
4.6804 -2.3428 -0.2725
4.5641 -2.3722 -0.2610
4.3671 -2.4228 -0.2709
4.2536 -2.4518 -0.2713
4.1547 -2.4770 -0.2693
4.0714 -2.4983 -0.2678
4.0270 -2.5094 -0.2613
3.9870 -2.5195 -0.2557
3.9333 -2.5333 -0.2611
3.9056 -2.5404 -0.2605
3.8734 -2.5484 -0.2539
3.8320 -2.5592 -0.2591
3.7936 -2.5691 -0.2629
3.7673 -2.5755 -0.2541
3.7484 -2.5803 -0.2529
3.7198 -2.5878 -0.2594
3.6886 -2.5958 -0.2583
3.6601 -2.6030 -0.2570
3.6489 -2.6060 -0.2600
3.6379 -2.6088 -0.2626
3.6213 -2.6128 -0.2539
3.6121 -2.6153 -0.2580
3.6030 -2.6177 -0.2617
3.5904 -2.6208 -0.2575
3.5805 -2.6234 -0.2579
3.5725 -2.6255 -0.2618
3.5641 -2.6277 -0.2642
7.1138 -1.6151 0.7240
7.3535 -1.5548 0.4437
7.4722 -1.5236 0.3652
7.3921 -1.5476 0.2809
7.4741 -1.5267 0.1944
7.4336 -1.5397 0.1083
7.3931 -1.5528 0.0222
7.4350 -1.5431 -0.0713
7.2725 -1.5896 -0.1457
6.5729 -1.7862 -0.2963
5.7363 -2.0168 -0.2635
5.5410 -2.0710 -0.2749
5.3493 -2.1241 -0.2785
5.1848 -2.1696 -0.2815
4.9030 -2.2475 -0.2813
4.6985 -2.3041 -0.2859
4.5836 -2.3357 -0.2749
4.4969 -2.3596 -0.2715
4.4119 -2.3829 -0.2645
4.3589 -2.3977 -0.2704
4.2310 -2.4328 -0.2608
4.1878 -2.4448 -0.2640
4.0630 -2.4793 -0.2636
3.9944 -2.4983 -0.2635
3.9284 -2.5164 -0.2578
3.8859 -2.5284 -0.2674
3.8550 -2.5368 -0.2602
3.8360 -2.5421 -0.2640
3.7873 -2.5554 -0.2555
3.7687 -2.5605 -0.2559
3.7551 -2.5644 -0.2614
3.7181 -2.5745 -0.2566
3.6905 -2.5822 -0.2606
3.6733 -2.5869 -0.2556
3.6640 -2.5896 -0.2624
3.6493 -2.5936 -0.2596
3.6343 -2.5976 -0.2550
3.6249 -2.6003 -0.2593
3.6150 -2.6031 -0.2621
3.5926 -2.6093 -0.2603
3.5814 -2.6123 -0.2580
3.5717 -2.6150 -0.2578
6.7983 -1.4418 0.8515
6.9680 -1.3763 0.8119
6.9123 -1.3858 0.3055
7.1810 -1.2815 0.2237
7.2175 -1.2656 0.1378
7.1782 -1.2787 0.0532
7.1389 -1.2917 -0.0313
7.1365 -1.2906 -0.1198
7.1345 -1.2893 -0.2102
6.9498 -1.3582 -0.2736
6.1473 -1.6637 -0.2885
5.5086 -1.9075 -0.2696
5.1109 -2.0592 -0.2631
4.4708 -2.3031 -0.2648
4.0405 -2.4674 -0.2501
4.0047 -2.4811 -0.2486
3.9773 -2.4915 -0.2520
3.9511 -2.5014 -0.2551
3.8726 -2.5313 -0.2548
3.8310 -2.5471 -0.2583
3.7902 -2.5626 -0.2575
3.7694 -2.5707 -0.2543
3.7490 -2.5785 -0.2502
3.7347 -2.5839 -0.2531
3.7185 -2.5901 -0.2524
3.7055 -2.5950 -0.2552
3.6900 -2.6009 -0.2532
3.6787 -2.6051 -0.2571
3.6638 -2.6109 -0.2539
3.6368 -2.6213 -0.2487
3.6265 -2.6252 -0.2507
3.6158 -2.6293 -0.2510
3.6071 -2.6325 -0.2546
3.5950 -2.6372 -0.2502
3.5861 -2.6406 -0.2517
3.5767 -2.6441 -0.2516
3.5698 -2.6467 -0.2564
7.1107 -1.2537 1.1997
7.1411 -1.2395 1.1410
6.9785 -1.2995 0.9749
6.9719 -1.2976 0.8391
6.9683 -1.2967 0.7695
7.0594 -1.2554 0.6357
7.0567 -1.2540 0.5604
7.2694 -1.1658 0.4948
7.1569 -1.2084 0.4089
7.0828 -1.2355 0.3265
7.2673 -1.1581 0.2423
7.1886 -1.1870 0.1575
7.1490 -1.2002 0.0721
6.9660 -1.2716 -0.0016
7.1839 -1.1799 -0.1106
7.1430 -1.1935 -0.1986
7.0268 -1.2379 -0.2749
6.1599 -1.5879 -0.2854
5.9081 -1.6891 -0.3015
5.6633 -1.7879 -0.3074
5.1121 -2.0121 -0.2635
4.8962 -2.0986 -0.2864
4.7371 -2.1635 -0.2692
4.6389 -2.2031 -0.2697
4.4513 -2.2793 -0.2593
4.3353 -2.3259 -0.2684
4.2025 -2.3800 -0.2540
4.1169 -2.4145 -0.2572
4.0389 -2.4461 -0.2564
3.9682 -2.4748 -0.2524
3.9480 -2.4827 -0.2610
3.9131 -2.4970 -0.2543
3.8641 -2.5168 -0.2556
3.8419 -2.5257 -0.2563
3.8193 -2.5349 -0.2552
3.8009 -2.5422 -0.2576
3.7771 -2.5521 -0.2519
3.7580 -2.5598 -0.2507
3.7408 -2.5668 -0.2506
3.7274 -2.5721 -0.2547
3.7074 -2.5804 -0.2481
3.6959 -2.5848 -0.2530
3.6832 -2.5899 -0.2554
3.6689 -2.5957 -0.2540
3.6542 -2.6017 -0.2508
3.6430 -2.6062 -0.2527
3.6308 -2.6112 -0.2517
3.6071 -2.6209 -0.2482
3.5900 -2.6276 -0.2552
3.5806 -2.6314 -0.2556
3.5708 -2.6353 -0.2543
3.5623 -2.6388 -0.2553
7.0195 -1.2101 1.1448
7.0169 -1.2083 1.0785
6.8621 -1.2702 0.9812
6.9176 -1.2439 0.9257
6.9446 -1.2295 0.8623
6.8718 -1.2508 0.6424
7.0973 -1.1518 0.5879
7.3199 -1.0536 0.5224
7.3200 -1.0497 0.4376
7.4877 -0.9741 0.3536
7.1614 -1.1098 0.2640
7.1596 -1.1067 0.1776
7.1195 -1.1200 0.0913
7.0064 -1.1648 0.0108
7.1149 -1.1139 -0.0887
6.9278 -1.1909 -0.1582
6.7545 -1.2622 -0.2225
6.0235 -1.5739 -0.2516
5.8778 -1.6345 -0.2903
5.6491 -1.7320 -0.3011
5.1139 -1.9628 -0.2640
4.8516 -2.0747 -0.2715
4.7497 -2.1181 -0.2768
4.6180 -2.1751 -0.2637
4.4472 -2.2483 -0.2616
4.3326 -2.2969 -0.2724
4.2000 -2.3543 -0.2587
4.1628 -2.3699 -0.2658
4.1095 -2.3931 -0.2590
4.0756 -2.4074 -0.2638
4.0358 -2.4245 -0.2619
3.9628 -2.4560 -0.2562
3.9006 -2.4828 -0.2514
3.8607 -2.4995 -0.2620
3.8091 -2.5219 -0.2539
3.7717 -2.5378 -0.2564
3.7522 -2.5462 -0.2546
3.7345 -2.5538 -0.2538
3.7158 -2.5620 -0.2503
3.7042 -2.5667 -0.2559
3.6927 -2.5714 -0.2612
3.6750 -2.5792 -0.2554
3.6597 -2.5860 -0.2520
3.6483 -2.5907 -0.2545
3.6366 -2.5957 -0.2554
3.6263 -2.6000 -0.2582
3.6127 -2.6060 -0.2534
3.6034 -2.6099 -0.2564
3.5909 -2.6154 -0.2516
3.5820 -2.6191 -0.2537
3.5728 -2.6231 -0.2542
3.5642 -2.6267 -0.2557
3.5558 -2.6302 -0.2567
7.0641 -1.1215 1.3821
6.9692 -1.1595 1.2923
6.9962 -1.1441 1.2360
6.9934 -1.1416 1.1705
6.9591 -1.1530 1.0968
6.8943 -1.1778 1.0169
6.9209 -1.1623 0.9551
6.9176 -1.1599 0.8859
6.9778 -1.1292 0.8249
6.8173 -1.1966 0.7321
6.8130 -1.1946 0.6611
6.9015 -1.1508 0.5966
7.3733 -0.9345 0.5516
7.2518 -0.9843 0.4593
7.1722 -1.0154 0.3714
7.0945 -1.0458 0.2853
7.1686 -1.0072 0.1971
7.1277 -1.0208 0.1091
7.0868 -1.0343 0.0211
7.2440 -0.9570 -0.0861
7.0050 -1.0614 -0.1548
6.7881 -1.1563 -0.2167
5.9925 -1.5155 -0.2394
5.8468 -1.5793 -0.2789
5.3389 -1.8096 -0.2761
5.0871 -1.9248 -0.2555
4.9964 -1.9647 -0.2768
4.7206 -2.0903 -0.2676
4.3944 -2.2376 -0.2761
4.2575 -2.3001 -0.2683
4.1874 -2.3325 -0.2570
4.1441 -2.3520 -0.2598
4.0551 -2.3925 -0.2558
4.0129 -2.4119 -0.2514
3.9882 -2.4226 -0.2593
3.9225 -2.4526 -0.2553
3.8971 -2.4640 -0.2575
3.8708 -2.4759 -0.2570
3.8487 -2.4858 -0.2593
3.8263 -2.4960 -0.2599
3.7585 -2.5272 -0.2509
3.7407 -2.5352 -0.2510
3.7280 -2.5407 -0.2570
3.7083 -2.5499 -0.2517
3.6778 -2.5638 -0.2506
3.6667 -2.5685 -0.2554
3.6534 -2.5745 -0.2554
3.6410 -2.5801 -0.2559
3.6277 -2.5863 -0.2535
3.6059 -2.5961 -0.2552
3.5934 -2.6020 -0.2511
3.5839 -2.6062 -0.2525
3.5756 -2.6098 -0.2561
3.5639 -2.6154 -0.2503
3.5560 -2.6188 -0.2531
3.5482 -2.6222 -0.2555
6.9389 -1.0892 1.2542
6.8755 -1.1141 1.1738
6.7555 -1.1652 1.0814
6.8671 -1.1090 1.0415
6.9532 -1.0595 0.9210
6.8859 -1.0862 0.8392
6.9788 -1.0376 0.7801
6.8458 -1.0951 0.6901
6.9710 -1.0309 0.6280
7.2632 -0.8869 0.5708
7.3022 -0.8625 0.4868
6.8268 -1.0834 0.3855
6.8212 -1.0806 0.3058
7.1383 -0.9226 0.2182
7.1353 -0.9178 0.1276
7.0935 -0.9317 0.0379
6.8689 -1.0343 -0.0349
6.9001 -1.0129 -0.1287
6.8241 -1.0438 -0.2106
6.7167 -1.0901 -0.2852
6.0868 -1.3942 -0.2521
5.8162 -1.5228 -0.2675
5.4087 -1.7162 -0.2948
5.1168 -1.8581 -0.2648
4.9959 -1.9152 -0.2776
4.7088 -2.0536 -0.2654
4.5159 -2.1460 -0.2651
4.3745 -2.2134 -0.2706
4.2417 -2.2775 -0.2648
4.1318 -2.3305 -0.2585
4.0836 -2.3539 -0.2550
4.0507 -2.3693 -0.2604
4.0090 -2.3895 -0.2566
3.9760 -2.4052 -0.2576
3.9453 -2.4199 -0.2585
3.9204 -2.4315 -0.2630
3.8612 -2.4603 -0.2573
3.8330 -2.4741 -0.2526
3.8125 -2.4838 -0.2549
3.7916 -2.4937 -0.2554
3.7726 -2.5028 -0.2566
3.7344 -2.5212 -0.2548
3.7179 -2.5291 -0.2553
3.7005 -2.5376 -0.2532
3.6834 -2.5460 -0.2502
3.6729 -2.5506 -0.2566
3.6583 -2.5577 -0.2553
3.6440 -2.5646 -0.2533
3.6313 -2.5708 -0.2528
3.6176 -2.5775 -0.2494
3.6076 -2.5821 -0.2523
3.5984 -2.5863 -0.2559
3.5877 -2.5915 -0.2555
3.5762 -2.5972 -0.2522
3.5665 -2.6019 -0.2521
3.5565 -2.6068 -0.2502
3.5477 -2.6110 -0.2505
3.5415 -2.6135 -0.2569
6.7897 -1.0738 1.1843
6.8137 -1.0569 1.1263
6.9005 -1.0092 1.0800
6.8653 -1.0209 1.0044
6.8928 -1.0018 0.9402
6.9202 -0.9825 0.8735
6.9497 -0.9619 0.8045
6.8800 -0.9904 0.7207
6.8755 -0.9865 0.6448
6.9376 -0.9493 0.5727
6.9332 -0.9450 0.4925
6.9292 -0.9404 0.4108
6.7900 -1.0039 0.3261
6.9568 -0.9126 0.2419
6.9168 -0.9259 0.1557
6.9860 -0.8833 0.0625
6.9080 -0.9158 -0.0231
6.8671 -0.9294 -0.1110
6.7913 -0.9610 -0.1941
6.6829 -1.0098 -0.2697
6.0109 -1.3532 -0.2306
5.8020 -1.4566 -0.2597
5.5889 -1.5631 -0.2774
5.3662 -1.6755 -0.2813
5.0892 -1.8178 -0.2560
4.9611 -1.8818 -0.2665
4.8403 -1.9425 -0.2729
4.7407 -1.9922 -0.2815
4.5081 -2.1112 -0.2657
4.3510 -2.1910 -0.2632
4.2264 -2.2542 -0.2618
4.1240 -2.3061 -0.2604
4.0401 -2.3486 -0.2604
3.9675 -2.3855 -0.2592
3.9349 -2.4020 -0.2584
3.9133 -2.4124 -0.2661
3.8543 -2.4427 -0.2605
3.8069 -2.4668 -0.2598
3.7870 -2.4767 -0.2615
3.7648 -2.4881 -0.2588
3.7266 -2.5077 -0.2566
3.6895 -2.5270 -0.2497
3.6623 -2.5405 -0.2532
3.6474 -2.5482 -0.2510
3.6369 -2.5532 -0.2555
3.6265 -2.5581 -0.2596
3.6109 -2.5666 -0.2520
3.5907 -2.5765 -0.2565
3.5782 -2.5832 -0.2515
3.5670 -2.5892 -0.2482
3.5589 -2.5930 -0.2519
3.5510 -2.5967 -0.2552
3.5414 -2.6017 -0.2530
3.5320 -2.6067 -0.2504
7.2582 -0.7790 1.6226
6.9852 -0.9102 1.4666
6.7711 -1.0124 1.3370
6.8201 -0.9757 1.2255
6.7858 -0.9871 1.1518
6.8109 -0.9680 1.0918
6.7761 -0.9796 1.0169
6.8017 -0.9599 0.9535
7.0608 -0.8189 0.9275
6.9195 -0.8851 0.8292
6.9838 -0.8444 0.7618
6.8129 -0.9266 0.6647
7.4152 -0.6022 0.6393
6.9025 -0.8646 0.5153
6.7323 -0.9472 0.4264
6.6948 -0.9596 0.3458
6.8541 -0.8668 0.2636
6.8144 -0.8799 0.1783
6.8445 -0.8554 0.0889
7.0260 -0.7483 -0.0170
6.9829 -0.7626 -0.1096
6.9018 -0.7978 -0.1971
6.8591 -0.8119 -0.2888
6.2085 -1.1623 -0.2623
5.8260 -1.3670 -0.2603
5.6204 -1.4748 -0.2824
5.4706 -1.5523 -0.3095
4.9683 -1.8246 -0.2701
4.8738 -1.8734 -0.2878
4.4817 -2.0860 -0.2573
4.2133 -2.2292 -0.2602
4.1111 -2.2840 -0.2588
3.9935 -2.3466 -0.2614
3.9156 -2.3893 -0.2500
3.8986 -2.3972 -0.2620
3.8659 -2.4153 -0.2564
3.8380 -2.4304 -0.2537
3.7982 -2.4510 -0.2613
3.7740 -2.4643 -0.2574
3.7523 -2.4761 -0.2548
3.7305 -2.4882 -0.2503
3.7191 -2.4935 -0.2593
3.6826 -2.5136 -0.2529
3.6684 -2.5211 -0.2543
3.6529 -2.5296 -0.2519
3.6405 -2.5360 -0.2540
3.6284 -2.5423 -0.2555
3.6139 -2.5505 -0.2509
3.6039 -2.5555 -0.2546
3.5920 -2.5620 -0.2532
3.5795 -2.5691 -0.2489
3.5697 -2.5743 -0.2498
3.5592 -2.5801 -0.2479
3.5438 -2.5875 -0.2563
3.5335 -2.5934 -0.2517
6.9902 -0.8203 1.5065
6.8606 -0.8819 1.4006
6.6550 -0.9844 1.2754
6.5953 -1.0096 1.1973
7.0378 -0.7501 1.1061
7.0287 -0.7304 0.8766
4.7206 -1.9834 0.4202
6.8322 -0.7956 0.4540
6.6943 -0.8640 0.3673
6.8572 -0.7632 0.2847
6.7475 -0.8159 0.1995
6.7078 -0.8290 0.1142
6.8406 -0.7434 0.0151
6.9887 -0.6479 -0.0949
6.8672 -0.7074 -0.1793
5.8311 -1.2836 -0.2565
5.7067 -1.3490 -0.3010
5.1541 -1.6635 -0.2763
4.9666 -1.7698 -0.2706
4.8328 -1.8449 -0.2743
4.5927 -1.9808 -0.2704
4.4776 -2.0469 -0.2599
4.4184 -2.0791 -0.2714
4.2561 -2.1721 -0.2575
4.2162 -2.1934 -0.2691
4.1000 -2.2601 -0.2588
4.0225 -2.3033 -0.2638
3.9814 -2.3268 -0.2604
3.9092 -2.3683 -0.2539
3.8895 -2.3784 -0.2635
3.8272 -2.4146 -0.2531
3.8103 -2.4233 -0.2610
3.7294 -2.4688 -0.2624
3.7090 -2.4808 -0.2582
3.6885 -2.4930 -0.2520
3.6748 -2.5004 -0.2552
3.6592 -2.5093 -0.2538
3.6445 -2.5178 -0.2526
3.6045 -2.5407 -0.2489
3.5937 -2.5467 -0.2504
3.5836 -2.5522 -0.2525
3.5732 -2.5580 -0.2529
3.5626 -2.5641 -0.2517
3.5545 -2.5682 -0.2560
3.5434 -2.5749 -0.2514
3.5361 -2.5785 -0.2561
3.5285 -2.5825 -0.2594
6.8632 -0.7923 1.4389
6.8590 -0.7264 0.8803
6.6934 -0.7648 0.3895
6.7202 -0.7387 0.3061
6.8911 -0.6259 0.2162
6.8489 -0.6399 0.1254
6.5695 -0.7973 0.0524
6.6868 -0.7036 -0.1422
5.8563 -1.1838 -0.2568
5.6911 -1.2777 -0.2936
5.1788 -1.5837 -0.2841
4.8511 -1.7789 -0.2836
4.6069 -1.9245 -0.2810
4.4093 -2.0432 -0.2721
4.3183 -2.0985 -0.2625
4.2668 -2.1282 -0.2708
4.1528 -2.1961 -0.2702
4.0449 -2.2618 -0.2586
3.9620 -2.3118 -0.2530
3.9022 -2.3468 -0.2577
3.8523 -2.3757 -0.2646
3.8227 -2.3939 -0.2598
3.7989 -2.4080 -0.2597
3.7806 -2.4183 -0.2648
3.7591 -2.4312 -0.2641
3.7187 -2.4556 -0.2611
3.6820 -2.4779 -0.2567
3.6674 -2.4865 -0.2583
3.6498 -2.4975 -0.2532
3.6218 -2.5144 -0.2515
3.6086 -2.5225 -0.2501
3.5976 -2.5287 -0.2523
3.5869 -2.5349 -0.2539
3.5774 -2.5402 -0.2574
3.5657 -2.5474 -0.2546
3.5548 -2.5542 -0.2524
3.5468 -2.5584 -0.2568
3.5373 -2.5642 -0.2560
3.5283 -2.5695 -0.2559
6.9508 -0.6219 1.3015
6.8158 -0.6920 1.1949
6.7473 -0.7230 1.1082
6.6806 -0.7532 1.0232
6.8328 -0.6522 0.9828
6.8612 -0.6246 0.9125
6.8914 -0.5957 0.8394
4.5806 -1.9890 0.4267
6.6533 -0.6746 0.3273
6.7139 -0.6246 0.2404
6.6397 -0.6593 0.1539
6.8080 -0.5397 0.0522
6.5262 -0.7070 -0.0171
6.5833 -0.6576 -0.1156
6.6090 -0.6278 -0.2150
6.4373 -0.7264 -0.2816
5.8217 -1.1179 -0.2438
5.5869 -1.2624 -0.2641
5.3336 -1.4212 -0.2660
5.1828 -1.5131 -0.2853
4.8554 -1.7183 -0.2877
4.7301 -1.7966 -0.2899
4.6045 -1.8762 -0.2842
4.4031 -2.0039 -0.2746
4.2403 -2.1079 -0.2615
4.0673 -2.2178 -0.2513
4.0316 -2.2395 -0.2571
3.8887 -2.3294 -0.2553
3.7885 -2.3916 -0.2599
3.7446 -2.4194 -0.2582
3.7051 -2.4446 -0.2554
3.6736 -2.4639 -0.2585
3.6591 -2.4728 -0.2603
3.6419 -2.4842 -0.2556
3.6133 -2.5026 -0.2523
3.6018 -2.5096 -0.2542
3.5891 -2.5178 -0.2523
3.5780 -2.5247 -0.2530
3.5664 -2.5323 -0.2509
3.5572 -2.5376 -0.2539
3.5478 -2.5433 -0.2554
3.5382 -2.5494 -0.2551
3.5288 -2.5553 -0.2544
3.5201 -2.5608 -0.2544
3.5123 -2.5654 -0.2565
6.9744 -0.5595 1.6892
6.8058 -0.6417 1.4978
6.8641 -0.5961 1.4519
6.7342 -0.6654 1.3439
6.8224 -0.6008 1.3029
6.7852 -0.6131 1.2231
6.7793 -0.6060 1.1510
6.8066 -0.5779 1.0853
6.9038 -0.5053 1.0313
6.8641 -0.5185 0.9460
6.7567 -0.5747 0.8496
4.5734 -1.9510 0.4068
6.5941 -0.6183 0.4325
6.6858 -0.5450 0.3503
6.7129 -0.5135 0.2617
6.6376 -0.5498 0.1731
6.5309 -0.6073 0.0884
6.4586 -0.6423 0.0043
6.6492 -0.4987 -0.1101
6.6415 -0.4887 -0.2082
6.3690 -0.6610 -0.2599
5.8698 -0.9930 -0.2484
5.6577 -1.1287 -0.2781
5.2493 -1.4046 -0.2407
5.1400 -1.4722 -0.2717
4.6767 -1.7788 -0.2709
4.5564 -1.8591 -0.2664
4.3680 -1.9844 -0.2616
4.0657 -2.1901 -0.2244
4.0434 -2.2022 -0.2418
4.0242 -2.2120 -0.2606
3.9474 -2.2628 -0.2605
3.9193 -2.2806 -0.2660
3.8866 -2.3024 -0.2648
3.8275 -2.3420 -0.2614
3.8045 -2.3568 -0.2639
3.7797 -2.3735 -0.2622
3.7532 -2.3920 -0.2560
3.7291 -2.4087 -0.2507
3.6943 -2.4312 -0.2541
3.6628 -2.4517 -0.2566
3.6057 -2.4897 -0.2550
3.5915 -2.4997 -0.2509
3.5813 -2.5059 -0.2545
3.5598 -2.5199 -0.2557
3.5478 -2.5286 -0.2510
3.5394 -2.5336 -0.2548
3.5292 -2.5407 -0.2523
3.5215 -2.5451 -0.2565
3.5114 -2.5525 -0.2517
3.5038 -2.5573 -0.2538
3.4960 -2.5624 -0.2543
6.7812 -0.5720 1.5940
6.8066 -0.5450 1.5390
6.8340 -0.5163 1.4824
6.7910 -0.5207 1.3322
6.7855 -0.5124 1.2606
6.8467 -0.4603 1.2051
6.8078 -0.4732 1.1215
6.8369 -0.4412 1.0526
6.8318 -0.4314 0.9740
6.9347 -0.3493 0.9125
4.5163 -1.9548 0.4397
4.5150 -1.9508 0.4111
6.6169 -0.4790 0.3721
6.8237 -0.3197 0.2835
6.7058 -0.3863 0.1910
6.6627 -0.4005 0.0983
6.4533 -0.5332 0.0203
6.5423 -0.4537 -0.0830
6.4997 -0.4678 -0.1747
6.4570 -0.4819 -0.2664
5.8120 -0.9377 -0.2301
5.3499 -1.2652 -0.1986
5.0973 -1.4312 -0.2581
4.7102 -1.7047 -0.2364
4.3147 -1.9729 -0.2806
4.0533 -2.1705 -0.1898
4.0478 -2.1693 -0.2196
4.0549 -2.1575 -0.2600
3.9987 -2.1984 -0.2495
3.9373 -2.2391 -0.2621
3.9089 -2.2580 -0.2674
3.8744 -2.2827 -0.2641
3.8163 -2.3235 -0.2615
3.7920 -2.3404 -0.2621
3.7688 -2.3566 -0.2622
3.7428 -2.3757 -0.2564
3.7258 -2.3867 -0.2611
3.7065 -2.4002 -0.2609
3.6688 -2.4273 -0.2563
3.6535 -2.4378 -0.2574
3.5955 -2.4790 -0.2527
3.5856 -2.4850 -0.2580
3.5729 -2.4943 -0.2555
3.5601 -2.5039 -0.2511
3.5513 -2.5092 -0.2560
3.5396 -2.5182 -0.2514
3.5305 -2.5242 -0.2530
3.5220 -2.5298 -0.2554
3.5126 -2.5366 -0.2537
3.5049 -2.5415 -0.2564
3.4963 -2.5478 -0.2549
3.4896 -2.5517 -0.2594
6.9151 -0.3982 1.7550
6.7816 -0.4741 1.6369
6.8402 -0.4230 1.5939
6.6493 -0.5380 1.4591
6.7033 -0.4895 1.4121
6.6972 -0.4810 1.3426
6.7218 -0.4514 1.2809
6.7480 -0.4201 1.2170
7.0209 -0.1881 1.0482
4.5037 -1.9193 0.4199
6.6065 -0.3535 0.3065
6.5643 -0.3675 0.2157
6.5556 -0.3566 0.1232
6.4156 -0.4437 0.0396
6.5733 -0.3070 -0.0718
6.4608 -0.3738 -0.1567
6.4511 -0.3625 -0.2552
5.2488 -1.2614 -0.1704
4.6690 -1.6774 -0.2228
4.6691 -1.6676 -0.2751
4.3191 -1.9299 -0.2471
4.0709 -2.1257 -0.1749
4.0747 -2.1091 -0.2483
4.0535 -2.1209 -0.2687
3.9873 -2.1731 -0.2500
3.9649 -2.1867 -0.2650
3.8624 -2.2621 -0.2640
3.8365 -2.2805 -0.2673
3.7838 -2.3195 -0.2661
3.7571 -2.3400 -0.2614
3.7311 -2.3602 -0.2551
3.6928 -2.3882 -0.2559
