ply
format ascii 1.0
element vertex 2181
property float x
property float y
property float z
end_header
4.0211 0.8994 -0.5677
4.0805 0.9415 -0.5633
4.1186 0.9668 -0.5710
4.1746 1.0075 -0.5612
4.2458 1.0563 -0.5659
4.2877 1.0868 -0.5579
4.3241 1.1132 -0.5520
4.3687 1.1423 -0.5637
4.3961 1.1620 -0.5606
4.4449 1.1968 -0.5553
4.4840 1.2241 -0.5553
4.5018 1.2365 -0.5554
4.5480 1.2682 -0.5585
4.5631 1.2790 -0.5570
4.5778 1.2896 -0.5546
4.5912 1.2992 -0.5534
4.6048 1.3091 -0.5503
4.6139 1.3145 -0.5561
4.6259 1.3233 -0.5539
4.6351 1.3291 -0.5576
4.6478 1.3390 -0.5507
4.6557 1.3437 -0.5558
4.6666 1.3520 -0.5510
4.6752 1.3580 -0.5516
4.6851 1.3656 -0.5468
4.6919 1.3696 -0.5515
4.6989 1.3740 -0.5546
1.8214 -0.7518 -0.5490
2.0403 -0.6005 -0.6021
2.3284 -0.3932 -0.6261
2.8491 -0.0006 -0.5671
3.5061 0.4788 -0.5829
3.7351 0.6483 -0.5750
3.9137 0.7813 -0.5645
3.9716 0.8229 -0.5697
4.0418 0.8757 -0.5623
4.0837 0.9050 -0.5705
4.1313 0.9398 -0.5712
4.1868 0.9823 -0.5616
4.2611 1.0366 -0.5632
4.2842 1.0516 -0.5738
4.3599 1.1102 -0.5567
4.3793 1.1229 -0.5651
4.4290 1.1599 -0.5628
4.4557 1.1807 -0.5556
4.4693 1.1890 -0.5652
4.4894 1.2040 -0.5636
4.5121 1.2221 -0.5557
4.5281 1.2336 -0.5569
4.5422 1.2435 -0.5599
4.5623 1.2599 -0.5501
4.5747 1.2684 -0.5534
4.5872 1.2774 -0.5550
4.5999 1.2867 -0.5550
4.6110 1.2944 -0.5574
4.6240 1.3045 -0.5539
4.6349 1.3125 -0.5539
4.6455 1.3204 -0.5534
4.6544 1.3263 -0.5568
4.6652 1.3350 -0.5528
4.6747 1.3422 -0.5517
4.6843 1.3497 -0.5488
4.6912 1.3539 -0.5539
4.6993 1.3599 -0.5538
4.7059 1.3639 -0.5583
1.8738 -0.8540 -0.6301
2.2753 -0.5446 -0.6349
2.8412 -0.0942 -0.5677
3.0694 0.0819 -0.5690
3.1949 0.1745 -0.5916
3.5210 0.4287 -0.5807
3.9222 0.7413 -0.5672
4.0459 0.8366 -0.5686
4.1136 0.8910 -0.5579
4.1510 0.9183 -0.5660
4.2330 0.9815 -0.5673
4.2706 1.0108 -0.5663
4.3078 1.0403 -0.5625
4.3340 1.0596 -0.5675
4.3648 1.0838 -0.5650
4.4043 1.1175 -0.5489
4.4139 1.1212 -0.5678
4.4412 1.1435 -0.5618
4.4641 1.1616 -0.5596
4.5085 1.1977 -0.5503
4.5206 1.2054 -0.5593
4.5393 1.2205 -0.5555
4.5532 1.2306 -0.5588
4.5727 1.2475 -0.5492
4.6003 1.2692 -0.5476
4.6126 1.2787 -0.5475
4.6214 1.2841 -0.5550
4.6439 1.3017 -0.5540
4.6536 1.3088 -0.5558
4.6635 1.3164 -0.5560
4.6734 1.3243 -0.5544
4.6816 1.3302 -0.5570
4.6924 1.3400 -0.5495
4.7011 1.3472 -0.5474
4.7078 1.3514 -0.5523
4.7164 1.3589 -0.5479
1.9481 -0.9217 -0.6069
2.4088 -0.5449 -0.5978
2.8325 -0.1939 -0.5685
3.2187 0.1168 -0.5851
3.5228 0.3645 -0.5845
3.7724 0.5710 -0.5684
3.8531 0.6360 -0.5713
3.9276 0.6965 -0.5721
3.9850 0.7418 -0.5787
4.0596 0.8047 -0.5686
4.1074 0.8426 -0.5730
4.1620 0.8881 -0.5680
4.2028 0.9208 -0.5706
4.2492 0.9598 -0.5645
4.2801 0.9838 -0.5699
4.3259 1.0238 -0.5568
4.3827 1.0697 -0.5585
4.4026 1.0843 -0.5662
4.4343 1.1122 -0.5564
4.4557 1.1293 -0.5579
4.4776 1.1473 -0.5566
4.4973 1.1634 -0.5565
4.5127 1.1748 -0.5617
4.5483 1.2044 -0.5585
4.5665 1.2204 -0.5531
4.5793 1.2301 -0.5566
4.5901 1.2375 -0.5632
4.6090 1.2557 -0.5499
4.6191 1.2628 -0.5551
4.6306 1.2721 -0.5557
4.6438 1.2838 -0.5505
4.6528 1.2902 -0.5550
4.6641 1.3002 -0.5515
4.6723 1.3058 -0.5562
4.6823 1.3145 -0.5537
4.6914 1.3221 -0.5529
4.7006 1.3301 -0.5503
4.7086 1.3365 -0.5507
4.7160 1.3423 -0.5520
4.7231 1.3476 -0.5541
3.1282 0.0109 -0.3568
3.1542 0.0200 -0.4132
3.1801 0.0291 -0.4695
3.2273 0.0580 -0.5192
3.2630 0.0765 -0.5712
3.5530 0.3239 -0.5759
3.9519 0.6681 -0.5655
4.0080 0.7146 -0.5726
4.0809 0.7792 -0.5632
4.1375 0.8284 -0.5603
4.1798 0.8636 -0.5647
4.2186 0.8959 -0.5688
4.2663 0.9385 -0.5611
4.3068 0.9744 -0.5562
4.3641 1.0221 -0.5623
4.3951 1.0496 -0.5585
4.4200 1.0706 -0.5597
4.4657 1.1096 -0.5606
4.5259 1.1617 -0.5582
4.5456 1.1796 -0.5535
4.5603 1.1916 -0.5562
4.5754 1.2045 -0.5563
4.5901 1.2173 -0.5555
4.6040 1.2294 -0.5547
4.6184 1.2425 -0.5512
4.6280 1.2493 -0.5575
4.6393 1.2588 -0.5584
4.6525 1.2715 -0.5524
4.6624 1.2797 -0.5539
4.6725 1.2883 -0.5538
4.6812 1.2952 -0.5565
4.6914 1.3047 -0.5530
4.7000 1.3119 -0.5534
4.7089 1.3202 -0.5510
4.7162 1.3257 -0.5540
4.7241 1.3327 -0.5530
4.7313 1.3386 -0.5540
3.2925 0.1380 -0.1030
3.2222 0.0598 -0.1613
3.2462 0.0682 -0.2136
3.2703 0.0767 -0.2659
3.2757 0.0673 -0.3220
3.2714 0.0483 -0.3818
3.3244 0.0844 -0.4278
3.2918 0.0370 -0.4989
3.3640 0.0925 -0.5369
3.8706 0.5394 -0.5772
4.0344 0.6905 -0.5644
4.1030 0.7542 -0.5574
4.1374 0.7816 -0.5718
4.1938 0.8342 -0.5648
4.2376 0.8739 -0.5642
4.3818 1.0060 -0.5567
4.4110 1.0329 -0.5545
4.4348 1.0539 -0.5566
4.4810 1.0957 -0.5558
4.5190 1.1293 -0.5586
4.5392 1.1486 -0.5547
4.5541 1.1610 -0.5586
4.5706 1.1762 -0.5573
4.5875 1.1925 -0.5533
4.6108 1.2111 -0.5632
4.6264 1.2269 -0.5562
4.6404 1.2408 -0.5510
4.6500 1.2482 -0.5560
4.6624 1.2607 -0.5511
4.6722 1.2690 -0.5528
4.6807 1.2756 -0.5572
4.6912 1.2861 -0.5534
4.7005 1.2947 -0.5522
4.7176 1.3106 -0.5504
4.7245 1.3158 -0.5548
4.7325 1.3235 -0.5526
3.1268 -0.0090 0.2139
3.0799 -0.0801 0.1178
3.1977 0.0159 0.0598
3.2405 0.0423 0.0083
3.2262 0.0145 -0.0434
3.2501 0.0229 -0.0953
3.2451 0.0030 -0.1499
3.2792 0.0212 -0.2016
3.3122 0.0385 -0.2528
3.3087 0.0192 -0.3106
3.3425 0.0372 -0.3616
3.3485 0.0270 -0.4196
3.3358 -0.0031 -0.4851
3.3516 -0.0042 -0.5435
3.4653 0.0984 -0.5630
3.8707 0.4775 -0.5858
4.0327 0.6343 -0.5760
4.1705 0.7706 -0.5567
4.2611 0.8571 -0.5555
4.2933 0.8860 -0.5617
4.3369 0.9299 -0.5529
4.3573 0.9456 -0.5662
4.3950 0.9840 -0.5568
4.4215 1.0090 -0.5577
4.4454 1.0312 -0.5596
4.4916 1.0755 -0.5583
4.5112 1.0938 -0.5595
4.5294 1.1106 -0.5611
4.5487 1.1298 -0.5584
4.5696 1.1518 -0.5502
4.5974 1.1768 -0.5555
4.6103 1.1885 -0.5578
4.6262 1.2055 -0.5510
4.6506 1.2288 -0.5505
4.6613 1.2387 -0.5515
4.6738 1.2521 -0.5457
4.6814 1.2572 -0.5537
4.6916 1.2674 -0.5518
4.7108 1.2870 -0.5469
4.7252 1.2982 -0.5558
4.7337 1.3074 -0.5519
4.7410 1.3143 -0.5523
4.7475 1.3194 -0.5560
3.0353 -0.1436 0.3461
3.1744 -0.0262 0.2731
3.2581 0.0263 0.1681
3.2536 0.0076 0.1210
3.2811 0.0053 0.0210
3.2819 -0.0250 -0.0828
3.3156 -0.0067 -0.1343
3.2929 -0.0467 -0.1918
3.3268 -0.0283 -0.2440
3.3697 -0.0002 -0.2936
3.3293 -0.0610 -0.3614
3.3114 -0.1184 -0.4931
3.2415 -0.2161 -0.5856
3.7291 0.2783 -0.5661
3.8087 0.3543 -0.5783
3.9064 0.4538 -0.5734
3.9682 0.5125 -0.5837
4.0692 0.6206 -0.5607
4.1052 0.6513 -0.5786
4.1663 0.7144 -0.5727
4.3379 0.8878 -0.5673
4.4094 0.9630 -0.5555
4.4592 1.0121 -0.5584
4.4837 1.0372 -0.5564
4.5061 1.0601 -0.5549
4.5227 1.0750 -0.5608
4.5480 1.1039 -0.5489
4.5627 1.1170 -0.5540
4.5747 1.1263 -0.5633
4.5982 1.1551 -0.5458
4.6112 1.1671 -0.5489
4.6371 1.1928 -0.5501
4.6615 1.2179 -0.5479
4.6705 1.2250 -0.5540
4.6811 1.2358 -0.5536
4.6916 1.2470 -0.5515
4.7016 1.2575 -0.5496
4.7099 1.2649 -0.5526
4.7177 1.2717 -0.5562
4.7268 1.2819 -0.5525
4.7346 1.2896 -0.5528
4.7422 1.2973 -0.5526
4.7496 1.3049 -0.5519
4.7552 1.3079 -0.5607
3.1520 -0.1103 0.3444
3.1953 -0.0825 0.2893
3.2925 0.0001 0.2272
3.3648 0.0586 0.1724
3.3288 0.0070 0.1305
3.3337 -0.0034 0.0825
3.3127 -0.0413 0.0340
3.3362 -0.0330 -0.0171
3.2770 -0.1133 -0.0716
3.3479 -0.0547 -0.1219
3.3897 -0.0269 -0.1722
3.3877 -0.0471 -0.2278
3.2781 -0.1882 -0.3062
3.2513 -0.2392 -0.3761
3.3211 -0.1810 -0.4239
3.3770 -0.1377 -0.4725
3.3443 -0.1976 -0.5507
3.4475 -0.0977 -0.5785
3.6378 0.1097 -0.5589
3.7651 0.2455 -0.5548
3.8481 0.3299 -0.5647
3.9297 0.4149 -0.5685
3.9981 0.4852 -0.5743
4.0722 0.5650 -0.5699
4.1145 0.6051 -0.5838
4.1840 0.6827 -0.5709
4.2229 0.7211 -0.5792
4.2683 0.7697 -0.5774
4.3059 0.8086 -0.5794
4.3564 0.8675 -0.5627
4.3904 0.9041 -0.5602
4.4186 0.9335 -0.5615
4.4473 0.9647 -0.5590
4.4689 0.9859 -0.5637
4.4981 1.0199 -0.5541
4.5141 1.0339 -0.5629
4.5374 1.0605 -0.5568
4.5717 1.0957 -0.5599
4.5918 1.1196 -0.5516
4.6046 1.1315 -0.5568
4.6300 1.1562 -0.5634
4.6465 1.1767 -0.5536
4.6707 1.2031 -0.5511
4.6810 1.2136 -0.5525
4.6914 1.2246 -0.5523
4.7017 1.2361 -0.5503
4.7095 1.2426 -0.5560
4.7177 1.2502 -0.5592
4.7264 1.2596 -0.5587
4.7353 1.2701 -0.5552
4.7434 1.2792 -0.5534
4.7507 1.2865 -0.5545
4.7579 1.2943 -0.5540
4.7643 1.3003 -0.5567
3.0740 -0.2545 0.4327
3.2030 -0.1380 0.3553
3.2362 -0.1198 0.3021
3.2964 -0.0727 0.2451
3.3371 -0.0457 0.1929
3.3423 -0.0566 0.1453
3.3570 -0.0575 0.0960
3.2705 -0.1701 0.0497
3.3598 -0.0896 -0.0043
3.3657 -0.1013 -0.0565
3.5187 0.0539 -0.0996
3.5331 0.0529 -0.1481
3.5332 0.0165 -0.2523
3.5024 -0.0396 -0.3142
3.4773 -0.0903 -0.3793
3.5020 -0.0817 -0.4329
3.5508 -0.0430 -0.4776
3.5592 -0.0544 -0.5368
3.6636 0.0562 -0.5529
3.7555 0.1536 -0.5671
3.8424 0.2471 -0.5767
4.0214 0.4490 -0.5695
4.0818 0.5144 -0.5749
4.1472 0.5887 -0.5707
4.2176 0.6725 -0.5555
4.2402 0.6898 -0.5779
4.3290 0.7911 -0.5710
4.3995 0.8710 -0.5670
4.4549 0.9324 -0.5680
4.4868 0.9718 -0.5571
4.5287 1.0174 -0.5600
4.5498 1.0419 -0.5572
4.5695 1.0648 -0.5543
4.5881 1.0868 -0.5507
4.6022 1.1012 -0.5546
4.6155 1.1147 -0.5585
4.6305 1.1321 -0.5564
4.6450 1.1493 -0.5532
4.6580 1.1644 -0.5517
4.6700 1.1780 -0.5510
4.6804 1.1888 -0.5533
4.6925 1.2041 -0.5480
4.7007 1.2108 -0.5549
4.7115 1.2246 -0.5500
4.7190 1.2305 -0.5570
4.7280 1.2409 -0.5560
4.7365 1.2504 -0.5555
4.7444 1.2593 -0.5556
4.7522 1.2681 -0.5550
4.7594 1.2762 -0.5551
4.7665 1.2842 -0.5547
4.7732 1.2915 -0.5551
3.0927 -0.3032 0.5010
3.2397 -0.1633 0.4145
3.2819 -0.1346 0.3594
3.2957 -0.1367 0.3111
3.3364 -0.1091 0.2576
3.3061 -0.1607 0.2154
3.3387 -0.1423 0.1627
3.3355 -0.1649 0.1135
3.3230 -0.1987 0.0628
3.4012 -0.1274 0.0087
3.5637 0.0273 -0.0872
3.5788 0.0268 -0.1353
3.6139 0.0507 -0.1811
3.5730 -0.0197 -0.2398
3.5438 -0.0773 -0.3013
3.5203 -0.1294 -0.3659
3.4949 -0.1857 -0.4354
3.4480 -0.2721 -0.5177
3.5026 -0.2257 -0.5649
3.6264 -0.0847 -0.5767
3.7700 0.0876 -0.5675
3.8677 0.2010 -0.5714
4.0230 0.3803 -0.5801
4.1607 0.5447 -0.5733
4.2543 0.6521 -0.5803
4.3552 0.7788 -0.5590
4.3845 0.8110 -0.5649
4.4217 0.8576 -0.5574
4.4680 0.9073 -0.5698
4.5018 0.9527 -0.5550
4.5253 0.9812 -0.5528
4.5651 1.0280 -0.5524
4.5795 1.0424 -0.5595
4.5974 1.0642 -0.5572
4.6103 1.0768 -0.5639
4.6283 1.1011 -0.5560
4.6432 1.1196 -0.5532
4.6587 1.1406 -0.5458
4.6673 1.1465 -0.5569
4.6799 1.1625 -0.5538
4.6904 1.1743 -0.5554
4.7011 1.1873 -0.5543
4.7113 1.1995 -0.5535
4.7208 1.2109 -0.5529
4.7296 1.2209 -0.5537
4.7379 1.2302 -0.5550
4.7459 1.2394 -0.5557
4.7542 1.2504 -0.5525
4.7683 1.2657 -0.5557
4.7755 1.2752 -0.5531
4.7816 1.2808 -0.5572
3.3424 -0.1303 0.4100
3.3893 -0.0945 0.3552
3.3956 -0.1050 0.3108
3.4097 -0.1066 0.2638
3.4161 -0.1177 0.2176
3.4143 -0.1388 0.1713
3.4120 -0.1613 0.1235
3.4355 -0.1531 0.0724
3.4590 -0.1448 0.0213
3.5140 -0.0972 -0.0291
3.5522 -0.0699 -0.0782
3.5963 -0.0345 -0.1254
3.1630 -0.6781 -0.3834
3.3814 -0.4145 -0.4018
3.5306 -0.2385 -0.4243
3.5564 -0.2294 -0.4803
3.5742 -0.2316 -0.5397
3.6391 -0.1667 -0.5776
3.9130 0.1828 -0.5546
3.9733 0.2504 -0.5724
4.0915 0.4089 -0.5436
4.1559 0.4888 -0.5437
4.1976 0.5354 -0.5565
4.2965 0.6588 -0.5549
4.3709 0.7494 -0.5591
4.4420 0.8413 -0.5502
4.4588 0.8557 -0.5661
4.4828 0.8840 -0.5697
4.5125 0.9246 -0.5606
4.5343 0.9515 -0.5610
4.5512 0.9695 -0.5681
4.5738 1.0004 -0.5613
4.5958 1.0316 -0.5518
4.6082 1.0432 -0.5611
4.6382 1.0803 -0.5616
4.6533 1.1007 -0.5576
4.6673 1.1194 -0.5541
4.6797 1.1352 -0.5530
4.6918 1.1516 -0.5500
4.7109 1.1721 -0.5576
4.7221 1.1887 -0.5510
4.7312 1.1998 -0.5515
4.7393 1.2087 -0.5546
4.7471 1.2168 -0.5582
4.7560 1.2302 -0.5526
4.7634 1.2388 -0.5539
4.7707 1.2480 -0.5536
4.7775 1.2558 -0.5551
4.7845 1.2655 -0.5526
4.7907 1.2725 -0.5543
3.3101 -0.2123 0.5290
3.3161 -0.2240 0.4848
3.3649 -0.1855 0.4271
3.4014 -0.1802 0.3306
3.4242 -0.1722 0.2810
3.4556 -0.1537 0.2300
3.4545 -0.1754 0.1839
3.4611 -0.1882 0.1354
3.4845 -0.1800 0.0847
3.5078 -0.1718 0.0339
3.5234 -0.1739 -0.0169
3.5546 -0.1554 -0.0676
3.5628 -0.1675 -0.1197
2.5090 -1.7287 -0.5238
3.1837 -0.8123 -0.4531
3.5242 -0.3540 -0.4267
3.6555 -0.1903 -0.4461
3.7015 -0.1497 -0.4906
3.7519 -0.1012 -0.5306
3.8992 0.0989 -0.5151
3.9001 0.0747 -0.5725
4.1839 0.4842 -0.4884
4.1914 0.4761 -0.5289
4.2151 0.4952 -0.5563
4.2448 0.5251 -0.5768
4.3035 0.6073 -0.5649
4.3409 0.6543 -0.5694
4.3854 0.7165 -0.5609
4.4197 0.7618 -0.5600
4.4483 0.7983 -0.5626
4.4768 0.8359 -0.5619
4.5245 0.8973 -0.5647
4.5477 0.9287 -0.5623
4.5907 0.9891 -0.5536
4.6053 1.0055 -0.5597
4.6204 1.0240 -0.5627
4.6394 1.0533 -0.5527
4.6514 1.0663 -0.5589
4.6668 1.0893 -0.5526
4.6798 1.1071 -0.5509
4.6901 1.1183 -0.5562
4.7017 1.1343 -0.5545
4.7122 1.1480 -0.5546
4.7220 1.1603 -0.5559
4.7324 1.1758 -0.5515
4.7403 1.1837 -0.5573
4.7482 1.1921 -0.5617
4.7575 1.2073 -0.5549
4.7658 1.2196 -0.5516
4.7726 1.2264 -0.5564
4.7801 1.2379 -0.5529
4.7866 1.2452 -0.5557
4.7933 1.2544 -0.5545
3.5434 0.0353 0.5735
3.4630 -0.0759 0.5739
3.4326 -0.1298 0.5495
3.4539 -0.1223 0.5033
3.4220 -0.1800 0.4751
3.4205 -0.2014 0.4345
3.4814 -0.1454 0.3750
3.4654 -0.1857 0.3370
3.4878 -0.1778 0.2883
3.5252 -0.1719 0.1919
3.5178 -0.2039 0.1463
3.5252 -0.2170 0.0974
3.5254 -0.2405 0.0476
3.5258 -0.2645 -0.0041
3.5574 -0.2456 -0.0564
3.5894 -0.2259 -0.1080
3.5351 -0.4196 -0.3562
3.6044 -0.3449 -0.4013
3.5977 -0.3871 -0.4703
3.6161 -0.3911 -0.5323
3.9764 0.1330 -0.4813
3.9422 0.0491 -0.5579
4.1825 0.4095 -0.5014
4.1622 0.3500 -0.5671
4.2736 0.5049 -0.5663
4.3281 0.5849 -0.5572
4.3722 0.6481 -0.5529
4.3990 0.6798 -0.5646
4.4379 0.7372 -0.5572
4.4628 0.7682 -0.5646
4.4949 0.8161 -0.5576
4.5436 0.8842 -0.5566
4.5660 0.9163 -0.5544
4.5900 0.9542 -0.5449
4.6029 0.9665 -0.5564
4.6176 0.9841 -0.5623
4.6352 1.0106 -0.5580
4.6510 1.0338 -0.5554
4.6662 1.0568 -0.5514
4.6783 1.0721 -0.5543
4.6895 1.0859 -0.5581
4.7024 1.1061 -0.5532
4.7126 1.1188 -0.5561
4.7237 1.1358 -0.5528
4.7326 1.1461 -0.5571
4.7434 1.1650 -0.5490
4.7511 1.1729 -0.5549
4.7596 1.1851 -0.5541
4.7676 1.1964 -0.5538
4.7754 1.2076 -0.5527
4.7820 1.2138 -0.5588
4.7894 1.2263 -0.5544
4.7960 1.2351 -0.5550
4.8023 1.2439 -0.5551
4.8083 1.2505 -0.5583
3.4931 -0.0628 0.6898
3.5323 -0.0320 0.6374
3.6059 0.0414 0.5702
3.4771 -0.1540 0.5580
3.4539 -0.2030 0.5291
3.4212 -0.2654 0.5012
3.4439 -0.2575 0.4519
3.4581 -0.2606 0.4051
3.4892 -0.2415 0.3533
3.5344 -0.2033 0.2988
3.5567 -0.1954 0.2503
3.5270 -0.2595 0.2104
3.5347 -0.2731 0.1619
3.5734 -0.2432 0.1094
3.5275 -0.3348 0.0626
3.5190 -0.3745 0.0097
3.5765 -0.3176 -0.0439
3.5934 -0.3205 -0.0978
3.6106 -0.3233 -0.1522
3.6238 -0.3955 -0.3303
3.6653 -0.3612 -0.3821
3.4786 -0.7054 -0.5181
3.5588 -0.6106 -0.5629
3.7060 -0.3972 -0.5684
4.0870 0.2347 -0.4279
4.0627 0.1650 -0.4940
4.2047 0.3963 -0.4499
4.1445 0.2597 -0.5437
4.1687 0.2777 -0.5777
4.2151 0.3395 -0.5900
4.2761 0.4329 -0.5825
4.3418 0.5403 -0.5615
4.3816 0.5984 -0.5622
4.4086 0.6317 -0.5745
4.4520 0.7027 -0.5605
4.4746 0.7303 -0.5714
4.5069 0.7817 -0.5637
4.5584 0.8610 -0.5567
4.5795 0.8922 -0.5562
4.5938 0.9074 -0.5675
4.6311 0.9646 -0.5625
4.6484 0.9925 -0.5579
4.6642 1.0177 -0.5540
4.6758 1.0313 -0.5607
4.6905 1.0562 -0.5542
4.7014 1.0702 -0.5583
4.7147 1.0939 -0.5501
4.7343 1.1198 -0.5556
4.7437 1.1333 -0.5563
4.7539 1.1518 -0.5494
4.7618 1.1614 -0.5534
4.7702 1.1746 -0.5518
4.7774 1.1825 -0.5568
4.7854 1.1969 -0.5517
4.7921 1.2047 -0.5557
4.7988 1.2145 -0.5558
4.8051 1.2221 -0.5589
4.8112 1.2297 -0.5616
3.4799 -0.1536 0.7259
3.5905 -0.0316 0.6355
3.6269 -0.0026 0.5858
3.6456 0.0040 0.5451
3.4263 -0.3713 0.4839
3.4978 -0.2968 0.4175
3.5435 -0.2568 0.3615
3.5798 -0.2293 0.3093
3.5812 -0.2513 0.2655
3.5821 -0.2750 0.2204
3.5450 -0.3557 0.1790
3.5918 -0.3132 0.1244
3.5214 -0.4479 0.0790
3.6557 -0.2992 -0.0298
3.6795 -0.2909 -0.0815
3.6894 -0.3050 -0.1347
3.6230 -0.5533 -0.3960
3.5218 -0.7714 -0.5052
3.6100 -0.6573 -0.5469
4.1121 0.1938 -0.4217
4.1588 0.2546 -0.4433
4.2279 0.3614 -0.4446
4.1940 0.2374 -0.5731
4.2550 0.3335 -0.5709
4.2970 0.3934 -0.5809
4.3582 0.4981 -0.5638
4.4099 0.5868 -0.5492
4.4289 0.6040 -0.5712
4.4641 0.6608 -0.5678
4.4932 0.7055 -0.5687
4.5257 0.7614 -0.5592
4.5694 0.8261 -0.5653
4.5932 0.8669 -0.5586
4.6102 0.8904 -0.5636
4.6292 0.9218 -0.5604
4.6471 0.9521 -0.5562
4.6762 0.9968 -0.5572
4.7018 1.0362 -0.5582
4.7136 1.0544 -0.5584
4.7256 1.0755 -0.5540
4.7357 1.0904 -0.5556
4.7550 1.1204 -0.5554
4.7630 1.1295 -0.5614
4.7726 1.1499 -0.5520
4.7799 1.1581 -0.5576
4.7877 1.1706 -0.5566
4.7949 1.1816 -0.5571
4.8020 1.1940 -0.5547
4.8086 1.2041 -0.5550
4.8149 1.2140 -0.5547
4.8208 1.2225 -0.5563
4.8266 1.2308 -0.5574
3.6646 -0.0254 0.5934
3.6890 -0.0110 0.5501
3.6912 -0.0270 0.5172
3.6996 -0.0350 0.4807
3.7376 -0.0217 0.3982
3.6927 -0.1302 0.3405
3.6645 -0.1957 0.3091
3.6205 -0.2871 0.2778
3.6363 -0.2896 0.2301
3.8982 0.0456 0.0673
4.0453 0.1952 -0.0887
4.1014 0.2689 -0.1202
4.1880 0.3994 -0.1412
4.1978 0.3956 -0.1747
3.5453 -0.8768 -0.4999
3.6341 -0.7558 -0.5429
4.2144 0.2779 -0.4173
4.1543 0.0888 -0.5674
4.2144 0.1844 -0.5733
4.2697 0.2740 -0.5764
4.3079 0.3283 -0.5910
4.3664 0.4336 -0.5767
4.4234 0.5405 -0.5551
4.4444 0.5632 -0.5751
4.5436 0.7383 -0.5564
4.5638 0.7673 -0.5636
4.6063 0.8378 -0.5633
4.6265 0.8734 -0.5596
4.6431 0.8997 -0.5615
4.6619 0.9355 -0.5535
4.6764 0.9589 -0.5545
4.7019 0.9978 -0.5598
4.7267 1.0415 -0.5551
4.7381 1.0623 -0.5518
4.7472 1.0743 -0.5571
4.7573 1.0925 -0.5544
4.7670 1.1112 -0.5499
4.7751 1.1228 -0.5529
4.7833 1.1367 -0.5524
4.7908 1.1473 -0.5552
4.7980 1.1579 -0.5575
4.8120 1.1840 -0.5526
4.8183 1.1920 -0.5564
4.8244 1.2030 -0.5551
4.8302 1.2109 -0.5580
4.8358 1.2172 -0.5628
3.7253 -0.1434 0.3900
3.7935 -0.0620 0.3309
3.6598 -0.3229 0.2901
3.5831 -0.5071 0.2132
3.9810 0.0507 -0.0042
4.0478 0.0908 -0.1235
4.2608 0.4204 -0.1920
3.6954 -0.7852 -0.5225
4.2189 0.2280 -0.3761
4.2200 0.1989 -0.4241
4.1884 0.0948 -0.4994
4.1822 0.0435 -0.5620
4.2433 0.1481 -0.5661
4.2826 0.2050 -0.5847
4.3368 0.3019 -0.5819
4.3804 0.3770 -0.5842
4.4436 0.5080 -0.5530
4.4656 0.5346 -0.5715
4.5317 0.6569 -0.5619
4.5612 0.7134 -0.5546
4.5779 0.7336 -0.5686
4.6201 0.8082 -0.5678
4.6421 0.8529 -0.5583
4.6582 0.8798 -0.5605
4.6894 0.9369 -0.5571
4.7159 0.9840 -0.5561
4.7276 1.0040 -0.5570
4.7390 1.0246 -0.5559
4.7496 1.0434 -0.5555
4.7599 1.0637 -0.5522
4.7683 1.0742 -0.5588
4.7778 1.0942 -0.5537
4.7860 1.1076 -0.5551
4.7941 1.1226 -0.5539
4.8014 1.1342 -0.5558
4.8088 1.1489 -0.5531
4.8220 1.1702 -0.5560
4.8282 1.1830 -0.5532
4.8341 1.1926 -0.5544
4.8398 1.2006 -0.5573
4.8453 1.2109 -0.5563
4.0356 0.0628 0.0056
4.0780 0.1152 -0.0327
3.7793 -0.7627 -0.4916
4.2487 0.2009 -0.3668
4.2584 0.1894 -0.4091
4.2704 0.1827 -0.4509
4.2831 0.1770 -0.4931
4.2755 0.1188 -0.5560
4.3208 0.1957 -0.5672
4.3534 0.2423 -0.5875
4.4026 0.3377 -0.5824
4.4541 0.4457 -0.5655
4.4781 0.4792 -0.5820
4.5494 0.6261 -0.5620
4.5733 0.6689 -0.5648
4.5970 0.7140 -0.5636
4.6413 0.8038 -0.5535
4.6722 0.8545 -0.5634
4.7020 0.9103 -0.5632
4.7303 0.9718 -0.5509
4.7409 0.9880 -0.5558
4.7529 1.0157 -0.5484
4.7618 1.0266 -0.5565
4.7712 1.0432 -0.5580
4.7806 1.0622 -0.5559
4.7892 1.0785 -0.5555
4.7975 1.0954 -0.5534
4.8053 1.1123 -0.5503
4.8191 1.1320 -0.5590
4.8258 1.1461 -0.5568
4.8321 1.1576 -0.5570
4.8382 1.1739 -0.5501
4.8439 1.1821 -0.5535
4.8494 1.1926 -0.5531
4.8548 1.1992 -0.5580
3.9508 -0.0180 0.2531
3.9885 0.0235 0.2087
4.0025 0.0228 0.1708
4.0204 0.0290 0.1319
4.0383 0.0353 0.0930
4.0561 0.0416 0.0541
4.0740 0.0479 0.0153
4.2736 0.1615 -0.3606
4.2979 0.1854 -0.3931
4.3149 0.1914 -0.4301
4.3292 0.1487 -0.5242
4.3556 0.1798 -0.5529
4.3928 0.2437 -0.5661
4.4287 0.3080 -0.5758
4.4629 0.3708 -0.5827
4.5123 0.4875 -0.5584
4.5426 0.5481 -0.5579
4.5699 0.6029 -0.5573
4.5918 0.6421 -0.5632
4.6167 0.6960 -0.5574
4.6740 0.8122 -0.5547
4.6889 0.8392 -0.5582
4.7180 0.8987 -0.5561
4.7423 0.9452 -0.5587
4.7650 0.9943 -0.5533
4.7839 1.0308 -0.5548
4.7925 1.0467 -0.5565
4.8004 1.0584 -0.5619
4.8088 1.0807 -0.5545
4.8159 1.0897 -0.5613
4.8233 1.1092 -0.5549
4.8300 1.1220 -0.5555
4.8364 1.1364 -0.5534
4.8425 1.1434 -0.5602
4.8484 1.1559 -0.5590
4.8538 1.1708 -0.5538
4.8591 1.1815 -0.5536
4.8643 1.1898 -0.5562
4.0233 0.0024 0.2173
4.0336 -0.0056 0.1805
4.0515 0.0007 0.1416
4.0664 0.0009 0.1032
4.0736 -0.0149 0.0651
4.0884 -0.0155 0.0257
4.1571 0.0985 -0.0135
4.1505 0.0529 -0.0521
4.1402 -0.0032 -0.0940
4.3324 0.3724 -0.1344
4.3296 0.3065 -0.2079
4.3665 0.2644 -0.3552
4.3893 0.2899 -0.3834
4.4048 0.2954 -0.4172
4.4102 0.2706 -0.4615
4.4209 0.2602 -0.5021
4.4288 0.2397 -0.5478
4.4565 0.2827 -0.5671
4.4880 0.3421 -0.5765
4.5309 0.4462 -0.5605
4.5606 0.5100 -0.5600
4.5819 0.5457 -0.5715
4.6113 0.6177 -0.5599
4.6374 0.6826 -0.5484
4.6525 0.7037 -0.5618
4.6890 0.7848 -0.5575
4.7037 0.8133 -0.5609
4.7321 0.8758 -0.5584
4.7446 0.9026 -0.5581
4.7579 0.9389 -0.5481
4.7672 0.9505 -0.5581
4.7775 0.9733 -0.5572
4.7961 1.0123 -0.5577
4.8046 1.0303 -0.5579
4.8127 1.0481 -0.5571
4.8203 1.0641 -0.5574
4.8275 1.0791 -0.5577
4.8344 1.0957 -0.5554
4.8409 1.1121 -0.5521
4.8470 1.1259 -0.5512
4.8530 1.1322 -0.5591
4.8586 1.1466 -0.5559
4.8639 1.1593 -0.5541
4.8690 1.1703 -0.5540
4.0324 -0.0694 0.2334
4.0471 -0.0702 0.1947
4.0654 -0.0638 0.1549
4.1506 0.0854 0.1046
4.2222 0.2109 0.0623
4.2376 0.2163 0.0290
4.2596 0.2369 -0.0043
4.2632 0.1841 -0.0733
4.2836 0.2007 -0.1069
4.3674 0.3760 -0.1241
3.8826 -1.1046 -0.5510
3.9630 -0.9537 -0.5871
4.4565 0.3061 -0.4323
4.4688 0.3018 -0.4687
4.4811 0.2967 -0.5060
4.4952 0.2973 -0.5415
4.5119 0.3075 -0.5729
4.5489 0.3986 -0.5651
4.6263 0.5716 -0.5687
4.6511 0.6361 -0.5595
4.6688 0.6715 -0.5650
4.7030 0.7479 -0.5665
4.7353 0.8348 -0.5516
4.7496 0.8750 -0.5429
4.7593 0.8843 -0.5570
4.7706 0.9106 -0.5564
4.7817 0.9411 -0.5506
4.8001 0.9776 -0.5567
4.8171 1.0179 -0.5548
4.8247 1.0318 -0.5588
4.8322 1.0559 -0.5508
4.8391 1.0660 -0.5570
4.8457 1.0846 -0.5528
4.8577 1.1146 -0.5499
4.8689 1.1356 -0.5548
4.8740 1.1477 -0.5543
4.8788 1.1597 -0.5532
4.1250 0.0009 0.1920
4.1932 0.1202 0.1430
4.2428 0.2022 0.1023
4.2642 0.2220 0.0687
4.2857 0.2428 0.0358
4.3043 0.2573 0.0037
4.3069 0.2326 -0.0287
4.3142 0.2184 -0.0621
4.3154 0.1870 -0.0976
4.3682 0.2921 -0.1224
4.4081 0.3671 -0.1456
4.4082 0.3336 -0.1809
3.9718 -1.0515 -0.5138
3.9892 -1.0807 -0.5884
4.4021 0.1043 -0.4039
4.4448 0.1980 -0.4147
4.4801 0.2722 -0.4272
4.5044 0.3108 -0.4486
4.5205 0.3209 -0.4791
4.5329 0.3164 -0.5152
4.5730 0.3720 -0.5591
4.6013 0.4420 -0.5582
4.6460 0.5425 -0.5671
4.6871 0.6462 -0.5635
4.7038 0.6848 -0.5659
4.7195 0.7212 -0.5677
4.7347 0.7601 -0.5658
4.7747 0.8723 -0.5508
4.7849 0.8926 -0.5555
4.7954 0.9219 -0.5516
4.8132 0.9573 -0.5599
4.8217 0.9807 -0.5573
4.8297 1.0056 -0.5518
4.8441 1.0274 -0.5657
4.8508 1.0536 -0.5552
4.8571 1.0691 -0.5552
4.8688 1.0971 -0.5558
4.8792 1.1255 -0.5527
4.8843 1.1352 -0.5556
4.8889 1.1483 -0.5535
4.8938 1.1562 -0.5577
4.1753 0.0526 0.2257
4.2199 0.1237 0.1819
4.2517 0.1676 0.1439
4.2775 0.1984 0.1089
4.3005 0.2238 0.0753
4.3189 0.2384 0.0431
4.3278 0.2288 0.0117
4.3370 0.2193 -0.0204
4.3480 0.2141 -0.0531
4.3344 0.1393 -0.0905
4.3798 0.2298 -0.1178
4.4427 0.3774 -0.1347
4.0428 -1.1295 -0.5717
4.4536 0.1557 -0.3739
4.4786 0.1945 -0.3996
4.4988 0.2170 -0.4286
4.5193 0.2424 -0.4558
4.5361 0.2538 -0.4871
4.5589 0.2927 -0.5071
4.5918 0.3824 -0.5038
4.5897 0.3081 -0.5698
4.6235 0.4127 -0.5546
4.6694 0.5324 -0.5552
4.6842 0.5521 -0.5734
4.7070 0.6302 -0.5562
4.7218 0.6599 -0.5647
4.7379 0.7065 -0.5608
4.7655 0.7816 -0.5581
4.7775 0.8122 -0.5589
4.7891 0.8472 -0.5546
4.8087 0.8904 -0.5625
4.8180 0.9174 -0.5601
4.8265 0.9349 -0.5647
4.8347 0.9568 -0.5642
4.8423 0.9823 -0.5591
4.8495 1.0048 -0.5555
4.8564 1.0163 -0.5618
4.8624 1.0430 -0.5516
4.8684 1.0596 -0.5506
4.8743 1.0708 -0.5548
4.8799 1.0837 -0.5565
4.8852 1.0964 -0.5576
4.8900 1.1108 -0.5559
4.8945 1.1252 -0.5535
4.8992 1.1359 -0.5549
4.9037 1.1456 -0.5570
4.2009 0.0529 0.2643
4.2337 0.0990 0.2233
4.2630 0.1382 0.1851
4.2885 0.1696 0.1493
4.3114 0.1954 0.1152
4.3371 0.2297 0.0814
4.3585 0.2540 0.0495
4.3622 0.2301 0.0193
4.3819 0.2501 -0.0120
4.3741 0.1903 -0.0449
4.3750 0.1533 -0.0797
4.3976 0.1808 -0.1116
4.0946 -1.0864 -0.4700
4.5041 0.2182 -0.3429
4.5153 0.2072 -0.3805
4.5173 0.0873 -0.4904
4.5707 0.1977 -0.5262
4.6439 0.3701 -0.5568
4.7033 0.5171 -0.5753
4.7237 0.5879 -0.5641
4.7561 0.6899 -0.5551
4.7679 0.7090 -0.5676
4.7809 0.7481 -0.5654
4.7928 0.7851 -0.5628
4.8038 0.8179 -0.5612
4.8138 0.8457 -0.5617
4.8234 0.8799 -0.5556
4.8321 0.9026 -0.5573
4.8480 0.9521 -0.5533
4.8552 0.9696 -0.5560
4.8686 1.0042 -0.5589
4.8746 1.0241 -0.5564
4.8802 1.0438 -0.5529
4.8856 1.0597 -0.5523
4.8913 1.0692 -0.5582
4.8961 1.0849 -0.5563
4.9008 1.0987 -0.5559
4.9054 1.1106 -0.5569
4.9100 1.1206 -0.5596
4.9142 1.1324 -0.5596
4.2320 0.0691 0.2980
4.2720 0.1360 0.2533
4.3076 0.1619 0.1868
4.3497 0.2074 0.1199
4.3690 0.2267 0.0879
4.3797 0.2218 0.0576
4.3958 0.2322 0.0266
4.4128 0.2459 -0.0042
4.4149 0.2130 -0.0357
4.4089 0.1514 -0.0703
4.4349 0.1932 -0.1008
4.5191 0.2045 -0.2982
4.5267 0.1774 -0.3387
4.5376 0.1620 -0.3777
4.5349 0.0007 -0.5002
4.5391 -0.0651 -0.5630
4.5747 0.0396 -0.5667
4.6283 0.2659 -0.5172
4.6370 0.2314 -0.5660
4.6657 0.3308 -0.5569
4.6865 0.3861 -0.5636
4.7222 0.4736 -0.5813
4.7450 0.5805 -0.5517
4.7595 0.6201 -0.5557
4.7730 0.6566 -0.5597
4.7858 0.6927 -0.5620
4.8086 0.7545 -0.5685
4.8291 0.8318 -0.5570
4.8463 0.8839 -0.5576
4.8615 0.9306 -0.5575
4.8684 0.9512 -0.5579
4.8749 0.9727 -0.5566
4.8811 0.9903 -0.5578
4.8866 1.0123 -0.5536
4.8972 1.0458 -0.5528
4.9024 1.0582 -0.5557
4.9067 1.0761 -0.5519
4.9117 1.0855 -0.5568
4.9165 1.0958 -0.5602
4.9207 1.1079 -0.5609
4.9248 1.1189 -0.5622
4.2534 0.0969 0.3580
4.2659 0.0964 0.3271
4.2830 0.1073 0.2936
4.3153 0.1590 0.2528
4.3259 0.1539 0.2233
4.3476 0.1792 0.1891
4.3567 0.1696 0.1599
4.3761 0.1892 0.1272
4.3921 0.1998 0.0959
4.4124 0.2237 0.0641
4.4443 0.2467 0.0033
4.4503 0.1798 -0.0599
4.4607 0.1697 -0.0927
4.4796 0.1901 -0.1236
4.5389 0.3706 -0.1361
4.5508 0.2062 -0.2847
4.5655 0.2114 -0.3168
4.5722 0.1753 -0.3594
4.5783 0.1311 -0.4063
4.5950 0.1419 -0.4390
4.6050 0.1129 -0.4845
4.6088 0.0383 -0.5480
4.6330 0.0951 -0.5655
4.6606 0.1856 -0.5665
4.6840 0.2569 -0.5715
4.7072 0.3390 -0.5681
4.7451 0.4637 -0.5691
4.7631 0.5390 -0.5580
4.7779 0.5895 -0.5571
4.7920 0.6467 -0.5497
4.8038 0.6795 -0.5546
4.8148 0.7070 -0.5612
4.8253 0.7393 -0.5633
4.8443 0.8159 -0.5536
4.8528 0.8435 -0.5540
4.8609 0.8612 -0.5608
4.8683 0.8865 -0.5605
4.8750 0.9154 -0.5557
4.8819 0.9316 -0.5607
4.8877 0.9583 -0.5552
4.8988 0.9977 -0.5536
4.9097 1.0252 -0.5600
4.9137 1.0463 -0.5543
4.9179 1.0626 -0.5527
4.9272 1.0845 -0.5591
4.9303 1.1014 -0.5544
4.9353 1.1071 -0.5625
4.2644 0.0682 0.3982
4.2853 0.0897 0.3620
4.3116 0.1262 0.3230
4.3297 0.1417 0.2896
4.3529 0.1721 0.2540
4.3668 0.1770 0.2236
4.3839 0.1910 0.1919
4.3885 0.1674 0.1652
4.4026 0.1723 0.1344
4.4214 0.1921 0.1025
4.4367 0.2015 0.0717
4.4494 0.2019 0.0415
4.4578 0.1866 0.0113
4.4666 0.1715 -0.0199
4.4865 0.1462 -0.0846
4.5266 0.2017 -0.1444
4.5707 0.2223 -0.2369
4.5821 0.2121 -0.2709
4.5930 0.1977 -0.3066
4.6022 0.1716 -0.3461
4.6038 0.0943 -0.4009
4.6205 0.1052 -0.4339
4.6348 0.1001 -0.4717
4.6475 0.0813 -0.5147
4.6645 0.0934 -0.5476
4.6838 0.1274 -0.5714
4.7071 0.2084 -0.5741
4.7306 0.3087 -0.5642
4.7500 0.3843 -0.5611
4.7659 0.4293 -0.5695
4.7963 0.5482 -0.5641
4.8093 0.5993 -0.5617
4.8421 0.7180 -0.5621
4.8513 0.7566 -0.5588
4.8598 0.7940 -0.5546
4.8681 0.8151 -0.5605
4.8886 0.9022 -0.5523
4.9062 0.9630 -0.5546
4.9118 0.9781 -0.5581
4.9163 0.9999 -0.5544
4.9215 1.0128 -0.5583
4.9249 1.0353 -0.5518
4.9305 1.0423 -0.5606
4.9333 1.0635 -0.5534
4.9381 1.0722 -0.5591
4.9414 1.0875 -0.5568
4.2878 0.0729 0.4288
4.3079 0.0934 0.3931
4.3281 0.1150 0.3578
4.3611 0.1743 0.3144
4.3565 0.1250 0.2962
4.3787 0.1546 0.2607
4.3942 0.1641 0.2296
4.4037 0.1550 0.2015
4.4146 0.1495 0.1724
4.4300 0.1591 0.1412
4.4458 0.1698 0.1101
4.4582 0.1690 0.0800
4.4775 0.1934 0.0486
4.4878 0.1846 0.0187
4.5052 0.2031 -0.0117
4.5110 0.1741 -0.0428
4.5242 0.1745 -0.0740
4.5395 0.1841 -0.1047
4.5507 0.1745 -0.1370
4.5691 0.1996 -0.1659
4.5813 0.1946 -0.1981
4.5974 0.2096 -0.2275
4.6082 0.1947 -0.2620
4.6356 0.0986 -0.3846
4.6473 0.0747 -0.4268
4.6626 0.0749 -0.4630
4.6778 0.0740 -0.4998
4.7113 0.1023 -0.5628
4.7294 0.1367 -0.5854
4.7722 0.3508 -0.5598
4.7872 0.3913 -0.5713
4.8026 0.4661 -0.5634
4.8161 0.5248 -0.5606
4.8282 0.5767 -0.5587
4.8495 0.6620 -0.5586
4.8589 0.7026 -0.5568
4.8676 0.7398 -0.5552
4.8755 0.7748 -0.5533
4.8969 0.8538 -0.5572
4.9024 0.8868 -0.5505
4.9090 0.9006 -0.5583
4.9147 0.9212 -0.5594
4.9190 0.9487 -0.5534
4.9236 0.9700 -0.5516
4.9292 0.9813 -0.5582
4.9411 1.0342 -0.5551
4.9486 1.0627 -0.5558
4.9522 1.0754 -0.5569
6.0247 1.2253 0.1582
6.0199 1.2143 0.1602
6.0213 1.1985 0.1639
6.0166 1.1863 0.1662
6.0218 1.1661 0.1712
6.0220 1.1488 0.1752
6.0154 1.1360 0.1774
6.0170 1.1156 0.1822
6.0186 1.0941 0.1871
6.0228 1.0689 0.1932
6.0241 1.0449 0.1987
6.0075 1.0123 0.2045
5.9890 1.0057 0.2042
5.9946 0.9717 0.2124
5.9829 0.9559 0.2149
5.9699 0.9408 0.2170
5.9571 0.9246 0.2195
5.9484 0.9018 0.2238
5.9382 0.8795 0.2278
5.9241 0.8617 0.2305
5.9135 0.8371 0.2351
5.8964 0.8216 0.2369
5.8820 0.8003 0.2404
5.8564 0.7458 0.2502
5.8308 0.7425 0.2485
5.8184 0.7091 0.2549
5.7930 0.7047 0.2535
5.7702 0.6152 0.2715
5.7547 0.5737 0.2793
4.3486 -1.1760 0.5403
6.0248 1.2278 0.1443
6.0178 1.2184 0.1456
6.0235 1.1997 0.1499
6.0187 1.1875 0.1519
6.0238 1.1674 0.1565
6.0138 1.1581 0.1575
6.0123 1.1414 0.1608
6.0226 1.1138 0.1672
6.0146 1.1006 0.1692
6.0252 1.0697 0.1764
6.0263 1.0459 0.1813
6.0178 1.0301 0.1838
6.0095 1.0133 0.1865
6.0029 0.9936 0.1899
5.9933 0.9763 0.1926
5.9677 0.9465 0.1964
5.9570 0.9276 0.1993
5.9469 0.9067 0.2027
5.9367 0.8846 0.2063
5.9207 0.8697 0.2079
5.9096 0.8461 0.2117
5.8993 0.8193 0.2163
5.8836 0.7999 0.2189
5.8688 0.7773 0.2222
5.8504 0.7603 0.2240
5.8314 0.7432 0.2259
5.8129 0.7239 0.2282
5.8030 0.6811 0.2360
5.7921 0.6356 0.2443
5.7694 0.6183 0.2458
5.7538 0.5770 0.2528
4.2557 -2.2651 0.6996
4.2143 -1.9749 0.6372
4.3510 -1.1466 0.4810
6.0224 1.2456 0.1274
6.0193 1.2341 0.1292
6.0213 1.2188 0.1322
6.0225 1.2031 0.1351
6.0209 1.1888 0.1375
6.0196 1.1734 0.1402
6.0218 1.1547 0.1438
6.0240 1.1348 0.1475
6.0176 1.1210 0.1495
6.0200 1.0989 0.1537
6.0186 1.0789 0.1572
6.0224 1.0527 0.1622
6.0207 1.0303 0.1661
6.0065 1.0195 0.1669
5.9944 1.0060 0.1684
5.9865 0.9871 0.1712
5.9801 0.9653 0.1746
5.9706 0.9459 0.1774
5.9611 0.9253 0.1803
5.9448 0.9126 0.1814
5.9365 0.8878 0.1852
5.9272 0.8627 0.1890
5.9104 0.8476 0.1904
5.8955 0.8285 0.1926
5.8692 0.7790 0.1995
5.8540 0.7552 0.2026
5.8379 0.7311 0.2057
5.8223 0.7037 0.2094
5.7992 0.6921 0.2097
5.7835 0.6601 0.2142
4.4018 -1.9657 0.5791
6.0251 1.2330 0.1163
6.0247 1.2192 0.1185
6.0226 1.2059 0.1204
6.0177 1.1939 0.1220
6.0186 1.1771 0.1247
6.0146 1.1631 0.1266
6.0228 1.1387 0.1310
6.0222 1.1202 0.1339
6.0188 1.1030 0.1364
6.0264 1.0749 0.1413
6.0255 1.0529 0.1447
6.0211 1.0331 0.1475
6.0060 1.0231 0.1480
5.9951 0.9805 0.1540
5.9869 0.9604 0.1566
5.9792 0.9383 0.1595
5.9624 0.9266 0.1602
5.9500 0.9085 0.1622
5.9401 0.8856 0.1651
5.9232 0.8716 0.1661
5.9065 0.8566 0.1673
5.8906 0.8395 0.1689
5.8709 0.8279 0.1693
5.8636 0.7922 0.1744
5.8490 0.7676 0.1772
5.8340 0.7417 0.1803
5.8240 0.7017 0.1859
5.7873 0.6510 0.1913
4.6906 -0.6474 0.3186
4.6522 -0.6405 0.3148
4.6062 -0.6569 0.3141
4.5512 -0.6970 0.3166
6.0170 1.2542 0.0993
6.0204 1.2248 0.1034
6.0150 1.2139 0.1046
6.0188 1.1959 0.1072
6.0216 1.1777 0.1099
6.0145 1.1661 0.1110
6.0207 1.1433 0.1144
6.0200 1.1249 0.1168
6.0324 1.0942 0.1217
6.0188 1.0848 0.1222
6.0146 1.0663 0.1244
6.0173 1.0401 0.1281
6.0129 1.0192 0.1306
5.9981 1.0083 0.1311
5.9937 0.9852 0.1340
5.9854 0.9652 0.1361
5.9699 0.9529 0.1368
5.9630 0.9289 0.1396
5.9512 0.9100 0.1414
5.9278 0.8676 0.1457
5.9120 0.8507 0.1470
5.8957 0.8335 0.1483
5.8799 0.8143 0.1499
5.8685 0.7853 0.1531
5.8573 0.7530 0.1567
5.8368 0.7377 0.1575
5.8088 0.6711 0.1647
5.7884 0.6491 0.1664
4.8911 -0.2246 0.2280
4.7408 -0.5967 0.2687
4.6872 -0.6361 0.2707
4.6408 -0.6527 0.2700
4.5987 -0.6575 0.2680
4.5525 -0.6739 0.2674
4.4919 -0.7261 0.2706
6.0160 1.2575 0.0855
6.0194 1.2282 0.0890
6.0205 1.2129 0.0907
6.0241 1.1950 0.0929
6.0185 1.1829 0.0939
6.0194 1.1652 0.0960
6.0254 1.1425 0.0988
6.0179 1.1297 0.0998
6.0164 1.1111 0.1018
6.0176 1.0890 0.1043
6.0255 1.0592 0.1081
6.0193 1.0412 0.1097
6.0230 1.0121 0.1131
6.0046 1.0044 0.1130
5.9939 0.9882 0.1142
5.9877 0.9657 0.1164
5.9813 0.9421 0.1187
5.9691 0.9242 0.1200
5.9530 0.9106 0.1207
5.9504 0.8770 0.1242
5.9274 0.8711 0.1237
5.9093 0.8578 0.1242
5.8941 0.8389 0.1254
5.8841 0.8094 0.1282
5.8758 0.7738 0.1317
5.8575 0.7549 0.1328
5.8247 0.7038 0.1367
5.8082 0.6743 0.1391
4.6217 -1.7771 0.3474
4.9289 -0.3293 0.2032
4.9068 -0.2741 0.1959
4.8689 -0.2807 0.1946
4.7447 -0.5627 0.2192
4.6993 -0.5789 0.2185
4.7081 -0.4405 0.2036
4.6476 -0.5049 0.2075
4.5962 -0.5412 0.2088
4.5439 -0.5778 0.2100
6.0186 1.2586 0.0721
6.0233 1.2424 0.0738
6.0161 1.2331 0.0743
6.0205 1.2156 0.0760
6.0114 1.2068 0.0763
6.0215 1.1835 0.0788
6.0213 1.1667 0.0803
6.0243 1.1464 0.0822
6.0299 1.1025 0.0863
6.0163 1.0932 0.0865
6.0216 1.0660 0.0891
6.0281 1.0358 0.0920
6.0167 1.0217 0.0927
6.0096 1.0024 0.0941
5.9963 0.9887 0.0947
5.9863 0.9706 0.0958
5.9735 0.9548 0.0966
5.9567 0.9086 0.0999
5.9319 0.8673 0.1024
5.9146 0.8522 0.1029
5.8991 0.8332 0.1039
5.8845 0.8112 0.1051
5.8682 0.7908 0.1062
5.8431 0.7864 0.1054
5.8374 0.7407 0.1091
5.8263 0.7020 0.1120
5.8052 0.6834 0.1127
5.2731 -0.5539 0.1966
5.2265 -0.5358 0.1929
4.9387 -0.1400 0.1453
4.9013 -0.1533 0.1447
4.8591 -0.1817 0.1453
4.8214 -0.1952 0.1448
4.7782 -0.2240 0.1453
4.7344 -0.2530 0.1459
4.6930 -0.2745 0.1459
6.0176 1.2618 0.0583
6.0189 1.2479 0.0593
6.0151 1.2365 0.0598
6.0195 1.2191 0.0611
6.0093 1.2111 0.0612
6.0235 1.1850 0.0634
6.0272 1.1652 0.0648
6.0212 1.1519 0.0654
6.0146 1.1384 0.0660
6.0222 1.1122 0.0680
6.0249 1.0887 0.0696
6.0221 1.0688 0.0707
6.0142 1.0526 0.0715
6.0227 1.0189 0.0739
6.0153 0.9996 0.0749
6.0033 0.9842 0.0754
5.9908 0.9686 0.0759
5.9770 0.9537 0.0763
5.9572 0.9111 0.0783
5.9460 0.8893 0.0793
5.9280 0.8762 0.0795
5.9154 0.8539 0.0804
5.9008 0.8332 0.0812
5.8829 0.8168 0.0816
5.8770 0.7768 0.0839
5.8565 0.7618 0.0841
5.8392 0.7389 0.0849
5.8245 0.7081 0.0863
5.8120 0.6681 0.0884
5.7903 0.6481 0.0888
5.2704 -0.5303 0.1443
4.7693 -0.7198 0.1379
4.7494 -0.6378 0.1320
4.7052 -0.6436 0.1307
4.6850 -0.5796 0.1259
6.0143 1.2665 0.0444
6.0191 1.2505 0.0451
6.0141 1.2399 0.0454
6.0217 1.2205 0.0464
6.0188 1.2073 0.0468
6.0224 1.1887 0.0476
6.0221 1.1720 0.0483
6.0210 1.1550 0.0489
6.0276 1.1308 0.0501
6.0192 1.1179 0.0503
6.0210 1.0953 0.0513
6.0243 1.0700 0.0523
6.0170 1.0530 0.0528
6.0221 1.0228 0.0541
6.0076 1.0110 0.0542
6.0042 0.9865 0.0550
5.9908 0.9718 0.0552
5.9755 0.9587 0.0553
5.9570 0.9145 0.0565
5.9470 0.8910 0.0572
5.9300 0.8761 0.0573
5.9161 0.8557 0.0577
5.8881 0.8104 0.0586
5.8743 0.7845 0.0593
5.8548 0.7676 0.0594
5.8256 0.7074 0.0609
5.8121 0.6695 0.0620
5.7935 0.6407 0.0626
6.1802 -2.7809 0.2073
4.9596 -1.6744 0.1296
4.9047 -0.9323 0.0990
4.8257 -0.8344 0.0930
4.7871 -0.7973 0.0904
4.7428 -0.7876 0.0888
4.6782 -0.8482 0.0893
4.6114 -0.9107 0.0899
4.5418 -0.9763 0.0905
4.5148 -0.9196 0.0875
4.4676 -0.9231 0.0863
4.4380 -0.8839 0.0840
6.0215 1.2649 0.0308
6.0181 1.2538 0.0309
6.0153 1.2419 0.0311
6.0196 1.2247 0.0314
6.0230 1.2072 0.0317
6.0300 1.1691 0.0324
6.0208 1.1582 0.0324
6.0189 1.1410 0.0326
6.0162 1.1027 0.0331
6.0204 1.0767 0.0335
6.0216 1.0519 0.0339
6.0224 1.0258 0.0343
6.0039 1.0181 0.0341
5.9944 1.0005 0.0341
5.9930 0.9725 0.0345
5.9868 0.9484 0.0348
5.9720 0.9332 0.0347
5.9594 0.9144 0.0347
5.9404 0.9033 0.0345
5.9272 0.8832 0.0345
5.9168 0.8575 0.0347
5.8965 0.8459 0.0345
5.8880 0.8133 0.0348
5.8760 0.7837 0.0350
5.8587 0.7622 0.0350
5.8432 0.7347 0.0351
5.8263 0.7078 0.0351
5.8072 0.6835 0.0351
5.7905 0.6501 0.0353
6.2439 -2.5108 0.0899
4.7643 -0.8551 0.0371
4.6449 -1.1007 0.0383
4.4670 -1.5078 0.0408
4.4508 -1.3763 0.0386
4.4157 -1.3163 0.0370
4.3684 -1.2980 0.0358
4.3578 -1.1875 0.0340
4.3137 -1.1725 0.0329
6.0239 1.2662 0.0169
6.0182 1.2565 0.0167
6.0242 1.2390 0.0166
6.0218 1.2261 0.0165
6.0261 1.2080 0.0163
6.0223 1.1946 0.0161
6.0159 1.1825 0.0159
6.0187 1.1628 0.0158
6.0224 1.1412 0.0156
6.0168 1.1261 0.0154
6.0229 1.0999 0.0152
6.0208 1.0795 0.0149
6.0228 1.0541 0.0147
6.0186 1.0329 0.0144
6.0103 1.0147 0.0141
5.9967 1.0012 0.0139
5.9901 0.9791 0.0136
5.9853 0.9534 0.0132
5.9718 0.9366 0.0129
5.9578 0.9196 0.0126
5.9464 0.8981 0.0122
5.9364 0.8728 0.0119
5.9203 0.8550 0.0115
5.9069 0.8317 0.0111
5.8956 0.8026 0.0107
5.8787 0.7813 0.0103
5.8546 0.7727 0.0100
5.8265 0.7093 0.0090
5.8150 0.6659 0.0084
5.7908 0.6507 0.0080
6.3316 -2.9704 -0.0240
4.4549 -1.5148 -0.0287
4.3211 -1.7392 -0.0325
4.2205 -1.8471 -0.0346
4.1367 -1.9009 -0.0361
4.0625 -1.9273 -0.0372
6.0207 1.2708 0.0029
6.0195 1.2585 0.0025
6.0197 1.2303 0.0015
6.0271 1.2102 0.0008
6.0201 1.1991 0.0003
6.0217 1.1812 -0.0003
6.0205 1.1645 -0.0009
6.0259 1.1415 -0.0017
6.0293 1.1188 -0.0025
6.0279 1.0988 -0.0032
6.0169 1.0863 -0.0037
6.0239 1.0562 -0.0047
6.0245 1.0304 -0.0057
6.0136 1.0146 -0.0062
6.0051 0.9954 -0.0069
6.0017 0.9692 -0.0079
5.9845 0.9576 -0.0083
5.9710 0.9409 -0.0089
5.9628 0.9163 -0.0098
5.9473 0.9000 -0.0104
5.9336 0.8799 -0.0112
5.9232 0.8535 -0.0121
5.9052 0.8373 -0.0127
5.8949 0.8065 -0.0139
5.8760 0.7890 -0.0145
5.8423 0.7412 -0.0163
5.8235 0.7182 -0.0171
5.8112 0.6770 -0.0186
6.5614 -2.8567 -0.1434
6.3570 -2.5186 -0.1317
5.0528 -1.3252 -0.0912
4.9908 -1.3060 -0.0906
4.8496 -1.7574 -0.1070
4.7449 -1.0661 -0.0825
4.7228 -0.9515 -0.0784
4.4278 -1.5692 -0.1009
4.2983 -1.7747 -0.1085
4.2056 -1.8565 -0.1115
4.1522 -1.8267 -0.1106
4.1003 -1.7985 -0.1096
4.0398 -1.7962 -0.1097
4.7121 -0.0068 -0.0448
6.0231 1.2721 -0.0112
6.0230 1.2591 -0.0120
6.0255 1.2439 -0.0130
6.0186 1.2339 -0.0135
6.0281 1.2125 -0.0149
6.0191 1.2028 -0.0154
6.0305 1.1778 -0.0171
6.0251 1.1640 -0.0179
6.0228 1.1471 -0.0189
6.0162 1.1328 -0.0197
6.0160 1.1123 -0.0210
6.0234 1.0837 -0.0228
6.0226 1.0608 -0.0242
6.0207 1.0375 -0.0256
6.0184 1.0130 -0.0271
6.0029 1.0011 -0.0277
5.9952 0.9800 -0.0289
5.9844 0.9611 -0.0300
5.9695 0.9461 -0.0308
5.9586 0.9250 -0.0320
5.9531 0.8950 -0.0338
5.9356 0.8802 -0.0346
5.9244 0.8547 -0.0360
5.9084 0.8350 -0.0371
5.8886 0.8204 -0.0379
5.8719 0.7993 -0.0390
5.8535 0.7799 -0.0401
5.8405 0.7472 -0.0420
5.8249 0.7169 -0.0437
5.8070 0.6890 -0.0453
5.7673 0.6340 -0.0484
5.2779 -0.8443 -0.1352
5.1648 -0.8383 -0.1340
5.1047 -0.8748 -0.1358
5.0438 -0.9115 -0.1376
4.7990 -0.8263 -0.1305
4.7188 -0.9378 -0.1368
4.3746 -1.7043 -0.1811
4.2039 -2.0213 -0.1993
4.0900 -2.1480 -0.2062
4.0091 -2.1768 -0.2073
3.9416 -2.1717 -0.2065
4.7097 0.0013 -0.0792
6.0231 1.2618 -0.0265
6.0190 1.2507 -0.0274
6.0176 1.2374 -0.0285
6.0166 1.2231 -0.0298
6.0210 1.2044 -0.0315
6.0294 1.1817 -0.0336
6.0249 1.1673 -0.0348
6.0263 1.1474 -0.0365
6.0286 1.1258 -0.0384
6.0183 1.1135 -0.0393
6.0203 1.0897 -0.0414
6.0212 1.0654 -0.0436
6.0233 1.0383 -0.0460
6.0146 1.0202 -0.0474
6.0128 0.9939 -0.0497
5.9973 0.9809 -0.0505
5.9857 0.9629 -0.0519
5.9774 0.9396 -0.0538
5.9610 0.9252 -0.0548
5.9466 0.9072 -0.0561
5.9328 0.8873 -0.0576
5.9239 0.8585 -0.0600
5.9094 0.8362 -0.0617
5.8977 0.8075 -0.0640
5.8760 0.7944 -0.0648
5.8443 0.7414 -0.0689
5.8268 0.7148 -0.0709
5.8051 0.6954 -0.0722
5.7673 0.6348 -0.0769
5.7479 0.6001 -0.0796
5.1722 -0.7195 -0.1849
5.1147 -0.7539 -0.1870
5.0657 -0.7296 -0.1840
5.0348 -0.6144 -0.1735
5.0467 -0.3127 -0.1474
5.0024 -0.3285 -0.1480
4.9555 -0.3548 -0.1495
4.8664 -0.5406 -0.1642
4.3519 -1.7411 -0.2602
4.1539 -2.1325 -0.2910
4.0471 -2.2314 -0.2979
3.8939 -2.4464 -0.3141
4.7332 0.0668 -0.1091
6.0210 1.2659 -0.0408
6.0245 1.2501 -0.0427
6.0197 1.2389 -0.0438
6.0176 1.2254 -0.0453
6.0240 1.2053 -0.0478
6.0282 1.1856 -0.0501
6.0199 1.1741 -0.0512
6.0242 1.1523 -0.0538
6.0174 1.1381 -0.0552
6.0276 1.1088 -0.0588
6.0199 1.0933 -0.0603
6.0306 1.0600 -0.0644
6.0283 1.0368 -0.0670
6.0225 1.0156 -0.0692
6.0113 0.9989 -0.0708
5.9987 0.9827 -0.0723
5.9828 0.9696 -0.0734
5.9785 0.9415 -0.0765
5.9607 0.9288 -0.0775
5.9463 0.9109 -0.0791
5.9088 0.8402 -0.0862
5.8914 0.8212 -0.0879
5.8619 0.7682 -0.0931
5.8481 0.7357 -0.0964
5.8318 0.7055 -0.0994
5.7926 0.6511 -0.1046
5.7716 0.6235 -0.1072
5.7540 0.5811 -0.1115
6.2975 -2.8548 -0.5153
6.1784 -2.8972 -0.5170
5.0896 -0.8955 -0.2616
5.0848 -0.5710 -0.2247
5.0992 -0.2237 -0.1857
5.0715 -0.1634 -0.1782
5.0250 -0.2023 -0.1814
4.9770 -0.2427 -0.1847
4.9300 -0.2754 -0.1872
4.8947 -0.2646 -0.1850
4.8606 -0.2533 -0.1829
4.0618 -2.3634 -0.4013
3.9012 -2.5969 -0.4236
3.9309 -2.3122 -0.3921
6.0267 1.2653 -0.0560
6.0235 1.2536 -0.0575
6.0176 1.2431 -0.0588
6.0259 1.2228 -0.0619
6.0208 1.2105 -0.0635
6.0300 1.1873 -0.0670
6.0254 1.1730 -0.0689
6.0276 1.1527 -0.0718
6.0170 1.1416 -0.0730
6.0298 1.1102 -0.0778
6.0263 1.0910 -0.0804
6.0284 1.0654 -0.0841
6.0253 1.0432 -0.0871
6.0157 1.0260 -0.0891
6.0151 0.9983 -0.0930
5.9994 0.9854 -0.0942
5.9861 0.9690 -0.0960
5.9796 0.9435 -0.0994
5.9508 0.9079 -0.1033
5.9408 0.8822 -0.1066
5.9279 0.8586 -0.1094
5.9082 0.8442 -0.1107
5.8983 0.8122 -0.1149
5.8610 0.7725 -0.1191
5.8311 0.7091 -0.1269
5.8146 0.6758 -0.1310
5.7942 0.6485 -0.1341
5.7696 0.6302 -0.1358
5.7409 0.6232 -0.1358
6.3778 -2.1471 -0.5462
6.2382 -2.0184 -0.5232
6.1636 -2.1769 -0.5428
5.9786 -2.3842 -0.5652
5.8733 -2.4217 -0.5667
5.2324 -2.8545 -0.6046
5.1363 -2.6839 -0.5773
4.9964 -2.1468 -0.4971
5.1069 -0.1546 -0.2221
5.0686 -0.1534 -0.2206
5.0238 -0.1841 -0.2233
4.9822 -0.1989 -0.2239
4.9385 -0.2219 -0.2256
4.9087 -0.1955 -0.2208
4.8657 -0.2172 -0.2223
3.7523 -2.7394 -0.5359
3.7117 -2.6398 -0.5205
6.0208 1.2440 -0.0745
6.0258 1.2258 -0.0777
6.0268 1.2094 -0.0805
6.0308 1.1899 -0.0840
6.0223 1.1784 -0.0855
6.0311 1.1532 -0.0901
6.0239 1.1392 -0.0921
6.0294 1.1138 -0.0966
6.0207 1.0992 -0.0986
6.0279 1.0693 -0.1040
6.0223 1.0495 -0.1070
6.0127 1.0324 -0.1094
6.0113 1.0057 -0.1138
5.9993 0.9889 -0.1161
5.9846 0.9742 -0.1179
5.9754 0.9520 -0.1212
5.9640 0.9312 -0.1241
5.9517 0.9100 -0.1271
5.9379 0.8894 -0.1299
5.9301 0.8583 -0.1348
5.9166 0.8336 -0.1383
5.8991 0.8137 -0.1408
5.8842 0.7875 -0.1445
5.8651 0.7670 -0.1471
5.8470 0.7428 -0.1503
5.8336 0.7055 -0.1559
5.8126 0.6823 -0.1589
5.7933 0.6524 -0.1630
5.7708 0.6276 -0.1661
6.2107 -1.4870 -0.5390
6.1456 -1.6087 -0.5564
6.0639 -1.6724 -0.5634
5.9097 -1.9076 -0.5957
5.8126 -1.9055 -0.5910
5.7172 -1.9017 -0.5860
5.6257 -1.9342 -0.5873
5.5333 -1.9315 -0.5827
5.4428 -1.9993 -0.5899
5.3505 -2.0699 -0.5976
5.2633 -1.9919 -0.5806
5.1876 -0.9588 -0.4047
5.1389 -0.8608 -0.3861
5.1039 -0.1445 -0.2649
5.0624 -0.1593 -0.2655
5.0208 -0.1740 -0.2661
4.9793 -0.1888 -0.2667
4.9355 -0.2117 -0.2686
4.9010 -0.2020 -0.2654
4.8649 -0.2002 -0.2635
4.1366 -1.8811 -0.5113
4.0362 -1.9693 -0.5215
3.8341 -2.3012 -0.5678
6.0158 1.2773 -0.0836
6.0280 1.2567 -0.0883
6.0283 1.2422 -0.0911
6.0227 1.2309 -0.0930
6.0176 1.2186 -0.0951
6.0277 1.1952 -0.1002
6.0202 1.1831 -0.1022
6.0289 1.1581 -0.1075
6.0182 1.1470 -0.1091
6.0246 1.1212 -0.1145
6.0236 1.1000 -0.1185
6.0290 1.0717 -0.1243
6.0249 1.0504 -0.1282
6.0251 1.0234 -0.1335
6.0188 1.0014 -0.1374
6.0043 0.9869 -0.1394
5.9955 0.9650 -0.1432
5.9778 0.9525 -0.1447
5.9649 0.9333 -0.1477
5.9501 0.9155 -0.1503
5.9340 0.8983 -0.1528
5.9262 0.8674 -0.1584
5.9165 0.8369 -0.1638
5.8863 0.7866 -0.1719
5.8746 0.7512 -0.1781
5.8511 0.7366 -0.1797
5.8293 0.7174 -0.1822
5.8189 0.6689 -0.1911
5.7968 0.6444 -0.1946
5.7784 0.6066 -0.2009
6.0923 -1.0188 -0.5340
6.0101 -1.0033 -0.5265
5.9341 -1.0074 -0.5231
5.8732 -1.0968 -0.5371
5.8126 -1.2142 -0.5566
5.7423 -1.2892 -0.5673
5.6617 -1.2679 -0.5588
5.5850 -1.2712 -0.5552
5.5121 -1.3711 -0.5706
5.3686 -1.0045 -0.4915
5.3105 -0.8649 -0.4612
5.2446 -0.9393 -0.4721
5.1777 -0.9985 -0.4799
5.1135 -1.0214 -0.4808
5.1039 -0.1188 -0.3049
5.0646 -0.1244 -0.3038
5.0236 -0.1390 -0.3044
4.9827 -0.1536 -0.3050
4.9417 -0.1681 -0.3056
4.8980 -0.1920 -0.3078
4.8620 -0.1903 -0.3055
4.8240 -0.1965 -0.3047
4.6751 -0.0068 -0.2596
6.0214 1.2769 -0.0992
6.0247 1.2615 -0.1029
6.0283 1.2452 -0.1067
6.0237 1.2332 -0.1091
6.0225 1.2183 -0.1123
6.0236 1.2011 -0.1162
6.0295 1.1794 -0.1214
6.0305 1.1601 -0.1258
6.0296 1.1412 -0.1299
6.0259 1.1233 -0.1336
6.0172 1.1089 -0.1363
6.0268 1.0771 -0.1439
6.0234 1.0552 -0.1486
6.0167 1.0353 -0.1526
6.0106 1.0134 -0.1570
6.0006 0.9944 -0.1606
5.9885 0.9766 -0.1638
5.9869 0.9450 -0.1707
5.9646 0.9371 -0.1710
5.9358 0.8989 -0.1776
5.9295 0.8656 -0.1846
5.9238 0.8284 -0.1925
5.9046 0.8102 -0.1953
5.8821 0.7970 -0.1968
5.8691 0.7645 -0.2032
5.8467 0.7482 -0.2053
5.8263 0.7265 -0.2088
5.8088 0.6954 -0.2146
5.7938 0.6539 -0.2228
5.7668 0.6412 -0.2239
5.7495 0.5968 -0.2327
6.0473 -0.8425 -0.5715
5.9829 -0.8861 -0.5770
5.9101 -0.8914 -0.5735
5.8415 -0.9158 -0.5744
5.7782 -0.9797 -0.5845
5.7065 -0.9845 -0.5810
5.6327 -0.9508 -0.5687
5.5642 -0.9555 -0.5653
5.4976 -0.9989 -0.5706
5.4300 -0.9464 -0.5546
5.3697 -0.7630 -0.5100
5.3077 -0.8161 -0.5178
5.2465 -0.8379 -0.5186
5.1768 -0.9465 -0.5382
5.1199 -0.9160 -0.5278
5.1354 -0.1337 -0.3551
5.1026 -0.0999 -0.3455
5.0664 -0.0921 -0.3414
5.0241 -0.1144 -0.3436
4.9815 -0.1368 -0.3458
4.9451 -0.1353 -0.3431
4.9023 -0.1577 -0.3454
4.8591 -0.1804 -0.3476
4.8211 -0.1866 -0.3465
4.2184 -1.3051 -0.5559
6.0177 1.2547 -0.1199
6.0298 1.2323 -0.1265
6.0285 1.2174 -0.1301
6.0323 1.1982 -0.1352
6.0198 1.1897 -0.1364
6.0283 1.1650 -0.1432
6.0337 1.1412 -0.1495
6.0290 1.1241 -0.1534
6.0227 1.1075 -0.1571
6.0287 1.0788 -0.1648
6.0315 1.0511 -0.1719
6.0222 1.0334 -0.1756
6.0158 1.0116 -0.1806
6.0041 0.9941 -0.1841
5.9924 0.9755 -0.1879
5.9787 0.9583 -0.1912
5.9668 0.9376 -0.1954
5.9493 0.9232 -0.1978
5.9446 0.8897 -0.2058
5.9467 0.8432 -0.2176
5.9289 0.8235 -0.2212
5.9039 0.8146 -0.2215
5.8864 0.7919 -0.2259
5.8686 0.7681 -0.2305
5.8436 0.7572 -0.2314
5.8267 0.7276 -0.2375
5.7972 0.7253 -0.2359
5.9417 -0.4241 -0.5342
5.8874 -0.4578 -0.5386
5.8348 -0.5053 -0.5465
5.7810 -0.5543 -0.5547
5.7296 -0.6342 -0.5709
5.6610 -0.5815 -0.5526
5.5979 -0.5465 -0.5391
5.5406 -0.5669 -0.5399
5.4843 -0.6300 -0.5515
5.4258 -0.6960 -0.5637
5.3679 -0.6571 -0.5496
5.3106 -0.6631 -0.5468
5.2518 -0.6984 -0.5513
5.1938 -0.7190 -0.5521
5.1395 -0.7096 -0.5457
5.1378 -0.0918 -0.3910
5.0980 -0.0988 -0.3898
5.0717 -0.0444 -0.3742
5.0231 -0.0967 -0.3837
4.9806 -0.1190 -0.3861
4.9423 -0.1254 -0.3848
4.8994 -0.1479 -0.3872
4.8614 -0.1542 -0.3860
4.8154 -0.1850 -0.3902
4.3744 -1.0250 -0.5674
4.3231 -1.0289 -0.5645
6.0314 1.2492 -0.1389
6.0246 1.2386 -0.1412
6.0343 1.2166 -0.1482
6.0272 1.2049 -0.1509
6.0262 1.1882 -0.1554
6.0271 1.1691 -0.1608
6.0324 1.1455 -0.1679
6.0216 1.1335 -0.1703
6.0264 1.1077 -0.1779
6.0249 1.0857 -0.1839
6.0246 1.0611 -0.1907
6.0299 1.0294 -0.2000
6.0158 1.0151 -0.2028
6.0026 0.9992 -0.2061
5.9977 0.9730 -0.2130
5.9889 0.9495 -0.2188
5.9690 0.9383 -0.2202
5.9597 0.9126 -0.2266
5.9458 0.8913 -0.2313
5.9300 0.8714 -0.2355
5.9244 0.8337 -0.2456
5.9061 0.8139 -0.2495
5.8912 0.7862 -0.2560
5.8668 0.7744 -0.2572
5.8443 0.7583 -0.2598
5.8205 0.7437 -0.2618
5.9105 -0.3015 -0.5607
5.8587 -0.3322 -0.5648
5.7996 -0.3277 -0.5586
5.7515 -0.3826 -0.5698
5.6951 -0.3904 -0.5672
5.6380 -0.3853 -0.5609
5.5841 -0.4044 -0.5617
5.5308 -0.4366 -0.5661
5.4771 -0.4802 -0.5737
5.4222 -0.5263 -0.5819
5.3678 -0.5069 -0.5719
5.3132 -0.5263 -0.5726
5.2608 -0.5195 -0.5663
5.2054 -0.5524 -0.5708
5.1625 -0.4830 -0.5478
5.1294 -0.1133 -0.4420
5.0950 -0.0888 -0.4322
5.0589 -0.0802 -0.4268
5.0183 -0.0947 -0.4274
4.9757 -0.1170 -0.4300
4.9371 -0.1236 -0.4285
4.8989 -0.1300 -0.4271
4.8559 -0.1525 -0.4297
4.8100 -0.1821 -0.4340
4.4404 -0.8369 -0.5851
4.3986 -0.8263 -0.5786
6.0324 1.2658 -0.1506
6.0261 1.2554 -0.1532
6.0224 1.2430 -0.1567
6.0212 1.2284 -0.1611
6.0250 1.2095 -0.1673
6.0307 1.1882 -0.1743
6.0287 1.1712 -0.1794
6.0249 1.1547 -0.1841
6.0290 1.1308 -0.1918
6.0242 1.1129 -0.1969
6.0316 1.0832 -0.2067
6.0208 1.0681 -0.2103
6.0254 1.0374 -0.2202
6.0194 1.0150 -0.2265
6.0081 0.9968 -0.2311
5.9879 0.9876 -0.2320
5.9834 0.9596 -0.2401
5.9611 0.9142 -0.2520
5.9453 0.8954 -0.2563
5.9283 0.8772 -0.2602
5.8466 -0.0484 -0.5371
5.7974 -0.0568 -0.5350
5.7502 -0.0736 -0.5357
5.7044 -0.0990 -0.5391
5.6583 -0.1255 -0.5429
5.6096 -0.1327 -0.5405
5.5636 -0.1683 -0.5471
5.5153 -0.1764 -0.5449
5.4678 -0.2024 -0.5484
5.4199 -0.2195 -0.5491
5.3717 -0.2467 -0.5529
5.3224 -0.2846 -0.5598
5.2720 -0.3217 -0.5665
5.2228 -0.3392 -0.5672
5.1736 -0.3567 -0.5679
5.1517 -0.1974 -0.5168
5.1264 -0.1031 -0.4854
5.0906 -0.0864 -0.4769
