ply
format ascii 1.0
element vertex 2103
property float x
property float y
property float z
end_header
3.8513 -1.8343 0.4215
3.8517 -1.8177 0.4011
3.8506 -1.8033 0.3795
3.8605 -1.7671 0.3585
3.8225 -1.8043 0.3086
3.8129 -1.8051 0.2846
3.8003 -1.8117 0.2607
3.7994 -1.7939 0.2354
3.7917 -1.7898 0.2103
3.7864 -1.7801 0.1840
3.7748 -1.7839 0.1590
3.7795 -1.7502 0.1277
3.7890 -1.7035 0.0918
3.8008 -1.6485 0.0514
3.8009 -1.6197 0.0142
3.8710 -1.2903 -0.2303
3.8437 -1.3223 -0.2593
3.6659 -1.7327 -0.1881
3.6491 -1.7498 -0.2094
3.6334 -1.7640 -0.2314
3.6183 -1.7772 -0.2533
3.5958 -1.8184 -0.2581
3.5762 -1.8521 -0.2654
3.5350 -1.9365 -0.2625
3.5175 -1.9711 -0.2630
3.5021 -1.9992 -0.2663
3.4858 -2.0351 -0.2621
3.4711 -2.0671 -0.2588
3.4587 -2.0893 -0.2620
3.4458 -2.1183 -0.2579
3.4351 -2.1367 -0.2618
3.4132 -2.1867 -0.2535
3.4044 -2.2003 -0.2587
3.3957 -2.2164 -0.2605
3.3873 -2.2332 -0.2605
3.3792 -2.2498 -0.2598
3.3645 -2.2794 -0.2596
3.3576 -2.2973 -0.2543
3.3511 -2.3110 -0.2533
3.3450 -2.3188 -0.2590
3.3335 -2.3415 -0.2594
3.3281 -2.3515 -0.2604
3.3228 -2.3607 -0.2621
4.4762 -0.9113 0.9821
4.4503 -0.9275 0.9354
4.4525 -0.8971 0.9046
4.4544 -0.8659 0.8723
3.8523 -1.7983 0.4525
3.8480 -1.7895 0.4312
3.8430 -1.7819 0.4091
3.8346 -1.7804 0.3859
3.8260 -1.7790 0.3624
3.8228 -1.7665 0.3393
3.8076 -1.7783 0.3147
3.7950 -1.7850 0.2906
3.7916 -1.7717 0.2660
3.7845 -1.7197 0.1859
3.8016 -1.6538 0.1507
3.8002 -1.6297 0.1183
3.7943 -1.6155 0.0863
3.7947 -1.5840 0.0496
3.7884 -1.5683 0.0147
3.7802 -1.5565 -0.0202
3.8341 -1.3257 -0.1587
3.8924 -1.1044 -0.2746
3.8331 -1.2327 -0.2725
3.7877 -1.3249 -0.2780
3.7024 -1.5102 -0.2739
3.6302 -1.7199 -0.2071
3.6132 -1.7400 -0.2266
3.5965 -1.7599 -0.2451
3.5798 -1.7815 -0.2618
3.5597 -1.8196 -0.2675
3.5389 -1.8646 -0.2667
3.5028 -1.9420 -0.2664
3.4719 -2.0082 -0.2659
3.4571 -2.0445 -0.2603
3.4449 -2.0680 -0.2631
3.4218 -2.1181 -0.2621
3.4009 -2.1692 -0.2544
3.3923 -2.1830 -0.2598
3.3835 -2.2038 -0.2574
3.3754 -2.2200 -0.2586
3.3678 -2.2344 -0.2607
3.3535 -2.2672 -0.2581
3.3407 -2.2985 -0.2531
3.3348 -2.3090 -0.2558
3.3291 -2.3194 -0.2579
3.3236 -2.3297 -0.2596
3.3185 -2.3432 -0.2562
4.5050 -0.8808 1.1531
4.4798 -0.8961 1.1065
4.4997 -0.8371 1.0915
4.4734 -0.8536 1.0436
4.4308 -0.8983 0.9856
3.8448 -1.7600 0.4619
3.8406 -1.7500 0.4403
3.8391 -1.7339 0.4188
3.8238 -1.7459 0.3935
3.8218 -1.7300 0.3708
3.8037 -1.7482 0.3453
3.7901 -1.7571 0.3208
3.7977 -1.7179 0.2968
3.7886 -1.7156 0.2714
3.7939 -1.6789 0.2441
3.7940 -1.6527 0.2155
3.7927 -1.6286 0.1855
3.7865 -1.5852 0.1221
3.7803 -1.5698 0.0894
3.7711 -1.5615 0.0571
3.7658 -1.5414 0.0215
3.7545 -1.5372 -0.0114
3.8635 -1.0554 -0.2693
3.8191 -1.1435 -0.2838
3.7635 -1.2773 -0.2760
3.7254 -1.3572 -0.2836
3.6842 -1.4556 -0.2788
3.5909 -1.7234 -0.2179
3.5631 -1.7439 -0.2652
3.5219 -1.8362 -0.2670
3.5033 -1.8800 -0.2656
3.4875 -1.9123 -0.2696
3.4560 -1.9909 -0.2621
3.4305 -2.0491 -0.2620
3.4083 -2.0993 -0.2624
3.3886 -2.1469 -0.2594
3.3797 -2.1682 -0.2583
3.3717 -2.1805 -0.2650
3.3562 -2.2188 -0.2617
3.3491 -2.2369 -0.2595
3.3424 -2.2470 -0.2653
3.3300 -2.2808 -0.2591
3.3190 -2.3098 -0.2548
3.3088 -2.3315 -0.2566
3.3038 -2.3402 -0.2596
3.7987 -1.7199 0.3763
3.7946 -1.7069 0.3527
3.7560 -1.5137 0.0598
3.7255 -1.5687 0.0400
3.7234 -1.5361 0.0016
3.8341 -1.0048 -0.2642
3.7952 -1.0797 -0.2847
3.7459 -1.2004 -0.2845
3.7015 -1.3113 -0.2820
3.6677 -1.3872 -0.2887
3.6286 -1.4937 -0.2776
3.5905 -1.6062 -0.2580
3.5683 -1.6522 -0.2664
3.5434 -1.7171 -0.2622
3.5236 -1.7615 -0.2663
3.5040 -1.8102 -0.2654
3.4873 -1.8472 -0.2693
3.4700 -1.8934 -0.2652
3.4391 -1.9810 -0.2529
3.4158 -2.0310 -0.2601
3.3945 -2.0821 -0.2610
3.3849 -2.1042 -0.2623
3.3761 -2.1197 -0.2684
3.3675 -2.1396 -0.2695
3.3515 -2.1890 -0.2590
3.3444 -2.2057 -0.2598
3.3376 -2.2233 -0.2588
3.3311 -2.2362 -0.2617
3.3138 -2.2824 -0.2577
3.3085 -2.2941 -0.2591
3.3039 -2.3109 -0.2534
3.2988 -2.3189 -0.2580
3.2941 -2.3294 -0.2589
4.1637 -0.5209 0.2211
4.0331 -0.8249 0.1846
3.7177 -1.4954 0.0368
3.7217 -1.1416 -0.2851
3.6871 -1.2187 -0.2980
3.6438 -1.3441 -0.2870
3.6050 -1.4605 -0.2735
3.5499 -1.6082 -0.2705
3.5047 -1.7333 -0.2647
3.4855 -1.7859 -0.2626
3.4682 -1.8323 -0.2616
3.4542 -1.8600 -0.2700
3.4387 -1.9068 -0.2643
3.4243 -1.9522 -0.2571
3.4122 -1.9831 -0.2580
3.4011 -2.0099 -0.2603
3.3908 -2.0327 -0.2642
3.3714 -2.0844 -0.2635
3.3543 -2.1326 -0.2603
3.3393 -2.1746 -0.2578
3.3198 -2.2245 -0.2591
3.3142 -2.2440 -0.2547
3.3082 -2.2524 -0.2615
3.3034 -2.2716 -0.2554
3.2982 -2.2835 -0.2569
3.2935 -2.2961 -0.2568
3.2883 -2.3034 -0.2628
3.2842 -2.3177 -0.2593
4.6495 0.3731 0.7845
4.4847 0.0401 0.6697
4.0081 -0.9625 0.3717
4.0080 -0.9160 0.3313
3.8531 -1.2219 0.2175
3.8426 -1.2083 0.1802
3.8297 -1.2011 0.1425
3.8108 -1.2131 0.1066
3.6782 -1.4813 0.0146
3.7669 -0.9292 -0.2449
3.7381 -0.9729 -0.2774
3.6933 -1.0961 -0.2804
3.6569 -1.1899 -0.2884
3.5868 -1.3946 -0.2830
3.5290 -1.5744 -0.2690
3.5082 -1.6278 -0.2736
3.4894 -1.6749 -0.2789
3.4531 -1.7829 -0.2743
3.4222 -1.8815 -0.2646
3.3975 -1.9514 -0.2646
3.3860 -1.9904 -0.2589
3.3760 -2.0165 -0.2610
3.3575 -2.0702 -0.2598
3.3269 -2.1563 -0.2601
3.3203 -2.1756 -0.2595
3.3141 -2.1929 -0.2599
3.3082 -2.2091 -0.2604
3.3027 -2.2271 -0.2581
3.2971 -2.2384 -0.2621
3.2921 -2.2534 -0.2614
3.2826 -2.2803 -0.2612
3.2786 -2.2949 -0.2585
3.2738 -2.3032 -0.2631
4.2211 -0.4677 0.6086
3.8849 -1.2718 0.4316
3.9495 -1.0064 0.3783
3.8519 -1.2036 0.2982
3.8163 -1.2691 0.2639
3.8010 -1.1736 0.1517
3.7897 -1.1003 0.0667
3.6644 -1.4159 0.0133
3.6485 -1.4261 -0.0170
3.6904 -1.1731 -0.1155
3.6992 -1.0531 -0.1890
3.6986 -0.9674 -0.2581
3.6630 -1.0573 -0.2731
3.6267 -1.1610 -0.2788
3.5954 -1.2475 -0.2861
3.5700 -1.3076 -0.3001
3.5122 -1.5053 -0.2835
3.4678 -1.6576 -0.2706
3.4485 -1.7284 -0.2613
3.4349 -1.7524 -0.2751
3.4044 -1.8708 -0.2553
3.3926 -1.9020 -0.2591
3.3814 -1.9360 -0.2595
3.3614 -1.9836 -0.2701
3.3435 -2.0539 -0.2577
3.3279 -2.0952 -0.2628
3.3206 -2.1103 -0.2686
3.3020 -2.1770 -0.2608
3.2907 -2.2071 -0.2644
3.2864 -2.2299 -0.2566
3.2814 -2.2423 -0.2591
3.2720 -2.2669 -0.2624
3.2685 -2.2837 -0.2576
4.3538 -0.2017 0.8712
4.3543 -0.1425 0.8296
4.3546 -0.0803 0.7856
3.8589 -1.2046 0.4101
3.8370 -1.2278 0.3747
3.8191 -1.2398 0.3404
3.8016 -1.2505 0.3064
3.7876 -1.2502 0.2725
3.7567 -1.2043 0.1656
3.7386 -1.2163 0.1310
3.7416 -1.1432 0.0856
3.6681 -1.1085 -0.1152
3.6613 -1.0546 -0.1701
3.6732 -0.8885 -0.2614
3.6023 -1.0952 -0.2821
3.5716 -1.1864 -0.2896
3.5143 -1.3817 -0.2862
3.4867 -1.4959 -0.2698
3.4469 -1.6343 -0.2654
3.4306 -1.6847 -0.2680
3.4015 -1.7794 -0.2694
3.3655 -1.9105 -0.2610
3.3554 -1.9449 -0.2603
3.3461 -1.9810 -0.2565
3.3291 -2.0227 -0.2672
3.3148 -2.0845 -0.2569
3.3013 -2.1200 -0.2636
3.2958 -2.1458 -0.2582
3.2896 -2.1589 -0.2635
3.2846 -2.1806 -0.2597
3.2800 -2.2011 -0.2560
3.2750 -2.2148 -0.2582
3.2656 -2.2409 -0.2619
3.2618 -2.2572 -0.2591
3.2577 -2.2696 -0.2600
4.3684 -0.1829 1.0378
4.3430 -0.1913 0.9832
4.2934 -0.2631 0.9128
4.2573 -0.3018 0.8526
4.2495 -0.2643 0.8095
4.2416 -0.2248 0.7649
4.1141 -0.5278 0.6614
3.8478 -1.1734 0.4532
3.7123 -1.2460 0.1796
3.6979 -1.2456 0.1452
3.6968 -1.1145 0.0569
3.6825 -1.1059 0.0173
3.6721 -1.0755 -0.0271
3.6598 -1.0518 -0.0718
3.6302 -1.1232 -0.0952
3.6105 -1.1431 -0.1289
3.6025 -0.9712 -0.2605
3.5756 -1.0345 -0.2827
3.5466 -1.1242 -0.2927
3.5168 -1.2367 -0.2896
3.4879 -1.3623 -0.2758
3.4637 -1.4648 -0.2660
3.4438 -1.5412 -0.2633
3.4259 -1.6097 -0.2607
3.4116 -1.6422 -0.2734
3.3396 -1.9196 -0.2622
3.3308 -1.9564 -0.2589
3.3149 -2.0120 -0.2603
3.3076 -2.0370 -0.2612
3.3009 -2.0618 -0.2609
3.2942 -2.0814 -0.2637
3.2882 -2.1029 -0.2640
3.2731 -2.1695 -0.2561
3.2677 -2.1816 -0.2611
3.2638 -2.2024 -0.2567
3.2554 -2.2329 -0.2565
3.2509 -2.2436 -0.2602
3.2470 -2.2562 -0.2612
2.9618 0.5143 1.0337
3.0948 0.4070 0.9978
2.9702 0.5510 0.9681
3.0240 0.3176 0.9166
3.1613 0.3399 0.9098
1.5132 -1.9925 0.5474
1.5102 -1.9627 0.5530
1.5076 -1.9316 0.5587
1.5098 -1.9024 0.5638
1.5069 -1.8680 0.5701
3.0244 0.2535 0.8367
3.1097 0.4228 0.8607
1.4962 -1.9875 0.5217
1.5397 -1.9878 0.5188
1.4899 -1.8944 0.5367
1.4736 -1.8500 0.5447
2.9677 0.3318 0.7850
3.0352 0.3065 0.7766
3.0930 0.2146 0.7583
3.1522 0.1707 0.7475
1.5203 -2.0085 0.4893
1.4757 -1.8578 0.5120
1.5077 -1.8473 0.5115
2.8891 0.0460 0.6809
2.9674 0.2428 0.7024
3.0376 0.2659 0.7013
3.1025 0.2423 0.6943
3.1686 0.2427 0.6904
3.2198 0.1550 0.6757
1.5116 -2.0088 0.4619
1.5010 -1.9743 0.4662
1.4906 -1.8749 0.4776
1.5056 -1.8520 0.4793
1.2957 -1.6540 0.5118
1.3746 -1.6738 0.5055
0.3867 -0.4589 0.6894
2.9703 0.2027 0.6282
3.0337 0.1587 0.6202
3.1044 0.2033 0.6214
3.1859 0.3184 0.6297
1.4970 -2.0056 0.4345
1.4884 -1.8796 0.4456
0.4476 -0.5319 0.6064
2.8569 -0.7942 0.4785
2.9700 0.1196 0.5516
3.0402 0.1638 0.5523
3.1226 0.3021 0.5605
3.4713 -0.7061 0.4591
3.5014 -0.7306 0.4557
3.4698 -0.9132 0.4414
3.4524 -1.0422 0.4312
3.4770 -1.0586 0.4287
1.4547 -1.6221 0.4307
0.4523 -0.5497 0.5323
0.5774 -0.5791 0.5260
0.8155 1.3504 0.6358
0.9762 1.2852 0.6260
1.2039 1.0391 0.6028
1.3412 0.9872 0.5947
2.1800 1.9889 0.6260
2.3335 1.6763 0.6014
2.4593 1.5037 0.5863
2.5835 1.1296 0.5589
2.6989 0.1666 0.4957
2.7699 0.0145 0.4839
2.8583 -0.8361 0.4286
2.9744 0.1029 0.4820
3.0513 0.2143 0.4860
3.1160 0.1915 0.4823
3.4491 -1.0652 0.3933
3.4852 -1.0533 0.3928
1.2107 1.0134 0.4956
1.4084 0.8011 0.4823
1.4504 0.9959 0.4883
2.4662 1.4777 0.4778
2.6199 0.4010 0.4339
2.7005 0.3201 0.4287
2.8624 -0.8273 0.3819
2.9755 0.0434 0.4108
3.0581 0.2198 0.4150
3.1204 0.1745 0.4117
3.2139 0.3643 0.4160
3.4708 -1.1016 0.3549
1.3611 -1.7727 0.3523
0.4158 -0.9523 0.3807
0.3221 -0.3491 0.3898
0.9460 1.3318 0.3978
1.1810 1.0770 0.3902
1.4290 0.7392 0.3812
1.4117 1.1018 0.3859
2.3124 0.9476 0.3664
2.4000 1.0593 0.3661
2.4518 1.7693 0.3736
2.6272 0.3280 0.3528
2.7059 0.2765 0.3506
2.8643 -0.8588 0.3338
3.0627 0.2024 0.3427
3.1278 0.1803 0.3412
3.2502 0.5605 0.3434
0.4033 -0.9550 0.3155
1.4637 0.9456 0.2787
2.1325 1.5211 0.2636
2.2733 1.3077 0.2648
2.3907 1.2057 0.2648
2.6383 0.1594 0.2756
2.7107 0.2580 0.2735
2.8685 -0.8503 0.2862
3.0673 0.1850 0.2704
3.1212 0.0762 0.2713
3.1921 0.1201 0.2699
3.2879 0.3032 0.2664
3.4346 0.7131 0.2594
3.4333 -1.0700 0.2827
0.5040 -0.9755 0.2497
0.5537 -0.8666 0.2454
0.4717 -0.7109 0.2396
0.2366 -0.1809 0.2199
1.0548 1.3662 0.1579
1.3024 1.0597 0.1690
1.4556 0.9629 0.1723
1.6114 0.8325 0.1768
1.5831 1.3103 0.1585
1.6542 1.5036 0.1508
1.7821 1.4877 0.1511
1.9370 1.3205 0.1571
2.0780 1.1680 0.1625
2.2067 1.0287 0.1675
2.2689 1.3783 0.1539
2.3717 1.4638 0.1503
2.6392 0.2391 0.1967
2.7170 0.1421 0.2002
2.7840 -0.3573 0.2192
2.8296 -0.7412 0.2338
2.8752 -0.8015 0.2360
3.0451 -0.0831 0.2079
3.1397 0.1685 0.1979
3.1837 0.0196 0.2035
3.2684 0.1475 0.1983
3.3999 0.4898 0.1848
3.4640 0.4604 0.1857
3.4525 -1.0370 0.2434
0.2230 -0.4997 0.1517
1.3677 1.2096 0.0482
1.7517 1.6256 0.0236
2.6442 0.2204 0.1189
2.7205 0.2210 0.1193
2.7894 -0.2562 0.1504
2.8350 -0.6962 0.1789
2.8837 -0.7261 0.1811
2.9239 -0.8282 0.1879
2.9796 -0.7383 0.1824
3.0413 -0.6282 0.1757
3.2961 -0.5560 0.1725
3.5692 -0.7618 0.1872
-0.2042 -0.2401 0.0407
1.4381 1.3708 -0.0817
1.6828 1.3941 -0.0803
2.0158 1.5612 -0.0907
2.1468 1.4908 -0.0825
2.6464 0.2783 0.0342
2.7257 0.1771 0.0445
2.8032 0.3841 0.0269
2.9384 -0.7098 0.1277
2.9828 -0.7504 0.1320
3.0321 -0.7341 0.1312
3.0869 -0.6831 0.1274
3.1210 -0.7557 0.1345
3.1968 -0.6023 0.1217
3.4737 0.4237 0.0328
3.4605 -0.9621 0.1579
3.5492 -0.8289 0.1471
3.5767 -0.8506 0.1495
3.5774 -1.0031 0.1633
1.3585 -1.9112 0.1786
1.3772 -1.8903 0.1766
1.3588 -1.8437 0.1707
1.3728 -1.8169 0.1679
0.7933 1.3076 -0.2107
1.0273 1.0918 -0.1801
1.5180 0.7656 -0.1307
1.5380 1.0515 -0.1636
1.6584 1.0416 -0.1597
1.7528 1.1223 -0.1670
1.8495 1.2047 -0.1744
1.9858 1.1010 -0.1592
2.0668 1.2763 -0.1778
2.1685 1.3615 -0.1854
2.2727 1.4485 -0.1932
2.3699 1.6471 -0.2142
2.6496 0.3123 -0.0518
2.7294 0.2849 -0.0467
2.8937 0.5350 -0.0722
2.9767 0.5624 -0.0735
3.0035 -0.0347 -0.0031
3.0341 -0.3387 0.0332
3.0385 -0.7230 0.0782
3.2857 0.1183 -0.0145
3.3987 0.3558 -0.0397
3.4631 -0.9719 0.1170
3.5032 -0.9587 0.1164
3.5395 -0.9541 0.1167
3.5728 -0.9558 0.1176
3.6082 -0.9515 0.1180
1.3559 -1.8489 0.1338
1.3803 -1.8293 0.1317
-0.3115 -0.2882 -0.1436
0.5244 -0.8103 -0.0420
0.0612 0.3466 -0.2230
0.0733 0.4908 -0.2433
1.0604 0.5032 -0.2138
1.1233 0.6087 -0.2269
1.0759 0.9720 -0.2807
1.3079 0.7135 -0.2361
1.4529 0.6326 -0.2199
1.5511 0.6649 -0.2214
1.6492 0.6973 -0.2230
1.8740 0.6510 -0.2092
1.9437 0.7943 -0.2276
2.0568 0.7510 -0.2177
2.1123 1.0226 -0.2550
2.4412 0.8777 -0.2237
2.5543 0.6219 -0.1834
2.6547 0.2928 -0.1329
3.0223 -0.4883 -0.0089
3.1489 0.0349 -0.0801
3.2897 0.5021 -0.1428
3.4089 0.7435 -0.1737
3.4252 0.4421 -0.1299
3.9353 1.9145 -0.3253
4.0453 1.9508 -0.3271
4.1553 1.9871 -0.3288
3.4851 -0.9324 0.0696
3.5123 -0.9528 0.0734
3.5563 -0.9309 0.0717
3.5897 -0.9335 0.0731
3.6299 -0.9203 0.0725
3.6738 -0.8996 0.0709
-0.5824 -0.2963 -0.2487
0.2773 -0.7813 -0.1307
0.4065 -0.8052 -0.1214
0.5117 -0.8121 -0.1159
0.6455 -0.8481 -0.1043
0.4388 -0.5627 -0.1615
0.3961 -0.4177 -0.1880
0.4362 -0.3484 -0.1983
0.3447 -0.1300 -0.2393
0.2639 0.0949 -0.2811
0.3839 0.0960 -0.2764
0.4541 0.1576 -0.2840
0.5721 0.1580 -0.2793
0.7083 0.1291 -0.2688
0.8390 0.1015 -0.2588
0.9294 0.1313 -0.2602
0.9664 0.2516 -0.2793
1.0425 0.3131 -0.2867
1.1693 0.2811 -0.2760
1.2762 0.2810 -0.2717
1.3536 0.3418 -0.2789
1.4587 0.3411 -0.2745
1.5853 0.2789 -0.2587
1.6739 0.3081 -0.2601
1.7625 0.3373 -0.2615
1.8331 0.4292 -0.2743
1.9068 0.5242 -0.2876
2.0139 0.4888 -0.2771
2.0704 0.6904 -0.3093
2.1774 0.6508 -0.2982
2.2850 0.5781 -0.2814
2.3754 0.6079 -0.2828
2.4686 0.6044 -0.2784
2.5638 0.5359 -0.2628
2.6517 0.5327 -0.2587
2.7388 0.3826 -0.2295
2.8176 0.2723 -0.2074
2.9534 0.0343 -0.1612
2.9867 -0.3394 -0.0959
3.0293 -0.4740 -0.0712
3.1390 -0.0833 -0.1335
3.2768 0.3727 -0.2059
3.3688 0.4800 -0.2205
3.4083 0.3194 -0.1914
3.4946 0.3957 -0.2009
3.5977 0.5295 -0.2196
3.4893 -0.8433 0.0107
3.5187 -0.8648 0.0156
4.0102 0.0957 -0.1286
3.7035 -0.7799 0.0086
-0.1924 -0.6880 -0.2505
0.0067 -0.7504 -0.2282
0.2499 -0.8540 -0.1955
0.2218 -0.7507 -0.2174
0.3164 -0.7433 -0.2141
0.3513 -0.6853 -0.2239
0.6025 -0.8214 -0.1844
0.4244 -0.5631 -0.2445
0.4224 -0.4585 -0.2654
0.5415 -0.4729 -0.2566
0.7254 -0.5620 -0.2298
0.7506 -0.4804 -0.2447
0.8885 -0.4102 -0.2518
0.9504 -0.3639 -0.2579
1.0284 -0.3382 -0.2591
1.1341 -0.3540 -0.2507
1.1710 -0.2654 -0.2664
1.2363 -0.2170 -0.2728
1.4519 -0.2740 -0.2507
1.5482 -0.2908 -0.2426
1.6040 -0.2239 -0.2531
1.6801 -0.1988 -0.2543
1.7804 -0.2370 -0.2417
1.8166 -0.1042 -0.2663
1.9082 -0.1236 -0.2579
1.9905 -0.1202 -0.2544
2.0719 -0.1182 -0.2508
2.1467 -0.0935 -0.2520
2.2343 -0.1338 -0.2396
2.2963 -0.0442 -0.2543
2.3678 0.0041 -0.2603
2.4354 0.0997 -0.2760
2.5106 0.1503 -0.2823
2.6854 -0.4239 -0.1595
2.7472 -0.4346 -0.1543
2.8070 -0.4613 -0.1460
2.8626 -0.5297 -0.1297
2.9179 -0.5394 -0.1250
2.9733 -0.5345 -0.1232
3.0246 -0.5579 -0.1160
3.0840 -0.5115 -0.1223
3.3638 0.0691 -0.2236
3.4755 0.2753 -0.2590
3.3456 -0.8176 -0.0485
3.4114 -0.7401 -0.0606
3.4143 -0.8548 -0.0376
3.4421 -0.8859 -0.0301
3.4786 -0.8894 -0.0276
3.5215 -0.8753 -0.0282
3.5316 -0.9390 -0.0151
4.2670 0.5145 -0.2671
4.1105 -0.0471 -0.1633
0.1810 -1.0372 -0.2351
0.5725 -1.2435 -0.1653
0.3519 -1.0189 -0.2292
0.3304 -0.9295 -0.2507
0.3814 -0.8922 -0.2562
0.3786 -0.8091 -0.2752
0.4684 -0.8010 -0.2717
0.6850 -0.9090 -0.2344
0.8087 -0.9411 -0.2199
0.7748 -0.8220 -0.2488
0.7994 -0.7544 -0.2627
0.8546 -0.7157 -0.2682
0.9527 -0.7244 -0.2604
1.0219 -0.7016 -0.2615
1.1032 -0.6943 -0.2584
1.1601 -0.6560 -0.2637
1.2293 -0.6332 -0.2648
1.2872 -0.5937 -0.2703
1.3568 -0.5707 -0.2714
1.4367 -0.5649 -0.2680
1.5150 -0.5585 -0.2648
1.5837 -0.5359 -0.2659
1.6441 -0.4965 -0.2712
1.7052 -0.4559 -0.2768
1.7824 -0.4509 -0.2734
1.8516 -0.4281 -0.2745
1.9269 -0.4228 -0.2712
1.9955 -0.4002 -0.2723
2.0641 -0.3775 -0.2734
2.1374 -0.3729 -0.2701
2.2055 -0.3504 -0.2712
2.2736 -0.3280 -0.2723
2.3387 -0.2871 -0.2777
2.4047 -0.2458 -0.2831
2.4717 -0.2032 -0.2888
2.5446 -0.2192 -0.2809
2.6251 -0.4111 -0.2327
2.7507 -0.2282 -0.2667
2.8622 -0.6262 -0.1700
2.9258 -0.4965 -0.1956
2.9797 -0.5208 -0.1869
3.0367 -0.5020 -0.1878
3.0816 -0.5662 -0.1706
3.1070 -0.7218 -0.1338
3.1715 -0.6339 -0.1499
3.3137 -0.2005 -0.2397
3.3150 -0.4369 -0.1861
3.2977 -0.7021 -0.1270
3.2973 -0.8632 -0.0906
3.3258 -0.9040 -0.0796
3.3554 -0.9343 -0.0710
3.4016 -0.9108 -0.0736
3.4385 -0.9140 -0.0707
3.4710 -0.9269 -0.0659
3.5099 -0.9213 -0.0649
3.5484 -0.9158 -0.0638
3.6100 -0.8575 -0.0734
4.0902 -0.0081 -0.2375
0.4102 -1.1416 -0.2665
0.5043 -1.1432 -0.2597
0.5519 -1.1112 -0.2646
0.6003 -1.0790 -0.2695
0.6637 -1.0581 -0.2705
0.7544 -1.0608 -0.2636
0.8169 -1.0401 -0.2645
0.9171 -1.0550 -0.2539
1.0133 -1.0691 -0.2437
1.0629 -1.0385 -0.2481
1.1334 -1.0295 -0.2456
1.1935 -1.0097 -0.2466
1.2442 -0.9787 -0.2510
1.2944 -0.9459 -0.2559
1.3829 -0.9626 -0.2456
1.4425 -0.9429 -0.2465
1.5464 -0.8791 -0.2557
1.6363 -0.9086 -0.2420
1.6952 -0.8891 -0.2430
1.7340 -0.8315 -0.2550
1.8005 -0.8249 -0.2521
1.8602 -0.8052 -0.2531
1.9255 -0.7990 -0.2502
2.0042 -0.8300 -0.2369
2.0530 -0.7855 -0.2449
2.1156 -0.7791 -0.2423
2.1738 -0.7599 -0.2432
2.2384 -0.7661 -0.2372
2.2988 -0.7604 -0.2345
2.3508 -0.7158 -0.2423
2.4018 -0.6562 -0.2540
2.4607 -0.6368 -0.2549
2.5100 -0.5299 -0.2788
2.5713 -0.5097 -0.2798
2.6366 -0.5646 -0.2613
2.6963 -0.5592 -0.2586
2.7551 -0.5398 -0.2595
2.8086 -0.7319 -0.2069
2.8679 -0.5993 -0.2366
2.9274 -0.5390 -0.2479
2.9834 -0.5348 -0.2452
3.0440 -0.4873 -0.2531
3.1040 -0.4533 -0.2577
3.1521 -0.4924 -0.2445
3.2118 -0.7008 -0.1872
3.2513 -0.7306 -0.1770
3.2757 -0.8101 -0.1550
3.3114 -0.8350 -0.1462
3.3488 -0.8492 -0.1401
3.3974 -0.8250 -0.1429
3.4540 -0.7788 -0.1508
3.4929 -0.7843 -0.1467
3.5582 -0.9094 -0.1104
3.6128 -0.8680 -0.1172
3.6768 -0.8846 -0.1086
0.6043 -1.3473 -0.2625
0.6867 -1.3465 -0.2564
0.7302 -1.3190 -0.2608
0.7623 -1.2821 -0.2687
0.8311 -1.2726 -0.2661
0.9107 -1.2726 -0.2599
0.9778 -1.2637 -0.2572
1.0335 -1.2453 -0.2581
1.0995 -1.2367 -0.2554
1.1448 -1.2086 -0.2598
1.2004 -1.1903 -0.2607
1.2467 -1.1619 -0.2651
1.2937 -1.1332 -0.2696
1.3501 -1.1147 -0.2705
1.4314 -1.1273 -0.2605
1.4787 -1.0985 -0.2650
1.5420 -1.0908 -0.2623
1.5755 -1.0404 -0.2740
1.6457 -1.0435 -0.2676
1.7013 -1.0252 -0.2685
1.7632 -1.0179 -0.2657
1.8068 -0.9773 -0.2739
1.9340 -0.9738 -0.2650
1.9796 -0.9334 -0.2728
2.0218 -0.8801 -0.2847
2.0909 -0.8967 -0.2746
2.1504 -0.8903 -0.2718
2.2057 -0.8721 -0.2726
2.2639 -0.8650 -0.2701
2.3189 -0.8469 -0.2710
2.3739 -0.8288 -0.2718
2.4328 -0.8346 -0.2656
2.4823 -0.7809 -0.2770
2.5362 -0.7500 -0.2815
2.5948 -0.7681 -0.2718
2.6494 -0.7501 -0.2727
2.7032 -0.6949 -0.2841
2.7587 -0.8202 -0.2443
2.8057 -0.9776 -0.1960
2.8667 -0.7037 -0.2689
2.9238 -0.6475 -0.2804
2.9800 -0.6168 -0.2847
3.0337 -0.6113 -0.2821
3.0887 -0.5931 -0.2830
3.1437 -0.5750 -0.2839
3.1832 -0.6348 -0.2638
3.1885 -0.8333 -0.2071
3.2389 -0.8065 -0.2108
3.2814 -0.8117 -0.2060
3.3202 -0.8262 -0.1988
3.3702 -0.8007 -0.2022
3.4139 -0.7954 -0.2003
3.4643 -0.7697 -0.2037
3.5075 -0.7645 -0.2018
3.5420 -0.7804 -0.1946
3.5961 -0.8385 -0.1739
0.9887 -1.4064 -0.2730
1.0505 -1.3971 -0.2705
1.1211 -1.3959 -0.2647
1.1724 -1.3790 -0.2655
1.2572 -1.3932 -0.2537
1.2996 -1.3692 -0.2575
1.3575 -1.3602 -0.2552
1.4076 -1.3436 -0.2560
1.4647 -1.3349 -0.2538
1.5345 -1.3420 -0.2454
1.5836 -1.3258 -0.2462
1.6021 -1.2695 -0.2622
1.6584 -1.2610 -0.2599
1.7365 -1.2855 -0.2455
1.7699 -1.2453 -0.2551
1.8089 -1.2114 -0.2623
1.8638 -1.2033 -0.2600
1.9137 -1.1869 -0.2608
1.9725 -1.1886 -0.2551
2.0334 -1.1976 -0.2470
2.0927 -1.2072 -0.2388
2.1339 -1.1745 -0.2454
2.1727 -1.1316 -0.2554
2.2218 -1.1155 -0.2562
2.2685 -1.0910 -0.2597
2.3104 -1.0461 -0.2701
2.3627 -1.0389 -0.2678
2.4181 -1.0507 -0.2592
2.4733 -1.0717 -0.2479
2.5227 -1.0655 -0.2455
2.5705 -1.0497 -0.2462
2.6168 -1.0154 -0.2529
2.6645 -0.9896 -0.2568
2.7133 -0.9835 -0.2544
2.7616 -0.9867 -0.2492
2.8088 -0.9892 -0.2443
2.8604 -0.8959 -0.2690
2.9115 -0.8580 -0.2764
2.9601 -0.8530 -0.2737
3.0084 -0.8471 -0.2713
3.0662 -0.7759 -0.2885
3.1148 -0.7709 -0.2858
3.1564 -0.7984 -0.2736
3.1872 -0.8645 -0.2502
3.2345 -0.8489 -0.2510
3.2845 -0.8234 -0.2546
3.3411 -0.7766 -0.2642
3.3795 -0.7921 -0.2561
3.4203 -0.7967 -0.2510
3.4601 -0.8017 -0.2460
3.5183 -0.7554 -0.2554
3.5784 -0.7074 -0.2651
3.6356 -0.6695 -0.2720
3.6842 -0.6535 -0.2727
3.7171 -0.6717 -0.2642
3.7395 -0.7095 -0.2504
1.2890 -1.7810 -0.1736
1.2829 -1.7351 -0.1899
1.2208 -1.6449 -0.2268
1.3399 -1.6884 -0.2004
1.2664 -1.5282 -0.2624
1.2910 -1.4932 -0.2720
1.3457 -1.4841 -0.2697
1.4068 -1.4819 -0.2645
1.4603 -1.4732 -0.2623
1.5069 -1.4579 -0.2630
1.5535 -1.4425 -0.2638
1.6120 -1.4412 -0.2585
1.6466 -1.4118 -0.2652
1.6877 -1.3893 -0.2689
1.7813 -1.3585 -0.2704
1.8515 -1.3792 -0.2565
1.8840 -1.3426 -0.2659
1.9218 -1.3122 -0.2726
1.9884 -1.3341 -0.2586
2.1253 -1.2889 -0.2608
2.1590 -1.2430 -0.2732
2.2055 -1.2276 -0.2740
2.2573 -1.2285 -0.2686
2.3516 -1.2064 -0.2670
2.3956 -1.1829 -0.2708
2.4433 -1.1761 -0.2685
2.4904 -1.1686 -0.2665
2.5817 -1.1385 -0.2679
2.6247 -1.0894 -0.2805
2.6730 -1.1084 -0.2693
2.7179 -1.0587 -0.2820
2.7644 -1.0613 -0.2765
2.8105 -1.0462 -0.2773
2.8566 -1.0310 -0.2780
2.9042 -0.9973 -0.2849
2.9478 -1.0099 -0.2763
2.9986 -0.9572 -0.2894
3.0439 -0.9513 -0.2871
3.0888 -0.9454 -0.2847
3.1351 -0.9302 -0.2854
3.1814 -0.9149 -0.2861
3.2253 -0.9094 -0.2837
3.2768 -0.8745 -0.2907
3.3234 -0.8591 -0.2914
3.3668 -0.8538 -0.2890
3.4131 -0.8385 -0.2898
3.4522 -0.8436 -0.2842
3.5136 -0.7875 -0.2975
3.5480 -0.8030 -0.2888
3.5985 -0.7774 -0.2927
3.6402 -0.7727 -0.2902
3.6771 -0.7774 -0.2850
3.7086 -0.7920 -0.2770
1.1821 -1.7585 -0.2381
1.1885 -1.7208 -0.2514
1.2521 -1.7216 -0.2443
1.2942 -1.7077 -0.2450
1.4165 -1.7555 -0.2141
1.4151 -1.7094 -0.2314
1.3949 -1.6448 -0.2576
1.4501 -1.6415 -0.2529
1.4926 -1.6275 -0.2536
1.5182 -1.5973 -0.2621
1.6307 -1.5968 -0.2502
1.6624 -1.5715 -0.2563
1.7241 -1.5799 -0.2465
1.7658 -1.5661 -0.2472
1.7947 -1.5358 -0.2554
1.8369 -1.5219 -0.2560
1.8870 -1.5192 -0.2517
1.9404 -1.5234 -0.2444
1.9742 -1.4974 -0.2504
2.0126 -1.4778 -0.2536
2.1022 -1.4621 -0.2499
2.1493 -1.4605 -0.2454
2.1930 -1.4530 -0.2435
2.2267 -1.4211 -0.2518
2.2682 -1.4074 -0.2525
2.3138 -1.4063 -0.2480
2.3622 -1.4180 -0.2384
2.3960 -1.3792 -0.2493
2.4328 -1.3462 -0.2576
2.4795 -1.3586 -0.2480
2.5194 -1.3385 -0.2512
2.5614 -1.3316 -0.2493
2.6017 -1.3114 -0.2525
2.6428 -1.2978 -0.2531
2.6843 -1.2911 -0.2512
2.7251 -1.2707 -0.2544
2.7662 -1.2512 -0.2573
2.8075 -1.2376 -0.2579
2.8497 -1.2088 -0.2641
2.8908 -1.2022 -0.2622
2.9323 -1.1885 -0.2628
2.9748 -1.1676 -0.2661
3.0176 -1.1466 -0.2693
3.0608 -1.1254 -0.2726
3.1062 -1.0956 -0.2788
3.1467 -1.0901 -0.2765
3.1870 -1.0838 -0.2746
3.2336 -1.0536 -0.2808
3.2833 -1.0154 -0.2897
3.3263 -1.0013 -0.2904
3.3694 -0.9871 -0.2910
3.4124 -0.9729 -0.2917
3.4490 -0.9757 -0.2868
3.4847 -0.9787 -0.2818
3.5382 -0.9383 -0.2911
3.5769 -0.9335 -0.2888
3.5442 -1.1501 -0.2116
3.5718 -1.1569 -0.2061
3.6668 -1.0325 -0.2422
1.2145 -1.8268 -0.2538
1.2473 -1.8091 -0.2571
1.2804 -1.7913 -0.2604
1.3340 -1.7874 -0.2557
1.3609 -1.7647 -0.2616
1.4308 -1.7741 -0.2497
1.4754 -1.7653 -0.2480
1.5095 -1.7482 -0.2509
1.5332 -1.7217 -0.2588
1.5620 -1.6985 -0.2648
1.6076 -1.6903 -0.2627
1.6528 -1.6823 -0.2607
1.6876 -1.6639 -0.2640
1.7187 -1.6409 -0.2696
1.7499 -1.6169 -0.2756
1.8077 -1.6243 -0.2659
1.8478 -1.6111 -0.2665
1.8762 -1.5821 -0.2748
1.9168 -1.5687 -0.2755
1.9679 -1.5716 -0.2684
2.0044 -1.5526 -0.2717
2.0964 -1.5478 -0.2628
2.1359 -1.5348 -0.2635
2.1680 -1.5056 -0.2715
2.2007 -1.4751 -0.2799
2.2569 -1.5018 -0.2626
2.3356 -1.4759 -0.2638
2.3780 -1.4737 -0.2597
2.4522 -1.4306 -0.2684
2.4906 -1.4120 -0.2714
2.6503 -1.3722 -0.2687
2.6902 -1.3708 -0.2646
2.7684 -1.3264 -0.2733
2.8076 -1.3203 -0.2712
2.8470 -1.3073 -0.2718
2.8853 -1.3065 -0.2677
2.9287 -1.2548 -0.2834
2.9668 -1.2550 -0.2788
3.0488 -1.2153 -0.2853
3.0888 -1.2021 -0.2859
3.1320 -1.1750 -0.2917
3.1636 -1.1961 -0.2795
3.2031 -1.1830 -0.2801
3.2404 -1.1776 -0.2780
3.2865 -1.1438 -0.2862
3.3290 -1.1229 -0.2896
3.3690 -1.1097 -0.2903
3.4008 -1.1179 -0.2832
3.4491 -1.0833 -0.2915
3.4857 -1.0781 -0.2893
3.5029 -1.1157 -0.2722
3.4916 -1.2098 -0.2356
3.5159 -1.2224 -0.2276
3.6893 -1.0041 -0.2953
1.3604 -1.8898 -0.2532
1.4024 -1.8808 -0.2517
1.4451 -1.8726 -0.2499
1.5068 -1.8786 -0.2394
1.5330 -1.8592 -0.2445
1.5459 -1.8286 -0.2561
1.5830 -1.8164 -0.2567
1.6103 -1.7957 -0.2622
1.6659 -1.7998 -0.2533
1.7233 -1.8072 -0.2428
1.7432 -1.7792 -0.2524
1.7763 -1.7634 -0.2550
1.8165 -1.7550 -0.2536
1.8532 -1.7429 -0.2541
1.8936 -1.7355 -0.2522
1.9332 -1.7273 -0.2507
1.9568 -1.6981 -0.2604
1.9998 -1.6946 -0.2564
2.0339 -1.6785 -0.2591
2.0841 -1.6883 -0.2484
2.1277 -1.6895 -0.2423
2.1612 -1.6736 -0.2450
2.1945 -1.6568 -0.2480
2.2241 -1.6314 -0.2553
2.2685 -1.6382 -0.2467
2.3060 -1.6308 -0.2451
2.3432 -1.6234 -0.2436
2.3787 -1.6117 -0.2441
2.4143 -1.6000 -0.2447
2.4486 -1.5837 -0.2473
2.4843 -1.5720 -0.2479
2.5208 -1.5648 -0.2464
2.5515 -1.5235 -0.2604
2.5906 -1.5321 -0.2517
2.6279 -1.5344 -0.2459
2.6618 -1.5028 -0.2553
2.6968 -1.4707 -0.2648
2.7335 -1.4694 -0.2607
2.7695 -1.4731 -0.2545
2.8056 -1.4554 -0.2576
2.8425 -1.4276 -0.2649
2.8784 -1.4216 -0.2630
2.9134 -1.4198 -0.2593
2.9471 -1.4243 -0.2530
2.9880 -1.3796 -0.2672
3.0222 -1.3791 -0.2631
3.0643 -1.3388 -0.2752
3.0984 -1.3383 -0.2710
3.1366 -1.3199 -0.2742
3.1747 -1.3025 -0.2769
3.2099 -1.2957 -0.2753
3.2426 -1.2957 -0.2712
3.2767 -1.2903 -0.2692
3.3154 -1.2717 -0.2723
3.3491 -1.2664 -0.2703
3.3956 -1.2297 -0.2803
3.4407 -1.1982 -0.2882
3.4609 -1.2237 -0.2746
3.4826 -1.2429 -0.2635
3.5182 -1.2312 -0.2641
3.5604 -1.2065 -0.2694
1.3668 -1.9692 -0.2578
1.3968 -1.9545 -0.2606
1.4370 -1.9461 -0.2589
1.4673 -1.9312 -0.2617
1.5073 -1.9229 -0.2600
1.5526 -1.9186 -0.2558
1.5910 -1.9098 -0.2546
1.6179 -1.8923 -0.2591
1.6435 -1.8731 -0.2644
1.6919 -1.8727 -0.2580
1.7267 -1.8612 -0.2585
1.7577 -1.8462 -0.2612
1.7963 -1.8383 -0.2596
1.8276 -1.8231 -0.2623
1.8790 -1.8294 -0.2523
2.0162 -1.7842 -0.2545
2.0506 -1.7729 -0.2550
2.2545 -1.7008 -0.2604
2.3234 -1.6781 -0.2615
2.3712 -1.7040 -0.2429
2.6344 -1.5853 -0.2619
2.6692 -1.5825 -0.2584
2.7030 -1.5675 -0.2607
2.7367 -1.5322 -0.2725
2.7713 -1.5305 -0.2685
2.8059 -1.5142 -0.2713
2.8402 -1.5078 -0.2696
2.8746 -1.4964 -0.2701
2.9428 -1.4788 -0.2690
2.9780 -1.4623 -0.2718
3.0115 -1.4561 -0.2700
3.0469 -1.4396 -0.2728
3.0839 -1.4178 -0.2779
3.1211 -1.3968 -0.2825
3.1518 -1.4002 -0.2767
3.1864 -1.3888 -0.2773
3.2210 -1.3774 -0.2778
3.2609 -1.3507 -0.2847
3.2922 -1.3491 -0.2812
3.3287 -1.3332 -0.2835
3.3658 -1.3161 -0.2864
3.4008 -1.3046 -0.2869
3.4331 -1.2988 -0.2852
3.4658 -1.2919 -0.2839
3.4948 -1.2920 -0.2798
3.5322 -1.2748 -0.2827
3.5637 -1.2693 -0.2809
1.4875 -2.0167 -0.2569
1.5255 -2.0090 -0.2551
1.5749 -2.0090 -0.2477
1.6072 -1.9983 -0.2483
1.6433 -1.9903 -0.2469
1.6639 -1.9710 -0.2534
1.6852 -1.9515 -0.2600
1.7511 -1.9298 -0.2610
1.7841 -1.9189 -0.2615
1.8239 -1.9144 -0.2578
1.8691 -1.9159 -0.2504
1.9049 -1.9089 -0.2486
1.9336 -1.8946 -0.2514
1.9692 -1.8877 -0.2496
2.0063 -1.8831 -0.2464
2.0382 -1.8726 -0.2469
2.0770 -1.8714 -0.2417
2.0999 -1.8485 -0.2497
2.1381 -1.8474 -0.2446
2.1698 -1.8369 -0.2451
2.1997 -1.8232 -0.2475
2.2368 -1.8226 -0.2423
2.2633 -1.8023 -0.2485
2.2951 -1.7918 -0.2490
2.3298 -1.7881 -0.2457
2.3587 -1.7708 -0.2500
2.3868 -1.7500 -0.2561
2.4223 -1.7499 -0.2510
2.4541 -1.7394 -0.2515
2.4850 -1.7253 -0.2538
2.5202 -1.7291 -0.2468
2.5516 -1.7188 -0.2472
2.5825 -1.7047 -0.2496
2.6127 -1.6833 -0.2558
2.6446 -1.6727 -0.2563
2.6765 -1.6622 -0.2568
2.7081 -1.6441 -0.2612
2.7404 -1.6450 -0.2559
2.7722 -1.6384 -0.2545
2.8040 -1.6240 -0.2569
2.8364 -1.6057 -0.2612
2.8684 -1.5951 -0.2617
2.8999 -1.5886 -0.2603
2.9343 -1.5609 -0.2690
2.9660 -1.5543 -0.2676
2.9957 -1.5570 -0.2618
3.0267 -1.5507 -0.2604
3.0565 -1.5485 -0.2570
3.0892 -1.5339 -0.2595
3.1246 -1.5107 -0.2657
3.1653 -1.4723 -0.2788
3.1918 -1.4799 -0.2711
3.2241 -1.4692 -0.2716
3.2886 -1.4480 -0.2726
3.3507 -1.4323 -0.2712
3.3766 -1.4353 -0.2659
3.4062 -1.4294 -0.2644
3.4574 -1.3798 -0.2815
3.4846 -1.3795 -0.2776
1.5683 -2.1000 -0.2383
1.5707 -2.0734 -0.2519
1.5976 -2.0607 -0.2544
1.6217 -2.0461 -0.2583
1.6595 -2.0403 -0.2554
1.6978 -2.0353 -0.2519
1.7214 -2.0199 -0.2563
1.7523 -2.0097 -0.2568
1.7799 -1.9968 -0.2593
1.8053 -1.9818 -0.2632
1.8452 -1.9791 -0.2583
1.8648 -1.9583 -0.2661
1.9071 -1.9587 -0.2592
1.9352 -1.9456 -0.2617
1.9663 -1.9354 -0.2622
2.0000 -1.9281 -0.2607
2.0334 -1.9209 -0.2592
2.0667 -1.9137 -0.2577
2.0951 -1.9005 -0.2601
2.1216 -1.8842 -0.2646
2.1857 -1.8669 -0.2636
2.2493 -1.8497 -0.2626
2.3433 -1.8225 -0.2620
2.3741 -1.8124 -0.2625
2.5631 -1.7759 -0.2518
2.6511 -1.7249 -0.2648
2.7734 -1.6989 -0.2591
2.8039 -1.6822 -0.2631
2.8357 -1.6526 -0.2737
2.8651 -1.6582 -0.2661
2.8976 -1.6322 -0.2747
2.9280 -1.6260 -0.2732
2.9602 -1.6078 -0.2777
2.9913 -1.5975 -0.2782
3.0214 -1.5914 -0.2766
3.0833 -1.5710 -0.2776
3.1155 -1.5566 -0.2801
3.1439 -1.5548 -0.2765
3.1718 -1.5533 -0.2729
3.2040 -1.5388 -0.2754
3.2690 -1.5098 -0.2805
3.2981 -1.5040 -0.2789
3.3329 -1.4849 -0.2835
3.3656 -1.4713 -0.2855
3.3951 -1.4644 -0.2845
3.4192 -1.4679 -0.2788
3.4548 -1.4486 -0.2834
1.6155 -2.1332 -0.2469
1.6475 -2.1254 -0.2458
1.6635 -2.1079 -0.2530
1.6995 -2.1026 -0.2498
1.7182 -2.0861 -0.2559
1.7539 -2.0809 -0.2528
1.7956 -2.0804 -0.2460
1.8304 -2.0756 -0.2428
1.8590 -2.0661 -0.2432
1.8706 -2.0424 -0.2546
1.9053 -2.0376 -0.2514
1.9524 -2.0448 -0.2394
1.9808 -2.0355 -0.2398
2.0042 -2.0211 -0.2439
2.0374 -2.0168 -0.2407
2.0501 -1.9899 -0.2537
2.0897 -1.9929 -0.2452
2.1183 -1.9835 -0.2457
2.1371 -1.9612 -0.2550
2.1737 -1.9624 -0.2482
2.2038 -1.9553 -0.2470
2.2289 -1.9404 -0.2511
2.2609 -1.9365 -0.2479
2.2894 -1.9271 -0.2484
2.3150 -1.9120 -0.2525
2.3464 -1.9083 -0.2493
2.3760 -1.9014 -0.2481
2.4025 -1.8870 -0.2517
2.4320 -1.8801 -0.2506
2.4578 -1.8622 -0.2563
2.4873 -1.8553 -0.2552
2.5160 -1.8458 -0.2556
2.5467 -1.8452 -0.2508
2.5734 -1.8269 -0.2565
2.6031 -1.8237 -0.2533
2.6313 -1.8116 -0.2553
2.6596 -1.7985 -0.2579
2.6889 -1.7983 -0.2530
2.7170 -1.7796 -0.2588
2.7458 -1.7767 -0.2555
2.7741 -1.7797 -0.2490
2.8027 -1.7608 -0.2548
2.8320 -1.7388 -0.2622
2.8601 -1.7362 -0.2589
2.8887 -1.7267 -0.2593
2.9190 -1.7063 -0.2657
2.9454 -1.7109 -0.2586
2.9768 -1.6873 -0.2666
3.0025 -1.6921 -0.2595
3.0292 -1.6899 -0.2562
3.0615 -1.6660 -0.2642
3.0880 -1.6639 -0.2608
3.1176 -1.6513 -0.2629
3.1462 -1.6419 -0.2634
3.1748 -1.6324 -0.2638
3.2151 -1.5927 -0.2793
3.2369 -1.6016 -0.2706
3.2705 -1.5810 -0.2765
3.2996 -1.5714 -0.2769
3.3199 -1.5808 -0.2682
3.3447 -1.5793 -0.2649
3.3715 -1.5733 -0.2637
3.4120 -1.5410 -0.2750
1.6352 -2.1504 -0.2673
1.7082 -2.1413 -0.2595
1.7402 -2.1346 -0.2577
1.7616 -2.1209 -0.2620
1.7897 -2.1117 -0.2624
1.8206 -2.1043 -0.2612
1.8625 -2.1055 -0.2529
1.8851 -2.0924 -0.2566
1.9081 -2.0792 -0.2603
1.9330 -2.0673 -0.2630
1.9588 -2.0559 -0.2650
2.0173 -2.0395 -0.2643
2.0501 -2.0352 -0.2609
2.0799 -2.0282 -0.2597
2.1040 -2.0146 -0.2634
2.1356 -2.0099 -0.2605
2.1651 -2.0030 -0.2593
2.2273 -1.9947 -0.2530
2.3161 -1.9795 -0.2460
2.3467 -1.9779 -0.2415
2.3724 -1.9666 -0.2435
2.4231 -1.9414 -0.2494
2.4474 -1.9249 -0.2548
2.4822 -1.9389 -0.2402
2.5036 -1.9121 -0.2523
2.5866 -1.8932 -0.2486
2.6663 -1.8556 -0.2565
2.6946 -1.8632 -0.2469
2.7755 -1.8046 -0.2672
2.8026 -1.8079 -0.2603
2.8291 -1.8104 -0.2540
2.8570 -1.7928 -0.2595
2.8846 -1.7808 -0.2616
2.9143 -1.7560 -0.2710
2.9421 -1.7469 -0.2715
2.9686 -1.7438 -0.2685
2.9962 -1.7347 -0.2689
3.0245 -1.7225 -0.2711
3.0539 -1.7072 -0.2749
3.0789 -1.7074 -0.2702
3.1130 -1.6783 -0.2814
3.1444 -1.6595 -0.2869
3.1664 -1.6673 -0.2783
3.1943 -1.6581 -0.2788
3.2236 -1.6456 -0.2809
3.2549 -1.6287 -0.2853
3.2845 -1.6161 -0.2874
3.2975 -1.6391 -0.2714
3.3201 -1.6401 -0.2667
3.3490 -1.6278 -0.2689
3.4195 -1.5810 -0.2840
1.7442 -2.1939 -0.2529
1.7568 -2.1767 -0.2613
1.7923 -2.1733 -0.2566
1.8189 -2.1646 -0.2570
1.8345 -2.1482 -0.2643
1.8721 -2.1470 -0.2578
1.9004 -2.1396 -0.2571
1.9270 -2.1308 -0.2575
1.9535 -2.1221 -0.2579
1.9824 -2.1154 -0.2566
2.0089 -2.1066 -0.2570
2.0397 -2.1021 -0.2540
2.0737 -2.1011 -0.2481
2.0964 -2.0890 -0.2514
2.1258 -2.0840 -0.2489
2.1536 -2.0776 -0.2476
2.1748 -2.0631 -0.2526
2.2072 -2.0627 -0.2466
2.2271 -2.0459 -0.2534
2.2533 -2.0373 -0.2538
2.2833 -2.0348 -0.2496
2.3129 -2.0325 -0.2454
2.3378 -2.0225 -0.2469
2.3578 -2.0028 -0.2555
2.3859 -1.9982 -0.2530
2.4130 -1.9921 -0.2516
2.4379 -1.9811 -0.2538
2.4657 -1.9775 -0.2507
2.4924 -1.9715 -0.2493
2.5226 -1.9783 -0.2393
2.5461 -1.9631 -0.2443
2.5680 -1.9382 -0.2558
2.5955 -1.9375 -0.2510
2.6196 -1.9184 -0.2584
2.6464 -1.9152 -0.2553
2.6728 -1.9120 -0.2522
2.6987 -1.9054 -0.2514
2.7243 -1.8951 -0.2530
2.7501 -1.8810 -0.2569
2.7761 -1.8696 -0.2591
2.8018 -1.8667 -0.2559
2.8281 -1.8525 -0.2599
2.8541 -1.8439 -0.2603
2.8794 -1.8412 -0.2572
2.9057 -1.8297 -0.2593
2.9305 -1.8271 -0.2562
2.9553 -1.8236 -0.2536
2.9853 -1.7960 -0.2653
3.0086 -1.7986 -0.2592
3.0411 -1.7664 -0.2732
3.0647 -1.7670 -0.2683
3.0872 -1.7699 -0.2622
3.1153 -1.7550 -0.2661
3.1414 -1.7464 -0.2665
3.1734 -1.7228 -0.2752
3.1909 -1.7357 -0.2638
3.2249 -1.7086 -0.2743
3.2458 -1.7120 -0.2682
3.2761 -1.6945 -0.2733
3.2930 -1.7048 -0.2636
3.3223 -1.6895 -0.2676
3.3447 -1.6878 -0.2644
3.3686 -1.6827 -0.2630
1.7634 -2.2335 -0.2544
1.7857 -2.2234 -0.2566
1.8082 -2.2132 -0.2588
1.8317 -2.2036 -0.2604
1.8648 -2.2001 -0.2560
1.8920 -2.1930 -0.2552
1.9199 -2.1865 -0.2538
1.9451 -2.1782 -0.2542
1.9703 -2.1699 -0.2546
1.9931 -2.1596 -0.2568
2.0247 -2.1566 -0.2524
2.0497 -2.1484 -0.2528
2.0908 -2.1228 -0.2614
2.1216 -2.1200 -0.2570
2.1436 -2.1082 -0.2604
2.1751 -2.1070 -0.2547
2.2002 -2.0988 -0.2551
2.2225 -2.0868 -0.2585
2.2739 -2.0717 -0.2581
2.3851 -2.0591 -0.2439
2.4065 -2.0446 -0.2491
2.5783 -1.9834 -0.2549
2.6780 -1.9552 -0.2534
2.7520 -1.9335 -0.2527
2.7772 -1.9012 -0.2691
2.8013 -1.9145 -0.2553
2.8507 -1.8982 -0.2561
2.9024 -1.8673 -0.2661
2.9284 -1.8541 -0.2696
2.9519 -1.8538 -0.2650
2.9769 -1.8455 -0.2654
3.0014 -1.8393 -0.2646
3.0330 -1.8076 -0.2792
3.0585 -1.7992 -0.2796
3.0789 -1.8063 -0.2707
3.1067 -1.7907 -0.2754
3.1344 -1.7760 -0.2796
3.1877 -1.7538 -0.2835
3.3226 -1.7381 -0.2665
1.8089 -2.2638 -0.2541
1.8433 -2.2617 -0.2482
1.8673 -2.2538 -0.2486
1.8893 -2.2447 -0.2502
1.9086 -2.2337 -0.2537
1.9328 -2.2257 -0.2541
1.9614 -2.2209 -0.2513
1.9751 -2.2054 -0.2593
2.0027 -2.1999 -0.2571
2.0366 -2.1998 -0.2500
2.0628 -2.1939 -0.2484
2.0897 -2.1887 -0.2463
2.1069 -2.1748 -0.2523
2.1308 -2.1669 -0.2527
2.1548 -2.1590 -0.2531
2.1819 -2.1546 -0.2503
2.2070 -2.1482 -0.2494
2.2266 -2.1353 -0.2542
2.2495 -2.1260 -0.2559
2.2783 -2.1247 -0.2505
2.3021 -2.1169 -0.2509
2.3268 -2.1106 -0.2500
2.3528 -2.1066 -0.2472
2.3742 -2.0949 -0.2507
2.4008 -2.0926 -0.2467
2.4243 -2.0849 -0.2470
2.4447 -2.0699 -0.2531
2.4714 -2.0693 -0.2478
2.4922 -2.0542 -0.2539
2.5179 -2.0522 -0.2498
2.5446 -2.0553 -0.2419
2.5646 -2.0349 -0.2518
2.5877 -2.0246 -0.2541
2.6114 -2.0168 -0.2545
2.6348 -2.0072 -0.2561
2.6586 -1.9994 -0.2565
2.6833 -2.0013 -0.2498
2.7068 -1.9936 -0.2502
2.7302 -1.9859 -0.2505
2.7537 -1.9680 -0.2580
2.7775 -1.9602 -0.2583
2.8011 -1.9542 -0.2574
2.8241 -1.9549 -0.2520
2.8471 -1.9519 -0.2492
2.8734 -1.9221 -0.2643
2.8974 -1.9142 -0.2647
2.9214 -1.9063 -0.2651
2.9457 -1.8964 -0.2667
2.9676 -1.8975 -0.2613
2.9901 -1.8947 -0.2584
3.0172 -1.8747 -0.2666
3.0396 -1.8720 -0.2637
3.0634 -1.8641 -0.2641
3.0898 -1.8490 -0.2690
3.1138 -1.8411 -0.2694
3.1348 -1.8405 -0.2652
3.1555 -1.8402 -0.2610
3.1858 -1.8173 -0.2705
3.2043 -1.8213 -0.2637
3.2253 -1.8190 -0.2608
3.2556 -1.7980 -0.2690
3.2795 -1.7901 -0.2694
3.2961 -1.7957 -0.2619
3.3184 -1.7901 -0.2610
1.8449 -2.2885 -0.2573
1.8723 -2.2831 -0.2551
1.9005 -2.2784 -0.2522
1.9188 -2.2678 -0.2558
1.9402 -2.2589 -0.2575
1.9598 -2.2488 -0.2605
1.9850 -2.2423 -0.2595
2.0160 -2.2403 -0.2540
2.0350 -2.2295 -0.2576
2.0494 -2.2147 -0.2652
2.0838 -2.2161 -0.2564
2.1129 -2.2138 -0.2515
2.1359 -2.2063 -0.2518
2.1851 -2.1946 -0.2493
2.2008 -2.1794 -0.2569
2.2239 -2.1718 -0.2572
2.2459 -2.1627 -0.2589
2.2819 -2.1718 -0.2441
2.3023 -2.1614 -0.2471
2.3457 -2.1435 -0.2504
2.3685 -2.1360 -0.2508
2.5304 -2.0917 -0.2466
2.5534 -2.0860 -0.2457
2.5741 -2.0718 -0.2513
2.6197 -2.0586 -0.2507
2.6420 -2.0494 -0.2524
2.6662 -2.0542 -0.2434
2.6891 -2.0540 -0.2384
2.7328 -2.0250 -0.2498
2.7553 -2.0158 -0.2515
2.7779 -2.0065 -0.2532
2.8006 -1.9972 -0.2549
2.8680 -1.9786 -0.2533
2.8939 -1.9509 -0.2677
2.9170 -1.9433 -0.2681
2.9405 -1.9337 -0.2698
2.9658 -1.9172 -0.2762
2.9852 -1.9245 -0.2665
3.0082 -1.9169 -0.2668
3.0318 -1.9073 -0.2685
3.0535 -1.9038 -0.2662
3.1886 -1.8638 -0.2650
3.2104 -1.8585 -0.2640
3.2342 -1.8488 -0.2657
3.2635 -1.8291 -0.2735
3.2878 -1.8193 -0.2752
3.3142 -1.8060 -0.2789
1.8257 -2.3408 -0.2502
1.8523 -2.3357 -0.2479
1.8722 -2.3273 -0.2496
1.8964 -2.3212 -0.2486
1.9164 -2.3127 -0.2503
1.9405 -2.3066 -0.2493
1.9626 -2.2993 -0.2496
1.9865 -2.2933 -0.2486
2.0103 -2.2872 -0.2476
2.0270 -2.2763 -0.2520
2.0457 -2.2665 -0.2551
2.0679 -2.2592 -0.2554
2.0933 -2.2544 -0.2530
2.1170 -2.2484 -0.2520
2.1376 -2.2398 -0.2537
2.1698 -2.2419 -0.2445
2.1874 -2.2307 -0.2489
2.2012 -2.2152 -0.2575
2.2286 -2.2135 -0.2524
2.2518 -2.2076 -0.2513
2.2750 -2.2018 -0.2503
2.2957 -2.1931 -0.2520
2.3155 -2.1830 -0.2551
2.3406 -2.1801 -0.2513
2.3625 -2.1729 -0.2517
2.3881 -2.1717 -0.2465
2.4089 -2.1631 -0.2482
2.4314 -2.1575 -0.2472
2.4501 -2.1441 -0.2530
2.4720 -2.1368 -0.2534
2.4927 -2.1264 -0.2565
2.5158 -2.1224 -0.2541
2.5399 -2.1217 -0.2489
2.5596 -2.1080 -0.2548
2.5807 -2.0974 -0.2579
2.6046 -2.0986 -0.2513
2.6253 -2.0863 -0.2558
2.6480 -2.0842 -0.2520
2.6700 -2.0788 -0.2509
2.6915 -2.0699 -0.2526
2.7136 -2.0681 -0.2488
2.7349 -2.0538 -0.2547
2.7567 -2.0466 -0.2551
2.7786 -2.0358 -0.2582
2.8004 -2.0304 -0.2571
2.8223 -2.0232 -0.2575
2.8437 -2.0198 -0.2550
2.8657 -2.0107 -0.2568
2.8894 -1.9920 -0.2655
2.9119 -1.9828 -0.2672
2.9349 -1.9716 -0.2704
2.9538 -1.9780 -0.2609
2.9789 -1.9589 -0.2697
3.0000 -1.9556 -0.2672
3.0221 -1.9483 -0.2675
3.0449 -1.9390 -0.2693
3.0641 -1.9399 -0.2640
3.0836 -1.9389 -0.2602
3.1071 -1.9275 -0.2633
3.1327 -1.9118 -0.2693
3.1567 -1.9003 -0.2724
3.1728 -1.9058 -0.2643
3.1926 -1.9029 -0.2619
3.2166 -1.8914 -0.2650
3.2421 -1.8776 -0.2696
3.2617 -1.8748 -0.2671
3.2810 -1.8720 -0.2646
1.9381 -2.3294 -0.2587
1.9558 -2.3200 -0.2619
2.0187 -2.3181 -0.2477
2.0326 -2.3064 -0.2537
2.0592 -2.3030 -0.2498
2.0744 -2.2917 -0.2551
2.0875 -2.2784 -0.2625
2.1156 -2.2763 -0.2572
2.1293 -2.2628 -0.2646
2.1569 -2.2609 -0.2593
2.1798 -2.2552 -0.2582
2.2012 -2.2481 -0.2585
2.2213 -2.2397 -0.2603
2.2857 -2.2184 -0.2613
2.3039 -2.2071 -0.2659
2.4012 -2.1965 -0.2501
2.4448 -2.1857 -0.2478
2.5052 -2.1595 -0.2538
2.5272 -2.1550 -0.2520
2.5487 -2.1497 -0.2509
2.5687 -2.1395 -0.2541
2.5897 -2.1326 -0.2544
2.6106 -2.1248 -0.2555
2.6318 -2.1187 -0.2551
2.6540 -2.1195 -0.2489
2.6745 -2.1100 -0.2514
2.6956 -2.1049 -0.2503
2.7370 -2.0831 -0.2575
2.7581 -2.0771 -0.2571
2.7793 -2.0638 -0.2625
2.8001 -2.0651 -0.2563
2.8212 -2.0563 -0.2581
2.8858 -2.0269 -0.2656
2.9260 -2.0235 -0.2583
2.9693 -2.0048 -0.2625
2.9922 -1.9918 -0.2672
3.0580 -1.9657 -0.2719
3.0742 -1.9720 -0.2627
3.1000 -1.9536 -0.2711
3.1232 -1.9424 -0.2743
3.1403 -1.9448 -0.2681
3.1779 -1.9405 -0.2622
3.2000 -1.9314 -0.2640
3.2452 -1.9120 -0.2683
1.9206 -2.3783 -0.2490
1.9421 -2.3721 -0.2486
1.9678 -2.3681 -0.2452
1.9870 -2.3609 -0.2463
2.0074 -2.3542 -0.2466
2.0258 -2.3463 -0.2484
2.0527 -2.3437 -0.2435
2.0665 -2.3329 -0.2490
2.0895 -2.3280 -0.2471
2.1090 -2.3207 -0.2482
2.1260 -2.3115 -0.2514
2.1409 -2.3004 -0.2569
2.1630 -2.2949 -0.2558
2.1866 -2.2907 -0.2531
2.2092 -2.2859 -0.2512
2.2275 -2.2772 -0.2538
2.2486 -2.2711 -0.2533
2.2684 -2.2637 -0.2544
2.2919 -2.2604 -0.2510
2.3111 -2.2523 -0.2528
2.3353 -2.2505 -0.2479
2.3502 -2.2367 -0.2557
2.3712 -2.2307 -0.2553
2.3926 -2.2254 -0.2541
2.4138 -2.2202 -0.2529
2.4325 -2.2105 -0.2562
2.4525 -2.2030 -0.2573
2.4759 -2.2024 -0.2516
2.4951 -2.1934 -0.2542
2.5155 -2.1867 -0.2545
2.5372 -2.1840 -0.2511
2.5551 -2.1701 -0.2581
2.5783 -2.1731 -0.2495
2.5974 -2.1624 -0.2535
2.6184 -2.1590 -0.2509
2.6390 -2.1549 -0.2489
2.6588 -2.1466 -0.2507
2.6784 -2.1357 -0.2548
2.6990 -2.1333 -0.2514
2.7188 -2.1206 -0.2569
2.7390 -2.1139 -0.2573
2.7594 -2.0965 -0.2666
2.7795 -2.1059 -0.2534
2.7996 -2.0993 -0.2537
2.8192 -2.0982 -0.2495
2.8603 -2.0775 -0.2561
2.8805 -2.0709 -0.2565
2.9010 -2.0623 -0.2583
2.9217 -2.0537 -0.2601
2.9445 -2.0373 -0.2680
2.9645 -2.0325 -0.2668
2.9871 -2.0188 -0.2724
3.0032 -2.0259 -0.2621
3.0236 -2.0192 -0.2625
3.0458 -2.0075 -0.2665
3.0642 -2.0058 -0.2631
3.0854 -1.9971 -0.2649
3.1058 -1.9904 -0.2652
3.1252 -1.9857 -0.2640
3.1440 -1.9822 -0.2621
3.1696 -1.9649 -0.2700
3.1861 -1.9656 -0.2650
3.2088 -1.9546 -0.2683
3.2262 -1.9533 -0.2649
3.2439 -1.9511 -0.2621
1.9416 -2.3928 -0.2562
2.0116 -2.3785 -0.2495
2.0283 -2.3704 -0.2521
2.0443 -2.3616 -0.2555
2.0688 -2.3579 -0.2520
2.0841 -2.3485 -0.2561
2.1014 -2.3401 -0.2587
2.1273 -2.3377 -0.2536
2.1430 -2.3282 -0.2578
2.1637 -2.3222 -0.2573
2.1867 -2.3182 -0.2546
2.2522 -2.3045 -0.2486
2.3103 -2.2845 -0.2503
2.3322 -2.2808 -0.2475
2.3516 -2.2744 -0.2478
2.3690 -2.2651 -0.2512
2.3876 -2.2573 -0.2530
2.4086 -2.2530 -0.2510
2.4282 -2.2465 -0.2513
2.4490 -2.2423 -0.2493
2.4720 -2.2427 -0.2427
2.4898 -2.2333 -0.2461
2.5074 -2.2231 -0.2503
2.5294 -2.2229 -0.2444
2.5452 -2.2071 -0.2540
2.5864 -2.2014 -0.2476
2.6060 -2.1959 -0.2471
2.6240 -2.1837 -0.2529
2.6441 -2.1806 -0.2501
2.6630 -2.1709 -0.2535
2.6829 -2.1678 -0.2507
2.7025 -2.1640 -0.2486
2.7216 -2.1542 -0.2520
2.7410 -2.1452 -0.2547
2.7605 -2.1370 -0.2565
2.7796 -2.1430 -0.2460
2.7989 -2.1349 -0.2478
2.8190 -2.1195 -0.2559
2.8374 -2.1222 -0.2484
2.8780 -2.0974 -0.2592
2.9387 -2.0703 -0.2663
2.9546 -2.0774 -0.2557
2.9732 -2.0739 -0.2536
2.9931 -2.0656 -0.2555
3.0150 -2.0522 -0.2613
3.0334 -2.0488 -0.2592
3.0529 -2.0423 -0.2596
3.0724 -2.0359 -0.2599
3.0919 -2.0295 -0.2602
3.1350 -2.0082 -0.2671
3.1756 -1.9931 -0.2692
3.1941 -1.9887 -0.2680
2.5551 -3.7112 -0.2474
2.5738 -3.7069 -0.2493
2.6128 -3.6942 -0.2498
2.6330 -3.6850 -0.2479
2.6905 -3.6697 -0.2518
2.7097 -3.6652 -0.2536
2.7306 -3.6480 -0.2447
2.7495 -3.6453 -0.2481
2.7687 -3.6416 -0.2507
2.7884 -3.6265 -0.2433
2.8076 -3.6229 -0.2459
2.8268 -3.6175 -0.2469
2.8461 -3.6112 -0.2472
2.9027 -3.5850 -0.2412
2.9227 -3.5837 -0.2461
2.9422 -3.5790 -0.2479
2.9802 -3.5649 -0.2469
2.9999 -3.5602 -0.2488
3.0186 -3.5524 -0.2475
3.0365 -3.5431 -0.2447
3.0580 -3.5422 -0.2504
3.0758 -3.5329 -0.2476
3.0965 -3.5296 -0.2510
3.1158 -3.5233 -0.2513
3.1332 -3.5142 -0.2485
3.1529 -3.5086 -0.2495
3.1730 -3.5038 -0.2514
3.1907 -3.4954 -0.2493
3.2104 -3.4899 -0.2504
3.2279 -3.4816 -0.2484
3.2500 -3.4787 -0.2525
3.2692 -3.4725 -0.2528
3.2865 -3.4642 -0.2508
3.3077 -3.4599 -0.2534
3.3269 -3.4537 -0.2537
3.3469 -3.4480 -0.2548
3.3654 -3.4411 -0.2543
3.3870 -3.4367 -0.2569
3.4022 -3.4274 -0.2533
3.4189 -3.4194 -0.2512
3.4406 -3.4149 -0.2539
3.4598 -3.4086 -0.2542
3.4817 -3.4041 -0.2568
3.4972 -3.3956 -0.2540
3.5222 -3.3926 -0.2589
3.5365 -3.3836 -0.2553
3.5526 -3.3758 -0.2533
3.5707 -3.3690 -0.2528
3.5908 -3.3633 -0.2538
3.6121 -3.3581 -0.2557
3.6279 -3.3504 -0.2536
3.6504 -3.3456 -0.2563
2.3981 -3.8057 -0.2572
2.4402 -3.7903 -0.2563
2.4611 -3.7826 -0.2559
2.4825 -3.7739 -0.2548
2.5021 -3.7692 -0.2565
2.5233 -3.7606 -0.2554
2.5462 -3.7470 -0.2505
2.5658 -3.7423 -0.2523
2.5861 -3.7357 -0.2526
2.6059 -3.7310 -0.2544
2.6260 -3.7254 -0.2554
2.6459 -3.7206 -0.2572
2.6673 -3.7093 -0.2538
2.6879 -3.7008 -0.2527
2.7081 -3.6942 -0.2530
2.7486 -3.6810 -0.2536
2.7692 -3.6700 -0.2502
2.7893 -3.6616 -0.2490
2.8697 -3.6372 -0.2517
2.8900 -3.6323 -0.2535
2.9102 -3.6258 -0.2538
2.9314 -3.6250 -0.2593
2.9501 -3.6110 -0.2529
2.9686 -3.5980 -0.2473
2.9908 -3.5995 -0.2550
3.0099 -3.5898 -0.2523
3.0320 -3.5887 -0.2579
3.0501 -3.5767 -0.2529
3.0732 -3.5770 -0.2600
3.0891 -3.5614 -0.2513
3.1122 -3.5608 -0.2576
3.1332 -3.5557 -0.2594
3.1526 -3.5476 -0.2582
3.1905 -3.5309 -0.2551
3.2126 -3.5272 -0.2584
3.2289 -3.5158 -0.2534
3.2460 -3.5058 -0.2500
3.2658 -3.4994 -0.2503
3.3274 -3.4819 -0.2534
3.3509 -3.4786 -0.2575
3.3761 -3.4765 -0.2630
3.3903 -3.4650 -0.2573
3.4071 -3.4560 -0.2546
3.4512 -3.4460 -0.2590
3.4712 -3.4394 -0.2593
3.4886 -3.4312 -0.2573
3.5286 -3.4181 -0.2579
3.5485 -3.4116 -0.2582
2.7080 -3.7144 -0.2438
2.7494 -3.7009 -0.2445
2.7703 -3.6906 -0.2419
2.7907 -3.6874 -0.2451
2.8114 -3.6807 -0.2454
2.8319 -3.6705 -0.2429
2.8940 -3.6538 -0.2466
2.9362 -3.6445 -0.2508
2.9560 -3.6336 -0.2476
2.9759 -3.6236 -0.2450
2.9976 -3.6209 -0.2489
3.0800 -3.5932 -0.2494
3.0992 -3.5834 -0.2469
3.1190 -3.5752 -0.2458
3.1391 -3.5678 -0.2453
3.1640 -3.5684 -0.2528
3.1834 -3.5595 -0.2510
3.2020 -3.5499 -0.2484
3.2215 -3.5418 -0.2473
3.2459 -3.5400 -0.2527
3.2637 -3.5298 -0.2494
3.2885 -3.5279 -0.2547
3.3080 -3.5198 -0.2536
3.3280 -3.5124 -0.2532
3.3473 -3.5043 -0.2520
3.3651 -3.4950 -0.2495
3.3871 -3.4896 -0.2512
3.4115 -3.4860 -0.2551
3.4321 -3.4793 -0.2555
3.4504 -3.4707 -0.2536
3.4881 -3.4549 -0.2513
3.5140 -3.4517 -0.2560
3.5310 -3.4427 -0.2534
3.5515 -3.4360 -0.2537
3.5721 -3.4293 -0.2540
3.5947 -3.4237 -0.2558
3.6132 -3.4159 -0.2546
3.6317 -3.4081 -0.2535
3.6522 -3.4014 -0.2538
3.6749 -3.3958 -0.2555
3.6932 -3.3881 -0.2544
3.7137 -3.3814 -0.2547
2.3473 -3.8897 -0.2572
2.3695 -3.8824 -0.2576
2.3947 -3.8689 -0.2538
2.4158 -3.8638 -0.2555
2.4406 -3.8504 -0.2518
2.4625 -3.8432 -0.2521
2.4837 -3.8381 -0.2538
2.5042 -3.8350 -0.2569
2.5270 -3.8258 -0.2558
2.5484 -3.8206 -0.2575
2.5710 -3.8114 -0.2565
2.5936 -3.8023 -0.2555
2.6156 -3.7951 -0.2558
2.6380 -3.7860 -0.2548
2.6607 -3.7751 -0.2524
2.6822 -3.7699 -0.2540
2.7038 -3.7646 -0.2557
2.7258 -3.7574 -0.2561
2.7477 -3.7503 -0.2564
2.8135 -3.7235 -0.2533
2.8355 -3.7217 -0.2577
2.8576 -3.7180 -0.2608
2.8792 -3.7057 -0.2570
2.9882 -3.6684 -0.2573
3.0119 -3.6678 -0.2631
3.0324 -3.6558 -0.2593
3.0542 -3.6486 -0.2596
3.0755 -3.6399 -0.2586
3.1410 -3.6186 -0.2596
3.1611 -3.6085 -0.2571
3.1828 -3.6014 -0.2575
3.1984 -3.5848 -0.2488
3.2177 -3.5749 -0.2463
3.2454 -3.5766 -0.2550
3.2697 -3.5731 -0.2588
3.2915 -3.5660 -0.2591
3.3132 -3.5589 -0.2594
3.3375 -3.5546 -0.2625
3.3566 -3.5448 -0.2601
3.3749 -3.5344 -0.2569
3.4015 -3.5319 -0.2621
3.4203 -3.5222 -0.2597
3.4405 -3.5139 -0.2586
3.4621 -3.5068 -0.2589
3.4870 -3.5023 -0.2620
3.5011 -3.4897 -0.2561
3.5243 -3.4839 -0.2578
3.5405 -3.4733 -0.2539
3.5813 -3.4582 -0.2532
3.6260 -3.4454 -0.2552
3.6515 -3.4407 -0.2583
3.6709 -3.4326 -0.2573
3.6945 -3.4267 -0.2590
3.7137 -3.4186 -0.2579
3.7352 -3.4116 -0.2582
2.4010 -3.9075 -0.2566
2.7033 -3.7901 -0.2473
2.7493 -3.7635 -0.2394
2.7713 -3.7599 -0.2424
2.8158 -3.7472 -0.2444
3.1051 -3.6511 -0.2474
3.1488 -3.6351 -0.2468
3.1676 -3.6218 -0.2418
3.1923 -3.6191 -0.2461
3.2173 -3.6164 -0.2504
3.2356 -3.6032 -0.2454
3.2588 -3.5975 -0.2471
3.2764 -3.5845 -0.2421
3.3042 -3.5845 -0.2491
3.3277 -3.5786 -0.2508
3.3486 -3.5700 -0.2498
3.3708 -3.5627 -0.2501
3.3972 -3.5595 -0.2545
3.4196 -3.5523 -0.2548
3.4442 -3.5469 -0.2571
3.4612 -3.5351 -0.2528
3.4818 -3.5266 -0.2518
3.5024 -3.5181 -0.2508
3.5246 -3.5109 -0.2511
3.5467 -3.5036 -0.2514
3.5670 -3.4952 -0.2504
3.5910 -3.4892 -0.2521
3.6112 -3.4808 -0.2511
3.6353 -3.4748 -0.2528
3.6574 -3.4676 -0.2531
3.6755 -3.4581 -0.2507
3.6975 -3.4509 -0.2511
3.7239 -3.4459 -0.2541
3.7438 -3.4376 -0.2531
3.7682 -3.4315 -0.2548
3.7903 -3.4243 -0.2551
2.3634 -3.9574 -0.2542
2.3873 -3.9496 -0.2545
2.4122 -3.9397 -0.2536
2.4373 -3.9288 -0.2521
2.4600 -3.9241 -0.2543
2.4838 -3.9163 -0.2547
2.5077 -3.9085 -0.2551
2.5316 -3.9007 -0.2554
2.5564 -3.8900 -0.2539
2.5794 -3.8852 -0.2561
2.6033 -3.8774 -0.2565
2.6272 -3.8696 -0.2569
2.6524 -3.8551 -0.2528
2.6761 -3.8473 -0.2532
2.6996 -3.8415 -0.2548
2.7233 -3.8338 -0.2551
2.7467 -3.8307 -0.2587
2.7714 -3.8081 -0.2489
2.7948 -3.8041 -0.2518
2.8183 -3.7901 -0.2477
2.8419 -3.7870 -0.2512
2.8654 -3.7793 -0.2516
2.8891 -3.7734 -0.2532
2.9127 -3.7657 -0.2536
2.9602 -3.7521 -0.2555
2.9848 -3.7486 -0.2591
3.0070 -3.7350 -0.2550
3.0301 -3.7257 -0.2541
3.0536 -3.7180 -0.2544
3.0771 -3.7103 -0.2548
3.0984 -3.6971 -0.2507
3.1266 -3.7005 -0.2599
3.1741 -3.6851 -0.2607
3.1909 -3.6651 -0.2508
3.2462 -3.6634 -0.2630
3.2710 -3.6571 -0.2646
