ply
format ascii 1.0
element vertex 2102
property float x
property float y
property float z
end_header
3.3757 0.0879 0.9615
3.3803 0.0379 0.8975
3.3687 -0.9544 0.4202
3.3792 -0.9674 0.3320
3.3858 -0.9591 0.2858
3.3934 -0.9406 0.2371
3.4120 -0.8768 0.1297
3.4186 -0.8780 0.0776
3.4278 -0.8550 0.0195
3.4349 -0.8555 -0.0357
3.4422 -0.8556 -0.0924
3.4393 -0.9499 -0.1235
3.4255 -1.1340 -0.1222
3.4204 -1.2344 -0.1402
3.4196 -1.2955 -0.1682
3.4018 -1.4872 -0.1405
3.3914 -1.6118 -0.1312
3.3862 -1.6913 -0.1361
3.3803 -1.7718 -0.1363
3.3740 -1.8506 -0.1329
3.3698 -1.9117 -0.1351
3.3664 -1.9645 -0.1390
3.3577 -2.0746 -0.1346
3.3491 -2.1740 -0.1247
3.3448 -2.2205 -0.1175
3.3423 -2.2546 -0.1178
3.3381 -2.3145 -0.1198
3.3365 -2.3404 -0.1219
3.3352 -2.3635 -0.1252
3.3329 -2.3906 -0.1227
3.3301 -2.4186 -0.1173
3.3297 -2.4352 -0.1234
3.3284 -2.4550 -0.1245
3.3263 -2.4771 -0.1211
3.3241 -2.4987 -0.1167
3.3224 -2.5179 -0.1140
3.3212 -2.5339 -0.1145
3.3204 -2.5484 -0.1162
3.3191 -2.5638 -0.1153
3.3182 -2.5776 -0.1158
3.3172 -2.5912 -0.1156
3.3161 -2.6044 -0.1149
3.3165 -2.6127 -0.1227
3.3155 -2.6249 -0.1222
3.3149 -2.6357 -0.1234
3.3121 -2.6604 -0.1159
3.3115 -2.6699 -0.1169
3.3113 -2.6783 -0.1201
3.2960 -0.7740 0.7156
3.3365 -1.0798 0.2419
3.3470 -0.9978 0.1866
3.3532 -0.9894 0.1375
3.3588 -0.9922 0.0889
3.3677 -0.9518 0.0304
3.3806 -0.8634 -0.0427
3.3834 -0.9108 -0.0864
3.3871 -0.9455 -0.1325
3.3708 -1.2091 -0.1050
3.3698 -1.2856 -0.1284
3.3688 -1.3568 -0.1504
3.3634 -1.4697 -0.1521
3.3544 -1.6114 -0.1352
3.3510 -1.6903 -0.1399
3.3440 -1.7979 -0.1258
3.3439 -1.8378 -0.1421
3.3403 -1.9065 -0.1400
3.3322 -2.0387 -0.1270
3.3326 -2.0652 -0.1418
3.3284 -2.1252 -0.1310
3.3239 -2.2073 -0.1281
3.3223 -2.2418 -0.1284
3.3201 -2.2779 -0.1250
3.3153 -2.3656 -0.1217
3.3135 -2.3935 -0.1180
3.3118 -2.4352 -0.1214
3.3093 -2.4779 -0.1175
3.3086 -2.4948 -0.1194
3.3079 -2.5114 -0.1205
3.3073 -2.5269 -0.1219
3.3062 -2.5441 -0.1196
3.3050 -2.5609 -0.1165
3.3047 -2.5736 -0.1190
3.3040 -2.5872 -0.1188
3.3034 -2.5999 -0.1191
3.3027 -2.6124 -0.1189
3.3020 -2.6246 -0.1181
3.3010 -2.6377 -0.1144
3.3010 -2.6466 -0.1185
3.3007 -2.6564 -0.1199
3.3001 -2.6665 -0.1196
3.2902 -0.2920 0.4448
3.2842 -0.8983 0.3534
3.2773 -1.3735 0.3018
3.3000 -1.0034 0.1782
3.3063 -0.9753 0.1263
3.3128 -0.9462 0.0717
3.3192 -0.9266 0.0165
3.3204 -1.0115 -0.0161
3.3237 -1.0530 -0.0568
3.3279 -1.0749 -0.1021
3.3316 -1.1057 -0.1446
3.3335 -1.1640 -0.1769
3.3238 -1.3940 -0.1413
3.3209 -1.5061 -0.1416
3.3183 -1.6054 -0.1416
3.3163 -1.6895 -0.1435
3.3136 -1.7764 -0.1394
3.3091 -1.9231 -0.1322
3.3014 -2.1479 -0.1148
3.3024 -2.1678 -0.1297
3.3023 -2.1974 -0.1360
3.2988 -2.2799 -0.1226
3.2973 -2.3367 -0.1232
3.2956 -2.3708 -0.1148
3.2949 -2.3950 -0.1147
3.2957 -2.4083 -0.1255
3.2937 -2.4397 -0.1139
3.2938 -2.4559 -0.1188
3.2937 -2.4725 -0.1222
3.2924 -2.5103 -0.1192
3.2925 -2.5239 -0.1234
3.2914 -2.5431 -0.1178
3.2908 -2.5714 -0.1190
3.2904 -2.5851 -0.1186
3.2898 -2.5991 -0.1165
3.2908 -2.6056 -0.1277
3.2897 -2.6209 -0.1210
3.2890 -2.6341 -0.1172
3.2883 -2.6464 -0.1140
3.2885 -2.6551 -0.1177
3.2885 -2.6642 -0.1198
3.2880 -2.6747 -0.1176
3.2379 -0.8947 0.3428
3.2655 -0.8889 0.0521
3.2673 -1.0247 0.0291
3.2705 -1.0838 -0.0064
3.2743 -1.1142 -0.0477
3.2807 -1.0607 -0.1134
3.2847 -1.0916 -0.1558
3.2821 -1.2985 -0.1351
3.2826 -1.4015 -0.1434
3.2828 -1.5006 -0.1482
3.2818 -1.6148 -0.1410
3.2818 -1.6973 -0.1429
3.2811 -1.7828 -0.1388
3.2802 -1.8655 -0.1315
3.2792 -1.9410 -0.1236
3.2794 -2.0400 -0.1283
3.2792 -2.1290 -0.1291
3.2793 -2.2025 -0.1317
3.2780 -2.2812 -0.1208
3.2777 -2.3136 -0.1180
3.2772 -2.3928 -0.1155
3.2772 -2.4151 -0.1158
3.2781 -2.4281 -0.1258
3.2773 -2.4547 -0.1181
3.2767 -2.4778 -0.1129
3.2766 -2.4962 -0.1123
3.2776 -2.5059 -0.1227
3.2773 -2.5396 -0.1201
3.2771 -2.5553 -0.1188
3.2770 -2.5699 -0.1178
3.2769 -2.5837 -0.1173
3.2767 -2.5971 -0.1162
3.2770 -2.6079 -0.1191
3.2765 -2.6220 -0.1145
3.2771 -2.6299 -0.1213
3.2769 -2.6417 -0.1192
3.2766 -2.6533 -0.1166
3.2768 -2.6624 -0.1186
3.2770 -2.6708 -0.1215
3.1905 -0.7947 0.3275
3.2059 -1.1016 0.2180
3.2210 -1.0948 0.0366
3.2249 -1.1153 -0.0061
3.2294 -0.9737 -0.0932
3.2337 -1.0167 -0.1336
3.2376 -1.0877 -0.1637
3.2408 -1.2146 -0.1707
3.2428 -1.3895 -0.1529
3.2449 -1.5010 -0.1522
3.2463 -1.6295 -0.1380
3.2484 -1.6959 -0.1467
3.2498 -1.7772 -0.1443
3.2506 -1.8697 -0.1313
3.2517 -1.9327 -0.1302
3.2537 -2.0422 -0.1279
3.2546 -2.0900 -0.1269
3.2552 -2.1393 -0.1219
3.2562 -2.1739 -0.1253
3.2572 -2.2027 -0.1314
3.2577 -2.2834 -0.1182
3.2593 -2.3326 -0.1251
3.2602 -2.3846 -0.1230
3.2603 -2.4124 -0.1172
3.2610 -2.4298 -0.1217
3.2613 -2.4747 -0.1147
3.2618 -2.4910 -0.1168
3.2620 -2.5091 -0.1153
3.2625 -2.5241 -0.1171
3.2629 -2.5381 -0.1193
3.2632 -2.5531 -0.1188
3.2636 -2.5659 -0.1210
3.2637 -2.5811 -0.1182
3.2640 -2.5933 -0.1192
3.2639 -2.6084 -0.1139
3.2642 -2.6195 -0.1150
3.2647 -2.6292 -0.1181
3.2653 -2.6376 -0.1233
3.2652 -2.6499 -0.1193
3.2652 -2.6607 -0.1174
3.2657 -2.6686 -0.1216
3.0316 1.2685 0.6454
3.1690 -1.3342 0.2753
3.1633 -1.0799 0.2068
3.1805 -0.9382 -0.1106
3.1859 -1.0127 -0.1419
3.1916 -1.1105 -0.1625
3.1976 -1.2499 -0.1636
3.2039 -1.4485 -0.1346
3.2083 -1.5568 -0.1328
3.2121 -1.6337 -0.1396
3.2158 -1.7370 -0.1297
3.2188 -1.8020 -0.1340
3.2217 -1.8779 -0.1289
3.2265 -1.9929 -0.1285
3.2287 -2.0392 -0.1309
3.2306 -2.0890 -0.1283
3.2340 -2.1742 -0.1252
3.2354 -2.2133 -0.1227
3.2369 -2.2441 -0.1249
3.2381 -2.2792 -0.1214
3.2393 -2.3095 -0.1201
3.2404 -2.3375 -0.1192
3.2415 -2.3642 -0.1178
3.2427 -2.3809 -0.1255
3.2435 -2.4081 -0.1204
3.2445 -2.4287 -0.1212
3.2455 -2.4459 -0.1248
3.2459 -2.4730 -0.1145
3.2466 -2.4915 -0.1136
3.2474 -2.5062 -0.1168
3.2483 -2.5191 -0.1215
3.2495 -2.5504 -0.1199
3.2502 -2.5633 -0.1220
3.2507 -2.5785 -0.1190
3.2511 -2.5927 -0.1165
3.2517 -2.6035 -0.1192
3.2521 -2.6165 -0.1167
3.2527 -2.6263 -0.1197
3.2528 -2.6406 -0.1123
3.2537 -2.6470 -0.1208
3.2544 -2.6551 -0.1253
3.0977 -0.8637 0.3554
3.1300 -1.3135 0.3021
3.1314 -1.2983 0.2641
3.1263 -1.1664 0.2095
3.1375 -1.1153 -0.0205
3.1406 -1.1177 -0.0676
3.1391 -1.0182 -0.1471
3.1482 -1.1503 -0.1553
3.1565 -1.2748 -0.1600
3.1651 -1.4179 -0.1512
3.1729 -1.5511 -0.1391
3.1795 -1.6609 -0.1307
3.1838 -1.7149 -0.1434
3.1935 -1.8788 -0.1304
3.2007 -1.9879 -0.1330
3.2038 -2.0344 -0.1350
3.2073 -2.1070 -0.1165
3.2121 -2.1659 -0.1318
3.2166 -2.2414 -0.1268
3.2186 -2.2758 -0.1238
3.2205 -2.3030 -0.1254
3.2239 -2.3533 -0.1278
3.2254 -2.3820 -0.1228
3.2282 -2.4299 -0.1178
3.2295 -2.4486 -0.1193
3.2307 -2.4684 -0.1181
3.2319 -2.4813 -0.1249
3.2330 -2.5011 -0.1212
3.2340 -2.5191 -0.1187
3.2350 -2.5332 -0.1207
3.2360 -2.5477 -0.1210
3.2368 -2.5626 -0.1196
3.2378 -2.5733 -0.1243
3.2385 -2.5889 -0.1195
3.2393 -2.6010 -0.1198
3.2400 -2.6141 -0.1171
3.2409 -2.6221 -0.1237
3.2414 -2.6359 -0.1176
3.2421 -2.6465 -0.1171
3.2429 -2.6546 -0.1214
3.2434 -2.6647 -0.1202
3.0914 -1.2459 0.2507
3.0966 -1.1744 0.0326
3.0980 -1.1613 -0.0156
3.0898 -1.0119 -0.1045
3.0979 -1.0891 -0.1318
3.1105 -1.2357 -0.1323
3.1182 -1.3146 -0.1506
3.1271 -1.4135 -0.1575
3.1382 -1.5515 -0.1429
3.1450 -1.6272 -0.1494
3.1524 -1.7142 -0.1467
3.1602 -1.8129 -0.1333
3.1655 -1.8732 -0.1356
3.1754 -1.9904 -0.1328
3.1838 -2.0919 -0.1276
3.1904 -2.1646 -0.1329
3.1968 -2.2464 -0.1221
3.2021 -2.3106 -0.1174
3.2041 -2.3282 -0.1262
3.2064 -2.3576 -0.1220
3.2086 -2.3872 -0.1157
3.2104 -2.4044 -0.1212
3.2121 -2.4228 -0.1243
3.2140 -2.4500 -0.1156
3.2155 -2.4646 -0.1208
3.2171 -2.4827 -0.1206
3.2199 -2.5120 -0.1262
3.2213 -2.5346 -0.1155
3.2225 -2.5471 -0.1188
3.2237 -2.5627 -0.1161
3.2249 -2.5734 -0.1206
3.2259 -2.5877 -0.1178
3.2270 -2.5954 -0.1262
3.2280 -2.6112 -0.1188
3.2290 -2.6222 -0.1191
3.2299 -2.6325 -0.1203
3.2308 -2.6449 -0.1159
3.2317 -2.6535 -0.1188
2.9916 -0.8352 0.7013
3.0462 -1.1618 0.2334
3.0626 -1.2386 0.0409
3.0669 -1.2645 0.0047
3.0531 -1.1007 -0.0859
3.0562 -1.1115 -0.1311
3.0671 -1.2074 -0.1477
3.0804 -1.3304 -0.1499
3.0915 -1.4326 -0.1544
3.1045 -1.5571 -0.1443
3.1225 -1.7253 -0.1441
3.1322 -1.8216 -0.1311
3.1387 -1.8811 -0.1331
3.1511 -1.9986 -0.1289
3.1568 -2.0528 -0.1249
3.1610 -2.0913 -0.1287
3.1693 -2.1669 -0.1312
3.1775 -2.2482 -0.1202
3.1840 -2.3101 -0.1170
3.1916 -2.3790 -0.1232
3.1940 -2.4002 -0.1243
3.1965 -2.4266 -0.1181
3.2006 -2.4639 -0.1196
3.2026 -2.4842 -0.1162
3.2042 -2.4975 -0.1210
3.2059 -2.5120 -0.1234
3.2092 -2.5431 -0.1220
3.2108 -2.5595 -0.1181
3.2122 -2.5742 -0.1157
3.2136 -2.5860 -0.1173
3.2149 -2.5982 -0.1173
3.2161 -2.6088 -0.1192
3.2172 -2.6175 -0.1244
3.2185 -2.6308 -0.1193
3.2196 -2.6403 -0.1212
3.2206 -2.6508 -0.1201
2.9525 -0.8411 0.6891
3.0305 -1.3493 0.2829
3.0136 -1.1494 0.0129
3.0238 -1.2232 -0.0125
3.0405 -1.3518 -0.0190
3.0181 -1.1505 -0.1250
3.0294 -1.2337 -0.1442
3.0416 -1.3258 -0.1566
3.0576 -1.4522 -0.1508
3.0726 -1.5721 -0.1415
3.0954 -1.7518 -0.1338
3.1041 -1.8197 -0.1343
3.1257 -1.9882 -0.1366
3.1345 -2.0606 -0.1207
3.1447 -2.1396 -0.1237
3.1496 -2.1784 -0.1225
3.1533 -2.2058 -0.1283
3.1584 -2.2476 -0.1204
3.1655 -2.3029 -0.1230
3.1688 -2.3282 -0.1242
3.1727 -2.3603 -0.1169
3.1754 -2.3812 -0.1193
3.1778 -2.3985 -0.1246
3.1810 -2.4250 -0.1182
3.1837 -2.4462 -0.1163
3.1855 -2.4586 -0.1241
3.1902 -2.4969 -0.1193
3.1925 -2.5151 -0.1162
3.1945 -2.5308 -0.1155
3.1962 -2.5440 -0.1175
3.1981 -2.5591 -0.1155
3.1997 -2.5718 -0.1164
3.2013 -2.5843 -0.1167
3.2028 -2.5945 -0.1202
3.2042 -2.6053 -0.1220
3.2058 -2.6183 -0.1185
3.2070 -2.6274 -0.1220
3.2083 -2.6369 -0.1239
3.2098 -2.6499 -0.1175
3.2109 -2.6578 -0.1212
2.9864 -1.2787 0.3044
2.9924 -1.3140 0.2722
2.7830 0.1616 -0.1627
3.0073 -1.3644 -0.0619
3.0140 -1.3990 -0.1338
3.0302 -1.5087 -0.1321
3.0657 -1.7467 -0.1390
3.0759 -1.8151 -0.1391
3.0964 -1.9555 -0.1265
3.1114 -2.0563 -0.1244
3.1290 -2.1748 -0.1254
3.1336 -2.2059 -0.1281
3.1440 -2.2768 -0.1206
3.1489 -2.3111 -0.1145
3.1520 -2.3304 -0.1210
3.1590 -2.3778 -0.1216
3.1619 -2.3968 -0.1249
3.1651 -2.4186 -0.1238
3.1685 -2.4424 -0.1190
3.1718 -2.4649 -0.1140
3.1766 -2.4971 -0.1166
3.1811 -2.5274 -0.1177
3.1827 -2.5372 -0.1250
3.1852 -2.5545 -0.1197
3.1872 -2.5680 -0.1194
3.1891 -2.5812 -0.1185
3.1909 -2.5935 -0.1182
3.1928 -2.6062 -0.1162
3.1942 -2.6149 -0.1212
3.1958 -2.6258 -0.1209
3.1976 -2.6385 -0.1161
3.1987 -2.6448 -0.1241
3.1999 -2.6522 -0.1292
2.9445 -1.2322 0.3288
2.9595 -1.3186 0.3002
2.6665 0.4535 -0.1533
2.7202 0.1360 -0.1702
2.9088 -0.9856 -0.1399
2.9805 -1.4143 -0.0912
2.9865 -1.4481 -0.1197
2.9971 -1.5097 -0.1357
3.0269 -1.6869 -0.1345
3.0356 -1.7377 -0.1461
3.0718 -1.9537 -0.1291
3.0913 -2.0702 -0.1161
3.1034 -2.1412 -0.1232
3.1096 -2.1785 -0.1226
3.1145 -2.2070 -0.1271
3.1262 -2.2773 -0.1196
3.1334 -2.3191 -0.1311
3.1392 -2.3542 -0.1207
3.1431 -2.3770 -0.1211
3.1508 -2.4236 -0.1164
3.1564 -2.4558 -0.1234
3.1601 -2.4787 -0.1165
3.1626 -2.4929 -0.1199
3.1705 -2.5404 -0.1171
3.1722 -2.5499 -0.1239
3.1746 -2.5642 -0.1224
3.1778 -2.5837 -0.1107
3.1791 -2.5913 -0.1187
3.1811 -2.6027 -0.1190
3.1829 -2.6133 -0.1202
3.1848 -2.6250 -0.1184
3.1867 -2.6364 -0.1161
3.1881 -2.6445 -0.1200
3.1892 -2.6501 -0.1291
2.2891 0.9091 0.6112
2.0792 1.6871 0.5562
2.1794 1.2402 -0.0837
2.5119 -0.0083 -0.1352
2.8032 -1.0938 -0.1068
2.8649 -1.3260 -0.1233
2.8814 -1.3902 -0.1434
2.9097 -1.4957 -0.1434
2.9596 -1.6818 -0.1394
3.0401 -1.9800 -0.1159
3.0579 -2.0453 -0.1054
3.0619 -2.0625 -0.1238
3.0837 -2.1438 -0.1237
3.1076 -2.2314 -0.1090
3.1202 -2.2798 -0.1188
3.1357 -2.3371 -0.1144
3.1424 -2.3620 -0.1132
3.1485 -2.3848 -0.1128
3.1541 -2.4057 -0.1132
3.1584 -2.4222 -0.1174
3.1638 -2.4423 -0.1162
3.1705 -2.4664 -0.1083
3.1732 -2.4775 -0.1163
3.1784 -2.4964 -0.1127
3.1819 -2.5099 -0.1156
3.1858 -2.5245 -0.1158
3.1892 -2.5375 -0.1176
3.1941 -2.5550 -0.1110
3.2013 -2.5816 -0.1083
3.2035 -2.5903 -0.1138
3.2066 -2.6021 -0.1130
3.2087 -2.6105 -0.1179
3.2122 -2.6230 -0.1137
3.2152 -2.6341 -0.1114
3.2176 -2.6431 -0.1126
1.8755 2.0886 0.7953
1.9637 1.7674 0.6793
2.1623 1.0641 0.5618
2.0339 1.4843 0.3929
2.0822 1.3049 0.3042
2.1153 1.1783 0.2187
2.0610 1.3516 0.1145
2.0790 1.2632 -0.0711
2.1134 1.1331 -0.1514
2.5981 -0.5422 -0.1443
2.6529 -0.7331 -0.1547
2.7006 -0.8994 -0.1634
2.8253 -1.3251 -0.1235
2.8453 -1.3968 -0.1414
2.8745 -1.4981 -0.1438
2.9359 -1.7082 -0.1293
2.9555 -1.7764 -0.1323
2.9777 -1.8527 -0.1274
2.9950 -1.9125 -0.1277
3.0138 -1.9766 -0.1222
3.0434 -2.0784 -0.1180
3.0699 -2.1689 -0.1104
3.1054 -2.2924 -0.1143
3.1174 -2.3352 -0.1240
3.1269 -2.3671 -0.1159
3.1317 -2.3842 -0.1218
3.1391 -2.4095 -0.1174
3.1453 -2.4305 -0.1163
3.1515 -2.4518 -0.1135
3.1572 -2.4711 -0.1116
3.1666 -2.5037 -0.1123
3.1713 -2.5198 -0.1112
3.1733 -2.5281 -0.1211
3.1829 -2.5603 -0.1135
3.1862 -2.5720 -0.1155
3.1901 -2.5853 -0.1135
3.1943 -2.5990 -0.1097
3.1963 -2.6069 -0.1163
3.2027 -2.6288 -0.1148
3.2055 -2.6386 -0.1152
3.2080 -2.6476 -0.1166
3.2108 -2.6570 -0.1163
1.7080 2.2727 0.7376
2.0344 1.2009 0.5903
2.0038 1.2850 0.5062
1.9944 1.2858 0.3260
1.9313 1.4715 0.2242
1.9556 1.3782 0.1316
1.9499 1.3801 0.0324
1.9740 1.2878 -0.0581
2.0518 1.0276 -0.1224
2.7320 -1.1575 -0.1330
2.8019 -1.3844 -0.1469
2.8456 -1.5227 -0.1348
2.8810 -1.6350 -0.1270
2.9050 -1.7125 -0.1298
2.9341 -1.8043 -0.1211
2.9713 -1.9245 -0.1248
2.9891 -1.9813 -0.1237
3.0060 -2.0353 -0.1213
3.0196 -2.0792 -0.1227
3.0312 -2.1171 -0.1259
3.0457 -2.1628 -0.1210
3.0594 -2.2058 -0.1154
3.0786 -2.2677 -0.1175
3.0877 -2.2969 -0.1173
3.0935 -2.3167 -0.1245
3.1041 -2.3496 -0.1172
3.1120 -2.3747 -0.1159
3.1187 -2.3963 -0.1169
3.1269 -2.4219 -0.1116
3.1309 -2.4359 -0.1189
3.1376 -2.4569 -0.1163
3.1434 -2.4754 -0.1157
3.1493 -2.4941 -0.1132
3.1539 -2.5090 -0.1150
3.1578 -2.5223 -0.1182
3.1633 -2.5393 -0.1146
3.1685 -2.5552 -0.1112
3.1712 -2.5651 -0.1171
3.1763 -2.5804 -0.1124
3.1794 -2.5911 -0.1152
3.1843 -2.6058 -0.1092
3.1867 -2.6143 -0.1146
3.1907 -2.6266 -0.1111
3.1935 -2.6359 -0.1133
3.1965 -2.6455 -0.1138
3.1989 -2.6539 -0.1166
3.2016 -2.6626 -0.1177
1.7982 1.6376 0.6345
1.9848 1.0595 0.5250
1.7674 1.6556 0.2378
1.9777 0.9644 -0.0995
2.6810 -1.1439 -0.1364
2.7795 -1.4365 -0.1274
2.8404 -1.6200 -0.1358
2.8913 -1.7729 -0.1404
2.9863 -2.0520 -0.1152
3.0159 -2.1403 -0.1146
3.0264 -2.1726 -0.1196
3.0367 -2.2043 -0.1232
3.0498 -2.2426 -0.1192
3.0615 -2.2769 -0.1163
3.0699 -2.3026 -0.1195
3.0809 -2.3347 -0.1145
3.0969 -2.3826 -0.1158
3.1106 -2.4240 -0.1183
3.1178 -2.4452 -0.1168
3.1245 -2.4652 -0.1154
3.1301 -2.4820 -0.1168
3.1364 -2.5005 -0.1146
3.1412 -2.5152 -0.1166
3.1477 -2.5336 -0.1117
3.1515 -2.5458 -0.1155
3.1573 -2.5622 -0.1112
3.1607 -2.5732 -0.1150
3.1658 -2.5877 -0.1116
3.1691 -2.5982 -0.1145
3.1730 -2.6098 -0.1146
3.1771 -2.6217 -0.1129
3.1811 -2.6333 -0.1107
3.1840 -2.6424 -0.1130
3.1874 -2.6525 -0.1124
3.1897 -2.6602 -0.1165
3.1926 -2.6688 -0.1177
1.8862 1.0786 0.5491
1.8204 1.2446 0.4635
1.7901 1.2902 0.2748
1.7483 1.3855 0.1713
1.7578 1.3388 0.0732
1.8012 1.1997 -0.0147
1.8430 1.0659 -0.0988
1.8976 0.8984 -0.1729
2.2951 -0.2026 -0.1384
2.3915 -0.4733 -0.1467
2.4823 -0.7262 -0.1464
2.6242 -1.1211 -0.1428
2.7287 -1.4113 -0.1378
2.8109 -1.6389 -0.1294
2.8710 -1.8060 -0.1266
2.9166 -1.9332 -0.1281
2.9572 -2.0457 -0.1246
2.9899 -2.1366 -0.1233
3.0184 -2.2155 -0.1206
3.0305 -2.2493 -0.1204
3.0408 -2.2785 -0.1223
3.0631 -2.3396 -0.1177
3.0805 -2.3884 -0.1182
3.0902 -2.4145 -0.1138
3.0976 -2.4351 -0.1143
3.1055 -2.4566 -0.1120
3.1098 -2.4701 -0.1190
3.1178 -2.4915 -0.1141
3.1248 -2.5104 -0.1110
3.1352 -2.5398 -0.1135
3.1401 -2.5537 -0.1143
3.1453 -2.5680 -0.1134
3.1501 -2.5813 -0.1130
3.1552 -2.5950 -0.1108
3.1593 -2.6066 -0.1115
3.1625 -2.6163 -0.1151
3.1665 -2.6274 -0.1148
3.1705 -2.6383 -0.1140
3.1783 -2.6595 -0.1109
3.1816 -2.6686 -0.1112
3.1832 -2.6746 -0.1191
1.8210 1.0190 0.6562
1.9505 0.6597 0.5586
1.7448 1.1801 0.4868
1.4938 1.7882 0.2805
1.4797 1.7502 -0.0554
1.7822 0.9582 -0.0694
1.8228 0.8345 -0.1498
1.9587 0.4730 -0.1823
2.2161 -0.1874 -0.1345
2.5713 -1.1155 -0.1434
2.7793 -1.6535 -0.1249
2.7983 -1.7066 -0.1409
2.8334 -1.7968 -0.1348
2.9347 -2.0579 -0.1217
2.9662 -2.1410 -0.1262
2.9840 -2.1865 -0.1216
2.9948 -2.2159 -0.1274
3.0115 -2.2579 -0.1202
3.0213 -2.2844 -0.1246
3.0472 -2.3499 -0.1155
3.0649 -2.3966 -0.1180
3.0745 -2.4210 -0.1156
3.0825 -2.4420 -0.1155
3.0905 -2.4626 -0.1144
3.0977 -2.4813 -0.1142
3.1065 -2.5030 -0.1085
3.1093 -2.5125 -0.1191
3.1235 -2.5480 -0.1121
3.1290 -2.5623 -0.1120
3.1345 -2.5764 -0.1112
3.1442 -2.6018 -0.1111
3.1519 -2.6229 -0.1156
3.1577 -2.6366 -0.1095
3.1613 -2.6462 -0.1112
3.1657 -2.6572 -0.1087
3.1692 -2.6665 -0.1095
3.1723 -2.6750 -0.1111
3.1754 -2.6834 -0.1124
1.6691 1.1156 0.5102
1.3670 1.7779 0.1941
2.6904 -1.5334 -0.1362
2.7468 -1.6675 -0.1207
2.7691 -1.7253 -0.1346
2.8401 -1.8958 -0.1225
2.8647 -1.9561 -0.1235
2.9088 -2.0638 -0.1233
2.9481 -2.1587 -0.1192
2.9618 -2.1931 -0.1230
2.9796 -2.2354 -0.1180
2.9957 -2.2736 -0.1137
3.0063 -2.3004 -0.1175
3.0183 -2.3297 -0.1171
3.0309 -2.3597 -0.1139
3.0400 -2.3826 -0.1163
3.0484 -2.4036 -0.1193
3.0599 -2.4304 -0.1139
3.0665 -2.4478 -0.1183
3.0742 -2.4667 -0.1193
3.0911 -2.5067 -0.1142
3.0974 -2.5226 -0.1154
3.1048 -2.5399 -0.1130
3.1113 -2.5556 -0.1117
3.1164 -2.5686 -0.1138
3.1212 -2.5807 -0.1165
3.1265 -2.5938 -0.1164
3.1321 -2.6071 -0.1146
3.1377 -2.6201 -0.1122
3.1418 -2.6306 -0.1138
3.1466 -2.6420 -0.1126
3.1497 -2.6506 -0.1168
3.1541 -2.6610 -0.1158
3.1584 -2.6711 -0.1143
3.1630 -2.6815 -0.1110
3.1653 -2.6884 -0.1164
1.5176 1.2262 0.5381
2.7376 -1.7399 -0.1305
2.7999 -1.8834 -0.1337
2.8575 -2.0139 -0.1277
2.8845 -2.0742 -0.1219
2.9074 -2.1258 -0.1183
2.9256 -2.1677 -0.1188
2.9392 -2.2002 -0.1243
2.9570 -2.2403 -0.1211
2.9759 -2.2818 -0.1140
2.9866 -2.3076 -0.1188
2.9976 -2.3335 -0.1218
3.0244 -2.3929 -0.1142
3.0342 -2.4157 -0.1150
3.0436 -2.4373 -0.1155
3.0609 -2.4771 -0.1162
3.0696 -2.4967 -0.1147
3.0763 -2.5127 -0.1169
3.0834 -2.5290 -0.1175
3.0918 -2.5473 -0.1133
3.0972 -2.5604 -0.1163
3.1037 -2.5750 -0.1156
3.1086 -2.5871 -0.1184
3.1171 -2.6044 -0.1099
3.1219 -2.6158 -0.1115
3.1274 -2.6280 -0.1103
3.1296 -2.6353 -0.1189
3.1339 -2.6456 -0.1203
3.1407 -2.6591 -0.1127
3.1459 -2.6702 -0.1093
3.1487 -2.6779 -0.1141
3.1528 -2.6872 -0.1135
1.2218 1.6582 0.6835
1.6074 0.7921 0.5507
1.4458 1.0659 0.2730
1.4346 1.0633 0.1731
1.2329 1.4608 0.0343
1.4537 0.9698 -0.0230
1.9551 -0.1367 -0.1220
2.1206 -0.4927 -0.1201
2.2220 -0.7149 -0.1339
2.3151 -0.9174 -0.1416
2.4091 -1.1190 -0.1385
2.4875 -1.2873 -0.1359
2.5575 -1.4367 -0.1309
2.6227 -1.5748 -0.1219
2.6703 -1.6770 -0.1211
2.7031 -1.7497 -0.1287
2.7351 -1.8200 -0.1335
2.7660 -1.8871 -0.1359
2.8237 -2.0112 -0.1349
2.8785 -2.1264 -0.1242
2.9002 -2.1725 -0.1219
2.9169 -2.2092 -0.1242
2.9554 -2.2895 -0.1149
2.9691 -2.3193 -0.1159
2.9789 -2.3421 -0.1220
2.9924 -2.3706 -0.1204
3.0061 -2.3992 -0.1166
3.0262 -2.4431 -0.1187
3.0471 -2.4869 -0.1140
3.0543 -2.5031 -0.1172
3.0605 -2.5177 -0.1215
3.0795 -2.5560 -0.1117
3.0859 -2.5701 -0.1128
3.0930 -2.5850 -0.1112
3.0978 -2.5963 -0.1151
3.1040 -2.6095 -0.1142
3.1106 -2.6229 -0.1116
3.1148 -2.6329 -0.1151
3.1212 -2.6458 -0.1112
3.1239 -2.6534 -0.1184
3.1294 -2.6647 -0.1158
3.1346 -2.6752 -0.1138
3.1393 -2.6851 -0.1125
3.1433 -2.6938 -0.1133
1.1862 1.4755 0.7039
1.4616 0.8824 0.5788
1.2557 1.2762 0.4945
1.1908 1.3789 0.3915
1.4086 0.9120 0.3007
1.3313 1.0393 0.1954
1.2469 1.1782 0.0800
1.5047 0.6158 -0.0624
1.5136 0.5721 -0.1542
2.2707 -0.9553 -0.1279
2.5722 -1.5664 -0.1272
2.6678 -1.7601 -0.1268
2.7464 -1.9182 -0.1226
2.8024 -2.0328 -0.1264
2.8232 -2.0767 -0.1322
2.8569 -2.1414 -0.1196
2.8728 -2.1755 -0.1265
2.9156 -2.2603 -0.1192
2.9296 -2.2898 -0.1230
2.9413 -2.3151 -0.1288
2.9586 -2.3488 -0.1242
2.9735 -2.3784 -0.1216
2.9892 -2.4085 -0.1159
2.9999 -2.4307 -0.1173
3.0063 -2.4460 -0.1258
3.0320 -2.4949 -0.1143
3.0472 -2.5271 -0.1195
3.0561 -2.5447 -0.1177
3.0638 -2.5602 -0.1178
3.0804 -2.5922 -0.1118
3.0870 -2.6055 -0.1117
3.0918 -2.6164 -0.1153
3.0983 -2.6292 -0.1139
3.1035 -2.6401 -0.1153
3.1090 -2.6512 -0.1151
3.1141 -2.6617 -0.1154
3.1257 -2.6836 -0.1097
3.1295 -2.6919 -0.1122
3.1336 -2.7006 -0.1131
1.2635 0.9723 0.3212
1.2730 0.9255 0.2231
1.2689 0.8750 0.0222
1.4180 0.5439 -0.1369
2.1987 -0.9446 -0.1282
2.2938 -1.1278 -0.1330
2.3698 -1.2749 -0.1399
2.4485 -1.4244 -0.1374
2.5372 -1.5887 -0.1194
2.6427 -1.7890 -0.1156
2.6585 -1.8259 -0.1384
2.7157 -1.9300 -0.1204
2.7403 -1.9794 -0.1292
2.8077 -2.1050 -0.1185
2.8258 -2.1418 -0.1262
2.8750 -2.2337 -0.1188
2.8977 -2.2755 -0.1137
2.9132 -2.3059 -0.1163
2.9277 -2.3343 -0.1188
2.9447 -2.3659 -0.1157
2.9566 -2.3896 -0.1190
2.9711 -2.4167 -0.1166
2.9842 -2.4411 -0.1152
3.0072 -2.4846 -0.1136
3.0154 -2.5013 -0.1171
3.0262 -2.5212 -0.1146
3.0343 -2.5372 -0.1165
3.0432 -2.5540 -0.1158
3.0585 -2.5835 -0.1167
3.0671 -2.5991 -0.1135
3.0816 -2.6260 -0.1109
3.0867 -2.6365 -0.1140
3.0995 -2.6602 -0.1109
3.1036 -2.6691 -0.1148
3.1101 -2.6804 -0.1112
3.1149 -2.6897 -0.1118
3.1204 -2.6997 -0.1094
3.1243 -2.7078 -0.1116
3.1274 -2.7149 -0.1160
0.8885 1.5951 0.8826
1.0983 1.0852 0.4446
1.0820 1.0835 0.3420
0.8910 1.3914 0.2216
1.1220 0.8877 -0.0690
1.2985 0.5527 -0.1253
1.8556 -0.4468 -0.1117
2.2395 -1.1430 -0.1266
2.4127 -1.4549 -0.1263
2.4672 -1.5557 -0.1354
2.5191 -1.6509 -0.1410
2.6311 -1.8493 -0.1299
2.6750 -1.9275 -0.1266
2.7101 -1.9909 -0.1274
2.7488 -2.0587 -0.1209
2.7703 -2.0998 -0.1288
2.8020 -2.1552 -0.1230
2.8344 -2.2105 -0.1132
2.8504 -2.2414 -0.1202
2.8677 -2.2737 -0.1239
2.8901 -2.3126 -0.1188
2.9066 -2.3426 -0.1197
2.9263 -2.3764 -0.1142
2.9420 -2.4042 -0.1127
2.9528 -2.4251 -0.1173
2.9697 -2.4535 -0.1107
2.9770 -2.4691 -0.1187
2.9861 -2.4867 -0.1227
3.0031 -2.5138 -0.1113
3.0106 -2.5288 -0.1159
3.0305 -2.5638 -0.1130
3.0392 -2.5793 -0.1124
3.0465 -2.5929 -0.1141
3.0613 -2.6196 -0.1143
3.0679 -2.6317 -0.1150
3.0758 -2.6450 -0.1119
3.0805 -2.6547 -0.1157
3.0865 -2.6655 -0.1157
3.0929 -2.6765 -0.1140
3.0984 -2.6864 -0.1141
3.1055 -2.6977 -0.1089
3.1088 -2.7051 -0.1140
3.1128 -2.7131 -0.1164
3.1169 -2.7209 -0.1184
2.1496 -1.1055 -0.1371
2.3336 -1.4196 -0.1411
2.4084 -1.5468 -0.1411
2.5868 -1.8483 -0.1348
2.6898 -2.0176 -0.1161
2.7410 -2.1087 -0.1292
2.7826 -2.1751 -0.1149
2.8055 -2.2148 -0.1174
2.8518 -2.2927 -0.1151
2.8670 -2.3204 -0.1205
2.8847 -2.3506 -0.1212
2.9195 -2.4088 -0.1180
2.9337 -2.4331 -0.1186
2.9498 -2.4593 -0.1147
2.9579 -2.4754 -0.1222
2.9732 -2.4997 -0.1167
2.9879 -2.5228 -0.1106
2.9952 -2.5371 -0.1163
3.0054 -2.5543 -0.1160
3.0164 -2.5721 -0.1129
3.0264 -2.5884 -0.1107
3.0335 -2.6012 -0.1134
3.0414 -2.6148 -0.1135
3.0488 -2.6275 -0.1140
3.0626 -2.6512 -0.1151
3.0765 -2.6741 -0.1126
3.0822 -2.6841 -0.1133
3.0897 -2.6954 -0.1088
3.0944 -2.7041 -0.1108
3.0987 -2.7121 -0.1136
3.1038 -2.7208 -0.1136
3.1097 -2.7299 -0.1105
1.1029 0.4479 -0.1855
2.0595 -1.0761 -0.1450
2.1928 -1.2872 -0.1349
2.2745 -1.4205 -0.1417
2.3643 -1.5631 -0.1362
2.4324 -1.6727 -0.1366
2.5560 -1.8685 -0.1282
2.6061 -1.9480 -0.1247
2.6477 -2.0145 -0.1239
2.6851 -2.0744 -0.1229
2.7148 -2.1229 -0.1259
2.7765 -2.2204 -0.1208
2.8001 -2.2587 -0.1220
2.8245 -2.2973 -0.1199
2.8717 -2.3702 -0.1106
2.8846 -2.3929 -0.1167
2.8995 -2.4175 -0.1189
2.9320 -2.4683 -0.1148
2.9439 -2.4882 -0.1170
2.9553 -2.5071 -0.1190
2.9645 -2.5233 -0.1234
2.9782 -2.5440 -0.1192
2.9912 -2.5635 -0.1147
3.0012 -2.5795 -0.1146
3.0111 -2.5951 -0.1136
3.0194 -2.6088 -0.1147
3.0271 -2.6217 -0.1160
3.0348 -2.6342 -0.1167
3.0430 -2.6470 -0.1157
3.0500 -2.6585 -0.1161
3.0585 -2.6710 -0.1126
3.0655 -2.6819 -0.1117
3.0709 -2.6913 -0.1137
3.0764 -2.7005 -0.1152
3.0904 -2.7208 -0.1083
3.0942 -2.7282 -0.1120
3.0986 -2.7358 -0.1142
1.6388 -0.5510 -0.1464
1.8275 -0.8376 -0.1462
1.9705 -1.0560 -0.1497
2.0961 -1.2466 -0.1491
2.1947 -1.3972 -0.1519
2.3149 -1.5738 -0.1336
2.3872 -1.6839 -0.1344
2.4355 -1.7608 -0.1448
2.5740 -1.9633 -0.1209
2.6570 -2.0890 -0.1195
2.6905 -2.1401 -0.1204
2.7243 -2.1906 -0.1180
2.8020 -2.3088 -0.1183
2.8255 -2.3438 -0.1165
2.8417 -2.3701 -0.1212
2.8765 -2.4235 -0.1231
2.8924 -2.4478 -0.1238
2.9155 -2.4793 -0.1125
2.9381 -2.5159 -0.1195
2.9513 -2.5356 -0.1183
2.9634 -2.5537 -0.1177
2.9769 -2.5729 -0.1135
2.9867 -2.5881 -0.1144
2.9959 -2.6025 -0.1155
3.0040 -2.6155 -0.1178
3.0136 -2.6296 -0.1164
3.0211 -2.6416 -0.1183
3.0310 -2.6554 -0.1144
3.0399 -2.6680 -0.1117
3.0461 -2.6782 -0.1138
3.0549 -2.6901 -0.1097
3.0610 -2.6997 -0.1106
3.0732 -2.7183 -0.1109
3.0777 -2.7262 -0.1140
3.0832 -2.7346 -0.1142
1.1679 -0.0235 -0.1720
1.7292 -0.8218 -0.1470
2.0302 -1.2540 -0.1462
2.2692 -1.5915 -0.1281
2.3500 -1.7070 -0.1266
2.4041 -1.7876 -0.1350
2.5304 -1.9658 -0.1250
2.5750 -2.0303 -0.1261
2.6176 -2.0910 -0.1250
2.6988 -2.2044 -0.1151
2.8001 -2.3514 -0.1191
2.8448 -2.4141 -0.1146
2.8788 -2.4635 -0.1160
2.8945 -2.4861 -0.1162
2.9090 -2.5070 -0.1166
2.9223 -2.5264 -0.1175
2.9332 -2.5432 -0.1207
2.9463 -2.5616 -0.1196
2.9603 -2.5805 -0.1157
2.9726 -2.5973 -0.1133
2.9806 -2.6101 -0.1173
3.0031 -2.6404 -0.1109
3.0093 -2.6508 -0.1158
3.0180 -2.6631 -0.1151
3.0261 -2.6747 -0.1148
3.0341 -2.6859 -0.1138
3.0495 -2.7071 -0.1110
3.0559 -2.7164 -0.1115
3.0611 -2.7247 -0.1139
3.0663 -2.7329 -0.1159
3.0725 -2.7415 -0.1150
1.0499 -0.0277 -0.1616
1.5846 -0.7551 -0.1619
1.9863 -1.2914 -0.1327
2.1939 -1.5754 -0.1374
2.3684 -1.8095 -0.1279
2.4777 -1.9604 -0.1342
2.5836 -2.1013 -0.1250
2.6658 -2.2108 -0.1183
2.7326 -2.2996 -0.1124
2.7830 -2.3681 -0.1122
2.8193 -2.4200 -0.1195
2.8632 -2.4768 -0.1112
2.8696 -2.4901 -0.1242
2.8869 -2.5129 -0.1221
2.9046 -2.5355 -0.1179
2.9205 -2.5560 -0.1148
2.9429 -2.5878 -0.1186
2.9562 -2.6049 -0.1157
2.9672 -2.6197 -0.1154
2.9888 -2.6481 -0.1122
2.9974 -2.6601 -0.1133
3.0080 -2.6733 -0.1097
3.0142 -2.6831 -0.1136
3.0209 -2.6930 -0.1159
3.0390 -2.7153 -0.1090
3.0445 -2.7237 -0.1119
3.0504 -2.7323 -0.1133
3.0569 -2.7409 -0.1130
3.0628 -2.7491 -0.1134
0.7353 0.1982 -0.1978
1.2411 -0.4383 -0.1553
1.4844 -0.7527 -0.1584
1.8814 -1.2590 -0.1439
2.3058 -1.8028 -0.1359
2.4885 -2.0377 -0.1347
2.5508 -2.1140 -0.1233
2.5935 -2.1686 -0.1224
2.6358 -2.2216 -0.1182
2.6642 -2.2598 -0.1226
2.6925 -2.2970 -0.1249
2.8113 -2.4427 -0.1042
2.8362 -2.4803 -0.1199
2.8589 -2.5073 -0.1135
2.8708 -2.5246 -0.1191
2.9020 -2.5640 -0.1170
2.9147 -2.5808 -0.1180
2.9298 -2.5990 -0.1146
2.9519 -2.6281 -0.1162
2.9755 -2.6568 -0.1115
2.9849 -2.6690 -0.1118
2.9896 -2.6778 -0.1195
3.0000 -2.6901 -0.1165
3.0092 -2.7014 -0.1148
3.0273 -2.7228 -0.1093
3.0335 -2.7315 -0.1112
3.0402 -2.7402 -0.1115
3.0458 -2.7481 -0.1137
3.0519 -2.7561 -0.1142
0.7700 -0.0039 -0.1459
1.1558 -0.4726 -0.1401
1.4708 -0.8521 -0.1267
2.1539 -1.6918 -0.1444
2.3303 -1.9033 -0.1341
2.4551 -2.0544 -0.1307
2.5150 -2.1247 -0.1234
2.5525 -2.1722 -0.1281
2.5982 -2.2262 -0.1235
2.6307 -2.2669 -0.1261
2.6719 -2.3145 -0.1185
2.7258 -2.3811 -0.1210
2.7500 -2.4108 -0.1218
2.7739 -2.4397 -0.1208
2.8133 -2.4885 -0.1228
2.8356 -2.5140 -0.1183
2.8527 -2.5350 -0.1182
2.8686 -2.5544 -0.1185
2.8843 -2.5732 -0.1176
2.9036 -2.5942 -0.1105
2.9112 -2.6063 -0.1183
2.9224 -2.6207 -0.1203
2.9389 -2.6383 -0.1132
2.9481 -2.6506 -0.1162
2.9573 -2.6626 -0.1185
2.9705 -2.6768 -0.1132
2.9778 -2.6871 -0.1170
2.9891 -2.6995 -0.1131
2.9962 -2.7091 -0.1157
3.0027 -2.7182 -0.1190
3.0109 -2.7280 -0.1184
3.0202 -2.7381 -0.1150
3.0277 -2.7470 -0.1143
3.0329 -2.7546 -0.1179
3.0408 -2.7633 -0.1150
0.5622 0.1061 -0.0481
0.7750 -0.1603 -0.1041
0.9581 -0.3894 -0.1524
1.3189 -0.8007 -0.1365
1.5338 -1.0509 -0.1414
2.1237 -1.7287 -0.1302
2.4213 -2.0713 -0.1265
2.5204 -2.1858 -0.1263
2.5984 -2.2764 -0.1278
2.6766 -2.3629 -0.1169
2.7214 -2.4180 -0.1262
2.7765 -2.4786 -0.1176
2.7964 -2.5019 -0.1184
2.8200 -2.5273 -0.1135
2.8546 -2.5673 -0.1132
2.8677 -2.5835 -0.1164
2.8850 -2.6023 -0.1129
2.8960 -2.6164 -0.1167
2.9132 -2.6341 -0.1110
2.9246 -2.6477 -0.1121
2.9347 -2.6602 -0.1143
2.9460 -2.6731 -0.1138
2.9572 -2.6856 -0.1126
2.9665 -2.6967 -0.1135
2.9751 -2.7071 -0.1149
2.9861 -2.7186 -0.1114
2.9916 -2.7269 -0.1168
2.9982 -2.7356 -0.1197
3.0084 -2.7458 -0.1153
3.0173 -2.7551 -0.1125
3.0232 -2.7628 -0.1149
3.0297 -2.7705 -0.1157
3.0361 -2.7781 -0.1161
0.6137 -0.1371 -0.0976
0.7624 -0.3231 -0.1599
1.4238 -1.0410 -0.1422
2.0688 -1.7420 -0.1277
2.2505 -1.9399 -0.1246
2.3830 -2.0851 -0.1248
2.4335 -2.1415 -0.1277
2.4933 -2.2043 -0.1206
2.5715 -2.2915 -0.1246
2.6481 -2.3730 -0.1182
2.7015 -2.4328 -0.1217
2.7517 -2.4872 -0.1205
2.7978 -2.5361 -0.1159
2.8147 -2.5554 -0.1179
2.8296 -2.5728 -0.1210
2.8649 -2.6099 -0.1169
2.8939 -2.6413 -0.1157
2.9063 -2.6551 -0.1163
2.9231 -2.6710 -0.1096
2.9328 -2.6826 -0.1120
2.9431 -2.6941 -0.1129
2.9520 -2.7047 -0.1150
2.9603 -2.7147 -0.1176
2.9710 -2.7256 -0.1154
2.9798 -2.7353 -0.1157
2.9897 -2.7453 -0.1132
2.9977 -2.7541 -0.1133
3.0124 -2.7705 -0.1143
3.0196 -2.7784 -0.1140
0.5657 -0.2330 -0.0680
0.8173 -0.5095 -0.1089
1.3069 -1.0305 -0.1430
1.7236 -1.4602 -0.1356
2.2041 -1.9540 -0.1225
2.3405 -2.0965 -0.1249
2.4659 -2.2230 -0.1149
2.5395 -2.3030 -0.1249
2.6162 -2.3815 -0.1216
2.6504 -2.4161 -0.1193
2.6747 -2.4428 -0.1233
2.7037 -2.4721 -0.1212
2.7263 -2.4963 -0.1231
2.7522 -2.5221 -0.1201
2.7739 -2.5443 -0.1196
2.8008 -2.5693 -0.1117
2.8127 -2.5843 -0.1187
2.8456 -2.6187 -0.1192
2.8606 -2.6343 -0.1194
2.8828 -2.6535 -0.1091
2.8936 -2.6659 -0.1124
2.9083 -2.6800 -0.1095
2.9156 -2.6901 -0.1159
2.9249 -2.7009 -0.1190
2.9400 -2.7141 -0.1125
2.9485 -2.7239 -0.1152
2.9698 -2.7446 -0.1113
2.9775 -2.7533 -0.1133
2.9851 -2.7617 -0.1147
2.9920 -2.7697 -0.1167
2.9995 -2.7777 -0.1171
3.0089 -2.7860 -0.1135
3.0151 -2.7931 -0.1152
0.7469 -0.5695 -0.0871
0.8520 -0.6967 -0.1495
1.2170 -1.0500 -0.1344
1.6248 -1.4531 -0.1399
2.0197 -1.8419 -0.1406
2.1862 -2.0077 -0.1460
2.3167 -2.1238 -0.1138
2.3709 -2.1785 -0.1176
2.4261 -2.2326 -0.1169
2.4616 -2.2708 -0.1256
2.5858 -2.3920 -0.1231
2.6160 -2.4227 -0.1255
2.6814 -2.4847 -0.1195
2.7118 -2.5129 -0.1151
2.7342 -2.5354 -0.1163
2.7599 -2.5593 -0.1125
2.7750 -2.5762 -0.1179
2.8012 -2.5990 -0.1103
2.8126 -2.6130 -0.1174
2.8449 -2.6449 -0.1177
2.8657 -2.6625 -0.1102
2.8919 -2.6886 -0.1111
2.9049 -2.7010 -0.1103
2.9110 -2.7101 -0.1182
2.9219 -2.7210 -0.1188
2.9326 -2.7315 -0.1188
2.9473 -2.7433 -0.1118
2.9566 -2.7526 -0.1123
2.9658 -2.7617 -0.1122
2.9723 -2.7695 -0.1160
2.9820 -2.7782 -0.1136
2.9898 -2.7860 -0.1141
2.9974 -2.7935 -0.1141
0.6765 -0.6295 -0.0654
0.7102 -0.6918 -0.1451
1.0685 -1.0237 -0.1399
1.2328 -1.1874 -0.1674
1.9420 -1.8407 -0.1472
2.1388 -2.0230 -0.1441
2.3115 -2.1777 -0.1280
2.4196 -2.2791 -0.1296
2.5147 -2.3662 -0.1257
2.5562 -2.4040 -0.1233
2.5997 -2.4419 -0.1165
2.6546 -2.4950 -0.1214
2.7081 -2.5443 -0.1200
2.7273 -2.5637 -0.1237
2.7523 -2.5856 -0.1204
2.7792 -2.6079 -0.1132
2.7952 -2.6239 -0.1160
2.8140 -2.6409 -0.1145
2.8312 -2.6565 -0.1135
2.8448 -2.6701 -0.1156
2.8633 -2.6854 -0.1107
2.8739 -2.6967 -0.1145
2.8879 -2.7093 -0.1131
2.8984 -2.7200 -0.1155
2.9095 -2.7306 -0.1162
2.9206 -2.7409 -0.1163
2.9322 -2.7512 -0.1146
2.9418 -2.7603 -0.1154
2.9540 -2.7701 -0.1112
2.9600 -2.7776 -0.1161
2.9673 -2.7853 -0.1184
2.9773 -2.7936 -0.1157
2.9838 -2.8007 -0.1182
2.9883 -2.8071 -0.1239
0.5790 -0.6675 -0.0484
0.4147 -0.5702 -0.1709
0.9063 -0.9946 -0.1459
1.1933 -1.2480 -0.1455
1.9125 -1.8781 -0.1326
2.0959 -2.0427 -0.1394
2.2641 -2.1877 -0.1304
2.3882 -2.2957 -0.1262
2.4873 -2.3818 -0.1225
2.5641 -2.4495 -0.1223
2.6055 -2.4836 -0.1160
2.6332 -2.5090 -0.1182
2.6555 -2.5306 -0.1232
2.6896 -2.5579 -0.1161
2.7379 -2.5998 -0.1141
2.7783 -2.6354 -0.1138
2.8131 -2.6663 -0.1142
2.8454 -2.6942 -0.1128
2.8563 -2.7055 -0.1169
2.8714 -2.7180 -0.1148
2.8865 -2.7302 -0.1118
2.8972 -2.7403 -0.1136
2.9078 -2.7502 -0.1148
2.9226 -2.7610 -0.1092
2.9296 -2.7691 -0.1141
2.9372 -2.7772 -0.1176
2.9483 -2.7860 -0.1151
2.9551 -2.7934 -0.1187
2.9660 -2.8017 -0.1150
2.9735 -2.8088 -0.1164
-0.2084 0.0814 0.5054
0.5626 -0.7703 -0.0174
0.4594 -0.7260 -0.1239
0.8215 -1.0319 -0.1314
1.0133 -1.2040 -0.1607
1.5478 -1.6408 -0.1346
1.8212 -1.8726 -0.1423
2.2100 -2.1952 -0.1354
2.3469 -2.3069 -0.1282
2.4682 -2.4025 -0.1136
2.6040 -2.5191 -0.1211
2.6353 -2.5447 -0.1195
2.6619 -2.5672 -0.1201
2.6876 -2.5885 -0.1197
2.7085 -2.6069 -0.1221
2.7583 -2.6456 -0.1146
2.7759 -2.6609 -0.1160
2.7888 -2.6738 -0.1213
2.8114 -2.6902 -0.1149
2.8294 -2.7042 -0.1123
2.8435 -2.7163 -0.1130
2.8547 -2.7270 -0.1165
2.8789 -2.7482 -0.1187
2.8935 -2.7590 -0.1152
2.9014 -2.7675 -0.1200
2.9151 -2.7774 -0.1160
2.9229 -2.7854 -0.1196
2.9357 -2.7943 -0.1152
2.9471 -2.8026 -0.1122
2.9533 -2.8095 -0.1165
2.9609 -2.8165 -0.1181
-0.1564 0.0156 0.8324
0.0444 -0.1906 0.7143
0.0537 -0.2364 0.6184
0.0988 -0.3108 0.5215
0.6342 -0.7725 0.4276
-0.0003 -0.4289 0.0295
0.3783 -0.7459 -0.0134
0.3268 -0.7447 -0.1125
0.5368 -0.9298 -0.1592
0.8318 -1.1689 -0.1726
1.2343 -1.4740 -0.1384
1.5941 -1.7623 -0.1463
2.0854 -2.1470 -0.1350
2.1814 -2.2196 -0.1265
2.2679 -2.2843 -0.1170
2.3185 -2.3266 -0.1223
2.3616 -2.3634 -0.1289
2.4558 -2.4380 -0.1288
2.5124 -2.4784 -0.1176
2.5363 -2.5009 -0.1268
2.5829 -2.5339 -0.1171
2.6040 -2.5537 -0.1247
2.6446 -2.5819 -0.1148
2.6693 -2.6020 -0.1159
2.7145 -2.6384 -0.1176
2.7419 -2.6577 -0.1115
2.7560 -2.6711 -0.1170
2.7747 -2.6859 -0.1169
2.7940 -2.7003 -0.1149
2.8079 -2.7124 -0.1177
2.8278 -2.7262 -0.1126
2.8407 -2.7371 -0.1145
2.8550 -2.7482 -0.1138
2.8633 -2.7572 -0.1199
2.8805 -2.7684 -0.1137
2.8931 -2.7779 -0.1125
2.8997 -2.7856 -0.1188
2.9201 -2.8021 -0.1196
2.9340 -2.8107 -0.1135
2.9418 -2.8177 -0.1157
2.9496 -2.8246 -0.1174
2.9567 -2.8311 -0.1198
0.2287 -0.4300 0.8018
0.1741 -0.4223 0.7196
0.2143 -0.4895 0.6277
0.0564 -0.4047 0.5444
0.3820 -0.6875 0.4488
0.3442 -0.8701 -0.0739
0.4396 -0.9698 -0.1436
0.9603 -1.3752 -0.1806
1.3583 -1.6556 -0.1356
2.1386 -2.2362 -0.1244
2.2049 -2.2872 -0.1274
2.2899 -2.3464 -0.1162
2.3307 -2.3806 -0.1252
2.3927 -2.4245 -0.1189
2.4371 -2.4583 -0.1199
2.4919 -2.4959 -0.1113
2.5187 -2.5191 -0.1189
2.5800 -2.5669 -0.1235
2.6257 -2.5960 -0.1107
2.6422 -2.6119 -0.1196
2.6706 -2.6322 -0.1170
2.6909 -2.6487 -0.1201
2.7071 -2.6631 -0.1257
2.7343 -2.6810 -0.1195
2.7749 -2.7102 -0.1165
2.7914 -2.7228 -0.1170
2.8071 -2.7347 -0.1174
2.8212 -2.7458 -0.1188
2.8390 -2.7575 -0.1146
2.8482 -2.7666 -0.1200
2.8643 -2.7771 -0.1160
2.8734 -2.7855 -0.1201
2.8871 -2.7947 -0.1175
2.8984 -2.8031 -0.1172
2.9080 -2.8109 -0.1185
2.9222 -2.8191 -0.1126
2.9318 -2.8263 -0.1126
2.9375 -2.8327 -0.1178
2.9470 -2.8394 -0.1168
-0.0032 -0.4081 0.7525
0.0836 -0.5464 0.5640
0.4521 -0.8468 0.4686
0.3783 -0.8278 0.3867
0.0870 -0.8503 -0.1756
1.3998 -1.7494 -0.0960
1.4052 -1.7758 -0.1513
1.9883 -2.1812 -0.1309
2.0849 -2.2481 -0.1268
2.1461 -2.2946 -0.1344
2.2137 -2.3428 -0.1350
2.2742 -2.3860 -0.1355
2.3227 -2.4219 -0.1394
2.3960 -2.4681 -0.1251
2.4921 -2.5332 -0.1173
2.5557 -2.5802 -0.1221
2.6236 -2.6258 -0.1157
2.6677 -2.6595 -0.1217
2.7187 -2.6933 -0.1157
2.7611 -2.7219 -0.1122
2.7981 -2.7469 -0.1090
2.8077 -2.7564 -0.1157
2.8220 -2.7668 -0.1164
2.8378 -2.7772 -0.1144
2.8503 -2.7865 -0.1153
2.8541 -2.7937 -0.1265
2.8760 -2.8042 -0.1140
2.8875 -2.8123 -0.1139
2.8998 -2.8203 -0.1120
2.9073 -2.8272 -0.1160
2.9148 -2.8340 -0.1196
2.9268 -2.8410 -0.1159
1.2010 -1.4333 0.5311
0.4385 -0.9394 0.4881
0.3935 -0.9419 0.4085
0.3583 -1.1234 -0.0901
1.2345 -1.7210 -0.1136
1.3959 -1.8346 -0.1266
2.1222 -2.3207 -0.1236
2.1784 -2.3615 -0.1311
2.2533 -2.4094 -0.1254
2.3184 -2.4512 -0.1208
2.3581 -2.4806 -0.1274
2.4174 -2.5171 -0.1195
2.4550 -2.5435 -0.1224
2.5346 -2.5952 -0.1182
2.5732 -2.6191 -0.1134
2.6015 -2.6385 -0.1144
2.6679 -2.6868 -0.1236
2.6948 -2.7032 -0.1196
2.7190 -2.7182 -0.1165
2.7390 -2.7315 -0.1161
2.7547 -2.7431 -0.1188
2.7679 -2.7538 -0.1232
2.7925 -2.7667 -0.1145
2.8022 -2.7758 -0.1208
2.8432 -2.8038 -0.1219
2.8576 -2.8125 -0.1198
2.8767 -2.8216 -0.1105
2.8812 -2.8282 -0.1194
2.8913 -2.8354 -0.1204
2.9013 -2.8424 -0.1209
2.9129 -2.8492 -0.1185
0.3462 -0.9776 0.5090
0.3540 -1.0157 0.4290
-0.6163 -0.4452 0.3213
-0.2178 -0.8949 -0.1537
1.2696 -1.8064 -0.0776
1.3267 -1.8600 -0.1196
1.3925 -1.9168 -0.1559
1.9703 -2.2733 -0.1321
2.0603 -2.3296 -0.1303
2.1392 -2.3790 -0.1288
2.2088 -2.4226 -0.1276
2.2639 -2.4587 -0.1303
2.3204 -2.4940 -0.1290
2.3767 -2.5279 -0.1246
2.5381 -2.6285 -0.1205
2.5671 -2.6476 -0.1223
2.5985 -2.6667 -0.1203
2.6254 -2.6838 -0.1203
2.6514 -2.6999 -0.1195
2.6746 -2.7146 -0.1195
2.6969 -2.7286 -0.1191
2.7190 -2.7420 -0.1174
2.7436 -2.7553 -0.1121
2.7545 -2.7652 -0.1191
2.7772 -2.7771 -0.1132
2.7888 -2.7864 -0.1178
2.8037 -2.7959 -0.1182
2.8194 -2.8053 -0.1167
2.8299 -2.8135 -0.1203
2.8438 -2.8218 -0.1193
2.8617 -2.8303 -0.1124
2.8688 -2.8372 -0.1182
2.8800 -2.8443 -0.1183
2.8927 -2.8513 -0.1155
2.9029 -2.8577 -0.1154
2.9082 -2.8637 -0.1218
0.1102 -0.8247 0.7854
1.0070 -1.4281 0.6264
1.1478 -1.6607 0.2720
-0.1798 -1.0259 -0.1106
0.2296 -1.2795 -0.1309
1.2501 -1.8595 -0.0568
1.2148 -1.8662 -0.1234
1.3366 -1.9485 -0.1459
1.5481 -2.0697 -0.1328
1.9092 -2.2867 -0.1348
1.9940 -2.3387 -0.1377
2.1029 -2.3985 -0.1247
2.1913 -2.4476 -0.1157
2.2504 -2.4836 -0.1171
2.3486 -2.5443 -0.1216
2.4140 -2.5784 -0.1097
2.4441 -2.5994 -0.1168
2.4714 -2.6188 -0.1241
2.5083 -2.6405 -0.1231
2.5799 -2.6806 -0.1165
2.6048 -2.6964 -0.1188
2.6269 -2.7110 -0.1219
2.6796 -2.7405 -0.1169
2.7205 -2.7650 -0.1170
2.7592 -2.7871 -0.1145
2.7754 -2.7969 -0.1149
2.7915 -2.8064 -0.1144
2.8015 -2.8146 -0.1197
2.8183 -2.8234 -0.1167
2.8482 -2.8394 -0.1121
2.8580 -2.8464 -0.1149
2.8694 -2.8533 -0.1150
2.8774 -2.8597 -0.1190
1.1164 -1.5900 0.5716
1.0635 -1.5829 0.5174
1.0837 -1.6188 0.4593
1.2781 -1.7518 0.4044
0.1908 -1.3523 -0.1046
1.0438 -1.8233 -0.0791
1.4841 -2.0717 -0.0782
1.6250 -2.1735 -0.1309
1.8580 -2.3058 -0.1328
1.9121 -2.3439 -0.1505
2.0412 -2.4089 -0.1317
2.2041 -2.4963 -0.1209
2.2568 -2.5274 -0.1241
2.2991 -2.5539 -0.1303
2.3412 -2.5794 -0.1344
2.4041 -2.6102 -0.1231
2.4835 -2.6545 -0.1217
2.5521 -2.6922 -0.1193
2.6093 -2.7241 -0.1184
2.6623 -2.7525 -0.1146
2.6996 -2.7755 -0.1193
2.7356 -2.7966 -0.1210
2.7704 -2.8157 -0.1198
2.8294 -2.8482 -0.1179
2.8420 -2.8553 -0.1178
2.8589 -2.8623 -0.1118
2.8627 -2.8685 -0.1213
2.8751 -2.8747 -0.1194
2.8858 -2.8806 -0.1191
1.5081 -1.8566 0.6007
1.3032 -1.9124 0.2126
1.2999 -2.0001 0.0020
1.3398 -2.0398 -0.0415
1.3448 -2.0642 -0.0926
1.5419 -2.1868 -0.1343
1.8126 -2.3282 -0.1279
1.8812 -2.3702 -0.1409
1.9931 -2.4259 -0.1316
2.0837 -2.4718 -0.1262
2.1672 -2.5133 -0.1193
2.2229 -2.5442 -0.1222
2.2897 -2.5772 -0.1162
2.3045 -2.5936 -0.1362
2.3838 -2.6276 -0.1169
2.3909 -2.6405 -0.1386
2.4556 -2.6680 -0.1221
2.4819 -2.6847 -0.1283
2.5313 -2.7060 -0.1167
2.5499 -2.7195 -0.1252
2.5869 -2.7364 -0.1185
2.6356 -2.7629 -0.1200
2.6520 -2.7740 -0.1256
2.6756 -2.7859 -0.1239
2.7393 -2.8172 -0.1178
2.7878 -2.8428 -0.1172
2.8173 -2.8577 -0.1154
2.8275 -2.8645 -0.1186
2.8430 -2.8712 -0.1149
2.8513 -2.8774 -0.1191
2.8640 -2.8834 -0.1173
2.8732 -2.8892 -0.1195
1.4665 -1.8668 0.6574
1.3540 -1.9911 0.2351
1.3018 -1.9890 0.1789
1.2571 -2.0366 0.0153
1.1317 -2.0089 -0.0668
1.0947 -2.0187 -0.1330
1.6082 -2.2769 -0.1352
1.7383 -2.3412 -0.1331
1.8503 -2.3966 -0.1314
1.9423 -2.4430 -0.1321
2.0435 -2.4902 -0.1239
2.1307 -2.5310 -0.1170
2.1877 -2.5611 -0.1206
2.2949 -2.6156 -0.1225
2.3501 -2.6415 -0.1184
2.3869 -2.6617 -0.1225
2.4618 -2.6998 -0.1239
2.5084 -2.7195 -0.1153
2.5274 -2.7328 -0.1241
2.5887 -2.7620 -0.1206
2.6457 -2.7878 -0.1140
2.6604 -2.7979 -0.1203
2.6909 -2.8095 -0.1118
2.7046 -2.8186 -0.1171
2.7246 -2.8280 -0.1156
2.7571 -2.8448 -0.1170
2.7938 -2.8604 -0.1102
2.8006 -2.8671 -0.1180
2.8129 -2.8738 -0.1194
2.8287 -2.8803 -0.1158
2.8381 -2.8864 -0.1191
2.8475 -2.8923 -0.1219
2.8577 -2.8979 -0.1232
-0.2881 -0.4610 2.1277
1.5137 -1.9429 0.6582
1.4336 -1.9201 0.6237
1.4287 -1.9369 0.5793
1.4838 -2.0794 0.3086
1.4198 -2.0713 0.2575
1.3071 -2.0442 0.1973
1.1788 -2.0132 0.1289
1.0612 -1.9894 0.0556
1.1496 -2.0480 0.0160
1.1417 -2.0686 -0.0405
1.0623 -2.0634 -0.1152
1.2043 -2.1386 -0.1343
1.5363 -2.2956 -0.1357
1.6592 -2.3548 -0.1389
1.7597 -2.4045 -0.1442
1.8785 -2.4574 -0.1371
1.9918 -2.5061 -0.1262
2.0701 -2.5426 -0.1254
2.1607 -2.5807 -0.1147
2.2409 -2.6264 -0.1331
2.3612 -2.6773 -0.1198
2.4434 -2.7154 -0.1183
2.4746 -2.7313 -0.1210
2.5008 -2.7456 -0.1256
2.5375 -2.7610 -0.1212
2.5653 -2.7743 -0.1215
2.6254 -2.7994 -0.1142
2.6453 -2.8099 -0.1168
2.6593 -2.8193 -0.1233
2.6780 -2.8288 -0.1249
2.7023 -2.8383 -0.1204
2.7255 -2.8471 -0.1155
2.7449 -2.8553 -0.1132
2.7519 -2.8625 -0.1223
2.7739 -2.8699 -0.1155
2.7865 -2.8768 -0.1175
2.8018 -2.8833 -0.1159
2.8161 -2.8895 -0.1146
2.8266 -2.8954 -0.1169
2.8362 -2.9012 -0.1198
2.8457 -2.9067 -0.1223
1.4878 -1.9780 0.6680
1.4315 -2.1241 0.2736
1.3112 -2.0964 0.2147
1.1374 -2.1206 -0.0184
1.1425 -2.1459 -0.0714
1.0657 -2.1441 -0.1456
1.4425 -2.3092 -0.1421
1.5752 -2.3692 -0.1450
1.7275 -2.4319 -0.1343
1.8488 -2.4828 -0.1279
1.9482 -2.5252 -0.1244
2.0784 -2.5871 -0.1343
2.2324 -2.6486 -0.1189
2.2939 -2.6735 -0.1138
2.3302 -2.6922 -0.1198
2.4182 -2.7299 -0.1169
2.4510 -2.7454 -0.1194
2.4797 -2.7597 -0.1229
2.5456 -2.7873 -0.1195
2.6079 -2.8116 -0.1120
2.6359 -2.8224 -0.1084
2.6502 -2.8316 -0.1149
2.6673 -2.8406 -0.1182
2.6834 -2.8492 -0.1215
2.7061 -2.8576 -0.1179
2.7230 -2.8654 -0.1186
2.7331 -2.8727 -0.1252
2.7489 -2.8799 -0.1255
2.7761 -2.8865 -0.1130
2.7879 -2.8928 -0.1156
2.7968 -2.8990 -0.1207
2.8085 -2.9048 -0.1223
2.8267 -2.9100 -0.1155
2.8374 -2.9153 -0.1169
1.5229 -2.0415 0.6695
1.4145 -2.1636 0.2867
1.3372 -2.1547 0.2337
0.6306 -1.9775 -0.0317
1.1125 -2.1874 -0.0548
1.0058 -2.1782 -0.1352
1.1864 -2.2564 -0.1428
1.3839 -2.3355 -0.1366
1.6653 -2.4514 -0.1348
1.7808 -2.4985 -0.1329
1.9040 -2.5450 -0.1224
1.9947 -2.5813 -0.1195
2.0583 -2.6098 -0.1242
2.2133 -2.6681 -0.1106
2.2384 -2.6850 -0.1256
2.3049 -2.7086 -0.1164
2.3947 -2.7449 -0.1143
2.5206 -2.8000 -0.1210
2.5782 -2.8230 -0.1189
2.6855 -2.8684 -0.1210
2.7248 -2.8832 -0.1176
2.7438 -2.8899 -0.1150
2.7598 -2.8963 -0.1145
2.7796 -2.9022 -0.1091
2.7848 -2.9084 -0.1184
2.7939 -2.9142 -0.1232
2.8115 -2.9192 -0.1178
1.5055 -2.0779 0.6777
1.3733 -2.1737 0.3428
1.3365 -2.1803 0.2952
1.3409 -2.2021 0.2495
1.2817 -2.2024 0.1964
0.4662 -1.9575 0.0336
0.3836 -1.9611 -0.0474
1.1472 -2.2473 -0.0249
1.0466 -2.2416 -0.1006
1.3244 -2.3626 -0.1308
1.4772 -2.4223 -0.1318
1.5935 -2.4699 -0.1377
1.7239 -2.5184 -0.1330
1.8296 -2.5588 -0.1315
1.9285 -2.5954 -0.1276
2.0238 -2.6293 -0.1206
2.0988 -2.6574 -0.1182
2.1663 -2.6825 -0.1159
2.2167 -2.7034 -0.1189
2.2732 -2.7242 -0.1162
2.3036 -2.7400 -0.1255
2.3834 -2.7720 -0.1279
2.4329 -2.7878 -0.1202
2.4687 -2.8012 -0.1189
2.5086 -2.8141 -0.1132
2.5329 -2.8250 -0.1166
2.5883 -2.8456 -0.1145
2.6281 -2.8634 -0.1198
2.6529 -2.8717 -0.1168
2.6746 -2.8794 -0.1153
2.6921 -2.8867 -0.1164
2.7066 -2.8937 -0.1195
2.7454 -2.9062 -0.1139
2.7566 -2.9123 -0.1178
2.7659 -2.9183 -0.1233
2.7830 -2.9235 -0.1198
2.8040 -2.9278 -0.1113
1.3231 -5.6801 1.0655
1.3706 -5.5542 1.0459
1.3809 -5.4019 1.0335
1.3436 -5.2312 1.0313
1.2701 -5.2277 1.0487
1.3301 -5.1078 1.0265
1.4291 -4.9615 0.9932
-1.0460 -3.3585 1.4832
-1.2207 -3.2453 1.5178
0.7253 -2.8730 1.0261
0.7277 -2.8175 1.0219
0.6660 -2.7448 1.0320
0.1615 -1.9015 1.0982
0.1466 -1.8334 1.0974
1.3609 -5.5775 0.9948
1.4068 -5.4565 0.9775
1.3825 -5.4117 0.9801
1.2834 -5.1564 0.9863
1.4417 -4.9594 0.9401
-0.3561 -5.3584 1.3544
-0.3613 -5.1410 1.3424
-0.7718 -3.2629 1.3186
0.7710 -2.8782 0.9605
0.7582 -2.8195 0.9598
-0.8763 -1.6948 1.2470
-0.5204 -1.7704 1.1743
0.1325 -1.8759 1.0389
1.3382 -5.6156 0.9457
1.4202 -5.4543 0.9209
1.3843 -5.4216 0.9261
1.2728 -5.2453 0.9380
1.3214 -5.1336 0.9224
1.4853 -4.9321 0.8796
1.4634 -4.8878 0.8814
-0.6254 -5.2695 1.3070
-0.6163 -4.0559 1.2385
-1.1976 -3.3445 1.3119
0.7664 -2.9278 0.9086
0.7685 -2.8720 0.9051
0.7721 -2.8172 0.9014
0.7109 -2.7448 0.9093
-0.5161 -1.8369 1.0970
-0.6415 -1.7034 1.1139
0.0697 -1.8961 0.9868
0.1712 -1.8847 0.9665
1.3886 -5.5730 0.8780
1.3758 -5.5143 0.8772
1.3262 -5.4937 0.8846
1.4888 -4.9999 0.8324
1.4249 -4.9897 0.8427
1.4346 -4.9181 0.8375
2.0304 -4.3245 0.7066
2.0178 -4.2918 0.7071
1.9993 -4.2624 0.7088
2.0128 -4.1736 0.7021
1.9607 -4.1614 0.7103
-1.0199 -3.3447 1.1764
-0.9008 -3.2457 1.1512
0.6785 -2.9624 0.8686
0.7804 -2.9255 0.8494
0.8289 -2.8809 0.8390
0.8466 -2.8309 0.8335
0.7414 -2.7472 0.8472
0.7909 -2.7070 0.8368
0.6989 -2.6229 0.8482
0.5834 -2.5272 0.8631
-0.6757 -1.7556 1.0387
-0.5500 -1.7322 1.0162
-0.5333 -1.6629 1.0099
0.0619 -1.8811 0.9196
0.1416 -1.8585 0.9049
1.4481 -5.5196 0.8106
1.4000 -5.4292 0.8136
1.2896 -5.4694 0.8315
1.2366 -5.4468 0.8383
1.2757 -5.3356 0.8276
1.5330 -5.0329 0.7765
1.5013 -4.9978 0.7796
1.4267 -4.9967 0.7904
1.4259 -4.9329 0.7877
2.0341 -4.3264 0.6718
2.0263 -4.2904 0.6713
2.0078 -4.2610 0.6727
1.9951 -4.2276 0.6731
1.4424 -4.2133 0.7532
1.5687 -4.1117 0.7302
1.5667 -4.0624 0.7283
-1.3632 -3.3292 1.1235
0.7092 -2.9631 0.8045
0.8553 -2.9366 0.7820
0.8276 -2.8750 0.7833
0.8476 -2.7714 0.7758
0.8198 -2.7094 0.7770
0.8379 -2.6620 0.7723
0.7165 -2.5666 0.7858
0.6702 -2.4947 0.7893
-0.8720 -1.5721 0.9734
-0.6559 -1.5913 0.9427
0.1965 -1.9369 0.8336
0.1814 -1.8679 0.8328
2.4583 -4.4930 0.5920
2.4551 -4.4635 0.5912
2.4442 -4.4433 0.5918
2.4314 -4.4247 0.5926
2.3871 -4.4056 0.5972
1.5702 -4.8863 0.7156
1.4490 -4.9227 0.7318
2.0148 -4.3021 0.6385
2.0021 -4.2686 0.6387
2.0085 -4.2233 0.6362
1.5921 -4.2063 0.6862
1.5111 -4.1883 0.6954
1.5366 -4.1261 0.6898
1.4807 -4.0942 0.6954
0.8016 -4.1863 0.7817
-0.8755 -3.3394 0.9527
-0.2458 -2.9316 0.8600
0.7034 -3.0165 0.7477
0.6727 -2.9505 0.7488
0.8689 -2.9343 0.7243
0.8712 -2.8800 0.7219
0.9163 -2.8379 0.7147
0.9040 -2.7816 0.7140
0.8031 -2.6977 0.7230
0.8208 -2.6496 0.7190
0.7776 -2.5811 0.7215
0.7956 -2.5344 0.7175
0.7200 -2.4516 0.7235
0.2946 -2.2194 0.7662
-0.5254 -1.7962 0.8494
0.0871 -1.9355 0.7803
0.2567 -1.9562 0.7604
0.1977 -1.8652 0.7640
0.4338 -1.9321 0.7379
0.4571 -1.8895 0.7334
0.6213 -1.9301 0.7150
1.5687 -4.2196 0.6436
1.5030 -4.1412 0.6473
1.1366 -4.0300 0.6792
0.8589 -3.1542 0.6765
0.8826 -2.9321 0.6666
0.8551 -2.8704 0.6672
0.9295 -2.8357 0.6588
0.8446 -2.7582 0.6644
0.8169 -2.6954 0.6650
0.7575 -2.6214 0.6682
0.8066 -2.5843 0.6622
0.7633 -2.5146 0.6640
0.7186 -2.4431 0.6660
0.4213 -2.2039 0.6867
0.6027 -2.1203 0.6663
0.4627 -1.9931 0.6756
0.4856 -1.9497 0.6719
0.6639 -1.9955 0.6561
0.9543 -2.1143 0.6319
1.2981 -6.2260 0.6738
1.2406 -6.2180 0.6777
1.9413 -5.1600 0.5969
1.9978 -5.0356 0.5892
1.9883 -4.7420 0.5815
1.9094 -4.7684 0.5880
2.0252 -4.3462 0.5676
1.5711 -4.2216 0.5969
1.4878 -4.2034 0.6024
0.9279 -2.8829 0.6053
0.8710 -2.8139 0.6074
0.8285 -2.7471 0.6086
0.8456 -2.6979 0.6060
0.6893 -2.5911 0.6142
0.8797 -2.6035 0.6008
0.5198 -1.9580 0.6085
1.2713 -6.1953 0.6093
1.9234 -4.8143 0.5468
1.9070 -4.7786 0.5467
1.8320 -4.7961 0.5507
1.7185 -4.8426 0.5571
1.6789 -4.7052 0.5558
1.7244 -4.6157 0.5516
2.0191 -4.3551 0.5317
1.5387 -4.2390 0.5517
1.5367 -4.1862 0.5506
0.4556 -3.0914 0.5764
1.0838 -3.1230 0.5475
1.0330 -3.0613 0.5485
0.9517 -2.9915 0.5507
0.9100 -2.9275 0.5512
0.9120 -2.8733 0.5499
0.8699 -2.8075 0.5503
0.7637 -2.7213 0.5534
0.5384 -2.5927 0.5610
0.4446 -2.4998 0.5633
0.4507 -2.4399 0.5617
0.5710 -2.4250 0.5556
0.6975 -2.4184 0.5495
0.7654 -2.3927 0.5457
0.6876 -2.3047 0.5474
0.6947 -2.2008 0.5447
0.6973 -2.1494 0.5434
0.7170 -2.1076 0.5415
0.7200 -2.0580 0.5402
0.6756 -1.9819 0.5405
1.2435 -6.3420 0.5461
1.3149 -6.1548 0.5413
1.5756 -5.3704 0.5220
1.3749 -5.5184 0.5289
1.5714 -5.2400 0.5198
1.5795 -5.1657 0.5183
1.6772 -5.0071 0.5135
1.7861 -4.8464 0.5083
1.3691 -5.0898 0.5216
1.4795 -4.9311 0.5164
1.4884 -4.8600 0.5150
2.0078 -4.3679 0.4952
1.5406 -4.2414 0.5031
1.5395 -4.1879 0.5022
1.1234 -4.1639 0.5108
1.1372 -4.0963 0.5093
0.5934 -3.1052 0.5038
0.9527 -2.9320 0.4930
0.9110 -2.8673 0.4928
0.8690 -2.8012 0.4925
0.7780 -2.7190 0.4931
0.2429 -2.4219 0.4995
-0.2867 -2.0824 0.5050
0.1952 -2.2036 0.4967
0.1792 -2.1308 0.4958
0.0376 -2.0009 0.4966
-0.0877 -1.8736 0.4971
0.2995 -1.9346 0.4898
0.4500 -1.9548 0.4869
0.0585 -1.6801 0.4906
0.0425 -1.6067 0.4896
1.2448 -6.2702 0.4765
1.3638 -5.5437 0.4684
1.4583 -5.3693 0.4668
1.7201 -4.9160 0.4626
1.5045 -4.9838 0.4624
1.4282 -4.9814 0.4621
1.9912 -4.3846 0.4574
1.5772 -4.1752 0.4532
1.5307 -4.1406 0.4526
1.0363 -4.2617 0.4520
1.0530 -4.1888 0.4512
1.0394 -4.1267 0.4504
0.4889 -3.0859 0.4359
0.8267 -3.0135 0.4364
0.9644 -2.9840 0.4367
0.9229 -2.9196 0.4357
0.9102 -2.8613 0.4350
0.8212 -2.7816 0.4337
0.8396 -2.7310 0.4332
0.5694 -2.5876 0.4303
0.1382 -2.3766 0.4260
-0.5975 -2.0341 0.4189
-0.4336 -2.0135 0.4194
0.1637 -2.1806 0.4238
