ply
format ascii 1.0
element vertex 2130
property float x
property float y
property float z
end_header
2.6641 -0.8925 -0.6246
2.6390 -0.8752 -0.6244
2.6123 -0.8581 -0.6214
2.5907 -0.8432 -0.6215
2.5742 -0.8303 -0.6251
2.5553 -0.8172 -0.6254
2.5146 -0.7916 -0.6193
2.5017 -0.7813 -0.6226
2.4689 -0.7604 -0.6185
2.4586 -0.7517 -0.6224
2.4491 -0.7434 -0.6267
2.4334 -0.7344 -0.6223
2.4210 -0.7262 -0.6212
2.4101 -0.7186 -0.6216
2.3902 -0.7044 -0.6227
2.3781 -0.6975 -0.6190
2.3737 -0.6916 -0.6263
4.0986 -2.1794 0.3025
4.0273 -2.1059 0.2363
4.1006 -2.1354 0.1916
4.0100 -2.0276 0.0726
3.9913 -1.9929 0.0175
3.9727 -1.9585 -0.0370
3.9431 -1.9173 -0.0906
4.0116 -1.9390 -0.1467
4.0058 -1.9126 -0.2019
3.9754 -1.8711 -0.2549
3.8971 -1.8014 -0.3005
3.8689 -1.7629 -0.3497
3.9466 -1.6946 -0.6403
3.7934 -1.5919 -0.6475
3.6525 -1.4989 -0.6503
3.4719 -1.3896 -0.6299
3.3874 -1.3310 -0.6387
2.9390 -1.0448 -0.6239
2.8939 -1.0151 -0.6247
2.8602 -0.9909 -0.6303
2.8131 -0.9624 -0.6247
2.7807 -0.9404 -0.6269
2.7341 -0.9143 -0.6164
2.7089 -0.8964 -0.6200
2.6965 -0.8832 -0.6326
2.6163 -0.8333 -0.6268
2.5868 -0.8173 -0.6191
2.5625 -0.8033 -0.6145
2.5458 -0.7917 -0.6162
2.5342 -0.7817 -0.6222
2.5176 -0.7709 -0.6222
2.5028 -0.7609 -0.6231
2.4865 -0.7510 -0.6214
2.4735 -0.7420 -0.6226
2.4614 -0.7335 -0.6241
2.4334 -0.7169 -0.6199
2.4231 -0.7096 -0.6215
2.4129 -0.7026 -0.6225
2.4036 -0.6958 -0.6240
2.3911 -0.6891 -0.6205
4.1504 -2.1661 0.3732
4.1311 -2.1300 0.3145
4.0975 -2.0844 0.2542
4.1468 -2.0949 0.2061
4.1266 -2.0584 0.1479
4.0545 -1.9887 0.0865
4.0742 -1.9788 0.0332
3.9442 -1.8748 -0.0249
3.9274 -1.8431 -0.0767
3.9107 -1.8116 -0.1280
3.9510 -1.8141 -0.1820
3.9111 -1.7690 -0.2316
3.9520 -1.7707 -0.2885
3.9704 -1.7588 -0.3448
4.2944 -1.8603 -0.5818
4.2877 -1.8302 -0.6448
3.9913 -1.6554 -0.6263
3.8129 -1.5450 -0.6278
3.7089 -1.4741 -0.6445
3.4573 -1.3371 -0.6013
3.4197 -1.3027 -0.6286
3.0861 -1.0994 -0.6239
3.0350 -1.0661 -0.6284
2.9824 -1.0334 -0.6292
2.8886 -0.9758 -0.6289
2.8508 -0.9517 -0.6308
2.7612 -0.9019 -0.6179
2.7381 -0.8852 -0.6239
2.6792 -0.8499 -0.6216
2.6582 -0.8356 -0.6251
2.6321 -0.8204 -0.6229
2.6071 -0.8062 -0.6201
2.5890 -0.7941 -0.6224
2.5643 -0.7811 -0.6170
2.5329 -0.7602 -0.6209
2.5027 -0.7411 -0.6223
2.4754 -0.7238 -0.6235
2.4598 -0.7154 -0.6204
2.4459 -0.7076 -0.6186
2.4370 -0.7006 -0.6224
2.4266 -0.6937 -0.6236
2.4121 -0.6868 -0.6186
2.4026 -0.6805 -0.6197
6.3863 -4.1211 2.1247
4.1278 -2.0801 0.3733
4.1621 -2.0803 0.3261
4.2585 -2.1199 0.2866
4.1785 -2.0451 0.2186
4.1725 -2.0182 0.1623
4.1115 -1.9574 0.1015
4.0286 -1.8846 0.0423
3.9350 -1.7861 -0.0637
3.9296 -1.7619 -0.1144
3.9472 -1.7504 -0.1662
3.9531 -1.7321 -0.2184
5.0674 -2.2054 -0.6352
4.4652 -1.8459 -0.6590
4.1031 -1.6477 -0.6302
3.9439 -1.5504 -0.6416
3.4764 -1.3022 -0.5861
3.4390 -1.2690 -0.6136
3.0012 -1.0605 -0.5040
3.0992 -1.0731 -0.6102
3.0770 -1.0518 -0.6305
2.9651 -0.9878 -0.6283
2.9092 -0.9577 -0.6225
2.8760 -0.9361 -0.6281
2.8049 -0.8938 -0.6305
2.6746 -0.8221 -0.6210
2.6294 -0.7952 -0.6226
2.5804 -0.7698 -0.6153
2.5535 -0.7502 -0.6248
2.5166 -0.7306 -0.6203
2.5021 -0.7220 -0.6210
2.4835 -0.7133 -0.6159
2.4710 -0.7056 -0.6169
2.4602 -0.6983 -0.6193
2.4511 -0.6914 -0.6233
2.4430 -0.6848 -0.6279
2.4265 -0.6781 -0.6210
2.4167 -0.6719 -0.6222
4.2753 -2.1765 0.5753
4.1556 -2.0748 0.4891
4.1780 -2.0672 0.4418
4.2962 -2.0961 0.3568
4.1607 -1.9890 0.2781
4.1956 -1.9875 0.2291
4.2046 -1.9697 0.1751
4.0043 -1.8295 0.1025
4.0225 -1.8187 0.0529
3.9248 -1.7421 -0.0020
3.9315 -1.6834 -0.1507
5.9741 -2.5892 -0.6549
5.3581 -2.2528 -0.6533
4.8796 -1.9937 -0.6468
4.6835 -1.8726 -0.6795
4.0361 -1.5341 -0.6421
3.4991 -1.2868 -0.5314
3.6460 -1.3290 -0.6221
3.0711 -1.0459 -0.5471
3.1397 -1.0570 -0.6100
3.1133 -1.0346 -0.6290
3.0026 -0.9735 -0.6303
2.9639 -0.9498 -0.6362
2.9033 -0.9207 -0.6264
2.8613 -0.8982 -0.6254
2.7153 -0.8406 -0.5723
2.6983 -0.8102 -0.6226
2.6467 -0.7829 -0.6203
2.6332 -0.7723 -0.6279
2.5489 -0.7293 -0.6205
2.5349 -0.7206 -0.6230
2.5167 -0.7118 -0.6201
2.4671 -0.6822 -0.6262
2.4545 -0.6755 -0.6256
2.4393 -0.6691 -0.6211
2.4285 -0.6631 -0.6213
2.4212 -0.6573 -0.6257
4.1449 -2.0452 0.5903
4.2052 -2.0621 0.5567
4.1862 -2.0280 0.4994
4.4832 -2.1634 0.4579
4.5480 -2.1766 0.4101
4.4357 -2.0848 0.3299
4.3959 -2.0367 0.2649
4.2795 -1.9462 0.1928
3.9985 -1.7669 0.1112
3.8445 -1.6623 0.0516
3.8497 -1.6456 0.0059
3.8158 -1.6083 -0.0409
3.8897 -1.6268 -0.0873
3.8847 -1.6040 -0.1349
3.8301 -1.5570 -0.1795
5.5377 -2.2381 -0.6485
4.7945 -1.8759 -0.5996
4.6971 -1.8036 -0.6520
4.4349 -1.6653 -0.6595
3.6817 -1.2978 -0.6109
3.1453 -1.0155 -0.6250
3.0967 -0.9875 -0.6318
3.0342 -0.9568 -0.6285
2.7327 -0.8447 -0.5263
2.7306 -0.8353 -0.5458
2.7230 -0.8247 -0.5616
2.7200 -0.8153 -0.5803
2.7207 -0.8065 -0.6018
2.7122 -0.7960 -0.6162
2.6696 -0.7714 -0.6226
2.6476 -0.7597 -0.6234
2.5678 -0.7189 -0.6227
2.5304 -0.7015 -0.6182
2.5190 -0.6939 -0.6223
2.5059 -0.6865 -0.6238
2.4771 -0.6726 -0.6217
2.4642 -0.6662 -0.6212
2.4505 -0.6601 -0.6189
2.4355 -0.6484 -0.6283
4.4053 -2.1421 0.6707
4.3992 -2.1146 0.6133
3.8192 -1.4231 -0.3486
3.8633 -1.4212 -0.4030
4.6682 -1.7199 -0.6166
4.5806 -1.6567 -0.6653
3.5570 -1.2275 -0.5091
3.7440 -1.2759 -0.6080
3.6538 -1.2255 -0.6236
3.2335 -1.0261 -0.6138
3.2039 -1.0035 -0.6333
3.1465 -0.9739 -0.6374
2.7534 -0.8318 -0.5242
2.8696 -0.8474 -0.6193
2.8358 -0.8303 -0.6212
2.7470 -0.7945 -0.6043
2.7118 -0.7709 -0.6196
2.6948 -0.7598 -0.6263
2.6685 -0.7479 -0.6244
2.6192 -0.7262 -0.6192
2.5815 -0.7078 -0.6196
2.5506 -0.6914 -0.6229
2.5146 -0.6764 -0.6172
2.4889 -0.6630 -0.6194
2.4757 -0.6568 -0.6189
2.4644 -0.6509 -0.6200
2.4586 -0.6450 -0.6272
2.9913 -1.0615 -0.1869
3.6033 -1.2040 -0.5028
3.7983 -1.2501 -0.6020
3.7935 -1.2286 -0.6469
3.2244 -0.9800 -0.6231
3.1954 -0.9588 -0.6417
2.7853 -0.8301 -0.5072
2.8998 -0.8334 -0.6207
2.8809 -0.8194 -0.6332
2.8388 -0.8020 -0.6291
2.8007 -0.7861 -0.6257
2.7387 -0.7589 -0.6235
2.6773 -0.7345 -0.6152
2.6461 -0.7154 -0.6265
2.6019 -0.6970 -0.6227
2.5832 -0.6887 -0.6223
2.5703 -0.6810 -0.6265
2.5472 -0.6734 -0.6197
2.5335 -0.6664 -0.6215
2.5063 -0.6533 -0.6231
2.4929 -0.6473 -0.6230
2.4841 -0.6413 -0.6276
2.4689 -0.6359 -0.6240
2.4611 -0.6304 -0.6288
4.5810 -1.7985 0.0155
6.2542 -2.4481 -0.1319
2.9672 -1.0276 -0.1759
2.9137 -0.9977 -0.1921
3.7794 -1.2012 -0.5748
3.8209 -1.1938 -0.6326
3.0351 -0.9188 -0.4941
2.8248 -0.8296 -0.4930
2.9760 -0.8377 -0.6231
2.8905 -0.8018 -0.6218
2.8584 -0.7868 -0.6249
2.8236 -0.7721 -0.6244
2.7968 -0.7592 -0.6279
2.7662 -0.7465 -0.6272
2.6638 -0.7035 -0.6255
2.6387 -0.6943 -0.6222
2.6206 -0.6858 -0.6238
2.5817 -0.6702 -0.6218
2.5686 -0.6630 -0.6255
2.5322 -0.6498 -0.6201
2.5202 -0.6435 -0.6228
2.5046 -0.6378 -0.6207
2.4966 -0.6319 -0.6264
2.4849 -0.6264 -0.6274
5.2728 -1.9885 -0.0205
6.4850 -2.3883 -0.2125
2.9488 -0.9978 -0.1661
2.8370 -0.9409 -0.1944
2.8349 -0.9315 -0.2142
3.8291 -1.1544 -0.6128
3.0047 -0.9000 -0.4418
3.0197 -0.8923 -0.4731
2.8499 -0.8259 -0.4701
2.8620 -0.8186 -0.4980
3.0071 -0.8220 -0.6230
2.9659 -0.8045 -0.6254
2.9229 -0.7877 -0.6247
2.8466 -0.7579 -0.6231
2.8132 -0.7447 -0.6227
2.7851 -0.7328 -0.6244
2.7211 -0.7102 -0.6176
2.7003 -0.7006 -0.6207
2.6816 -0.6915 -0.6244
2.6307 -0.6743 -0.6172
2.6143 -0.6667 -0.6197
2.5999 -0.6593 -0.6234
2.5826 -0.6524 -0.6236
2.5645 -0.6458 -0.6220
2.5532 -0.6394 -0.6265
2.5202 -0.6280 -0.6225
2.4943 -0.6174 -0.6230
4.9066 -1.7996 0.0564
4.8776 -1.7595 -0.0103
2.8432 -0.9324 -0.1683
3.4106 -1.0258 -0.4371
3.3506 -0.9960 -0.4541
3.2899 -0.9673 -0.4680
3.2475 -0.9439 -0.4853
3.0425 -0.8865 -0.4421
3.0114 -0.8689 -0.4558
2.9815 -0.8522 -0.4686
2.9266 -0.8315 -0.4692
2.9034 -0.8173 -0.4816
3.0820 -0.8238 -0.6185
3.0481 -0.8071 -0.6278
2.9957 -0.7888 -0.6252
2.8720 -0.7436 -0.6230
2.8297 -0.7303 -0.6176
2.7745 -0.7080 -0.6214
2.7389 -0.6974 -0.6153
2.7187 -0.6882 -0.6193
2.7057 -0.6795 -0.6281
2.6746 -0.6709 -0.6213
2.6380 -0.6554 -0.6255
2.6163 -0.6483 -0.6231
2.5997 -0.6416 -0.6245
2.5638 -0.6293 -0.6219
2.5410 -0.6175 -0.6294
2.5228 -0.6127 -0.6250
6.0855 0.4894 1.0540
3.1595 1.3901 0.3271
3.1636 1.3486 0.3251
3.1334 1.2662 0.3121
3.1247 1.2119 0.3062
3.1407 1.1866 0.3082
3.1578 1.1618 0.3105
3.1830 1.1449 0.3153
3.2231 1.1417 0.3246
3.2224 1.0965 0.3212
3.2253 1.0553 0.3190
3.2485 1.0329 0.3229
3.3327 1.0620 0.3450
3.4735 1.1327 0.3834
5.7404 2.8836 1.0463
6.2813 3.0252 1.1849
6.0613 0.4853 0.9525
3.5704 -0.1670 0.3143
3.5081 -0.1983 0.2972
3.4300 -0.2247 0.2768
3.3938 -0.2525 0.2662
3.3501 -0.2772 0.2541
3.2168 -0.2838 0.2220
3.1822 -0.3037 0.2123
3.1755 -0.3278 0.2090
3.1579 -0.3488 0.2033
3.1808 -0.3795 0.2066
3.1701 -0.4013 0.2025
3.1896 -0.4315 0.2050
3.1641 -0.4477 0.1978
4.5182 -0.9929 0.4809
3.0472 -0.5340 0.1639
3.1455 1.3353 0.2863
3.1416 1.2848 0.2822
3.1414 1.1952 0.2762
3.1619 1.1740 0.2793
3.1872 1.1567 0.2836
3.2145 1.1402 0.2883
3.2366 1.1173 0.2916
3.2452 1.0806 0.2910
3.2685 1.0572 0.2945
3.3189 1.0564 0.3053
5.0445 2.2401 0.7532
5.8695 0.4580 0.8134
3.5832 -0.1323 0.2841
3.5253 -0.1663 0.2694
3.4711 -0.1973 0.2557
3.1182 -0.2686 0.1753
3.1219 -0.2940 0.1745
3.1302 -0.3203 0.1745
3.1517 -0.3499 0.1772
3.1399 -0.3714 0.1733
3.1579 -0.4006 0.1752
3.1736 -0.4296 0.1767
3.1895 -0.4591 0.1781
3.2090 -0.4903 0.1803
3.1413 1.3392 0.2518
3.1419 1.2939 0.2492
3.1371 1.2429 0.2452
3.1497 1.2127 0.2458
3.1748 1.1958 0.2496
3.1974 1.1751 0.2527
3.2103 1.1434 0.2532
3.2143 1.1025 0.2516
3.2319 1.0748 0.2533
3.2798 1.0741 0.2624
3.3476 1.0879 0.2762
5.8065 0.4486 0.7082
4.4164 0.0712 0.4195
3.4383 -0.0940 0.2225
3.5686 -0.1337 0.2450
3.5166 -0.1677 0.2330
3.1183 -0.2204 0.1537
3.1060 -0.2438 0.1499
3.1178 -0.2707 0.1506
3.1239 -0.2967 0.1502
3.1299 -0.3226 0.1498
3.1395 -0.3495 0.1500
3.1610 -0.3797 0.1523
3.1815 -0.4103 0.1544
3.1770 -0.4337 0.1521
3.1904 -0.4626 0.1529
3.2026 -0.4914 0.1535
3.2089 -0.5182 0.1531
3.2690 -0.5662 0.1617
3.0390 -0.5369 0.1195
3.0156 -0.5458 0.1145
3.1463 1.3082 0.2167
3.1452 1.2610 0.2139
3.1370 1.2063 0.2096
3.1364 1.1615 0.2070
3.1490 1.1313 0.2075
3.1786 1.1181 0.2117
3.2057 1.1010 0.2153
3.2521 1.1008 0.2231
3.2863 1.0867 0.2281
5.0391 2.3662 0.5919
5.9043 0.4614 0.6330
4.5330 0.1412 0.3855
4.2857 0.0619 0.3397
3.4659 -0.0601 0.1956
3.4799 -0.0962 0.1960
3.5284 -0.1339 0.2020
3.4911 -0.1681 0.1939
3.1059 -0.1951 0.1278
3.1154 -0.2219 0.1280
3.0998 -0.2448 0.1241
3.1059 -0.2707 0.1237
3.1246 -0.2991 0.1253
3.1401 -0.3274 0.1264
3.1275 -0.3491 0.1231
3.1453 -0.3782 0.1245
3.1680 -0.4093 0.1266
3.1647 -0.4329 0.1247
3.1936 -0.4668 0.1277
3.2143 -0.4989 0.1294
3.2412 -0.5338 0.1321
3.0386 -0.5401 0.0977
3.0267 -0.5741 0.0939
2.9929 -0.5948 0.0871
3.1590 1.2861 0.1828
3.1661 1.1571 0.1775
3.1886 1.1359 0.1797
3.1828 1.0854 0.1764
3.2011 1.0590 0.1777
3.2979 1.1043 0.1938
5.8806 0.4574 0.5336
5.6346 0.3279 0.4919
4.2862 0.0604 0.2848
3.4738 -0.0614 0.1620
3.4933 -0.0980 0.1630
3.4759 -0.1691 0.1570
3.1086 -0.1972 0.1028
3.1058 -0.2225 0.1012
3.1278 -0.2513 0.1030
3.1054 -0.2728 0.0987
3.1368 -0.3040 0.1017
3.1176 -0.3247 0.0979
3.1423 -0.3554 0.0999
3.1426 -0.3802 0.0988
3.1523 -0.4075 0.0988
3.1679 -0.4369 0.0996
3.1943 -0.4703 0.1018
3.2007 -0.4974 0.1014
3.2310 -0.5336 0.1040
3.2556 -0.5684 0.1058
3.0781 -0.5404 0.0816
3.0554 -0.5512 0.0778
3.0289 -0.5788 0.0727
3.1325 1.2632 0.1433
3.1331 1.2184 0.1415
3.1449 1.1867 0.1415
3.1497 1.1472 0.1404
3.1800 1.1344 0.1435
3.2017 1.1114 0.1451
3.2201 1.0841 0.1461
3.3048 1.1176 0.1577
4.1786 0.3997 0.2311
4.4599 0.3939 0.2645
4.5441 0.3412 0.2723
4.7116 0.2962 0.2904
4.5930 0.2114 0.2725
3.5261 -0.1002 0.1313
3.4997 -0.1364 0.1266
3.4408 -0.1688 0.1182
3.0990 -0.1979 0.0760
3.0995 -0.2235 0.0749
3.0936 -0.2727 0.0721
3.1340 -0.3057 0.0755
3.1459 -0.3337 0.0757
3.1337 -0.3559 0.0733
3.1492 -0.3848 0.0739
3.1624 -0.4135 0.0742
3.1781 -0.4432 0.0748
3.1974 -0.4746 0.0758
3.2073 -0.5032 0.0757
3.2317 -0.5374 0.0771
3.2490 -0.5695 0.0778
3.2410 -0.5914 0.0759
3.0980 -0.5527 0.0605
3.0479 -0.5716 0.0537
3.0261 -0.5809 0.0507
3.1501 1.2934 0.1112
3.1544 1.2517 0.1101
3.1587 1.2103 0.1089
3.1715 1.1786 0.1090
3.1844 1.1466 0.1090
3.1930 1.1099 0.1084
3.2448 1.1152 0.1135
3.3230 1.1417 0.1220
4.2464 0.4152 0.1825
4.3804 0.3791 0.1939
4.1668 -0.0598 0.1571
3.4505 -0.1362 0.0860
3.0871 -0.1983 0.0491
3.1022 -0.2259 0.0495
3.0960 -0.2503 0.0480
3.0931 -0.2748 0.0468
3.1174 -0.3047 0.0480
3.1430 -0.3356 0.0493
3.1401 -0.3602 0.0481
3.1394 -0.3849 0.0471
3.1584 -0.4152 0.0477
3.1822 -0.4477 0.0488
3.1944 -0.4769 0.0488
3.2186 -0.5108 0.0499
3.2358 -0.5427 0.0503
3.2614 -0.5784 0.0514
3.0837 -0.5499 0.0355
3.0257 -0.5843 0.0287
3.1875 1.3480 0.0796
3.1550 1.2612 0.0746
3.1543 1.2137 0.0730
3.1671 1.1818 0.0729
3.1714 1.1406 0.0719
3.1895 1.1137 0.0723
3.3594 1.1831 0.0865
4.3049 0.4288 0.1290
4.5436 0.2041 0.1386
4.3310 0.1192 0.1210
4.3152 -0.0022 0.1160
4.1785 -0.0619 0.1045
3.4322 -0.1372 0.0496
3.2906 -0.1623 0.0388
3.0930 -0.2008 0.0237
3.0992 -0.2274 0.0233
3.0842 -0.2505 0.0215
3.0723 -0.2731 0.0199
3.1145 -0.3064 0.0218
3.1332 -0.3359 0.0222
3.1337 -0.3612 0.0214
3.1526 -0.3915 0.0218
3.1659 -0.4205 0.0218
3.1815 -0.4507 0.0219
3.1914 -0.4793 0.0217
3.2343 -0.5201 0.0234
3.2516 -0.5525 0.0236
3.2618 -0.5825 0.0234
3.0804 -0.5520 0.0116
3.6228 -0.8610 0.0399
3.6605 -0.9763 0.0389
3.1505 1.2646 0.0381
3.1498 1.2171 0.0369
3.1677 1.1907 0.0370
3.1764 1.1537 0.0364
3.1893 1.1211 0.0361
3.2415 1.1266 0.0387
3.3732 1.2038 0.0466
4.9399 2.4614 0.1502
4.3199 0.4329 0.0694
4.2590 0.1120 0.0584
4.2453 0.0520 0.0562
4.2312 -0.0066 0.0540
4.1537 -0.0641 0.0490
3.4334 -0.1390 0.0145
3.0834 -0.2015 -0.0030
3.0896 -0.2280 -0.0034
3.0691 -0.2500 -0.0049
3.0639 -0.2737 -0.0058
3.0845 -0.3024 -0.0056
3.1336 -0.3386 -0.0043
3.1331 -0.3638 -0.0050
3.1302 -0.3880 -0.0057
3.1721 -0.4255 -0.0048
3.1959 -0.4586 -0.0046
3.2024 -0.4864 -0.0050
3.2229 -0.5195 -0.0050
3.2519 -0.5564 -0.0046
3.2325 -0.5744 -0.0059
3.0854 -0.5578 -0.0122
3.0911 -0.5822 -0.0126
3.6469 -0.9111 0.0041
3.6555 -0.9478 0.0035
3.6334 -0.9675 0.0020
3.6603 -1.0142 0.0020
3.1732 1.3008 0.0026
3.1595 1.2367 0.0010
3.1682 1.1994 0.0004
3.1633 1.1476 -0.0007
3.1805 1.1196 -0.0009
4.3051 0.4304 0.0076
4.2464 0.3544 0.0049
4.3650 0.2467 0.0051
4.1776 0.1623 -0.0003
4.2045 0.1063 -0.0009
4.2179 0.0489 -0.0018
4.2176 -0.0089 -0.0030
4.2044 -0.0661 -0.0044
3.3991 -0.1393 -0.0218
3.1912 -0.1587 -0.0263
3.0861 -0.1775 -0.0288
3.0837 -0.2033 -0.0294
3.1053 -0.2323 -0.0295
3.0685 -0.2520 -0.0306
3.0634 -0.2758 -0.0312
3.0896 -0.3059 -0.0313
3.1238 -0.3389 -0.0313
3.1403 -0.3684 -0.0315
3.1432 -0.3946 -0.0320
3.1690 -0.4276 -0.0322
3.1892 -0.4597 -0.0324
3.2062 -0.4912 -0.0327
3.2162 -0.5206 -0.0331
3.2415 -0.5562 -0.0333
3.2482 -0.5848 -0.0337
3.0964 -0.5442 -0.0359
3.0831 -0.5604 -0.0365
3.0889 -0.5849 -0.0369
3.1548 1.2401 -0.0362
3.1594 1.1980 -0.0368
3.1588 1.1507 -0.0375
3.1768 1.1234 -0.0379
4.1629 0.3998 -0.0539
4.1372 0.3337 -0.0547
4.3195 0.2400 -0.0571
4.1774 0.1614 -0.0574
4.1774 0.1029 -0.0582
4.2042 0.0466 -0.0591
4.2449 -0.0101 -0.0602
3.5057 -0.1084 -0.0572
3.0949 -0.1801 -0.0557
3.0741 -0.2040 -0.0560
3.0868 -0.2316 -0.0564
3.0601 -0.2527 -0.0566
3.0540 -0.2762 -0.0569
3.0689 -0.3038 -0.0573
3.1432 -0.3462 -0.0584
3.1530 -0.3746 -0.0588
3.1696 -0.4051 -0.0593
3.1864 -0.4362 -0.0599
3.1895 -0.4631 -0.0603
3.2110 -0.4964 -0.0609
3.2280 -0.5287 -0.0614
3.2580 -0.5666 -0.0621
3.2274 -0.5801 -0.0621
3.1596 1.2067 -0.0742
3.1592 1.1592 -0.0746
3.1628 1.1166 -0.0751
3.2608 1.1687 -0.0778
4.2757 0.4254 -0.1161
4.1898 0.3441 -0.1140
4.1369 0.2740 -0.1129
4.3049 0.2376 -0.1186
4.3193 0.1760 -0.1195
4.1257 0.0975 -0.1139
3.1279 -0.1574 -0.0840
3.0948 -0.1818 -0.0832
3.0861 -0.2074 -0.0831
3.0859 -0.2335 -0.0833
3.0627 -0.2552 -0.0827
3.0512 -0.2779 -0.0825
3.0572 -0.3036 -0.0829
3.1400 -0.3481 -0.0859
3.1464 -0.3757 -0.0864
3.1630 -0.4063 -0.0871
3.1661 -0.4330 -0.0875
3.1897 -0.4665 -0.0885
3.1894 -0.4923 -0.0887
3.2327 -0.5342 -0.0904
3.2661 -0.5738 -0.0918
3.0259 -0.6231 -0.0845
3.0143 -0.6364 -0.0842
3.1509 1.2533 -0.1117
3.1457 1.1996 -0.1115
3.1545 1.1622 -0.1121
3.1816 1.1440 -0.1137
5.1235 2.6862 -0.2244
4.2609 0.4229 -0.1780
4.1627 0.3392 -0.1724
4.1363 0.2738 -0.1710
4.0377 0.2008 -0.1654
3.2221 -0.0732 -0.1182
3.2085 -0.1042 -0.1175
3.1662 -0.1328 -0.1150
3.1148 -0.1580 -0.1121
3.0819 -0.1823 -0.1102
3.0765 -0.2081 -0.1099
3.0763 -0.2341 -0.1100
3.0478 -0.2547 -0.1083
3.0363 -0.2772 -0.1077
3.0797 -0.3110 -0.1103
3.1367 -0.3500 -0.1137
3.1777 -0.3871 -0.1162
3.1877 -0.4166 -0.1168
3.1809 -0.4409 -0.1164
3.1943 -0.4715 -0.1173
3.2112 -0.5036 -0.1183
3.2144 -0.5310 -0.1186
3.2326 -0.5643 -0.1197
3.2023 -0.5774 -0.1179
3.0198 -0.6035 -0.1073
3.0085 -0.6174 -0.1067
3.0186 -0.6428 -0.1073
3.0070 -0.6556 -0.1067
3.6874 2.1920 -0.2002
3.6907 2.1204 -0.2002
3.1777 1.1959 -0.1523
3.1967 1.1679 -0.1538
3.4249 1.2946 -0.1738
5.2478 2.5684 -0.3348
4.3230 0.4374 -0.2465
4.2171 0.3501 -0.2371
4.1355 0.2736 -0.2298
4.0729 0.2051 -0.2241
3.2412 0.0244 -0.1525
3.2244 -0.0099 -0.1509
3.1794 -0.0435 -0.1469
3.2146 -0.0744 -0.1498
3.2095 -0.1057 -0.1492
3.1560 -0.1338 -0.1445
3.1081 -0.1592 -0.1403
3.0786 -0.1837 -0.1377
3.0732 -0.2096 -0.1371
3.0699 -0.2351 -0.1367
3.0610 -0.2592 -0.1359
3.0444 -0.2810 -0.1343
3.0482 -0.3064 -0.1346
3.1169 -0.3479 -0.1402
3.1709 -0.3882 -0.1446
3.1809 -0.4177 -0.1454
3.1775 -0.4431 -0.1450
3.1763 -0.4688 -0.1447
3.1942 -0.5011 -0.1461
3.2258 -0.5392 -0.1486
3.2406 -0.5715 -0.1498
3.1328 -0.5753 -0.1406
3.0231 -0.5887 -0.1311
3.0072 -0.6007 -0.1297
2.9888 -0.6104 -0.1281
2.9845 -0.6273 -0.1277
3.6837 2.2035 -0.2596
3.6974 2.1451 -0.2605
3.1651 1.2886 -0.1914
3.1791 1.2551 -0.1926
3.2136 1.2439 -0.1964
3.2386 1.2205 -0.1989
5.0354 2.5245 -0.4148
5.2952 2.6233 -0.4451
3.2001 0.0204 -0.1816
3.1882 -0.0127 -0.1799
3.1915 -0.0443 -0.1799
3.1906 -0.0757 -0.1795
3.1865 -0.1065 -0.1787
3.1385 -0.1344 -0.1730
3.1045 -0.1606 -0.1689
3.0637 -0.1839 -0.1641
3.0520 -0.2087 -0.1625
3.0635 -0.2362 -0.1635
3.0462 -0.2588 -0.1613
3.0609 -0.2867 -0.1626
3.0617 -0.3119 -0.1625
3.1334 -0.3547 -0.1701
3.1850 -0.3951 -0.1754
3.1818 -0.4212 -0.1748
3.1808 -0.4475 -0.1744
3.1908 -0.4773 -0.1752
3.2121 -0.5113 -0.1772
3.2268 -0.5434 -0.1785
3.2075 -0.5619 -0.1761
3.1719 -0.5723 -0.1720
3.1553 -0.5894 -0.1700
3.1385 -0.6055 -0.1679
3.1051 -0.6124 -0.1641
3.0544 -0.6509 -0.1580
3.0470 -0.6673 -0.1570
3.0453 -0.6867 -0.1566
3.7015 2.2449 -0.3231
3.7045 2.1707 -0.3223
3.1746 1.2591 -0.2325
3.2041 1.2423 -0.2363
3.2289 1.2189 -0.2394
5.5445 2.8460 -0.5911
5.7503 2.8750 -0.6204
5.2628 0.5525 -0.5122
3.2015 0.0198 -0.2149
3.1928 -0.0133 -0.2131
3.2115 -0.0449 -0.2151
3.1914 -0.0769 -0.2118
3.1720 -0.1076 -0.2085
3.1418 -0.1362 -0.2038
3.1175 -0.1633 -0.2000
3.0624 -0.1856 -0.1919
3.0604 -0.2117 -0.1911
3.0603 -0.2378 -0.1907
3.0399 -0.2598 -0.1875
3.0461 -0.2860 -0.1879
3.0641 -0.3150 -0.1899
3.1202 -0.3542 -0.1971
3.1639 -0.3923 -0.2025
3.1673 -0.4200 -0.2025
3.1673 -0.4465 -0.2020
3.1884 -0.4800 -0.2044
3.2019 -0.5112 -0.2058
3.2086 -0.5402 -0.2062
3.2233 -0.5725 -0.2077
3.1516 -0.5674 -0.1978
3.1328 -0.5832 -0.1949
3.1230 -0.6021 -0.1932
3.0990 -0.6134 -0.1896
3.0759 -0.6238 -0.1862
3.0431 -0.6278 -0.1816
3.0264 -0.6393 -0.1790
3.0047 -0.6469 -0.1759
2.9886 -0.6569 -0.1734
3.7013 2.1828 -0.3836
3.6832 2.0819 -0.3781
3.1852 1.2807 -0.2756
3.2042 1.2515 -0.2781
3.2136 1.2112 -0.2787
4.9670 2.6132 -0.6060
4.9600 2.4910 -0.6019
5.0758 2.4733 -0.6209
5.1648 2.4272 -0.6347
5.1546 2.3011 -0.6300
5.1119 2.1540 -0.6193
5.1022 2.0344 -0.6149
5.1909 1.9807 -0.6285
5.1473 1.8414 -0.6178
5.1385 1.7269 -0.6137
5.1608 1.6314 -0.6151
5.1832 1.5359 -0.6166
5.1415 1.4100 -0.6066
5.1947 1.3302 -0.6136
5.3520 1.2911 -0.6391
5.4468 1.2196 -0.6533
5.2947 1.0583 -0.6240
5.2830 0.9521 -0.6195
5.3051 0.8576 -0.6209
5.4307 0.7892 -0.6404
5.4534 0.6918 -0.6419
5.3383 0.5676 -0.6196
4.9759 0.4111 -0.5551
3.2267 0.0211 -0.2527
3.2174 -0.0130 -0.2503
3.2129 -0.0460 -0.2488
3.1798 -0.0782 -0.2425
3.1348 -0.1374 -0.2335
3.1003 -0.1636 -0.2271
3.0653 -0.1877 -0.2207
3.0623 -0.2139 -0.2195
3.0687 -0.2412 -0.2200
3.0401 -0.2620 -0.2147
3.0814 -0.2958 -0.2208
3.0792 -0.3210 -0.2198
3.1136 -0.3553 -0.2248
3.1614 -0.3947 -0.2318
3.1780 -0.4265 -0.2339
3.1705 -0.4509 -0.2320
3.1915 -0.4846 -0.2348
3.2028 -0.5153 -0.2359
3.2241 -0.5502 -0.2387
3.2501 -0.5877 -0.2421
3.2571 -0.6177 -0.2426
3.1720 -0.6052 -0.2286
3.1362 -0.6126 -0.2224
3.1194 -0.6277 -0.2193
3.0816 -0.6529 -0.2123
3.0157 -0.6575 -0.2012
3.1701 1.2726 -0.3143
3.1898 1.2445 -0.3173
3.2097 1.2157 -0.3203
3.2848 1.2435 -0.3359
4.6958 2.3816 -0.6467
4.8227 2.3866 -0.6717
4.8720 2.3181 -0.6793
4.8936 2.2255 -0.6807
4.8587 2.0898 -0.6698
4.8800 1.9989 -0.6712
4.9012 1.9081 -0.6726
4.8401 1.7637 -0.6563
4.7329 1.5967 -0.6302
4.7992 0.6312 -0.6139
4.9175 0.5734 -0.6353
4.9108 0.4856 -0.6313
4.6532 0.3581 -0.5770
3.2355 -0.0130 -0.2881
3.2213 -0.0469 -0.2843
3.1845 -0.0795 -0.2761
3.1533 -0.1099 -0.2690
3.1492 -0.1398 -0.2673
3.0771 -0.1634 -0.2525
3.0715 -0.2172 -0.2498
3.0538 -0.2410 -0.2456
3.0359 -0.2635 -0.2414
3.0665 -0.2951 -0.2464
3.0813 -0.3241 -0.2484
3.1102 -0.3573 -0.2531
3.1869 -0.4050 -0.2667
3.1787 -0.4300 -0.2643
3.1888 -0.4603 -0.2653
3.1846 -0.4858 -0.2638
3.2025 -0.5190 -0.2663
3.2138 -0.5501 -0.2675
3.2430 -0.5889 -0.2721
3.2669 -0.6264 -0.2756
3.2864 -0.6626 -0.2783
3.1285 -0.6599 -0.2475
3.1196 -0.6780 -0.2452
3.0815 -0.7005 -0.2371
3.0709 -0.7154 -0.2345
3.1811 1.2951 -0.3595
3.2056 1.2716 -0.3641
3.2152 1.2306 -0.3648
3.2578 1.2241 -0.3741
4.1841 2.0134 -0.6112
4.2538 1.9895 -0.6260
4.2529 1.8991 -0.6224
4.2349 1.7958 -0.6146
4.2696 1.7375 -0.6202
4.3232 1.6924 -0.6306
4.3217 1.6043 -0.6270
4.3208 1.5181 -0.6236
4.3197 1.4331 -0.6202
4.3191 1.3497 -0.6170
4.3721 1.2988 -0.6270
4.3891 1.2257 -0.6281
4.4062 1.1526 -0.6292
4.4044 1.0704 -0.6258
4.4404 1.0064 -0.6315
4.4383 0.9253 -0.6280
4.4368 0.8458 -0.6247
4.4536 0.7738 -0.6258
4.4518 0.6959 -0.6225
4.4319 0.6140 -0.6150
4.6009 0.5037 -0.6489
4.4994 0.4064 -0.6225
4.4976 0.3325 -0.6194
4.2024 0.2202 -0.5489
4.1464 0.1512 -0.5338
3.3585 0.0298 -0.3525
3.2810 -0.0117 -0.3336
3.2752 -0.0469 -0.3309
3.2131 -0.0810 -0.3157
3.1501 -0.1113 -0.3005
3.1237 -0.1399 -0.2935
3.0703 -0.1645 -0.2806
3.0522 -0.1899 -0.2756
3.0618 -0.2179 -0.2767
3.0328 -0.2397 -0.2694
3.0390 -0.2663 -0.2698
3.0569 -0.2955 -0.2727
3.0727 -0.3247 -0.2752
3.1863 -0.4081 -0.2976
3.1825 -0.4345 -0.2958
3.1861 -0.4629 -0.2955
3.1886 -0.4908 -0.2951
3.1845 -0.5160 -0.2932
3.2068 -0.5513 -0.2969
3.2448 -0.5939 -0.3039
3.2965 -0.6441 -0.3136
3.1808 1.3045 -0.4028
3.1856 1.2583 -0.4020
3.1904 1.2124 -0.4012
3.2046 1.1769 -0.4033
4.0274 1.8752 -0.6424
4.0882 1.8491 -0.6566
4.1044 1.7798 -0.6577
4.1048 1.6970 -0.6542
4.1058 1.6160 -0.6509
4.1369 1.5594 -0.6563
4.1853 1.5143 -0.6666
4.1537 1.4111 -0.6540
4.1718 0.6096 -0.6235
4.1577 0.5377 -0.6168
4.1302 0.4641 -0.6066
4.2013 0.4152 -0.6225
4.2465 0.3579 -0.6314
4.2308 0.2888 -0.6244
4.0787 0.2031 -0.5821
4.1730 0.1531 -0.6038
3.3367 -0.0100 -0.3847
3.2957 -0.0477 -0.3727
3.1934 -0.0822 -0.3453
3.1568 -0.1130 -0.3347
3.1166 -0.1411 -0.3232
3.0484 -0.1643 -0.3049
3.0488 -0.1914 -0.3038
3.0552 -0.2190 -0.3043
3.0492 -0.2445 -0.3016
3.0442 -0.2696 -0.2992
3.0714 -0.3011 -0.3048
3.0778 -0.3286 -0.3052
3.1299 -0.3682 -0.3166
3.1792 -0.4093 -0.3274
3.1723 -0.4347 -0.3245
3.1867 -0.4667 -0.3267
3.1893 -0.4947 -0.3262
3.2005 -0.5259 -0.3277
3.2140 -0.5582 -0.3297
3.2486 -0.5998 -0.3366
3.3069 -0.6533 -0.3490
3.6332 -0.8706 -0.4222
3.6584 -0.9529 -0.4250
3.6470 -0.9809 -0.4209
3.5975 -0.9860 -0.4081
3.4825 -0.9495 -0.3806
3.4429 -0.9547 -0.3703
3.6018 1.9632 -0.5989
3.1861 1.2683 -0.4461
3.1957 1.2273 -0.4467
3.2488 1.2324 -0.4620
3.7811 1.6478 -0.6336
3.7725 1.5665 -0.6270
3.7430 1.4686 -0.6137
3.7458 1.4016 -0.6111
3.7592 1.3442 -0.6120
3.7943 1.3037 -0.6199
3.8079 1.2455 -0.6208
3.8215 1.1874 -0.6217
3.8351 1.1293 -0.6226
3.8375 1.0641 -0.6200
3.8397 0.9997 -0.6173
3.8417 0.9360 -0.6147
3.8894 0.8967 -0.6262
3.8568 0.8163 -0.6129
3.9049 0.7752 -0.6244
3.9067 0.7126 -0.6218
3.8966 0.6461 -0.6155
3.9217 0.5936 -0.6200
3.9350 0.5365 -0.6208
3.9724 0.4863 -0.6289
3.9859 0.4286 -0.6298
3.9628 0.3626 -0.6199
3.9883 0.3082 -0.6244
4.0017 0.2512 -0.6252
3.9671 0.1877 -0.6122
4.0283 0.1370 -0.6270
3.4100 -0.0076 -0.4448
3.3739 -0.0475 -0.4326
3.1728 -0.0834 -0.3739
3.0865 -0.1409 -0.3465
3.0539 -0.1665 -0.3360
3.0513 -0.1935 -0.3339
3.0456 -0.2196 -0.3310
3.0284 -0.2432 -0.3249
3.0264 -0.2685 -0.3231
3.0617 -0.3015 -0.3314
3.0650 -0.3282 -0.3310
3.1136 -0.3668 -0.3427
3.1616 -0.4074 -0.3543
3.1727 -0.4382 -0.3559
3.1829 -0.4690 -0.3572
3.1930 -0.4998 -0.3585
3.1859 -0.5242 -0.3552
3.1960 -0.5550 -0.3565
3.2535 -0.6063 -0.3702
3.3159 -0.6621 -0.3850
3.6943 -0.9072 -0.4796
3.7342 -0.9640 -0.4880
3.7055 -0.9850 -0.4789
3.6309 -0.9786 -0.4581
3.5154 -0.9449 -0.4271
3.4639 -0.9447 -0.4126
3.4720 -0.9791 -0.4131
3.5694 1.9365 -0.6485
3.5734 1.8687 -0.6459
3.1663 1.2550 -0.4833
3.1711 1.2091 -0.4821
3.1853 1.1737 -0.4845
3.2771 1.2174 -0.5157
3.4245 1.3088 -0.5671
3.4809 1.3029 -0.5844
3.5330 1.2896 -0.5999
3.6144 1.2982 -0.6259
3.6360 1.2521 -0.6299
3.6486 1.1984 -0.6308
3.6243 1.1173 -0.6185
3.6459 1.0712 -0.6226
3.7799 0.7831 -0.6479
3.7525 0.4803 -0.6219
3.7453 0.4227 -0.6163
3.7908 0.2703 -0.6218
3.7736 0.2138 -0.6131
3.6000 0.0915 -0.5518
3.5585 0.0424 -0.5360
3.4299 -0.0078 -0.4929
3.1420 -0.1155 -0.3967
3.0825 -0.1422 -0.3766
3.0442 -0.1674 -0.3631
3.0296 -0.1929 -0.3571
3.0421 -0.2212 -0.3594
3.0189 -0.2437 -0.3508
3.0344 -0.2724 -0.3540
3.0521 -0.3019 -0.3579
3.0804 -0.3347 -0.3648
3.1236 -0.3725 -0.3761
3.1725 -0.4138 -0.3890
3.1720 -0.4415 -0.3873
3.1790 -0.4712 -0.3878
3.1720 -0.4959 -0.3842
3.1713 -0.5224 -0.3824
3.2075 -0.5638 -0.3913
3.2582 -0.6127 -0.4044
3.3456 -0.6805 -0.4278
3.5711 -0.8856 -0.4865
3.4800 -0.8691 -0.4589
3.4883 -0.9047 -0.4595
3.5068 -0.9463 -0.4629
3.4820 -0.9620 -0.4542
3.1762 1.2240 -0.5287
3.2013 1.1997 -0.5357
3.2220 1.1694 -0.5409
3.2374 1.1329 -0.5438
3.2991 1.1399 -0.5654
3.3278 1.1127 -0.5735
3.3966 1.1186 -0.5975
3.4655 1.1199 -0.6212
3.4842 1.0772 -0.6248
3.4807 1.0174 -0.6197
3.5070 0.9798 -0.6263
3.5184 0.9310 -0.6271
3.5374 0.8871 -0.6308
3.5335 0.8290 -0.6256
3.5293 0.7718 -0.6205
3.5405 0.7238 -0.6212
3.5788 0.6350 -0.6286
3.5741 0.5798 -0.6235
3.5934 0.5349 -0.6272
3.5804 0.4780 -0.6190
3.6241 0.4410 -0.6316
3.6354 0.3925 -0.6324
3.6385 0.3419 -0.6301
3.6007 0.2826 -0.6133
3.6526 0.2438 -0.6286
3.6638 0.1958 -0.6294
3.5938 0.1369 -0.6016
3.5312 0.0836 -0.5767
3.5069 0.0375 -0.5653
3.5236 -0.0047 -0.5683
3.4860 -0.0483 -0.5526
3.1346 -0.1167 -0.4277
3.1102 -0.1457 -0.4175
3.0754 -0.1720 -0.4039
3.0732 -0.2000 -0.4013
3.0416 -0.2232 -0.3889
3.0278 -0.2474 -0.3826
3.0515 -0.2781 -0.3888
3.0549 -0.3051 -0.3882
3.0830 -0.3381 -0.3957
3.1448 -0.3814 -0.4141
3.1695 -0.4163 -0.4203
3.1692 -0.4440 -0.4184
3.1719 -0.4724 -0.4175
3.1757 -0.5011 -0.4170
3.1901 -0.5337 -0.4198
3.2090 -0.5686 -0.4240
3.2388 -0.6088 -0.4316
3.3421 -0.6839 -0.4622
3.4246 -0.7531 -0.4860
3.4825 -0.8133 -0.5019
3.4965 -0.8525 -0.5042
3.5162 -0.8951 -0.5082
3.5135 -0.9254 -0.5053
3.4712 -0.9317 -0.4904
3.4476 -0.9475 -0.4813
3.4087 -0.9522 -0.4677
3.2092 1.3249 -0.5930
3.1717 1.2284 -0.5721
3.1914 1.1980 -0.5773
3.1957 1.1507 -0.5755
3.2163 1.1203 -0.5810
3.2261 1.0785 -0.5816
3.2582 1.0571 -0.5921
3.3027 1.0446 -0.6078
3.4175 1.0877 -0.6538
3.3817 0.6443 -0.6086
3.3858 0.5980 -0.6067
3.4100 0.3739 -0.5997
3.4563 0.2961 -0.6114
3.4664 0.2529 -0.6121
3.5042 0.2152 -0.6235
3.4930 0.1677 -0.6159
3.4835 0.1218 -0.6090
3.4604 0.0756 -0.5971
3.4835 0.0348 -0.6028
3.5134 -0.0064 -0.6110
3.5166 -0.0493 -0.6091
3.1096 -0.1173 -0.4522
3.0922 -0.1462 -0.4437
3.0497 -0.1714 -0.4260
3.0345 -0.1973 -0.4184
3.0290 -0.2234 -0.4145
3.0263 -0.2494 -0.4116
3.0419 -0.2786 -0.4153
3.0769 -0.3127 -0.4260
3.0866 -0.3418 -0.4275
3.1553 -0.3874 -0.4499
3.1624 -0.4175 -0.4504
3.1767 -0.4500 -0.4534
3.1806 -0.4792 -0.4528
3.1877 -0.5094 -0.4532
3.1947 -0.5396 -0.4537
3.1932 -0.5662 -0.4512
3.2520 -0.6191 -0.4694
3.3831 -0.7079 -0.5119
3.3955 -0.7444 -0.5139
3.4189 -0.7868 -0.5197
3.4271 -0.8217 -0.5202
3.4308 -0.8542 -0.5193
3.4389 -0.8890 -0.5198
3.4156 -0.9051 -0.5099
3.1626 1.3882 -0.6263
3.1576 1.3275 -0.6195
3.1674 1.2858 -0.6201
3.1566 1.2207 -0.6106
3.1609 1.1738 -0.6086
3.1758 1.1386 -0.6119
3.1854 1.0975 -0.6125
3.2217 1.0821 -0.6260
3.2204 1.0300 -0.6213
3.2197 0.9793 -0.6171
3.2567 0.9609 -0.6306
3.2609 0.9142 -0.6286
3.2650 0.8679 -0.6266
3.2632 0.8179 -0.6219
3.2679 0.7731 -0.6203
3.2717 0.7281 -0.6182
3.2922 0.6937 -0.6238
3.2968 0.6494 -0.6222
3.3176 0.6140 -0.6278
3.3212 0.5694 -0.6257
3.3257 0.5257 -0.6241
3.3353 0.4844 -0.6247
3.3388 0.4408 -0.6227
3.3723 0.4082 -0.6336
3.3642 0.3607 -0.6266
3.3919 0.3247 -0.6349
3.3835 0.2782 -0.6279
3.4050 0.2397 -0.6335
3.4212 0.1993 -0.6369
3.4180 0.1554 -0.6321
3.4220 0.1133 -0.6304
3.4251 0.0713 -0.6283
3.4347 0.0303 -0.6290
3.4633 -0.0099 -0.6374
3.4357 -0.0521 -0.6229
3.4027 -0.0920 -0.6064
3.1237 -0.1194 -0.4913
3.0988 -0.1483 -0.4790
3.0557 -0.1738 -0.4595
3.0526 -0.2014 -0.4561
3.0373 -0.2268 -0.4479
3.0379 -0.2537 -0.4460
3.0605 -0.2848 -0.4527
3.0823 -0.3166 -0.4590
3.0931 -0.3463 -0.4610
3.1595 -0.3918 -0.4843
3.1697 -0.4231 -0.4859
3.1851 -0.4563 -0.4895
3.1766 -0.4815 -0.4841
3.1689 -0.5062 -0.4790
3.1653 -0.5319 -0.4755
3.2138 -0.5791 -0.4914
3.2532 -0.6241 -0.5038
3.2767 -0.6633 -0.5102
3.2635 -0.6851 -0.5032
3.2381 -0.6996 -0.4917
3.2068 -0.7097 -0.4783
3.1839 -0.7227 -0.4680
3.1796 -0.7451 -0.4644
3.0855 1.2488 -0.6274
3.0813 1.1933 -0.6208
3.0731 1.1345 -0.6121
3.1040 1.0715 -0.6202
3.1131 1.0327 -0.6208
3.1268 0.9984 -0.6238
3.1403 0.9162 -0.6226
3.1665 0.6651 -0.6123
3.2101 0.4336 -0.6113
3.2285 0.3998 -0.6164
3.2497 0.2845 -0.6157
3.2837 0.2533 -0.6278
3.2728 0.2103 -0.6193
3.3017 0.1763 -0.6290
3.2850 0.1336 -0.6180
3.2993 0.0966 -0.6211
3.3026 0.0581 -0.6192
3.3377 0.0223 -0.6314
3.3363 -0.0166 -0.6274
3.3290 -0.0551 -0.6209
3.3484 -0.0929 -0.6261
3.1423 -0.1218 -0.5337
3.0712 -0.1481 -0.5004
3.0274 -0.1728 -0.4792
3.0458 -0.2026 -0.4846
3.0307 -0.2279 -0.4759
3.0472 -0.2577 -0.4805
3.0628 -0.2878 -0.4847
3.0755 -0.3177 -0.4877
3.0863 -0.3475 -0.4898
3.3855 -0.4927 -0.6077
3.3836 -0.5257 -0.6040
3.3452 -0.5452 -0.5856
3.2874 -0.5551 -0.5595
3.2815 -0.5828 -0.5546
3.3072 -0.6233 -0.5623
3.2968 -0.6484 -0.5556
3.2916 -0.6752 -0.5510
3.2766 -0.6965 -0.5426
3.2591 -0.7155 -0.5333
3.2304 -0.7273 -0.5198
3.2133 -0.7442 -0.5109
3.1838 -0.7527 -0.4973
3.1617 -0.7642 -0.4866
3.1347 -0.7714 -0.4743
3.0013 1.1538 -0.6231
3.0180 1.1269 -0.6284
3.0185 1.0804 -0.6242
3.0233 1.0396 -0.6226
3.0280 0.9990 -0.6210
3.0403 0.9665 -0.6237
3.0373 0.9186 -0.6178
3.0535 0.8897 -0.6227
3.0581 0.8498 -0.6211
3.0587 0.8069 -0.6173
3.0751 0.7773 -0.6222
3.0835 0.7410 -0.6228
3.0961 0.7076 -0.6255
3.0964 0.6656 -0.6217
3.1216 0.5984 -0.6272
3.1217 0.5572 -0.6234
3.1344 0.5233 -0.6261
3.1386 0.4849 -0.6245
3.1642 0.4567 -0.6338
3.1598 0.4144 -0.6278
3.1683 0.3782 -0.6284
3.1680 0.3387 -0.6246
3.1764 0.3027 -0.6251
3.1709 0.2249 -0.6152
3.1837 0.1906 -0.6180
3.2146 0.1596 -0.6295
3.2185 0.1227 -0.6279
3.2214 0.0860 -0.6258
3.2214 0.0493 -0.6224
3.2335 0.0139 -0.6247
3.2615 -0.0209 -0.6345
3.2606 -0.0573 -0.6307
3.2585 -0.0932 -0.6263
3.1826 -0.1252 -0.5878
3.0882 -0.1510 -0.5412
3.0808 -0.1800 -0.5350
3.0516 -0.2054 -0.5190
3.0211 -0.2286 -0.5025
3.0464 -0.2599 -0.5114
3.0789 -0.2937 -0.5235
3.0757 -0.3205 -0.5194
3.0925 -0.3520 -0.5244
3.3615 -0.4895 -0.6373
3.3586 -0.5217 -0.6329
3.3183 -0.5399 -0.6124
3.2702 -0.5528 -0.5886
3.2737 -0.5841 -0.5873
3.2951 -0.6228 -0.5937
3.2986 -0.6541 -0.5924
3.2882 -0.6785 -0.5852
3.2829 -0.7047 -0.5803
3.2689 -0.7257 -0.5718
3.2720 -0.7551 -0.5705
3.2619 -0.7769 -0.5637
3.0523 -0.7028 -0.4726
3.0471 -0.7214 -0.4684
2.9801 1.0446 -0.6425
2.9773 0.9965 -0.6362
2.9749 0.9500 -0.6303
2.9899 0.9222 -0.6350
2.9912 0.8804 -0.6314
2.9885 0.8355 -0.6255
3.0545 0.4082 -0.6152
3.0691 0.3777 -0.6194
3.0970 0.3148 -0.6270
3.0813 0.2731 -0.6149
3.0859 0.1689 -0.6066
3.1206 0.1415 -0.6212
3.1207 0.0723 -0.6142
3.1165 0.0380 -0.6086
3.1315 0.0058 -0.6129
3.1355 -0.0273 -0.6115
3.1432 -0.0601 -0.6120
3.1546 -0.0930 -0.6144
3.1309 -0.1245 -0.5994
3.0915 -0.1531 -0.5767
3.0842 -0.1823 -0.5701
3.0739 -0.2103 -0.5621
3.0584 -0.2366 -0.5517
3.0681 -0.2663 -0.5535
3.0651 -0.2934 -0.5493
3.0748 -0.3231 -0.5511
3.2707 -0.4652 -0.6347
3.2735 -0.4973 -0.6329
3.2423 -0.5168 -0.6153
3.2417 -0.5462 -0.6120
3.2492 -0.5786 -0.6125
3.2694 -0.6164 -0.6187
3.2854 -0.6530 -0.6230
3.2804 -0.6798 -0.6178
3.2699 -0.7033 -0.6102
3.2613 -0.7270 -0.6035
3.0374 -0.6544 -0.4988
3.0293 -0.6717 -0.4930
3.0165 -0.6856 -0.4852
3.0223 -0.7105 -0.4855
2.8783 0.9750 -0.6209
2.8859 0.9426 -0.6214
2.8964 0.9136 -0.6238
2.9100 0.8875 -0.6282
2.9116 0.8486 -0.6248
2.9162 0.8131 -0.6234
2.9237 0.7807 -0.6239
2.9375 0.7538 -0.6283
2.9319 0.7099 -0.6205
2.9496 0.6861 -0.6273
2.9469 0.6456 -0.6215
2.9616 0.6187 -0.6264
2.9659 0.5841 -0.6249
2.9662 0.5470 -0.6210
2.9736 0.5150 -0.6215
2.9778 0.4810 -0.6200
2.9828 0.4478 -0.6190
2.9928 0.4172 -0.6210
3.0112 0.3904 -0.6279
3.0145 0.3563 -0.6259
3.0433 0.3326 -0.6387
3.0407 0.2960 -0.6333
3.0274 0.2567 -0.6220
3.0524 0.2300 -0.6323
3.0485 0.1946 -0.6264
3.0560 0.1626 -0.6269
3.0536 0.1286 -0.6220
3.0721 0.0656 -0.6249
3.0795 0.0338 -0.6254
3.0897 0.0021 -0.6274
3.0944 -0.0299 -0.6264
3.1205 -0.0616 -0.6368
3.1093 -0.0936 -0.6274
3.1054 -0.1249 -0.6219
3.1127 -0.1564 -0.6224
3.1048 -0.1864 -0.6149
3.1015 -0.2161 -0.6098
3.1164 -0.2481 -0.6143
3.1236 -0.2791 -0.6148
3.1309 -0.3101 -0.6153
3.1490 -0.3437 -0.6213
3.1643 -0.3771 -0.6258
3.1837 -0.4121 -0.6323
3.1871 -0.4427 -0.6308
3.1823 -0.4702 -0.6252
3.1978 -0.5046 -0.6297
3.2134 -0.5395 -0.6342
3.2167 -0.5696 -0.6327
3.2200 -0.5995 -0.6312
3.2357 -0.6350 -0.6357
2.9942 -0.5686 -0.5142
2.9948 -0.5910 -0.5120
3.0039 -0.6179 -0.5139
3.0098 -0.6430 -0.5143
3.0211 -0.6714 -0.5173
3.2718 -0.9012 -0.6259
2.8651 0.8069 -0.6306
2.8917 0.7563 -0.6397
2.8899 0.7165 -0.6341
2.9034 0.6906 -0.6387
2.8945 0.6094 -0.6241
2.9104 0.5853 -0.6303
2.9120 0.5505 -0.6272
2.9160 0.5177 -0.6256
2.9174 0.4836 -0.6224
2.9449 0.4651 -0.6358
2.9283 0.4210 -0.6213
2.9296 0.3878 -0.6181
2.9550 0.3663 -0.6300
2.9414 0.2938 -0.6138
2.9501 0.2325 -0.6116
2.9683 0.2062 -0.6188
2.9788 0.1771 -0.6214
2.9920 0.1484 -0.6255
2.9893 0.1162 -0.6202
2.9818 0.0534 -0.6085
3.0140 0.0267 -0.6237
3.0110 -0.0041 -0.6184
3.0216 -0.0338 -0.6209
3.0221 -0.0638 -0.6177
3.0160 -0.0932 -0.6108
3.0388 -0.1233 -0.6202
3.0335 -0.1522 -0.6138
3.0404 -0.1816 -0.6143
3.0597 -0.2127 -0.6216
3.0570 -0.2409 -0.6168
3.0571 -0.2692 -0.6135
3.0874 -0.3035 -0.6267
3.1023 -0.3354 -0.6313
3.1123 -0.3664 -0.6334
3.1233 -0.3979 -0.6360
3.1234 -0.4260 -0.6327
3.1265 -0.4548 -0.6311
3.1264 -0.4823 -0.6278
3.1446 -0.5166 -0.6341
3.1473 -0.5720 -0.6292
2.9646 -0.5357 -0.5299
2.9630 -0.5567 -0.5265
2.9761 -0.5852 -0.5307
3.1603 -0.7347 -0.6175
3.1854 -0.7749 -0.6271
3.1924 -0.8045 -0.6275
3.2102 -0.8411 -0.6334
3.2062 -0.8637 -0.6285
2.7880 0.8796 -0.6289
2.7877 0.8415 -0.6240
2.7945 0.8123 -0.6245
2.7918 0.7726 -0.6179
2.8082 0.7538 -0.6254
2.8075 0.7171 -0.6204
2.8218 0.6953 -0.6263
2.8340 0.6709 -0.6305
2.8202 0.6235 -0.6163
2.8323 0.5993 -0.6206
2.8468 0.5765 -0.6264
2.8638 0.5549 -0.6339
2.8573 0.5159 -0.6252
2.8593 0.4837 -0.6223
2.8684 0.4563 -0.6244
2.8752 0.4274 -0.6249
2.8901 0.4028 -0.6308
2.8973 0.3093 -0.6234
2.9065 0.2815 -0.6255
2.9048 0.2495 -0.6204
2.9226 0.2246 -0.6280
2.9293 0.1956 -0.6284
2.9248 0.1637 -0.6217
2.9315 0.1350 -0.6222
2.9303 0.1049 -0.6177
2.9409 0.0478 -0.6169
2.9583 0.0206 -0.6239
2.9677 -0.0078 -0.6260
2.9716 -0.0366 -0.6248
2.9728 -0.0653 -0.6220
2.9915 -0.0940 -0.6296
2.9917 -0.1225 -0.6261
2.9956 -0.1509 -0.6249
3.0022 -0.1794 -0.6254
3.0003 -0.2068 -0.6208
3.0127 -0.2360 -0.6246
3.0222 -0.2650 -0.6267
3.0386 -0.2957 -0.6327
3.0453 -0.3245 -0.6331
3.0452 -0.3514 -0.6297
3.0548 -0.3809 -0.6318
3.0685 -0.4118 -0.6361
3.0752 -0.4407 -0.6366
3.0719 -0.4659 -0.6314
2.9684 -0.5192 -0.5626
2.9691 -0.5418 -0.5602
3.1018 -0.6571 -0.6255
3.1285 -0.6966 -0.6367
3.1395 -0.7278 -0.6393
3.1462 -0.7566 -0.6398
3.1562 -0.7874 -0.6419
2.7639 0.7482 -0.6303
2.7659 0.6808 -0.6226
2.7746 0.6553 -0.6247
2.7698 0.6172 -0.6166
2.7807 0.5938 -0.6205
2.8088 0.4854 -0.6239
2.8129 0.4562 -0.6226
2.8208 0.3674 -0.6158
2.8174 0.3353 -0.6094
2.8261 0.3096 -0.6115
2.8554 0.2626 -0.6238
2.8567 0.2333 -0.6208
2.8563 0.2037 -0.6166
2.8550 0.1744 -0.6118
2.8759 0.1514 -0.6221
2.8874 0.1254 -0.6259
2.8932 0.0693 -0.6222
2.8916 0.0411 -0.6174
2.8827 0.0126 -0.6080
2.8916 -0.0137 -0.6101
2.8978 -0.0403 -0.6105
2.9095 -0.0669 -0.6144
2.9102 -0.0935 -0.6113
2.9238 -0.1205 -0.6164
2.9329 -0.1475 -0.6185
2.9364 -0.1741 -0.6172
2.9294 -0.1991 -0.6095
2.9574 -0.2291 -0.6233
2.9695 -0.2573 -0.6272
2.9643 -0.2820 -0.6206
2.9706 -0.3088 -0.6210
2.9827 -0.3373 -0.6250
2.9920 -0.3653 -0.6271
2.9815 -0.3869 -0.6176
3.0017 -0.4185 -0.6262
3.0110 -0.4467 -0.6284
3.0113 -0.4714 -0.6253
2.9679 -0.4772 -0.5969
2.9514 -0.4928 -0.5844
2.9398 -0.5095 -0.5748
2.9993 -0.5608 -0.6058
3.0314 -0.6003 -0.6209
3.0606 -0.6395 -0.6342
3.0491 -0.6566 -0.6247
3.0532 -0.6822 -0.6239
3.0446 -0.6998 -0.6160
3.0839 -0.7472 -0.6347
3.0925 -0.7758 -0.6363
3.0967 -0.8017 -0.6356
2.6912 0.7732 -0.6178
2.7030 0.7537 -0.6230
2.7071 0.7247 -0.6216
2.7154 0.7007 -0.6238
2.7158 0.6680 -0.6194
2.7278 0.6477 -0.6246
2.7259 0.6133 -0.6185
2.7379 0.5926 -0.6236
2.7464 0.5682 -0.6258
2.7548 0.5436 -0.6280
2.7656 0.5206 -0.6320
2.7696 0.4921 -0.6307
2.7649 0.4577 -0.6227
2.7750 0.4341 -0.6261
2.7796 0.4066 -0.6253
2.7833 0.3788 -0.6239
2.7895 0.3526 -0.6243
2.7851 0.3209 -0.6169
2.7977 0.2980 -0.6221
2.8120 0.2755 -0.6285
2.8116 0.2464 -0.6241
2.8110 0.2177 -0.6197
2.8154 0.1912 -0.6189
2.8257 0.1665 -0.6223
2.8318 0.1405 -0.6227
2.8404 0.1150 -0.6249
2.8440 0.0883 -0.6235
2.8500 0.0623 -0.6239
2.8561 0.0362 -0.6243
2.8622 0.0101 -0.6247
2.8639 -0.0163 -0.6221
2.8771 -0.0419 -0.6274
2.8732 -0.0681 -0.6211
2.8911 -0.0943 -0.6294
2.8954 -0.1204 -0.6286
2.8867 -0.1453 -0.6192
2.9049 -0.1724 -0.6275
2.9213 -0.1999 -0.6346
2.9123 -0.2237 -0.6253
2.9203 -0.2500 -0.6269
2.9244 -0.2756 -0.6261
2.9401 -0.3039 -0.6326
2.9365 -0.3274 -0.6269
2.9426 -0.3534 -0.6273
2.9487 -0.3793 -0.6277
2.9626 -0.4080 -0.6330
2.9847 -0.4402 -0.6432
2.9768 -0.4611 -0.6350
2.9568 -0.4761 -0.6195
2.9384 -0.4906 -0.6051
2.9289 -0.5081 -0.5963
2.9541 -0.5423 -0.6083
3.0054 -0.5911 -0.6358
3.0115 -0.6172 -0.6362
3.0228 -0.6464 -0.6397
3.0342 -0.6758 -0.6432
3.0213 -0.6905 -0.6325
3.0274 -0.7164 -0.6329
3.0388 -0.7459 -0.6364
2.6718 0.6898 -0.6225
2.6813 0.6685 -0.6260
2.6836 0.6392 -0.6233
2.6910 0.6154 -0.6249
2.6896 0.5829 -0.6191
2.6918 0.5543 -0.6163
2.7013 0.5327 -0.6198
2.7072 0.5076 -0.6202
2.7153 0.4843 -0.6225
2.7120 0.4522 -0.6154
2.7194 0.4285 -0.6170
2.7329 0.4088 -0.6237
2.7404 0.3847 -0.6253
2.7384 0.3548 -0.6194
2.7426 0.3289 -0.6185
2.7468 0.3032 -0.6177
2.7599 0.2819 -0.6237
2.7601 0.2543 -0.6197
2.7576 0.2260 -0.6138
2.7717 0.2045 -0.6205
2.7758 0.1790 -0.6196
2.7749 0.1522 -0.6149
2.7849 0.1287 -0.6184
2.7907 0.1039 -0.6188
2.7887 0.0777 -0.6135
2.8109 0.0558 -0.6259
2.8124 0.0302 -0.6231
2.8120 0.0047 -0.6191
2.8151 -0.0201 -0.6176
2.8254 -0.0446 -0.6211
2.8204 -0.0694 -0.6139
2.8288 -0.0939 -0.6162
2.8254 -0.1179 -0.6102
2.8338 -0.1424 -0.6125
2.8432 -0.1671 -0.6154
2.8601 -0.1931 -0.6234
2.8593 -0.2168 -0.6193
2.8745 -0.2432 -0.6261
2.8822 -0.2685 -0.6277
2.8832 -0.2921 -0.6249
2.8986 -0.3196 -0.6317
2.8948 -0.3416 -0.6257
2.8918 -0.3635 -0.6203
2.8994 -0.3887 -0.6220
2.9170 -0.4178 -0.6300
2.9179 -0.4407 -0.6272
2.9307 -0.4685 -0.6321
2.9294 -0.4902 -0.6280
2.9302 -0.5125 -0.6252
2.9390 -0.5387 -0.6275
2.9304 -0.5557 -0.6188
2.9381 -0.5812 -0.6205
2.9511 -0.6098 -0.6254
2.9673 -0.6406 -0.6322
2.9678 -0.6621 -0.6294
2.9757 -0.6882 -0.6310
2.9868 -0.7165 -0.6346
2.6210 0.6972 -0.6159
2.6314 0.6791 -0.6208
2.6385 0.6566 -0.6224
2.6477 0.6364 -0.6261
2.6534 0.6120 -0.6264
2.6627 0.5913 -0.6301
2.6611 0.5597 -0.6239
2.6624 0.5313 -0.6204
2.6724 0.5112 -0.6247
2.6751 0.4844 -0.6224
2.6838 0.4627 -0.6254
2.6826 0.4333 -0.6199
2.6905 0.4110 -0.6222
2.6961 0.3869 -0.6226
2.7017 0.3628 -0.6230
2.7050 0.3373 -0.6214
2.7146 0.3156 -0.6250
2.7162 0.2894 -0.6221
2.7170 0.2631 -0.6186
2.7281 0.2154 -0.6193
2.7312 0.1907 -0.6177
2.7351 0.1664 -0.6168
2.7538 0.1210 -0.6234
2.7560 0.0963 -0.6211
2.7590 0.0720 -0.6195
2.7671 0.0486 -0.6219
2.7805 0.0258 -0.6282
2.7800 0.0012 -0.6239
2.7838 -0.0228 -0.6230
2.7911 -0.0466 -0.6247
2.7887 -0.0705 -0.6191
2.7960 -0.0942 -0.6208
2.8142 -0.1186 -0.6304
2.8198 -0.1426 -0.6308
2.8071 -0.1646 -0.6179
2.8227 -0.1896 -0.6255
2.8423 -0.2158 -0.6359
2.8357 -0.2376 -0.6276
2.8432 -0.2619 -0.6293
2.8536 -0.2871 -0.6330
2.8563 -0.3103 -0.6314
2.8648 -0.3352 -0.6337
2.8811 -0.3628 -0.6415
2.8799 -0.3847 -0.6372
2.8728 -0.4040 -0.6288
2.8843 -0.4303 -0.6332
2.8899 -0.4542 -0.6336
2.8865 -0.4741 -0.6279
2.8880 -0.4959 -0.6256
2.8950 -0.5409 -0.6237
2.9101 -0.5904 -0.6271
2.9136 -0.6128 -0.6261
2.9232 -0.6390 -0.6292
2.9322 -0.6849 -0.6285
2.6084 0.6268 -0.6230
2.6125 0.6019 -0.6220
2.6193 0.5802 -0.6237
2.6259 0.5294 -0.6203
2.6313 0.5063 -0.6207
2.6406 0.4588 -0.6200
2.6504 0.4394 -0.6245
2.6575 0.3634 -0.6174
2.6690 0.3445 -0.6232
2.6744 0.3214 -0.6235
2.6783 0.2974 -0.6225
2.6837 0.2744 -0.6229
2.6875 0.2505 -0.6219
2.6912 0.2268 -0.6208
2.6998 0.2052 -0.6239
2.7019 0.1809 -0.6215
2.7057 0.1574 -0.6205
2.7027 0.1320 -0.6140
2.7163 0.1116 -0.6212
2.7217 0.0887 -0.6216
2.7203 0.0645 -0.6165
2.7324 0.0430 -0.6223
2.7360 0.0198 -0.6213
2.7448 -0.0027 -0.6244
2.7502 -0.0256 -0.6247
2.7432 -0.0490 -0.6154
2.7609 -0.0715 -0.6254
2.7645 -0.0944 -0.6244
2.7698 -0.1173 -0.6248
2.7661 -0.1394 -0.6182
2.7787 -0.1629 -0.6241
2.7712 -0.1838 -0.6148
2.7801 -0.2069 -0.6179
2.7910 -0.2306 -0.6224
2.7982 -0.2538 -0.6241
2.7940 -0.2741 -0.6175
2.7936 -0.2950 -0.6137
2.8103 -0.3209 -0.6224
2.8271 -0.3475 -0.6311
2.8364 -0.3719 -0.6342
2.8418 -0.3950 -0.6346
2.8433 -0.4165 -0.6321
2.8407 -0.4360 -0.6269
2.8560 -0.4634 -0.6342
2.8474 -0.4796 -0.6248
2.8486 -0.5002 -0.6224
2.8600 -0.5261 -0.6269
2.8592 -0.5454 -0.6231
2.8603 -0.5655 -0.6206
2.8573 -0.5830 -0.6154
2.8688 -0.6091 -0.6199
2.8782 -0.6343 -0.6231
2.8855 -0.6582 -0.6248
2.8866 -0.6778 -0.6224
2.5547 0.6817 -0.6167
2.5612 0.6613 -0.6184
2.5664 0.6391 -0.6188
2.5743 0.6202 -0.6219
2.5768 0.5946 -0.6194
2.5833 0.5739 -0.6212
2.5886 0.5517 -0.6215
2.5952 0.5309 -0.6233
2.6032 0.5114 -0.6265
2.6013 0.4820 -0.6197
2.6123 0.4651 -0.6257
2.6146 0.4402 -0.6233
2.6198 0.4179 -0.6236
2.6235 0.3945 -0.6225
2.6302 0.3733 -0.6243
2.6339 0.3500 -0.6232
2.6406 0.3288 -0.6250
2.6412 0.3037 -0.6211
2.6448 0.2807 -0.6200
2.6484 0.2578 -0.6189
2.6583 0.2381 -0.6235
2.6667 0.2173 -0.6267
2.6638 0.1917 -0.6199
2.6722 0.1709 -0.6231
2.6872 0.1521 -0.6320
2.6809 0.1262 -0.6224
2.6927 0.1059 -0.6284
2.6929 0.0824 -0.6245
2.6930 0.0593 -0.6205
2.7083 0.0390 -0.6294
2.7067 0.0158 -0.6241
2.7136 -0.0061 -0.6258
2.7205 -0.0281 -0.6276
2.7221 -0.0504 -0.6251
2.7211 -0.0725 -0.6204
2.7323 -0.1163 -0.6218
2.7392 -0.1384 -0.6236
2.7443 -0.1603 -0.6239
2.7494 -0.1823 -0.6242
2.7564 -0.2046 -0.6260
2.7578 -0.2258 -0.6235
2.7630 -0.2477 -0.6238
2.7653 -0.2689 -0.6220
2.7770 -0.2926 -0.6274
2.7802 -0.3140 -0.6263
2.7930 -0.3386 -0.6324
2.7943 -0.3594 -0.6298
2.7975 -0.3807 -0.6287
2.8046 -0.4035 -0.6305
2.8209 -0.4504 -0.6355
2.8253 -0.4918 -0.6319
2.8264 -0.5117 -0.6293
2.8295 -0.5325 -0.6282
2.8387 -0.5568 -0.6314
2.8469 -0.5995 -0.6307
2.8562 -0.6242 -0.6339
2.8655 -0.6491 -0.6372
2.5251 0.6463 -0.6118
2.5327 0.6288 -0.6151
2.5447 0.5888 -0.6179
2.5476 0.5649 -0.6160
2.5540 0.5453 -0.6178
2.5597 0.5247 -0.6189
2.5675 0.4798 -0.6174
2.5789 0.4647 -0.6243
2.5839 0.4432 -0.6246
2.5861 0.4192 -0.6220
2.5911 0.3977 -0.6223
2.5975 0.3775 -0.6241
2.5996 0.3538 -0.6215
2.6023 0.3309 -0.6197
2.6073 0.3096 -0.6200
2.6069 0.2851 -0.6151
2.6188 0.2679 -0.6221
2.6311 0.2264 -0.6250
2.6321 0.2032 -0.6216
2.6339 0.1806 -0.6190
2.6445 0.1616 -0.6245
2.6438 0.1383 -0.6196
2.6536 0.1186 -0.6244
2.6586 0.0973 -0.6247
2.6636 0.0760 -0.6251
2.6569 0.0523 -0.6150
2.6685 0.0325 -0.6213
2.6769 0.0118 -0.6246
2.6622 -0.0114 -0.6078
2.6765 -0.0315 -0.6163
2.6874 -0.0522 -0.6218
2.6932 -0.0734 -0.6229
2.6894 -0.0942 -0.6158
2.7049 -0.1158 -0.6250
2.7161 -0.1376 -0.6306
2.7022 -0.1567 -0.6153
2.7071 -0.1775 -0.6156
2.7156 -0.1990 -0.6189
2.7168 -0.2192 -0.6162
2.7319 -0.2425 -0.6248
2.7266 -0.2609 -0.6169
2.7305 -0.2815 -0.6164
2.7401 -0.3038 -0.6205
2.7564 -0.3287 -0.6298
2.7594 -0.3492 -0.6286
2.7663 -0.3712 -0.6305
2.7713 -0.3925 -0.6308
2.7694 -0.4107 -0.6259
2.7773 -0.4332 -0.6284
2.7822 -0.4544 -0.6288
2.7822 -0.4729 -0.6253
2.7851 -0.4929 -0.6242
2.7850 -0.5110 -0.6207
2.7939 -0.5342 -0.6241
2.7947 -0.5526 -0.6214
2.7965 -0.5715 -0.6194
2.8045 -0.5943 -0.6220
2.8166 -0.6201 -0.6276
2.8236 -0.6426 -0.6294
2.4956 0.6652 -0.6149
2.5010 0.6456 -0.6160
2.5091 0.6297 -0.6201
2.5139 0.6090 -0.6204
2.5187 0.5883 -0.6207
2.5222 0.5659 -0.6195
2.5271 0.5452 -0.6198
2.5298 0.5222 -0.6179
2.5367 0.5039 -0.6205
2.5408 0.4825 -0.6200
2.5422 0.4584 -0.6165
2.5526 0.4433 -0.6230
2.5623 0.4019 -0.6236
2.5656 0.3800 -0.6224
2.5697 0.3588 -0.6219
2.5723 0.3366 -0.6200
2.5734 0.3134 -0.6165
2.5804 0.2945 -0.6191
2.5814 0.2717 -0.6156
2.5877 0.2522 -0.6174
2.5925 0.2318 -0.6177
2.6035 0.2145 -0.6242
2.6091 0.1942 -0.6252
2.6155 0.1517 -0.6228
2.6251 0.1107 -0.6234
2.6332 0.0910 -0.6268
2.6395 0.0490 -0.6244
2.6385 0.0276 -0.6193
2.6449 0.0074 -0.6212
2.6522 -0.0127 -0.6238
2.6570 -0.0332 -0.6241
2.6575 -0.0538 -0.6206
2.6622 -0.0742 -0.6209
2.6766 -0.0948 -0.6297
2.6717 -0.1149 -0.6215
2.6765 -0.1352 -0.6218
2.6902 -0.1567 -0.6299
2.6878 -0.1762 -0.6240
2.6953 -0.1971 -0.6266
2.6973 -0.2170 -0.6246
2.7094 -0.2391 -0.6312
2.7068 -0.2578 -0.6253
2.7042 -0.2760 -0.6194
2.7164 -0.3173 -0.6223
2.7240 -0.3387 -0.6250
2.7393 -0.3632 -0.6338
2.7431 -0.3835 -0.6334
2.7412 -0.4010 -0.6282
2.7372 -0.4173 -0.6216
2.7380 -0.4355 -0.6188
2.7496 -0.4592 -0.6245
2.7553 -0.4800 -0.6256
2.7640 -0.5026 -0.6290
2.7769 -0.5278 -0.6356
2.7827 -0.5491 -0.6367
2.7865 -0.5691 -0.6362
2.7913 -0.5897 -0.6366
2.7910 -0.6067 -0.6330
2.7957 -0.6272 -0.6333
1.0890 0.2954 -0.6196
1.1225 0.1900 -0.6127
1.1326 0.1678 -0.6084
1.1334 0.1495 -0.6117
1.1353 0.1307 -0.6143
1.1353 0.1123 -0.6185
1.1673 -0.0087 -0.6164
1.1771 -0.0293 -0.6121
1.1816 -0.0490 -0.6124
1.1882 -0.0884 -0.6153
1.1978 -0.1082 -0.6109
1.2031 -0.1279 -0.6104
1.2126 -0.1472 -0.6061
1.2163 -0.1668 -0.6072
1.2167 -0.1868 -0.6113
1.2180 -0.2069 -0.6147
1.2305 -0.2251 -0.6073
1.2318 -0.2453 -0.6106
1.2316 -0.2662 -0.6156
1.2408 -0.2845 -0.6112
1.2484 -0.3030 -0.6084
1.2506 -0.3233 -0.6110
1.2551 -0.3429 -0.6113
1.2634 -0.3607 -0.6077
1.2664 -0.3809 -0.6096
1.2708 -0.4003 -0.6099
1.2746 -0.4202 -0.6109
1.2776 -0.4407 -0.6128
1.2821 -0.4602 -0.6131
1.2887 -0.4782 -0.6110
1.2882 -0.5015 -0.6168
1.2970 -0.5177 -0.6124
1.2994 -0.5390 -0.6150
1.3046 -0.5580 -0.6145
1.3111 -0.5756 -0.6125
1.3136 -0.5971 -0.6151
1.3153 -0.6194 -0.6185
1.3219 -0.6369 -0.6165
1.3291 -0.6535 -0.6136
1.3355 -0.6706 -0.6116
1.3361 -0.6948 -0.6166
1.3425 -0.7119 -0.6145
1.3450 -0.7339 -0.6171
1.3514 -0.7508 -0.6151
1.3578 -0.7675 -0.6130
1.3585 -0.7926 -0.6180
1.3667 -0.8063 -0.6136
1.3706 -0.8267 -0.6147
1.3720 -0.8513 -0.6189
1.3765 -0.8708 -0.6192
1.3828 -0.8871 -0.6171
1.3855 -0.9099 -0.6198
1.0368 0.3750 -0.6231
1.0437 0.3528 -0.6220
1.0534 0.3289 -0.6186
1.0660 0.3036 -0.6130
1.0659 0.2856 -0.6170
1.0640 0.2682 -0.6225
1.0736 0.2449 -0.6191
1.0755 0.2253 -0.6216
1.0803 0.2044 -0.6219
1.0823 0.1846 -0.6245
1.0946 0.1608 -0.6188
1.0966 0.1409 -0.6214
1.1060 0.1185 -0.6180
1.1153 0.0964 -0.6146
1.1074 0.0793 -0.6253
1.1367 0.0331 -0.6096
1.1343 0.0140 -0.6158
1.1434 -0.0073 -0.6124
1.1499 -0.0280 -0.6112
1.1529 -0.0483 -0.6130
1.1764 -0.1507 -0.6145
1.1908 -0.1910 -0.6106
1.1954 -0.2113 -0.6109
1.2071 -0.2729 -0.6141
1.2141 -0.2925 -0.6122
1.2219 -0.3118 -0.6095
1.2558 -0.4295 -0.6052
1.2656 -0.4463 -0.6003
1.2601 -0.4962 -0.6159
1.2670 -0.5149 -0.6140
