ply
format ascii 1.0
element vertex 2125
property float x
property float y
property float z
end_header
5.6761 -1.4966 -0.4845
5.6708 -1.5070 -0.4811
5.6662 -1.5145 -0.4834
6.4145 -0.4911 0.5399
6.4193 -0.4740 0.5197
6.4190 -0.4648 0.4958
6.3911 -0.4919 0.4325
6.3773 -0.5053 0.4012
6.3788 -0.4925 0.3765
6.3775 -0.4842 0.3497
6.3727 -0.4704 0.2934
6.3774 -0.4506 0.2660
6.3730 -0.4465 0.2352
6.3634 -0.4515 0.2028
6.3765 -0.4149 0.1734
6.3754 -0.4037 0.1403
6.3591 -0.4202 0.1053
6.3667 -0.3920 0.0708
6.3594 -0.3914 0.0349
6.3488 -0.3966 -0.0014
6.3562 -0.3669 -0.0407
6.3484 -0.3661 -0.0792
6.3404 -0.3654 -0.1183
6.3293 -0.3706 -0.1572
6.3208 -0.3703 -0.1976
6.2385 -0.4101 -0.4834
6.0331 -0.7921 -0.4958
5.9768 -0.8968 -0.4989
5.8828 -1.0785 -0.4873
5.8645 -1.1138 -0.4854
5.8497 -1.1401 -0.4890
5.8198 -1.1976 -0.4866
5.7965 -1.2385 -0.4937
5.7735 -1.2826 -0.4918
5.7523 -1.3252 -0.4853
5.7351 -1.3568 -0.4871
5.7185 -1.3907 -0.4808
5.7050 -1.4144 -0.4852
5.6984 -1.4269 -0.4849
5.6920 -1.4392 -0.4840
5.6695 -1.4829 -0.4809
5.6647 -1.4906 -0.4841
5.6599 -1.5001 -0.4832
6.3907 -0.4378 0.4804
6.3814 -0.4429 0.4507
6.3727 -0.4471 0.4211
6.3633 -0.4524 0.3910
6.3596 -0.4472 0.3630
6.3542 -0.4324 0.3059
6.3497 -0.4280 0.2756
6.3481 -0.4176 0.2455
6.3440 -0.4116 0.2140
6.3339 -0.4169 0.1807
6.3293 -0.4113 0.1477
6.3304 -0.3941 0.1145
6.3310 -0.3773 0.0798
6.3440 -0.3347 0.0432
6.3419 -0.3219 0.0051
6.3369 -0.3142 -0.0339
6.3167 -0.3383 -0.0709
6.3206 -0.3112 -0.1136
6.2938 -0.3493 -0.1485
6.2913 -0.3350 -0.1914
6.1742 -0.4302 -0.5028
5.8641 -1.0583 -0.4904
5.8286 -1.1332 -0.4825
5.8036 -1.1791 -0.4919
5.7793 -1.2274 -0.4930
5.7667 -1.2557 -0.4866
5.7558 -1.2785 -0.4843
5.7471 -1.2937 -0.4892
5.7376 -1.3137 -0.4874
5.7292 -1.3298 -0.4890
5.7200 -1.3513 -0.4824
5.7057 -1.3774 -0.4880
5.6983 -1.3939 -0.4843
5.6917 -1.4075 -0.4838
5.6855 -1.4195 -0.4848
5.6798 -1.4287 -0.4894
5.6684 -1.4532 -0.4862
5.6579 -1.4775 -0.4791
5.6532 -1.4853 -0.4824
5.6487 -1.4936 -0.4841
5.6444 -1.5007 -0.4879
6.3555 -0.4204 0.4614
6.3421 -0.4203 0.4037
6.3566 -0.3790 0.3836
6.3637 -0.3512 0.3585
6.3568 -0.3500 0.3267
6.3304 -0.3875 0.2882
6.3280 -0.3771 0.2576
6.3238 -0.3701 0.2256
6.3108 -0.3806 0.1912
6.3003 -0.3861 0.1571
6.2954 -0.3797 0.1232
6.3092 -0.3329 0.0892
6.2955 -0.3440 0.0527
6.2988 -0.3181 0.0150
6.2930 -0.3111 -0.0235
6.2843 -0.3102 -0.0625
6.2758 -0.3085 -0.1023
6.2584 -0.3269 -0.1399
6.2691 -0.2796 -0.1884
6.2177 -0.3557 -0.2565
5.9806 -0.7465 -0.4924
5.8814 -0.9595 -0.4920
5.8105 -1.1153 -0.4853
5.7984 -1.1380 -0.4917
5.7841 -1.1711 -0.4870
5.7719 -1.1976 -0.4865
5.7605 -1.2221 -0.4862
5.7501 -1.2441 -0.4869
5.7401 -1.2656 -0.4866
5.7309 -1.2855 -0.4868
5.7222 -1.3035 -0.4877
5.7056 -1.3416 -0.4832
5.6982 -1.3574 -0.4832
5.6914 -1.3708 -0.4853
5.6846 -1.3868 -0.4828
5.6784 -1.3992 -0.4845
5.6726 -1.4107 -0.4867
5.6667 -1.4247 -0.4840
5.6612 -1.4365 -0.4838
5.6561 -1.4468 -0.4853
5.6511 -1.4582 -0.4840
5.6463 -1.4676 -0.4856
5.6418 -1.4768 -0.4867
6.3457 -0.3508 0.4563
6.3258 -0.3759 0.4196
6.3346 -0.3430 0.3971
6.3164 -0.3649 0.3611
6.3282 -0.3244 0.3375
6.3123 -0.3412 0.3020
6.2969 -0.3569 0.2670
6.3022 -0.3281 0.2376
6.2998 -0.3152 0.2047
6.2950 -0.2875 0.1357
6.2895 -0.2798 0.0992
6.2806 -0.2793 0.0617
6.2778 -0.2642 0.0233
6.2806 -0.2348 -0.0173
6.2517 -0.2809 -0.0540
6.2372 -0.2926 -0.0926
6.2280 -0.2911 -0.1330
6.2347 -0.2489 -0.1807
6.1885 -0.3412 -0.2058
6.1816 -0.3333 -0.2483
5.9984 -0.6064 -0.5136
5.8823 -0.8825 -0.4987
5.8578 -0.9443 -0.4891
5.8076 -1.0578 -0.4928
5.7914 -1.0988 -0.4867
5.7780 -1.1296 -0.4866
5.7664 -1.1545 -0.4900
5.7549 -1.1806 -0.4906
5.7451 -1.2001 -0.4960
5.7231 -1.2586 -0.4823
5.7153 -1.2720 -0.4902
5.6991 -1.3090 -0.4909
5.6839 -1.3478 -0.4842
5.6708 -1.3790 -0.4823
5.6650 -1.3902 -0.4862
5.6592 -1.4052 -0.4833
5.6539 -1.4147 -0.4882
5.6487 -1.4266 -0.4883
5.6437 -1.4384 -0.4877
5.6389 -1.4487 -0.4889
5.6344 -1.4614 -0.4849
5.6301 -1.4708 -0.4861
5.6258 -1.4787 -0.4893
6.3402 -0.3116 0.5320
6.3252 -0.3272 0.4973
6.3102 -0.3427 0.4630
6.3106 -0.3255 0.4373
6.3011 -0.3292 0.4055
6.3116 -0.2889 0.3829
6.2961 -0.3049 0.3472
6.2883 -0.3038 0.3146
6.2859 -0.2903 0.2833
6.2857 -0.2708 0.2517
6.2996 -0.2177 0.2220
6.2941 -0.2086 0.1859
6.2916 -0.1918 0.1492
6.2653 -0.2320 0.1095
6.2594 -0.2226 0.0714
6.2393 -0.2484 0.0329
6.2353 -0.2334 -0.0067
6.2206 -0.2453 -0.0458
6.2276 -0.1998 -0.0906
6.2259 -0.1755 -0.1359
6.2187 -0.1652 -0.1809
6.0371 -0.4127 -0.5045
5.9073 -0.7342 -0.5056
5.8582 -0.8605 -0.4988
5.7862 -1.0446 -0.4903
5.7607 -1.1045 -0.4957
5.7470 -1.1440 -0.4871
5.7361 -1.1703 -0.4880
5.7169 -1.2150 -0.4929
5.6993 -1.2591 -0.4926
5.6906 -1.2850 -0.4856
5.6835 -1.2996 -0.4905
5.6759 -1.3226 -0.4838
5.6693 -1.3381 -0.4852
5.6631 -1.3519 -0.4877
5.6569 -1.3704 -0.4827
5.6513 -1.3831 -0.4847
5.6459 -1.3963 -0.4851
5.6408 -1.4072 -0.4880
5.6358 -1.4207 -0.4861
5.6311 -1.4306 -0.4890
5.6267 -1.4443 -0.4847
5.6224 -1.4546 -0.4854
5.6182 -1.4640 -0.4867
5.6143 -1.4746 -0.4852
5.6105 -1.4831 -0.4869
6.3000 -0.3138 0.5351
6.3104 -0.2735 0.5178
6.2928 -0.2949 0.4809
6.2981 -0.2645 0.4580
6.3008 -0.2389 0.4323
6.2722 -0.2855 0.3892
6.2593 -0.2960 0.3548
6.2508 -0.2959 0.3222
6.2578 -0.2576 0.2950
6.2653 -0.2170 0.2658
6.2618 -0.2021 0.2315
6.2505 -0.2064 0.1944
6.2470 -0.1902 0.1581
6.2380 -0.1876 0.1201
6.2256 -0.1934 0.0812
6.2087 -0.2114 0.0422
6.1962 -0.2173 0.0031
6.1843 -0.2213 -0.0365
6.2120 -0.0774 -0.1351
6.1955 -0.0907 -0.1787
6.1506 -0.1915 -0.2071
6.0899 -0.1511 -0.4955
6.0086 -0.3591 -0.5104
5.9317 -0.5741 -0.4987
5.9043 -0.6458 -0.5015
5.8147 -0.8881 -0.4995
5.7948 -0.9480 -0.4902
5.7635 -1.0370 -0.4835
5.7398 -1.0959 -0.4905
5.7174 -1.1585 -0.4868
5.7073 -1.1879 -0.4837
5.6989 -1.2068 -0.4891
5.6906 -1.2269 -0.4921
5.6824 -1.2498 -0.4908
5.6675 -1.2922 -0.4873
5.6609 -1.3097 -0.4880
5.6544 -1.3305 -0.4833
5.6428 -1.3596 -0.4860
5.6375 -1.3746 -0.4853
5.6323 -1.3865 -0.4879
5.6275 -1.4031 -0.4826
5.6228 -1.4119 -0.4883
5.6184 -1.4254 -0.4858
5.6143 -1.4379 -0.4839
5.6101 -1.4476 -0.4858
5.6063 -1.4585 -0.4850
5.6025 -1.4673 -0.4872
5.5991 -1.4778 -0.4853
6.2814 -0.2484 0.5297
6.2686 -0.2588 0.4957
6.2586 -0.2625 0.4634
6.2552 -0.2498 0.4349
6.2549 -0.2286 0.4073
6.2463 -0.2275 0.3743
6.2354 -0.2319 0.3398
6.2294 -0.2236 0.3070
6.2282 -0.2017 0.2751
6.2268 -0.1792 0.2418
6.2159 -0.1535 0.1691
6.2012 -0.1654 0.1301
6.1918 -0.1620 0.0912
6.1870 -0.1445 0.0515
6.1792 -0.1346 0.0106
6.1793 -0.0630 -0.0791
6.1738 -0.0417 -0.1261
6.1709 -0.0101 -0.1764
5.8480 -0.7022 -0.4941
5.7718 -0.9277 -0.4908
5.7583 -0.9630 -0.4963
5.7089 -1.1123 -0.4903
5.6992 -1.1393 -0.4920
5.6893 -1.1739 -0.4850
5.6810 -1.1954 -0.4884
5.6726 -1.2251 -0.4821
5.6655 -1.2397 -0.4898
5.6583 -1.2617 -0.4884
5.6516 -1.2834 -0.4859
5.6453 -1.3025 -0.4850
5.6394 -1.3221 -0.4823
5.6338 -1.3391 -0.4813
5.6284 -1.3494 -0.4882
5.6235 -1.3681 -0.4828
5.6187 -1.3809 -0.4845
5.6140 -1.3928 -0.4866
5.6099 -1.4080 -0.4829
5.6055 -1.4174 -0.4871
5.6016 -1.4301 -0.4852
5.5978 -1.4406 -0.4862
5.5940 -1.4503 -0.4878
5.5908 -1.4618 -0.4854
6.2474 -0.2344 0.5382
6.2335 -0.2249 0.4783
6.2302 -0.2099 0.4500
6.2276 -0.1667 0.3927
6.2316 -0.1289 0.3649
6.2278 -0.1112 0.3317
6.2186 -0.1080 0.2953
6.1988 -0.1348 0.2546
6.1943 -0.1170 0.2188
6.1795 -0.1290 0.1795
6.1770 -0.1034 0.1420
6.1642 -0.1084 0.1020
6.1515 -0.1125 0.0616
6.1530 -0.0698 0.0195
6.1656 0.0125 -0.0274
6.1568 0.0261 -0.0738
6.1452 0.0313 -0.1208
6.1229 -0.0014 -0.1638
6.0828 -0.1015 -0.1952
5.9871 -0.4205 -0.1816
6.0123 -0.0621 -0.4903
5.9736 -0.1772 -0.5001
5.9015 -0.4071 -0.5014
5.7997 -0.7386 -0.4953
5.7344 -0.9514 -0.4914
5.7100 -1.0297 -0.4914
5.6888 -1.1006 -0.4879
5.6627 -1.1878 -0.4838
5.6554 -1.2076 -0.4879
5.6483 -1.2318 -0.4863
5.6417 -1.2549 -0.4842
5.6355 -1.2745 -0.4845
5.6296 -1.2900 -0.4882
5.6241 -1.3091 -0.4867
5.6189 -1.3279 -0.4842
5.6138 -1.3412 -0.4875
5.6091 -1.3559 -0.4881
5.6047 -1.3717 -0.4861
5.6007 -1.3873 -0.4833
5.5966 -1.3998 -0.4839
5.5928 -1.4129 -0.4828
5.5888 -1.4223 -0.4866
5.5853 -1.4336 -0.4866
5.5818 -1.4441 -0.4872
5.5787 -1.4550 -0.4861
5.5754 -1.4639 -0.4881
6.2228 -0.2414 0.6000
6.2196 -0.2273 0.5750
6.2394 -0.1504 0.5685
6.2240 -0.1670 0.5313
6.2250 -0.1382 0.5066
6.2129 -0.0873 0.4153
6.1963 -0.1056 0.3759
6.1842 -0.1107 0.3389
6.1772 -0.0996 0.3039
6.1722 -0.0812 0.2688
6.1597 -0.0858 0.2301
6.1493 -0.0831 0.1916
6.1436 -0.0637 0.1533
6.1578 0.0254 0.1153
6.1655 0.0963 0.0724
6.1279 0.0082 0.0288
6.1195 0.0741 -0.0646
6.0925 0.0218 -0.1067
6.0826 0.0362 -0.1548
6.0481 -0.0502 -0.1895
5.8678 -0.3676 -0.5018
5.8120 -0.5752 -0.4918
5.7386 -0.8330 -0.4935
5.7095 -0.9501 -0.4796
5.6885 -1.0087 -0.4947
5.6689 -1.0814 -0.4916
5.6603 -1.1083 -0.4948
5.6522 -1.1389 -0.4930
5.6445 -1.1731 -0.4860
5.6376 -1.1963 -0.4874
5.6311 -1.2216 -0.4852
5.6250 -1.2441 -0.4842
5.6138 -1.2843 -0.4834
5.6086 -1.3005 -0.4856
5.6039 -1.3195 -0.4832
5.5992 -1.3345 -0.4848
5.5948 -1.3486 -0.4866
5.5907 -1.3638 -0.4857
5.5866 -1.3767 -0.4871
5.5833 -1.3930 -0.4827
5.5796 -1.4048 -0.4839
5.5761 -1.4164 -0.4845
5.5726 -1.4265 -0.4869
5.5695 -1.4378 -0.4865
5.5670 -1.4502 -0.4832
5.5632 -1.4565 -0.4900
6.1939 -0.2161 0.6125
6.1880 -0.2076 0.5854
6.1976 -0.1260 0.5480
6.1909 -0.1164 0.5176
6.2086 -0.0323 0.5054
6.1774 -0.0959 0.4547
6.1700 -0.0861 0.4218
6.1627 -0.0755 0.3882
6.1553 -0.0640 0.3537
6.1544 -0.0299 0.3216
6.1488 -0.0095 0.2857
6.1360 -0.0133 0.2458
6.1250 -0.0098 0.2062
6.1259 0.0383 0.1683
6.1171 0.0527 0.1265
6.1053 0.0572 0.0832
6.0912 0.0532 0.0392
6.0791 0.0583 -0.0056
6.0667 0.0632 -0.0513
6.0542 0.0688 -0.0980
6.0435 0.0842 -0.1468
6.0200 0.0410 -0.1889
5.9002 -0.0563 -0.5071
5.8331 -0.3258 -0.5025
5.7840 -0.5184 -0.5032
5.7435 -0.6883 -0.4942
5.7131 -0.8042 -0.4971
5.6874 -0.9098 -0.4936
5.6661 -0.9951 -0.4921
5.6568 -1.0309 -0.4928
5.6482 -1.0661 -0.4918
5.6327 -1.1235 -0.4947
5.6259 -1.1565 -0.4896
5.6195 -1.1849 -0.4867
5.6078 -1.2301 -0.4874
5.6021 -1.2455 -0.4934
5.5975 -1.2708 -0.4873
5.5929 -1.2903 -0.4862
5.5883 -1.3073 -0.4869
5.5842 -1.3248 -0.4859
5.5797 -1.3367 -0.4908
5.5764 -1.3552 -0.4862
5.5731 -1.3712 -0.4837
5.5659 -1.3952 -0.4871
5.5628 -1.4077 -0.4869
5.5600 -1.4200 -0.4861
5.5570 -1.4307 -0.4869
5.5542 -1.4413 -0.4873
5.5512 -1.4503 -0.4895
6.1683 -0.1212 0.5863
6.1822 0.0236 0.5253
6.1531 -0.0362 0.4746
6.1525 -0.0005 0.4464
6.1355 -0.0204 0.4055
6.1319 0.0076 0.3731
6.1213 0.0120 0.3355
6.1148 0.0325 0.2992
6.1130 0.0733 0.2636
6.1063 0.0971 0.2242
6.1039 0.1408 0.1843
6.0967 0.1676 0.1411
6.0724 0.1229 0.0950
6.0623 0.1397 0.0497
6.0517 0.1560 0.0030
6.0279 0.1117 -0.0417
5.9874 0.1296 -0.1868
5.7506 -0.4941 -0.4991
5.6863 -0.7831 -0.4959
5.6529 -0.9290 -0.4974
5.6435 -0.9797 -0.4907
5.6350 -1.0150 -0.4924
5.6271 -1.0524 -0.4905
5.6198 -1.0816 -0.4930
5.6131 -1.1146 -0.4905
5.6070 -1.1471 -0.4864
5.6012 -1.1733 -0.4860
5.5955 -1.1943 -0.4892
5.5901 -1.2142 -0.4922
5.5855 -1.2394 -0.4884
5.5810 -1.2595 -0.4885
5.5725 -1.2957 -0.4895
5.5687 -1.3134 -0.4888
5.5651 -1.3300 -0.4881
5.5619 -1.3464 -0.4867
5.5582 -1.3589 -0.4895
5.5526 -1.3884 -0.4860
5.5493 -1.3989 -0.4892
5.5474 -1.4142 -0.4841
5.5448 -1.4257 -0.4839
5.5389 -1.4435 -0.4902
6.1798 -0.1405 0.7657
6.1820 -0.1058 0.7508
6.1381 -0.1218 0.6220
6.1423 -0.0390 0.5832
6.1147 -0.0204 0.4842
6.1173 0.0317 0.4598
6.1156 0.0704 0.4301
6.1068 0.0838 0.3938
6.0956 0.0889 0.3551
6.0864 0.1038 0.3169
6.0745 0.1084 0.2763
6.0760 0.1729 0.2403
6.0613 0.1690 0.1962
6.0487 0.1757 0.1521
6.0357 0.1821 0.1071
6.0166 0.1585 0.0612
6.0012 0.1540 0.0152
5.9896 0.1714 -0.0323
5.9738 0.1675 -0.0798
5.9594 0.2708 -0.1903
5.7378 -0.3444 -0.5062
5.6714 -0.6882 -0.5010
5.6287 -0.9120 -0.4960
5.6125 -0.9938 -0.4958
5.5872 -1.1268 -0.4927
5.5825 -1.1609 -0.4860
5.5770 -1.1796 -0.4918
5.5684 -1.2285 -0.4884
5.5644 -1.2496 -0.4879
5.5608 -1.2712 -0.4855
5.5566 -1.2862 -0.4894
5.5533 -1.3041 -0.4888
5.5477 -1.3399 -0.4841
5.5439 -1.3510 -0.4891
5.5410 -1.3649 -0.4894
5.5377 -1.3757 -0.4934
5.5354 -1.3900 -0.4914
5.5343 -1.4069 -0.4843
5.5310 -1.4150 -0.4899
5.5267 -1.4372 -0.4896
6.1393 -0.1186 0.7483
6.1488 -0.0546 0.7439
6.1273 -0.0932 0.6979
6.1202 0.0763 0.5869
6.0945 0.0683 0.5116
6.0639 0.1524 0.3730
6.0540 0.1683 0.3340
6.0438 0.1850 0.2939
6.0291 0.1814 0.2506
6.0162 0.1875 0.2075
6.0013 0.1846 0.1631
5.9880 0.1913 0.1184
5.9780 0.2192 0.0728
5.9525 0.3600 -0.0799
5.9479 0.4485 -0.1407
5.9277 0.4321 -0.1944
5.8045 0.3080 -0.5091
5.5900 -0.9828 -0.4914
5.5786 -1.0622 -0.4847
5.5673 -1.1129 -0.4930
5.5622 -1.1373 -0.4958
5.5589 -1.1714 -0.4881
5.5542 -1.1909 -0.4924
5.5504 -1.2143 -0.4916
5.5439 -1.2584 -0.4886
5.5416 -1.2815 -0.4837
5.5388 -1.3003 -0.4823
5.5343 -1.3096 -0.4914
5.5323 -1.3287 -0.4875
5.5291 -1.3415 -0.4907
5.5267 -1.3563 -0.4902
5.5225 -1.3846 -0.4882
5.5207 -1.3981 -0.4867
5.5193 -1.4121 -0.4835
5.5160 -1.4194 -0.4899
6.1019 -0.1170 0.7516
6.1001 -0.0879 0.7337
6.1036 -0.0374 0.7225
6.0774 0.0309 0.6139
6.0630 0.0193 0.5759
6.0736 0.1146 0.5663
6.0558 0.2748 0.4437
6.0220 0.2473 0.3537
6.0050 0.2335 0.3087
5.9918 0.2409 0.2659
5.9802 0.2591 0.2229
5.9699 0.2889 0.1791
5.9538 0.2854 0.1323
5.9344 0.3735 0.0357
5.9222 0.4094 -0.0164
5.9093 0.4456 -0.0711
5.8926 0.4569 -0.1261
5.8696 0.4134 -0.1764
5.7522 0.3428 -0.4993
5.7021 0.0332 -0.5162
5.6627 -0.2678 -0.5046
5.5934 -0.7676 -0.4970
5.5672 -0.9691 -0.4889
5.5557 -1.0328 -0.4957
5.5516 -1.0696 -0.4924
5.5476 -1.1024 -0.4903
5.5438 -1.1321 -0.4888
5.5397 -1.1564 -0.4905
5.5361 -1.1804 -0.4912
5.5341 -1.2106 -0.4841
5.5300 -1.2272 -0.4891
5.5266 -1.2453 -0.4916
5.5246 -1.2679 -0.4879
5.5216 -1.2846 -0.4896
5.5197 -1.3043 -0.4868
5.5126 -1.3492 -0.4888
5.5108 -1.3640 -0.4878
5.5049 -1.4012 -0.4894
5.5041 -1.4152 -0.4857
5.5013 -1.4232 -0.4908
6.0540 -0.1196 0.7240
6.0627 -0.0436 0.7234
6.0822 0.0815 0.7377
6.0465 0.0790 0.6335
6.0301 0.0588 0.5923
6.0225 0.0803 0.5627
6.0245 0.2178 0.5213
6.0198 0.2652 0.4912
6.0051 0.2621 0.4491
5.9938 0.2795 0.4100
5.9842 0.3091 0.3714
5.9652 0.2848 0.3242
5.9616 0.3597 0.2877
5.9506 0.3931 0.2440
5.9356 0.4026 0.1967
5.9155 0.3754 0.1468
5.9078 0.4489 0.0991
5.8947 0.4865 0.0476
5.8778 0.4974 -0.0057
5.8620 0.5230 -0.0610
5.8430 0.5213 -0.1161
5.8238 0.5195 -0.1720
5.7011 0.4464 -0.5071
5.6560 0.0720 -0.5108
5.6234 -0.2302 -0.5027
5.6100 -0.3218 -0.5106
5.5993 -0.4526 -0.4969
5.5882 -0.5089 -0.5103
5.5397 -0.9953 -0.4853
5.5349 -1.0258 -0.4891
5.5298 -1.0516 -0.4950
5.5268 -1.0865 -0.4918
5.5227 -1.1115 -0.4952
5.5202 -1.1421 -0.4921
5.5189 -1.1757 -0.4844
5.5159 -1.1978 -0.4856
5.5125 -1.2163 -0.4891
5.5079 -1.2575 -0.4885
5.5053 -1.2744 -0.4904
5.5036 -1.2934 -0.4887
5.5018 -1.3106 -0.4881
5.4999 -1.3260 -0.4886
5.4976 -1.3397 -0.4905
5.4975 -1.3585 -0.4844
5.4952 -1.3702 -0.4870
5.4940 -1.3840 -0.4859
5.4916 -1.3938 -0.4896
5.4908 -1.4072 -0.4873
6.0471 -0.0365 0.7907
6.0424 -0.0108 0.7706
6.0355 0.0069 0.7461
6.0422 0.0885 0.7440
6.0402 0.1346 0.7262
5.9879 0.1216 0.5794
5.9739 0.2728 0.5000
5.9692 0.3339 0.4705
5.9624 0.3883 0.4368
5.9481 0.3970 0.3934
5.9335 0.4065 0.3490
5.9185 0.4156 0.3037
5.9003 0.4008 0.2551
5.8862 0.4229 0.2090
5.8633 0.5373 0.1133
5.8473 0.5639 0.0606
5.8295 0.5769 0.0062
5.8147 0.6359 -0.0519
5.6256 0.3189 -0.5116
5.6090 0.1113 -0.5052
5.5945 -0.0355 -0.5084
5.5414 -0.6484 -0.5009
5.5307 -0.7749 -0.4984
5.5223 -0.8812 -0.4947
5.5148 -0.9656 -0.4944
5.5096 -1.0449 -0.4884
5.5063 -1.0740 -0.4905
5.5025 -1.0984 -0.4948
5.5001 -1.1268 -0.4943
5.4982 -1.1547 -0.4925
5.4946 -1.2044 -0.4900
5.4910 -1.2195 -0.4964
5.4904 -1.2444 -0.4917
5.4875 -1.2833 -0.4897
5.4863 -1.3015 -0.4883
5.4849 -1.3179 -0.4880
5.4838 -1.3340 -0.4870
5.4833 -1.3507 -0.4842
5.4816 -1.3633 -0.4859
5.4797 -1.3749 -0.4881
5.4778 -1.3856 -0.4909
5.4776 -1.4000 -0.4876
5.4757 -1.4097 -0.4906
6.0071 0.0593 0.7697
6.0075 0.1203 0.7595
6.0030 0.1606 0.7395
5.9913 0.1658 0.7059
5.9443 0.1977 0.5680
5.9361 0.3334 0.5202
5.9178 0.3091 0.4734
5.9139 0.3960 0.4466
5.9095 0.4908 0.4168
5.8955 0.5150 0.3730
5.8824 0.5535 0.3292
5.8645 0.5515 0.2794
5.8427 0.5087 0.2260
5.8280 0.5470 0.1778
5.8206 0.6938 0.1300
5.7038 2.5005 -0.5284
5.5716 0.4056 -0.5160
5.5488 0.0188 -0.5091
5.5207 -0.4708 -0.4983
5.5112 -0.6324 -0.4953
5.5036 -0.7610 -0.4933
5.4980 -0.8712 -0.4886
5.4917 -0.9527 -0.4914
5.4866 -1.0239 -0.4928
5.4820 -1.0852 -0.4944
5.4789 -1.1421 -0.4927
5.4763 -1.1924 -0.4907
5.4754 -1.2161 -0.4889
5.4742 -1.2370 -0.4885
5.4725 -1.2551 -0.4900
5.4697 -1.2689 -0.4952
5.4703 -1.2914 -0.4894
5.4693 -1.3080 -0.4894
5.4670 -1.3381 -0.4901
5.4655 -1.3665 -0.4892
5.4637 -1.3774 -0.4922
5.4632 -1.3904 -0.4913
5.9635 0.1034 0.7570
5.9651 0.1855 0.7524
5.9531 0.1908 0.7188
5.9604 0.3229 0.7245
5.9009 0.4318 0.5490
5.8901 0.4769 0.5145
5.8775 0.5130 0.4759
5.8643 0.5508 0.4355
5.8517 0.6041 0.3951
5.8383 0.6601 0.3521
5.8184 0.6439 0.2992
5.7798 2.3139 0.0104
5.7217 2.9111 -0.2146
5.6012 2.6462 -0.5166
5.5140 0.4979 -0.5208
5.5011 0.0758 -0.5100
5.4915 -0.2154 -0.5044
5.4830 -0.4206 -0.5054
5.4741 -0.7338 -0.4954
5.4695 -0.8378 -0.4968
5.4680 -0.8864 -0.4955
5.4661 -0.9278 -0.4963
5.4644 -0.9669 -0.4965
5.4641 -1.0081 -0.4930
5.4634 -1.0442 -0.4910
5.4619 -1.0745 -0.4916
5.4598 -1.0999 -0.4947
5.4581 -1.1541 -0.4935
5.4570 -1.1776 -0.4939
5.4599 -1.2119 -0.4822
5.4583 -1.2305 -0.4846
5.4552 -1.2437 -0.4915
5.4550 -1.2837 -0.4877
5.4526 -1.3138 -0.4911
5.4517 -1.3285 -0.4918
5.4521 -1.3453 -0.4888
5.4515 -1.3588 -0.4892
5.4517 -1.3737 -0.4868
5.4504 -1.3845 -0.4894
5.9150 0.0480 0.7400
5.9217 0.1753 0.7529
5.9176 0.3405 0.7352
5.8447 0.5229 0.5318
5.8286 0.5331 0.4881
5.8164 0.5985 0.4525
5.8308 2.5589 0.4126
5.6891 2.5380 0.0322
5.6527 2.5561 -0.0663
5.5297 3.0093 -0.4155
5.5035 2.4848 -0.4650
5.4575 0.8568 -0.5233
5.4498 0.3672 -0.5244
5.4501 -0.0304 -0.5075
5.4471 -0.1548 -0.5106
5.4438 -0.2584 -0.5155
5.4510 -0.6039 -0.4822
5.4427 -0.7625 -0.4980
5.4561 -0.9312 -0.4553
5.4483 -0.9408 -0.4758
5.4420 -0.9560 -0.4923
5.4400 -1.0241 -0.4949
5.4400 -1.0894 -0.4922
5.4395 -1.1442 -0.4914
5.4366 -1.1853 -0.4975
5.4389 -1.2356 -0.4893
5.4396 -1.2760 -0.4858
5.4370 -1.3047 -0.4915
5.4379 -1.3228 -0.4884
5.4365 -1.3350 -0.4917
5.4371 -1.3645 -0.4891
5.4357 -1.3878 -0.4918
5.8779 0.2614 0.7515
5.8626 0.2490 0.7110
5.8740 0.4907 0.7472
5.8165 0.5830 0.5980
5.8574 2.9987 0.7673
5.8235 3.0817 0.6802
5.7700 2.5791 0.5262
5.7358 2.5980 0.4364
5.7008 2.6174 0.3446
5.6646 2.5881 0.2486
5.6285 2.5587 0.1526
5.5929 2.4819 0.0568
5.5581 2.4069 -0.0370
5.5175 2.5665 -0.1398
5.4160 3.1175 -0.3936
5.3929 2.7319 -0.4644
5.3946 2.0565 -0.4770
5.3951 1.1818 -0.4980
5.3871 0.9623 -0.5247
5.3933 0.4283 -0.5220
5.4036 0.0140 -0.5053
5.4048 -0.2357 -0.5086
5.4307 -0.5735 -0.4487
5.4203 -0.5877 -0.4766
5.4137 -0.6204 -0.4950
5.4108 -0.7264 -0.5052
5.4358 -0.9306 -0.4445
5.4282 -0.9402 -0.4647
5.4219 -0.9544 -0.4817
5.4189 -0.9796 -0.4903
5.4173 -1.0083 -0.4952
5.4198 -1.0780 -0.4903
5.4210 -1.1819 -0.4899
5.4208 -1.2231 -0.4916
5.4230 -1.2657 -0.4868
5.4218 -1.2803 -0.4902
5.4232 -1.2997 -0.4870
5.4214 -1.3262 -0.4925
5.4233 -1.3441 -0.4880
5.4242 -1.3593 -0.4859
5.4237 -1.3711 -0.4876
5.4208 -1.3780 -0.4956
5.8513 0.4218 0.8107
5.8339 0.3972 0.7636
5.8252 0.4731 0.7476
5.8148 0.5443 0.7269
5.7989 0.5548 0.6869
5.8154 2.6841 0.9160
5.7774 2.5632 0.8073
5.7557 3.0406 0.7928
5.7184 3.0665 0.6987
5.6407 2.5890 0.4559
5.6057 2.5138 0.3589
5.5693 2.5790 0.2704
5.5324 2.5982 0.1767
5.4994 2.4743 0.0804
5.4641 2.4456 -0.0135
5.4167 2.6576 -0.1173
5.3158 2.4222 -0.3991
5.2836 2.3469 -0.4889
5.3147 1.0532 -0.5218
5.3327 0.5061 -0.5232
5.3513 0.0881 -0.5119
5.4096 -0.5397 -0.4159
5.3948 -0.5318 -0.4535
5.3814 -0.5323 -0.4884
5.3816 -0.5964 -0.4933
5.4158 -0.8905 -0.4306
5.4121 -0.9157 -0.4424
5.4048 -0.9263 -0.4622
5.3979 -0.9378 -0.4812
5.3987 -0.9746 -0.4824
5.3954 -0.9960 -0.4927
5.3976 -1.0610 -0.4928
5.3996 -1.1178 -0.4926
5.4029 -1.1924 -0.4905
5.4019 -1.2096 -0.4946
5.4049 -1.2352 -0.4890
5.4050 -1.2527 -0.4905
5.4087 -1.2930 -0.4844
5.4071 -1.3048 -0.4895
5.4061 -1.3173 -0.4932
5.4065 -1.3451 -0.4946
5.4102 -1.3643 -0.4866
5.4074 -1.3713 -0.4947
5.8131 0.5076 0.8449
5.7954 0.4825 0.7964
5.7787 0.4689 0.7519
5.7666 0.5383 0.7313
5.8384 2.3493 1.1791
5.8358 3.0139 1.2699
5.7548 2.6562 1.0120
5.7243 2.8212 0.9586
5.6854 2.5109 0.8144
5.6530 2.8138 0.7766
5.6162 2.9412 0.7018
5.5820 2.6564 0.5733
5.5486 2.5344 0.4707
5.5191 2.3326 0.3661
5.4811 2.4339 0.2846
5.4386 2.5891 0.1993
5.3975 2.6579 0.1053
5.3547 2.7288 0.0069
5.3136 2.7507 -0.0942
5.2716 2.7718 -0.1977
5.2286 2.7945 -0.3037
5.1491 3.1756 -0.4495
5.1453 2.7857 -0.5162
5.2917 0.1886 -0.5254
5.3014 0.0283 -0.5243
5.3408 -0.5933 -0.5155
5.3690 -0.8718 -0.4847
5.3659 -0.8972 -0.4962
5.3772 -1.0502 -0.4901
5.3797 -1.1058 -0.4919
5.3801 -1.1295 -0.4942
5.3830 -1.1776 -0.4940
5.3873 -1.2413 -0.4923
5.3875 -1.2580 -0.4942
5.3905 -1.2940 -0.4921
5.3915 -1.3100 -0.4918
5.3928 -1.3258 -0.4908
5.3925 -1.3381 -0.4935
5.3909 -1.3478 -0.4989
5.7689 0.5377 0.8601
5.7514 0.5124 0.8113
5.7399 0.6225 0.8049
5.7375 3.0000 1.2805
5.7021 3.0242 1.1972
5.6641 2.7407 1.0450
5.6292 2.8603 0.9824
5.5962 2.5476 0.8368
5.5560 2.9055 0.8090
5.5154 3.0376 0.7345
5.4830 2.8462 0.6149
5.4566 2.5722 0.4937
5.4266 2.4541 0.3948
5.3875 2.5160 0.3100
5.3402 2.6773 0.2249
5.3041 2.6479 0.1289
5.2638 2.6682 0.0326
5.1812 3.1334 -0.0792
5.1278 3.2255 -0.1936
5.1374 2.7306 -0.2699
5.1437 1.3470 -0.5346
5.1745 0.9814 -0.5318
5.2468 0.1973 -0.5105
5.2522 0.0735 -0.5221
5.3406 -0.8108 -0.4809
5.3365 -0.8339 -0.4959
5.3415 -0.9149 -0.4999
5.3526 -1.0032 -0.4900
5.3578 -1.0667 -0.4899
5.3591 -1.0928 -0.4920
5.3628 -1.1231 -0.4890
5.3679 -1.1743 -0.4865
5.3676 -1.1919 -0.4909
5.3696 -1.2136 -0.4902
5.3694 -1.2298 -0.4940
5.3713 -1.2493 -0.4933
5.3799 -1.3211 -0.4864
5.3798 -1.3335 -0.4891
5.3805 -1.3465 -0.4902
5.3777 -1.3537 -0.4985
5.6412 2.8347 1.2518
5.6049 3.0642 1.2216
5.5728 2.7311 1.0576
5.5364 2.7988 0.9859
5.4985 2.8703 0.9113
5.4665 2.7421 0.8002
5.4174 3.0230 0.7517
5.3858 2.8861 0.6392
5.3675 2.5643 0.5121
5.3234 2.6763 0.4327
5.2955 2.5538 0.3330
5.2609 2.5258 0.2412
5.1932 2.8409 0.1560
5.1387 2.9734 0.0564
5.1064 2.8865 -0.0451
5.0227 2.8792 -0.2521
5.1105 1.0078 -0.5158
5.1668 0.4724 -0.5148
5.1880 0.2712 -0.5143
5.1946 0.1502 -0.5293
5.3097 -0.8161 -0.4945
5.3184 -0.9038 -0.4955
5.3296 -0.9881 -0.4897
5.3337 -1.0467 -0.4947
5.3405 -1.1056 -0.4932
5.3439 -1.1331 -0.4917
5.3448 -1.1539 -0.4949
5.3516 -1.2027 -0.4907
5.3603 -1.2790 -0.4889
5.3595 -1.2910 -0.4940
5.3614 -1.3072 -0.4934
5.3646 -1.3247 -0.4900
5.3655 -1.3379 -0.4913
5.3633 -1.3460 -0.4986
4.6927 -1.8117 0.1988
4.5593 -1.8867 0.1974
4.5896 -1.8560 0.1980
4.6818 -1.7842 0.1958
4.6927 -1.7781 0.1952
4.7286 -1.7356 0.1970
4.9454 -1.5596 0.1933
4.9969 -1.5043 0.1949
5.0069 -1.5017 0.1937
5.0170 -1.5004 0.1923
5.0282 -1.5082 0.1890
5.0382 -1.5113 0.1868
5.0536 -1.4788 0.1902
5.0619 -1.4648 0.1914
5.0793 -1.4377 0.1934
5.0885 -1.4316 0.1931
5.0975 -1.4099 0.1955
5.1263 -1.3635 0.1992
4.5029 -1.8648 0.1989
4.5609 -1.8029 0.2003
4.6351 -1.7599 0.1963
4.8045 -1.6018 0.1968
4.8140 -1.5925 0.1969
4.9894 -1.4619 0.1920
5.0297 -1.5091 0.1783
5.0460 -1.4843 0.1799
5.0543 -1.4704 0.1809
5.0632 -1.4617 0.1810
5.0806 -1.4304 0.1836
5.0899 -1.4227 0.1834
5.1087 -1.3889 0.1862
4.4879 -1.7900 0.1998
4.5299 -1.7792 0.1958
4.7020 -1.6106 0.1972
4.8235 -1.5004 0.1968
4.8466 -1.4814 0.1965
4.9169 -1.4276 0.1949
4.9290 -1.4204 0.1943
5.0468 -1.4788 0.1699
5.0554 -1.4661 0.1706
5.0642 -1.4546 0.1711
5.0730 -1.4390 0.1722
5.0822 -1.4299 0.1723
5.1008 -1.3977 0.1745
5.1106 -1.3771 0.1761
4.0115 -1.8213 0.2389
4.0162 -1.8048 0.2405
4.5681 -1.6197 0.1982
4.6272 -1.6252 0.1905
4.8944 -1.3518 0.1933
5.0313 -1.5021 0.1579
5.0478 -1.4746 0.1595
5.0563 -1.4592 0.1604
5.0654 -1.4489 0.1606
5.0836 -1.4200 0.1621
5.0930 -1.4080 0.1625
5.1026 -1.3848 0.1643
5.1126 -1.3640 0.1658
5.1232 -1.3371 0.1679
4.0194 -1.8091 0.2187
4.0192 -1.7912 0.2207
3.9972 -1.7679 0.2255
4.0024 -1.7498 0.2269
4.3298 -1.7537 0.1926
4.3065 -1.7286 0.1977
4.3121 -1.7129 0.1988
4.6278 -1.6269 0.1754
4.6420 -1.4420 0.1939
4.6651 -1.4078 0.1952
4.7903 -1.3598 0.1874
4.8059 -1.3510 0.1867
4.8185 -1.3352 0.1871
4.8259 -1.3055 0.1896
4.8451 -1.2509 0.1935
4.8587 -1.2328 0.1940
5.0236 -1.5092 0.1471
5.0395 -1.4768 0.1490
5.0484 -1.4653 0.1493
5.0574 -1.4537 0.1496
5.0664 -1.4394 0.1503
5.0755 -1.4235 0.1510
5.0851 -1.4156 0.1509
5.0946 -1.3939 0.1522
5.1045 -1.3691 0.1539
5.1258 -1.3197 0.1570
4.0031 -1.7729 0.2023
3.9838 -1.7490 0.2061
3.9555 -1.7215 0.2110
3.9575 -1.7005 0.2127
4.2273 -1.6416 0.1943
4.6406 -1.6184 0.1601
4.6102 -1.4935 0.1738
4.6100 -1.4648 0.1764
4.6209 -1.4475 0.1770
4.6255 -1.4217 0.1789
4.6302 -1.3944 0.1809
4.7458 -1.3527 0.1744
4.7849 -1.2516 0.1800
4.7962 -1.2258 0.1813
4.8142 -1.2164 0.1805
4.8353 -1.2169 0.1786
4.8534 -1.2103 0.1777
4.8741 -1.2138 0.1755
5.0247 -1.5078 0.1362
5.0323 -1.4892 0.1372
5.0408 -1.4753 0.1377
5.0496 -1.4625 0.1381
5.0584 -1.4469 0.1387
5.0677 -1.4351 0.1389
5.0769 -1.4179 0.1396
5.0864 -1.3977 0.1406
5.0962 -1.3759 0.1417
5.1064 -1.3564 0.1425
5.1172 -1.3283 0.1440
4.3251 -1.8727 0.1500
4.3243 -1.8597 0.1510
4.3028 -1.8418 0.1537
3.9565 -1.7256 0.1866
3.9612 -1.7054 0.1877
4.6064 -1.4902 0.1564
4.6085 -1.4638 0.1580
4.5992 -1.4222 0.1616
4.5967 -1.3860 0.1643
4.6050 -1.3614 0.1654
4.6244 -1.3509 0.1647
4.6764 -1.3120 0.1637
4.6847 -1.2833 0.1651
4.6962 -1.2588 0.1660
4.7121 -1.2416 0.1660
4.7540 -1.2289 0.1639
4.7735 -1.2209 0.1630
4.7945 -1.2173 0.1618
4.8157 -1.2162 0.1603
4.8357 -1.2134 0.1591
4.8543 -1.2076 0.1582
4.8741 -1.2077 0.1567
5.0161 -1.5102 0.1256
5.0255 -1.5039 0.1253
5.0412 -1.4663 0.1268
5.0502 -1.4521 0.1272
5.0687 -1.4244 0.1278
5.0781 -1.4057 0.1284
5.0879 -1.3894 0.1288
5.0980 -1.3675 0.1296
5.1085 -1.3397 0.1308
5.1194 -1.3183 0.1315
4.3274 -1.8757 0.1343
4.3040 -1.8584 0.1365
4.2974 -1.8434 0.1376
4.2915 -1.8279 0.1387
4.3001 -1.8154 0.1388
3.9337 -1.2482 0.1874
4.1583 -1.3617 0.1693
4.1899 -1.3492 0.1681
4.5896 -1.4433 0.1413
4.5696 -1.3878 0.1451
4.6132 -1.2526 0.1494
5.0073 -1.5130 0.1146
5.0174 -1.5101 0.1142
5.0263 -1.5001 0.1142
5.0330 -1.4728 0.1152
5.0415 -1.4549 0.1156
5.0511 -1.4456 0.1155
5.0604 -1.4311 0.1157
5.0701 -1.4177 0.1159
5.0795 -1.3963 0.1164
5.0895 -1.3746 0.1169
5.0998 -1.3592 0.1171
5.1106 -1.3286 0.1180
5.1223 -1.2876 0.1194
4.3230 -1.8776 0.1189
4.3289 -1.8659 0.1190
4.3038 -1.8475 0.1206
3.9499 -1.7102 0.1385
3.9543 -1.6890 0.1390
4.5639 -1.3817 0.1243
4.5874 -1.0518 0.1332
4.6006 -1.0152 0.1338
4.6142 -0.9770 0.1344
4.6269 -0.9341 0.1352
4.6340 -0.8743 0.1367
5.0080 -1.5094 0.1031
5.0183 -1.5076 0.1028
5.0273 -1.4975 0.1027
5.0347 -1.4751 0.1031
5.0426 -1.4511 0.1035
5.0522 -1.4392 0.1035
5.0615 -1.4220 0.1036
5.0710 -1.4034 0.1038
5.0810 -1.3857 0.1040
5.0913 -1.3705 0.1040
5.1018 -1.3456 0.1043
5.1129 -1.3080 0.1050
5.1248 -1.2794 0.1054
4.3445 -1.8715 0.1028
4.3101 -1.8516 0.1037
4.1696 -1.7892 0.1075
3.9783 -1.7216 0.1125
3.9641 -1.6958 0.1130
3.9559 -1.6703 0.1135
3.9445 -0.8588 0.1216
4.5657 -1.3483 0.1029
4.4929 -1.1172 0.1067
4.3692 -0.2212 0.1182
4.4220 -0.2260 0.1170
4.4699 -0.2226 0.1159
4.4887 -0.1347 0.1164
5.0193 -1.5051 0.0911
5.0280 -1.4926 0.0911
5.0352 -1.4665 0.0912
5.0437 -1.4461 0.0912
5.0529 -1.4291 0.0911
5.0626 -1.4131 0.0911
5.0722 -1.3904 0.0911
5.0824 -1.3726 0.0910
5.0929 -1.3545 0.0909
5.1038 -1.3348 0.0909
5.1152 -1.2985 0.0910
5.1467 -1.1008 0.0922
4.3704 -1.8910 0.0871
4.2749 -1.8326 0.0870
4.1763 -1.7940 0.0872
3.9844 -1.7271 0.0876
3.9618 -1.6991 0.0874
3.9408 -1.6698 0.0872
3.9387 -1.6449 0.0869
4.5715 -1.3559 0.0803
4.3387 -0.3804 0.0712
4.3568 -0.3069 0.0703
4.3873 -0.2577 0.0696
4.4255 -0.2262 0.0690
4.4605 -0.1853 0.0684
4.4794 -0.0937 0.0673
5.0104 -1.5082 0.0794
5.0201 -1.5016 0.0793
5.0274 -1.4782 0.0790
5.0359 -1.4605 0.0788
5.0449 -1.4424 0.0785
5.0640 -1.4080 0.0780
5.0740 -1.3917 0.0778
5.0842 -1.3687 0.0775
5.0948 -1.3479 0.0772
5.1059 -1.3148 0.0768
5.1176 -1.2878 0.0764
4.3433 -1.8890 0.0717
4.3490 -1.8777 0.0714
4.2267 -1.8091 0.0679
3.9795 -1.7297 0.0625
3.9500 -1.6998 0.0613
3.9340 -1.6719 0.0602
3.9288 -1.6458 0.0593
3.9188 -1.6169 0.0583
3.7552 -1.2805 0.0459
2.7008 -0.2888 0.0028
1.8101 0.9241 -0.0454
3.9411 -0.8596 0.0348
4.0541 -0.9134 0.0378
4.5646 -1.3475 0.0572
4.2881 -0.3786 0.0237
4.3847 -0.4737 0.0278
4.4163 -0.4370 0.0270
4.3980 -0.2760 0.0217
4.4291 -0.2264 0.0205
4.4403 -0.1166 0.0172
4.4803 -0.0835 0.0166
5.0113 -1.5059 0.0673
5.0207 -1.4969 0.0671
5.0290 -1.4794 0.0667
5.0366 -1.4532 0.0659
5.0452 -1.4290 0.0653
5.0555 -1.4191 0.0651
5.0651 -1.3979 0.0645
5.0755 -1.3828 0.0642
5.0859 -1.3635 0.0637
5.0967 -1.3361 0.0629
5.1081 -1.3069 0.0621
5.1203 -1.2663 0.0610
4.3369 -1.8781 0.0552
4.2687 -1.8371 0.0511
4.2033 -1.8068 0.0476
3.9428 -1.7245 0.0358
3.9334 -1.6994 0.0342
3.9286 -1.6744 0.0328
3.9363 -1.6523 0.0319
3.9264 -1.6236 0.0301
3.8976 -1.5868 0.0273
3.3087 -0.9269 -0.0240
3.0587 -0.7043 -0.0428
2.8930 -0.4332 -0.0618
3.9887 -0.9091 -0.0055
4.5654 -1.3488 0.0340
3.7139 -0.0820 -0.0566
3.7270 0.0156 -0.0613
3.7979 0.0294 -0.0600
3.8663 0.0437 -0.0588
4.1394 -0.1966 -0.0384
4.2909 -0.3795 -0.0245
4.3978 -0.4965 -0.0153
4.4291 -0.4602 -0.0163
4.4292 -0.3456 -0.0223
4.4076 -0.1595 -0.0327
4.4257 -0.0630 -0.0372
4.4741 -0.0507 -0.0364
5.0019 -1.5083 0.0549
5.0126 -1.5060 0.0551
5.0214 -1.4922 0.0546
5.0276 -1.4581 0.0530
5.0364 -1.4377 0.0522
5.0462 -1.4218 0.0516
5.0565 -1.4093 0.0513
5.0773 -1.3803 0.0504
5.0879 -1.3623 0.0497
5.0987 -1.3323 0.0485
5.1103 -1.3031 0.0473
4.3148 -1.8636 0.0367
4.2700 -1.8403 0.0330
3.9230 -1.6523 0.0031
3.9056 -1.6209 0.0000
3.9064 -1.5942 -0.0019
3.7156 -1.2680 -0.0347
3.8022 -1.2736 -0.0303
4.5650 -1.3486 0.0105
3.6108 0.0623 -0.1373
3.7071 0.0464 -0.1317
3.7703 0.0750 -0.1308
3.7755 0.1983 -0.1397
4.1637 -0.2381 -0.0897
4.2405 -0.2728 -0.0836
4.3976 -0.4908 -0.0603
4.4230 -0.4398 -0.0629
4.4553 -0.4027 -0.0641
4.4399 -0.2363 -0.0771
4.4754 -0.1953 -0.0784
4.4918 -0.0928 -0.0852
4.9920 -1.5099 0.0420
5.0028 -1.5062 0.0422
5.0130 -1.5004 0.0423
5.0292 -1.4583 0.0399
5.0382 -1.4390 0.0389
5.0480 -1.4231 0.0382
5.0581 -1.4070 0.0375
5.0791 -1.3779 0.0363
5.0897 -1.3573 0.0353
5.1123 -1.3126 0.0331
5.2110 0.3765 -0.0865
5.2507 0.4328 -0.0888
4.3159 -1.8666 0.0199
4.2400 -1.8215 0.0107
3.9087 -1.6521 -0.0265
3.9019 -1.6240 -0.0296
3.9140 -1.6010 -0.0310
3.6660 -1.2461 -0.0806
3.8124 -1.2836 -0.0677
3.8379 -1.2561 -0.0687
3.7733 -1.1225 -0.0855
4.5640 -1.3477 -0.0136
3.5524 0.1442 -0.2199
3.6966 0.0633 -0.2030
3.5064 0.4919 -0.2559
2.9606 1.5632 -0.3925
2.9996 1.7265 -0.4055
4.2173 -0.3354 -0.1319
4.3618 -0.5135 -0.1057
4.4295 -0.4485 -0.1076
4.4588 -0.4036 -0.1100
5.0035 -1.5030 0.0293
5.0123 -1.4880 0.0284
5.0394 -1.4345 0.0250
5.0497 -1.4233 0.0247
5.0599 -1.4084 0.0239
5.0705 -1.3958 0.0234
5.0810 -1.3793 0.0225
5.0917 -1.3575 0.0211
5.1029 -1.3327 0.0194
5.1273 -1.2645 0.0145
4.3158 -1.8694 0.0028
4.2979 -1.8520 -0.0007
4.2909 -1.8358 -0.0032
4.2906 -1.8205 -0.0050
4.2731 -1.8002 -0.0088
3.8871 -1.6235 -0.0610
3.9073 -1.6030 -0.0618
3.8725 -1.5620 -0.0694
3.7864 -1.2732 -0.1102
3.7954 -1.2348 -0.1139
3.8320 -1.2124 -0.1135
3.8088 -1.1503 -0.1227
3.8522 -1.1312 -0.1213
3.8456 -1.0218 -0.1347
3.8744 -0.9891 -0.1361
2.9531 -0.1165 -0.3134
4.5593 -1.3422 -0.0388
4.9817 -1.5056 0.0148
4.9945 -1.5092 0.0163
5.0045 -1.5010 0.0162
5.0132 -1.4848 0.0150
5.0411 -1.4347 0.0114
5.0722 -1.3935 0.0092
5.0829 -1.3782 0.0083
5.0938 -1.3589 0.0069
5.1169 -1.3025 0.0022
4.2776 -1.8653 -0.0192
4.3279 -1.8468 -0.0167
4.3174 -1.8298 -0.0201
4.2619 -1.7834 -0.0321
3.8567 -1.5900 -0.0995
3.8555 -1.5602 -0.1038
3.8110 -1.5124 -0.1148
3.7808 -1.4668 -0.1242
3.6272 -1.0876 -0.1922
3.8036 -1.1508 -0.1658
3.7953 -1.0949 -0.1744
3.7745 -1.0262 -0.1860
3.0088 -0.0644 -0.3961
4.5671 -1.3522 -0.0614
4.6855 -1.3980 -0.0432
4.7895 -1.4184 -0.0300
4.9716 -1.5103 0.0010
4.9830 -1.5060 0.0016
4.9952 -1.5062 0.0028
5.0741 -1.3937 -0.0049
5.0849 -1.3797 -0.0058
5.0959 -1.3655 -0.0066
5.1071 -1.3460 -0.0082
5.1315 -1.2798 -0.0150
5.1792 -0.9227 -0.0598
4.2993 -1.8581 -0.0364
4.3304 -1.8502 -0.0339
4.3248 -1.8344 -0.0371
4.2905 -1.8106 -0.0450
4.2602 -1.7860 -0.0526
3.8394 -1.5886 -0.1343
3.8344 -1.5571 -0.1400
3.8474 -1.5310 -0.1426
3.8055 -1.4817 -0.1556
3.7895 -1.4401 -0.1641
3.7498 -1.3851 -0.1777
2.8514 -0.8324 -0.3733
3.1848 -0.9466 -0.3154
3.2183 -0.9024 -0.3185
3.6112 -1.0274 -0.2518
3.4003 -0.7523 -0.3212
3.4663 -0.7309 -0.3168
3.5112 -0.6938 -0.3174
4.5693 -1.3553 -0.0854
4.6779 -1.4234 -0.0615
4.7270 -1.4236 -0.0557
4.7495 -1.4229 -0.0531
4.7690 -1.4183 -0.0516
4.7973 -1.4318 -0.0460
4.8173 -1.4318 -0.0437
4.8364 -1.4314 -0.0415
4.9714 -1.5044 -0.0137
4.9840 -1.5043 -0.0122
4.9950 -1.4990 -0.0118
5.0653 -1.4066 -0.0183
5.0759 -1.3902 -0.0197
5.0871 -1.3886 -0.0186
5.1091 -1.3552 -0.0214
5.1340 -1.2748 -0.0314
5.1783 -0.9825 -0.0733
4.2412 -1.7839 -0.0766
4.2324 -1.7633 -0.0816
4.2235 -1.7416 -0.0868
3.8306 -1.5603 -0.1740
3.8439 -1.5342 -0.1770
3.8433 -1.5018 -0.1830
3.8278 -1.4615 -0.1926
3.7818 -1.4047 -0.2093
3.7361 -1.3438 -0.2268
2.7793 -0.8025 -0.4577
2.9284 -0.8110 -0.4356
3.3144 -0.9651 -0.3543
3.4546 -0.9896 -0.3306
3.5875 -1.0165 -0.3074
3.6925 -1.0309 -0.2903
3.6938 -0.9742 -0.3006
3.4385 -0.6377 -0.3975
3.5161 -0.6254 -0.3891
4.5642 -1.3492 -0.1122
4.7351 -1.4357 -0.0728
4.7578 -1.4359 -0.0696
4.7843 -1.4444 -0.0644
4.8036 -1.4423 -0.0622
4.8460 -1.4504 -0.0549
4.8609 -1.4431 -0.0542
4.8805 -1.4484 -0.0505
4.8994 -1.4543 -0.0468
4.9122 -1.4450 -0.0468
4.9726 -1.5039 -0.0277
4.9849 -1.5026 -0.0262
4.9951 -1.4928 -0.0266
5.1644 -1.0068 -0.0927
5.1811 -0.9906 -0.0934
3.8653 -1.5469 -0.2060
3.8656 -1.5154 -0.2125
3.8289 -1.4665 -0.2283
3.7823 -1.4096 -0.2474
3.3860 -1.1253 -0.3681
3.5887 -1.1313 -0.3352
3.6177 -1.0960 -0.3379
3.7059 -1.0446 -0.3348
3.7426 -1.0143 -0.3353
3.6089 -0.7104 -0.4191
3.6943 -0.7127 -0.4052
3.9762 -0.9119 -0.3200
4.5665 -1.3524 -0.1367
4.8329 -1.4602 -0.0728
4.8517 -1.4610 -0.0697
4.8743 -1.4725 -0.0638
4.8877 -1.4639 -0.0634
4.9010 -1.4555 -0.0631
4.9611 -1.5051 -0.0435
4.9740 -1.5044 -0.0416
4.9863 -1.5030 -0.0399
5.0106 -1.4303 -0.0512
5.0209 -1.4130 -0.0532
5.0320 -1.3988 -0.0544
5.0431 -1.3834 -0.0558
5.0659 -1.3507 -0.0590
5.0776 -1.3323 -0.0610
5.0896 -1.3136 -0.0630
5.1383 -0.9245 -0.1359
5.1548 -0.9460 -0.1288
5.1724 -0.9340 -0.1286
5.1881 -0.9449 -0.1239
3.8815 -1.7445 -0.1924
2.7859 -1.3608 -0.4729
2.8753 -1.2871 -0.4742
3.8265 -1.5369 -0.2498
3.8613 -1.5181 -0.2480
3.8877 -1.4963 -0.2484
3.4430 -1.2113 -0.3920
3.2967 -1.0852 -0.4467
3.3188 -1.0395 -0.4534
3.7275 -1.1685 -0.3520
3.6009 -0.9762 -0.4184
3.5582 -0.8831 -0.4474
3.6335 -0.8745 -0.4361
3.8228 -0.9627 -0.3826
3.8470 -0.9216 -0.3878
4.0124 -0.8860 -0.3670
4.5676 -1.3541 -0.1619
4.0913 -0.4158 -0.4614
4.8966 -1.4840 -0.0742
4.9136 -1.4874 -0.0705
4.9323 -1.4982 -0.0647
4.9471 -1.4997 -0.0618
4.9636 -1.5098 -0.0566
4.9760 -1.5071 -0.0550
4.9866 -1.4982 -0.0552
4.9954 -1.4798 -0.0579
5.0039 -1.4578 -0.0614
5.0142 -1.4431 -0.0630
5.0244 -1.4259 -0.0652
5.0353 -1.4120 -0.0665
5.0459 -1.3932 -0.0689
5.1481 -0.7504 -0.1990
5.3416 0.8617 -0.5360
5.3829 0.8459 -0.5251
3.8322 -1.7383 -0.2338
2.9917 -1.3809 -0.4883
2.9729 -1.3270 -0.5057
3.8221 -1.5400 -0.2861
3.8661 -1.5246 -0.2814
3.4208 -1.2558 -0.4364
3.2936 -1.1454 -0.4893
3.3248 -1.1060 -0.4932
3.4135 -1.0972 -0.4781
3.7126 -1.2131 -0.3904
3.5929 -1.0345 -0.4590
3.6328 -0.9422 -0.4747
3.6566 -0.8966 -0.4816
3.7197 -0.8816 -0.4731
3.7595 -0.8487 -0.4737
3.8788 -0.8890 -0.4402
4.5627 -1.3484 -0.1903
4.2601 -0.8392 -0.3785
4.2929 -0.8122 -0.3790
4.3391 -0.8063 -0.3715
4.3900 -0.8113 -0.3603
4.4435 -0.8253 -0.3463
4.8448 -1.4412 -0.1118
4.8744 -1.4676 -0.0993
4.9010 -1.4927 -0.0878
4.9165 -1.4923 -0.0849
4.9344 -1.5010 -0.0791
4.9634 -1.5043 -0.0726
4.9764 -1.5035 -0.0703
5.0094 -0.1156 -0.4161
5.0446 -0.1052 -0.4119
5.0791 -0.0940 -0.4080
5.1324 -0.6938 -0.2454
5.1534 -0.7186 -0.2350
3.8519 -1.7473 -0.2588
3.8319 -1.7183 -0.2712
3.1165 -1.5108 -0.4824
3.1141 -1.4685 -0.4947
3.1823 -1.4455 -0.4864
3.2203 -1.4141 -0.4870
3.2204 -1.3697 -0.4993
3.3434 -1.3235 -0.4857
3.4158 -1.3068 -0.4748
3.4104 -1.2572 -0.4897
3.4484 -1.2258 -0.4903
3.5030 -1.2029 -0.4849
3.6442 -1.2278 -0.4477
3.7373 -1.2321 -0.4265
3.6005 -1.1003 -0.4925
3.6235 -1.0592 -0.4990
3.6692 -1.0325 -0.4966
3.7146 -1.0062 -0.4941
3.7457 -0.9695 -0.4977
3.7906 -0.9434 -0.4952
3.8672 -0.9454 -0.4783
3.9710 -0.9765 -0.4473
4.5363 -1.3571 -0.2203
4.5633 -1.3495 -0.2165
4.1478 -0.6819 -0.4912
4.2033 -0.6779 -0.4804
4.8741 -1.4644 -0.1179
4.8918 -1.4657 -0.1137
4.9359 -1.5019 -0.0942
4.9503 -1.5022 -0.0910
4.9641 -1.5020 -0.0882
4.9761 -1.4969 -0.0870
4.9851 -1.4785 -0.0902
4.9101 -0.1929 -0.4633
4.9465 -0.1813 -0.4587
4.9823 -0.1702 -0.4541
5.0197 -0.2082 -0.4355
5.0523 -0.1641 -0.4408
5.1368 -0.6906 -0.2764
5.1580 -0.7125 -0.2658
5.3158 0.3595 -0.5296
3.3508 -1.5022 -0.4821
3.3450 -1.4606 -0.4960
3.3890 -1.4340 -0.4937
3.4245 -1.4048 -0.4942
3.4670 -1.3782 -0.4923
3.5396 -1.3647 -0.4793
3.5597 -1.3298 -0.4851
3.5663 -1.2877 -0.4963
3.6082 -1.2617 -0.4943
3.7654 -1.2980 -0.4464
3.7435 -1.2403 -0.4690
3.7534 -1.1980 -0.4795
3.7627 -1.1537 -0.4907
3.7848 -1.1160 -0.4969
3.8327 -1.0960 -0.4917
3.8439 -1.0489 -0.5033
3.9138 -1.0474 -0.4873
3.9936 -0.9998 -0.4829
4.0374 -0.9807 -0.4784
4.0760 -0.9574 -0.4764
4.5443 -1.3670 -0.2428
4.5652 -1.3521 -0.2423
4.4543 -1.0505 -0.3594
4.4896 -1.0422 -0.3537
4.8571 -1.4641 -0.1400
4.8735 -1.4603 -0.1373
4.8899 -1.4577 -0.1342
4.8558 -0.7290 -0.3623
4.8783 -0.6836 -0.3708
4.9612 -0.6371 -0.3653
4.9874 -0.6106 -0.3672
5.0711 -0.7002 -0.3204
5.0952 -0.7146 -0.3105
5.1182 -0.7114 -0.3060
5.1400 -0.7325 -0.2945
5.1610 -0.7408 -0.2871
5.1823 -0.7305 -0.2852
4.3054 -1.8507 -0.1730
3.4478 -1.5730 -0.4825
3.4432 -1.5356 -0.4959
3.4613 -1.5036 -0.5017
3.5240 -1.4858 -0.4916
3.5701 -1.4636 -0.4871
3.6096 -1.4394 -0.4849
3.6351 -1.4099 -0.4880
3.6800 -1.3886 -0.4835
3.7179 -1.3646 -0.4817
3.7673 -1.3468 -0.4749
3.8160 -1.3297 -0.4681
3.8203 -1.2886 -0.4804
3.8191 -1.2423 -0.4958
3.8569 -1.2184 -0.4940
3.9008 -1.1991 -0.4891
3.9277 -1.1684 -0.4922
3.9549 -1.1375 -0.4954
3.9831 -1.1069 -0.4982
4.0159 -1.0799 -0.4987
4.0626 -1.0656 -0.4914
4.0990 -1.0428 -0.4896
4.1352 -1.0202 -0.4877
4.5688 -1.3570 -0.2671
4.5215 -1.1499 -0.3468
4.3891 -0.8034 -0.4938
4.4186 -0.7718 -0.4966
4.4509 -0.7451 -0.4971
4.6082 -0.5984 -0.5049
4.9159 -1.2329 -0.2191
4.9360 -1.2346 -0.2134
4.9124 -0.6831 -0.3996
4.9413 -0.6798 -0.3933
4.9661 -0.6436 -0.3988
4.9954 -0.6558 -0.3873
5.0505 -0.6964 -0.3600
5.0757 -0.7144 -0.3477
5.0995 -0.7396 -0.3334
5.1220 -0.7440 -0.3262
5.1654 -0.7385 -0.3169
5.1852 -0.7538 -0.3069
5.2062 -0.7400 -0.3060
5.2279 -0.7185 -0.3075
3.5183 -1.6311 -0.4878
3.5488 -1.6060 -0.4883
3.6031 -1.5876 -0.4797
3.6278 -1.5612 -0.4822
3.6694 -1.5401 -0.4782
3.6708 -1.5053 -0.4900
3.7292 -1.4908 -0.4790
3.7532 -1.4638 -0.4819
3.7994 -1.4461 -0.4754
3.8132 -1.4142 -0.4828
3.8487 -1.3922 -0.4808
3.8981 -1.3778 -0.4722
3.8990 -1.3374 -0.4861
3.9384 -1.3182 -0.4821
3.9864 -1.3050 -0.4734
4.0110 -1.2775 -0.4763
4.0366 -1.2503 -0.4788
4.0579 -1.2195 -0.4838
4.0878 -1.1948 -0.4842
4.1134 -1.1665 -0.4871
4.1282 -1.1278 -0.4967
4.1735 -1.1169 -0.4880
4.5672 -1.3553 -0.2956
4.5758 -1.3241 -0.3042
4.4246 -0.9362 -0.4823
4.4517 -0.9078 -0.4848
4.4786 -0.8783 -0.4878
4.5015 -0.8402 -0.4949
4.5267 -0.8050 -0.5003
4.5594 -0.7852 -0.4983
4.5937 -0.7701 -0.4941
4.6220 -0.7408 -0.4966
4.6537 -0.7206 -0.4950
4.9202 -1.2421 -0.2381
4.8639 -0.5472 -0.4980
4.8931 -0.5170 -0.5005
4.9275 -0.5283 -0.4871
4.9587 -0.5219 -0.4808
4.9877 -0.4979 -0.4812
5.0151 -0.4429 -0.4930
5.0454 -0.4371 -0.4867
5.1036 -0.8187 -0.3364
5.1248 -0.8253 -0.3283
5.1462 -0.7980 -0.3319
5.1681 -0.7691 -0.3361
5.1881 -0.7730 -0.3292
5.2081 -0.7698 -0.3248
5.2271 -0.7710 -0.3192
3.8458 -1.7888 -0.3741
3.8081 -1.7578 -0.3970
3.6479 -1.6976 -0.4672
3.6092 -1.6590 -0.4932
3.6612 -1.6412 -0.4845
3.6950 -1.6193 -0.4828
3.7233 -1.5960 -0.4832
3.7464 -1.5709 -0.4858
3.7839 -1.5507 -0.4823
3.7972 -1.5218 -0.4892
3.8257 -1.4983 -0.4896
3.8495 -1.4727 -0.4922
3.8781 -1.4491 -0.4926
3.9385 -1.4411 -0.4777
3.9495 -1.4092 -0.4865
3.9683 -1.3806 -0.4917
3.9843 -1.3495 -0.4987
4.0213 -1.3309 -0.4947
4.0659 -1.3180 -0.4863
4.0786 -1.2837 -0.4955
4.1155 -1.2663 -0.4911
4.1541 -1.2512 -0.4854
4.1680 -1.2158 -0.4946
4.2241 -1.2173 -0.4774
4.2384 -1.1816 -0.4866
4.5564 -1.3829 -0.3164
4.5691 -1.3580 -0.3220
4.5851 -1.3365 -0.3254
4.5235 -1.2056 -0.3930
4.4500 -1.0417 -0.4766
4.4656 -1.0001 -0.4876
4.4817 -0.9569 -0.4991
4.5080 -0.9293 -0.5018
4.5388 -0.9098 -0.4999
4.5673 -0.8863 -0.5004
4.9056 -1.2560 -0.2606
4.9244 -1.2512 -0.2569
4.8802 -0.6221 -0.5071
4.9088 -0.5985 -0.5076
4.9388 -0.5869 -0.5030
4.9661 -0.5512 -0.5084
4.9931 -0.5050 -0.5178
5.0230 -0.4982 -0.5115
5.0518 -0.4745 -0.5119
5.1076 -0.8384 -0.3582
5.1290 -0.8135 -0.3612
5.1766 -0.6942 -0.3921
5.2116 -0.7788 -0.3498
3.8657 -1.8195 -0.3880
3.8418 -1.7930 -0.4063
3.8172 -1.7646 -0.4255
3.7249 -1.7198 -0.4729
3.7276 -1.6926 -0.4830
3.7389 -1.6667 -0.4898
3.7712 -1.6460 -0.4879
3.7980 -1.6238 -0.4883
3.8476 -1.6090 -0.4785
3.8608 -1.5827 -0.4849
3.8826 -1.5588 -0.4876
3.9142 -1.5387 -0.4857
3.9408 -1.5167 -0.4861
3.9629 -1.4925 -0.4888
4.0059 -1.4784 -0.4808
4.0322 -1.4566 -0.4812
4.0277 -1.4177 -0.4983
4.0699 -1.4042 -0.4903
4.0893 -1.3775 -0.4949
4.1274 -1.3627 -0.4888
4.1602 -1.3451 -0.4854
4.1867 -1.3232 -0.4858
4.2227 -1.3090 -0.4801
4.2369 -1.2771 -0.4884
4.2873 -1.2307 -0.4911
4.5755 -1.4057 -0.3290
4.5785 -1.3700 -0.3424
4.4825 -1.1479 -0.4624
4.5727 -1.2242 -0.4030
4.6045 -1.2205 -0.3944
4.6452 -1.2343 -0.3759
4.6705 -1.2242 -0.3719
4.7080 -1.2394 -0.3538
4.7362 -1.2399 -0.3447
4.7624 -1.2384 -0.3369
4.7850 -1.2305 -0.3330
4.8103 -1.2310 -0.3247
4.8369 -1.2386 -0.3132
4.8610 -1.2425 -0.3040
4.9104 -1.2669 -0.2784
4.9298 -1.2652 -0.2730
4.9455 -1.2487 -0.2746
4.9584 -1.2155 -0.2839
5.1114 -0.8603 -0.3783
5.1345 -0.7570 -0.4126
5.1584 -0.7064 -0.4253
5.1870 -0.5950 -0.4611
5.2178 -0.4936 -0.4921
3.7953 -1.8134 -0.4462
3.8425 -1.7980 -0.4368
3.8425 -1.7745 -0.4469
3.7945 -1.7399 -0.4781
3.7882 -1.7121 -0.4921
3.8193 -1.6923 -0.4900
3.8533 -1.6737 -0.4865
3.8817 -1.6537 -0.4854
3.9111 -1.6342 -0.4838
3.9251 -1.6097 -0.4895
3.9545 -1.5902 -0.4879
3.9826 -1.5705 -0.4868
4.0050 -1.5485 -0.4887
4.0303 -1.5276 -0.4890
4.0583 -1.5080 -0.4879
4.0590 -1.4745 -0.5021
4.0994 -1.4612 -0.4941
4.1315 -1.4441 -0.4905
4.1568 -1.4232 -0.4909
4.1971 -1.4124 -0.4819
4.2097 -1.3831 -0.4901
4.2379 -1.3646 -0.4885
4.2601 -1.3415 -0.4909
4.2966 -1.3302 -0.4833
4.3160 -1.3048 -0.4876
4.5707 -1.3608 -0.3772
4.5834 -1.2396 -0.4248
4.5565 -1.1428 -0.4755
4.5721 -1.1076 -0.4853
4.8120 -1.2311 -0.3509
4.8409 -1.2449 -0.3351
4.8794 -1.2956 -0.3003
4.8974 -1.2866 -0.2981
4.9170 -1.2846 -0.2923
4.9332 -1.2712 -0.2925
4.9516 -1.2679 -0.2877
4.9684 -1.2587 -0.2860
4.9802 -1.2183 -0.2993
4.9944 -1.1866 -0.3081
5.0747 -0.9566 -0.3794
5.1428 -0.6177 -0.5016
5.1947 -0.5514 -0.5125
5.2190 -0.5467 -0.5063
5.2447 -0.5207 -0.5087
5.2685 -0.5140 -0.5034
3.8116 -1.8210 -0.4708
3.8268 -1.8003 -0.4748
3.8468 -1.7803 -0.4767
3.8580 -1.7582 -0.4827
3.8618 -1.7340 -0.4923
3.9133 -1.7208 -0.4798
3.9412 -1.7024 -0.4780
3.9575 -1.6807 -0.4820
3.9700 -1.6576 -0.4880
4.0080 -1.6426 -0.4811
4.0287 -1.6219 -0.4830
4.0659 -1.5784 -0.4894
4.1092 -1.5673 -0.4789
4.1300 -1.5466 -0.4808
4.1283 -1.5141 -0.4962
4.1619 -1.4992 -0.4908
4.1917 -1.4828 -0.4875
4.2099 -1.4596 -0.4915
4.2614 -1.4580 -0.4736
4.2762 -1.4329 -0.4797
4.2974 -1.4119 -0.4816
4.3109 -1.3844 -0.4892
4.3445 -1.3731 -0.4823
4.5067 -1.2824 -0.4649
4.5256 -1.2587 -0.4689
4.5920 -1.2518 -0.4481
4.6049 -1.2190 -0.4584
4.6047 -1.1618 -0.4844
4.6313 -1.1481 -0.4811
4.6588 -1.1371 -0.4762
4.6767 -1.1071 -0.4834
4.6937 -1.0731 -0.4927
4.8888 -1.3202 -0.3097
4.9037 -1.3021 -0.3126
4.9195 -1.2867 -0.3139
4.9347 -1.2683 -0.3168
4.9563 -1.2808 -0.3032
4.9749 -1.2831 -0.2955
4.9912 -1.2754 -0.2931
5.0029 -1.2331 -0.3082
5.0152 -1.1843 -0.3259
5.0316 -1.1661 -0.3283
5.0481 -1.1466 -0.3312
5.0645 -1.1202 -0.3373
5.1457 -0.6791 -0.5088
5.1692 -0.6714 -0.5038
5.2664 -0.5795 -0.5105
3.8625 -1.8336 -0.4791
3.8815 -1.8144 -0.4811
3.8891 -1.7930 -0.4885
3.9086 -1.7734 -0.4904
3.9382 -1.7560 -0.4875
3.9784 -1.7414 -0.4791
3.9913 -1.7203 -0.4844
4.0369 -1.7082 -0.4727
4.0560 -1.6890 -0.4747
4.0713 -1.6682 -0.4788
4.0976 -1.6512 -0.4769
4.1104 -1.6290 -0.4827
4.1245 -1.6069 -0.4880
4.1436 -1.5865 -0.4905
4.1726 -1.5707 -0.4870
4.1866 -1.5475 -0.4928
4.2095 -1.5286 -0.4931
4.2431 -1.5160 -0.4863
4.2657 -1.4973 -0.4867
4.3086 -1.4584 -0.4890
4.3357 -1.4430 -0.4860
4.3518 -1.4193 -0.4913
4.3787 -1.4041 -0.4883
4.5194 -1.2984 -0.4853
4.5418 -1.2799 -0.4856
4.5595 -1.2549 -0.4909
4.5946 -1.2549 -0.4774
4.6076 -1.2222 -0.4882
4.6186 -1.1840 -0.5024
4.6525 -1.1851 -0.4889
4.6737 -1.1641 -0.4909
4.6963 -1.1455 -0.4912
4.8835 -1.3611 -0.3154
4.8943 -1.3325 -0.3251
4.9069 -1.3070 -0.3325
4.9184 -1.2743 -0.3439
4.9392 -1.2792 -0.3336
4.9597 -1.2867 -0.3221
4.9783 -1.2899 -0.3134
4.9956 -1.2896 -0.3070
5.0100 -1.2707 -0.3105
5.0188 -1.1938 -0.3442
5.0341 -1.1626 -0.3534
5.0506 -1.1409 -0.3576
5.0670 -1.1076 -0.3673
5.0846 -1.0931 -0.3676
5.1021 -1.0891 -0.3628
5.2146 -0.7177 -0.4987
5.2379 -0.6915 -0.5024
5.2621 -0.6600 -0.5084
4.2269 -1.8056 -0.3784
4.2190 -1.7844 -0.3923
4.2309 -1.7677 -0.3960
4.1062 -1.6840 -0.4893
4.1251 -1.6650 -0.4913
4.1735 -1.6573 -0.4756
4.1770 -1.6325 -0.4868
4.1986 -1.6147 -0.4871
4.2149 -1.5943 -0.4909
4.2461 -1.5812 -0.4849
4.2727 -1.5662 -0.4817
4.2941 -1.5486 -0.4820
4.3178 -1.5324 -0.4806
4.3282 -1.5077 -0.4890
4.3476 -1.4883 -0.4910
4.3751 -1.4748 -0.4867
4.4151 -1.4717 -0.4720
4.5162 -1.3814 -0.4770
4.5238 -1.3486 -0.4906
4.5538 -1.3411 -0.4823
4.5610 -1.3052 -0.4976
4.6004 -1.3119 -0.4782
4.6160 -1.2863 -0.4849
4.6359 -1.2665 -0.4870
4.6636 -1.2598 -0.4792
4.6773 -1.2288 -0.4893
4.7057 -1.2250 -0.4798
4.7225 -1.1985 -0.4865
4.8724 -1.3823 -0.3320
4.8864 -1.3650 -0.3351
4.9035 -1.2875 -0.3676
4.9194 -1.2698 -0.3702
4.9382 -1.2647 -0.3652
4.9591 -1.2727 -0.3526
4.9796 -1.2846 -0.3382
4.9993 -1.2995 -0.3226
5.0163 -1.3027 -0.3141
5.0683 -1.0571 -0.4181
5.1053 -1.0806 -0.3911
5.1401 -1.0612 -0.3869
5.2363 -0.7514 -0.5056
5.2568 -0.7437 -0.5012
5.2768 -0.7376 -0.4963
4.2063 -1.8913 -0.3670
4.2128 -1.8596 -0.3812
4.2241 -1.8446 -0.3844
4.2291 -1.8279 -0.3913
4.2215 -1.8078 -0.4053
4.2118 -1.7861 -0.4211
4.2219 -1.7687 -0.4262
4.2332 -1.7513 -0.4306
4.1974 -1.7180 -0.4639
4.1982 -1.6705 -0.4891
4.2245 -1.6556 -0.4858
4.2396 -1.6363 -0.4897
4.2657 -1.6217 -0.4864
4.2768 -1.5999 -0.4933
4.3127 -1.5908 -0.4827
4.3250 -1.5693 -0.4891
4.3662 -1.5352 -0.4897
4.3786 -1.5124 -0.4966
4.5296 -1.3970 -0.4939
4.5521 -1.3819 -0.4924
4.5744 -1.3669 -0.4908
4.6057 -1.3639 -0.4790
4.6222 -1.3422 -0.4835
4.6386 -1.3196 -0.4887
4.6553 -1.2967 -0.4938
4.6796 -1.2858 -0.4893
4.6988 -1.2665 -0.4914
4.7185 -1.2480 -0.4929
4.8631 -1.4075 -0.3452
4.8784 -1.3949 -0.3454
4.8821 -1.2010 -0.4480
4.9121 -1.2311 -0.4190
4.9278 -1.2067 -0.4253
5.0026 -1.3073 -0.3392
5.0190 -1.3063 -0.3327
5.0513 -1.0430 -0.4603
5.0717 -1.0594 -0.4428
5.1807 -1.0026 -0.4265
5.2328 -0.8258 -0.4991
5.2581 -0.7706 -0.5179
4.2212 -1.8969 -0.3814
4.2234 -1.8814 -0.3891
4.1245 -1.8291 -0.4634
4.1381 -1.8123 -0.4668
4.1529 -1.7955 -0.4696
4.1647 -1.7778 -0.4742
4.2273 -1.7738 -0.4482
4.2599 -1.7628 -0.4397
4.2780 -1.7479 -0.4399
4.2421 -1.7139 -0.4753
4.2473 -1.6926 -0.4850
4.2651 -1.6757 -0.4866
4.2831 -1.6586 -0.4881
4.3028 -1.6423 -0.4884
4.3423 -1.6358 -0.4742
4.3482 -1.6128 -0.4846
4.3596 -1.5920 -0.4912
4.3850 -1.5790 -0.4870
4.4070 -1.5643 -0.4854
4.4462 -1.5319 -0.4860
4.6124 -1.6058 -0.3691
4.5442 -1.4510 -0.4874
4.5650 -1.4361 -0.4864
4.5875 -1.4233 -0.4835
4.6042 -1.4038 -0.4870
4.6264 -1.3911 -0.4841
4.6484 -1.3787 -0.4812
4.6697 -1.3656 -0.4790
4.6838 -1.3415 -0.4862
4.7042 -1.3269 -0.4852
4.7228 -1.3093 -0.4868
4.8582 -1.4415 -0.3509
4.8703 -1.4224 -0.3562
4.8794 -1.3934 -0.3685
4.8404 -1.2145 -0.4872
4.8571 -1.1894 -0.4939
4.8781 -1.1778 -0.4910
4.9024 -1.1815 -0.4778
4.9211 -1.1638 -0.4794
4.9373 -1.1323 -0.4899
4.9594 -1.1322 -0.4800
