ply
format ascii 1.0
element vertex 2190
property float x
property float y
property float z
end_header
4.8322 2.9086 -0.5622
4.8544 2.8567 -0.5569
4.8877 2.7780 -0.5563
4.9188 2.7048 -0.5507
4.9280 2.6825 -0.5576
4.9439 2.6457 -0.5491
4.9610 2.6042 -0.5582
4.9738 2.5747 -0.5511
4.9815 2.5562 -0.5546
4.9914 2.5329 -0.5511
4.9965 2.5201 -0.5593
5.0055 2.4991 -0.5558
5.0121 2.4834 -0.5581
5.0202 2.4646 -0.5548
5.0255 2.4516 -0.5586
5.0314 2.4374 -0.5599
5.0382 2.4216 -0.5574
5.0458 2.4043 -0.5508
5.0487 2.3967 -0.5601
5.0551 2.3818 -0.5555
5.0594 2.3715 -0.5583
5.0653 2.3578 -0.5536
5.0692 2.3485 -0.5567
5.0749 2.3354 -0.5508
5.0778 2.3281 -0.5568
5.0817 2.3188 -0.5574
5.0852 2.3102 -0.5589
5.0890 2.3012 -0.5588
4.5910 3.4788 0.2027
4.5979 3.4564 0.1442
4.5983 3.4520 0.1155
4.5988 3.4475 0.0863
4.5988 3.4439 0.0568
4.6015 3.4345 0.0267
4.6061 3.4206 -0.0036
4.6107 3.4066 -0.0339
4.6051 3.4155 -0.0652
4.6030 3.4164 -0.0971
4.5743 3.4717 -0.1694
4.5770 3.4617 -0.2033
4.5821 3.4463 -0.2367
4.5821 3.4422 -0.2722
4.5826 3.4368 -0.3081
4.5827 3.4321 -0.3447
4.5907 3.4106 -0.3772
4.5958 3.3949 -0.4112
4.6010 3.3793 -0.4452
4.6062 3.3637 -0.4792
4.5846 3.4051 -0.5362
4.6118 3.3426 -0.5517
4.6394 3.2795 -0.5638
4.7078 3.1266 -0.5639
4.8121 2.8940 -0.5592
4.8352 2.8431 -0.5544
4.8451 2.8195 -0.5673
4.8841 2.7336 -0.5566
4.8988 2.7007 -0.5559
4.9118 2.6716 -0.5566
4.9380 2.6137 -0.5525
4.9459 2.5953 -0.5589
4.9585 2.5677 -0.5538
4.9687 2.5451 -0.5524
4.9787 2.5230 -0.5500
4.9846 2.5089 -0.5565
4.9937 2.4890 -0.5541
5.0082 2.4563 -0.5553
5.0145 2.4421 -0.5573
5.0203 2.4288 -0.5597
5.0277 2.4127 -0.5563
5.0347 2.3975 -0.5532
5.0399 2.3857 -0.5548
5.0457 2.3729 -0.5537
5.0501 2.3627 -0.5566
5.0541 2.3533 -0.5603
5.0606 2.3396 -0.5539
5.0657 2.3284 -0.5518
5.0695 2.3196 -0.5541
5.0742 2.3094 -0.5522
5.0773 2.3019 -0.5563
5.0809 2.2936 -0.5576
4.5625 3.4654 0.1836
4.5671 3.4517 0.1536
4.5652 3.4477 0.0954
4.5672 3.4392 0.0652
4.5719 3.4252 0.0345
4.5678 3.4296 0.0040
4.5679 3.4250 -0.0272
4.5681 3.4202 -0.0588
4.5614 3.4300 -0.0919
4.5468 3.4559 -0.1276
4.5493 3.4458 -0.1613
4.5519 3.4357 -0.1952
4.5517 3.4314 -0.2304
4.5495 3.4309 -0.2669
4.5518 3.4212 -0.3022
4.5546 3.4104 -0.3376
4.5550 3.3941 -0.4510
4.5525 3.3937 -0.4920
4.5469 3.3993 -0.5364
4.5833 3.3213 -0.5457
4.6029 3.2769 -0.5667
4.7415 2.9853 -0.5593
4.7914 2.8802 -0.5568
4.8188 2.8236 -0.5476
4.8264 2.8051 -0.5643
4.8510 2.7546 -0.5538
4.8666 2.7216 -0.5550
4.9348 2.5782 -0.5507
4.9459 2.5548 -0.5497
4.9542 2.5367 -0.5536
4.9617 2.5204 -0.5585
4.9818 2.4787 -0.5523
4.9888 2.4635 -0.5549
4.9965 2.4472 -0.5548
5.0101 2.4183 -0.5564
5.0164 2.4049 -0.5573
5.0230 2.3911 -0.5565
5.0298 2.3771 -0.5540
5.0365 2.3634 -0.5507
5.0410 2.3534 -0.5537
5.0452 2.3441 -0.5574
5.0510 2.3323 -0.5548
5.0550 2.3234 -0.5576
5.0609 2.3116 -0.5527
5.0655 2.3020 -0.5521
5.0722 2.2869 -0.5590
4.5353 3.4603 0.2491
4.5354 3.4558 0.2209
4.5283 3.4660 0.1944
4.5324 3.4438 0.1045
4.5322 3.4394 0.0741
4.5370 3.4250 0.0429
4.5417 3.4107 0.0117
4.5369 3.4154 -0.0197
4.5197 3.4448 -0.0528
4.5116 3.4556 -0.0871
4.5110 3.4515 -0.1213
4.5084 3.4513 -0.1566
4.5135 3.4356 -0.1906
4.5187 3.4200 -0.2246
4.5128 3.4259 -0.2628
4.5126 3.4206 -0.2997
4.4915 3.4433 -0.4260
4.4816 3.4557 -0.4728
4.4777 3.4566 -0.5172
4.4645 3.4749 -0.5698
4.5446 3.3183 -0.5478
4.5776 3.2507 -0.5585
4.6463 3.1120 -0.5667
4.7154 2.9752 -0.5595
4.7673 2.8717 -0.5582
4.8081 2.7898 -0.5606
4.8228 2.7595 -0.5666
4.8494 2.7085 -0.5526
4.8662 2.6752 -0.5511
4.8743 2.6573 -0.5624
4.9027 2.6011 -0.5600
4.9352 2.5355 -0.5640
4.9477 2.5113 -0.5589
4.9651 2.4761 -0.5616
4.9775 2.4528 -0.5523
4.9859 2.4362 -0.5513
5.0015 2.4054 -0.5491
5.0072 2.3934 -0.5520
5.0115 2.3839 -0.5587
5.0185 2.3701 -0.5564
5.0241 2.3588 -0.5578
5.0302 2.3467 -0.5565
5.0346 2.3375 -0.5604
5.0423 2.3233 -0.5520
5.0472 2.3135 -0.5524
5.0523 2.3035 -0.5512
5.0570 2.2941 -0.5508
5.0607 2.2864 -0.5538
5.0646 2.2783 -0.5552
4.5053 3.4422 0.2018
4.5043 3.4339 0.1430
4.5091 3.4196 0.1120
4.5115 3.4097 0.0813
4.5113 3.4050 0.0507
4.4928 3.4346 0.0203
4.4730 3.4665 -0.0123
4.4754 3.4562 -0.0459
4.4865 3.4296 -0.0789
4.4803 3.4354 -0.1140
4.4737 3.4416 -0.1501
4.4789 3.4258 -0.1846
4.4789 3.4196 -0.2206
4.4753 3.4200 -0.2583
4.4807 3.4038 -0.2934
4.4445 3.4492 -0.4278
4.4402 3.4498 -0.4717
4.4426 3.4385 -0.5122
4.4311 3.4515 -0.5631
4.6215 3.0916 -0.5611
4.7432 2.8619 -0.5590
4.7650 2.8204 -0.5611
4.8072 2.7408 -0.5600
4.8258 2.7057 -0.5595
4.8437 2.6721 -0.5580
4.8761 2.6114 -0.5544
4.8916 2.5827 -0.5510
4.9111 2.5442 -0.5603
4.9264 2.5166 -0.5524
4.9524 2.4661 -0.5606
4.9700 2.4329 -0.5604
4.9817 2.4122 -0.5512
4.9882 2.3995 -0.5539
4.9946 2.3871 -0.5561
5.0017 2.3738 -0.5556
5.0098 2.3592 -0.5511
5.0144 2.3497 -0.5559
5.0208 2.3378 -0.5547
5.0278 2.3252 -0.5505
5.0322 2.3163 -0.5539
5.0376 2.3062 -0.5534
5.0433 2.2958 -0.5510
5.0461 2.2894 -0.5583
5.0560 2.2710 -0.5552
4.4778 3.4374 0.2684
4.4824 3.4235 0.2381
4.4823 3.4184 0.2093
4.4461 3.4496 0.0292
4.4478 3.4404 -0.0041
4.4473 3.4350 -0.0378
4.4468 3.4295 -0.0721
4.4486 3.4197 -0.1065
4.4478 3.4147 -0.1417
4.4382 3.4248 -0.1795
4.4310 3.4305 -0.2181
4.4170 3.4479 -0.2601
4.4123 3.4486 -0.3005
4.4180 3.4316 -0.3375
4.4041 3.4323 -0.4666
4.4100 3.4146 -0.5051
4.4159 3.3969 -0.5437
4.4422 3.3454 -0.5672
4.5296 3.1869 -0.5778
4.5986 3.0678 -0.5537
4.6369 2.9996 -0.5517
4.6609 2.9549 -0.5604
4.8080 2.6921 -0.5570
4.8284 2.6562 -0.5530
4.8435 2.6289 -0.5550
4.8551 2.6069 -0.5607
4.8753 2.5727 -0.5512
4.8884 2.5492 -0.5514
4.9004 2.5275 -0.5521
4.9087 2.5114 -0.5584
4.9205 2.4906 -0.5571
4.9286 2.4752 -0.5619
4.9413 2.4535 -0.5560
4.9517 2.4353 -0.5536
4.9599 2.4204 -0.5550
4.9692 2.4042 -0.5527
4.9767 2.3905 -0.5536
4.9837 2.3777 -0.5549
4.9882 2.3684 -0.5619
4.9995 2.3504 -0.5502
5.0034 2.3420 -0.5574
5.0128 2.3269 -0.5483
5.0162 2.3194 -0.5557
5.0223 2.3087 -0.5547
5.0342 2.2881 -0.5508
5.0378 2.2808 -0.5556
5.0435 2.2711 -0.5525
4.4133 3.4692 0.1995
4.4068 3.4743 0.1694
4.4058 3.4695 0.1374
4.4169 3.4439 0.1032
4.4249 3.4236 0.0698
4.4210 3.4236 0.0374
4.4226 3.4142 0.0041
4.4189 3.4136 -0.0297
4.4056 3.4293 -0.0649
4.3942 3.4413 -0.1016
4.3748 3.4586 -0.1786
4.3658 3.4658 -0.2191
4.3681 3.4542 -0.2575
4.3666 3.4487 -0.2976
4.3643 3.4194 -0.4631
4.3772 3.3904 -0.4980
4.3964 3.3433 -0.5703
4.4989 3.1686 -0.5738
4.5885 3.0176 -0.5692
4.6584 2.8993 -0.5668
4.7638 2.7214 -0.5624
4.8069 2.6493 -0.5568
4.8350 2.6000 -0.5648
4.8658 2.5482 -0.5626
4.8806 2.5236 -0.5599
4.8920 2.5039 -0.5617
4.9171 2.4622 -0.5571
4.9276 2.4445 -0.5568
4.9370 2.4283 -0.5574
4.9543 2.3987 -0.5590
4.9638 2.3831 -0.5563
4.9702 2.3715 -0.5599
4.9795 2.3566 -0.5556
4.9866 2.3445 -0.5558
4.9944 2.3318 -0.5532
5.0008 2.3208 -0.5533
5.0068 2.3105 -0.5540
5.0123 2.3010 -0.5553
5.0169 2.2925 -0.5587
5.0223 2.2833 -0.5592
5.0291 2.2726 -0.5542
5.0335 2.2647 -0.5563
5.0387 2.2562 -0.5553
4.3888 3.4438 0.2074
4.3787 3.4537 0.1782
4.3738 3.4548 0.1468
4.3728 3.4495 0.1141
4.3666 3.4451 0.0474
4.3669 3.4298 -0.0219
4.3657 3.4242 -0.0573
4.3208 3.4713 -0.1747
4.3306 3.4476 -0.2116
4.3282 3.4428 -0.2516
4.3225 3.4430 -0.2935
4.3204 3.4375 -0.3350
4.3229 3.4248 -0.3754
4.3086 3.4375 -0.4239
4.3018 3.4385 -0.4706
4.3041 3.4256 -0.5133
4.2661 3.4722 -0.5812
4.3483 3.3415 -0.5737
4.4587 3.1632 -0.5768
4.5615 3.0002 -0.5656
4.5915 2.9504 -0.5724
4.6364 2.8804 -0.5618
4.6970 2.7836 -0.5589
4.7156 2.7520 -0.5663
4.7458 2.7052 -0.5581
4.7913 2.6333 -0.5518
4.8209 2.5841 -0.5593
4.8341 2.5620 -0.5631
4.8565 2.5285 -0.5513
4.8645 2.5136 -0.5604
4.8773 2.4930 -0.5608
4.8918 2.4706 -0.5568
4.9065 2.4482 -0.5507
4.9131 2.4359 -0.5584
4.9220 2.4210 -0.5611
4.9340 2.4027 -0.5564
4.9426 2.3886 -0.5575
4.9507 2.3754 -0.5589
4.9613 2.3594 -0.5535
4.9683 2.3478 -0.5555
4.9769 2.3345 -0.5526
4.9824 2.3248 -0.5567
4.9899 2.3131 -0.5548
4.9965 2.3025 -0.5545
5.0005 2.2948 -0.5607
5.0082 2.2834 -0.5558
5.0137 2.2744 -0.5564
5.0200 2.2648 -0.5540
5.0250 2.2567 -0.5549
4.3434 3.4728 0.3154
4.3385 3.4735 0.2859
4.3299 3.4801 0.2568
4.3415 3.4543 0.2214
4.3505 3.4328 0.1870
4.3517 3.4235 0.1544
4.3537 3.4131 0.1214
4.3455 3.4183 0.0892
4.3406 3.4181 0.0558
4.3027 3.4519 -0.0505
4.2850 3.4701 -0.0893
4.2822 3.4656 -0.1281
4.2843 3.4535 -0.1669
4.2860 3.4422 -0.2060
4.2834 3.4368 -0.2466
4.2893 3.4190 -0.2853
4.2952 3.4012 -0.3241
4.2970 3.3893 -0.3645
4.2948 3.3831 -0.4070
4.2846 3.3880 -0.4542
4.2688 3.4003 -0.5059
4.2482 3.4189 -0.5625
4.3108 3.3219 -0.5691
4.3664 3.2356 -0.5750
4.5315 2.9861 -0.5642
4.5658 2.9328 -0.5687
4.6045 2.8743 -0.5658
4.6693 2.7762 -0.5624
4.7177 2.7017 -0.5654
4.7696 2.6249 -0.5547
4.7991 2.5777 -0.5645
4.8189 2.5485 -0.5600
4.8339 2.5254 -0.5606
4.8473 2.5046 -0.5624
4.8644 2.4797 -0.5567
4.8769 2.4606 -0.5570
4.8878 2.4436 -0.5589
4.9019 2.4232 -0.5537
4.9130 2.4065 -0.5528
4.9186 2.3959 -0.5613
4.9474 2.3527 -0.5583
4.9569 2.3389 -0.5554
4.9728 2.3150 -0.5536
4.9775 2.3065 -0.5596
4.9861 2.2944 -0.5550
4.9946 2.2826 -0.5496
4.9995 2.2744 -0.5530
5.0052 2.2656 -0.5536
5.0099 2.2577 -0.5563
5.0155 2.2493 -0.5560
5.0210 2.2411 -0.5553
4.3034 3.4782 0.3605
4.3010 3.4744 0.3300
4.2960 3.4745 0.3000
4.3011 3.4589 0.2661
4.3030 3.4484 0.2331
4.3148 3.4228 0.1976
4.3133 3.4171 0.1651
4.3113 3.4122 0.1322
4.2983 3.4234 0.1001
4.2965 3.4178 0.0657
4.2528 3.4643 -0.0047
4.2336 3.4828 -0.0430
4.2351 3.4715 -0.0818
4.2453 3.4475 -0.1198
4.2468 3.4360 -0.1589
4.2484 3.4244 -0.1984
4.2543 3.4066 -0.2371
4.2344 3.4243 -0.2832
4.2222 3.4311 -0.3291
4.1839 3.4512 -0.4770
4.2053 3.4117 -0.5125
4.3231 3.2260 -0.5757
4.5437 2.9100 -0.5616
4.5758 2.8624 -0.5662
4.6103 2.8126 -0.5656
4.6438 2.7647 -0.5629
4.6786 2.7161 -0.5558
4.6976 2.6869 -0.5628
4.7142 2.6609 -0.5709
4.7656 2.5892 -0.5597
4.7836 2.5629 -0.5604
4.8046 2.5337 -0.5554
4.8175 2.5140 -0.5600
4.8344 2.4901 -0.5573
4.8454 2.4731 -0.5622
4.8567 2.4558 -0.5654
4.8836 2.4178 -0.5614
4.8946 2.4019 -0.5618
4.9084 2.3833 -0.5558
4.9166 2.3707 -0.5592
4.9291 2.3540 -0.5531
4.9430 2.3321 -0.5604
4.9532 2.3184 -0.5559
4.9619 2.3064 -0.5538
4.9685 2.2964 -0.5555
4.9746 2.2870 -0.5577
4.9825 2.2762 -0.5549
4.9885 2.2673 -0.5561
4.9957 2.2575 -0.5533
5.0006 2.2497 -0.5560
5.0064 2.2415 -0.5559
5.0111 2.2341 -0.5579
4.2774 3.4379 0.3059
4.2756 3.4325 0.2743
4.2451 3.4339 0.1120
4.2219 3.4574 0.0785
4.2063 3.4697 0.0425
4.1897 3.4832 0.0048
4.2047 3.4528 -0.0337
4.2060 3.4414 -0.0724
4.2028 3.4359 -0.1119
4.1997 3.4301 -0.1521
4.2013 3.4180 -0.1923
4.2073 3.3998 -0.2317
4.2088 3.3875 -0.2724
4.2105 3.3750 -0.3134
4.1133 3.4660 -0.4833
4.1029 3.4671 -0.5361
4.1323 3.4183 -0.5695
4.5194 2.8899 -0.5563
4.5867 2.7958 -0.5623
4.6480 2.7115 -0.5626
4.7062 2.6334 -0.5554
4.7291 2.6020 -0.5549
4.7424 2.5815 -0.5641
4.7811 2.5286 -0.5631
4.8188 2.4785 -0.5561
4.8434 2.4431 -0.5621
4.8577 2.4240 -0.5604
4.8696 2.4075 -0.5610
4.8835 2.3894 -0.5572
4.8962 2.3727 -0.5540
4.9041 2.3607 -0.5585
4.9150 2.3463 -0.5565
4.9257 2.3322 -0.5536
4.9419 2.3094 -0.5559
4.9493 2.2989 -0.5572
4.9572 2.2882 -0.5568
4.9649 2.2778 -0.5559
4.9735 2.2669 -0.5520
4.9811 2.2571 -0.5497
4.9862 2.2493 -0.5529
4.9922 2.2410 -0.5533
4.9972 2.2335 -0.5557
5.0035 2.2253 -0.5540
4.2398 3.4372 0.3503
4.2371 3.4325 0.3191
4.1573 3.4870 0.1286
4.1593 3.4645 0.0527
4.1462 3.4716 0.0146
4.1522 3.4536 -0.0247
4.1582 3.4355 -0.0640
4.1455 3.4414 -0.1050
4.1145 3.4365 -0.2788
4.1099 3.4306 -0.3242
4.1113 3.4174 -0.3684
4.0903 3.4309 -0.4215
4.0683 3.4450 -0.4772
4.0632 3.4386 -0.5277
4.0757 3.4110 -0.5703
4.2360 3.2009 -0.5747
4.3761 3.0204 -0.5664
4.4209 2.9606 -0.5718
4.4773 2.8890 -0.5645
4.5606 2.7813 -0.5609
4.6314 2.6906 -0.5550
4.6538 2.6598 -0.5604
4.6801 2.6257 -0.5599
4.7336 2.5583 -0.5510
4.7395 2.5461 -0.5681
4.7597 2.5201 -0.5670
4.8020 2.4677 -0.5564
4.8181 2.4470 -0.5553
4.8290 2.4314 -0.5605
4.8409 2.4152 -0.5632
4.8532 2.3989 -0.5641
4.8823 2.3634 -0.5550
4.8915 2.3507 -0.5577
4.8995 2.3391 -0.5618
4.9107 2.3253 -0.5592
4.9196 2.3135 -0.5600
4.9304 2.3004 -0.5558
4.9381 2.2900 -0.5573
4.9487 2.2776 -0.5516
4.9567 2.2675 -0.5506
4.9621 2.2594 -0.5548
4.9689 2.2504 -0.5551
4.9828 2.2329 -0.5530
4.9888 2.2249 -0.5530
4.9934 2.2181 -0.5564
4.1958 3.4530 0.4299
4.1973 3.4423 0.3972
4.1528 3.4555 0.2427
4.1534 3.4451 0.2069
4.1369 3.4565 0.1737
4.1285 3.4572 0.1380
4.1385 3.4343 0.0993
4.1352 3.4282 0.0618
4.1264 3.4288 0.0238
4.1282 3.4161 -0.0151
4.1190 3.4167 -0.0549
4.1051 3.4227 -0.0961
4.0299 3.4902 -0.1906
4.0184 3.4917 -0.2377
4.0191 3.4784 -0.2835
4.0199 3.4649 -0.3296
4.0267 3.4444 -0.3744
4.0210 3.4381 -0.4236
4.0220 3.4240 -0.4711
4.0224 3.4104 -0.5195
4.3600 2.9838 -0.5520
4.3934 2.9387 -0.5661
4.4333 2.8875 -0.5728
4.5639 2.7281 -0.5642
4.5978 2.6866 -0.5630
4.6433 2.6344 -0.5476
4.6673 2.6040 -0.5501
4.6827 2.5823 -0.5598
4.7038 2.5556 -0.5619
4.7437 2.5058 -0.5636
4.7659 2.4796 -0.5590
4.7850 2.4567 -0.5565
4.7998 2.4379 -0.5582
4.8133 2.4205 -0.5604
4.8256 2.4046 -0.5633
4.8399 2.3872 -0.5619
4.8581 2.3671 -0.5532
4.8682 2.3538 -0.5559
4.8788 2.3405 -0.5570
4.8892 2.3274 -0.5573
4.8996 2.3148 -0.5568
4.9076 2.3040 -0.5597
4.9215 2.2893 -0.5505
4.9289 2.2795 -0.5530
4.9361 2.2700 -0.5551
4.9438 2.2604 -0.5555
4.9514 2.2510 -0.5553
4.9621 2.2399 -0.5476
4.9717 2.2256 -0.5564
4.9790 2.2172 -0.5541
4.1715 3.4155 0.4056
4.0867 3.4746 0.2609
4.0881 3.4625 0.2237
4.0888 3.4512 0.1864
4.0844 3.4460 0.1494
4.0809 3.4395 0.1116
4.0869 3.4215 0.0726
4.0720 3.4282 0.0342
4.0190 3.4676 -0.0476
3.9838 3.4962 -0.0927
3.9841 3.4834 -0.1370
3.9908 3.4633 -0.1808
3.9912 3.4501 -0.2258
4.0104 3.4161 -0.2672
4.0170 3.3960 -0.3108
3.9739 3.4303 -0.3691
3.9205 3.4746 -0.4347
3.8367 3.5501 -0.5164
3.8988 3.4691 -0.5451
3.9823 3.3670 -0.5598
4.1630 3.1538 -0.5630
4.2235 3.0805 -0.5714
4.3073 2.9850 -0.5607
4.3398 2.9421 -0.5774
4.4600 2.8052 -0.5623
4.5134 2.7451 -0.5528
4.5486 2.7035 -0.5541
4.5751 2.6705 -0.5603
4.6002 2.6396 -0.5657
4.6324 2.6027 -0.5622
4.6619 2.5691 -0.5589
4.6854 2.5413 -0.5594
4.7082 2.5147 -0.5588
4.7258 2.4930 -0.5624
4.7493 2.4669 -0.5573
4.7776 2.4313 -0.5656
4.8106 2.3933 -0.5625
4.8289 2.3737 -0.5562
4.8406 2.3593 -0.5583
4.8648 2.3310 -0.5581
4.8750 2.3186 -0.5595
4.8879 2.3046 -0.5554
4.8967 2.2937 -0.5573
4.9049 2.2834 -0.5597
4.9153 2.2719 -0.5573
4.9238 2.2618 -0.5574
4.9345 2.2507 -0.5524
4.9412 2.2422 -0.5546
4.9577 2.2240 -0.5505
4.9626 2.2170 -0.5548
4.9680 2.2099 -0.5576
4.9723 2.2034 -0.5625
4.1053 3.4481 0.4633
4.1107 3.4319 0.4279
4.0753 3.4553 0.3727
4.0763 3.4439 0.3371
4.0675 3.4442 0.3040
4.0481 3.4566 0.2725
4.0434 3.4513 0.2364
4.0441 3.4397 0.1985
4.0455 3.4270 0.1603
4.0403 3.4218 0.1224
4.0515 3.3978 0.0825
4.0421 3.3971 0.0439
4.0042 3.4279 0.0046
3.9632 3.4613 -0.0379
3.9567 3.4559 -0.0817
3.9446 3.4563 -0.1269
3.7199 3.5895 -0.5317
3.8309 3.4619 -0.5454
4.0179 3.2477 -0.5649
4.1473 3.1090 -0.5460
4.1856 3.0601 -0.5674
4.3285 2.9029 -0.5604
4.4275 2.7919 -0.5627
4.5185 2.6923 -0.5562
4.5902 2.6134 -0.5523
4.6427 2.5539 -0.5560
4.6877 2.5028 -0.5593
4.7096 2.4785 -0.5589
4.7319 2.4545 -0.5563
4.7452 2.4377 -0.5627
4.7622 2.4186 -0.5635
4.7808 2.3987 -0.5608
4.7943 2.3828 -0.5634
4.8216 2.3520 -0.5650
4.8400 2.3338 -0.5567
4.8518 2.3205 -0.5572
4.8594 2.3103 -0.5636
4.8744 2.2954 -0.5568
4.8835 2.2847 -0.5590
4.8959 2.2721 -0.5544
4.9043 2.2623 -0.5562
4.9108 2.2537 -0.5608
4.9304 2.2336 -0.5550
4.9468 2.2161 -0.5524
4.9535 2.2083 -0.5532
4.9601 2.2009 -0.5536
4.0746 3.4253 0.4737
4.0657 3.4258 0.4438
4.0371 3.4491 0.4203
4.0530 3.4201 0.3798
4.0177 3.4502 0.3556
4.0189 3.4380 0.3188
4.0083 3.4389 0.2845
3.9647 3.4766 0.2563
3.9763 3.4521 0.2150
4.0046 3.4091 0.1715
4.0000 3.4027 0.1333
3.9946 3.3967 0.0944
3.6885 3.5385 -0.5155
3.7760 3.4388 -0.5395
3.8479 3.3555 -0.5639
3.9534 3.2426 -0.5684
4.0878 3.1057 -0.5511
4.1292 3.0553 -0.5728
4.2823 2.8957 -0.5652
4.3936 2.7785 -0.5634
4.4785 2.6883 -0.5652
4.5503 2.6123 -0.5652
4.6214 2.5402 -0.5549
4.6618 2.4944 -0.5649
4.6875 2.4682 -0.5617
4.7111 2.4442 -0.5589
4.7261 2.4267 -0.5641
4.7454 2.4066 -0.5630
4.7651 2.3867 -0.5597
4.7846 2.3675 -0.5552
4.7959 2.3541 -0.5602
4.8175 2.3344 -0.5497
4.8211 2.3264 -0.5637
4.8375 2.3107 -0.5582
4.8631 2.2847 -0.5544
4.8742 2.2732 -0.5536
4.8805 2.2646 -0.5603
4.8932 2.2527 -0.5551
4.9111 2.2337 -0.5552
4.9206 2.2243 -0.5532
4.9270 2.2165 -0.5563
4.9346 2.2085 -0.5566
4.9437 2.1999 -0.5528
4.9511 2.1923 -0.5521
4.9556 2.1861 -0.5571
4.0326 3.4252 0.5223
4.0084 3.4317 0.4645
4.0197 3.4084 0.4255
3.9388 3.4872 0.4179
3.9279 3.4876 0.3836
3.9340 3.4692 0.3436
3.9569 3.4328 0.2995
3.7928 3.5001 -0.0178
3.6386 3.5053 -0.5054
3.7203 3.4148 -0.5333
3.8922 3.2314 -0.5691
4.0187 3.1074 -0.5593
4.1041 3.0212 -0.5611
4.2300 2.8914 -0.5725
4.2942 2.8275 -0.5708
4.3626 2.7618 -0.5616
4.3984 2.7232 -0.5702
4.4386 2.6820 -0.5729
4.4806 2.6404 -0.5714
4.5201 2.6016 -0.5687
4.5598 2.5635 -0.5629
4.5857 2.5364 -0.5666
4.6140 2.5082 -0.5661
4.6433 2.4799 -0.5624
4.6750 2.4506 -0.5540
4.7125 2.4115 -0.5588
4.7238 2.3974 -0.5677
4.7648 2.3587 -0.5600
4.7822 2.3420 -0.5578
4.7929 2.3295 -0.5632
4.8093 2.3141 -0.5598
4.8242 2.2999 -0.5572
4.8371 2.2872 -0.5564
4.8456 2.2772 -0.5615
4.8583 2.2652 -0.5592
4.8677 2.2551 -0.5610
4.8808 2.2436 -0.5561
4.8864 2.2358 -0.5630
4.8987 2.2252 -0.5576
4.9066 2.2168 -0.5591
4.9144 2.2086 -0.5602
4.9233 2.2002 -0.5584
4.9310 2.1925 -0.5584
4.9386 2.1850 -0.5579
1.9277 5.3670 0.5085
2.2083 5.0279 0.2790
2.2228 4.9843 0.1841
3.5875 3.4721 -0.4954
3.6540 3.3980 -0.5301
3.6434 3.3894 -0.5894
3.8132 3.2320 -0.5761
3.9189 3.1303 -0.5796
4.0645 2.9990 -0.5566
4.1338 2.9312 -0.5629
4.1915 2.8737 -0.5709
4.2660 2.8048 -0.5650
4.3275 2.7472 -0.5619
4.3706 2.7046 -0.5669
4.4578 2.6217 -0.5670
4.5897 2.4959 -0.5677
4.6185 2.4691 -0.5658
4.6497 2.4415 -0.5594
4.6943 2.3993 -0.5586
4.7119 2.3818 -0.5609
4.7327 2.3628 -0.5582
4.7493 2.3468 -0.5591
4.7644 2.3320 -0.5605
4.7807 2.3168 -0.5592
4.7981 2.3016 -0.5551
4.8096 2.2897 -0.5581
4.8228 2.2773 -0.5575
4.8353 2.2656 -0.5570
4.8470 2.2545 -0.5567
4.8580 2.2441 -0.5567
4.8689 2.2340 -0.5559
4.8765 2.2255 -0.5598
4.8853 2.2167 -0.5610
4.8965 2.2073 -0.5572
4.9052 2.1991 -0.5572
4.9149 2.1907 -0.5543
4.9240 2.1828 -0.5520
4.9288 2.1765 -0.5575
4.9359 2.1696 -0.5579
1.6988 5.3974 0.4527
3.5452 3.5883 0.0063
3.4820 3.4821 -0.5008
3.4791 3.4653 -0.5609
3.6035 3.3481 -0.5765
3.8925 3.0908 -0.5660
4.0723 2.9271 -0.5706
4.1650 2.8462 -0.5623
4.2147 2.7982 -0.5722
4.3006 2.7257 -0.5567
4.3367 2.6897 -0.5673
4.4283 2.6071 -0.5673
4.5159 2.5312 -0.5576
4.5657 2.4828 -0.5685
4.6009 2.4532 -0.5619
4.6259 2.4305 -0.5625
4.6576 2.4045 -0.5545
4.6730 2.3884 -0.5612
4.6925 2.3704 -0.5624
4.7104 2.3538 -0.5640
4.7470 2.3213 -0.5622
4.7651 2.3058 -0.5595
4.7843 2.2903 -0.5540
4.7934 2.2800 -0.5607
4.8076 2.2675 -0.5594
4.8312 2.2457 -0.5611
4.8418 2.2357 -0.5624
4.8549 2.2251 -0.5588
4.8679 2.2148 -0.5545
4.8757 2.2067 -0.5579
4.8833 2.1988 -0.5608
4.8966 2.1893 -0.5531
4.9054 2.1816 -0.5526
4.9115 2.1748 -0.5562
4.9195 2.1677 -0.5559
4.9280 2.1607 -0.5539
1.7474 5.1963 0.4614
1.5117 5.3360 0.2736
3.4040 3.4652 -0.4967
3.3884 3.4570 -0.5617
3.5113 3.3456 -0.5814
3.8247 3.0816 -0.5695
4.0275 2.9085 -0.5690
4.1733 2.7826 -0.5728
4.3045 2.6727 -0.5661
4.4057 2.5875 -0.5623
4.4859 2.5194 -0.5608
4.5145 2.4935 -0.5652
4.5421 2.4688 -0.5685
4.6073 2.4159 -0.5601
4.6284 2.3967 -0.5636
4.6621 2.3715 -0.5529
4.6777 2.3562 -0.5586
4.6982 2.3389 -0.5581
4.7336 2.3084 -0.5589
4.7493 2.2946 -0.5598
4.7677 2.2801 -0.5562
4.8011 2.2538 -0.5493
4.8108 2.2441 -0.5538
4.8177 2.2356 -0.5615
4.8333 2.2241 -0.5560
4.8427 2.2152 -0.5586
4.8633 2.1975 -0.5590
4.8744 2.1887 -0.5566
4.8829 2.1811 -0.5580
4.8925 2.1733 -0.5566
4.8982 2.1668 -0.5616
4.9070 2.1597 -0.5603
4.9158 2.1528 -0.5585
3.7963 3.4486 0.6507
3.6878 3.4721 0.4595
3.2008 3.5357 -0.5239
3.3196 3.4292 -0.5547
3.4142 3.3421 -0.5862
3.6002 3.1939 -0.5792
3.7679 3.0621 -0.5675
3.9881 2.8850 -0.5643
4.0510 2.8304 -0.5752
4.1258 2.7696 -0.5759
4.2007 2.7104 -0.5717
4.2787 2.6510 -0.5606
4.3261 2.6116 -0.5636
4.3724 2.5739 -0.5644
4.4137 2.5401 -0.5656
4.4546 2.5074 -0.5643
4.4951 2.4758 -0.5606
4.5226 2.4522 -0.5648
4.5491 2.4296 -0.5680
4.5843 2.4033 -0.5617
4.6396 2.3604 -0.5561
4.6578 2.3443 -0.5600
4.6795 2.3271 -0.5590
4.7854 2.2559 -0.5160
4.7983 2.2392 -0.5347
4.8151 2.2273 -0.5295
4.8214 2.2194 -0.5377
4.8263 2.2122 -0.5476
4.8284 2.2058 -0.5614
4.8420 2.1961 -0.5574
4.8515 2.1879 -0.5590
4.8649 2.1789 -0.5535
4.8722 2.1718 -0.5572
4.8834 2.1639 -0.5536
4.8886 2.1576 -0.5599
4.8983 2.1506 -0.5575
4.9046 2.1444 -0.5606
3.6785 3.4179 0.4628
3.6545 3.4245 0.4286
3.6130 3.4455 0.3973
3.5862 3.4533 0.3599
3.5215 3.4920 0.3283
3.4708 3.5178 0.2903
3.0107 3.5844 -0.5437
3.1780 3.4482 -0.5672
3.3831 3.2905 -0.5689
3.5228 3.1796 -0.5802
3.8139 2.9594 -0.5722
3.9354 2.8688 -0.5650
4.0126 2.8076 -0.5711
4.1681 2.6895 -0.5680
4.2354 2.6390 -0.5650
4.2895 2.5973 -0.5657
4.3540 2.5512 -0.5562
4.3714 2.5315 -0.5746
4.4288 2.4915 -0.5632
4.4688 2.4615 -0.5612
4.4984 2.4376 -0.5646
4.5256 2.4156 -0.5682
4.7983 2.2468 -0.4511
4.8026 2.2397 -0.4625
4.8091 2.2317 -0.4711
4.8133 2.2247 -0.4821
4.8125 2.2195 -0.4993
4.8260 2.2095 -0.4980
4.8287 2.2032 -0.5103
4.8329 2.1965 -0.5206
4.8370 2.1899 -0.5308
4.8397 2.1837 -0.5428
4.8438 2.1772 -0.5527
4.8527 2.1697 -0.5548
4.8580 2.1631 -0.5620
4.8702 2.1553 -0.5575
4.8789 2.1484 -0.5581
4.8881 2.1417 -0.5570
4.8953 2.1356 -0.5590
3.5656 3.3753 0.2792
3.5457 3.3750 0.2372
3.4690 3.4178 0.2006
3.3833 3.4657 0.1601
3.3240 3.4921 0.1126
3.2847 3.5025 0.0606
3.2037 3.5421 0.0062
2.9070 3.5665 -0.5397
3.0378 3.4588 -0.5766
3.4078 3.1854 -0.5923
3.6244 3.0355 -0.5720
3.7672 2.9338 -0.5671
3.8750 2.8553 -0.5682
3.9679 2.7876 -0.5694
4.1352 2.6682 -0.5642
4.1975 2.6226 -0.5655
4.2441 2.5865 -0.5723
4.3542 2.5089 -0.5659
4.4074 2.4729 -0.5587
4.4404 2.4476 -0.5628
4.7981 2.2433 -0.4057
4.8062 2.2349 -0.4129
4.8112 2.2278 -0.4229
4.8214 2.2190 -0.4269
4.8256 2.2124 -0.4371
4.8298 2.2059 -0.4472
4.8347 2.1992 -0.4562
4.8380 2.1930 -0.4669
4.8392 2.1874 -0.4804
4.8419 2.1815 -0.4920
4.8438 2.1757 -0.5045
4.8464 2.1698 -0.5159
4.8476 2.1643 -0.5295
4.8502 2.1584 -0.5409
4.8556 2.1520 -0.5478
4.8631 2.1454 -0.5512
4.8692 2.1392 -0.5564
4.8773 2.1329 -0.5577
4.8846 2.1268 -0.5599
3.6546 3.4414 0.8158
3.3376 3.3935 0.0701
3.3232 3.3849 0.0181
3.2841 3.3926 -0.0356
3.1451 3.4452 -0.1555
3.0371 3.4941 -0.2262
2.9493 3.5276 -0.3010
2.9069 3.5306 -0.3743
2.7060 3.6302 -0.4808
2.7379 3.5843 -0.5489
3.0053 3.3985 -0.5567
3.2215 3.2481 -0.5632
3.3788 3.1361 -0.5753
3.6961 2.9206 -0.5707
3.8991 2.7791 -0.5777
3.9984 2.7128 -0.5731
4.0795 2.6578 -0.5715
4.2181 2.5646 -0.5669
4.3144 2.4969 -0.5718
4.7870 2.2546 -0.3431
4.7977 2.2452 -0.3489
4.8083 2.2361 -0.3541
4.8126 2.2295 -0.3646
4.8153 2.2234 -0.3764
4.8203 2.2167 -0.3858
4.8291 2.2088 -0.3910
4.8287 2.2039 -0.4057
4.8367 2.1965 -0.4111
4.8366 2.1864 -0.4397
4.8444 2.1793 -0.4445
4.8463 2.1738 -0.4565
4.8481 2.1683 -0.4685
4.8492 2.1629 -0.4814
4.8510 2.1574 -0.4934
4.8514 2.1522 -0.5075
4.8561 2.1462 -0.5153
4.8565 2.1409 -0.5294
4.8576 2.1355 -0.5426
4.8623 2.1296 -0.5500
4.8670 2.1238 -0.5572
4.8744 2.1179 -0.5594
3.5195 3.4691 0.8015
3.0667 3.3988 -0.2040
2.9836 3.4268 -0.2751
2.9103 3.4471 -0.3501
2.9371 3.4074 -0.4121
2.8038 3.4595 -0.5063
2.8327 3.4177 -0.5705
3.0769 3.2579 -0.5759
3.3260 3.1006 -0.5658
3.7448 2.8266 -0.5752
3.8635 2.7515 -0.5707
4.7944 2.2482 -0.2983
4.8013 2.2406 -0.3071
4.8096 2.2325 -0.3144
4.8147 2.2258 -0.3238
4.8190 2.2195 -0.3338
4.8224 2.2134 -0.3444
4.8266 2.2072 -0.3541
4.8292 2.2015 -0.3652
4.8374 2.1943 -0.3707
4.8352 2.1900 -0.3864
4.8393 2.1840 -0.3956
4.8427 2.1783 -0.4055
4.8445 2.1729 -0.4172
4.8462 2.1676 -0.4288
4.8480 2.1623 -0.4404
4.8521 2.1565 -0.4491
4.8538 2.1512 -0.4607
4.8533 2.1462 -0.4753
4.8573 2.1406 -0.4837
4.8524 2.1362 -0.5049
4.8579 2.1303 -0.5112
4.8589 2.1250 -0.5240
4.8607 2.1197 -0.5356
4.8610 2.1144 -0.5497
4.8642 2.1089 -0.5590
3.3677 3.5290 0.8690
3.4586 3.4427 0.7847
3.3282 3.3931 0.4328
2.8068 3.4269 -0.3420
2.8532 3.3765 -0.4023
2.8632 3.3464 -0.4678
2.8372 3.3353 -0.5414
3.1701 3.1163 -0.5853
3.3740 2.9934 -0.5815
3.5771 2.8752 -0.5664
3.6748 2.8110 -0.5789
4.7955 2.2493 -0.2481
4.7990 2.2431 -0.2591
4.8017 2.2373 -0.2705
4.8077 2.2303 -0.2795
4.8188 2.2170 -0.2975
4.8247 2.2103 -0.3058
4.8306 2.2038 -0.3138
4.8323 2.1986 -0.3252
4.8349 2.1932 -0.3358
4.8391 2.1873 -0.3448
4.8400 2.1823 -0.3569
4.8441 2.1766 -0.3657
4.8434 2.1720 -0.3794
4.8451 2.1668 -0.3907
4.8516 2.1607 -0.3966
4.8517 2.1559 -0.4096
4.8542 2.1506 -0.4198
4.8559 2.1455 -0.4309
4.8545 2.1408 -0.4460
4.8539 2.1360 -0.4603
4.8571 2.1306 -0.4695
4.8550 2.1258 -0.4861
4.8575 2.1205 -0.4964
4.8623 2.1150 -0.5033
4.8617 2.1100 -0.5180
4.8604 2.1049 -0.5340
3.3196 3.4868 0.8433
3.3065 3.4802 0.8053
3.2233 3.5067 0.7481
3.3280 3.4152 0.6636
3.2002 3.4698 0.6133
3.2535 3.4154 0.5494
3.1517 3.4473 0.4778
2.7110 3.3211 -0.5415
2.9206 3.1933 -0.5616
4.7746 2.2687 -0.1862
4.7809 2.2613 -0.1963
4.7898 2.2530 -0.2049
4.7969 2.2456 -0.2139
4.8109 2.2311 -0.2312
4.8152 2.2250 -0.2409
4.8160 2.2201 -0.2527
4.8229 2.2133 -0.2605
4.8229 2.2087 -0.2728
4.8364 2.1910 -0.2996
4.8398 2.1855 -0.3091
4.8389 2.1812 -0.3221
4.8439 2.1754 -0.3301
4.8472 2.1700 -0.3393
4.8489 2.1651 -0.3501
4.8505 2.1601 -0.3609
4.8522 2.1551 -0.3717
4.8538 2.1502 -0.3825
4.8563 2.1451 -0.3924
4.8539 2.1407 -0.4078
4.8563 2.1356 -0.4177
4.8604 2.1304 -0.4256
4.8557 2.1261 -0.4445
4.8589 2.1209 -0.4534
4.8590 2.1160 -0.4664
4.8583 2.1111 -0.4807
4.8608 2.1059 -0.4906
4.8625 2.1009 -0.5017
4.8619 2.0958 -0.5162
4.8628 2.0907 -0.5285
3.2246 3.4588 0.7912
3.1465 3.4769 0.7273
3.1298 3.4698 0.6847
2.8347 3.2600 -0.2941
4.7847 2.2564 -0.1633
4.7937 2.2483 -0.1718
4.7945 2.2434 -0.1835
4.8089 2.2336 -0.1890
4.8106 2.2286 -0.2000
4.8203 2.2208 -0.2068
4.8192 2.2167 -0.2190
4.8253 2.2103 -0.2273
4.8314 2.2040 -0.2353
4.8337 2.1946 -0.2570
4.8362 2.1894 -0.2670
4.8387 2.1844 -0.2770
4.8420 2.1791 -0.2862
4.8454 2.1738 -0.2953
4.8461 2.1692 -0.3065
4.8477 2.1644 -0.3170
4.8501 2.1594 -0.3267
4.8500 2.1549 -0.3387
4.8500 2.1504 -0.3509
4.8557 2.1449 -0.3572
4.8590 2.1399 -0.3659
4.8548 2.1358 -0.3826
4.8564 2.1310 -0.3931
4.8555 2.1264 -0.4065
4.8588 2.1214 -0.4152
4.8604 2.1165 -0.4258
4.8620 2.1116 -0.4364
4.8620 2.1068 -0.4491
4.8636 2.1020 -0.4597
4.8621 2.0971 -0.4747
4.8621 2.0922 -0.4877
4.8598 2.0872 -0.5043
2.8894 3.6183 0.9232
3.1130 3.4524 0.7858
3.0080 3.4629 0.6740
4.7958 2.2445 -0.1418
4.8058 2.2364 -0.1497
4.8140 2.2292 -0.1579
4.8165 2.2240 -0.1680
4.8199 2.2185 -0.1777
4.8215 2.2137 -0.1882
4.8250 2.2084 -0.1977
4.8238 2.2044 -0.2096
4.8299 2.1983 -0.2175
4.8351 2.1925 -0.2257
4.8400 2.1826 -0.2450
4.8407 2.1782 -0.2558
4.8449 2.1728 -0.2642
4.8465 2.1682 -0.2743
4.8480 2.1635 -0.2845
4.8496 2.1588 -0.2946
4.8511 2.1542 -0.3048
4.8518 2.1497 -0.3157
4.8542 2.1448 -0.3251
4.8558 2.1402 -0.3352
4.8582 2.1354 -0.3446
4.8571 2.1310 -0.3573
4.8587 2.1264 -0.3675
4.8577 2.1219 -0.3805
4.8601 2.1171 -0.3898
4.8567 2.1127 -0.4059
4.8616 2.1078 -0.4123
4.8623 2.1031 -0.4236
4.8598 2.0984 -0.4392
4.8630 2.0936 -0.4475
4.8605 2.0888 -0.4634
4.8613 2.0839 -0.4750
4.8637 2.0791 -0.4844
2.8251 3.5684 0.8927
4.8031 2.2348 -0.1231
4.8153 2.2262 -0.1303
4.8178 2.2212 -0.1401
4.8193 2.2166 -0.1503
4.8237 2.2110 -0.1594
4.8281 2.2055 -0.1683
4.8296 2.2009 -0.1783
4.8311 2.1962 -0.1883
4.8373 2.1904 -0.1959
4.8360 2.1865 -0.2074
4.8394 2.1815 -0.2163
4.8436 2.1763 -0.2245
4.8470 2.1713 -0.2332
4.8466 2.1672 -0.2442
4.8481 2.1627 -0.2541
4.8487 2.1583 -0.2646
4.8502 2.1538 -0.2745
4.8535 2.1490 -0.2829
4.8541 2.1446 -0.2935
4.8556 2.1401 -0.3034
4.8554 2.1358 -0.3148
4.8578 2.1311 -0.3239
4.8567 2.1269 -0.3362
4.8564 2.1224 -0.3479
4.8597 2.1177 -0.3562
4.8603 2.1132 -0.3670
4.8593 2.1087 -0.3798
4.8591 2.1042 -0.3918
4.8589 2.0996 -0.4039
4.8613 2.0949 -0.4130
4.8627 2.0856 -0.4354
4.8618 2.0808 -0.4488
4.8600 2.0760 -0.4635
4.8608 2.0712 -0.4750
4.8607 2.0663 -0.4878
2.9529 3.4039 0.7925
2.9610 3.3797 0.7398
4.8045 2.2277 -0.1074
4.8158 2.2197 -0.1148
4.8232 2.2132 -0.1230
4.8300 2.2030 -0.1412
4.8353 2.1975 -0.1494
4.8358 2.1933 -0.1594
4.8344 2.1897 -0.1703
4.8378 2.1847 -0.1791
4.8384 2.1805 -0.1892
4.8455 2.1747 -0.1959
4.8441 2.1710 -0.2070
4.8475 2.1662 -0.2155
4.8461 2.1624 -0.2268
4.8485 2.1578 -0.2358
4.8481 2.1537 -0.2467
4.8533 2.1486 -0.2537
4.8547 2.1442 -0.2633
4.8553 2.1400 -0.2735
4.8558 2.1357 -0.2838
4.8546 2.1316 -0.2957
4.8578 2.1270 -0.3038
4.8584 2.1226 -0.3142
4.8563 2.1185 -0.3272
4.8578 2.1140 -0.3369
4.8611 2.1094 -0.3449
4.8599 2.1051 -0.3574
4.8596 2.1007 -0.3690
4.8611 2.0962 -0.3788
4.8617 2.0916 -0.3896
4.8598 2.0871 -0.4035
4.8613 2.0825 -0.4135
4.8611 2.0779 -0.4255
4.8635 2.0733 -0.4344
4.8616 2.0685 -0.4488
4.8606 2.0637 -0.4623
4.8604 2.0589 -0.4748
2.8338 3.3866 0.7818
2.8422 3.3614 0.7271
4.8183 2.2088 -0.1098
4.8247 2.2029 -0.1180
4.8341 2.1962 -0.1250
4.8355 2.1919 -0.1344
4.8370 2.1876 -0.1438
4.8384 2.1833 -0.1531
4.8447 2.1778 -0.1604
4.8461 2.1736 -0.1697
4.8465 2.1695 -0.1794
4.8479 2.1653 -0.1887
4.8455 2.1618 -0.2000
4.8498 2.1569 -0.2077
4.8531 2.1523 -0.2159
4.8536 2.1482 -0.2257
4.8541 2.1441 -0.2356
4.8545 2.1400 -0.2456
4.8578 2.1354 -0.2536
4.8574 2.1314 -0.2642
4.8569 2.1273 -0.2750
4.8565 2.1232 -0.2858
4.8570 2.1189 -0.2960
4.8585 2.1146 -0.3055
4.8590 2.1103 -0.3158
4.8595 2.1060 -0.3261
4.8601 2.1017 -0.3365
4.8615 2.0973 -0.3460
4.8612 2.0929 -0.3574
4.8600 2.0885 -0.3698
4.8606 2.0841 -0.3804
4.8611 2.0796 -0.3911
4.8591 2.0750 -0.4049
4.8615 2.0705 -0.4136
4.8612 2.0659 -0.4256
4.8601 2.0612 -0.4387
4.8581 2.0563 -0.4531
4.8588 2.0516 -0.4643
2.3905 3.4298 0.6208
2.4004 3.3999 0.5558
2.2550 3.4413 0.5186
4.8150 2.2001 -0.1063
4.8317 2.1916 -0.1116
4.8361 2.1865 -0.1199
4.8385 2.1821 -0.1287
4.8399 2.1779 -0.1379
4.8423 2.1735 -0.1466
4.8447 2.1691 -0.1553
4.8500 2.1641 -0.1626
4.8533 2.1596 -0.1706
4.8518 2.1560 -0.1810
4.8502 2.1524 -0.1916
4.8526 2.1481 -0.2001
4.8530 2.1441 -0.2097
4.8534 2.1400 -0.2194
4.8561 2.1317 -0.2375
4.8566 2.1276 -0.2473
4.8589 2.1233 -0.2557
4.8584 2.1193 -0.2663
4.8589 2.1152 -0.2761
4.8584 2.1111 -0.2868
4.8588 2.1069 -0.2969
4.8593 2.1027 -0.3069
4.8598 2.0984 -0.3170
4.8594 2.0942 -0.3281
4.8580 2.0899 -0.3401
4.8613 2.0856 -0.3477
4.8609 2.0812 -0.3589
4.8569 2.0767 -0.3742
4.8611 2.0724 -0.3808
4.8634 2.0681 -0.3892
4.8631 2.0636 -0.4008
4.8592 2.0587 -0.4167
4.8580 2.0540 -0.4297
4.8568 2.0492 -0.4428
4.8574 2.0446 -0.4538
2.5411 3.3824 0.8219
2.4748 3.3909 0.7842
2.4461 3.3806 0.7331
2.3741 3.3895 0.6911
2.2526 3.4192 0.6566
2.1930 3.4193 0.6039
4.8278 2.1836 -0.1086
4.8375 2.1774 -0.1153
4.8439 2.1721 -0.1226
4.8463 2.1679 -0.1310
4.8466 2.1640 -0.1402
4.8490 2.1598 -0.1486
4.8503 2.1558 -0.1574
4.8517 2.1517 -0.1662
4.8520 2.1478 -0.1755
4.8523 2.1439 -0.1848
4.8547 2.1397 -0.1931
4.8560 2.1357 -0.2019
4.8564 2.1318 -0.2113
4.8577 2.1277 -0.2201
4.8591 2.1236 -0.2290
4.8594 2.1197 -0.2385
4.8589 2.1157 -0.2487
4.8573 2.1118 -0.2598
4.8597 2.1076 -0.2680
4.8581 2.1036 -0.2793
4.8586 2.0995 -0.2891
4.8590 2.0953 -0.2990
4.8604 2.0912 -0.3081
4.8599 2.0870 -0.3189
4.8613 2.0828 -0.3280
4.8599 2.0785 -0.3399
4.8594 2.0741 -0.3510
4.8608 2.0699 -0.3603
4.8595 2.0654 -0.3725
4.8590 2.0610 -0.3839
4.8586 2.0565 -0.3954
4.8574 2.0518 -0.4080
4.8570 2.0472 -0.4197
4.8548 2.0423 -0.4337
4.8563 2.0379 -0.4434
2.2883 3.5058 1.0828
2.3614 3.4463 0.9968
2.2869 3.4572 0.9626
2.1614 3.4901 0.9408
2.3064 3.3984 0.8347
2.3162 3.3690 0.7707
2.3259 3.3396 0.7067
2.1309 3.3973 0.6891
2.0669 3.3969 0.6358
1.9562 3.3850 0.5167
1.8826 3.3845 0.4553
4.8370 2.1691 -0.1113
4.8425 2.1642 -0.1188
4.8480 2.1594 -0.1261
4.8503 2.1553 -0.1343
4.8506 2.1515 -0.1433
4.8540 2.1472 -0.1510
4.8542 2.1435 -0.1600
4.8558 2.1357 -0.1776
4.8561 2.1319 -0.1867
4.8564 2.1280 -0.1959
4.8568 2.1242 -0.2051
4.8581 2.1202 -0.2138
4.8604 2.1161 -0.2218
4.8577 2.1124 -0.2331
4.8571 2.1085 -0.2432
4.8584 2.1045 -0.2520
4.8588 2.1005 -0.2615
4.8601 2.0964 -0.2703
4.8595 2.0924 -0.2807
4.8609 2.0883 -0.2895
4.8613 2.0842 -0.2992
4.8597 2.0800 -0.3107
4.8592 2.0758 -0.3214
4.8577 2.0715 -0.3332
4.8591 2.0673 -0.3422
4.8586 2.0630 -0.3533
4.8600 2.0588 -0.3624
4.8567 2.0541 -0.3766
4.8571 2.0498 -0.3869
4.8558 2.0451 -0.3993
4.8553 2.0405 -0.4109
4.8540 2.0358 -0.4236
4.8536 2.0311 -0.4354
2.3126 3.3499 0.8942
2.1211 3.4071 0.8902
2.1777 3.3569 0.8107
2.1415 3.3455 0.7562
1.9613 3.3628 0.6639
1.9448 3.3405 0.5976
1.7542 3.3830 0.5586
1.4696 3.4563 0.5244
4.8421 2.1600 -0.1059
4.8445 2.1559 -0.1141
4.8489 2.1514 -0.1216
4.8523 2.1472 -0.1293
4.8546 2.1432 -0.1372
4.8559 2.1394 -0.1456
4.8572 2.1355 -0.1539
4.8553 2.1321 -0.1636
4.8556 2.1283 -0.1725
4.8558 2.1246 -0.1815
4.8561 2.1208 -0.1905
4.8574 2.1169 -0.1990
4.8577 2.1130 -0.2081
4.8590 2.1091 -0.2166
4.8593 2.1053 -0.2258
4.8606 2.1013 -0.2343
4.8612 2.0935 -0.2528
4.8625 2.0896 -0.2614
4.8578 2.0855 -0.2746
4.8582 2.0815 -0.2842
4.8585 2.0774 -0.2938
4.8589 2.0733 -0.3034
4.8592 2.0692 -0.3131
4.8586 2.0650 -0.3237
4.8590 2.0608 -0.3336
4.8594 2.0567 -0.3434
4.8589 2.0523 -0.3543
4.8545 2.0475 -0.3693
4.8559 2.0433 -0.3785
4.8563 2.0389 -0.3887
4.8511 2.0337 -0.4054
4.8506 2.0290 -0.4169
2.1355 3.4062 1.0738
2.0741 3.4064 1.0325
2.0842 3.3758 0.9661
2.0459 3.3649 0.9137
2.0809 3.3241 0.8395
1.9128 3.3623 0.8173
1.8686 3.3505 0.7591
1.7351 3.3708 0.7173
1.6850 3.3585 0.6537
1.4429 3.3793 0.5394
1.3450 3.3784 0.4708
3.1165 2.6131 -0.1657
4.8456 2.1480 -0.1099
4.8501 2.1437 -0.1172
4.8525 2.1398 -0.1250
4.8537 2.1360 -0.1333
4.8539 2.1324 -0.1419
4.8562 2.1285 -0.1497
4.8564 2.1248 -0.1583
4.8598 2.1208 -0.1656
4.8558 2.1175 -0.1764
4.8591 2.1135 -0.1836
4.8593 2.1098 -0.1924
4.8596 2.1060 -0.2013
4.8608 2.1022 -0.2096
4.8611 2.0984 -0.2186
4.8623 2.0946 -0.2269
4.8595 2.0907 -0.2380
4.8588 2.0868 -0.2479
4.8611 2.0830 -0.2556
4.8593 2.0790 -0.2664
4.8606 2.0751 -0.2749
4.8609 2.0711 -0.2843
4.8602 2.0670 -0.2945
4.8605 2.0630 -0.3040
4.8569 2.0585 -0.3171
4.8563 2.0543 -0.3277
4.8556 2.0500 -0.3384
4.8540 2.0456 -0.3502
4.8535 2.0412 -0.3611
4.8529 2.0368 -0.3722
4.8523 2.0323 -0.3833
4.8518 2.0277 -0.3945
4.8503 2.0230 -0.4070
4.8479 2.0180 -0.4207
4.3551 0.1029 0.3230
4.3366 0.1209 0.3256
4.3039 0.1188 0.3331
3.3253 -0.0088 0.5618
3.2712 0.0198 0.5715
3.1069 -0.0280 0.6121
-0.5273 3.5118 1.1276
0.1263 3.4681 0.9855
4.3180 0.1302 0.2984
3.3571 -0.0607 0.5055
3.2226 -0.0236 0.5297
3.1498 -0.0038 0.5428
0.2646 3.4315 0.8603
0.2871 3.5107 0.8498
4.3967 0.1492 0.2522
4.3756 0.1616 0.2551
4.3473 0.1645 0.2599
3.3933 -0.0382 0.4434
3.3529 -0.0011 0.4481
3.2115 -0.0390 0.4758
2.4341 1.8224 0.4863
2.4897 1.8755 0.4728
-0.3575 3.3848 0.8755
0.2112 3.3785 0.7748
0.3978 3.3961 0.7404
4.3741 0.1496 0.2263
4.3208 0.1151 0.2366
4.2696 0.0880 0.2462
4.1274 -0.0630 0.2775
4.0663 -0.0908 0.2886
4.1682 0.4331 0.2408
4.0623 0.3758 0.2607
3.3867 -0.1958 0.4003
3.4027 -0.1088 0.3925
3.3500 -0.0822 0.3990
3.2454 -0.0943 0.4159
3.1445 -0.0972 0.4317
3.0806 -0.0674 0.4398
2.9659 -0.0694 0.4577
2.3898 1.8338 0.4305
2.4860 1.8824 0.4126
2.0795 2.0065 0.4679
-0.3665 3.5101 0.7547
0.1802 3.4069 0.6763
0.4224 3.4030 0.6391
4.4115 0.1533 0.1909
4.3817 0.1518 0.1949
4.3506 0.1505 0.1990
4.2955 0.1161 0.2081
4.2562 0.1088 0.2137
4.1517 0.0152 0.2325
4.0902 0.3964 0.2201
3.4561 -0.1409 0.3323
3.3824 -0.1351 0.3417
3.3640 -0.0783 0.3411
3.2725 -0.0802 0.3532
3.2660 -0.0116 0.3504
3.1534 -0.0213 0.3657
3.1051 0.0204 0.3699
2.2574 1.8559 0.3829
2.5202 1.8840 0.3468
2.2583 1.9851 0.3759
-0.1374 3.6426 0.6021
4.4062 0.1808 0.1604
4.3793 0.1847 0.1631
4.3422 0.1753 0.1676
4.2891 0.1460 0.1747
4.0761 0.3767 0.1871
3.3804 -0.2198 0.2896
3.2870 -0.2280 0.3001
3.3184 -0.1248 0.2920
3.3118 -0.0562 0.2895
3.2420 -0.0372 0.2962
3.2615 0.0511 0.2900
3.1487 0.0443 0.3025
3.0856 0.0771 0.3078
1.9736 1.5994 0.3578
2.1814 1.6644 0.3324
2.3184 1.7241 0.3149
2.4207 1.9047 0.2955
2.4199 1.9658 0.2928
2.6472 2.0916 0.2624
4.4086 0.1747 0.1304
4.3988 0.2050 0.1301
4.3799 0.2220 0.1310
4.3367 0.2049 0.1353
4.3134 0.2187 0.1367
3.1722 -0.4229 0.2573
3.3518 -0.1794 0.2328
3.3085 -0.1415 0.2350
3.3262 -0.0522 0.2301
3.3899 0.0699 0.2201
3.2634 0.0458 0.2317
3.1774 0.0580 0.2384
2.9389 0.0548 0.2586
2.4725 1.1057 0.2576
2.3387 1.1626 0.2667
2.3821 1.3849 0.2545
2.5540 1.7726 0.2252
2.1293 1.8853 0.2566
2.3548 1.9837 0.2339
4.4617 0.2060 0.0958
4.4393 0.2141 0.0969
4.4165 0.2231 0.0980
4.3935 0.2330 0.0991
4.3806 0.2592 0.0990
4.3472 0.2569 0.1011
3.3424 -0.1968 0.1752
3.3715 -0.0961 0.1704
3.3641 -0.0290 0.1687
3.3217 0.0101 0.1701
3.2389 0.0209 0.1747
3.1224 0.0130 0.1820
3.0413 0.0355 0.1861
1.6843 0.6058 0.2501
2.2874 1.0818 0.1994
2.3109 1.1623 0.1956
2.2389 1.2317 0.1978
2.2632 1.3097 0.1939
2.4831 1.3930 0.1782
2.5308 1.8418 0.1617
2.5659 1.8967 0.1579
2.6836 1.9350 0.1497
2.6975 1.9874 0.1473
2.6291 2.0558 0.1493
2.5218 2.1354 0.1533
2.3483 2.2355 0.1606
2.5017 2.2521 0.1509
0.4034 3.6525 0.2340
0.2620 3.8034 0.2379
4.4710 0.2116 0.0661
4.4666 0.2487 0.0654
4.4319 0.2376 0.0669
4.4061 0.2429 0.0677
4.3651 0.2277 0.0694
4.3361 0.2326 0.0704
4.2922 0.2194 0.0722
4.1495 0.3830 0.0736
3.4677 -0.1660 0.1101
3.4274 -0.1294 0.1107
3.4200 -0.0627 0.1095
3.3904 -0.0151 0.1095
3.3361 0.0140 0.1107
3.2537 0.0251 0.1134
3.1380 0.0173 0.1177
3.0258 0.0189 0.1216
2.9037 0.0208 0.1259
1.7782 0.6300 0.1520
2.2067 1.1533 0.1251
2.2318 1.2346 0.1223
2.2814 1.3148 0.1188
2.7538 1.4689 0.0986
2.8320 1.7550 0.0893
2.6012 1.8391 0.0956
2.5786 1.9597 0.0937
1.9681 2.2055 0.1098
1.9713 2.2734 0.1081
2.0991 2.3081 0.1028
2.4228 2.2823 0.0919
0.5319 3.6128 0.1289
1.0416 3.4585 0.1144
4.4901 0.2338 0.0361
4.4567 0.2228 0.0366
4.4313 0.2272 0.0368
4.3939 0.2150 0.0374
4.3868 0.2504 0.0370
4.3440 0.2348 0.0377
4.3004 0.2216 0.0383
4.2897 0.2549 0.0379
4.1754 0.4031 0.0370
4.0405 0.3158 0.0397
3.5841 -0.0652 0.0501
3.5273 -0.0479 0.0504
3.4230 -0.0683 0.0518
3.3075 -0.0912 0.0534
3.3383 0.0085 0.0516
3.3439 0.0854 0.0504
3.1677 0.0316 0.0531
3.1331 0.0847 0.0527
2.7917 -0.0566 0.0583
1.7304 0.6186 0.0598
1.9984 0.7784 0.0546
1.9708 0.8638 0.0537
1.4468 0.8663 0.0592
1.2871 0.9467 0.0597
1.9183 1.1237 0.0505
1.5190 1.2719 0.0526
2.4962 1.4015 0.0403
2.7852 1.7655 0.0320
1.3274 2.0996 0.0426
1.1767 2.2122 0.0425
1.4936 2.2381 0.0388
1.7910 2.2533 0.0354
2.0909 2.2542 0.0322
2.1865 2.2947 0.0306
2.2755 2.3322 0.0292
0.2096 3.6856 0.0314
0.6059 3.5971 0.0285
4.4562 0.2120 0.0066
4.4337 0.2213 0.0062
4.3842 0.1906 0.0057
4.3652 0.2093 0.0053
4.3194 0.1907 0.0048
4.2847 0.1911 0.0043
4.0550 0.1095 0.0014
4.1371 0.3568 0.0011
3.5782 -0.0797 -0.0043
3.5508 -0.0350 -0.0050
3.4371 -0.0644 -0.0064
3.4067 -0.0172 -0.0072
3.1832 0.0359 -0.0108
1.6435 0.5974 -0.0368
2.1072 0.8037 -0.0313
1.3019 0.8449 -0.0433
1.3555 0.9597 -0.0433
1.9996 1.1363 -0.0350
2.1945 1.2385 -0.0328
1.9755 1.3043 -0.0364
2.4297 1.4033 -0.0305
2.0094 1.4699 -0.0370
1.8651 1.5519 -0.0396
2.6538 1.7256 -0.0292
2.5979 1.7917 -0.0305
0.8037 2.0911 -0.0585
0.8198 2.1884 -0.0589
1.2814 2.2042 -0.0523
1.4791 2.2511 -0.0497
1.7802 2.2654 -0.0454
2.0335 2.2773 -0.0418
2.1574 2.3116 -0.0402
2.4347 2.2963 -0.0361
0.4574 3.5958 -0.0731
0.7262 3.5598 -0.0690
4.4481 0.1885 -0.0243
4.4192 0.1883 -0.0255
4.3892 0.1883 -0.0267
4.3514 0.1791 -0.0282
4.3107 0.1688 -0.0298
4.0517 -0.0790 -0.0407
4.0620 0.0520 -0.0400
4.0541 0.0994 -0.0403
4.0354 0.1340 -0.0409
4.0491 0.2044 -0.0403
4.0771 0.2873 -0.0390
3.5513 -0.1144 -0.0608
3.4697 -0.1177 -0.0641
3.3818 -0.1212 -0.0676
3.3625 -0.0618 -0.0683
3.4586 0.0890 -0.0641
3.4294 0.1363 -0.0652
3.2919 0.1070 -0.0708
3.1924 0.1124 -0.0747
2.9715 0.0458 -0.0837
1.9826 0.8697 -0.1218
2.1024 0.9804 -0.1168
2.1313 1.0705 -0.1154
2.1600 1.1575 -0.1141
2.3129 1.2522 -0.1078
2.2633 1.3257 -0.1097
2.2877 1.4029 -0.1086
2.0571 1.4756 -0.1177
1.9159 1.5571 -0.1232
1.9480 1.6371 -0.1217
2.6515 1.7314 -0.0934
2.0259 2.2886 -0.1174
2.2205 2.3041 -0.1096
2.4502 2.3006 -0.1004
0.6365 3.5347 -0.1707
0.8859 3.5036 -0.1608
4.3672 0.1442 -0.0615
4.0740 0.2236 -0.0800
4.0914 0.2949 -0.0781
3.5129 -0.1607 -0.1209
3.5471 -0.0556 -0.1176
3.4313 -0.0865 -0.1255
3.4577 0.0097 -0.1228
3.4504 0.0753 -0.1226
3.4860 0.1726 -0.1192
3.3914 0.1720 -0.1255
2.9772 -0.0404 -0.1550
3.0218 0.0720 -0.1509
1.2976 0.7392 -0.2576
2.0651 0.9766 -0.2046
2.0180 1.3989 -0.2034
2.3299 1.4826 -0.1820
2.3974 1.5541 -0.1768
2.3745 1.6249 -0.1776
2.6494 1.7373 -0.1584
2.7331 1.7884 -0.1523
2.6789 1.8538 -0.1552
0.4340 3.5536 -0.2857
0.5599 3.5864 -0.2771
0.6289 3.6398 -0.2720
4.3825 0.1079 -0.0951
4.1844 0.3373 -0.1090
3.4608 -0.2208 -0.1861
3.4058 -0.1950 -0.1907
3.3987 -0.1239 -0.1900
3.4493 -0.0053 -0.1831
3.5173 0.1216 -0.1745
3.4894 0.1686 -0.1762
3.3085 0.1059 -0.1940
3.0437 -0.0019 -0.2204
1.2656 0.6209 -0.3725
1.2777 0.7376 -0.3692
1.3338 0.8587 -0.3617
1.8072 1.0319 -0.3149
0.6989 1.0046 -0.4175
1.2230 1.4827 -0.3603
1.6314 1.5752 -0.3209
2.3468 1.6318 -0.2540
2.4752 1.6933 -0.2410
2.5143 1.7558 -0.2363
2.5895 1.8112 -0.2283
2.7107 1.8556 -0.2163
4.3294 0.3582 -0.1292
4.2555 0.3621 -0.1379
4.2367 0.3879 -0.1394
3.5072 0.0356 -0.2356
3.5208 0.1173 -0.2317
3.4153 0.1053 -0.2446
3.1598 -0.0087 -0.2780
3.0604 0.0028 -0.2895
1.0677 0.3307 -0.5169
0.8639 0.4048 -0.5390
1.0979 0.5854 -0.5064
1.3495 0.7536 -0.4719
1.7200 0.9248 -0.4233
1.9595 1.0557 -0.3913
1.8673 1.1359 -0.4001
1.1663 1.1702 -0.4823
0.8787 1.2627 -0.5139
0.9475 1.3786 -0.5025
1.2922 1.4898 -0.4586
1.4673 1.5856 -0.4352
1.9203 1.6579 -0.3795
2.3413 1.7088 -0.3282
4.3454 0.2775 -0.1642
4.3508 0.3317 -0.1615
4.2931 0.3520 -0.1691
4.2496 0.3477 -0.1756
4.2022 0.3423 -0.1827
3.0414 -0.7508 -0.3910
2.9419 -0.7496 -0.4055
3.1782 -0.4276 -0.3595
3.3018 -0.2286 -0.3343
3.5424 0.0576 -0.2890
3.5137 0.1043 -0.2915
3.3459 0.0449 -0.3180
3.2047 0.0167 -0.3396
3.0933 0.0186 -0.3557
1.8174 -0.6055 -0.5639
1.7662 -0.0277 -0.5506
1.6946 0.0581 -0.5579
1.6746 0.3912 -0.5488
1.8298 0.5443 -0.5207
1.6492 0.6021 -0.5449
1.8383 0.7503 -0.5121
1.7737 0.8370 -0.5183
1.7779 0.9370 -0.5141
2.0420 1.0699 -0.4709
1.9528 1.1488 -0.4811
1.5754 1.2080 -0.5339
1.8317 1.3195 -0.4925
1.8362 1.4092 -0.4887
2.4047 1.6406 -0.3976
2.4682 1.7056 -0.3860
2.3811 1.7813 -0.3960
0.6380 2.5851 -0.6207
0.7110 2.6661 -0.6072
0.6766 2.7724 -0.6083
0.5878 2.8950 -0.6168
0.4971 3.0205 -0.6255
0.5182 3.1102 -0.6192
0.5934 3.1781 -0.6058
0.6642 3.2432 -0.5932
0.9670 3.2114 -0.5503
0.9361 3.3066 -0.5513
4.4050 0.2586 -0.1899
3.5203 -0.3507 -0.3701
3.2248 -0.5756 -0.4313
3.1867 -0.5219 -0.4355
3.1951 -0.4229 -0.4296
3.4309 -0.1225 -0.3754
3.5658 0.0697 -0.3434
3.5061 0.0907 -0.3528
3.3476 0.0388 -0.3825
3.2348 0.0316 -0.4023
3.0938 0.0121 -0.4276
2.5799 -0.2428 -0.5278
2.4778 -0.2061 -0.5438
2.2843 -0.2171 -0.5778
2.2841 -0.1107 -0.5730
2.2844 -0.0061 -0.5683
2.2261 0.0686 -0.5750
2.1671 0.1451 -0.5818
2.1680 0.2479 -0.5770
2.0771 0.3144 -0.5897
2.1408 0.4378 -0.5732
2.2290 0.5630 -0.5523
2.2565 0.6639 -0.5431
2.2840 0.7615 -0.5339
2.2835 0.8497 -0.5301
2.2034 0.9211 -0.5407
2.2307 1.0130 -0.5319
2.3097 1.1087 -0.5139
2.3824 1.1980 -0.4974
2.0371 1.2490 -0.5548
2.0393 1.3352 -0.5505
2.3568 1.4278 -0.4915
2.4685 1.5026 -0.4688
2.4234 1.5746 -0.4734
2.3316 1.6502 -0.4859
2.5055 1.7088 -0.4532
2.4629 1.7796 -0.4574
2.3756 1.8570 -0.4690
2.4181 1.9182 -0.4589
1.8608 2.1562 -0.5446
1.4641 2.3181 -0.6059
1.3179 2.4366 -0.6258
1.3285 2.5193 -0.6203
1.2986 2.6116 -0.6213
1.1871 2.7288 -0.6353
1.1137 2.8369 -0.6432
1.0829 2.9322 -0.6442
1.1791 2.9811 -0.6254
1.2298 3.0425 -0.6139
1.2005 3.1330 -0.6149
1.1712 3.2236 -0.6159
1.1007 3.3323 -0.6232
1.0712 3.4238 -0.6242
1.0833 3.4952 -0.6189
3.5398 -1.2497 -0.4787
3.4781 -0.6675 -0.4597
3.5521 -0.4917 -0.4355
3.5762 -0.3817 -0.4247
3.5129 -0.3706 -0.4368
3.4085 -0.3981 -0.4592
3.3747 -0.3477 -0.4633
3.3406 -0.2965 -0.4674
3.4577 -0.1076 -0.4337
3.5061 0.0104 -0.4177
3.4540 0.0406 -0.4265
3.3379 0.0238 -0.4507
3.2223 0.0151 -0.4743
3.1106 0.0167 -0.4966
2.9349 -0.0168 -0.5336
2.9483 0.0787 -0.5258
2.8507 0.1067 -0.5439
2.8461 0.1909 -0.5403
2.8410 0.2736 -0.5369
2.8175 0.3462 -0.5377
2.7553 0.4016 -0.5472
2.7706 0.4914 -0.5393
2.6865 0.5412 -0.5535
2.5539 0.5783 -0.5780
2.6384 0.6899 -0.5551
2.7172 0.7931 -0.5337
2.6331 0.8493 -0.5476
2.5883 0.9178 -0.5529
2.5421 0.9873 -0.5584
2.4965 1.0582 -0.5637
2.4940 1.1360 -0.5601
2.5577 1.2196 -0.5428
2.4238 1.2830 -0.5662
2.4675 1.3614 -0.5533
2.6309 1.4389 -0.5163
2.5284 1.5074 -0.5332
2.4848 1.5783 -0.5381
2.4179 1.6516 -0.5476
2.3714 1.7254 -0.5530
2.3937 1.7933 -0.5448
2.6166 1.8335 -0.4980
2.3702 1.9327 -0.5420
2.4128 1.9922 -0.5303
2.3012 2.0790 -0.5480
2.1329 2.1824 -0.5762
1.9466 2.2965 -0.6074
1.8625 2.3908 -0.6192
1.9240 2.4461 -0.6039
1.9547 2.5070 -0.5945
1.9575 2.5748 -0.5902
1.9329 2.6510 -0.5911
1.9351 2.7173 -0.5871
1.8836 2.8034 -0.5928
1.8589 2.8796 -0.5936
1.7769 2.9804 -0.6047
1.7217 3.0713 -0.6108
4.2875 0.1690 -0.2913
3.4519 -0.8081 -0.5437
3.4041 -0.7744 -0.5524
3.5094 -0.5561 -0.5147
3.5691 -0.4023 -0.4913
3.5717 -0.3186 -0.4855
3.5190 -0.2947 -0.4960
3.3299 -0.3174 -0.5407
3.5064 -0.0726 -0.4849
3.5730 0.0600 -0.4614
3.4572 0.0354 -0.4894
3.3140 -0.0026 -0.5245
3.2804 0.0507 -0.5289
3.1581 0.0430 -0.5573
3.0893 0.0785 -0.5708
3.0511 0.1367 -0.5759
3.0615 0.2246 -0.5680
3.0396 0.2923 -0.5687
2.9844 0.3430 -0.5781
2.9789 0.4198 -0.5746
2.9739 0.4956 -0.5710
2.9854 0.5770 -0.5632
2.9300 0.6311 -0.5725
2.8556 0.6808 -0.5863
2.7961 0.7385 -0.5963
2.8108 0.8193 -0.5879
2.8064 0.8931 -0.5842
2.7660 0.9579 -0.5894
2.7802 1.0341 -0.5814
2.7212 1.0964 -0.5909
2.7174 1.1681 -0.5873
2.6952 1.2369 -0.5881
2.6919 1.3071 -0.5844
2.6698 1.3754 -0.5851
2.7229 1.4453 -0.5686
2.6256 1.5119 -0.5867
2.4806 1.5838 -0.6153
2.5002 1.6529 -0.6065
2.5594 1.7166 -0.5889
2.5373 1.7849 -0.5897
2.6508 1.8356 -0.5606
2.5534 1.9122 -0.5780
2.4505 1.9933 -0.5964
2.4906 2.0496 -0.5837
2.4269 2.1262 -0.5935
2.4048 2.1944 -0.5942
2.4040 2.2570 -0.5905
2.3392 2.3371 -0.6002
2.3170 2.4059 -0.6010
2.2730 2.4819 -0.6063
2.2725 2.5434 -0.6025
2.2724 2.6040 -0.5988
2.2280 2.6809 -0.6041
2.2058 2.7497 -0.6048
2.1609 2.8282 -0.6101
2.1385 2.8975 -0.6109
2.0679 2.9894 -0.6213
2.0694 3.0479 -0.6172
4.2852 0.1557 -0.3321
4.2536 0.1655 -0.3395
3.8417 -0.2441 -0.4749
3.7401 -0.2941 -0.5046
3.7320 -0.2283 -0.5020
3.6275 -0.2693 -0.5318
3.6089 -0.2118 -0.5324
3.5803 -0.1643 -0.5363
3.5616 -0.1064 -0.5370
3.5742 -0.0199 -0.5275
3.5558 0.0369 -0.5281
3.6184 0.1607 -0.5031
3.4170 0.0704 -0.5614
3.4221 0.1489 -0.5544
3.3665 0.1826 -0.5663
3.3586 0.2510 -0.5634
3.3392 0.3111 -0.5641
3.3078 0.3643 -0.5683
3.2882 0.4248 -0.5690
3.2686 0.4854 -0.5696
3.2613 0.5518 -0.5667
3.2933 0.6349 -0.5525
3.2224 0.6722 -0.5681
3.2554 0.7522 -0.5538
3.2236 0.8064 -0.5581
3.2433 0.8775 -0.5479
3.2246 0.9353 -0.5485
3.2312 0.9995 -0.5422
3.1340 1.0395 -0.5643
3.0430 1.0853 -0.5844
3.0811 1.1559 -0.5695
3.1310 1.2247 -0.5517
3.0985 1.2812 -0.5560
3.0796 1.3394 -0.5567
2.9287 1.3915 -0.5917
2.9693 1.4545 -0.5767
3.0231 1.5142 -0.5586
3.0320 1.5715 -0.5522
3.0134 1.6291 -0.5528
2.9812 1.6877 -0.5569
2.9477 1.7472 -0.5612
2.9575 1.8016 -0.5547
2.8330 1.8757 -0.5814
2.7316 1.9506 -0.6021
2.7115 2.0128 -0.6027
2.7253 2.0673 -0.5953
2.7055 2.1287 -0.5959
2.7201 2.1808 -0.5884
2.6826 2.2466 -0.5933
2.6968 2.2969 -0.5861
2.6260 2.3742 -0.5987
2.6418 2.4230 -0.5911
2.5863 2.4970 -0.6000
2.4915 2.6427 -0.6139
2.4871 2.8039 -0.6034
4.3313 0.1590 -0.3587
4.3129 0.1847 -0.3619
4.2971 0.2149 -0.3640
4.2628 0.2212 -0.3733
4.2430 0.2481 -0.3767
3.6843 0.0021 -0.5565
3.6940 0.0812 -0.5473
3.6398 0.1020 -0.5611
3.6023 0.1399 -0.5687
3.5845 0.1950 -0.5693
3.5464 0.2349 -0.5769
3.5390 0.2982 -0.5739
3.5211 0.3536 -0.5745
3.5233 0.4217 -0.5683
3.5267 0.4890 -0.5619
3.4776 0.5256 -0.5730
3.4598 0.5806 -0.5736
3.4462 0.7007 -0.5677
3.3956 0.7415 -0.5788
3.3777 0.7969 -0.5794
3.3528 0.9112 -0.5772
3.3350 0.9663 -0.5778
3.3172 1.0214 -0.5784
3.2994 1.0765 -0.5791
3.2815 1.1316 -0.5797
3.2398 1.2980 -0.5781
3.1984 1.3511 -0.5856
3.2292 1.4087 -0.5721
3.1997 1.4626 -0.5761
3.1568 1.5172 -0.5839
3.1267 1.5727 -0.5880
3.1335 1.6266 -0.5817
3.1033 1.6825 -0.5858
3.0980 1.7362 -0.5829
3.0940 1.7891 -0.5798
