ply
format ascii 1.0
element vertex 2140
property float x
property float y
property float z
end_header
2.7834 -1.4950 -0.1475
2.7665 -1.4972 -0.1555
2.7331 -1.5296 -0.1530
2.6669 -1.5907 -0.1501
2.6522 -1.6150 -0.1424
2.6336 -1.6186 -0.1505
2.6174 -1.6344 -0.1492
2.6025 -1.6546 -0.1444
2.5860 -1.6684 -0.1445
2.5337 -1.7025 -0.1515
2.5195 -1.7220 -0.1466
2.5019 -1.7336 -0.1490
2.4865 -1.7497 -0.1470
2.4679 -1.7599 -0.1508
2.4504 -1.7724 -0.1524
2.4370 -1.7913 -0.1475
2.4200 -1.8045 -0.1484
2.4015 -1.8156 -0.1514
2.3875 -1.8328 -0.1480
2.3710 -1.8467 -0.1482
2.3539 -1.8599 -0.1491
2.3421 -1.8786 -0.1435
2.3215 -1.8883 -0.1487
2.2911 -1.9181 -0.1462
2.2720 -1.9298 -0.1492
2.2555 -1.9437 -0.1494
2.2354 -1.9550 -0.1532
2.2203 -1.9699 -0.1519
2.2075 -1.9861 -0.1484
2.1895 -1.9991 -0.1501
2.1762 -2.0146 -0.1473
2.1598 -2.0284 -0.1475
2.1299 -2.0360 -0.1592
2.1235 -2.0545 -0.1507
2.0999 -2.0655 -0.1567
2.0878 -2.0812 -0.1533
2.0623 -2.1113 -0.1478
2.0401 -2.1234 -0.1523
2.0196 -2.1363 -0.1554
2.0030 -2.1502 -0.1556
1.9957 -2.1662 -0.1492
1.9793 -2.1799 -0.1494
1.9661 -2.1943 -0.1474
1.9464 -2.2075 -0.1497
1.9244 -2.2205 -0.1535
1.9090 -2.2345 -0.1530
1.8891 -2.2480 -0.1553
1.8749 -2.2621 -0.1540
1.8595 -2.2761 -0.1535
1.8369 -2.2896 -0.1573
1.8228 -2.3036 -0.1560
1.8126 -2.3177 -0.1525
2.8673 -1.3596 -0.1614
2.8491 -1.3815 -0.1575
2.8315 -1.3985 -0.1563
2.8138 -1.4177 -0.1538
2.7964 -1.4280 -0.1567
2.7787 -1.4362 -0.1610
2.7611 -1.4531 -0.1598
2.7444 -1.4837 -0.1497
2.7252 -1.4745 -0.1657
2.7072 -1.4874 -0.1672
2.6906 -1.5124 -0.1605
2.6721 -1.5213 -0.1648
2.6547 -1.5381 -0.1636
2.6388 -1.5624 -0.1569
2.6218 -1.5790 -0.1557
2.6054 -1.5982 -0.1525
2.5881 -1.6127 -0.1526
2.5688 -1.6212 -0.1577
2.5490 -1.6290 -0.1634
2.5338 -1.6506 -0.1580
2.5180 -1.6694 -0.1547
2.5027 -1.6888 -0.1508
2.4791 -1.6900 -0.1627
2.4646 -1.7109 -0.1574
2.4493 -1.7293 -0.1541
2.4363 -1.7512 -0.1473
2.4076 -1.7477 -0.1648
2.3839 -1.7930 -0.1493
2.3646 -1.8048 -0.1522
2.3473 -1.8193 -0.1524
2.3267 -1.8300 -0.1567
2.3140 -1.8495 -0.1514
2.2623 -1.8928 -0.1519
2.2465 -1.9084 -0.1507
2.2265 -1.9207 -0.1536
2.2121 -1.9372 -0.1510
2.1919 -1.9497 -0.1540
2.1793 -1.9670 -0.1500
2.1574 -1.9787 -0.1544
2.1418 -1.9941 -0.1531
2.1212 -2.0069 -0.1561
2.1005 -2.0199 -0.1591
2.0918 -2.0382 -0.1523
2.0746 -2.0526 -0.1525
2.0520 -2.0650 -0.1568
2.0309 -2.0783 -0.1598
2.0250 -2.0965 -0.1516
2.0098 -2.1114 -0.1504
1.9634 -2.1372 -0.1591
1.9502 -2.1527 -0.1565
1.9028 -2.1968 -0.1542
1.8789 -2.2103 -0.1586
1.8616 -2.2249 -0.1588
1.8384 -2.2388 -0.1625
1.8246 -2.2537 -0.1605
1.8169 -2.2690 -0.1551
1.8022 -2.2835 -0.1539
2.7740 -1.4019 -0.1566
2.7188 -1.4416 -0.1611
2.7006 -1.4591 -0.1600
2.6825 -1.4765 -0.1589
2.6463 -1.5092 -0.1579
2.6301 -1.5349 -0.1508
2.6111 -1.5454 -0.1543
2.5964 -1.5743 -0.1446
2.5776 -1.5857 -0.1474
2.5592 -1.5990 -0.1489
2.5430 -1.6192 -0.1451
2.5246 -1.6324 -0.1466
2.5047 -1.6425 -0.1508
2.4849 -1.6535 -0.1543
2.4688 -1.6726 -0.1512
2.4540 -1.6939 -0.1461
2.4413 -1.7179 -0.1383
2.4175 -1.7223 -0.1478
2.4006 -1.7387 -0.1466
2.3765 -1.7446 -0.1554
2.3640 -1.7673 -0.1483
2.3504 -1.7875 -0.1432
2.3283 -1.7972 -0.1487
2.3162 -1.8185 -0.1422
2.2902 -1.8247 -0.1517
2.2569 -1.8571 -0.1494
2.2404 -1.8732 -0.1483
2.2172 -1.8839 -0.1538
2.2020 -1.9010 -0.1513
2.1827 -1.9150 -0.1528
2.1677 -1.9320 -0.1503
2.1484 -1.9461 -0.1519
2.1077 -1.9735 -0.1562
2.0914 -1.9895 -0.1551
2.0785 -2.0069 -0.1513
2.0589 -2.0212 -0.1528
2.0392 -2.0355 -0.1543
2.0177 -2.0491 -0.1572
2.0071 -2.0669 -0.1520
1.9912 -2.0824 -0.1508
1.9675 -2.0957 -0.1550
1.9576 -2.1129 -0.1499
1.9337 -2.1263 -0.1541
1.9221 -2.1427 -0.1502
1.8958 -2.1559 -0.1558
1.8888 -2.1729 -0.1493
1.8666 -2.1870 -0.1521
1.8420 -2.2010 -0.1563
1.8218 -2.2158 -0.1579
1.8085 -2.2314 -0.1554
1.7954 -2.2468 -0.1529
1.7825 -2.2621 -0.1504
1.7648 -2.2770 -0.1505
1.7420 -2.2917 -0.1534
1.7293 -2.3067 -0.1509
2.8835 -1.2544 -0.1591
2.8648 -1.2646 -0.1625
2.8452 -1.2866 -0.1595
2.8261 -1.3027 -0.1597
2.8070 -1.3131 -0.1631
2.7878 -1.3370 -0.1588
2.7683 -1.3355 -0.1692
2.7491 -1.3572 -0.1662
2.7302 -1.3809 -0.1620
2.7110 -1.3970 -0.1622
2.6926 -1.4203 -0.1579
2.6736 -1.4363 -0.1581
2.6530 -1.4424 -0.1646
2.6334 -1.4566 -0.1661
2.6173 -1.4881 -0.1562
2.5987 -1.5059 -0.1551
2.5784 -1.5162 -0.1591
2.5622 -1.5421 -0.1523
2.5414 -1.5517 -0.1569
2.5231 -1.5694 -0.1559
2.5029 -1.5818 -0.1586
2.4853 -1.6011 -0.1563
2.4642 -1.6121 -0.1603
2.4521 -1.6424 -0.1490
2.4269 -1.6456 -0.1594
2.4088 -1.6631 -0.1583
2.3939 -1.6857 -0.1528
2.3742 -1.7000 -0.1542
2.3598 -1.7221 -0.1487
2.3102 -1.7380 -0.1638
2.2990 -1.7631 -0.1550
2.2813 -1.7802 -0.1539
2.2559 -1.7892 -0.1612
2.2438 -1.8117 -0.1543
2.2237 -1.8263 -0.1558
2.1990 -1.8370 -0.1617
2.1889 -1.8600 -0.1536
2.1515 -1.8915 -0.1540
2.1327 -1.9072 -0.1542
2.0921 -1.9368 -0.1572
2.0717 -1.9517 -0.1586
2.0562 -1.9692 -0.1563
2.0434 -1.9877 -0.1520
2.0266 -2.0041 -0.1509
1.9981 -2.0157 -0.1581
1.9664 -2.0266 -0.1673
1.9558 -2.0456 -0.1617
1.9330 -2.0603 -0.1645
1.9160 -2.0768 -0.1634
1.9081 -2.0957 -0.1565
1.8853 -2.1104 -0.1593
1.8707 -2.1272 -0.1569
1.8455 -2.1416 -0.1610
1.8365 -2.1592 -0.1554
1.8201 -2.1752 -0.1543
1.7890 -2.1890 -0.1616
1.7748 -2.2054 -0.1592
1.7537 -2.2209 -0.1607
1.7319 -2.2538 -0.1526
1.7084 -2.2690 -0.1554
1.6873 -2.2845 -0.1569
1.6622 -2.2999 -0.1603
2.7027 -1.3498 -0.1623
2.6644 -1.3967 -0.1549
2.6447 -1.4133 -0.1551
2.6254 -1.4328 -0.1534
2.6051 -1.4465 -0.1555
2.5860 -1.4659 -0.1538
2.5705 -1.4982 -0.1437
2.5517 -1.5162 -0.1427
2.5324 -1.5324 -0.1429
2.5125 -1.5469 -0.1443
2.4921 -1.5606 -0.1463
2.4738 -1.5794 -0.1447
2.4533 -1.5931 -0.1467
2.4351 -1.6118 -0.1451
2.4158 -1.6281 -0.1453
2.3964 -1.6443 -0.1455
2.3384 -1.6930 -0.1461
2.3175 -1.7071 -0.1481
2.2954 -1.7201 -0.1514
2.2804 -1.7417 -0.1467
2.2582 -1.7547 -0.1500
2.2442 -1.7766 -0.1446
2.2237 -1.7916 -0.1461
2.1837 -1.8229 -0.1477
2.1609 -1.8364 -0.1510
2.1199 -1.8675 -0.1532
2.1064 -1.8878 -0.1485
2.0832 -1.9016 -0.1518
2.0573 -1.9143 -0.1569
2.0484 -1.9365 -0.1491
2.0265 -1.9515 -0.1511
2.0054 -1.9669 -0.1526
1.9859 -1.9833 -0.1528
1.9683 -2.0003 -0.1517
1.9396 -2.0131 -0.1581
1.9295 -2.0329 -0.1521
1.9198 -2.0524 -0.1462
1.8887 -2.0649 -0.1538
1.8764 -2.0832 -0.1497
1.8591 -2.0999 -0.1486
1.8304 -2.1139 -0.1544
1.7937 -2.1469 -0.1535
1.7821 -2.1645 -0.1494
1.7709 -2.1819 -0.1453
1.7332 -2.1955 -0.1554
1.7137 -2.2118 -0.1556
1.7003 -2.2287 -0.1527
1.6810 -2.2450 -0.1529
1.6616 -2.2612 -0.1531
1.6385 -2.2772 -0.1552
1.6230 -2.2937 -0.1535
2.8187 -1.2261 -0.1446
2.7983 -1.2397 -0.1466
2.7775 -1.2264 -0.1624
2.7568 -1.2529 -0.1580
2.7349 -1.2496 -0.1692
2.7145 -1.2793 -0.1631
2.6941 -1.3033 -0.1598
2.6725 -1.3146 -0.1635
2.6531 -1.3434 -0.1573
2.6318 -1.3578 -0.1593
2.6095 -1.3675 -0.1641
2.5914 -1.3986 -0.1562
2.5725 -1.4236 -0.1518
2.5500 -1.4334 -0.1567
2.5306 -1.4553 -0.1540
2.5086 -1.4682 -0.1571
2.4879 -1.4855 -0.1573
2.4672 -1.5029 -0.1575
2.4454 -1.5178 -0.1595
2.4228 -1.5311 -0.1626
2.4039 -1.5526 -0.1599
2.3467 -1.6132 -0.1541
2.2985 -1.6377 -0.1627
2.2751 -1.6517 -0.1659
2.2629 -1.6801 -0.1567
2.2423 -1.6974 -0.1569
2.2205 -1.7134 -0.1583
2.1895 -1.7201 -0.1685
2.1824 -1.7511 -0.1558
2.1638 -1.7701 -0.1543
2.1447 -1.7885 -0.1533
2.0924 -1.8142 -0.1631
2.0716 -1.8316 -0.1633
2.0554 -1.8520 -0.1600
2.0348 -1.8694 -0.1602
2.0141 -1.8867 -0.1605
1.9678 -1.9188 -0.1644
1.9522 -1.9387 -0.1611
1.9387 -1.9592 -0.1566
1.9182 -1.9763 -0.1568
1.8847 -1.9885 -0.1653
1.8773 -2.0107 -0.1572
1.8539 -2.0269 -0.1592
1.8224 -2.0408 -0.1659
1.8159 -2.0623 -0.1579
1.7892 -2.0778 -0.1616
1.7569 -2.0924 -0.1683
1.7361 -2.1099 -0.1685
1.7153 -2.1273 -0.1688
1.6978 -2.1454 -0.1672
1.6644 -2.1609 -0.1739
1.6633 -2.1813 -0.1641
1.6545 -2.2000 -0.1584
1.6341 -2.2172 -0.1586
1.6137 -2.2343 -0.1588
1.6158 -2.2531 -0.1483
1.5804 -2.2690 -0.1557
1.5420 -2.2853 -0.1642
2.8141 -1.2113 -0.1234
2.7935 -1.2228 -0.1264
2.6624 -1.2661 -0.1598
2.6423 -1.2968 -0.1534
2.6212 -1.3180 -0.1520
2.5823 -1.3737 -0.1413
2.4811 -1.4747 -0.1346
2.3761 -1.5606 -0.1368
2.3490 -1.5672 -0.1448
2.3264 -1.5827 -0.1467
2.3066 -1.6028 -0.1453
2.2793 -1.6119 -0.1522
2.2653 -1.6397 -0.1446
2.2442 -1.6575 -0.1448
2.2231 -1.6752 -0.1450
2.2037 -1.6949 -0.1436
2.1808 -1.7107 -0.1455
2.1372 -1.7450 -0.1470
2.1100 -1.7575 -0.1523
2.0949 -1.7805 -0.1475
2.0314 -1.8339 -0.1481
2.0055 -1.8487 -0.1517
1.9842 -1.8666 -0.1519
1.9679 -1.8872 -0.1488
1.9510 -1.9071 -0.1462
1.9273 -1.9236 -0.1481
1.8936 -1.9357 -0.1562
1.8722 -1.9537 -0.1564
1.8620 -1.9761 -0.1499
1.8408 -1.9938 -0.1501
1.8050 -2.0067 -0.1587
1.7895 -2.0266 -0.1556
1.7742 -2.0463 -0.1524
1.7499 -2.0633 -0.1543
1.7318 -2.0819 -0.1529
1.7040 -2.0983 -0.1565
1.6860 -2.1169 -0.1550
1.6681 -2.1354 -0.1535
1.6434 -2.1527 -0.1554
1.6314 -2.1719 -0.1511
1.6139 -2.1901 -0.1497
1.5892 -2.2074 -0.1516
1.5507 -2.2432 -0.1503
1.5258 -2.2606 -0.1522
1.5021 -2.2782 -0.1536
2.8093 -1.2023 -0.0992
2.7884 -1.1211 -0.1441
2.7652 -1.0989 -0.1633
2.7425 -1.1296 -0.1583
2.7202 -1.1599 -0.1532
2.6965 -1.1681 -0.1587
2.6736 -1.1874 -0.1590
2.6519 -1.2172 -0.1540
2.6281 -1.2291 -0.1579
2.6052 -1.2483 -0.1581
2.5811 -1.2616 -0.1615
2.5572 -1.2770 -0.1639
2.5381 -1.3127 -0.1551
2.5172 -1.3384 -0.1517
2.4918 -1.3481 -0.1572
2.4639 -1.3519 -0.1664
2.4439 -1.3802 -0.1614
2.4209 -1.3995 -0.1616
2.3980 -1.4188 -0.1618
2.3789 -1.4464 -0.1568
2.3549 -1.4631 -0.1586
2.3304 -1.4790 -0.1610
2.2831 -1.5152 -0.1630
2.2651 -1.5419 -0.1580
2.2408 -1.5588 -0.1598
2.2212 -1.5823 -0.1568
2.1874 -1.5875 -0.1677
2.1799 -1.6251 -0.1536
2.1652 -1.6525 -0.1469
2.1142 -1.6837 -0.1527
2.0765 -1.6887 -0.1652
2.0535 -1.7080 -0.1654
2.0305 -1.7273 -0.1656
2.0054 -1.7449 -0.1675
1.9973 -1.7749 -0.1570
1.9693 -1.7902 -0.1610
1.9545 -1.8143 -0.1559
1.9238 -1.8285 -0.1615
1.9169 -1.8563 -0.1516
1.8946 -1.8750 -0.1518
1.8617 -1.8887 -0.1584
1.8238 -1.9008 -0.1678
1.8193 -1.9278 -0.1573
1.7901 -1.9442 -0.1613
1.7675 -1.9632 -0.1615
1.7349 -1.9789 -0.1671
1.7221 -2.0013 -0.1620
1.7066 -2.0224 -0.1585
1.6903 -2.0430 -0.1555
1.6711 -2.0626 -0.1541
1.6597 -2.0839 -0.1490
1.6231 -2.0995 -0.1562
1.5825 -2.1150 -0.1650
1.5968 -2.1402 -0.1480
1.5853 -2.1603 -0.1434
1.5370 -2.1752 -0.1555
1.5110 -2.1936 -0.1573
1.4812 -2.2117 -0.1608
1.4587 -2.2306 -0.1610
1.4400 -2.2498 -0.1596
1.4253 -2.2690 -0.1566
2.8045 -1.1838 -0.0788
2.7336 -1.0468 -0.1634
2.7100 -1.0806 -0.1576
2.6859 -1.1009 -0.1579
2.5055 -1.3096 -0.1353
2.4796 -1.3197 -0.1406
2.4519 -1.3265 -0.1478
2.4339 -1.3616 -0.1395
2.4047 -1.3662 -0.1483
2.3641 -1.4202 -0.1403
2.2696 -1.4960 -0.1427
2.1958 -1.5497 -0.1470
2.1746 -1.5722 -0.1452
2.1512 -1.5919 -0.1455
2.1278 -1.6115 -0.1457
2.1019 -1.6286 -0.1480
2.0739 -1.6439 -0.1517
2.0503 -1.6637 -0.1520
2.0363 -1.6918 -0.1451
2.0080 -1.7074 -0.1489
1.9794 -1.7232 -0.1527
1.9611 -1.7468 -0.1494
1.9352 -1.7650 -0.1512
1.9141 -1.7863 -0.1499
1.8963 -1.8094 -0.1466
1.8646 -1.8243 -0.1519
1.8437 -1.8454 -0.1506
1.8175 -1.8638 -0.1524
1.7868 -1.8803 -0.1567
1.7705 -1.9033 -0.1529
1.7592 -1.9280 -0.1465
1.7301 -1.9454 -0.1498
1.7028 -1.9637 -0.1521
1.6793 -1.9834 -0.1523
1.6527 -2.0022 -0.1541
1.6250 -2.0208 -0.1564
1.6196 -2.0452 -0.1480
1.5964 -2.0647 -0.1482
1.5698 -2.0835 -0.1500
1.5624 -2.1061 -0.1431
1.5881 -2.1337 -0.1218
1.5506 -2.1500 -0.1287
1.5209 -2.1678 -0.1320
1.4531 -2.1815 -0.1512
1.3976 -2.2199 -0.1552
1.3960 -2.2411 -0.1468
1.3559 -2.2596 -0.1537
2.7758 -0.9197 -0.1643
2.7504 -0.9564 -0.1584
2.7238 -0.9586 -0.1667
2.6992 -0.9994 -0.1590
2.6732 -1.0165 -0.1611
2.6469 -1.0326 -0.1637
2.6212 -1.0543 -0.1640
2.5962 -1.0811 -0.1619
2.5473 -1.1364 -0.1568
2.5210 -1.1537 -0.1589
2.4955 -1.1752 -0.1592
2.4721 -1.2042 -0.1556
2.4407 -1.2058 -0.1659
2.4165 -1.2320 -0.1638
2.3934 -1.2608 -0.1602
2.3694 -1.2857 -0.1586
2.3409 -1.3002 -0.1627
2.3185 -1.3284 -0.1591
2.2948 -1.3531 -0.1575
2.2659 -1.3679 -0.1616
2.2367 -1.3829 -0.1656
2.2048 -1.3944 -0.1721
2.1660 -1.4565 -0.1607
2.1515 -1.4922 -0.1514
2.1220 -1.5076 -0.1555
2.0968 -1.5287 -0.1557
2.0838 -1.5632 -0.1464
2.0515 -1.5762 -0.1524
2.0161 -1.5870 -0.1604
1.9988 -1.6157 -0.1549
1.9793 -1.6415 -0.1513
1.9429 -1.6532 -0.1592
1.9118 -1.6699 -0.1633
1.8955 -1.6977 -0.1578
1.8797 -1.7252 -0.1523
1.8387 -1.7359 -0.1622
1.8200 -1.7611 -0.1586
1.7813 -1.7747 -0.1666
1.7697 -1.8034 -0.1591
1.7410 -1.8228 -0.1613
1.7157 -1.8439 -0.1616
1.6867 -1.8635 -0.1638
1.6690 -1.8879 -0.1602
1.6322 -1.9046 -0.1662
1.6147 -1.9287 -0.1626
1.5813 -1.9473 -0.1667
1.5684 -1.9724 -0.1612
1.5474 -1.9947 -0.1595
1.5180 -2.0146 -0.1617
1.4929 -2.0357 -0.1620
1.4812 -2.0597 -0.1565
1.5525 -2.1226 -0.1066
1.4693 -2.1322 -0.1316
1.3714 -2.1661 -0.1519
1.3017 -2.2057 -0.1602
1.2716 -2.2263 -0.1624
2.8237 -0.7592 -0.1718
2.7688 -0.8564 -0.1532
2.7420 -0.8790 -0.1535
2.6858 -0.8916 -0.1669
2.6355 -0.9791 -0.1506
2.5588 -1.0649 -0.1433
2.1536 -1.4408 -0.1342
2.0374 -1.5122 -0.1452
2.0170 -1.5400 -0.1414
1.9209 -1.5897 -0.1539
1.8353 -1.6925 -0.1432
1.7956 -1.7056 -0.1512
1.7652 -1.7252 -0.1538
1.7387 -1.7474 -0.1540
1.7280 -1.7779 -0.1461
1.7055 -1.8015 -0.1446
1.6512 -1.8102 -0.1590
1.6209 -1.8309 -0.1610
1.5980 -1.8549 -0.1595
1.5802 -1.8805 -0.1557
1.5718 -1.9090 -0.1478
1.5406 -1.9292 -0.1503
1.5009 -1.9471 -0.1565
1.4798 -1.9707 -0.1545
1.4622 -1.9951 -0.1511
1.4117 -2.0113 -0.1614
1.3952 -2.0358 -0.1576
1.3435 -2.0530 -0.1679
1.5203 -2.1118 -0.0886
1.2742 -2.1481 -0.1548
1.2480 -2.1701 -0.1551
1.2218 -2.1922 -0.1554
1.1903 -2.2138 -0.1575
2.8186 -0.6630 -0.1673
2.7892 -0.6876 -0.1676
2.7617 -0.8091 -0.1336
2.7345 -0.8439 -0.1297
2.7022 -0.7799 -0.1618
2.6712 -0.7795 -0.1714
2.6436 -0.8231 -0.1645
2.6165 -0.8650 -0.1581
2.5909 -0.9117 -0.1496
2.5301 -0.9375 -0.1590
2.4990 -0.9505 -0.1639
2.4714 -0.9809 -0.1617
2.4409 -0.9992 -0.1645
2.4088 -1.0130 -0.1695
2.3877 -1.0631 -0.1584
2.3574 -1.0826 -0.1608
2.3248 -1.0967 -0.1657
2.3034 -1.1399 -0.1572
2.2729 -1.1595 -0.1596
2.2357 -1.1655 -0.1688
2.1918 -1.2408 -0.1558
2.1681 -1.2727 -0.1519
2.1015 -1.3694 -0.1384
2.0523 -1.3639 -0.1552
2.0176 -1.3798 -0.1601
1.9861 -1.4003 -0.1626
1.9444 -1.4101 -0.1718
1.9223 -1.4418 -0.1674
1.9000 -1.4725 -0.1635
1.8891 -1.5129 -0.1527
1.8391 -1.5177 -0.1662
1.8176 -1.5477 -0.1622
1.8085 -1.5866 -0.1514
1.7920 -1.6184 -0.1453
1.7603 -1.6390 -0.1477
1.7082 -1.6468 -0.1608
1.6747 -1.6677 -0.1637
1.6684 -1.7042 -0.1529
1.6132 -1.7134 -0.1664
1.5890 -1.7397 -0.1646
1.5558 -1.7615 -0.1670
1.5271 -1.7856 -0.1673
1.5090 -1.8140 -0.1629
1.4746 -1.8357 -0.1658
1.4521 -1.8618 -0.1635
1.4021 -1.8786 -0.1728
1.3837 -1.9060 -0.1688
1.3603 -1.9316 -0.1669
1.3263 -1.9542 -0.1694
1.2976 -1.9783 -0.1697
1.2746 -2.0036 -0.1678
1.2460 -2.0276 -0.1681
1.1737 -2.1015 -0.1643
1.1515 -2.1261 -0.1624
1.1107 -2.1484 -0.1670
1.0886 -2.1729 -0.1651
1.0668 -2.1972 -0.1633
1.0584 -2.2223 -0.1571
2.7822 -0.6726 -0.1331
2.7548 -0.7852 -0.1044
2.5952 -0.7389 -0.1644
2.5591 -0.7304 -0.1773
2.5273 -0.7571 -0.1776
2.4382 -0.8634 -0.1684
2.2095 -1.0239 -0.1809
2.1806 -1.0567 -0.1785
1.9730 -1.3253 -0.1501
1.9168 -1.3798 -0.1483
1.8870 -1.4048 -0.1486
1.6369 -1.6414 -0.1426
1.5886 -1.6553 -0.1517
1.5389 -1.7104 -0.1479
1.5139 -1.7374 -0.1462
1.4797 -1.7601 -0.1485
1.4655 -1.7913 -0.1424
1.4313 -1.8140 -0.1447
1.4020 -1.8386 -0.1450
1.3664 -1.8612 -0.1477
1.3316 -1.8843 -0.1501
1.3020 -1.9092 -0.1504
1.2659 -1.9323 -0.1531
1.2306 -1.9559 -0.1554
1.1939 -1.9794 -0.1581
1.1767 -2.0072 -0.1540
1.1083 -2.0852 -0.1481
1.0652 -2.1080 -0.1528
1.0419 -2.1336 -0.1511
1.0124 -2.1584 -0.1514
1.0117 -2.1856 -0.1428
2.6721 -0.5135 -0.1682
2.6404 -0.5657 -0.1609
2.6080 -0.6014 -0.1586
2.5701 -0.5905 -0.1718
2.5374 -0.6265 -0.1696
2.5076 -0.6772 -0.1622
2.4758 -0.7124 -0.1600
2.4427 -0.7402 -0.1604
2.4114 -0.7750 -0.1581
2.3785 -0.8026 -0.1585
2.3415 -0.8166 -0.1640
2.3170 -0.8713 -0.1540
2.2821 -0.8921 -0.1569
2.2444 -0.9067 -0.1624
2.2113 -0.9345 -0.1627
2.1810 -0.9684 -0.1605
2.1423 -0.9839 -0.1660
2.1121 -1.0177 -0.1638
2.0759 -1.0396 -0.1667
2.0426 -1.0675 -0.1670
2.0094 -1.0954 -0.1674
1.9689 -1.1124 -0.1729
1.9392 -1.1458 -0.1707
1.9296 -1.2051 -0.1555
1.8889 -1.2222 -0.1610
1.8519 -1.2447 -0.1639
1.8234 -1.2772 -0.1617
1.7861 -1.3000 -0.1646
1.7579 -1.3322 -0.1623
1.7203 -1.3553 -0.1653
1.6874 -1.3829 -0.1656
1.6596 -1.4147 -0.1633
1.6321 -1.4463 -0.1611
1.5886 -1.4658 -0.1666
1.5557 -1.4934 -0.1670
1.5170 -1.5173 -0.1699
1.4840 -1.5451 -0.1703
1.4630 -1.5797 -0.1654
1.4179 -1.6006 -0.1710
1.3911 -1.6316 -0.1687
1.3452 -1.6530 -0.1743
1.4774 -1.7543 -0.1095
1.4849 -1.7944 -0.0955
1.3439 -1.7749 -0.1382
1.2408 -1.7749 -0.1651
1.2154 -1.8047 -0.1628
1.1756 -1.8296 -0.1658
1.1354 -1.8548 -0.1688
1.1180 -1.8865 -0.1638
1.0620 -1.9079 -0.1721
1.0211 -1.9337 -0.1751
1.3699 -2.0679 -0.0439
0.9306 -2.0511 -0.1636
0.9545 -2.0860 -0.1469
1.1386 -2.1645 -0.0754
1.2045 -2.1957 -0.0488
2.7254 -0.2575 -0.1790
2.6904 -0.3299 -0.1675
2.6560 -0.3883 -0.1598
2.5794 -0.4022 -0.1744
2.5414 -0.4230 -0.1778
2.5061 -0.4638 -0.1752
2.4709 -0.5032 -0.1728
2.4379 -0.5517 -0.1674
1.7363 -1.2478 -0.1453
1.6864 -1.2614 -0.1536
1.4278 -1.5068 -0.1485
1.2535 -1.7737 -0.1172
1.2140 -1.7982 -0.1200
1.1307 -1.8091 -0.1370
1.0897 -1.8349 -0.1398
1.0319 -1.8564 -0.1478
0.9822 -1.8809 -0.1531
0.9559 -1.9116 -0.1510
1.3436 -2.0571 -0.0177
1.2381 -2.1186 -0.0262
1.2398 -2.1443 -0.0187
1.2359 -2.1685 -0.0130
1.2050 -2.1895 -0.0147
1.1793 -2.2110 -0.0150
2.6725 -0.1472 -0.1674
2.6339 -0.1919 -0.1647
2.5947 -0.2248 -0.1651
2.5542 -0.2464 -0.1686
2.5163 -0.2907 -0.1659
2.4788 -0.3346 -0.1632
2.4398 -0.3673 -0.1636
2.3944 -0.3682 -0.1734
2.3571 -0.4119 -0.1706
2.3228 -0.4655 -0.1648
2.2838 -0.4982 -0.1652
2.2418 -0.5211 -0.1687
2.2026 -0.5540 -0.1691
2.1668 -0.5965 -0.1664
2.0923 -0.6702 -0.1644
2.0535 -0.7028 -0.1648
2.0147 -0.7353 -0.1652
1.9674 -0.7515 -0.1716
1.9418 -0.8089 -0.1628
1.9032 -0.8413 -0.1632
1.8692 -0.8810 -0.1608
1.8207 -0.8982 -0.1672
1.7819 -0.9308 -0.1676
1.7540 -0.9777 -0.1619
1.7156 -1.0100 -0.1623
1.6716 -1.0357 -0.1656
1.6331 -1.0681 -0.1660
1.6064 -1.1128 -0.1607
1.5559 -1.1329 -0.1668
1.5370 -1.1835 -0.1583
1.4918 -1.2090 -0.1619
1.4468 -1.2356 -0.1651
1.4154 -1.2732 -0.1627
1.3851 -1.3110 -0.1599
1.3162 -1.3217 -0.1724
1.2933 -1.3645 -0.1667
1.2386 -1.3868 -0.1732
1.2165 -1.4290 -0.1675
1.2032 -1.4749 -0.1589
1.1314 -1.4893 -0.1712
1.0834 -1.5172 -0.1748
1.0629 -1.5580 -0.1691
1.2299 -1.7190 -0.0918
1.3166 -1.7913 -0.0546
1.3110 -1.8257 -0.0472
1.3224 -1.8645 -0.0349
1.3279 -1.8996 -0.0249
1.2992 -1.9237 -0.0252
1.2467 -1.9417 -0.0323
1.3118 -2.0173 0.0010
1.3171 -2.0462 0.0095
1.3164 -2.0729 0.0160
1.2744 -2.0920 0.0115
1.2432 -2.1132 0.0099
1.2285 -2.1367 0.0126
2.6487 0.1124 -0.1773
2.6037 0.0896 -0.1812
2.5609 0.0387 -0.1782
2.5137 0.0303 -0.1858
2.4713 -0.0216 -0.1826
2.4335 -0.0983 -0.1728
2.3854 -0.1087 -0.1801
2.3415 -0.1455 -0.1805
2.2976 -0.1824 -0.1810
2.1769 -0.3287 -0.1720
1.7582 -0.7102 -0.1695
1.3663 -1.0242 -0.1770
1.3651 -1.0965 -0.1608
1.3475 -1.1512 -0.1519
1.2988 -1.1796 -0.1552
1.2656 -1.2200 -0.1527
1.2165 -1.2487 -0.1561
0.9801 -1.4059 -0.1679
1.0478 -1.6853 -0.0908
1.0200 -1.7186 -0.0888
1.2041 -1.8565 -0.0205
1.2132 -1.8938 -0.0102
1.2330 -1.9321 0.0025
1.2709 -1.9728 0.0194
1.2936 -2.0075 0.0318
1.3049 -2.0380 0.0410
1.3103 -2.0660 0.0485
2.5752 0.3242 -0.1745
2.5320 0.2338 -0.1639
2.4886 0.1622 -0.1572
2.4527 0.0476 -0.1403
2.3979 0.0683 -0.1545
2.3430 0.0752 -0.1659
2.3020 0.0055 -0.1591
2.2654 -0.0769 -0.1489
2.2196 -0.1153 -0.1494
2.1776 -0.1670 -0.1465
2.1281 -0.1922 -0.1504
2.0641 -0.1766 -0.1652
2.0365 -0.2691 -0.1513
1.9806 -0.2820 -0.1588
1.9449 -0.3459 -0.1523
1.8992 -0.3844 -0.1527
1.8534 -0.4228 -0.1532
1.8012 -0.4490 -0.1573
1.7551 -0.4877 -0.1578
1.7090 -0.5264 -0.1583
1.6488 -0.5429 -0.1659
1.6169 -0.6037 -0.1593
1.5787 -0.6534 -0.1560
1.5329 -0.6919 -0.1565
1.4707 -0.7101 -0.1641
1.4325 -0.7585 -0.1612
1.3865 -0.7972 -0.1616
1.3404 -0.8359 -0.1621
1.2853 -0.8657 -0.1660
1.2389 -0.9047 -0.1665
1.1926 -0.9436 -0.1670
1.1667 -0.9993 -0.1603
1.1209 -1.0378 -0.1608
1.0639 -1.0680 -0.1650
1.0178 -1.1067 -0.1654
0.9945 -1.1603 -0.1587
0.8902 -1.1621 -0.1773
0.8433 -1.2016 -0.1778
0.7963 -1.2410 -0.1783
0.7494 -1.2804 -0.1788
0.7024 -1.3198 -0.1792
0.6826 -1.3717 -0.1723
0.6224 -1.4046 -0.1765
0.6031 -1.4548 -0.1697
0.5984 -1.5092 -0.1595
0.6324 -1.5751 -0.1399
1.2661 -2.0243 0.0670
1.2330 -2.0458 0.0653
-0.0127 -1.9555 -0.1794
-0.0591 -1.9944 -0.1799
-0.1055 -2.0333 -0.1804
2.5881 0.7395 -0.1831
2.5353 0.6724 -0.1795
2.4789 0.6479 -0.1842
2.4542 0.3619 -0.1363
2.3478 0.3144 -0.1450
2.2831 0.3451 -0.1611
2.2571 0.1774 -0.1349
2.2036 0.1514 -0.1389
2.1659 0.0614 -0.1287
2.0889 0.1174 -0.1514
2.0217 0.1257 -0.1638
1.9695 0.0818 -0.1644
1.8979 0.0903 -0.1775
1.8513 0.0284 -0.1739
1.8055 -0.0330 -0.1702
1.2377 -0.5325 -0.1719
1.0883 -0.7633 -0.1544
1.0260 -0.7953 -0.1587
1.0003 -0.8588 -0.1514
1.0105 -0.9479 -0.1335
0.9974 -1.0148 -0.1235
0.9846 -1.0789 -0.1140
0.8896 -1.0862 -0.1281
0.6923 -1.0336 -0.1697
0.6701 -1.0941 -0.1624
0.6193 -1.1368 -0.1629
0.4824 -1.2720 -0.1606
0.3830 -1.2932 -0.1729
0.3651 -1.3502 -0.1655
0.3781 -1.5881 -0.1203
0.7543 -1.8333 -0.0146
1.2198 -2.0087 0.0929
2.5058 0.8749 -0.1437
2.4455 0.8512 -0.1486
2.4222 0.5323 -0.1012
2.4028 0.2626 -0.0611
2.3421 0.2910 -0.0744
2.2514 0.4592 -0.1142
2.1450 0.6553 -0.1606
2.1705 0.2532 -0.0930
2.0402 0.2576 -0.1125
1.9232 0.4127 -0.1540
1.8502 0.4077 -0.1637
1.7832 0.3797 -0.1688
1.7652 0.2263 -0.1470
1.6509 0.1304 -0.1482
1.5652 0.1403 -0.1621
1.4692 0.0047 -0.1544
1.4224 -0.0615 -0.1506
1.3429 -0.0745 -0.1600
1.2605 -0.0874 -0.1698
1.2015 -0.1369 -0.1704
1.1425 -0.1864 -0.1710
1.0971 -0.2526 -0.1670
1.0527 -0.3181 -0.1630
0.9947 -0.3668 -0.1636
0.9366 -0.4155 -0.1642
0.8786 -0.4642 -0.1648
0.8206 -0.5130 -0.1654
0.8685 -0.6544 -0.1360
0.7981 -0.6879 -0.1408
0.6630 -0.6721 -0.1627
0.6387 -0.7450 -0.1546
0.5653 -0.7810 -0.1595
0.7461 -0.9862 -0.1009
0.3951 -0.8420 -0.1742
0.3939 -0.9249 -0.1612
0.4101 -1.0136 -0.1448
0.3369 -1.0508 -0.1494
0.4240 -1.1683 -0.1182
0.2635 -1.1624 -0.1422
0.0221 -1.1271 -0.1826
-0.0144 -1.1858 -0.1785
-0.0280 -1.2522 -0.1699
-0.0632 -1.3086 -0.1660
-0.0540 -1.3789 -0.1535
0.0231 -1.5279 -0.1187
1.2709 -2.0413 0.1423
1.2333 -2.0613 0.1401
2.5460 2.0959 -0.2296
2.4758 1.9415 -0.2173
2.4196 1.6738 -0.1877
2.3723 1.3969 -0.1557
2.3302 1.1475 -0.1268
2.3804 0.3465 -0.0109
2.3173 0.3786 -0.0232
2.2584 0.3729 -0.0298
2.1259 0.6949 -0.0905
2.1398 0.3430 -0.0405
2.0965 0.2603 -0.0346
2.0217 0.2916 -0.0483
1.7824 0.8269 -0.1515
1.5494 0.7434 -0.1693
1.4439 0.7722 -0.1865
1.3840 0.4924 -0.1557
1.3304 0.4126 -0.1515
1.2368 0.4063 -0.1623
1.1399 0.3996 -0.1735
1.0555 0.3675 -0.1797
0.8843 0.1477 -0.1711
0.8166 0.0909 -0.1718
0.5732 -0.0374 -0.1847
0.5461 -0.1362 -0.1746
0.5405 -0.2505 -0.1596
0.5926 -0.4092 -0.1314
0.7145 -0.7078 -0.0752
0.5568 -0.6791 -0.0989
0.4423 -0.6889 -0.1119
0.4398 -0.7773 -0.1001
0.5905 -0.9576 -0.0566
0.3804 -0.9097 -0.0894
0.3417 -0.9680 -0.0863
0.1643 -0.9519 -0.1107
-0.2096 -0.8455 -0.1721
-0.0946 -0.9861 -0.1385
-0.1571 -1.0386 -0.1391
-0.4386 -1.0003 -0.1796
-0.3445 -1.1959 -0.1411
-0.0890 -1.3567 -0.0871
1.2641 -2.0064 0.1714
1.2858 -2.0385 0.1785
1.2865 -2.0650 0.1822
1.2879 -2.1154 0.1893
1.2832 -2.1386 0.1919
1.3170 -2.1657 0.1998
1.3210 -2.1881 0.2034
2.6936 1.7358 -0.0716
2.6121 1.9999 -0.1107
2.5223 2.2104 -0.1445
2.4439 2.1445 -0.1454
2.3869 1.8563 -0.1183
2.3355 1.5949 -0.0937
2.2979 1.2905 -0.0626
2.3686 0.3598 0.0521
2.3214 0.3008 0.0539
2.2460 0.3869 0.0359
2.1381 0.5925 0.0006
2.1075 0.4369 0.0153
2.0990 0.2192 0.0394
1.6537 1.1954 -0.1206
1.5555 1.2038 -0.1321
1.4665 1.1772 -0.1386
1.4459 0.9767 -0.1177
1.3589 0.9478 -0.1237
1.2385 0.9858 -0.1409
1.2114 0.8240 -0.1252
1.1209 0.7935 -0.1314
1.0105 0.7943 -0.1433
0.8547 0.8623 -0.1678
0.8178 0.7300 -0.1565
0.6962 0.7292 -0.1694
0.6169 0.6627 -0.1702
0.5376 0.5961 -0.1711
0.4332 0.5605 -0.1781
0.3531 0.4932 -0.1789
0.2998 0.3965 -0.1735
0.2745 0.2739 -0.1621
0.1969 0.2088 -0.1629
0.0914 0.1695 -0.1697
0.0984 0.0286 -0.1527
0.1585 -0.1483 -0.1259
0.2124 -0.3083 -0.1017
0.3699 -0.5347 -0.0588
0.4281 -0.6729 -0.0366
0.5125 -0.9022 -0.0012
0.4575 -0.9484 -0.0018
-0.0675 -0.7304 -0.0831
-0.3580 -0.6664 -0.1215
-0.4289 -0.7259 -0.1222
-0.3492 -0.8564 -0.0987
-0.2224 -0.9995 -0.0686
0.1853 -1.2496 0.0038
1.2928 -1.8556 0.1921
1.3112 -1.9545 0.2055
1.3492 -2.0954 0.2257
1.3673 -2.1218 0.2307
2.5907 2.1078 -0.0267
2.5126 2.0907 -0.0321
2.4329 2.0722 -0.0374
2.3421 2.1479 -0.0526
2.2685 2.0337 -0.0485
2.3682 0.3016 0.1228
2.3066 0.3310 0.1146
2.2526 0.3080 0.1119
2.0746 0.8288 0.0472
2.0559 0.3457 0.0909
1.8903 0.6741 0.0453
1.5270 0.9909 -0.0167
1.4287 0.9962 -0.0260
1.3414 0.9674 -0.0310
1.2523 0.9384 -0.0363
0.9762 1.2774 -0.0926
0.7536 1.4662 -0.1302
0.6107 1.4837 -0.1445
0.5185 1.4063 -0.1455
-0.0360 0.1514 -0.0772
-0.1787 0.1377 -0.0886
0.2040 -0.5086 0.0060
0.2532 -0.7317 0.0314
-1.0315 -0.5220 -0.1027
1.3323 -1.8301 0.2304
1.3147 -1.8894 0.2344
1.3094 -1.9187 0.2367
1.3797 -1.9945 0.2501
1.3745 -2.0198 0.2520
1.3587 -2.0423 0.2527
1.3674 -2.0690 0.2560
1.3720 -2.0939 0.2587
1.3750 -2.1176 0.2612
1.3520 -2.1369 0.2610
1.3521 -2.1591 0.2631
2.4915 2.1571 0.0598
2.3650 0.2636 0.1885
2.3142 0.2393 0.1866
2.2481 0.2854 0.1785
1.9194 0.5463 0.1361
1.7808 0.7413 0.1120
1.3874 1.3304 0.0411
1.2255 1.4675 0.0196
1.2136 1.2373 0.0355
0.9121 1.6411 -0.0154
0.8222 1.5656 -0.0163
0.7812 1.3993 -0.0071
0.5323 1.6071 -0.0400
-0.7959 0.2071 -0.0330
0.2799 -0.7417 0.1127
-0.8440 -0.1525 -0.0103
-0.8051 -0.2939 0.0027
-0.9268 -0.4528 0.0056
-1.0078 -0.5208 0.0048
-1.0469 -0.6077 0.0083
-1.1270 -0.6750 0.0075
1.3416 -1.8923 0.2721
1.3510 -1.9253 0.2752
1.4259 -2.0511 0.2897
1.4155 -2.0730 0.2905
1.4055 -2.0945 0.2914
1.3920 -2.1151 0.2919
1.4271 -2.1423 0.2964
1.4218 -2.1626 0.2975
2.3330 0.3998 0.2411
2.2963 0.2866 0.2450
2.2401 0.2806 0.2422
2.1499 0.1636 0.2434
2.0724 0.2249 0.2361
1.9585 0.3884 0.2215
1.3534 1.3914 0.1367
1.4216 0.9689 0.1623
1.2915 1.0405 0.1516
1.1508 1.1177 0.1400
0.8936 1.4068 0.1111
-0.5297 0.7595 0.0680
-0.9459 -0.4312 0.1074
-0.9454 -0.5385 0.1130
-1.0247 -0.6050 0.1121
1.3861 -1.9009 0.3095
1.3601 -1.9227 0.3092
1.3737 -1.9552 0.3116
1.4292 -2.0468 0.3194
1.4062 -2.0661 0.3191
1.3688 -2.0829 0.3180
1.4359 -2.1594 0.3256
1.4384 -2.1799 0.3268
2.5374 2.1679 0.2568
2.4750 1.9308 0.2619
2.3559 2.3783 0.2435
2.3479 1.6527 0.2660
2.3740 0.4374 0.3052
2.3482 0.2551 0.3100
2.2945 0.2488 0.3082
2.2359 0.2586 0.3058
2.1488 0.3796 0.2988
2.1552 0.1118 0.3074
2.0604 0.2384 0.3000
1.7513 1.0326 0.2636
1.6305 1.1347 0.2559
1.4569 1.3599 0.2425
1.4888 1.0157 0.2545
1.4563 0.8640 0.2581
1.3040 0.9931 0.2484
1.1666 1.0666 0.2410
1.0367 1.1088 0.2349
0.6899 1.5380 0.2086
0.2064 -0.5884 0.2578
-1.0434 -0.5839 0.2117
-1.3925 -0.5342 0.1973
1.4187 -2.0395 0.3481
1.4085 -2.0615 0.3484
1.4282 -2.1534 0.3520
1.4098 -2.1716 0.3519
2.5377 1.8861 0.3550
2.4580 1.9500 0.3527
2.3211 2.5621 0.3431
2.3198 1.1812 0.3587
2.3789 0.3420 0.3694
2.3592 0.1406 0.3713
2.2929 0.2117 0.3691
2.2281 0.2545 0.3674
2.1673 0.2654 0.3660
2.0484 0.2519 0.3638
1.2640 1.8608 0.3300
1.2837 1.5159 0.3343
1.3455 1.1077 0.3402
1.3162 0.9469 0.3414
1.2446 0.8868 0.3407
0.8304 1.4968 0.3255
0.6686 1.5619 0.3216
0.7058 1.2667 0.3257
-0.7134 0.7699 0.3031
-0.6743 0.5761 0.3061
0.4949 -0.9376 0.3465
0.4079 -0.9621 0.3450
0.3545 -1.0069 0.3445
-1.1037 -0.5437 0.3103
-0.8301 -0.7646 0.3182
1.4414 -2.0152 0.3775
1.4222 -2.0354 0.3773
1.4031 -2.0554 0.3772
1.4403 -2.1294 0.3787
1.4425 -2.1505 0.3790
1.4090 -2.1665 0.3785
2.4069 2.3864 0.4470
2.3374 2.2220 0.4453
2.3784 0.2863 0.4290
2.3431 0.1833 0.4280
2.3036 0.1148 0.4273
2.2586 0.0771 0.4268
2.1841 0.1612 0.4273
2.1153 0.2026 0.4274
2.0804 0.1135 0.4265
1.1757 1.7631 0.4377
1.1965 0.9707 0.4310
0.9996 1.1505 0.4319
1.0332 0.8798 0.4297
0.8216 1.0554 0.4306
-0.6912 0.7555 0.4232
-0.8803 0.4460 0.4199
-0.6699 0.1511 0.4181
0.4824 -0.9236 0.4126
0.4633 -0.9873 0.4120
0.2515 -1.0183 0.4111
1.3801 -1.8222 0.4078
1.3890 -1.8569 0.4076
1.4309 -2.0078 0.4064
1.4257 -2.0313 0.4062
1.4158 -2.0531 0.4060
1.4223 -2.0776 0.4058
1.4323 -2.1017 0.4056
1.4352 -2.1238 0.4054
1.4292 -2.1438 0.4052
1.3970 -2.1600 0.4050
2.4989 2.0064 0.5338
2.4164 2.0753 0.5368
2.3797 1.6544 0.5255
2.2868 0.1572 0.4847
2.2380 0.1339 0.4847
2.1846 0.1261 0.4852
1.9680 0.2536 0.4916
1.3761 1.7863 0.5425
1.3264 1.6270 0.5387
1.3257 1.3567 0.5311
1.1467 1.0572 0.5251
0.9003 1.3280 0.5359
0.6775 1.5160 0.5442
0.4800 1.6308 0.5500
0.5531 -0.6359 0.4854
0.0463 -0.4592 0.4970
0.1879 -0.6482 0.4898
0.0833 -0.6718 0.4906
0.0892 -0.7626 0.4879
0.3116 -0.9687 0.4792
0.1814 -0.9740 0.4808
1.4282 -1.8352 0.4401
1.4025 -1.8567 0.4398
1.3768 -1.8783 0.4396
1.3894 -1.9115 0.4385
1.4448 -1.9813 0.4358
1.4254 -2.0017 0.4354
1.4280 -2.0269 0.4347
1.4144 -2.0479 0.4343
1.4515 -2.1003 0.4323
1.4371 -2.1192 0.4320
1.4354 -2.1398 0.4314
1.4146 -2.1573 0.4312
2.5603 1.9602 0.6183
2.4695 2.2024 0.6325
2.4141 1.9243 0.6209
2.2884 0.1093 0.5386
2.2200 0.1774 0.5439
2.0280 0.2395 0.5525
1.3950 1.1583 0.6146
1.4294 0.8480 0.5989
1.4247 0.6552 0.5899
1.2953 0.7355 0.5975
0.9227 1.2691 0.6338
0.7066 1.4489 0.6487
0.7171 1.2123 0.6371
0.3351 -0.4649 0.5689
-0.0603 -0.4798 0.5799
0.2589 -0.7729 0.5566
0.0073 -0.7070 0.5671
0.2237 -0.9127 0.5510
1.4784 -1.9602 0.4644
1.4730 -1.9841 0.4635
1.4377 -2.0000 0.4638
1.4355 -2.0239 0.4627
1.4575 -2.0523 0.4607
1.4597 -2.0752 0.4595
1.4532 -2.0959 0.4588
1.4485 -2.1163 0.4579
1.4305 -2.1342 0.4576
2.5342 2.1482 0.7174
2.4154 1.7472 0.6961
2.3232 1.2991 0.6706
2.2653 0.1814 0.5990
2.2303 0.0978 0.5951
2.0112 0.2694 0.6164
1.9067 0.3954 0.6295
1.4618 0.7536 0.6735
1.4215 0.6462 0.6682
1.0370 1.0343 0.7114
0.3207 -0.4487 0.6455
0.2385 -0.4844 0.6468
1.4507 -1.8035 0.5042
1.4802 -1.9301 0.4945
1.4730 -1.9542 0.4932
1.4589 -1.9758 0.4924
1.4196 -1.9907 0.4932
1.4263 -2.0170 0.4912
1.4445 -2.0448 0.4885
1.4667 -2.0720 0.4857
1.4523 -2.0910 0.4851
1.4436 -2.1108 0.4841
1.4409 -2.1311 0.4829
2.5873 2.2740 0.8129
2.3417 2.3698 0.8361
2.2410 2.5076 0.8540
2.2829 1.5094 0.7665
2.3380 0.6592 0.6907
2.2876 0.2968 0.6629
2.2445 0.2410 0.6608
2.2091 0.1553 0.6557
2.1712 0.0871 0.6522
2.1139 0.0936 0.6563
2.0682 0.0552 0.6558
1.9546 0.2242 0.6771
0.4047 -0.5079 0.7095
1.4210 -1.7872 0.5385
1.4329 -1.8234 0.5347
1.4990 -1.9315 0.5215
1.4763 -1.9506 0.5212
1.4573 -1.9707 0.5207
1.4884 -2.0271 0.5140
1.4828 -2.0486 0.5125
1.4684 -2.0677 0.5117
1.4664 -2.0890 0.5101
1.4497 -2.1071 0.5095
1.4403 -2.1262 0.5085
2.3159 3.4996 1.0491
2.2492 3.1394 1.0169
2.1743 2.9357 1.0015
2.3857 0.6543 0.7490
2.3474 0.5334 0.7394
2.3320 0.2980 0.7162
2.3072 0.1518 0.7029
2.2756 0.0577 0.6956
2.1947 0.1827 0.7147
2.1606 0.0991 0.7087
2.1198 0.0466 0.7064
2.0525 0.0830 0.7153
0.3909 -0.4923 0.7830
0.2723 -0.4976 0.7916
0.0801 -0.4561 0.8106
0.1947 -0.6261 0.7842
0.1495 -0.9260 0.7566
-0.1702 -0.9944 0.7740
1.4454 -1.8237 0.5643
1.4608 -1.9150 0.5537
1.4412 -1.9357 0.5530
1.4229 -1.9566 0.5522
1.4873 -2.0223 0.5405
1.4739 -2.0420 0.5395
1.4715 -2.0638 0.5374
1.4574 -2.0826 0.5365
1.4490 -2.1023 0.5351
2.3904 0.5483 0.7963
2.3696 0.3323 0.7719
2.3298 0.2620 0.7670
2.2879 0.2085 0.7643
2.2655 0.0691 0.7494
2.2057 0.1039 0.7592
2.1338 0.1727 0.7742
2.1132 0.0447 0.7605
2.0417 0.0953 0.7732
2.0007 0.0411 0.7704
1.4488 -1.8206 0.5943
1.4382 -1.8465 0.5921
1.4702 -1.8864 0.5843
1.4760 -1.9155 0.5802
1.4618 -1.9374 0.5789
1.4339 -1.9551 0.5793
1.4675 -2.0800 0.5610
2.3619 0.6811 0.8758
2.3641 0.3117 0.8240
2.3276 0.2268 0.8160
2.2982 0.1165 0.8037
2.2426 0.1383 0.8127
2.1987 0.1014 0.8123
2.1585 0.0506 0.8095
2.0725 0.1612 0.8341
2.0163 0.1540 0.8391
1.9899 0.0533 0.8279
1.4604 -1.8208 0.6226
1.4694 -1.8818 0.6131
1.4669 -1.9082 0.6096
1.4476 -1.9286 0.6088
1.4336 -1.9505 0.6073
1.5205 -1.9989 0.5912
1.4805 -2.0567 0.5874
1.4715 -2.1371 0.5772
2.3377 3.7315 1.4191
2.2531 1.8960 1.1403
2.3469 0.7151 0.9429
2.3738 0.1998 0.8584
2.3172 0.2386 0.8714
2.2355 0.1354 0.8652
2.1989 0.0702 0.8593
2.1444 0.0763 0.8669
2.0707 0.1423 0.8863
2.0342 0.0743 0.8801
1.9840 0.0509 0.8825
1.4593 -1.8162 0.6524
1.4591 -1.8739 0.6433
1.4775 -1.9073 0.6358
1.4748 -1.9326 0.6321
1.4562 -1.9525 0.6313
1.4429 -1.9737 0.6296
1.4893 -2.0542 0.6112
1.5186 -2.0813 0.6034
1.5063 -2.1189 0.5990
1.4842 -2.1346 0.5992
2.1718 3.1676 1.4558
2.3441 0.6668 0.9947
2.3586 0.2417 0.9183
2.2839 0.1109 0.9056
2.2351 0.1033 0.9110
2.1958 0.0529 0.9075
2.1568 0.0042 0.9043
2.1025 0.0093 0.9126
2.0506 0.0005 0.9182
1.9733 0.0630 0.9397
1.4728 -1.9774 0.6510
1.4981 -2.0300 0.6383
1.5236 -2.0781 0.6264
1.5182 -2.0971 0.6238
1.4961 -2.1128 0.6241
1.4927 -2.1316 0.6213
4.3070 3.6081 1.4580
3.3692 -1.4465 0.5595
3.3938 -1.4777 0.5597
3.4114 -1.4832 0.5622
3.6110 -1.2631 0.6312
3.6255 -1.2889 0.6303
3.6564 -1.3362 0.6293
3.6737 -1.3569 0.6296
4.3760 -1.8181 0.6959
4.3740 -1.8502 0.6910
4.3069 -1.9263 0.6675
4.4161 -2.2476 0.6421
4.3553 -2.2316 0.6092
3.3305 -1.3904 0.5239
3.3425 -1.4081 0.5237
3.3804 -1.4552 0.5242
3.3938 -1.4694 0.5246
3.4050 -1.4879 0.5242
3.4172 -1.5042 0.5242
3.7418 -1.3087 0.5958
4.4586 -0.8018 0.7623
4.4453 -0.8859 0.7508
4.1124 -1.2530 0.6586
4.5373 -1.2977 0.7183
3.9825 -1.7049 0.5878
4.0181 -1.7169 0.5918
4.0067 -1.8373 0.5765
4.0287 -1.8552 0.5779
4.0705 -1.9424 0.5744
4.0869 -1.9620 0.5747
4.1100 -2.0032 0.5735
4.1067 -2.0264 0.5704
4.1226 -2.0454 0.5707
4.1273 -2.0662 0.5690
4.3503 -2.2361 0.5839
4.3671 -2.2562 0.5842
3.4602 -0.5661 0.6032
3.3763 -1.0555 0.5442
3.3383 -1.4127 0.5042
3.3525 -1.4246 0.5049
3.3653 -1.4400 0.5052
3.3926 -1.4675 0.5061
3.4055 -1.4830 0.5064
4.4035 -0.8560 0.7015
4.3996 -0.9288 0.6939
4.1584 -1.2117 0.6339
3.9831 -1.7065 0.5621
4.0039 -1.7264 0.5629
3.9938 -1.7614 0.5581
4.0082 -1.7837 0.5579
3.9975 -1.8165 0.5533
4.0070 -1.8396 0.5523
4.0313 -1.8569 0.5539
4.0319 -1.8828 0.5514
4.0463 -1.9034 0.5513
4.0572 -1.9249 0.5507
4.0600 -1.9484 0.5488
4.0844 -1.9658 0.5503
4.0843 -1.9892 0.5480
4.1113 -2.0063 0.5500
4.1166 -2.0279 0.5486
4.1377 -2.0464 0.5496
4.1577 -2.0652 0.5505
4.1562 -2.0870 0.5481
4.1658 -2.1069 0.5475
4.1752 -2.1266 0.5468
4.1792 -2.1464 0.5454
4.3383 -2.2406 0.5576
4.3694 -2.2609 0.5598
3.9075 3.3172 0.9401
3.3506 -0.6454 0.5501
3.3939 -0.8008 0.5423
3.3878 -0.9191 0.5319
3.3812 -1.0267 0.5223
3.2549 -1.6909 0.4531
3.3764 -1.4545 0.4866
3.9522 -0.7567 0.6106
3.7248 -1.2784 0.5414
3.7394 -1.3075 0.5407
3.8416 -1.2790 0.5549
4.1461 -1.2228 0.5947
3.9893 -1.7050 0.5370
3.9986 -1.7312 0.5359
3.9907 -1.7652 0.5322
4.0031 -1.7883 0.5317
4.0256 -1.8069 0.5328
4.0210 -1.8366 0.5298
4.0413 -1.8558 0.5306
4.0520 -1.8786 0.5299
4.0668 -1.8997 0.5299
4.0715 -1.9236 0.5285
4.0712 -1.9484 0.5264
4.0912 -1.9673 0.5272
4.1019 -1.9885 0.5267
4.1148 -2.0089 0.5265
4.1167 -2.0313 0.5249
4.1330 -2.0507 0.5252
4.1529 -2.0696 0.5259
4.1629 -2.0898 0.5254
4.1676 -2.1105 0.5243
4.1562 -2.1321 0.5212
4.1640 -2.1514 0.5205
4.2344 -2.1669 0.5274
4.3560 -2.2452 0.5350
4.4344 -2.2670 0.5423
3.3790 -1.0216 0.4967
3.2403 -1.6906 0.4388
3.7127 -1.2924 0.5111
3.7518 -1.2893 0.5151
3.8202 -1.2530 0.5242
3.8439 -1.2747 0.5250
3.8707 -1.2934 0.5264
4.0857 -1.5437 0.5306
4.0959 -1.5758 0.5294
4.0119 -1.6616 0.5156
4.0041 -1.6989 0.5123
3.9934 -1.7360 0.5088
4.0054 -1.7603 0.5084
4.0232 -1.7816 0.5087
4.0267 -1.8090 0.5072
4.0505 -1.8275 0.5083
4.0469 -1.8565 0.5060
4.0621 -1.8780 0.5061
4.0640 -1.9035 0.5045
4.0788 -1.9245 0.5046
4.0833 -1.9482 0.5034
4.0944 -1.9698 0.5031
4.0912 -1.9942 0.5012
4.0957 -2.0162 0.5001
4.1071 -2.0365 0.4999
4.1147 -2.0572 0.4992
4.1395 -2.0752 0.5005
4.1405 -2.0964 0.4991
4.1564 -2.1154 0.4994
4.1516 -2.1363 0.4976
4.1818 -2.1540 0.4993
4.1976 -2.1730 0.4996
4.3580 -2.2499 0.5100
3.5143 0.4375 0.5551
3.8652 -0.7318 0.5233
3.7626 -1.2731 0.4879
4.0216 -1.0656 0.5186
4.0688 -1.0725 0.5219
4.1046 -1.0939 0.5236
4.0897 -1.1669 0.5188
4.0975 -1.2142 0.5170
4.0918 -1.2718 0.5136
4.1122 -1.3044 0.5136
4.1637 -1.3115 0.5172
4.2122 -1.3232 0.5204
4.2582 -1.3386 0.5232
4.2480 -1.3941 0.5196
4.1369 -1.5123 0.5050
4.0063 -1.6667 0.4870
3.9958 -1.7054 0.4842
4.0026 -1.7334 0.4833
4.0360 -1.7782 0.4836
4.0419 -1.8051 0.4827
4.0661 -1.8241 0.4837
4.0450 -1.8600 0.4802
4.0570 -1.8826 0.4800
4.0649 -1.9317 0.4781
4.0728 -1.9542 0.4776
4.0814 -1.9762 0.4772
4.0806 -1.9999 0.4759
4.1004 -2.0187 0.4765
4.1048 -2.0404 0.4757
4.1149 -2.0608 0.4755
4.1223 -2.0812 0.4750
4.1333 -2.1009 0.4749
4.1518 -2.1197 0.4754
4.1651 -2.1390 0.4755
4.1837 -2.1578 0.4759
4.1970 -2.1770 0.4760
4.2411 -2.1951 0.4785
4.2506 -2.2147 0.4783
4.3000 -2.2340 0.4812
4.3684 -2.2547 0.4855
4.4324 -2.2768 0.4893
3.4709 0.4855 0.5017
3.5151 0.4900 0.5044
3.3896 -1.0415 0.4442
4.0981 -1.0385 0.4859
4.1031 -1.2085 0.4804
4.0980 -1.2664 0.4781
4.1139 -1.3034 0.4777
4.1605 -1.3148 0.4801
4.2399 -1.3031 0.4851
4.3507 -1.2731 0.4927
4.3909 -1.2982 0.4942
4.4128 -1.3359 0.4942
4.0127 -1.6303 0.4605
4.0007 -1.6718 0.4584
3.9961 -1.7073 0.4569
4.0002 -1.7368 0.4561
4.0337 -1.7818 0.4565
4.0194 -1.8171 0.4544
4.0484 -1.8338 0.4556
4.0483 -1.8616 0.4546
4.0573 -1.8854 0.4543
4.0747 -1.9062 0.4546
4.0655 -1.9346 0.4531
4.0656 -1.9593 0.4522
4.0766 -1.9806 0.4522
4.0990 -1.9992 0.4528
4.1039 -2.0215 0.4524
4.1144 -2.0422 0.4523
4.1162 -2.0641 0.4516
4.1324 -2.0835 0.4519
4.1424 -2.1036 0.4518
4.1407 -2.1246 0.4510
4.1695 -2.1425 0.4520
4.1725 -2.1625 0.4515
4.1923 -2.1813 0.4520
4.2082 -2.2003 0.4523
4.2554 -2.2189 0.4544
4.2992 -2.2385 0.4563
4.3703 -2.2594 0.4598
4.3876 -2.2802 0.4601
3.5222 0.5797 0.4522
3.5986 0.7343 0.4580
3.7835 -1.2414 0.4294
4.1557 -0.8325 0.4514
4.2529 -0.7906 0.4560
4.2653 -0.8510 0.4554
4.2289 -0.9606 0.4519
4.2648 -0.9905 0.4528
4.2766 -1.0438 0.4523
4.3063 -1.0792 0.4528
4.3686 -1.0869 0.4551
4.4552 -1.0780 0.4587
4.5750 -1.0485 0.4639
4.5831 -1.1070 0.4632
4.0006 -1.6394 0.4306
3.9952 -1.6769 0.4297
3.9653 -1.7259 0.4277
3.9661 -1.7562 0.4272
4.0318 -1.8429 0.4282
4.0704 -1.8565 0.4294
4.0639 -1.8862 0.4286
4.0728 -1.9099 0.4286
4.0749 -1.9351 0.4282
4.0663 -1.9623 0.4273
4.0797 -1.9832 0.4275
4.0941 -2.0037 0.4277
4.0955 -2.0266 0.4273
4.1179 -2.0452 0.4279
4.1320 -2.0653 0.4281
4.1449 -2.0855 0.4282
4.1377 -2.1079 0.4275
4.1538 -2.1271 0.4278
4.1673 -2.1466 0.4280
4.1834 -2.1658 0.4282
4.1968 -2.1851 0.4284
4.2035 -2.2045 0.4283
4.2871 -2.2229 0.4313
4.3478 -2.2433 0.4333
4.3957 -2.2648 0.4348
4.4022 -2.2856 0.4347
3.5172 0.6044 0.3957
3.5185 0.3666 0.3953
3.3910 -1.0119 0.3906
3.3531 -1.3857 0.3892
3.3624 -1.4131 0.3894
3.7851 -1.2369 0.3979
4.2693 -0.8447 0.4080
4.3351 -0.8472 0.4092
4.4048 -0.8496 0.4106
4.4435 -1.0237 0.4111
5.1572 -0.6063 0.4257
4.0001 -1.6055 0.4015
3.9949 -1.6446 0.4013
3.9639 -1.6966 0.4006
3.9628 -1.7292 0.4005
3.9380 -1.7725 0.4000
3.9679 -1.7872 0.4005
3.9914 -1.8055 0.4010
3.9788 -1.8390 0.4007
4.0318 -1.8457 0.4017
4.0652 -1.8613 0.4023
4.0800 -1.8838 0.4026
4.0828 -1.9099 0.4026
4.0731 -1.9388 0.4023
4.0781 -1.9625 0.4024
4.0951 -1.9829 0.4027
4.1007 -2.0057 0.4028
4.1082 -2.0276 0.4029
4.1226 -2.0480 0.4031
4.1212 -2.0706 0.4031
4.1229 -2.0922 0.4031
4.1478 -2.1106 0.4035
4.1465 -2.1317 0.4035
4.1562 -2.1514 0.4036
4.1903 -2.1695 0.4042
4.2066 -2.1889 0.4045
4.2427 -2.2078 0.4052
4.2687 -2.2275 0.4057
4.3659 -2.2482 0.4075
4.3863 -2.2694 0.4079
4.3550 -2.2886 0.4073
3.5001 0.5596 0.3388
3.5347 0.4988 0.3397
3.5655 0.4219 0.3409
3.3508 -1.3850 0.3683
4.8654 -0.5771 0.3552
5.2297 -0.4565 0.3532
5.2791 -0.5155 0.3541
3.9954 -1.6460 0.3719
3.9476 -1.7078 0.3729
3.9407 -1.7430 0.3734
3.9557 -1.7657 0.3737
3.9686 -1.7891 0.3741
3.9911 -1.8081 0.3744
4.0149 -1.8268 0.3746
4.0419 -1.8446 0.3749
4.0630 -1.8650 0.3752
4.0874 -1.8845 0.3755
4.1055 -1.9062 0.3758
4.0953 -1.9358 0.3762
4.0853 -1.9640 0.3767
4.0969 -1.9859 0.3770
4.0866 -2.0121 0.3774
4.1149 -2.0299 0.3776
4.1177 -2.0525 0.3780
4.1224 -2.0742 0.3783
4.1328 -2.0947 0.3786
4.1492 -2.1143 0.3789
4.1656 -2.1339 0.3792
4.1693 -2.1544 0.3795
4.1894 -2.1736 0.3798
4.2175 -2.1927 0.3800
4.2604 -2.2118 0.3803
4.3618 -2.2318 0.3806
4.3879 -2.2533 0.3809
4.4059 -2.2749 0.3812
4.3458 -2.2930 0.3815
3.4779 0.4830 0.2845
3.5298 0.5215 0.2822
3.3969 -0.9652 0.3327
3.4760 -1.0533 0.3339
3.5148 -1.0997 0.3346
3.5502 -1.1531 0.3355
4.8165 -0.4353 0.2860
4.7969 -0.5491 0.2901
4.8153 -0.6223 0.2921
4.8826 -0.6516 0.2916
5.0675 -0.5885 0.2857
5.0532 -0.6895 0.2893
4.4539 -1.2054 0.3183
3.9883 -1.6162 0.3413
4.0021 -1.6438 0.3419
3.9504 -1.7080 0.3450
3.9438 -1.7433 0.3463
3.9533 -1.7690 0.3469
3.9797 -1.7862 0.3469
4.0006 -1.8064 0.3471
4.0305 -1.8230 0.3470
4.0609 -1.8402 0.3470
4.0886 -1.8589 0.3470
4.1009 -1.8832 0.3475
4.1322 -1.9015 0.3474
4.1411 -1.9265 0.3481
4.1431 -1.9528 0.3489
4.1255 -1.9828 0.3502
4.1204 -2.0086 0.3511
4.1100 -2.0345 0.3522
4.1092 -2.0575 0.3529
4.1259 -2.0774 0.3532
4.1280 -2.0991 0.3539
4.1505 -2.1180 0.3540
4.1583 -2.1385 0.3545
4.1747 -2.1581 0.3548
4.2090 -2.1768 0.3547
4.2660 -2.1954 0.3541
4.3386 -2.2151 0.3532
4.3806 -2.2366 0.3530
4.4029 -2.2585 0.3533
4.3924 -2.2795 0.3541
4.3297 -2.2970 0.3560
4.3297 -2.3162 0.3566
3.3891 -0.9774 0.3040
3.4349 -1.0797 0.3071
3.4590 -1.0879 0.3065
3.4836 -1.0966 0.3060
3.5014 -1.1227 0.3065
3.5219 -1.1424 0.3066
3.5572 -1.1941 0.3077
3.5742 -1.2207 0.3083
3.6078 -1.2181 0.3068
3.6368 -1.2258 0.3060
3.6652 -1.2360 0.3053
3.7872 -1.2265 0.2998
4.8264 -0.1037 0.2012
4.8750 -0.1618 0.2021
4.9088 -0.2355 0.2043
4.9571 -0.2932 0.2051
4.8029 -0.6336 0.2283
4.7964 -0.7256 0.2332
4.6528 -0.9232 0.2489
4.6224 -1.0185 0.2548
4.0006 -1.5719 0.3080
3.9954 -1.6132 0.3102
3.9963 -1.6491 0.3120
3.9341 -1.7191 0.3180
3.9496 -1.7423 0.3185
3.9621 -1.7668 0.3192
3.9716 -1.7924 0.3201
4.0589 -1.8143 0.3175
4.1039 -1.8269 0.3163
4.1058 -1.8560 0.3176
4.1394 -1.8740 0.3171
4.1140 -1.9102 0.3200
4.1001 -1.9411 0.3221
4.0752 -1.9732 0.3247
4.0712 -1.9986 0.3261
4.0552 -2.0254 0.3281
4.0497 -2.0490 0.3295
4.0412 -2.0720 0.3310
4.0390 -2.0932 0.3321
4.0411 -2.1132 0.3330
4.0539 -2.1316 0.3334
4.0541 -2.1509 0.3343
4.0817 -2.1680 0.3340
4.1045 -2.1857 0.3340
4.1391 -2.2034 0.3334
4.1730 -2.2217 0.3329
4.2127 -2.2407 0.3322
4.2990 -2.2613 0.3296
4.3639 -2.2834 0.3280
4.3358 -2.3021 0.3301
3.3652 -0.9560 0.2744
3.3855 -0.9755 0.2744
3.3977 -1.0216 0.2767
3.9143 -0.9197 0.2377
3.7808 -1.2323 0.2669
4.7843 -0.1496 0.1319
4.8750 -0.1588 0.1269
4.9708 -0.1678 0.1215
5.0045 -0.2443 0.1245
4.8665 -0.5767 0.1553
5.0269 -0.7134 0.1545
4.0012 -1.5729 0.2759
3.9921 -1.6170 0.2795
4.0062 -1.6450 0.2804
3.9709 -1.7003 0.2863
3.9470 -1.7457 0.2909
3.9568 -1.7716 0.2920
3.9834 -1.7892 0.2915
4.0345 -1.7968 0.2888
4.1312 -1.7880 0.2822
4.1514 -1.8122 0.2826
4.1308 -1.8505 0.2864
4.0932 -1.8921 0.2915
4.0864 -1.9217 0.2939
4.0410 -1.9604 0.2994
4.0385 -2.0093 0.3028
4.0312 -2.0336 0.3049
4.0232 -2.0571 0.3069
4.0237 -2.0782 0.3083
4.0215 -2.0991 0.3099
4.0247 -2.1187 0.3110
4.0397 -2.1366 0.3112
4.0596 -2.1542 0.3112
4.0797 -2.1719 0.3111
4.1000 -2.1898 0.3110
4.1294 -2.2077 0.3104
4.1540 -2.2260 0.3101
4.1722 -2.2447 0.3102
4.2120 -2.2639 0.3090
4.2756 -2.2848 0.3064
4.3612 -2.3084 0.3027
4.3520 -2.3274 0.3045
3.2598 -1.0920 0.2647
3.3721 -0.8089 0.2314
3.3895 -0.8485 0.2333
3.3905 -0.9435 0.2412
3.4006 -0.9993 0.2451
3.4174 -1.0303 0.2463
3.4329 -1.0644 0.2479
3.4548 -1.0797 0.2474
3.4723 -1.1069 0.2482
3.5589 -1.1791 0.2471
3.5913 -1.1787 0.2443
3.7542 -1.1515 0.2284
3.7719 -1.2415 0.2345
4.8406 -0.0792 0.0469
4.8755 -0.1553 0.0504
4.9401 -0.1982 0.0486
5.0226 -0.2248 0.0440
4.9770 -0.3766 0.0606
4.8931 -0.5530 0.0826
3.9984 -1.5762 0.2439
3.9989 -1.6143 0.2471
4.0230 -1.6368 0.2470
3.9526 -1.7449 0.2620
3.9599 -1.7724 0.2637
3.9894 -1.7889 0.2627
4.0377 -1.7981 0.2594
4.1321 -1.7907 0.2509
4.1415 -1.8191 0.2525
4.1393 -1.8509 0.2554
4.0940 -1.8951 0.2629
4.0590 -1.9330 0.2691
4.0392 -1.9641 0.2733
4.0313 -1.9906 0.2762
4.0204 -2.0166 0.2793
4.0242 -2.0384 0.2809
4.0140 -2.0621 0.2837
4.0169 -2.0827 0.2852
4.0347 -2.1009 0.2853
4.0430 -2.1201 0.2862
4.0535 -2.1389 0.2869
4.0651 -2.1575 0.2875
4.0703 -2.1762 0.2887
4.1019 -2.1936 0.2875
4.1172 -2.2120 0.2878
4.1875 -2.2491 0.2851
4.2422 -2.2691 0.2822
4.3237 -2.2916 0.2773
4.3671 -2.3137 0.2755
4.3540 -2.3325 0.2782
3.3318 -0.8468 0.2063
3.3647 -0.8194 0.2000
3.3883 -0.8352 0.1992
3.3965 -0.9070 0.2057
3.4094 -0.9567 0.2094
3.4282 -0.9852 0.2104
3.4483 -1.0093 0.2107
3.4700 -1.0290 0.2105
3.4964 -1.0373 0.2085
3.5133 -1.0700 0.2101
3.5323 -1.0973 0.2109
3.5610 -1.1037 0.2086
3.5914 -1.1089 0.2059
3.6685 -1.0971 0.1966
3.7025 -1.1037 0.1937
3.7638 -1.1335 0.1903
3.8567 -1.1265 0.1798
4.7562 -0.1752 -0.0123
4.8041 -0.2324 -0.0115
5.0059 -0.1261 -0.0436
5.1657 -0.0796 -0.0651
4.9780 -0.3751 -0.0151
4.8799 -0.5650 0.0147
3.9940 -1.5405 0.2079
4.0022 -1.5752 0.2106
3.9800 -1.6991 0.2256
3.9553 -1.7455 0.2330
3.9656 -1.7718 0.2346
4.0359 -1.8016 0.2302
4.0577 -1.8819 0.2362
4.0731 -1.9049 0.2369
4.0695 -1.9332 0.2402
4.0395 -1.9673 0.2469
4.0318 -1.9938 0.2504
4.0288 -2.0181 0.2532
4.0218 -2.0422 0.2564
4.0219 -2.0642 0.2587
4.0204 -2.0857 0.2610
4.0278 -2.1053 0.2623
4.0408 -2.1240 0.2628
4.1191 -2.1368 0.2559
4.3526 -2.2343 0.2414
4.2974 -2.2754 0.2514
4.3592 -2.2981 0.2472
4.3537 -2.3179 0.2498
4.3531 -2.3374 0.2519
3.3748 -0.8692 0.1714
3.4021 -0.8710 0.1682
3.4287 -0.8782 0.1657
3.4474 -0.9128 0.1675
3.5035 -0.9275 0.1621
3.5147 -0.9810 0.1672
3.5362 -1.0067 0.1676
3.5560 -1.0364 0.1686
3.5736 -1.0699 0.1704
3.6177 -1.0501 0.1625
3.6579 -1.0427 0.1565
3.7010 -1.0341 0.1500
4.7118 0.0131 -0.1049
4.6441 -0.1940 -0.0712
4.7971 -0.1227 -0.0993
4.7628 -0.2758 -0.0764
4.8959 -0.2408 -0.0975
4.9004 -0.3448 -0.0856
4.9042 -0.4448 -0.0739
4.7651 -0.6683 -0.0293
4.0041 -1.4920 0.1668
4.0015 -1.5365 0.1725
4.0274 -1.5598 0.1721
3.9682 -1.7078 0.1975
3.9642 -1.7430 0.2022
3.9657 -1.7741 0.2058
4.0332 -1.8055 0.2010
4.2856 -1.8422 0.1734
4.2131 -1.8957 0.1891
4.1325 -1.9735 0.2087
4.1313 -1.9998 0.2120
4.2919 -2.1732 0.2126
4.3794 -2.1931 0.2039
4.4116 -2.2161 0.2026
4.4260 -2.2395 0.2036
4.3852 -2.2617 0.2115
4.3561 -2.2823 0.2177
4.3540 -2.3029 0.2204
3.2933 -0.8642 0.1498
3.3066 -0.9184 0.1553
3.3309 -0.9214 0.1521
3.3618 -0.9017 0.1448
3.3895 -0.8997 0.1404
3.4184 -0.8975 0.1358
3.4499 -0.8908 0.1301
3.4751 -0.9071 0.1287
3.6706 -1.0124 0.1142
3.9887 -0.7900 0.0358
4.4972 -0.3744 -0.0979
4.5295 -0.4375 -0.0939
3.8989 -1.3998 0.1342
3.9407 -1.4086 0.1291
3.9701 -1.4299 0.1277
4.0055 -1.5349 0.1371
4.0390 -1.5536 0.1347
4.4613 -1.3287 0.0404
3.9774 -1.7047 0.1649
3.9524 -1.7513 0.1752
3.9711 -1.7737 0.1755
5.5499 -1.2456 -0.1334
4.1897 -1.9355 0.1655
4.1238 -1.9792 0.1814
4.1292 -2.0040 0.1840
4.1342 -2.0283 0.1867
4.1978 -2.0675 0.1827
6.2479 -2.3108 -0.0890
6.2698 -2.3630 -0.0850
3.2569 -0.9059 0.1307
3.2839 -0.8880 0.1233
3.2991 -0.9321 0.1276
3.3204 -0.9469 0.1263
3.3546 -0.9118 0.1149
3.3884 -0.8869 0.1052
3.4191 -0.8796 0.0988
3.4512 -0.8724 0.0921
3.4818 -0.8741 0.0871
3.5210 -0.8556 0.0775
3.9895 0.1088 -0.1554
3.6736 -1.0000 0.0742
3.9612 -0.8260 -0.0027
4.1530 -0.7213 -0.0521
4.1684 -0.7852 -0.0447
4.2545 -0.7621 -0.0631
4.4155 -0.6615 -0.1066
3.8952 -1.4031 0.0999
3.9276 -1.4205 0.0971
3.9366 -1.4587 0.1016
3.9420 -1.4985 0.1070
3.9637 -1.5245 0.1073
3.9751 -1.5578 0.1107
4.4381 -1.3458 -0.0022
3.9603 -1.7162 0.1383
3.9531 -1.7531 0.1453
3.9629 -1.7801 0.1479
4.0001 -1.7941 0.1438
5.3563 -1.5248 -0.1314
4.1889 -1.9955 0.1432
4.1862 -2.0227 0.1480
4.1839 -2.0488 0.1525
4.1889 -2.0729 0.1555
4.1796 -2.0982 0.1611
4.1476 -2.1678 0.1776
6.0392 -2.2679 -0.1310
5.9995 -2.3162 -0.1165
6.1026 -2.3681 -0.1260
6.2315 -2.4234 -0.1394
6.2977 -2.4767 -0.1423
3.2919 -0.9445 0.1001
3.3204 -0.9272 0.0915
3.3509 -0.9080 0.0821
3.3859 -0.8789 0.0702
3.4114 -0.8899 0.0672
3.4495 -0.8630 0.0550
3.4802 -0.8651 0.0494
3.8849 -0.1279 -0.1598
3.9058 -0.2102 -0.1493
3.6617 -1.0157 0.0408
3.9306 -0.8668 -0.0378
3.9599 -0.9017 -0.0373
4.3117 -0.6003 -0.1590
4.3338 -0.6644 -0.1520
3.8864 -1.4575 0.0755
3.9043 -1.4865 0.0771
3.9424 -1.4989 0.0719
3.9473 -1.5378 0.0779
3.9997 -1.5417 0.0684
4.0478 -1.5510 0.0607
3.9546 -1.7214 0.1090
3.9678 -1.7478 0.1111
3.9844 -1.7721 0.1122
4.9262 -1.5005 -0.1189
5.0816 -1.5008 -0.1490
5.1326 -1.5422 -0.1516
5.1578 -1.5919 -0.1477
5.1959 -1.6374 -0.1470
4.2329 -1.9907 0.1027
4.2410 -2.0170 0.1057
