ply
format ascii 1.0
element vertex 2090
property float x
property float y
property float z
end_header
-0.1674 -5.4021 0.6180
-0.1698 -5.3838 0.5875
-0.1738 -5.3699 0.5578
-0.1831 -5.3688 0.5299
-0.1890 -5.3590 0.5005
-0.1896 -5.3366 0.4696
-0.1955 -5.3267 0.4401
-0.2032 -5.3208 0.4105
-0.2037 -5.2986 0.3801
-0.2137 -5.2975 0.3501
-0.2120 -5.2705 0.3202
-0.2179 -5.2604 0.2901
-0.2239 -5.2501 0.2597
-0.2323 -5.2446 0.2286
-0.2572 -5.2256 0.1328
-0.2389 -5.1686 0.1113
-0.2617 -5.0608 -0.0931
-0.2801 -5.0286 -0.1872
-0.1876 -4.8206 -0.1918
-0.1526 -4.7417 -0.1937
-0.1352 -4.7043 -0.1923
-0.1181 -4.6686 -0.1897
-0.0920 -4.6104 -0.1902
-0.0847 -4.5895 -0.1963
-0.0723 -4.5633 -0.1947
-0.0480 -4.5140 -0.1890
-0.0424 -4.4975 -0.1942
-0.0327 -4.4772 -0.1927
-0.0169 -4.4422 -0.1929
-0.0029 -4.4110 -0.1933
0.0051 -4.3951 -0.1909
0.0109 -4.3818 -0.1917
0.0161 -4.3692 -0.1928
0.0215 -4.3570 -0.1934
0.0263 -4.3455 -0.1944
0.0330 -4.3328 -0.1915
0.0380 -4.3219 -0.1914
0.0425 -4.3117 -0.1918
0.0439 -4.3039 -0.1977
-0.1229 -5.5020 0.7670
-0.1271 -5.4878 0.7367
-0.1358 -5.4874 0.7100
-0.1304 -5.4447 0.6726
-0.1329 -5.4262 0.6417
-0.1438 -5.4310 0.6156
-0.1495 -5.4212 0.5861
-0.1569 -5.4157 0.5570
-0.1631 -5.4067 0.5271
-0.1653 -5.3870 0.4958
-0.1679 -5.3685 0.4649
-0.1738 -5.3583 0.4347
-0.1763 -5.3399 0.4039
-0.1877 -5.3428 0.3737
-0.1958 -5.3374 0.3427
-0.1983 -5.3188 0.3117
-0.2226 -5.3245 0.2466
-0.2402 -5.2646 0.1188
-0.2382 -5.2369 0.0898
-0.2624 -5.0788 -0.1811
-0.2481 -5.0343 -0.1943
-0.2044 -4.9258 -0.2001
-0.1582 -4.8208 -0.1942
-0.1227 -4.7381 -0.1923
-0.0948 -4.6711 -0.1933
-0.0660 -4.6073 -0.1876
-0.0464 -4.5589 -0.1898
-0.0288 -4.5159 -0.1914
-0.0122 -4.4767 -0.1913
0.0038 -4.4404 -0.1891
0.0106 -4.4244 -0.1890
0.0152 -4.4109 -0.1919
0.0223 -4.3956 -0.1902
0.0266 -4.3833 -0.1929
0.0326 -4.3697 -0.1918
0.0354 -4.3594 -0.1964
0.0422 -4.3459 -0.1930
0.0463 -4.3352 -0.1945
0.0552 -4.3139 -0.1946
0.0577 -4.3053 -0.1981
-0.0992 -5.5371 0.7683
-0.1066 -5.5331 0.7402
-0.1261 -5.5095 0.6510
-0.1355 -5.5103 0.6224
-0.1399 -5.4953 0.5905
-0.1481 -5.4913 0.5601
-0.1544 -5.4816 0.5286
-0.1516 -5.4461 0.4942
-0.1575 -5.4354 0.4627
-0.1678 -5.4361 0.4316
-0.1777 -5.4354 0.3998
-0.1767 -5.4058 0.3670
-0.1771 -5.3806 0.3348
-0.1856 -5.3755 0.3023
-0.1957 -5.3741 0.2691
-0.2043 -5.3685 0.2355
-0.2109 -5.3579 0.2020
-0.2175 -5.3471 0.1682
-0.2263 -5.3409 0.1334
-0.2102 -5.2799 0.1093
-0.2216 -5.0709 -0.1808
-0.2161 -5.0399 -0.2013
-0.1724 -4.9263 -0.2034
-0.0953 -4.7372 -0.1933
-0.0706 -4.6722 -0.1955
-0.0466 -4.6123 -0.1936
-0.0262 -4.5610 -0.1925
-0.0165 -4.5372 -0.1913
-0.0087 -4.5166 -0.1921
0.0063 -4.4778 -0.1924
0.0135 -4.4597 -0.1920
0.0203 -4.4427 -0.1917
0.0326 -4.4114 -0.1913
0.0360 -4.3993 -0.1955
0.0421 -4.3848 -0.1940
0.0526 -4.3588 -0.1931
0.0612 -4.3360 -0.1940
0.0650 -4.3255 -0.1948
0.0684 -4.3157 -0.1962
-0.1101 -5.5754 0.6559
-0.1163 -5.5656 0.6240
-0.1243 -5.5612 0.5927
-0.1306 -5.5510 0.5602
-0.1408 -5.5527 0.5288
-0.1380 -5.5143 0.4928
-0.1373 -5.4828 0.4583
-0.1490 -5.4883 0.4264
-0.1536 -5.4726 0.3930
-0.1546 -5.4467 0.3595
-0.1688 -5.4575 0.3258
-0.1753 -5.4466 0.2917
-0.1739 -5.4149 0.2589
-0.1870 -5.4207 0.2232
-0.1894 -5.3989 0.1898
-0.1878 -5.3677 0.1582
-0.2030 -5.3774 0.1200
-0.2387 -5.2447 -0.1521
-0.2340 -5.2103 -0.1775
-0.1302 -4.9081 -0.1941
-0.0521 -4.6959 -0.1888
-0.0485 -4.6762 -0.2004
-0.0261 -4.6159 -0.1981
-0.0112 -4.5821 -0.1894
0.0058 -4.5353 -0.1889
0.0121 -4.5159 -0.1911
0.0186 -4.4969 -0.1923
0.0276 -4.4753 -0.1882
0.0343 -4.4573 -0.1875
0.0392 -4.4420 -0.1896
0.0432 -4.4281 -0.1930
0.0472 -4.4146 -0.1957
0.0524 -4.4002 -0.1957
0.0597 -4.3841 -0.1910
0.0614 -4.3741 -0.1970
0.0643 -4.3633 -0.2004
0.0775 -4.3354 -0.1901
0.0800 -4.3259 -0.1930
0.0826 -4.3165 -0.1955
0.0842 -4.3083 -0.2000
-0.0751 -5.6485 0.7225
-0.0797 -5.6327 0.6888
-0.0825 -5.6100 0.6537
-0.0890 -5.6011 0.6214
-0.1019 -5.6142 0.5922
-0.1066 -5.5981 0.5578
-0.1062 -5.5645 0.5215
-0.1092 -5.5432 0.4870
-0.1208 -5.5497 0.4547
-0.1239 -5.5283 0.4201
-0.1286 -5.5123 0.3858
-0.1333 -5.4962 0.3516
-0.1380 -5.4802 0.3174
-0.1410 -5.4591 0.2834
-0.1457 -5.4431 0.2493
-0.1540 -5.4369 0.2141
-0.1666 -5.4422 0.1769
-0.1674 -5.4152 0.1437
-0.1824 -5.4255 0.1041
-0.2005 -5.2217 -0.1878
-0.1887 -5.1720 -0.2039
-0.0279 -4.6970 -0.1912
-0.0212 -4.6715 -0.1971
-0.0095 -4.6390 -0.1941
0.0118 -4.5802 -0.1876
0.0240 -4.5386 -0.1929
0.0326 -4.5152 -0.1900
0.0359 -4.5000 -0.1961
0.0500 -4.4607 -0.1920
0.0564 -4.4430 -0.1903
0.0620 -4.4268 -0.1896
0.0648 -4.4144 -0.1941
0.0681 -4.4017 -0.1970
0.0730 -4.3877 -0.1962
0.0775 -4.3745 -0.1958
0.0820 -4.3616 -0.1948
0.0857 -4.3500 -0.1953
0.0915 -4.3367 -0.1907
0.0943 -4.3267 -0.1923
0.0967 -4.3173 -0.1947
-0.0032 -5.7114 0.9038
-0.0414 -5.7012 0.7559
-0.0434 -5.6735 0.7189
-0.0464 -5.6506 0.6833
-0.0573 -5.6597 0.6541
-0.0652 -5.6560 0.6218
-0.0683 -5.6329 0.5859
-0.0730 -5.6167 0.5513
-0.0745 -5.5884 0.5153
-0.0793 -5.5723 0.4810
-0.1026 -5.5877 0.4142
-0.1112 -5.5836 0.3789
-0.1105 -5.5482 0.3432
-0.1099 -5.5142 0.3084
-0.1299 -5.4819 0.2018
-0.1447 -5.4946 0.1624
-0.1537 -5.4892 0.1244
-0.1587 -5.4721 0.0880
-0.1931 -5.3803 -0.1345
-0.2029 -5.3744 -0.1759
-0.1714 -5.2713 -0.1744
-0.1206 -5.0807 -0.1982
-0.0790 -4.9487 -0.1920
-0.0529 -4.8570 -0.1974
-0.0014 -4.6936 -0.1895
0.0134 -4.6391 -0.1951
0.0286 -4.5877 -0.1965
0.0448 -4.5378 -0.1921
0.0531 -4.5030 -0.1999
0.0631 -4.4781 -0.1911
0.0676 -4.4617 -0.1928
0.0730 -4.4445 -0.1919
0.0781 -4.4283 -0.1911
0.0798 -4.4171 -0.1974
0.0842 -4.4027 -0.1972
0.0873 -4.3902 -0.1994
0.0915 -4.3769 -0.1989
0.0975 -4.3619 -0.1934
0.0991 -4.3524 -0.1982
0.1053 -4.3380 -0.1913
0.1075 -4.3284 -0.1940
0.1097 -4.3191 -0.1963
0.0143 -5.7722 0.8853
-0.0527 -5.7315 0.5911
-0.0545 -5.7009 0.5528
-0.0679 -5.6798 0.4810
-0.0834 -5.7034 0.4466
-0.0816 -5.6592 0.4080
-0.0867 -5.6418 0.3710
-0.1065 -5.5362 0.1879
-0.1249 -5.5621 0.1452
-0.1363 -5.5638 0.1043
-0.1307 -5.2684 -0.1782
-0.0513 -4.9562 -0.1999
-0.0257 -4.8601 -0.2021
-0.0010 -4.7728 -0.1988
0.0222 -4.6946 -0.1917
0.0381 -4.6357 -0.1925
0.0439 -4.6114 -0.1953
0.0496 -4.5883 -0.1977
0.0645 -4.5384 -0.1928
0.0698 -4.5182 -0.1935
0.0745 -4.4997 -0.1950
0.0845 -4.4634 -0.1946
0.0921 -4.4328 -0.1974
0.0977 -4.4157 -0.1937
0.1005 -4.4030 -0.1963
0.1038 -4.3900 -0.1973
0.1085 -4.3756 -0.1945
0.1146 -4.3521 -0.1956
0.1219 -4.3287 -0.1921
0.1230 -4.3203 -0.1966
0.1264 -4.3097 -0.1947
-0.0044 -5.8671 0.7425
-0.0135 -5.8246 0.6653
-0.0234 -5.8296 0.6310
-0.0317 -5.8262 0.5947
-0.0356 -5.8014 0.5553
-0.0441 -5.7977 0.5181
-0.0494 -5.7795 0.4793
-0.0600 -5.7839 0.4416
-0.0973 -5.5779 0.0941
-0.1514 -5.5018 -0.1939
-0.0456 -5.0655 -0.1973
-0.0266 -4.9936 -0.1912
-0.0182 -4.9508 -0.1994
0.0091 -4.8452 -0.1936
0.0153 -4.8123 -0.2008
0.0276 -4.7672 -0.1960
0.0442 -4.6985 -0.1965
0.0566 -4.6577 -0.1870
0.0611 -4.6343 -0.1919
0.0726 -4.5849 -0.1942
0.0797 -4.5589 -0.1912
0.0833 -4.5402 -0.1951
0.0926 -4.5008 -0.1961
0.0977 -4.4814 -0.1948
0.1025 -4.4631 -0.1935
0.1055 -4.4483 -0.1960
0.1094 -4.4325 -0.1958
0.1175 -4.4021 -0.1934
0.1192 -4.3908 -0.1973
0.1235 -4.3764 -0.1943
0.1299 -4.3518 -0.1928
0.1323 -4.3410 -0.1935
0.1345 -4.3309 -0.1948
0.1375 -4.3200 -0.1933
0.1389 -4.3113 -0.1962
0.0523 -5.9786 0.8951
0.0257 -5.8880 0.7017
0.0161 -5.8941 0.6672
0.0107 -5.8757 0.6280
0.0097 -5.8336 0.5856
0.0029 -5.8233 0.5478
-0.1033 -5.5280 -0.1635
-0.0952 -5.4655 -0.1859
-0.0142 -5.0711 -0.2042
0.0051 -4.9930 -0.1942
0.0122 -4.9510 -0.2025
0.0633 -4.7256 -0.1926
0.0784 -4.6592 -0.1895
0.0830 -4.6343 -0.1928
0.0904 -4.6043 -0.1889
0.0933 -4.5848 -0.1945
0.0984 -4.5615 -0.1944
0.1046 -4.5367 -0.1907
0.1072 -4.5198 -0.1952
0.1113 -4.5006 -0.1955
0.1145 -4.4837 -0.1975
0.1174 -4.4678 -0.1998
0.1236 -4.4467 -0.1927
0.1271 -4.4310 -0.1923
0.1281 -4.4197 -0.1982
0.1307 -4.4064 -0.1996
0.1352 -4.3905 -0.1951
0.1395 -4.3755 -0.1908
0.1412 -4.3647 -0.1935
0.1426 -4.3547 -0.1968
0.1452 -4.3433 -0.1963
0.1486 -4.3311 -0.1929
0.1498 -4.3222 -0.1960
0.1498 -4.3149 -0.2025
0.0659 -5.9035 0.6941
0.0531 -5.9351 0.6636
0.0476 -5.9164 0.6237
-0.0467 -5.7743 0.0884
-0.0719 -5.6169 -0.1541
-0.0504 -5.4602 -0.1900
-0.0165 -5.2738 -0.1959
0.0115 -5.1219 -0.1988
0.0333 -5.0015 -0.2027
0.0570 -4.8856 -0.1949
0.0736 -4.7984 -0.1941
0.0986 -4.6643 -0.1955
0.1098 -4.6078 -0.1932
0.1192 -4.5592 -0.1919
0.1226 -4.5391 -0.1938
0.1274 -4.5168 -0.1913
0.1294 -4.5009 -0.1956
0.1325 -4.4834 -0.1966
0.1367 -4.4643 -0.1939
0.1400 -4.4476 -0.1932
0.1425 -4.4330 -0.1946
0.1446 -4.4194 -0.1964
0.1476 -4.4049 -0.1955
0.1496 -4.3924 -0.1971
0.1530 -4.3779 -0.1938
0.1541 -4.3676 -0.1975
0.1564 -4.3559 -0.1975
0.1594 -4.3434 -0.1945
0.1618 -4.3323 -0.1932
0.1620 -4.3244 -0.1987
0.1638 -4.3146 -0.1990
0.1638 -5.9824 1.0028
0.0808 -6.0614 0.6736
0.0775 -6.0219 0.6282
-0.0437 -5.6943 -0.1875
-0.0066 -5.4557 -0.1943
0.0209 -5.2758 -0.2019
0.0461 -5.1199 -0.2017
0.0694 -4.9842 -0.1953
0.0821 -4.8943 -0.2035
0.0991 -4.7988 -0.1963
0.1131 -4.7198 -0.1905
0.1224 -4.6599 -0.1922
0.1317 -4.6047 -0.1905
0.1408 -4.5541 -0.1861
0.1439 -4.5212 -0.1967
0.1500 -4.4837 -0.1965
0.1534 -4.4652 -0.1946
0.1553 -4.4503 -0.1966
0.1568 -4.4369 -0.1999
0.1599 -4.4208 -0.1976
0.1637 -4.4039 -0.1924
0.1655 -4.3914 -0.1938
0.1663 -4.3809 -0.1979
0.1681 -4.3689 -0.1982
0.1714 -4.3550 -0.1934
0.1724 -4.3451 -0.1961
0.1745 -4.3339 -0.1948
0.1753 -4.3250 -0.1978
0.1765 -4.3158 -0.1991
0.1891 -6.2057 1.0673
0.1158 -6.1711 0.6795
0.0247 -5.9667 0.0886
-0.0064 -5.7994 -0.1783
0.0300 -5.4810 -0.2106
0.0808 -5.1152 -0.2032
0.0981 -4.9893 -0.2016
0.1136 -4.8811 -0.1968
0.1248 -4.7975 -0.1973
0.1417 -4.6846 -0.1887
0.1442 -4.6598 -0.1931
0.1565 -4.5628 -0.1966
0.1620 -4.5215 -0.1970
0.1647 -4.5022 -0.1967
0.1664 -4.4859 -0.1991
0.1723 -4.4493 -0.1941
0.1765 -4.4191 -0.1936
0.1804 -4.3915 -0.1925
0.1811 -4.3810 -0.1965
0.1817 -4.3707 -0.2000
0.1843 -4.3573 -0.1963
0.1854 -4.3468 -0.1977
0.1878 -4.3346 -0.1939
0.1888 -4.3251 -0.1955
0.1888 -4.3174 -0.2005
0.2276 -6.1941 1.0163
0.2088 -6.1659 0.9003
0.0702 -6.0061 0.0732
0.0453 -5.7899 -0.1833
0.0671 -5.5580 -0.2010
0.0757 -5.4636 -0.2095
0.1156 -5.1070 -0.2026
0.1306 -4.9775 -0.1974
0.1402 -4.8832 -0.2008
0.1686 -4.6324 -0.1939
0.1743 -4.5817 -0.1926
0.1766 -4.5597 -0.1931
0.1786 -4.5395 -0.1943
0.1795 -4.5232 -0.1990
0.1852 -4.4815 -0.1924
0.1862 -4.4669 -0.1957
0.1885 -4.4494 -0.1935
0.1899 -4.4348 -0.1944
0.1906 -4.4223 -0.1978
0.1939 -4.3945 -0.1966
0.1951 -4.3822 -0.1972
0.1966 -4.3696 -0.1962
0.1995 -4.3464 -0.1946
0.2004 -4.3362 -0.1954
0.2008 -4.3273 -0.1982
0.2386 -6.2167 0.8250
0.2359 -6.1247 0.7668
0.2320 -6.0665 0.7176
0.2273 -6.0293 0.6733
0.1144 -6.1604 0.0937
0.0773 -5.9865 -0.1977
0.0934 -5.7984 -0.1939
0.0946 -5.7265 -0.2208
0.1096 -5.5656 -0.2104
0.1196 -5.4477 -0.2088
0.1292 -5.3397 -0.2051
0.1454 -5.1590 -0.1971
0.1582 -5.0172 -0.1905
0.1652 -4.9200 -0.1963
0.1723 -4.8318 -0.1971
0.1855 -4.6843 -0.1908
0.1871 -4.6587 -0.1940
0.1909 -4.6255 -0.1876
0.1918 -4.6047 -0.1922
0.1918 -4.5878 -0.1999
0.1954 -4.5593 -0.1929
0.1969 -4.5391 -0.1938
0.1983 -4.5200 -0.1947
0.1996 -4.5020 -0.1957
0.2015 -4.4830 -0.1940
0.2028 -4.4664 -0.1943
0.2033 -4.4527 -0.1978
0.2048 -4.4368 -0.1967
0.2064 -4.4212 -0.1948
0.2065 -4.4101 -0.1996
0.2078 -4.3963 -0.1986
0.2095 -4.3823 -0.1957
0.2115 -4.3680 -0.1911
0.2116 -4.3585 -0.1950
0.2130 -4.3464 -0.1926
0.2127 -4.3384 -0.1981
0.2137 -4.3278 -0.1971
0.2298 -5.9372 0.3778
0.1570 -6.3116 0.0632
0.1276 -6.1113 -0.1847
0.1578 -5.5273 -0.2020
0.1688 -5.3262 -0.2041
0.1739 -5.2383 -0.2030
0.1795 -5.1532 -0.1982
0.1811 -5.1006 -0.2066
0.1848 -5.0369 -0.2056
0.1929 -4.9180 -0.1976
0.1941 -4.8799 -0.2033
0.1971 -4.8337 -0.2006
0.2003 -4.7640 -0.2054
0.2060 -4.6887 -0.1961
0.2103 -4.6281 -0.1911
0.2106 -4.5896 -0.2024
0.2141 -4.5582 -0.1917
0.2144 -4.5407 -0.1959
0.2168 -4.5015 -0.1947
0.2190 -4.4665 -0.1938
0.2198 -4.4509 -0.1942
0.2203 -4.4368 -0.1958
0.2209 -4.4231 -0.1969
0.2222 -4.4078 -0.1941
0.2224 -4.3964 -0.1972
0.2230 -4.3841 -0.1976
0.2250 -4.3591 -0.1943
0.2254 -4.3486 -0.1953
0.2254 -4.3395 -0.1983
0.2271 -4.3268 -0.1923
0.2263 -4.3201 -0.1995
0.2218 -6.3468 0.1042
0.1785 -6.1832 -0.2139
0.2075 -5.3088 -0.2012
0.2108 -5.1660 -0.2091
0.2174 -5.0160 -0.1965
0.2199 -4.9175 -0.2000
0.2228 -4.8289 -0.1992
0.2299 -4.6292 -0.1930
0.2308 -4.5842 -0.1965
0.2326 -4.5388 -0.1935
0.2335 -4.5023 -0.1955
0.2342 -4.4839 -0.1943
0.2346 -4.4679 -0.1952
0.2356 -4.4369 -0.1949
0.2353 -4.4250 -0.1990
0.2359 -4.4108 -0.1983
0.2369 -4.3958 -0.1947
0.2374 -4.3829 -0.1937
0.2379 -4.3708 -0.1933
0.2378 -4.3607 -0.1959
0.2382 -4.3497 -0.1956
0.2382 -4.3400 -0.1974
0.2387 -4.3294 -0.1962
0.2385 -4.3212 -0.1996
0.4313 -6.9854 1.2002
0.2383 -6.5631 -0.1905
0.2372 -6.1556 -0.2160
0.2415 -5.5220 -0.2123
0.2455 -5.2094 -0.1977
0.2462 -4.9205 -0.2046
0.2480 -4.7527 -0.1991
0.2490 -4.6326 -0.1972
0.2499 -4.5808 -0.1930
0.2492 -4.5636 -0.1985
0.2495 -4.5418 -0.1972
0.2496 -4.5226 -0.1976
0.2496 -4.5044 -0.1981
0.2499 -4.4860 -0.1968
0.2501 -4.4692 -0.1966
0.2506 -4.4516 -0.1937
0.2500 -4.4394 -0.1981
0.2505 -4.4102 -0.1959
0.2502 -4.3988 -0.1988
0.2512 -4.3829 -0.1921
0.2510 -4.3720 -0.1938
0.2504 -4.3630 -0.1987
0.2514 -4.3491 -0.1923
0.2505 -4.3416 -0.1988
0.2504 -4.3321 -0.2000
0.2507 -4.3217 -0.1983
0.4913 -6.9960 1.1870
0.4845 -6.9878 1.1358
0.4749 -6.9255 1.0704
0.3023 -6.7237 -0.2386
0.2816 -5.3867 -0.2052
0.2788 -5.2070 -0.2009
0.2768 -5.1485 -0.2079
0.2703 -4.7534 -0.2012
0.2711 -4.7064 -0.1883
0.2687 -4.6306 -0.1959
0.2681 -4.6074 -0.1974
0.2673 -4.5868 -0.2003
0.2676 -4.5594 -0.1938
0.2667 -4.5427 -0.1983
0.2665 -4.5227 -0.1976
0.2663 -4.5031 -0.1960
0.2659 -4.4860 -0.1964
0.2653 -4.4713 -0.1990
0.2653 -4.4542 -0.1969
0.2651 -4.4388 -0.1961
0.2651 -4.4230 -0.1936
0.2646 -4.4108 -0.1957
0.2643 -4.3981 -0.1962
0.2640 -4.3863 -0.1972
0.2638 -4.3742 -0.1966
0.2637 -4.3623 -0.1955
0.2635 -4.3405 -0.1940
0.2631 -4.3315 -0.1963
0.2623 -4.3237 -0.2008
0.5325 -7.1751 0.9519
0.4791 -7.1009 0.5247
0.3812 -6.7860 -0.1930
0.3405 -5.8896 -0.2107
0.3340 -5.8057 -0.2348
0.3191 -5.3527 -0.1956
0.3117 -5.2055 -0.2044
0.2979 -4.8521 -0.1926
0.2955 -4.8266 -0.2035
0.2940 -4.7866 -0.2016
0.2913 -4.7164 -0.1986
0.2901 -4.6860 -0.1981
0.2890 -4.6570 -0.1970
0.2879 -4.6302 -0.1961
0.2867 -4.6076 -0.1981
0.2858 -4.5833 -0.1967
0.2847 -4.5639 -0.1993
0.2838 -4.5435 -0.1993
0.2832 -4.5220 -0.1966
0.2827 -4.5010 -0.1929
0.2817 -4.4860 -0.1959
0.2807 -4.4719 -0.1993
0.2802 -4.4548 -0.1971
0.2798 -4.4387 -0.1951
0.2788 -4.4101 -0.1932
0.2780 -4.3986 -0.1957
0.2776 -4.3856 -0.1944
0.2768 -4.3753 -0.1971
0.2766 -4.3628 -0.1947
0.2758 -4.3534 -0.1977
0.2755 -4.3426 -0.1967
0.2748 -4.3336 -0.1989
0.2741 -4.3252 -0.2021
0.6292 -7.6125 0.9527
0.5890 -7.3770 0.7235
0.5899 -7.4788 0.6675
0.5627 -7.2134 0.5793
0.5470 -7.0909 0.5082
0.4744 -7.1271 -0.1973
0.4570 -6.9275 -0.2353
0.4151 -6.2760 -0.2181
0.3890 -5.8893 -0.2186
0.3701 -5.6079 -0.2189
0.3550 -5.3590 -0.2036
0.3441 -5.1955 -0.2036
0.3352 -5.0667 -0.2054
0.3279 -4.9457 -0.1975
0.3219 -4.8521 -0.1948
0.3124 -4.7121 -0.1960
0.3086 -4.6542 -0.1951
0.3051 -4.6071 -0.1981
0.3023 -4.5611 -0.1961
0.2995 -4.5235 -0.1984
0.2981 -4.5073 -0.2011
0.2971 -4.4880 -0.1984
0.2951 -4.4547 -0.1962
0.2933 -4.4247 -0.1943
0.2923 -4.4124 -0.1962
0.2914 -4.3998 -0.1964
0.2906 -4.3873 -0.1961
0.2899 -4.3752 -0.1952
0.2891 -4.3638 -0.1950
0.2883 -4.3539 -0.1967
0.2877 -4.3430 -0.1955
0.2868 -4.3345 -0.1990
0.6435 -7.3258 0.5704
0.5920 -7.2768 0.0756
0.5723 -7.3107 -0.1638
0.5579 -7.2202 -0.2292
0.5102 -6.6559 -0.1909
0.4851 -6.3828 -0.1940
0.4728 -6.2862 -0.2309
0.4497 -6.0102 -0.2108
0.4349 -5.8519 -0.2145
0.4240 -5.7463 -0.2287
0.4082 -5.5432 -0.2005
0.3910 -5.3654 -0.2115
0.3757 -5.1900 -0.2050
0.3636 -5.0537 -0.2013
0.3537 -4.9380 -0.1952
0.3458 -4.8563 -0.2001
0.3330 -4.7092 -0.1947
0.3278 -4.6552 -0.1970
0.3233 -4.6049 -0.1963
0.3158 -4.5220 -0.1964
0.3126 -4.4873 -0.1968
0.3112 -4.4697 -0.1949
0.3097 -4.4559 -0.1974
0.3084 -4.4411 -0.1972
0.3071 -4.4272 -0.1974
0.3058 -4.4142 -0.1981
0.3047 -4.4015 -0.1982
0.3037 -4.3878 -0.1955
0.3025 -4.3768 -0.1968
0.3015 -4.3654 -0.1965
0.3007 -4.3532 -0.1932
0.2984 -4.3366 -0.2015
0.2975 -4.3272 -0.2020
0.7166 -7.3846 0.4889
0.7421 -7.9001 0.0912
0.7225 -7.7868 0.0126
0.6746 -7.5357 -0.2166
0.6376 -7.2343 -0.2468
0.5490 -6.4380 -0.2181
0.5281 -6.2686 -0.2361
0.4988 -5.9978 -0.2157
0.4333 -5.4088 -0.1948
0.4266 -5.3669 -0.2173
0.4138 -5.2407 -0.1974
0.4069 -5.1882 -0.2082
0.3844 -4.9807 -0.1936
0.3608 -4.7784 -0.2001
0.3532 -4.7087 -0.1955
0.3498 -4.6766 -0.1924
0.3469 -4.6570 -0.1996
0.3413 -4.6081 -0.2002
0.3387 -4.5844 -0.1989
0.3362 -4.5597 -0.1948
0.3339 -4.5392 -0.1940
0.3318 -4.5191 -0.1924
0.3278 -4.4899 -0.2002
0.3259 -4.4710 -0.1962
0.3242 -4.4558 -0.1964
0.3225 -4.4416 -0.1971
0.3210 -4.4257 -0.1939
0.3195 -4.4121 -0.1932
0.3179 -4.4013 -0.1966
0.3166 -4.3888 -0.1960
0.3153 -4.3748 -0.1913
0.3129 -4.3524 -0.1897
0.3116 -4.3449 -0.1957
0.3105 -4.3348 -0.1951
0.7454 -7.4268 -0.2145
0.6952 -7.0689 -0.2292
0.5992 -6.3600 -0.2094
0.5835 -6.2652 -0.2449
0.5412 -5.9363 -0.2054
0.4457 -5.2389 -0.2009
0.3774 -4.7403 -0.1975
0.3735 -4.7131 -0.2007
0.3622 -4.6301 -0.1988
0.3589 -4.6058 -0.1983
0.3558 -4.5836 -0.1984
0.3530 -4.5641 -0.2003
0.3503 -4.5442 -0.2004
0.3476 -4.5226 -0.1968
0.3451 -4.5050 -0.1971
0.3428 -4.4877 -0.1966
0.3406 -4.4722 -0.1974
0.3385 -4.4577 -0.1985
0.3365 -4.4414 -0.1959
0.3346 -4.4275 -0.1958
0.3327 -4.4132 -0.1939
0.3310 -4.4004 -0.1937
0.3293 -4.3911 -0.1988
0.3277 -4.3782 -0.1964
0.3247 -4.3562 -0.1960
0.3233 -4.3459 -0.1958
0.3220 -4.3363 -0.1963
0.8156 -7.3536 -0.2174
0.7499 -6.9439 -0.2180
0.7312 -6.8478 -0.2702
0.6556 -6.3557 -0.2186
0.6311 -6.2110 -0.2394
0.5858 -5.9162 -0.2072
0.5369 -5.6079 -0.1991
0.5043 -5.4060 -0.2042
0.4746 -5.2169 -0.1945
0.4537 -5.0878 -0.1971
0.4225 -4.8962 -0.2053
0.4093 -4.8129 -0.2027
0.3986 -4.7473 -0.2050
0.3797 -4.6254 -0.1947
0.3770 -4.6129 -0.2064
0.3692 -4.5595 -0.1950
0.3661 -4.5412 -0.1966
0.3632 -4.5239 -0.1984
0.3606 -4.5091 -0.2024
0.3577 -4.4889 -0.1979
0.3550 -4.4720 -0.1965
0.3527 -4.4588 -0.1996
0.3505 -4.4459 -0.2022
0.3480 -4.4279 -0.1955
0.3460 -4.4162 -0.1980
0.3439 -4.4021 -0.1954
0.3401 -4.3786 -0.1956
0.3367 -4.3571 -0.1962
0.3351 -4.3496 -0.2022
0.3335 -4.3394 -0.2015
0.9814 -7.8284 -0.2256
0.8215 -6.9565 -0.2338
0.6998 -6.2837 -0.2102
0.5412 -5.4173 -0.2143
0.5294 -5.3568 -0.2275
0.5056 -5.2187 -0.1996
0.4814 -5.0863 -0.1998
0.4630 -4.9875 -0.2065
0.4453 -4.8898 -0.2032
0.4310 -4.8117 -0.2036
0.4077 -4.6836 -0.2022
0.3984 -4.6334 -0.2036
0.3898 -4.5859 -0.2016
0.3858 -4.5632 -0.1995
0.3817 -4.5396 -0.1946
0.3753 -4.5053 -0.1970
0.3726 -4.4916 -0.2012
0.3698 -4.4767 -0.2028
0.3666 -4.4572 -0.1964
0.3643 -4.4463 -0.2020
0.3616 -4.4309 -0.1996
0.3593 -4.4191 -0.2020
0.3547 -4.3931 -0.1997
0.3504 -4.3687 -0.1963
0.3466 -4.3477 -0.1958
0.3448 -4.3386 -0.1975
1.0773 -7.8477 -0.1553
1.0803 -7.8821 -0.2518
0.7636 -6.3338 -0.2331
0.6172 -5.6162 -0.2148
0.5774 -5.4237 -0.2223
0.5534 -5.3034 -0.2075
0.5365 -5.2204 -0.2046
0.5188 -5.1324 -0.1946
0.5099 -5.0913 -0.2061
0.4994 -5.0408 -0.2099
0.4893 -4.9921 -0.2123
0.4683 -4.8878 -0.2041
0.4527 -4.8122 -0.2058
0.4375 -4.7369 -0.1989
0.4254 -4.6772 -0.1971
0.4157 -4.6310 -0.2018
0.4104 -4.6042 -0.1980
0.4055 -4.5796 -0.1948
0.4020 -4.5638 -0.2005
0.3978 -4.5431 -0.1990
0.3937 -4.5228 -0.1967
0.3899 -4.5037 -0.1945
0.3869 -4.4899 -0.1984
0.3844 -4.4792 -0.2060
0.3771 -4.4406 -0.1921
0.3722 -4.4182 -0.1993
0.3673 -4.3953 -0.2025
0.3623 -4.3696 -0.1965
0.3580 -4.3485 -0.1958
0.3542 -4.3306 -0.1986
1.2820 -8.1780 1.1892
1.4022 -8.7492 0.8869
1.3782 -8.6569 0.7895
1.3547 -8.5667 0.6941
1.3529 -8.5708 0.6059
1.3297 -8.4815 0.5124
1.3383 -8.5317 0.4231
1.3376 -8.6110 -0.1733
1.3011 -8.4619 -0.2593
0.6103 -5.4142 -0.2233
0.5646 -5.2104 -0.2038
0.5373 -5.0907 -0.2091
0.5099 -4.9691 -0.2005
0.4914 -4.8884 -0.2068
0.4734 -4.8091 -0.2052
0.4639 -4.7658 -0.1979
0.4574 -4.7380 -0.2012
0.4508 -4.7090 -0.2018
0.4437 -4.6772 -0.1981
0.4381 -4.6526 -0.1995
0.4322 -4.6261 -0.1974
0.4268 -4.6025 -0.1967
0.4230 -4.5864 -0.2029
0.4177 -4.5629 -0.1995
0.4132 -4.5429 -0.1988
0.4095 -4.5270 -0.2021
0.4049 -4.5063 -0.1978
0.4016 -4.4918 -0.2007
0.3975 -4.4733 -0.1968
0.3939 -4.4573 -0.1952
0.3908 -4.4437 -0.1962
0.3883 -4.4337 -0.2022
0.3853 -4.4205 -0.2022
0.3819 -4.4044 -0.1958
0.3793 -4.3931 -0.1970
0.3767 -4.3820 -0.1977
0.3743 -4.3717 -0.1991
0.3719 -4.3610 -0.1990
0.3696 -4.3506 -0.1983
1.5148 -8.7771 1.3674
1.4535 -8.5751 0.8440
1.4645 -8.6265 0.7635
1.4760 -8.6798 0.6795
1.4755 -8.6856 0.5892
1.4386 -8.5451 0.4924
1.4196 -8.5264 -0.1844
1.4185 -8.5311 -0.2898
0.6277 -5.3437 -0.1972
0.6140 -5.2896 -0.2101
0.5784 -5.1466 -0.2096
0.5557 -5.0539 -0.1916
0.5460 -5.0158 -0.2011
0.5236 -4.9259 -0.2053
0.5133 -4.8845 -0.2063
0.5032 -4.8439 -0.2055
0.4844 -4.7678 -0.2010
0.4678 -4.7006 -0.1954
0.4623 -4.6789 -0.2007
0.4561 -4.6542 -0.2019
0.4490 -4.6252 -0.1970
0.4438 -4.6048 -0.1996
0.4383 -4.5824 -0.1986
0.4329 -4.5604 -0.1967
0.4274 -4.5381 -0.1929
0.4241 -4.5253 -0.1997
0.4190 -4.5046 -0.1951
0.4152 -4.4893 -0.1968
0.4108 -4.4716 -0.1936
0.4072 -4.4570 -0.1940
0.4041 -4.4447 -0.1970
0.4006 -4.4306 -0.1962
0.3978 -4.4195 -0.1994
0.3939 -4.4034 -0.1927
0.3913 -4.3933 -0.1961
0.3886 -4.3822 -0.1967
0.3856 -4.3701 -0.1943
0.3836 -4.3625 -0.2003
0.3810 -4.3520 -0.1996
0.3786 -4.3423 -0.1997
0.3762 -4.3328 -0.1995
1.6468 -8.9256 1.5348
1.5882 -8.7408 0.7503
1.5622 -8.6485 0.6543
1.5495 -8.6055 0.5626
1.5369 -8.5625 0.4708
1.5502 -8.6154 0.3795
1.5246 -8.5449 -0.2076
1.4850 -8.4016 -0.2910
0.6574 -5.3330 -0.1601
0.6474 -5.2966 -0.1810
0.5751 -5.0291 -0.1806
0.5710 -5.0148 -0.2034
0.5225 -4.8354 -0.2011
0.5041 -4.7671 -0.2020
0.4958 -4.7366 -0.2026
0.4871 -4.7040 -0.1996
0.4719 -4.6476 -0.1960
0.4596 -4.6022 -0.1972
0.4558 -4.5885 -0.2059
0.4498 -4.5664 -0.2040
0.4424 -4.5386 -0.1935
0.4377 -4.5212 -0.1943
0.4290 -4.4890 -0.1959
0.4215 -4.4615 -0.2002
0.4176 -4.4471 -0.2000
0.4138 -4.4330 -0.1991
0.4096 -4.4171 -0.1941
0.4058 -4.4029 -0.1908
0.4029 -4.3923 -0.1928
0.3979 -4.3741 -0.2007
0.3950 -4.3634 -0.2003
0.3923 -4.3534 -0.2008
0.3900 -4.3449 -0.2035
0.3874 -4.3353 -0.2033
1.6402 -8.5946 1.0474
1.6412 -8.5984 0.9672
1.6563 -8.6505 0.8910
1.6318 -8.5671 0.7130
1.6327 -8.5705 0.6268
1.6203 -8.5284 0.5370
1.6079 -8.4863 0.4471
1.6226 -8.5368 0.3573
1.5840 -8.4053 0.1756
1.6601 -8.6679 -0.2444
1.5602 -8.3254 -0.2991
0.6954 -5.3562 -0.1746
0.6899 -5.3375 -0.2040
0.6028 -5.0381 -0.1276
0.5986 -5.0239 -0.1502
0.5967 -5.0175 -0.1770
0.5920 -5.0014 -0.1982
0.5775 -4.9518 -0.1975
0.5650 -4.9087 -0.1985
0.5453 -4.8411 -0.2073
0.5235 -4.7664 -0.2029
0.5044 -4.7006 -0.1976
0.4889 -4.6474 -0.1967
0.4828 -4.6265 -0.1997
0.4761 -4.6036 -0.1992
0.4629 -4.5583 -0.1945
0.4577 -4.5405 -0.1959
0.4531 -4.5247 -0.1986
0.4342 -4.4597 -0.1968
0.4298 -4.4446 -0.1952
0.4265 -4.4332 -0.1986
0.4224 -4.4194 -0.1970
0.4187 -4.4065 -0.1959
0.4157 -4.3964 -0.1992
0.4123 -4.3846 -0.1983
0.4097 -4.3756 -0.2021
0.4058 -4.3623 -0.1965
0.4029 -4.3524 -0.1968
0.4008 -4.3451 -0.2020
0.7454 -5.3779 0.6312
1.9213 -8.3665 0.9085
2.1341 -8.8993 0.8861
0.8832 -5.6434 -0.1216
0.7579 -5.3349 -0.0603
0.8052 -5.4415 -0.1750
0.7943 -5.4112 -0.2026
0.6166 -4.9781 -0.0708
0.6494 -5.0469 -0.1991
0.6293 -4.9963 -0.2001
0.5894 -4.8963 -0.1945
0.5599 -4.8219 -0.1967
0.5434 -4.7811 -0.1917
0.5124 -4.7020 -0.2014
0.4875 -4.6405 -0.1908
0.4712 -4.5992 -0.1944
0.4606 -4.5731 -0.1878
0.4555 -4.5594 -0.1947
0.4484 -4.5416 -0.1954
0.4408 -4.5227 -0.1934
0.4340 -4.5056 -0.1926
0.4282 -4.4909 -0.1940
0.4210 -4.4732 -0.1897
0.4163 -4.4611 -0.1930
0.4105 -4.4467 -0.1915
0.4045 -4.4319 -0.1882
0.3951 -4.4082 -0.1890
0.3917 -4.3992 -0.1934
0.3863 -4.3861 -0.1889
0.3830 -4.3774 -0.1925
0.3784 -4.3660 -0.1895
0.3752 -4.3577 -0.1924
0.3723 -4.3500 -0.1963
0.7252 -5.2704 0.6570
0.8136 -5.3868 -0.0782
0.7910 -5.3309 -0.0954
0.6478 -4.9889 -0.1086
0.6517 -4.9866 -0.1999
0.6171 -4.9036 -0.2064
0.5506 -4.7466 -0.1976
0.5261 -4.6884 -0.1974
0.5161 -4.6645 -0.1998
0.5052 -4.6387 -0.1986
0.4919 -4.6083 -0.1904
0.4864 -4.5940 -0.1989
0.4675 -4.5497 -0.1935
0.4587 -4.5293 -0.1906
0.4515 -4.5122 -0.1906
0.4458 -4.4981 -0.1939
0.4384 -4.4810 -0.1915
0.4322 -4.4661 -0.1914
0.4264 -4.4523 -0.1918
0.4213 -4.4400 -0.1937
0.4147 -4.4248 -0.1895
0.4098 -4.4130 -0.1903
0.4062 -4.4038 -0.1953
0.3957 -4.3796 -0.1908
0.3920 -4.3704 -0.1934
0.3877 -4.3603 -0.1930
0.3838 -4.3509 -0.1935
0.3800 -4.3418 -0.1935
0.3762 -4.3328 -0.1932
0.8464 -5.3860 -0.0403
0.8206 -5.3254 -0.0575
0.7110 -5.0562 -0.2159
0.6732 -4.9739 -0.1978
0.6278 -4.8728 -0.1913
0.5910 -4.7908 -0.1872
0.5804 -4.7659 -0.1949
0.5648 -4.7312 -0.1925
0.5545 -4.7074 -0.1980
0.5413 -4.6779 -0.1964
0.5318 -4.6558 -0.2006
0.5062 -4.5997 -0.1912
0.4986 -4.5820 -0.1956
0.4803 -4.5413 -0.1941
0.4738 -4.5261 -0.1980
0.4652 -4.5070 -0.1956
0.4570 -4.4891 -0.1932
0.4494 -4.4722 -0.1910
0.4446 -4.4608 -0.1963
0.4372 -4.4446 -0.1926
0.4298 -4.4287 -0.1882
0.4257 -4.4187 -0.1930
0.4199 -4.4058 -0.1917
0.4162 -4.3968 -0.1968
0.4095 -4.3827 -0.1909
0.4053 -4.3729 -0.1927
0.4008 -4.3627 -0.1929
0.3966 -4.3533 -0.1939
0.3922 -4.3436 -0.1932
0.3889 -4.3356 -0.1960
0.3858 -4.3282 -0.1999
0.7360 -5.1703 0.5549
0.8746 -5.3688 -0.0344
0.8497 -5.3128 -0.0534
0.6603 -4.9115 -0.0465
0.7250 -5.0237 -0.2020
0.6771 -4.9218 -0.2018
0.6326 -4.8283 -0.1954
0.6163 -4.7934 -0.1973
0.5978 -4.7546 -0.1936
0.5824 -4.7220 -0.1930
0.5717 -4.6985 -0.1988
0.5444 -4.6410 -0.1951
0.5334 -4.6175 -0.1961
0.5202 -4.5903 -0.1910
0.5112 -4.5707 -0.1930
0.5026 -4.5522 -0.1951
0.4832 -4.5116 -0.1904
0.4780 -4.4996 -0.1975
0.4680 -4.4793 -0.1915
0.4623 -4.4665 -0.1954
0.4544 -4.4502 -0.1927
0.4485 -4.4374 -0.1945
0.4412 -4.4224 -0.1914
0.4362 -4.4112 -0.1941
0.4298 -4.3980 -0.1919
0.4256 -4.3884 -0.1960
0.4197 -4.3763 -0.1938
0.4089 -4.3539 -0.1900
0.4046 -4.3447 -0.1911
0.3994 -4.3341 -0.1879
0.3966 -4.3272 -0.1933
0.3931 -4.3195 -0.1958
0.7601 -5.1695 0.5641
0.7387 -5.1175 0.5143
0.7717 -5.1698 0.4350
0.7711 -5.1644 0.4116
0.7774 -5.1729 0.3884
0.8002 -5.2145 0.3647
0.9085 -5.3615 -0.0316
0.9014 -5.3414 -0.0634
0.6937 -4.9250 -0.0565
0.7446 -5.0025 -0.1949
0.6990 -4.9098 -0.2005
0.6537 -4.8194 -0.1964
0.6158 -4.7438 -0.1930
0.5594 -4.6382 -0.1498
0.5569 -4.6300 -0.1674
0.5469 -4.6053 -0.1931
0.5361 -4.5834 -0.1940
0.5275 -4.5654 -0.1981
0.5166 -4.5437 -0.1962
0.4952 -4.5019 -0.1893
0.4891 -4.4887 -0.1946
0.4795 -4.4701 -0.1907
0.4701 -4.4519 -0.1858
0.4666 -4.4432 -0.1954
0.4608 -4.4311 -0.1984
0.4513 -4.4134 -0.1902
0.4453 -4.4013 -0.1908
0.4391 -4.3889 -0.1898
0.4336 -4.3779 -0.1905
0.4294 -4.3686 -0.1942
0.4241 -4.3580 -0.1940
0.4192 -4.3482 -0.1944
0.4097 -4.3290 -0.1940
0.4050 -4.3198 -0.1931
0.4014 -4.3121 -0.1957
0.7630 -5.1129 0.5018
0.7741 -5.1306 0.4833
0.7755 -5.1288 0.4614
0.8014 -5.1654 0.3953
0.7874 -5.1339 0.3703
0.6486 -4.8544 0.2928
0.6503 -4.8540 0.2737
0.9389 -5.3387 -0.0626
1.0054 -5.4416 -0.1851
0.7074 -4.9006 -0.0473
0.7585 -4.9658 -0.2124
0.7222 -4.8990 -0.2002
0.7056 -4.8657 -0.2086
0.6724 -4.8055 -0.1936
0.5683 -4.6177 -0.1388
0.5640 -4.6069 -0.1532
0.5674 -4.6079 -0.1804
0.5570 -4.5874 -0.1838
0.5511 -4.5741 -0.1944
0.5300 -4.5337 -0.1955
0.5201 -4.5148 -0.1954
0.5115 -4.4983 -0.1972
0.4998 -4.4771 -0.1908
0.4927 -4.4631 -0.1937
0.4761 -4.4319 -0.1908
0.4689 -4.4183 -0.1907
0.4631 -4.4067 -0.1932
0.4573 -4.3953 -0.1952
0.4504 -4.3825 -0.1933
0.4407 -4.3629 -0.1993
0.4282 -4.3402 -0.1939
0.4221 -4.3293 -0.1903
0.4176 -4.3205 -0.1911
0.4131 -4.3119 -0.1916
0.4098 -4.3048 -0.1956
0.6274 -4.8180 0.4920
0.7460 -5.0291 0.4777
0.7394 -5.0044 0.4154
0.6385 -4.7983 0.3008
0.6926 -4.8860 0.2530
0.9574 -5.3087 -0.0140
0.9585 -5.3030 -0.0507
0.9616 -5.3005 -0.0892
1.0040 -5.3633 -0.1554
0.7147 -4.8665 -0.0331
0.7404 -4.8794 -0.1937
0.5869 -4.6215 -0.1008
0.5863 -4.6163 -0.1209
0.5876 -4.6138 -0.1441
0.5921 -4.6159 -0.1728
0.5895 -4.6075 -0.1909
0.5671 -4.5659 -0.1964
0.5552 -4.5445 -0.1961
0.5435 -4.5236 -0.1947
0.5323 -4.5038 -0.1931
0.5244 -4.4887 -0.1969
0.5135 -4.4697 -0.1935
0.5067 -4.4565 -0.1977
0.4956 -4.4378 -0.1915
0.4881 -4.4241 -0.1923
0.4819 -4.4123 -0.1955
0.4746 -4.3991 -0.1951
0.4678 -4.3868 -0.1951
0.4606 -4.3742 -0.1934
0.4544 -4.3630 -0.1933
0.4478 -4.3515 -0.1915
0.4417 -4.3408 -0.1903
0.4353 -4.3298 -0.1873
0.4322 -4.3228 -0.1936
0.4271 -4.3137 -0.1933
0.4183 -4.2973 -0.1955
0.6184 -4.7690 0.4883
0.6231 -4.7743 0.4759
0.6277 -4.7794 0.4630
0.6419 -4.7691 0.3064
0.6504 -4.7796 0.2879
0.6992 -4.8569 0.2599
0.6693 -4.8029 0.2472
0.9770 -5.2975 0.1014
1.0179 -5.3564 0.0509
0.9982 -5.3164 0.0229
0.9819 -5.2822 -0.0052
0.9614 -5.2417 -0.0300
0.9486 -5.2137 -0.0578
0.6237 -4.6515 -0.0841
0.6571 -4.6840 -0.1959
0.6401 -4.6548 -0.1961
0.6252 -4.6289 -0.1978
0.5940 -4.5764 -0.1942
0.5816 -4.5548 -0.1951
0.5716 -4.5369 -0.1992
0.5595 -4.5163 -0.1981
0.5479 -4.4968 -0.1969
0.5365 -4.4778 -0.1947
0.5248 -4.4586 -0.1905
0.5164 -4.4439 -0.1919
0.5090 -4.4306 -0.1946
0.5007 -4.4165 -0.1947
0.4931 -4.4033 -0.1951
0.4863 -4.3914 -0.1970
0.4771 -4.3767 -0.1918
0.4719 -4.3669 -0.1957
0.4624 -4.3524 -0.1879
0.4515 -4.3330 -0.1908
0.4399 -4.3136 -0.1894
0.4359 -4.3059 -0.1930
0.4311 -4.2975 -0.1937
0.6164 -4.7388 0.5007
0.6183 -4.7388 0.4881
0.6273 -4.7444 0.4493
0.6471 -4.7444 0.3116
0.6827 -4.7884 0.2521
1.2191 -5.5889 -0.0503
1.0078 -5.2497 -0.0330
0.9885 -5.2124 -0.0584
0.9627 -5.1658 -0.0785
0.8820 -5.0390 -0.0601
0.7781 -4.8802 -0.0176
0.7720 -4.8652 -0.0394
0.6638 -4.6784 -0.0869
0.6621 -4.6708 -0.1077
0.6731 -4.6691 -0.1919
0.6561 -4.6411 -0.1930
0.6447 -4.6209 -0.2006
0.6290 -4.5953 -0.2007
0.6090 -4.5648 -0.1926
0.5864 -4.5266 -0.1988
0.5709 -4.5028 -0.1930
0.5624 -4.4877 -0.1980
0.5492 -4.4673 -0.1933
0.5404 -4.4524 -0.1958
0.5221 -4.4226 -0.1967
0.5122 -4.4072 -0.1941
0.5038 -4.3936 -0.1936
0.4960 -4.3809 -0.1935
0.4887 -4.3690 -0.1938
0.4811 -4.3569 -0.1924
0.4771 -4.3488 -0.1993
0.4705 -4.3382 -0.1991
0.4626 -4.3264 -0.1948
0.4575 -4.3176 -0.1969
0.4511 -4.3076 -0.1950
0.4448 -4.2980 -0.1926
0.4407 -4.2906 -0.1960
0.6115 -4.7056 0.5108
0.6129 -4.7048 0.4987
0.6162 -4.7071 0.4871
0.6189 -4.7082 0.4749
0.6278 -4.7160 0.4505
0.6506 -4.7300 0.3649
0.6458 -4.7189 0.3491
0.6914 -4.7667 0.2580
0.6678 -4.7273 0.2453
1.3833 -5.7473 -0.0915
1.0568 -5.2578 -0.0360
1.0491 -5.2376 -0.0691
0.7911 -4.8486 -0.0344
0.7950 -4.8474 -0.0639
0.7130 -4.7253 -0.0464
0.7029 -4.7063 -0.0605
0.7220 -4.7007 -0.2028
0.6967 -4.6632 -0.1970
0.6616 -4.6086 -0.1991
0.6454 -4.5835 -0.1995
0.6242 -4.5530 -0.1909
0.6145 -4.5364 -0.1979
0.6024 -4.5172 -0.2000
0.5884 -4.4961 -0.1979
0.5741 -4.4751 -0.1938
0.5644 -4.4595 -0.1964
0.5558 -4.4453 -0.2001
0.5439 -4.4278 -0.1966
0.5331 -4.4118 -0.1939
0.5253 -4.3992 -0.1964
0.5156 -4.3849 -0.1941
0.5085 -4.3734 -0.1963
0.4981 -4.3589 -0.1904
0.4921 -4.3488 -0.1934
0.4852 -4.3381 -0.1938
0.4784 -4.3277 -0.1936
0.4735 -4.3192 -0.1975
0.4659 -4.3084 -0.1939
0.4603 -4.2995 -0.1945
0.4538 -4.2900 -0.1922
0.4491 -4.2823 -0.1944
0.6252 -4.6842 0.4507
0.6285 -4.6858 0.4380
0.6300 -4.6701 0.3678
0.6572 -4.6766 0.2385
1.0911 -5.2325 -0.0685
0.7351 -4.7174 -0.0466
0.7355 -4.7119 -0.0707
0.8158 -4.7966 -0.1985
0.7595 -4.7151 -0.1949
0.7359 -4.6807 -0.1945
0.7153 -4.6504 -0.1954
0.6619 -4.5715 -0.1981
0.6432 -4.5452 -0.1945
0.6274 -4.5224 -0.1932
0.6134 -4.5019 -0.1931
0.6006 -4.4830 -0.1935
0.5894 -4.4662 -0.1956
0.5779 -4.4493 -0.1958
0.5577 -4.4191 -0.1983
0.5365 -4.3890 -0.1946
0.5271 -4.3755 -0.1936
0.5173 -4.3619 -0.1907
0.5023 -4.3397 -0.1923
0.4977 -4.3313 -0.1983
0.4877 -4.3185 -0.1915
0.4822 -4.3097 -0.1944
0.4744 -4.2992 -0.1908
0.4686 -4.2905 -0.1915
0.4623 -4.2816 -0.1905
0.4589 -4.2751 -0.1965
0.4523 -4.2663 -0.1934
0.6251 -4.6582 0.4516
0.6232 -4.6519 0.4380
0.6247 -4.6505 0.4251
0.6261 -4.6490 0.4120
0.6268 -4.6464 0.3985
0.6308 -4.6484 0.3851
0.6302 -4.6437 0.3711
0.6407 -4.6386 0.2971
0.6508 -4.6394 0.2477
1.4404 -5.6396 -0.1117
1.3056 -5.4546 -0.1039
0.8033 -4.7831 -0.0068
0.7947 -4.7661 -0.0259
0.7938 -4.7584 -0.0504
0.7965 -4.7548 -0.0779
0.8501 -4.8102 -0.1491
0.8815 -4.8386 -0.2059
0.8412 -4.7846 -0.1984
0.7633 -4.6758 -0.2011
0.7143 -4.6095 -0.1948
0.6981 -4.5858 -0.1986
0.6758 -4.5565 -0.1931
0.6610 -4.5352 -0.1957
0.6458 -4.5140 -0.1963
0.6341 -4.4965 -0.2006
0.6187 -4.4757 -0.1983
0.5936 -4.4409 -0.1987
0.5824 -4.4251 -0.1993
0.5692 -4.4078 -0.1953
0.5494 -4.3802 -0.1958
0.5412 -4.3683 -0.1980
0.5316 -4.3553 -0.1964
0.5210 -4.3419 -0.1920
0.5126 -4.3305 -0.1911
0.5068 -4.3214 -0.1950
0.5016 -4.3128 -0.1996
0.4924 -4.3015 -0.1947
0.4863 -4.2926 -0.1960
0.4784 -4.2826 -0.1921
0.4724 -4.2742 -0.1925
0.4675 -4.2667 -0.1949
0.4621 -4.2591 -0.1957
0.6285 -4.6419 0.4661
0.6517 -4.6267 0.3011
0.6555 -4.6273 0.2851
0.6553 -4.6227 0.2694
0.6675 -4.6244 0.2173
0.8420 -4.7972 0.0113
0.8356 -4.7827 -0.0105
0.8369 -4.7698 -0.0633
0.8633 -4.7917 -0.1099
0.8989 -4.8146 -0.1967
0.8455 -4.7414 -0.2070
0.8013 -4.6875 -0.1911
0.7562 -4.6269 -0.1952
0.7410 -4.6048 -0.2028
0.7007 -4.5520 -0.2017
0.6791 -4.5250 -0.1967
0.6590 -4.4998 -0.1916
0.6338 -4.4649 -0.1979
0.6097 -4.4322 -0.2015
0.5943 -4.4133 -0.1961
0.5823 -4.3978 -0.1950
0.5710 -4.3832 -0.1940
0.5592 -4.3685 -0.1911
0.5508 -4.3569 -0.1933
0.5420 -4.3451 -0.1939
0.5241 -4.3219 -0.1920
0.5176 -4.3126 -0.1950
0.5117 -4.3038 -0.1986
0.4934 -4.2823 -0.1894
0.4877 -4.2742 -0.1915
0.4821 -4.2663 -0.1932
0.4775 -4.2592 -0.1970
0.8511 -4.7837 0.0719
0.8433 -4.7681 0.0511
0.8497 -4.7679 0.0228
0.8624 -4.7744 -0.0100
0.8660 -4.7707 -0.0384
0.8575 -4.7542 -0.0591
0.9230 -4.7977 -0.1932
0.9050 -4.7709 -0.2080
0.8323 -4.6827 -0.1985
0.8095 -4.6531 -0.2027
0.7552 -4.5870 -0.1959
0.7350 -4.5614 -0.1970
0.7108 -4.5328 -0.1916
0.6934 -4.5107 -0.1926
0.6826 -4.4949 -0.2006
0.6597 -4.4688 -0.1914
0.6485 -4.4534 -0.1967
0.6370 -4.4379 -0.2004
0.6232 -4.4208 -0.1998
0.6079 -4.4029 -0.1956
0.5956 -4.3877 -0.1947
0.5862 -4.3751 -0.1976
0.5757 -4.3619 -0.1980
0.5649 -4.3488 -0.1966
0.5557 -4.3371 -0.1974
0.5467 -4.3258 -0.1976
0.5389 -4.3155 -0.1993
0.5290 -4.3040 -0.1960
0.5202 -4.2936 -0.1942
0.5137 -4.2848 -0.1964
0.5046 -4.2747 -0.1922
0.4982 -4.2664 -0.1933
0.4909 -4.2577 -0.1915
0.4846 -4.2498 -0.1916
0.4805 -4.2433 -0.1963
1.1367 -5.2028 0.4786
0.7262 -4.6534 0.2689
0.7190 -4.6401 0.2528
0.7097 -4.6247 0.2377
0.8819 -4.7574 -0.0048
0.8818 -4.7496 -0.0308
0.8770 -4.7371 -0.0541
1.0025 -4.8428 -0.2005
0.9263 -4.7517 -0.2026
0.8516 -4.6656 -0.1939
0.8202 -4.6292 -0.1907
0.7996 -4.6033 -0.1958
0.7305 -4.5221 -0.1929
0.7150 -4.5024 -0.1971
0.6960 -4.4803 -0.1958
0.6767 -4.4584 -0.1923
0.6640 -4.4422 -0.1962
0.6539 -4.4283 -0.2026
0.6368 -4.4093 -0.1981
0.6211 -4.3918 -0.1941
0.6078 -4.3766 -0.1925
0.5987 -4.3646 -0.1965
0.5892 -4.3525 -0.1990
0.5768 -4.3388 -0.1959
0.5565 -4.3152 -0.1941
0.5468 -4.3041 -0.1927
0.5383 -4.2940 -0.1927
0.5315 -4.2851 -0.1954
0.5221 -4.2749 -0.1920
0.5160 -4.2668 -0.1949
0.5089 -4.2584 -0.1950
0.5019 -4.2501 -0.1945
0.4944 -4.2419 -0.1924
1.7864 -5.8507 0.3728
1.5492 -5.5687 0.3247
0.7370 -4.6327 0.2562
1.3538 -5.2145 -0.1165
0.8961 -4.7273 -0.0225
0.9014 -4.7243 -0.0520
0.9608 -4.7439 -0.2076
0.9121 -4.6923 -0.1971
0.8846 -4.6600 -0.2013
0.7910 -4.5580 -0.1900
0.7766 -4.5390 -0.1991
0.7580 -4.5170 -0.2024
0.7320 -4.4898 -0.1957
0.7126 -4.4682 -0.1947
0.7019 -4.4536 -0.2031
0.6822 -4.4326 -0.1989
0.6657 -4.4145 -0.1974
0.6505 -4.3978 -0.1964
0.6374 -4.3827 -0.1970
0.6126 -4.3548 -0.1972
0.6004 -4.3414 -0.1961
0.5872 -4.3276 -0.1921
0.5793 -4.3176 -0.1962
0.5704 -4.3070 -0.1978
0.5592 -4.2954 -0.1945
0.5510 -4.2858 -0.1958
0.5435 -4.2768 -0.1976
0.5332 -4.2665 -0.1933
0.5174 -4.2491 -0.1919
0.5119 -4.2419 -0.1951
0.5058 -4.2346 -0.1968
0.7457 -4.6098 0.2439
0.7383 -4.5970 0.2281
0.9878 -4.7835 -0.0291
0.9309 -4.7153 -0.0526
0.9006 -4.6390 -0.1932
0.8516 -4.5837 -0.2026
0.7970 -4.5265 -0.1990
0.7805 -4.5068 -0.2054
0.7506 -4.4779 -0.1957
0.7319 -4.4576 -0.1965
0.7178 -4.4410 -0.2014
0.6962 -4.4197 -0.1959
0.6793 -4.4020 -0.1946
0.6521 -4.3721 -0.1971
0.6400 -4.3586 -0.1988
0.6224 -4.3421 -0.1915
0.6184 -4.3341 -0.2036
0.6012 -4.3186 -0.1942
0.5907 -4.3073 -0.1946
0.5821 -4.2973 -0.1973
0.5718 -4.2866 -0.1963
0.5640 -4.2774 -0.1988
0.5439 -4.2576 -0.1935
0.5375 -4.2498 -0.1966
0.5306 -4.2419 -0.1982
0.5209 -4.2330 -0.1933
0.5130 -4.2252 -0.1914
0.5091 -4.2191 -0.1976
0.7780 -4.5973 0.1887
0.7827 -4.5955 0.1682
1.3512 -5.0826 -0.1118
1.0347 -4.7763 -0.0655
0.8862 -4.6278 -0.0590
0.8636 -4.5622 -0.1924
0.8409 -4.5378 -0.1966
0.8204 -4.5155 -0.2014
0.7888 -4.4861 -0.1932
0.7681 -4.4648 -0.1941
0.7508 -4.4463 -0.1974
0.7311 -4.4266 -0.1966
0.6968 -4.3918 -0.1966
0.6796 -4.3750 -0.1945
0.6619 -4.3583 -0.1903
0.6520 -4.3466 -0.1956
0.6397 -4.3338 -0.1966
0.6160 -4.3096 -0.1972
0.6021 -4.2969 -0.1929
0.5834 -4.2769 -0.1959
0.5650 -4.2581 -0.1964
0.5560 -4.2492 -0.1958
0.5470 -4.2405 -0.1946
0.5405 -4.2330 -0.1974
0.5305 -4.2243 -0.1926
0.5242 -4.2173 -0.1945
0.5185 -4.2106 -0.1972
1.0294 -4.9055 0.4785
1.0324 -4.9006 0.4550
0.8154 -4.5976 0.1665
0.9129 -4.6174 -0.0593
0.9011 -4.6004 -0.0767
1.0124 -4.6638 -0.2101
0.9294 -4.5866 -0.2019
0.8742 -4.5320 -0.2065
0.8421 -4.5028 -0.2016
0.8124 -4.4758 -0.1967
0.7775 -4.4391 -0.2063
0.7566 -4.4193 -0.2053
0.7346 -4.3994 -0.2014
0.7114 -4.3794 -0.1945
0.6957 -4.3641 -0.1951
0.6821 -4.3503 -0.1972
0.6667 -4.3360 -0.1959
0.6534 -4.3231 -0.1962
0.6370 -4.3090 -0.1911
0.6194 -4.2891 -0.2000
0.6085 -4.2785 -0.2001
0.5945 -4.2669 -0.1944
0.5881 -4.2589 -0.2004
0.5763 -4.2488 -0.1963
0.5688 -4.2407 -0.1992
0.5615 -4.2329 -0.2016
0.5505 -4.2239 -0.1965
0.5421 -4.2162 -0.1955
0.5361 -4.2094 -0.1988
1.0171 -4.8569 0.4799
1.0374 -4.8686 0.4596
1.0364 -4.8597 0.4357
1.4411 -5.2187 0.4059
1.5006 -5.2607 0.3696
0.8207 -4.6075 0.2692
0.8019 -4.5852 0.2540
1.1721 -4.8048 -0.0987
1.1611 -4.7855 -0.1261
1.1597 -4.7734 -0.1585
0.9076 -4.5752 -0.0641
1.0228 -4.6361 -0.1962
0.8373 -4.4654 -0.2007
0.7890 -4.4222 -0.1983
0.7477 -4.3851 -0.1967
0.7134 -4.3536 -0.1973
0.6974 -4.3391 -0.1972
0.6776 -4.3232 -0.1909
0.6653 -4.3112 -0.1931
0.6532 -4.2997 -0.1946
0.6398 -4.2878 -0.1934
0.6265 -4.2764 -0.1914
0.6180 -4.2673 -0.1955
0.6069 -4.2573 -0.1950
0.5972 -4.2482 -0.1959
0.5914 -4.2407 -0.2026
0.5800 -4.2314 -0.1992
0.5705 -4.2231 -0.1983
0.5593 -4.2145 -0.1934
0.5544 -4.2080 -0.1995
0.5440 -4.2001 -0.1945
0.5405 -4.1943 -0.2023
1.0310 -4.8275 0.4626
1.0492 -4.8360 0.4415
0.8429 -4.6003 0.2728
0.8291 -4.5827 0.2562
0.8218 -4.5706 0.2391
0.8240 -4.5660 0.2200
1.2884 -4.8705 -0.0627
1.2491 -4.8302 -0.0814
1.3468 -4.8870 -0.1624
1.3508 -4.8766 -0.2030
0.9246 -4.5494 -0.0831
0.9137 -4.5001 -0.2002
0.8924 -4.4794 -0.2070
0.8669 -4.4569 -0.2085
0.8131 -4.4121 -0.2032
0.7911 -4.3933 -0.2029
0.7492 -4.3582 -0.1997
0.7334 -4.3439 -0.2018
0.7129 -4.3277 -0.1971
0.6988 -4.3150 -0.1989
0.6855 -4.3029 -0.2007
0.6669 -4.2889 -0.1943
0.6552 -4.2782 -0.1962
0.6436 -4.2678 -0.1973
0.6335 -4.2582 -0.1998
0.6241 -4.2492 -0.2026
0.6082 -4.2382 -0.1945
0.5997 -4.2300 -0.1971
0.5932 -4.2226 -0.2024
0.5796 -4.2133 -0.1950
0.5700 -4.2055 -0.1937
0.5625 -4.1985 -0.1952
0.5537 -4.1913 -0.1939
0.5469 -4.1849 -0.1957
1.0040 -4.7705 0.4622
1.4852 -5.1252 0.3510
0.8423 -4.5618 0.2424
1.4178 -4.9289 -0.0552
1.3005 -4.8351 -0.0490
1.2840 -4.8118 -0.0774
1.2793 -4.7965 -0.1104
0.9364 -4.5202 -0.0987
0.9351 -4.4934 -0.1726
0.9267 -4.4801 -0.1912
0.9034 -4.4591 -0.1967
0.8634 -4.4221 -0.2092
0.8304 -4.3980 -0.2009
0.8101 -4.3807 -0.2030
0.7828 -4.3606 -0.1964
0.7600 -4.3433 -0.1927
0.7496 -4.3318 -0.2013
0.7300 -4.3167 -0.1986
0.7120 -4.3028 -0.1963
0.6942 -4.2894 -0.1930
0.6807 -4.2780 -0.1940
0.6674 -4.2671 -0.1942
0.6583 -4.2579 -0.1993
0.6424 -4.2467 -0.1941
0.6342 -4.2383 -0.1990
0.6247 -4.2297 -0.2014
0.6112 -4.2202 -0.1968
0.6006 -4.2119 -0.1957
0.5934 -4.2047 -0.1996
0.5809 -4.1964 -0.1939
0.5751 -4.1899 -0.1991
0.5641 -4.1826 -0.1944
0.5592 -4.1766 -0.2000
0.8960 -4.6629 0.4851
0.9859 -4.7318 0.4834
1.2546 -4.7401 -0.0805
1.2909 -4.7503 -0.1309
1.3219 -4.7435 -0.2179
0.9443 -4.4890 -0.1116
0.9442 -4.4803 -0.1361
0.9518 -4.4754 -0.1666
0.9278 -4.4458 -0.1978
0.7991 -4.3621 -0.1529
0.7895 -4.3434 -0.1848
0.7802 -4.3324 -0.1958
0.7623 -4.3181 -0.1968
0.7408 -4.3030 -0.1925
0.7289 -4.2919 -0.1981
0.7150 -4.2803 -0.2003
0.6962 -4.2675 -0.1954
0.6839 -4.2572 -0.1977
0.6718 -4.2472 -0.1993
0.6577 -4.2370 -0.1973
0.6464 -4.2279 -0.1984
0.6346 -4.2190 -0.1978
0.6222 -4.2102 -0.1955
0.6099 -4.2018 -0.1924
0.6026 -4.1947 -0.1963
0.5911 -4.1871 -0.1930
0.5832 -4.1803 -0.1947
0.5754 -4.1738 -0.1961
0.5697 -4.1678 -0.2005
0.9265 -4.6554 0.4752
0.9770 -4.6885 0.4646
0.9777 -4.6818 0.4446
1.3478 -4.9361 0.3993
1.9256 -5.1689 -0.1279
1.2202 -4.6704 -0.0798
1.3468 -4.7165 -0.2090
0.8080 -4.3532 -0.1239
0.8047 -4.3445 -0.1412
0.8240 -4.3372 -0.2009
0.7971 -4.3196 -0.1950
0.7779 -4.3055 -0.1954
0.7575 -4.2913 -0.1931
0.7454 -4.2804 -0.1989
0.7267 -4.2677 -0.1961
0.7163 -4.2580 -0.2022
0.6964 -4.2457 -0.1956
0.6847 -4.2363 -0.1983
0.6724 -4.2269 -0.1994
0.6559 -4.2168 -0.1938
0.6503 -4.2096 -0.2025
0.6340 -4.2003 -0.1952
0.6235 -4.1925 -0.1955
0.6146 -4.1853 -0.1974
0.6036 -4.1780 -0.1954
0.5948 -4.1713 -0.1962
0.5868 -4.1649 -0.1977
0.5802 -4.1589 -0.2011
0.8092 -4.5516 0.4851
0.8417 -4.5712 0.4774
0.9186 -4.6238 0.4761
0.9785 -4.6622 0.4678
0.9864 -4.6609 0.4491
1.2823 -4.8588 0.4319
1.3834 -4.9200 0.4082
1.4637 -4.9519 0.3439
1.4302 -4.9042 0.2765
0.9301 -4.5562 0.2694
0.9152 -4.5395 0.2518
2.0648 -5.2094 -0.0872
2.0138 -5.1591 -0.1286
1.6417 -4.8921 -0.1561
1.2846 -4.6695 -0.0903
1.0160 -4.4716 -0.1244
0.8909 -4.3821 -0.1329
0.9217 -4.3776 -0.2034
0.8694 -4.3414 -0.2036
0.8385 -4.3226 -0.1967
0.8196 -4.3085 -0.1994
0.7976 -4.2939 -0.1979
0.7790 -4.2808 -0.1984
0.7613 -4.2685 -0.1987
0.7429 -4.2564 -0.1971
0.7254 -4.2450 -0.1954
0.7142 -4.2355 -0.1999
0.6970 -4.2250 -0.1963
0.6867 -4.2164 -0.2004
0.6720 -4.2071 -0.1980
0.6596 -4.1986 -0.1978
0.6473 -4.1905 -0.1969
0.6381 -4.1831 -0.1996
0.6253 -4.1755 -0.1962
0.6177 -4.1689 -0.2000
0.6073 -4.1621 -0.1987
0.5976 -4.1557 -0.1981
0.5902 -4.1497 -0.2004
0.6566 -4.4295 0.4800
0.7343 -4.4803 0.4805
0.8517 -4.5571 0.4812
0.9144 -4.5966 0.4775
0.9977 -4.6421 0.4540
1.0196 -4.6499 0.4365
1.4149 -4.9002 0.4171
2.1107 -5.3106 0.3014
2.1038 -5.1672 -0.0732
2.0101 -5.0946 -0.1040
1.7264 -4.9207 -0.0745
1.1846 -4.5838 -0.0313
1.1493 -4.5558 -0.0447
1.1405 -4.5411 -0.0688
1.1182 -4.5203 -0.0857
1.0082 -4.4514 -0.0784
0.9967 -4.4374 -0.0960
1.0018 -4.4304 -0.1237
1.0118 -4.4252 -0.1553
1.0028 -4.4123 -0.1743
1.0020 -4.4026 -0.1990
0.9719 -4.3822 -0.2012
0.9388 -4.3614 -0.1991
0.9165 -4.3450 -0.2040
0.8927 -4.3287 -0.2062
0.8675 -4.3125 -0.2057
0.8161 -4.2815 -0.1988
0.7986 -4.2692 -0.2012
0.7758 -4.2560 -0.1969
0.7570 -4.2443 -0.1955
0.7423 -4.2339 -0.1975
0.7315 -4.2248 -0.2032
0.7170 -4.2152 -0.2037
0.7019 -4.2058 -0.2024
0.6838 -4.1962 -0.1963
0.6742 -4.1885 -0.2003
0.6624 -4.1807 -0.2007
0.6507 -4.1732 -0.2004
0.6413 -4.1662 -0.2027
0.6268 -4.1590 -0.1967
0.6169 -4.1525 -0.1967
0.6078 -4.1464 -0.1973
0.5988 -4.1405 -0.1973
0.5696 -4.3629 0.4829
0.8398 -4.5278 0.4802
0.9133 -4.5727 0.4795
0.9579 -4.5965 0.4699
0.9853 -4.6079 0.4555
2.1158 -5.2494 0.3157
3.0449 -5.6351 -0.1750
2.0580 -5.0599 -0.0933
1.7648 -4.8904 -0.0652
1.1522 -4.5273 -0.0307
1.1294 -4.4966 -0.0751
1.0293 -4.4259 -0.0995
1.0320 -4.4176 -0.1261
1.0228 -4.4047 -0.1454
1.0221 -4.3950 -0.1700
1.0105 -4.3815 -0.1870
0.9998 -4.3685 -0.2041
0.9635 -4.3475 -0.2006
0.9349 -4.3297 -0.2012
0.9089 -4.3134 -0.2023
0.8759 -4.2956 -0.1955
0.8536 -4.2816 -0.1966
0.8381 -4.2697 -0.2026
0.8169 -4.2569 -0.2023
0.7984 -4.2451 -0.2032
0.7752 -4.2328 -0.1980
0.7602 -4.2227 -0.2003
0.7436 -4.2127 -0.2000
0.7265 -4.2030 -0.1979
0.7118 -4.1941 -0.1976
0.6972 -4.1855 -0.1965
0.6882 -4.1781 -0.2017
0.6754 -4.1704 -0.2012
0.6508 -4.1560 -0.1993
0.6375 -4.1492 -0.1956
0.6304 -4.1431 -0.2002
0.6204 -4.1371 -0.1999
0.6149 -4.1314 -0.2061
0.6059 -4.3726 0.4811
0.9534 -4.5699 0.4717
0.9882 -4.5851 0.4589
1.0522 -4.6178 0.4477
1.1473 -4.5269 0.0655
1.2058 -4.5212 -0.0381
1.3846 -4.5703 -0.1802
1.3476 -4.5428 -0.1962
1.0504 -4.4094 -0.0960
1.1544 -4.4362 -0.1831
1.0282 -4.3542 -0.2068
0.9758 -4.3295 -0.1924
0.9619 -4.3165 -0.2051
0.9295 -4.2990 -0.2019
0.9074 -4.2849 -0.2056
0.8830 -4.2707 -0.2058
0.8621 -4.2578 -0.2079
0.8372 -4.2446 -0.2048
0.8117 -4.2319 -0.1996
0.7767 -4.2110 -0.2014
0.7439 -4.1920 -0.2013
0.7337 -4.1840 -0.2070
0.7172 -4.1754 -0.2044
0.7008 -4.1673 -0.2010
0.6814 -4.1593 -0.1925
0.6724 -4.1525 -0.1966
0.6626 -4.1459 -0.1991
0.6483 -4.1394 -0.1945
0.6387 -4.1333 -0.1959
0.6308 -4.1275 -0.1990
1.0775 -4.7146 0.7328
0.6874 -4.4052 0.4804
0.7695 -4.4496 0.4800
0.9776 -4.5620 0.4784
1.0003 -4.5687 0.4637
1.0249 -4.5759 0.4479
1.7462 -4.8816 0.2253
1.1681 -4.5282 0.1233
1.1692 -4.5187 0.0971
1.4039 -4.5563 -0.1354
1.4209 -4.5493 -0.1774
1.4484 -4.5456 -0.2257
1.0806 -4.3955 -0.0972
1.1761 -4.4053 -0.2061
1.1268 -4.3796 -0.2033
1.0467 -4.3366 -0.2020
1.0132 -4.3181 -0.2027
0.9704 -4.2981 -0.1943
0.9494 -4.2843 -0.2007
0.9278 -4.2707 -0.2054
0.8969 -4.2557 -0.2008
0.8561 -4.2316 -0.2057
0.8334 -4.2200 -0.2040
0.8142 -4.2093 -0.2045
0.7960 -4.1993 -0.2049
0.7729 -4.1891 -0.1990
0.7625 -4.1809 -0.2055
0.7405 -4.1717 -0.1984
0.7278 -4.1639 -0.2006
0.7119 -4.1562 -0.1983
0.7010 -4.1492 -0.2012
0.6869 -4.1422 -0.1993
0.6762 -4.1358 -0.2010
0.6599 -4.1294 -0.1945
0.6533 -4.1236 -0.2004
0.6412 -4.1179 -0.1981
0.6299 -4.3624 0.4812
0.6623 -4.3796 0.4829
0.8315 -4.4658 0.4828
0.9892 -4.5461 0.4830
1.0094 -4.5506 0.4680
1.0434 -4.5623 0.4537
1.1067 -4.5895 0.4406
1.4222 -4.7399 0.4144
1.1537 -4.5332 0.2356
1.8882 -4.7647 -0.1293
1.8178 -4.7197 -0.1526
1.6552 -4.6419 -0.1398
1.3547 -4.5054 -0.0972
1.4632 -4.5296 -0.1768
1.4630 -4.5157 -0.2121
1.0951 -4.3761 -0.0896
1.2505 -4.4115 -0.2015
1.2070 -4.3876 -0.2060
1.1612 -4.3640 -0.2067
1.1122 -4.3406 -0.2026
1.0320 -4.3013 -0.1988
0.9980 -4.2843 -0.1979
0.9740 -4.2701 -0.2028
0.9431 -4.2552 -0.2009
0.9221 -4.2427 -0.2054
0.8951 -4.2297 -0.2035
0.8571 -4.2156 -0.1900
0.8452 -4.2061 -0.1987
0.8273 -4.1962 -0.2010
0.8079 -4.1864 -0.2006
0.7870 -4.1769 -0.1975
0.7738 -4.1687 -0.2014
0.7598 -4.1606 -0.2038
0.7272 -4.1453 -0.2005
0.7144 -4.1384 -0.2016
0.6959 -4.1316 -0.1948
0.6899 -4.1254 -0.2028
0.6765 -4.1194 -0.2009
0.6641 -4.1136 -0.1993
0.6542 -4.1081 -0.2006
0.6356 -4.3545 0.4832
0.6603 -4.3660 0.4825
1.0498 -4.5497 0.4772
1.0581 -4.5465 0.4590
1.1015 -4.5613 0.4440
1.1487 -4.5771 0.4270
1.0444 -4.4519 0.2363
1.9589 -4.7806 -0.0354
1.9707 -4.7667 -0.0848
1.8634 -4.7089 -0.1016
1.6164 -4.6038 -0.0693
1.8277 -4.6614 -0.1787
1.3721 -4.4801 -0.0874
1.4875 -4.5032 -0.1680
1.1544 -4.3796 -0.0788
1.2413 -4.3702 -0.2073
1.1499 -4.3260 -0.2088
1.1102 -4.3067 -0.2097
1.0707 -4.2884 -0.2085
1.0289 -4.2704 -0.2034
0.9945 -4.2548 -0.2015
0.9630 -4.2404 -0.1999
0.9477 -4.2292 -0.2097
0.9105 -4.2152 -0.2001
0.8841 -4.2035 -0.1978
0.8397 -4.1828 -0.1965
0.8294 -4.1744 -0.2057
0.8089 -4.1653 -0.2039
0.7876 -4.1566 -0.2001
0.7726 -4.1488 -0.2017
0.7576 -4.1413 -0.2025
0.7419 -4.1342 -0.2016
0.7229 -4.1274 -0.1959
0.7082 -4.1210 -0.1943
0.7021 -4.1149 -0.2025
0.6885 -4.1091 -0.2007
0.6750 -4.1036 -0.1982
0.6641 -4.0983 -0.1984
0.6574 -4.0930 -0.2038
0.5926 -4.3242 0.4834
0.6306 -4.3404 0.4816
0.6787 -4.3609 0.4791
0.7867 -4.4123 0.4874
0.8005 -4.4148 0.4782
1.0529 -4.5283 0.4806
1.0799 -4.5342 0.4652
1.0966 -4.5344 0.4472
1.1579 -4.5470 0.4103
1.1618 -4.5399 0.3882
1.1697 -4.5345 0.3659
1.1695 -4.5253 0.3431
1.1854 -4.5229 0.3195
2.6568 -5.0095 -0.1042
2.2147 -4.8253 -0.0720
2.0409 -4.7438 -0.0819
1.9189 -4.6834 -0.0969
1.3451 -4.4298 -0.0912
1.1648 -4.3583 -0.0689
1.1717 -4.3497 -0.0982
1.2583 -4.3481 -0.1986
1.2098 -4.3260 -0.1997
1.1653 -4.3058 -0.2006
1.1294 -4.2883 -0.2046
1.0874 -4.2703 -0.2025
1.0548 -4.2549 -0.2047
1.0225 -4.2403 -0.2053
0.9858 -4.2257 -0.2008
0.9712 -4.2149 -0.2117
0.9422 -4.2026 -0.2100
0.9170 -4.1914 -0.2099
0.8848 -4.1801 -0.2023
0.8662 -4.1707 -0.2052
0.8407 -4.1612 -0.2005
0.8242 -4.1528 -0.2031
0.8016 -4.1445 -0.1987
0.7693 -4.1297 -0.1996
0.7585 -4.1228 -0.2046
0.7373 -4.1164 -0.1972
0.7241 -4.1102 -0.1979
0.7127 -4.1043 -0.2000
0.7014 -4.0986 -0.2016
