ply
format ascii 1.0
element vertex 2197
property float x
property float y
property float z
end_header
5.3401 2.5451 0.0967
5.3424 2.5410 0.0857
5.3482 2.5442 0.0760
5.3536 2.5461 0.0656
5.3565 2.5428 0.0543
5.3630 2.5466 0.0436
5.3670 2.5451 0.0321
5.3699 2.5415 0.0202
5.3761 2.5438 0.0084
5.3807 2.5429 -0.0038
5.3848 2.5410 -0.0162
5.3938 2.5475 -0.0292
5.3958 2.5416 -0.0420
5.4045 2.5468 -0.0559
5.4120 2.5400 -0.0830
5.4180 2.5401 -0.0974
5.4235 2.5391 -0.1120
5.4331 2.5440 -0.1284
5.4422 2.5478 -0.1453
5.4468 2.5446 -0.1606
5.4589 2.5419 -0.1933
5.4647 2.5400 -0.2100
5.4718 2.5395 -0.2278
5.4814 2.5419 -0.2475
5.4917 2.5448 -0.2683
5.4996 2.5444 -0.2880
5.5015 2.5363 -0.3033
5.5200 2.5481 -0.3321
5.5257 2.5441 -0.3512
5.5370 2.5463 -0.3754
5.5422 2.5413 -0.3947
5.5590 2.5376 -0.4400
5.5694 2.5375 -0.4653
5.5793 2.5364 -0.4905
5.5945 2.5402 -0.5219
5.6026 2.5367 -0.5463
5.5983 2.5211 -0.5567
5.5780 2.4913 -0.5480
5.5727 2.4760 -0.5560
5.5593 2.4539 -0.5535
5.5491 2.4353 -0.5540
5.5368 2.4154 -0.5509
5.5269 2.3983 -0.5503
5.5169 2.3816 -0.5488
5.5130 2.3700 -0.5550
5.5007 2.3524 -0.5489
5.4945 2.3399 -0.5509
5.4911 2.3296 -0.5563
5.4761 2.3045 -0.5542
5.4667 2.2913 -0.5493
5.4636 2.2824 -0.5538
5.2948 2.5466 0.1765
5.2973 2.5443 0.1671
5.3002 2.5430 0.1581
5.3050 2.5463 0.1504
5.3076 2.5437 0.1406
5.3101 2.5410 0.1308
5.3141 2.5417 0.1217
5.3186 2.5433 0.1126
5.3227 2.5437 0.1030
5.3273 2.5451 0.0934
5.3319 2.5463 0.0834
5.3356 2.5453 0.0729
5.3393 2.5442 0.0621
5.3436 2.5440 0.0512
5.3489 2.5458 0.0403
5.3527 2.5444 0.0288
5.3581 2.5458 0.0172
5.3610 2.5422 0.0052
5.3655 2.5414 -0.0069
5.3720 2.5444 -0.0194
5.3766 2.5434 -0.0322
5.3812 2.5422 -0.0451
5.3863 2.5419 -0.0585
5.3921 2.5423 -0.0723
5.3973 2.5417 -0.0862
5.4042 2.5436 -0.1010
5.4107 2.5444 -0.1161
5.4177 2.5459 -0.1318
5.4205 2.5403 -0.1459
5.4276 2.5414 -0.1623
5.4315 2.5374 -0.1773
5.4444 2.5464 -0.1977
5.4479 2.5412 -0.2131
5.4553 2.5416 -0.2313
5.4634 2.5425 -0.2502
5.4786 2.5421 -0.2888
5.4870 2.5424 -0.3093
5.4989 2.5469 -0.3333
5.5080 2.5473 -0.3554
5.5178 2.5482 -0.3787
5.5204 2.5404 -0.3956
5.5291 2.5394 -0.4185
5.5511 2.5416 -0.4705
5.5619 2.5419 -0.4972
5.5710 2.5399 -0.5224
5.5757 2.5333 -0.5430
5.5685 2.5147 -0.5494
5.5630 2.4984 -0.5572
5.5524 2.4775 -0.5580
5.5364 2.4524 -0.5511
5.5299 2.4367 -0.5555
5.5175 2.4162 -0.5513
5.5088 2.3996 -0.5514
5.4999 2.3833 -0.5507
5.4936 2.3696 -0.5529
5.4898 2.3583 -0.5584
5.4793 2.3421 -0.5534
5.4706 2.3278 -0.5505
5.4679 2.3183 -0.5563
5.4584 2.3042 -0.5510
5.4542 2.2941 -0.5536
5.4492 2.2839 -0.5547
5.2803 2.5473 0.1817
5.2835 2.5474 0.1734
5.2860 2.5451 0.1641
5.2876 2.5403 0.1539
5.2917 2.5425 0.1459
5.2950 2.5423 0.1369
5.2989 2.5431 0.1281
5.3027 2.5438 0.1189
5.3066 2.5443 0.1096
5.3110 2.5459 0.1002
5.3140 2.5440 0.0899
5.3185 2.5453 0.0800
5.3211 2.5422 0.0691
5.3261 2.5443 0.0588
5.3293 2.5421 0.0477
5.3335 2.5419 0.0367
5.3386 2.5436 0.0255
5.3424 2.5421 0.0139
5.3486 2.5455 0.0021
5.3543 2.5477 -0.0101
5.3582 2.5459 -0.0226
5.3617 2.5429 -0.0352
5.3651 2.5400 -0.0480
5.3681 2.5360 -0.0608
5.3766 2.5421 -0.0752
5.3822 2.5424 -0.0893
5.3873 2.5417 -0.1035
5.3951 2.5452 -0.1192
5.4014 2.5459 -0.1346
5.4051 2.5421 -0.1492
5.4131 2.5450 -0.1662
5.4190 2.5443 -0.1825
5.4256 2.5443 -0.1995
5.4300 2.5408 -0.2155
5.4383 2.5429 -0.2343
5.4472 2.5455 -0.2541
5.4545 2.5454 -0.2733
5.4586 2.5406 -0.2901
5.4650 2.5387 -0.3090
5.4787 2.5463 -0.3349
5.4926 2.5535 -0.3618
5.4958 2.5464 -0.3791
5.5007 2.5415 -0.3981
5.5062 2.5372 -0.4180
5.5182 2.5403 -0.4451
5.5285 2.5410 -0.4711
5.5343 2.5361 -0.4922
5.5454 2.5370 -0.5200
5.5512 2.5318 -0.5418
5.5438 2.5126 -0.5471
5.5362 2.4938 -0.5515
5.5267 2.4736 -0.5527
5.5151 2.4521 -0.5503
5.5065 2.4340 -0.5510
5.5009 2.4192 -0.5553
5.4895 2.3997 -0.5507
5.4836 2.3856 -0.5535
5.4776 2.3719 -0.5556
5.4690 2.3563 -0.5531
5.4628 2.3432 -0.5538
5.4552 2.3294 -0.5518
5.4507 2.3184 -0.5543
5.4416 2.3042 -0.5487
5.4389 2.2952 -0.5534
5.4349 2.2853 -0.5555
5.2719 2.5470 0.1699
5.2747 2.5459 0.1611
5.2771 2.5435 0.1516
5.2803 2.5434 0.1429
5.2843 2.5454 0.1346
5.2880 2.5463 0.1257
5.2917 2.5470 0.1165
5.2942 2.5442 0.1063
5.2988 2.5469 0.0971
5.3022 2.5462 0.0870
5.3052 2.5443 0.0765
5.3104 2.5476 0.0667
5.3126 2.5434 0.0555
5.3157 2.5412 0.0445
5.3206 2.5432 0.0336
5.3264 2.5469 0.0226
5.3287 2.5424 0.0107
5.3333 2.5429 -0.0011
5.3380 2.5432 -0.0132
5.3412 2.5405 -0.0255
5.3483 2.5454 -0.0384
5.3526 2.5443 -0.0514
5.3565 2.5422 -0.0645
5.3623 2.5437 -0.0784
5.3687 2.5459 -0.0928
5.3712 2.5406 -0.1062
5.3777 2.5425 -0.1213
5.3818 2.5398 -0.1357
5.3888 2.5422 -0.1519
5.3940 2.5409 -0.1675
5.4002 2.5412 -0.1839
5.4055 2.5396 -0.2001
5.4139 2.5428 -0.2188
5.4203 2.5425 -0.2366
5.4284 2.5444 -0.2559
5.4334 2.5413 -0.2732
5.4421 2.5436 -0.2940
5.4525 2.5478 -0.3169
5.4588 2.5457 -0.3364
5.4645 2.5426 -0.3558
5.4703 2.5395 -0.3754
5.4778 2.5383 -0.3971
5.4892 2.5419 -0.4236
5.4930 2.5354 -0.4418
5.5142 2.5382 -0.4954
5.5272 2.5418 -0.5261
5.5329 2.5366 -0.5480
5.5282 2.5198 -0.5563
5.5147 2.4941 -0.5520
5.5028 2.4708 -0.5488
5.5001 2.4576 -0.5578
5.4878 2.4353 -0.5525
5.4801 2.4182 -0.5530
5.4735 2.4026 -0.5546
5.4587 2.3714 -0.5535
5.4548 2.3595 -0.5577
5.4458 2.3438 -0.5532
5.4325 2.3174 -0.5501
5.4276 2.3062 -0.5508
5.4232 2.2957 -0.5521
5.4194 2.2859 -0.5540
5.2601 2.5454 0.1660
5.2635 2.5466 0.1580
5.2654 2.5431 0.1483
5.2685 2.5430 0.1395
5.2724 2.5452 0.1312
5.2759 2.5460 0.1223
5.2787 2.5445 0.1126
5.2823 2.5452 0.1033
5.2852 2.5435 0.0932
5.2896 2.5461 0.0838
5.2934 2.5464 0.0737
5.2967 2.5455 0.0632
5.3001 2.5445 0.0524
5.3031 2.5424 0.0414
5.3070 2.5423 0.0304
5.3104 2.5410 0.0191
5.3157 2.5437 0.0077
5.3250 2.5456 -0.0163
5.3286 2.5438 -0.0286
5.3332 2.5439 -0.0413
5.3415 2.5418 -0.0674
5.3471 2.5434 -0.0813
5.3510 2.5411 -0.0948
5.3571 2.5432 -0.1096
5.3634 2.5451 -0.1248
5.3664 2.5407 -0.1387
5.3727 2.5422 -0.1547
5.3782 2.5419 -0.1704
5.3856 2.5448 -0.1879
5.3893 2.5407 -0.2031
5.3979 2.5448 -0.2222
5.4031 2.5429 -0.2392
5.4093 2.5425 -0.2573
5.4201 2.5490 -0.2798
5.4235 2.5435 -0.2961
5.4300 2.5424 -0.3155
5.4370 2.5420 -0.3358
5.4488 2.5480 -0.3616
5.4591 2.5514 -0.3865
5.4622 2.5444 -0.4037
5.4696 2.5430 -0.4260
5.4786 2.5435 -0.4508
5.4855 2.5410 -0.4734
5.4893 2.5343 -0.4922
5.5029 2.5394 -0.5242
5.5090 2.5349 -0.5467
5.5002 2.5131 -0.5485
5.4952 2.4962 -0.5548
5.4850 2.4740 -0.5531
5.4798 2.4578 -0.5578
5.4670 2.4343 -0.5504
5.4615 2.4189 -0.5534
5.4535 2.4016 -0.5519
5.4500 2.3891 -0.5572
5.4395 2.3703 -0.5503
5.4364 2.3590 -0.5552
5.4291 2.3443 -0.5526
5.4258 2.3335 -0.5565
5.4201 2.3209 -0.5556
5.4149 2.3091 -0.5552
5.4078 2.2962 -0.5507
5.2487 2.5449 0.1626
5.2523 2.5474 0.1550
5.2542 2.5439 0.1453
5.2586 2.5485 0.1379
5.2602 2.5437 0.1276
5.2639 2.5458 0.1190
5.2670 2.5454 0.1096
5.2708 2.5473 0.1005
5.2751 2.5500 0.0913
5.2775 2.5472 0.0808
5.2792 2.5421 0.0698
5.2825 2.5412 0.0594
5.2872 2.5446 0.0493
5.2913 2.5457 0.0386
5.2954 2.5466 0.0276
5.2992 2.5464 0.0162
5.3018 2.5430 0.0046
5.3053 2.5415 -0.0072
5.3112 2.5460 -0.0193
5.3139 2.5423 -0.0316
5.3203 2.5473 -0.0446
5.3235 2.5444 -0.0574
5.3276 2.5433 -0.0705
5.3321 2.5431 -0.0841
5.3350 2.5390 -0.0973
5.3404 2.5403 -0.1117
5.3468 2.5432 -0.1271
5.3516 2.5424 -0.1419
5.3563 2.5414 -0.1570
5.3634 2.5446 -0.1740
5.3687 2.5441 -0.1902
5.3718 2.5393 -0.2050
5.3800 2.5435 -0.2240
5.3851 2.5417 -0.2409
5.3915 2.5422 -0.2594
5.3986 2.5433 -0.2787
5.4066 2.5457 -0.2996
5.4134 2.5455 -0.3195
5.4197 2.5443 -0.3394
5.4270 2.5444 -0.3607
5.4344 2.5444 -0.3826
5.4395 2.5404 -0.4019
5.4490 2.5428 -0.4272
5.4557 2.5406 -0.4493
5.4717 2.5390 -0.4981
5.4837 2.5429 -0.5288
5.4881 2.5365 -0.5490
5.4857 2.5217 -0.5593
5.4758 2.4982 -0.5576
5.4657 2.4754 -0.5548
5.4597 2.4579 -0.5577
5.4493 2.4361 -0.5526
5.4424 2.4189 -0.5527
5.4382 2.4050 -0.5567
5.4306 2.3880 -0.5542
5.4245 2.3731 -0.5538
5.4217 2.3617 -0.5588
5.4143 2.3464 -0.5550
5.4090 2.3335 -0.5545
5.4059 2.3229 -0.5578
5.3998 2.3101 -0.5550
5.3942 2.2980 -0.5527
5.3920 2.2891 -0.5567
5.3880 2.2790 -0.5568
5.2368 2.5420 0.1584
5.2406 2.5458 0.1513
5.2434 2.5459 0.1427
5.2466 2.5470 0.1342
5.2491 2.5457 0.1249
5.2524 2.5467 0.1160
5.2550 2.5452 0.1063
5.2587 2.5471 0.0973
5.2610 2.5443 0.0870
5.2644 2.5449 0.0772
5.2682 2.5464 0.0673
5.2710 2.5445 0.0567
5.2734 2.5415 0.0458
5.2777 2.5437 0.0353
5.2802 2.5405 0.0241
5.2849 2.5435 0.0130
5.2900 2.5473 0.0016
5.2926 2.5438 -0.0102
5.2964 2.5433 -0.0223
5.3009 2.5447 -0.0347
5.3063 2.5478 -0.0476
5.3094 2.5449 -0.0604
5.3133 2.5439 -0.0735
5.3161 2.5399 -0.0864
5.3213 2.5415 -0.1006
5.3257 2.5410 -0.1147
5.3318 2.5440 -0.1300
5.3360 2.5423 -0.1446
5.3414 2.5432 -0.1602
5.3465 2.5429 -0.1760
5.3512 2.5417 -0.1918
5.3551 2.5386 -0.2071
5.3708 2.5470 -0.2459
5.3856 2.5518 -0.2858
5.3867 2.5423 -0.2996
5.3936 2.5431 -0.3199
5.3996 2.5420 -0.3396
5.4094 2.5468 -0.3643
5.4166 2.5468 -0.3862
5.4252 2.5487 -0.4104
5.4292 2.5431 -0.4290
5.4361 2.5417 -0.4516
5.4450 2.5429 -0.4775
5.4521 2.5411 -0.5012
5.4631 2.5444 -0.5312
5.4693 2.5407 -0.5544
5.4607 2.5174 -0.5543
5.4534 2.4965 -0.5555
5.4460 2.4761 -0.5557
5.4389 2.4568 -0.5557
5.4306 2.4367 -0.5530
5.4263 2.4219 -0.5566
5.4198 2.4050 -0.5558
5.4142 2.3897 -0.5560
5.4075 2.3736 -0.5535
5.4027 2.3600 -0.5542
5.3979 2.3468 -0.5542
5.3956 2.3365 -0.5589
5.3900 2.3233 -0.5567
5.3785 2.2980 -0.5501
5.3765 2.2891 -0.5539
5.3756 2.2813 -0.5598
5.2269 2.5463 0.1567
5.2295 2.5465 0.1483
5.2323 2.5466 0.1397
5.2347 2.5455 0.1306
5.2366 2.5419 0.1207
5.2400 2.5441 0.1122
5.2435 2.5461 0.1034
5.2463 2.5458 0.0938
5.2496 2.5464 0.0842
5.2522 2.5448 0.0740
5.2578 2.5423 0.0533
5.2625 2.5468 0.0433
5.2639 2.5406 0.0320
5.2690 2.5459 0.0214
5.2722 2.5447 0.0100
5.2761 2.5455 -0.0015
5.2789 2.5431 -0.0132
5.2832 2.5446 -0.0253
5.2865 2.5430 -0.0376
5.2916 2.5463 -0.0504
5.2957 2.5464 -0.0634
5.3026 2.5424 -0.0897
5.3079 2.5449 -0.1040
5.3115 2.5426 -0.1178
5.3162 2.5429 -0.1325
5.3202 2.5413 -0.1469
5.3250 2.5413 -0.1623
5.3298 2.5412 -0.1779
5.3355 2.5427 -0.1947
5.3401 2.5413 -0.2107
5.3468 2.5441 -0.2291
5.3527 2.5449 -0.2471
5.3554 2.5390 -0.2621
5.3602 2.5370 -0.2794
5.3663 2.5373 -0.2986
5.3775 2.5468 -0.3244
5.3834 2.5458 -0.3442
5.3919 2.5492 -0.3678
5.3953 2.5432 -0.3850
5.3991 2.5380 -0.4029
5.4092 2.5428 -0.4300
5.4145 2.5393 -0.4506
5.4239 2.5421 -0.4777
5.4234 2.5293 -0.4898
5.4412 2.5438 -0.5313
5.4435 2.5349 -0.5483
5.4388 2.5162 -0.5532
5.4339 2.4979 -0.5574
5.4246 2.4743 -0.5532
5.4208 2.4587 -0.5581
5.4136 2.4391 -0.5561
5.4077 2.4218 -0.5559
5.4016 2.4049 -0.5548
5.3980 2.3913 -0.5577
5.3922 2.3757 -0.5560
5.3888 2.3632 -0.5587
5.3822 2.3478 -0.5545
5.3781 2.3354 -0.5548
5.3696 2.3114 -0.5535
5.3639 2.2914 -0.5570
5.2168 2.5507 0.1549
5.2186 2.5473 0.1453
5.2215 2.5486 0.1371
5.2236 2.5463 0.1276
5.2262 2.5462 0.1187
5.2295 2.5484 0.1101
5.2317 2.5459 0.1002
5.2344 2.5456 0.0906
5.2367 2.5429 0.0804
5.2415 2.5502 0.0718
5.2441 2.5484 0.0613
5.2464 2.5455 0.0506
5.2484 2.5415 0.0397
5.2517 2.5417 0.0290
5.2562 2.5460 0.0183
5.2589 2.5438 0.0070
5.2623 2.5436 -0.0045
5.2667 2.5464 -0.0163
5.2714 2.5500 -0.0285
5.2733 2.5444 -0.0406
5.2772 2.5447 -0.0532
5.2814 2.5459 -0.0663
5.2841 2.5420 -0.0789
5.2874 2.5401 -0.0920
5.2911 2.5389 -0.1056
5.2976 2.5451 -0.1211
5.3025 2.5464 -0.1361
5.3067 2.5457 -0.1509
5.3099 2.5422 -0.1651
5.3157 2.5448 -0.1818
5.3189 2.5410 -0.1965
5.3263 2.5466 -0.2154
5.3296 2.5426 -0.2307
5.3361 2.5452 -0.2496
5.3449 2.5407 -0.2837
5.3527 2.5450 -0.3054
5.3583 2.5443 -0.3247
5.3635 2.5426 -0.3438
5.3704 2.5439 -0.3656
5.3736 2.5381 -0.3825
5.3823 2.5418 -0.4077
5.3878 2.5394 -0.4284
5.3958 2.5411 -0.4535
5.4027 2.5404 -0.4772
5.4071 2.5354 -0.4970
5.4167 2.5384 -0.5261
5.4211 2.5329 -0.5466
5.4181 2.5162 -0.5537
5.4159 2.5011 -0.5617
5.3979 2.4537 -0.5508
5.3953 2.4397 -0.5565
5.3903 2.4229 -0.5569
5.3842 2.4054 -0.5547
5.3789 2.3895 -0.5535
5.3750 2.3756 -0.5546
5.3719 2.3631 -0.5570
5.3662 2.3482 -0.5536
5.3629 2.3363 -0.5548
5.3595 2.3246 -0.5555
5.3546 2.3117 -0.5522
5.3515 2.3011 -0.5528
5.3488 2.2913 -0.5541
5.3481 2.2835 -0.5597
5.2032 2.5499 0.1598
5.2050 2.5465 0.1504
5.2070 2.5444 0.1413
5.2097 2.5458 0.1331
5.2122 2.5459 0.1244
5.2143 2.5435 0.1149
5.2166 2.5423 0.1055
5.2231 2.5476 0.0879
5.2253 2.5450 0.0777
5.2283 2.5456 0.0679
5.2316 2.5473 0.0581
5.2346 2.5477 0.0478
5.2377 2.5480 0.0372
5.2403 2.5460 0.0263
5.2429 2.5439 0.0152
5.2467 2.5460 0.0040
5.2487 2.5417 -0.0075
5.2541 2.5487 -0.0193
5.2562 2.5442 -0.0312
5.2596 2.5437 -0.0434
5.2633 2.5441 -0.0560
5.2667 2.5434 -0.0688
5.2699 2.5415 -0.0816
5.2769 2.5395 -0.1084
5.2818 2.5420 -0.1231
5.2871 2.5453 -0.1384
5.2905 2.5428 -0.1526
5.2946 2.5421 -0.1676
5.2997 2.5439 -0.1839
5.3049 2.5454 -0.2007
5.3088 2.5433 -0.2164
5.3121 2.5394 -0.2315
5.3196 2.5455 -0.2520
5.3247 2.5454 -0.2700
5.3281 2.5411 -0.2860
5.3396 2.5544 -0.3133
5.3409 2.5449 -0.3270
5.3493 2.5503 -0.3511
5.3521 2.5438 -0.3673
5.3572 2.5419 -0.3872
5.3632 2.5412 -0.4087
5.3715 2.5448 -0.4346
5.3773 2.5429 -0.4564
5.3835 2.5416 -0.4794
5.3901 2.5408 -0.5036
5.3952 2.5369 -0.5252
5.4020 2.5357 -0.5503
5.3981 2.5169 -0.5548
5.3928 2.4966 -0.5561
5.3877 2.4774 -0.5572
5.3813 2.4567 -0.5548
5.3751 2.4371 -0.5522
5.3731 2.4240 -0.5580
5.3683 2.4076 -0.5575
5.3617 2.3893 -0.5522
5.3590 2.3765 -0.5551
5.3543 2.3618 -0.5532
5.3518 2.3502 -0.5559
5.3474 2.3366 -0.5538
5.3457 2.3265 -0.5576
5.3397 2.3121 -0.5507
5.3388 2.3035 -0.5558
5.3363 2.2935 -0.5571
5.1984 2.5441 0.1295
5.2010 2.5454 0.1212
5.2032 2.5443 0.1120
5.2057 2.5443 0.1029
5.2084 2.5453 0.0938
5.2116 2.5485 0.0850
5.2142 2.5482 0.0752
5.2170 2.5488 0.0654
5.2192 2.5460 0.0549
5.2219 2.5454 0.0445
5.2241 2.5425 0.0337
5.2268 2.5417 0.0230
5.2301 2.5429 0.0122
5.2339 2.5462 0.0011
5.2365 2.5440 -0.0104
5.2404 2.5469 -0.0222
5.2428 2.5434 -0.0340
5.2503 2.5464 -0.0591
5.2531 2.5438 -0.0716
5.2567 2.5439 -0.0848
5.2607 2.5449 -0.0985
5.2659 2.5495 -0.1133
5.2670 2.5408 -0.1254
5.2717 2.5432 -0.1405
5.2761 2.5445 -0.1557
5.2791 2.5411 -0.1698
5.2846 2.5447 -0.1867
5.2883 2.5428 -0.2021
5.2927 2.5426 -0.2184
5.2978 2.5438 -0.2359
5.3030 2.5449 -0.2539
5.3095 2.5491 -0.2742
5.3132 2.5456 -0.2907
5.3175 2.5436 -0.3085
5.3226 2.5431 -0.3276
5.3270 2.5408 -0.3461
5.3351 2.5461 -0.3707
5.3411 2.5465 -0.3924
5.3453 2.5428 -0.4115
5.3515 2.5428 -0.4341
5.3592 2.5454 -0.4600
5.3636 2.5413 -0.4801
5.3693 2.5391 -0.5028
5.3769 2.5403 -0.5296
5.3819 2.5363 -0.5516
5.3803 2.5209 -0.5600
5.3711 2.4933 -0.5519
5.3677 2.4760 -0.5553
5.3622 2.4559 -0.5534
5.3577 2.4382 -0.5533
5.3535 2.4214 -0.5533
5.3504 2.4069 -0.5554
5.3472 2.3926 -0.5568
5.3435 2.3780 -0.5565
5.3393 2.3633 -0.5545
5.3366 2.3511 -0.5561
5.3298 2.3258 -0.5541
5.3251 2.3123 -0.5493
5.3229 2.3022 -0.5507
5.3221 2.2938 -0.5553
5.1831 2.5442 0.1434
5.1855 2.5458 0.1355
5.1880 2.5472 0.1273
5.1903 2.5474 0.1186
5.1922 2.5451 0.1091
5.1946 2.5451 0.1000
5.1967 2.5438 0.0905
5.1992 2.5436 0.0810
5.2014 2.5422 0.0711
5.2045 2.5453 0.0618
5.2072 2.5459 0.0518
5.2093 2.5431 0.0412
5.2121 2.5435 0.0308
5.2152 2.5449 0.0202
5.2181 2.5451 0.0093
5.2210 2.5452 -0.0019
5.2239 2.5451 -0.0133
5.2272 2.5460 -0.0251
5.2307 2.5478 -0.0372
5.2328 2.5433 -0.0491
5.2359 2.5428 -0.0615
5.2393 2.5432 -0.0744
5.2438 2.5473 -0.0881
5.2460 2.5425 -0.1007
5.2511 2.5482 -0.1157
5.2537 2.5442 -0.1289
5.2581 2.5466 -0.1441
5.2613 2.5443 -0.1582
5.2644 2.5418 -0.1726
5.2688 2.5429 -0.1885
5.2735 2.5446 -0.2052
5.2777 2.5444 -0.2215
5.2822 2.5448 -0.2387
5.2862 2.5434 -0.2553
5.2915 2.5452 -0.2742
5.2953 2.5427 -0.2910
5.2995 2.5408 -0.3087
5.3110 2.5572 -0.3391
5.3144 2.5524 -0.3562
5.3184 2.5491 -0.3747
5.3263 2.5414 -0.4117
5.3311 2.5393 -0.4322
5.3381 2.5413 -0.4573
5.3451 2.5431 -0.4830
5.3523 2.5446 -0.5093
5.3581 2.5429 -0.5333
5.3583 2.5301 -0.5449
5.3577 2.5162 -0.5545
5.3548 2.4984 -0.5586
5.3477 2.4739 -0.5524
5.3442 2.4564 -0.5538
5.3413 2.4405 -0.5563
5.3375 2.4237 -0.5561
5.3321 2.4048 -0.5513
5.3308 2.3929 -0.5564
5.3286 2.3801 -0.5590
5.3239 2.3641 -0.5548
5.3220 2.3525 -0.5572
5.3175 2.3378 -0.5526
5.3166 2.3282 -0.5572
5.3127 2.3152 -0.5535
5.3113 2.3055 -0.5561
5.3085 2.2946 -0.5547
5.3081 2.2868 -0.5601
5.1727 2.5461 0.1409
5.1747 2.5452 0.1322
5.1769 2.5455 0.1238
5.1792 2.5469 0.1154
5.1812 2.5459 0.1062
5.1837 2.5471 0.0974
5.1858 2.5458 0.0878
5.1879 2.5445 0.0781
5.1908 2.5477 0.0690
5.1926 2.5439 0.0586
5.1950 2.5435 0.0485
5.1976 2.5441 0.0384
5.2001 2.5435 0.0279
5.2031 2.5460 0.0173
5.2063 2.5484 0.0064
5.2074 2.5400 -0.0048
5.2111 2.5442 -0.0162
5.2137 2.5431 -0.0278
5.2170 2.5449 -0.0399
5.2199 2.5446 -0.0520
5.2229 2.5441 -0.0645
5.2259 2.5435 -0.0772
5.2299 2.5468 -0.0908
5.2330 2.5459 -0.1041
5.2366 2.5468 -0.1181
5.2393 2.5438 -0.1314
5.2443 2.5491 -0.1474
5.2476 2.5477 -0.1619
5.2532 2.5409 -0.1902
5.2577 2.5428 -0.2068
5.2608 2.5400 -0.2219
5.2657 2.5424 -0.2397
5.2773 2.5514 -0.2798
5.2801 2.5463 -0.2953
5.2893 2.5457 -0.3332
5.2937 2.5443 -0.3521
5.2991 2.5451 -0.3733
5.3048 2.5464 -0.3955
5.3082 2.5414 -0.4131
5.3138 2.5416 -0.4356
5.3204 2.5438 -0.4608
5.3258 2.5427 -0.4836
5.3293 2.5372 -0.5024
5.3362 2.5386 -0.5291
5.3395 2.5321 -0.5477
5.3377 2.5154 -0.5539
5.3346 2.4963 -0.5560
5.3309 2.4770 -0.5564
5.3268 2.4574 -0.5550
5.3239 2.4409 -0.5564
5.3205 2.4240 -0.5560
5.3188 2.4106 -0.5598
5.3119 2.3793 -0.5563
5.3099 2.3667 -0.5582
5.3052 2.3505 -0.5519
5.3042 2.3402 -0.5558
5.3030 2.3301 -0.5593
5.2995 2.3170 -0.5554
5.2998 2.3094 -0.5626
5.2970 2.2978 -0.5600
5.2928 2.2851 -0.5531
5.1646 2.5508 0.1308
5.1663 2.5474 0.1212
5.1702 2.5454 0.1031
5.1723 2.5455 0.0940
5.1749 2.5490 0.0854
5.1767 2.5454 0.0753
5.1787 2.5440 0.0654
5.1813 2.5460 0.0559
5.1834 2.5444 0.0457
5.1856 2.5428 0.0353
5.1881 2.5434 0.0249
5.1906 2.5438 0.0143
5.1937 2.5473 0.0035
5.1962 2.5464 -0.0077
5.1991 2.5475 -0.0192
5.2014 2.5453 -0.0308
5.2043 2.5462 -0.0428
5.2075 2.5479 -0.0552
5.2128 2.5449 -0.0801
5.2155 2.5432 -0.0929
5.2191 2.5454 -0.1067
5.2217 2.5425 -0.1197
5.2251 2.5434 -0.1339
5.2282 2.5423 -0.1479
5.2322 2.5447 -0.1634
5.2354 2.5433 -0.1780
5.2428 2.5436 -0.2095
5.2468 2.5444 -0.2262
5.2512 2.5459 -0.2437
5.2546 2.5438 -0.2598
5.2585 2.5432 -0.2772
5.2641 2.5475 -0.2980
5.2679 2.5457 -0.3156
5.2792 2.5520 -0.3595
5.2832 2.5497 -0.3784
5.2859 2.5433 -0.3945
5.2923 2.5468 -0.4192
5.2976 2.5470 -0.4418
5.3012 2.5425 -0.4607
5.3061 2.5408 -0.4827
5.3113 2.5397 -0.5059
5.3202 2.5468 -0.5390
5.3214 2.5354 -0.5520
5.3175 2.5131 -0.5515
5.3160 2.4968 -0.5567
5.3122 2.4761 -0.5552
5.3085 2.4565 -0.5535
5.3054 2.4387 -0.5527
5.3047 2.4262 -0.5588
5.3016 2.4097 -0.5575
5.2988 2.3941 -0.5564
5.2951 2.3777 -0.5525
5.2941 2.3664 -0.5562
5.2920 2.3535 -0.5562
5.2901 2.3415 -0.5568
5.2871 2.3281 -0.5533
5.2857 2.3177 -0.5550
5.2839 2.3070 -0.5550
5.2821 2.2965 -0.5545
5.2805 2.2868 -0.5547
5.1543 2.5552 0.1289
5.1565 2.5592 0.1212
5.1590 2.5642 0.1135
5.1600 2.5534 0.1018
5.1617 2.5499 0.0919
5.1633 2.5451 0.0817
5.1655 2.5462 0.0724
5.1676 2.5460 0.0628
5.1699 2.5469 0.0530
5.1722 2.5476 0.0430
5.1745 2.5483 0.0328
5.1768 2.5477 0.0223
5.1786 2.5437 0.0114
5.1809 2.5430 0.0005
5.1837 2.5454 -0.0106
5.1862 2.5455 -0.0220
5.1886 2.5444 -0.0336
5.1914 2.5453 -0.0455
5.1942 2.5461 -0.0578
5.1967 2.5447 -0.0701
5.1995 2.5442 -0.0827
5.2028 2.5466 -0.0962
5.2048 2.5419 -0.1085
5.2090 2.5478 -0.1236
5.2117 2.5459 -0.1371
5.2146 2.5447 -0.1512
5.2184 2.5472 -0.1667
5.2217 2.5467 -0.1817
5.2245 2.5443 -0.1962
5.2281 2.5444 -0.2122
5.2321 2.5462 -0.2293
5.2349 2.5425 -0.2442
5.2386 2.5422 -0.2611
5.2416 2.5391 -0.2769
5.2456 2.5394 -0.2950
5.2511 2.5444 -0.3167
5.2555 2.5450 -0.3363
5.2595 2.5437 -0.3552
5.2638 2.5431 -0.3750
5.2687 2.5439 -0.3965
5.2716 2.5383 -0.4132
5.2766 2.5387 -0.4356
5.2827 2.5419 -0.4612
5.2881 2.5425 -0.4854
5.2990 2.5423 -0.5346
5.3021 2.5359 -0.5531
5.3008 2.5184 -0.5582
5.2980 2.4979 -0.5583
5.2941 2.4758 -0.5547
5.2918 2.4581 -0.5555
5.2909 2.4441 -0.5603
5.2881 2.4265 -0.5586
5.2842 2.4075 -0.5532
5.2839 2.3962 -0.5589
5.2800 2.3785 -0.5528
5.2780 2.3648 -0.5521
5.2765 2.3526 -0.5530
5.2758 2.3423 -0.5566
5.2738 2.3299 -0.5553
5.2730 2.3200 -0.5580
5.2702 2.3072 -0.5532
5.2689 2.2972 -0.5538
5.2686 2.2889 -0.5576
5.1441 2.5634 0.1281
5.1458 2.5624 0.1189
5.1478 2.5638 0.1102
5.1497 2.5638 0.1010
5.1518 2.5650 0.0919
5.1536 2.5625 0.0818
5.1555 2.5611 0.0718
5.1572 2.5562 0.0612
5.1596 2.5604 0.0517
5.1611 2.5531 0.0406
5.1628 2.5481 0.0299
5.1648 2.5465 0.0193
5.1671 2.5469 0.0086
5.1690 2.5440 -0.0023
5.1711 2.5421 -0.0134
5.1739 2.5455 -0.0248
5.1762 2.5445 -0.0364
5.1789 2.5465 -0.0484
5.1813 2.5453 -0.0604
5.1840 2.5460 -0.0729
5.1866 2.5455 -0.0856
5.1889 2.5430 -0.0981
5.1920 2.5452 -0.1119
5.1949 2.5454 -0.1256
5.1978 2.5454 -0.1396
5.2002 2.5425 -0.1530
5.2039 2.5460 -0.1687
5.2065 2.5428 -0.1826
5.2106 2.5478 -0.2000
5.2129 2.5425 -0.2136
5.2161 2.5417 -0.2294
5.2191 2.5399 -0.2450
5.2232 2.5422 -0.2632
5.2267 2.5418 -0.2805
5.2314 2.5455 -0.3007
5.2394 2.5462 -0.3389
5.2430 2.5442 -0.3572
5.2466 2.5421 -0.3758
5.2501 2.5391 -0.3940
5.2549 2.5405 -0.4165
5.2582 2.5364 -0.4347
5.2628 2.5360 -0.4567
5.2705 2.5449 -0.4888
5.2742 2.5410 -0.5090
5.2788 2.5391 -0.5318
5.2824 2.5342 -0.5517
5.2819 2.5181 -0.5582
5.2785 2.4948 -0.5545
5.2770 2.4775 -0.5569
5.2741 2.4571 -0.5539
5.2724 2.4405 -0.5546
5.2719 2.4274 -0.5594
5.2670 2.3940 -0.5542
5.2642 2.3673 -0.5554
5.2627 2.3544 -0.5551
5.2611 2.3418 -0.5542
5.2603 2.3312 -0.5561
5.2585 2.3191 -0.5540
5.2578 2.3094 -0.5562
5.2574 2.3004 -0.5591
5.2564 2.2906 -0.5592
5.1310 2.5448 0.1284
5.1327 2.5466 0.1205
5.1343 2.5446 0.1115
5.1359 2.5437 0.1026
5.1377 2.5440 0.0938
5.1400 2.5550 0.0869
5.1445 2.5679 0.0698
5.1463 2.5652 0.0594
5.1484 2.5671 0.0494
5.1503 2.5644 0.0387
5.1522 2.5627 0.0280
5.1543 2.5620 0.0172
5.1558 2.5546 0.0060
5.1583 2.5582 -0.0051
5.1603 2.5551 -0.0164
5.1624 2.5531 -0.0279
5.1639 2.5457 -0.0392
5.1666 2.5488 -0.0514
5.1685 2.5444 -0.0630
5.1710 2.5452 -0.0755
5.1737 2.5468 -0.0885
5.1761 2.5453 -0.1012
5.1790 2.5476 -0.1150
5.1809 2.5419 -0.1272
5.1841 2.5459 -0.1422
5.1868 2.5449 -0.1562
5.1893 2.5428 -0.1701
5.1925 2.5444 -0.1856
5.1961 2.5476 -0.2023
5.1983 2.5424 -0.2158
5.2021 2.5461 -0.2337
5.2044 2.5407 -0.2476
5.2082 2.5432 -0.2658
5.2115 2.5428 -0.2831
5.2147 2.5415 -0.3001
5.2184 2.5416 -0.3186
5.2223 2.5424 -0.3381
5.2266 2.5446 -0.3592
5.2302 2.5434 -0.3784
5.2335 2.5404 -0.3966
5.2381 2.5420 -0.4191
5.2413 2.5379 -0.4373
5.2466 2.5413 -0.4629
5.2521 2.5444 -0.4893
5.2550 2.5383 -0.5070
5.2628 2.5481 -0.5425
5.2643 2.5367 -0.5551
5.2637 2.5192 -0.5598
5.2628 2.5013 -0.5630
5.2572 2.4574 -0.5540
5.2561 2.4414 -0.5554
5.2551 2.4263 -0.5572
5.2526 2.4079 -0.5522
5.2521 2.3953 -0.5556
5.2514 2.3825 -0.5574
5.2497 2.3681 -0.5555
5.2485 2.3551 -0.5550
5.2469 2.3419 -0.5528
5.2466 2.3318 -0.5557
5.2449 2.3192 -0.5523
5.2447 2.3100 -0.5555
5.2445 2.3011 -0.5583
5.1207 2.5428 0.1249
5.1222 2.5397 0.1158
5.1238 2.5402 0.1075
5.1254 2.5419 0.0993
5.1270 2.5411 0.0903
5.1287 2.5413 0.0814
5.1305 2.5475 0.0732
5.1322 2.5451 0.0634
5.1339 2.5427 0.0536
5.1358 2.5461 0.0442
5.1376 2.5458 0.0342
5.1404 2.5637 0.0251
5.1423 2.5619 0.0142
5.1440 2.5568 0.0031
5.1462 2.5593 -0.0080
5.1487 2.5650 -0.0196
5.1506 2.5618 -0.0312
5.1527 2.5596 -0.0430
5.1554 2.5658 -0.0558
5.1575 2.5633 -0.0681
5.1595 2.5588 -0.0802
5.1616 2.5552 -0.0926
5.1633 2.5486 -0.1045
5.1653 2.5440 -0.1168
5.1679 2.5453 -0.1306
5.1705 2.5454 -0.1446
5.1729 2.5435 -0.1582
5.1752 2.5405 -0.1717
5.1781 2.5422 -0.1871
5.1815 2.5464 -0.2041
5.1842 2.5449 -0.2192
5.1877 2.5487 -0.2371
5.1898 2.5424 -0.2506
5.1928 2.5415 -0.2669
5.1961 2.5421 -0.2846
5.1997 2.5442 -0.3037
5.2039 2.5486 -0.3251
5.2065 2.5436 -0.3406
5.2095 2.5410 -0.3581
5.2135 2.5423 -0.3790
5.2180 2.5457 -0.4024
5.2212 2.5426 -0.4210
5.2250 2.5417 -0.4419
5.2289 2.5406 -0.4633
5.2328 2.5393 -0.4850
5.2376 2.5407 -0.5103
5.2420 2.5405 -0.5346
5.2448 2.5335 -0.5519
5.2447 2.5168 -0.5571
5.2431 2.4955 -0.5556
5.2426 2.4787 -0.5584
5.2412 2.4596 -0.5568
5.2400 2.4422 -0.5563
5.2385 2.4246 -0.5539
5.2382 2.4111 -0.5568
5.2371 2.3961 -0.5560
5.2359 2.3814 -0.5544
5.2361 2.3705 -0.5587
5.2347 2.3564 -0.5560
5.2330 2.3420 -0.5513
5.2334 2.3330 -0.5564
5.2317 2.3198 -0.5517
5.2322 2.3117 -0.5572
5.2311 2.3006 -0.5550
5.1107 2.5421 0.1218
5.1121 2.5441 0.1140
5.1136 2.5421 0.1050
5.1151 2.5413 0.0962
5.1166 2.5442 0.0880
5.1181 2.5445 0.0790
5.1197 2.5434 0.0697
5.1213 2.5435 0.0603
5.1229 2.5377 0.0501
5.1247 2.5446 0.0412
5.1263 2.5433 0.0311
5.1281 2.5430 0.0210
5.1298 2.5415 0.0106
5.1317 2.5444 0.0001
5.1336 2.5460 -0.0107
5.1355 2.5442 -0.0218
5.1379 2.5543 -0.0336
5.1399 2.5554 -0.0455
5.1417 2.5490 -0.0568
5.1467 2.5611 -0.0833
5.1490 2.5617 -0.0965
5.1510 2.5580 -0.1091
5.1537 2.5634 -0.1239
5.1562 2.5645 -0.1382
5.1583 2.5595 -0.1512
5.1606 2.5575 -0.1651
5.1632 2.5573 -0.1800
5.1644 2.5437 -0.1900
5.1672 2.5452 -0.2059
5.1701 2.5465 -0.2221
5.1723 2.5422 -0.2362
5.1749 2.5406 -0.2517
5.1778 2.5406 -0.2685
5.1812 2.5439 -0.2876
5.1838 2.5400 -0.3030
5.1864 2.5370 -0.3192
5.1906 2.5430 -0.3420
5.1939 2.5430 -0.3612
5.1968 2.5403 -0.3790
5.2010 2.5438 -0.4023
5.2038 2.5392 -0.4194
5.2081 2.5423 -0.4437
5.2119 2.5421 -0.4658
5.2146 2.5363 -0.4830
5.2193 2.5394 -0.5097
5.2247 2.5444 -0.5396
5.2270 2.5360 -0.5553
5.2259 2.5135 -0.5535
5.2261 2.4971 -0.5578
5.2263 2.4817 -0.5623
5.2237 2.4564 -0.5521
5.2237 2.4417 -0.5551
5.2236 2.4273 -0.5575
5.2224 2.4100 -0.5542
5.2223 2.3968 -0.5562
5.2219 2.3833 -0.5567
5.2207 2.3682 -0.5533
5.2212 2.3582 -0.5580
5.2194 2.3426 -0.5510
5.2198 2.3331 -0.5548
5.2194 2.3220 -0.5547
5.2191 2.3118 -0.5553
5.2192 2.3028 -0.5579
5.2198 2.2950 -0.5627
5.1007 2.5402 0.1184
5.1019 2.5459 0.1115
5.1034 2.5427 0.1023
5.1048 2.5420 0.0935
5.1062 2.5424 0.0848
5.1076 2.5440 0.0761
5.1091 2.5418 0.0666
5.1105 2.5455 0.0577
5.1121 2.5432 0.0479
5.1137 2.5396 0.0379
5.1152 2.5395 0.0280
5.1169 2.5416 0.0181
5.1185 2.5424 0.0078
5.1202 2.5409 -0.0027
5.1220 2.5448 -0.0135
5.1237 2.5420 -0.0244
5.1255 2.5434 -0.0357
5.1272 2.5383 -0.0467
5.1292 2.5417 -0.0587
5.1311 2.5428 -0.0708
5.1333 2.5468 -0.0837
5.1352 2.5445 -0.0959
5.1376 2.5523 -0.1104
5.1395 2.5467 -0.1225
5.1450 2.5659 -0.1556
5.1470 2.5600 -0.1684
5.1496 2.5636 -0.1847
5.1518 2.5594 -0.1985
5.1541 2.5562 -0.2128
5.1573 2.5639 -0.2322
5.1595 2.5594 -0.2467
5.1607 2.5432 -0.2551
5.1638 2.5467 -0.2739
5.1663 2.5439 -0.2896
5.1688 2.5410 -0.3055
5.1720 2.5440 -0.3256
5.1754 2.5467 -0.3462
5.1780 2.5433 -0.3631
5.1812 2.5431 -0.3827
5.1842 2.5411 -0.4014
5.1874 2.5406 -0.4218
5.1907 2.5391 -0.4419
5.1943 2.5397 -0.4646
5.1982 2.5409 -0.4885
5.2021 2.5418 -0.5130
5.2068 2.5461 -0.5422
5.2087 2.5349 -0.5544
5.2087 2.5152 -0.5558
5.2086 2.4959 -0.5564
5.2086 2.4784 -0.5579
5.2081 2.4593 -0.5559
5.2079 2.4425 -0.5559
5.2080 2.4274 -0.5571
5.2084 2.4145 -0.5607
5.2079 2.3987 -0.5586
5.2079 2.3852 -0.5589
5.2068 2.3571 -0.5545
5.2068 2.3342 -0.5555
5.2064 2.3226 -0.5540
5.2066 2.3129 -0.5557
5.2067 2.3033 -0.5570
5.2067 2.2940 -0.5579
5.0909 2.5394 0.1154
5.0919 2.5440 0.1082
5.0932 2.5433 0.0995
5.0944 2.5451 0.0913
5.0957 2.5455 0.0825
5.0972 2.5422 0.0729
5.0986 2.5413 0.0637
5.1000 2.5391 0.0541
5.1013 2.5451 0.0453
5.1028 2.5416 0.0353
5.1043 2.5415 0.0254
5.1059 2.5379 0.0152
5.1074 2.5376 0.0050
5.1089 2.5418 -0.0054
5.1105 2.5425 -0.0162
5.1121 2.5452 -0.0272
5.1138 2.5423 -0.0383
5.1155 2.5415 -0.0497
5.1172 2.5396 -0.0611
5.1190 2.5407 -0.0731
5.1208 2.5439 -0.0858
5.1227 2.5447 -0.0985
5.1246 2.5424 -0.1108
5.1265 2.5420 -0.1238
5.1284 2.5385 -0.1362
5.1305 2.5418 -0.1508
5.1325 2.5401 -0.1642
5.1349 2.5450 -0.1803
5.1369 2.5420 -0.1939
5.1420 2.5517 -0.2289
5.1445 2.5538 -0.2461
5.1469 2.5512 -0.2614
5.1500 2.5601 -0.2834
5.1526 2.5598 -0.3010
5.1553 2.5593 -0.3190
5.1576 2.5535 -0.3338
5.1604 2.5537 -0.3529
5.1635 2.5553 -0.3737
5.1659 2.5492 -0.3891
5.1684 2.5440 -0.4052
5.1712 2.5419 -0.4243
5.1747 2.5444 -0.4480
5.1777 2.5419 -0.4678
5.1808 2.5394 -0.4879
5.1849 2.5441 -0.5163
5.1884 2.5434 -0.5398
5.1908 2.5351 -0.5551
5.1914 2.5161 -0.5572
5.1916 2.4961 -0.5567
5.1924 2.4800 -0.5599
5.1923 2.4607 -0.5577
5.1921 2.4419 -0.5546
5.1932 2.4139 -0.5590
5.1931 2.3981 -0.5567
5.1931 2.3839 -0.5558
5.1936 2.3719 -0.5575
5.1939 2.3601 -0.5587
5.1937 2.3467 -0.5560
5.1939 2.3354 -0.5561
5.1938 2.3129 -0.5537
5.1945 2.3044 -0.5573
5.1955 2.2972 -0.5632
5.0819 2.5445 0.1055
5.0832 2.5427 0.0966
5.0855 2.5437 0.0793
5.0869 2.5417 0.0700
5.0880 2.5432 0.0611
5.0894 2.5422 0.0517
5.0906 2.5447 0.0425
5.0920 2.5436 0.0326
5.0934 2.5412 0.0226
5.0947 2.5433 0.0126
5.0962 2.5419 0.0023
5.0977 2.5393 -0.0081
5.0992 2.5389 -0.0188
5.1006 2.5429 -0.0298
5.1021 2.5444 -0.0411
5.1037 2.5437 -0.0525
5.1054 2.5385 -0.0636
5.1069 2.5429 -0.0760
5.1086 2.5440 -0.0884
5.1103 2.5418 -0.1005
5.1121 2.5416 -0.1131
5.1139 2.5382 -0.1253
5.1157 2.5428 -0.1398
5.1176 2.5402 -0.1527
5.1195 2.5385 -0.1660
5.1215 2.5416 -0.1814
5.1256 2.5433 -0.2118
5.1277 2.5412 -0.2262
5.1299 2.5426 -0.2427
5.1321 2.5420 -0.2586
5.1342 2.5377 -0.2727
5.1364 2.5342 -0.2875
5.1389 2.5376 -0.3070
5.1414 2.5382 -0.3252
5.1447 2.5514 -0.3530
5.1478 2.5581 -0.3775
5.1505 2.5571 -0.3968
5.1535 2.5583 -0.4186
5.1588 2.5513 -0.4556
5.1617 2.5496 -0.4763
5.1641 2.5416 -0.4911
5.1675 2.5435 -0.5164
5.1714 2.5488 -0.5464
5.1728 2.5317 -0.5515
5.1743 2.5170 -0.5586
5.1752 2.4984 -0.5597
5.1753 2.4759 -0.5544
5.1761 2.4587 -0.5547
5.1772 2.4453 -0.5592
5.1777 2.4288 -0.5581
5.1784 2.4146 -0.5594
5.1791 2.4007 -0.5601
5.1789 2.3833 -0.5536
5.1790 2.3688 -0.5507
5.1799 2.3582 -0.5539
5.1805 2.3472 -0.5556
5.1808 2.3353 -0.5544
5.1813 2.3248 -0.5551
5.1816 2.3139 -0.5541
5.1824 2.3055 -0.5576
5.1831 2.2966 -0.5596
5.0711 2.5430 0.1106
5.0721 2.5438 0.1025
5.0733 2.5420 0.0936
5.0743 2.5426 0.0851
5.0756 2.5406 0.0760
5.0764 2.5448 0.0677
5.0778 2.5415 0.0581
5.0789 2.5429 0.0490
5.0802 2.5407 0.0393
5.0813 2.5432 0.0299
5.0828 2.5396 0.0198
5.0841 2.5384 0.0098
5.0853 2.5405 -0.0004
5.0864 2.5437 -0.0109
5.0878 2.5421 -0.0215
5.0893 2.5405 -0.0323
5.0905 2.5443 -0.0437
5.0921 2.5404 -0.0548
5.0934 2.5439 -0.0668
5.0951 2.5409 -0.0783
5.0967 2.5388 -0.0900
5.0981 2.5419 -0.1030
5.0998 2.5407 -0.1154
5.1014 2.5425 -0.1288
5.1031 2.5400 -0.1414
5.1048 2.5405 -0.1551
5.1066 2.5409 -0.1691
5.1084 2.5401 -0.1831
5.1102 2.5392 -0.1973
5.1121 2.5401 -0.2125
5.1140 2.5399 -0.2277
5.1160 2.5377 -0.2423
5.1180 2.5381 -0.2585
5.1222 2.5359 -0.2904
5.1244 2.5367 -0.3082
5.1265 2.5331 -0.3234
5.1338 2.5383 -0.3833
5.1363 2.5391 -0.4038
5.1388 2.5380 -0.4233
5.1475 2.5446 -0.4951
5.1501 2.5404 -0.5139
5.1536 2.5459 -0.5439
5.1555 2.5318 -0.5521
5.1574 2.5186 -0.5608
5.1598 2.4802 -0.5601
5.1605 2.4595 -0.5555
5.1627 2.4288 -0.5576
5.1644 2.3987 -0.5560
5.1668 2.3600 -0.5559
5.1676 2.3484 -0.5563
5.1680 2.3352 -0.5526
5.1696 2.3155 -0.5557
5.1705 2.3065 -0.5579
5.0607 2.5487 0.1091
5.0619 2.5469 0.1003
5.0643 2.5432 0.0824
5.0650 2.5462 0.0741
5.0660 2.5467 0.0652
5.0672 2.5446 0.0557
5.0685 2.5424 0.0462
5.0695 2.5438 0.0369
5.0707 2.5428 0.0271
5.0718 2.5428 0.0172
5.0731 2.5415 0.0072
5.0744 2.5402 -0.0031
5.0755 2.5411 -0.0135
5.0767 2.5419 -0.0242
5.0781 2.5392 -0.0349
5.0793 2.5409 -0.0461
5.0805 2.5425 -0.0576
5.0819 2.5407 -0.0689
5.0833 2.5409 -0.0808
5.0845 2.5431 -0.0933
5.0859 2.5442 -0.1059
5.0876 2.5399 -0.1176
5.0890 2.5427 -0.1313
5.0906 2.5403 -0.1439
5.0920 2.5428 -0.1582
5.0937 2.5412 -0.1715
5.0953 2.5415 -0.1858
5.0972 2.5377 -0.1988
5.0988 2.5406 -0.2149
5.1006 2.5395 -0.2296
5.1024 2.5364 -0.2437
5.1043 2.5370 -0.2599
5.1062 2.5364 -0.2759
5.1100 2.5385 -0.3111
5.1121 2.5366 -0.3275
5.1186 2.5394 -0.3857
5.1208 2.5394 -0.4054
5.1255 2.5364 -0.4440
5.1384 2.5304 -0.5509
5.1404 2.5143 -0.5559
5.1423 2.4993 -0.5611
5.1453 2.4622 -0.5591
5.1481 2.4308 -0.5600
5.1505 2.4006 -0.5582
5.1517 2.3869 -0.5579
5.1529 2.3748 -0.5593
5.1547 2.3488 -0.5558
5.1567 2.3269 -0.5560
5.1586 2.3075 -0.5581
5.1597 2.2992 -0.5612
5.0516 2.5440 0.1052
5.0524 2.5449 0.0971
5.0531 2.5456 0.0887
5.0546 2.5412 0.0793
5.0556 2.5406 0.0705
5.0565 2.5411 0.0616
5.0571 2.5440 0.0529
5.0586 2.5395 0.0431
5.0591 2.5434 0.0341
5.0604 2.5411 0.0243
5.0612 2.5424 0.0145
5.0623 2.5424 0.0045
5.0635 2.5411 -0.0057
5.0642 2.5443 -0.0162
5.0654 2.5440 -0.0269
5.0665 2.5447 -0.0378
5.0682 2.5386 -0.0484
5.0694 2.5391 -0.0597
5.0718 2.5387 -0.0829
5.0726 2.5443 -0.0960
5.0741 2.5411 -0.1077
5.0754 2.5421 -0.1206
5.0769 2.5398 -0.1329
5.0779 2.5446 -0.1475
5.0795 2.5422 -0.1603
5.0810 2.5416 -0.1739
5.0842 2.5382 -0.2012
5.0856 2.5411 -0.2173
5.0888 2.5408 -0.2479
5.0904 2.5413 -0.2642
5.0956 2.5428 -0.3157
5.0977 2.5366 -0.3291
5.0998 2.5329 -0.3445
5.1098 2.5401 -0.4485
5.1121 2.5372 -0.4672
5.1144 2.5397 -0.4918
5.1192 2.5400 -0.5384
5.1217 2.5342 -0.5559
5.1259 2.4935 -0.5538
5.1280 2.4795 -0.5590
5.1299 2.4608 -0.5569
5.1333 2.4273 -0.5542
5.1367 2.4031 -0.5615
5.1395 2.3747 -0.5579
5.1408 2.3622 -0.5574
5.1419 2.3475 -0.5517
5.1443 2.3262 -0.5527
5.1468 2.3079 -0.5571
5.0417 2.5458 0.1028
5.0424 2.5467 0.0947
5.0440 2.5411 0.0851
5.0447 2.5418 0.0767
5.0456 2.5412 0.0678
5.0464 2.5418 0.0590
5.0470 2.5435 0.0501
5.0480 2.5426 0.0408
5.0492 2.5405 0.0312
5.0494 2.5455 0.0219
5.0508 2.5420 0.0118
5.0519 2.5408 0.0018
5.0530 2.5396 -0.0083
5.0537 2.5417 -0.0188
5.0545 2.5426 -0.0294
5.0559 2.5400 -0.0401
5.0567 2.5418 -0.0513
5.0578 2.5412 -0.0625
5.0587 2.5427 -0.0743
5.0599 2.5420 -0.0860
5.0613 2.5400 -0.0976
5.0623 2.5412 -0.1102
5.0633 2.5422 -0.1230
5.0649 2.5390 -0.1350
5.0657 2.5428 -0.1493
5.0672 2.5404 -0.1620
5.0683 2.5429 -0.1767
5.0700 2.5383 -0.1890
5.0712 2.5406 -0.2043
5.0728 2.5378 -0.2178
5.0740 2.5406 -0.2343
5.0754 2.5404 -0.2497
5.0769 2.5410 -0.2659
5.0787 2.5369 -0.2799
5.0818 2.5374 -0.3139
5.0854 2.5347 -0.3474
5.0983 2.5403 -0.4932
5.1006 2.5348 -0.5100
5.1077 2.5129 -0.5546
5.1102 2.4935 -0.5538
5.1125 2.4794 -0.5589
5.1148 2.4607 -0.5566
5.1191 2.4326 -0.5618
5.1210 2.4156 -0.5583
5.1229 2.4017 -0.5583
5.1247 2.3892 -0.5599
5.1263 2.3733 -0.5542
5.1280 2.3626 -0.5570
5.1294 2.3491 -0.5535
5.1326 2.3307 -0.5605
5.0335 2.5420 0.0910
5.0334 2.5467 0.0834
5.0349 2.5424 0.0740
5.0359 2.5405 0.0650
5.0366 2.5411 0.0562
5.0370 2.5429 0.0474
5.0379 2.5421 0.0380
5.0387 2.5424 0.0286
5.0392 2.5438 0.0191
5.0404 2.5416 0.0092
5.0412 2.5416 -0.0008
5.0421 2.5416 -0.0110
5.0428 2.5426 -0.0214
5.0439 2.5412 -0.0319
5.0446 2.5420 -0.0428
5.0453 2.5438 -0.0540
5.0465 2.5422 -0.0652
5.0472 2.5438 -0.0769
5.0486 2.5409 -0.0882
5.0498 2.5390 -0.0999
5.0510 2.5381 -0.1119
5.0516 2.5413 -0.1251
5.0527 2.5412 -0.1380
5.0540 2.5389 -0.1504
5.0548 2.5417 -0.1647
5.0559 2.5422 -0.1786
5.0570 2.5427 -0.1929
5.0586 2.5390 -0.2058
5.0601 2.5372 -0.2197
5.0610 2.5402 -0.2361
5.0619 2.5429 -0.2529
5.0634 2.5417 -0.2682
5.0652 2.5376 -0.2821
5.0666 2.5371 -0.2983
5.0681 2.5364 -0.3149
5.0697 2.5347 -0.3311
5.0713 2.5338 -0.3483
5.0725 2.5370 -0.3690
5.0741 2.5366 -0.3876
5.0756 2.5377 -0.4079
5.0774 2.5361 -0.4265
5.0793 2.5328 -0.4438
5.0809 2.5350 -0.4669
5.0826 2.5361 -0.4897
5.0848 2.5315 -0.5072
5.0870 2.5261 -0.5239
5.0889 2.5274 -0.5487
5.0917 2.5129 -0.5548
5.0946 2.4948 -0.5557
5.0972 2.4794 -0.5587
5.1000 2.4599 -0.5552
5.1025 2.4443 -0.5559
5.1048 2.4318 -0.5600
5.1070 2.4182 -0.5616
5.1113 2.3904 -0.5609
5.1133 2.3782 -0.5619
5.1153 2.3637 -0.5577
5.1171 2.3520 -0.5576
5.1205 2.3281 -0.5535
5.1221 2.3201 -0.5582
5.1237 2.3099 -0.5574
5.0228 2.5455 0.0973
5.0237 2.5438 0.0886
5.0241 2.5447 0.0803
5.0249 2.5442 0.0716
5.0256 2.5436 0.0628
5.0271 2.5392 0.0533
5.0276 2.5398 0.0443
5.0273 2.5452 0.0356
5.0277 2.5467 0.0263
5.0292 2.5421 0.0164
5.0299 2.5423 0.0066
5.0310 2.5400 -0.0034
5.0318 2.5400 -0.0135
5.0323 2.5411 -0.0239
5.0325 2.5444 -0.0347
5.0334 2.5441 -0.0455
5.0346 2.5414 -0.0563
5.0351 2.5432 -0.0678
5.0357 2.5448 -0.0795
5.0370 2.5419 -0.0909
5.0382 2.5400 -0.1025
5.0389 2.5413 -0.1150
5.0398 2.5414 -0.1275
5.0407 2.5413 -0.1403
5.0420 2.5391 -0.1527
5.0432 2.5379 -0.1656
5.0435 2.5425 -0.1809
5.0447 2.5410 -0.1944
5.0457 2.5414 -0.2089
5.0473 2.5377 -0.2219
5.0482 2.5387 -0.2374
5.0496 2.5368 -0.2517
5.0496 2.5451 -0.2720
5.0515 2.5401 -0.2854
5.0532 2.5359 -0.2994
5.0543 2.5371 -0.3171
5.0560 2.5337 -0.3320
5.0573 2.5338 -0.3498
5.0585 2.5345 -0.3685
5.0596 2.5368 -0.3890
5.0611 2.5354 -0.4072
5.0625 2.5356 -0.4271
5.0642 2.5339 -0.4460
5.0654 2.5370 -0.4699
5.0670 2.5366 -0.4911
5.0691 2.5320 -0.5084
5.0712 2.5267 -0.5251
5.0729 2.5273 -0.5490
5.0756 2.5165 -0.5596
5.0786 2.5014 -0.5642
5.0819 2.4821 -0.5624
5.0854 2.4597 -0.5548
5.0883 2.4427 -0.5532
5.0935 2.4153 -0.5564
5.0959 2.4013 -0.5560
5.0983 2.3882 -0.5562
5.1027 2.3628 -0.5549
5.1046 2.3561 -0.5642
5.1067 2.3427 -0.5600
5.1105 2.3193 -0.5546
5.1123 2.3102 -0.5563
5.1139 2.3024 -0.5603
5.0144 2.5430 0.0857
5.0145 2.5452 0.0777
5.0148 2.5460 0.0692
5.0155 2.5455 0.0603
5.0165 2.5436 0.0512
5.0169 2.5441 0.0421
5.0179 2.5421 0.0327
5.0184 2.5425 0.0233
5.0189 2.5428 0.0138
5.0190 2.5455 0.0040
5.0196 2.5455 -0.0060
5.0207 2.5432 -0.0162
5.0221 2.5396 -0.0264
5.0216 2.5453 -0.0373
5.0223 2.5450 -0.0481
5.0233 2.5435 -0.0590
5.0248 2.5397 -0.0698
5.0245 2.5447 -0.0820
5.0256 2.5429 -0.0935
5.0260 2.5443 -0.1058
5.0272 2.5424 -0.1176
5.0279 2.5425 -0.1301
5.0287 2.5425 -0.1429
5.0297 2.5414 -0.1557
5.0308 2.5401 -0.1686
5.0308 2.5448 -0.1840
5.0323 2.5413 -0.1967
5.0333 2.5407 -0.2107
5.0347 2.5381 -0.2241
5.0356 2.5382 -0.2391
5.0365 2.5383 -0.2544
5.0362 2.5457 -0.2742
5.0381 2.5407 -0.2876
5.0398 2.5366 -0.3015
5.0416 2.5315 -0.3150
5.0421 2.5354 -0.3348
5.0436 2.5328 -0.3506
5.0447 2.5328 -0.3686
5.0450 2.5386 -0.3919
5.0467 2.5347 -0.4079
5.0477 2.5367 -0.4293
5.0489 2.5367 -0.4496
5.0501 2.5374 -0.4712
5.0519 2.5346 -0.4899
5.0533 2.5341 -0.5114
5.0551 2.5311 -0.5307
5.0571 2.5265 -0.5484
5.0602 2.5134 -0.5560
5.0670 2.4813 -0.5612
5.0734 2.4510 -0.5649
5.0770 2.4300 -0.5563
5.0803 2.4123 -0.5510
5.0901 2.3670 -0.5615
5.0949 2.3413 -0.5555
5.0990 2.3214 -0.5573
5.1028 2.3028 -0.5589
5.0127 2.5479 -0.0850
5.0157 2.5424 -0.1199
5.0170 2.5394 -0.1316
5.0170 2.5426 -0.1453
5.0181 2.5405 -0.1576
5.0184 2.5424 -0.1716
5.0192 2.5421 -0.1851
5.0196 2.5436 -0.1997
5.0204 2.5431 -0.2138
5.0217 2.5404 -0.2272
5.0223 2.5416 -0.2427
5.0238 2.5378 -0.2561
5.0235 2.5434 -0.2748
5.0242 2.5441 -0.2914
5.0259 2.5400 -0.3054
5.0274 2.5368 -0.3201
5.0282 2.5370 -0.3375
5.0288 2.5389 -0.3566
5.0296 2.5398 -0.3754
5.0303 2.5412 -0.3954
5.0317 2.5391 -0.4129
5.0322 2.5419 -0.4352
5.0334 2.5411 -0.4549
5.0345 2.5410 -0.4757
5.0359 2.5391 -0.4953
5.0373 2.5378 -0.5161
5.0392 2.5333 -0.5336
5.0412 2.5286 -0.5513
5.0445 2.5155 -0.5589
5.0523 2.4811 -0.5609
5.0601 2.4451 -0.5559
5.0669 2.4141 -0.5532
5.0723 2.3910 -0.5591
5.0777 2.3674 -0.5609
5.0825 2.3465 -0.5645
5.0875 2.3229 -0.5588
4.7721 3.4365 0.1942
4.7750 3.4292 0.1682
4.7741 3.4371 0.1436
4.7737 3.4522 0.0648
4.7724 3.4671 0.0087
4.7722 3.4728 -0.0207
4.7745 3.4685 -0.0505
4.7768 3.4641 -0.0807
4.7793 3.4595 -0.1114
4.7826 3.4512 -0.1421
4.7873 3.4372 -0.1723
4.7887 3.4367 -0.2046
5.0191 2.5389 -0.4538
5.0206 2.5356 -0.4713
5.0216 2.5399 -0.5190
5.0231 2.5369 -0.5384
5.0262 2.5261 -0.5488
5.0297 2.5131 -0.5561
5.0334 2.4987 -0.5610
5.0386 2.4764 -0.5546
5.0422 2.4626 -0.5582
5.0461 2.4462 -0.5572
5.0495 2.4330 -0.5598
5.0533 2.4172 -0.5575
5.0568 2.4024 -0.5556
5.0599 2.3900 -0.5565
5.0629 2.3777 -0.5569
5.0685 2.3553 -0.5586
5.0713 2.3437 -0.5575
5.0761 2.3244 -0.5603
5.0809 2.3045 -0.5589
4.7464 3.4344 0.1613
4.7496 3.4258 0.1350
4.7442 3.4521 0.0846
4.7400 3.4776 0.0012
4.7394 3.4833 -0.0283
4.7428 3.4743 -0.0581
4.7487 3.4557 -0.0876
4.7520 3.4466 -0.1176
4.7518 3.4513 -0.1492
4.7550 3.4431 -0.1801
4.7573 3.4381 -0.2117
4.7666 3.4422 -0.5367
4.7772 3.4052 -0.5616
4.8886 2.9872 -0.5634
4.9342 2.8166 -0.5677
4.9708 2.6787 -0.5618
4.9975 2.5782 -0.5614
5.0042 2.5526 -0.5566
5.0096 2.5321 -0.5563
5.0150 2.5120 -0.5551
5.0193 2.4962 -0.5579
5.0294 2.4572 -0.5504
5.0359 2.4341 -0.5610
5.0436 2.4048 -0.5588
5.0474 2.3903 -0.5561
5.0507 2.3781 -0.5564
5.0536 2.3674 -0.5585
5.0565 2.3568 -0.5602
5.0594 2.3459 -0.5603
5.0621 2.3358 -0.5612
5.0650 2.3246 -0.5591
5.0674 2.3161 -0.5618
5.0696 2.3083 -0.5656
4.7148 3.4649 -0.0354
4.7152 3.4657 -0.0651
4.7171 3.4615 -0.0952
4.7230 3.4430 -0.1244
4.7461 3.3963 -0.5636
4.7920 3.2371 -0.5674
4.8929 2.8857 -0.5619
4.9118 2.8207 -0.5730
4.9352 2.7387 -0.5631
4.9700 2.6170 -0.5543
4.9811 2.5789 -0.5628
4.9937 2.5350 -0.5601
5.0053 2.4944 -0.5556
5.0138 2.4650 -0.5611
5.0180 2.4507 -0.5630
5.0278 2.4158 -0.5540
5.0313 2.4038 -0.5563
5.0390 2.3770 -0.5535
5.0448 2.3571 -0.5595
5.0480 2.3461 -0.5594
5.0507 2.3366 -0.5615
5.0541 2.3249 -0.5579
5.0564 2.3169 -0.5619
4.6656 3.4280 0.1391
4.6558 3.4421 -0.0566
4.6569 3.4376 -0.0868
4.6577 3.4340 -0.1175
4.6572 3.4335 -0.1490
4.6602 3.4240 -0.1800
4.6556 3.4340 -0.2142
4.6528 3.4391 -0.2487
4.6440 3.4552 -0.3586
4.6451 3.4504 -0.3945
4.6452 3.4462 -0.4699
4.6461 3.4416 -0.5078
4.6365 3.4634 -0.5570
4.6672 3.3849 -0.5651
4.7916 3.0689 -0.5558
4.8986 2.7963 -0.5588
4.9137 2.7580 -0.5557
4.9484 2.6697 -0.5571
4.9793 2.5913 -0.5523
4.9854 2.5754 -0.5588
4.9949 2.5515 -0.5550
5.0014 2.5347 -0.5583
5.0087 2.5161 -0.5581
5.0175 2.4943 -0.5522
5.0236 2.4786 -0.5533
5.0293 2.4639 -0.5548
5.0347 2.4502 -0.5567
5.0414 2.4333 -0.5526
5.0463 2.4208 -0.5544
5.0519 2.4066 -0.5523
5.0618 2.3816 -0.5508
5.0663 2.3700 -0.5504
5.0710 2.3582 -0.5483
5.0738 2.3507 -0.5544
5.0779 2.3404 -0.5539
5.0821 2.3297 -0.5517
5.0853 2.3215 -0.5542
5.0887 2.3129 -0.5551
4.6262 3.4461 0.0679
4.6216 3.4549 0.0395
4.6206 3.4551 0.0101
4.6191 3.4562 -0.0199
4.6239 3.4423 -0.0501
4.6268 3.4329 -0.0805
4.6280 3.4279 -0.1115
4.6287 3.4237 -0.1430
4.6244 3.4287 -0.2095
4.6304 3.4092 -0.2744
4.6271 3.4143 -0.3106
4.6153 3.4394 -0.3531
4.6136 3.4404 -0.3910
4.6168 3.4299 -0.4261
4.6154 3.4303 -0.4653
4.6080 3.4415 -0.5507
4.6403 3.3632 -0.5589
4.7122 3.1906 -0.5553
4.7679 3.0570 -0.5545
4.7870 3.0105 -0.5607
4.8113 2.9526 -0.5571
4.8825 2.7816 -0.5550
4.9362 2.6531 -0.5504
4.9436 2.6347 -0.5580
4.9578 2.6013 -0.5485
4.9723 2.5658 -0.5584
4.9909 2.5214 -0.5527
4.9985 2.5031 -0.5526
5.0044 2.4887 -0.5565
5.0115 2.4718 -0.5559
5.0190 2.4539 -0.5525
5.0246 2.4404 -0.5545
5.0298 2.4278 -0.5570
5.0361 2.4128 -0.5546
5.0432 2.3963 -0.5481
5.0477 2.3851 -0.5500
5.0517 2.3754 -0.5538
5.0605 2.3540 -0.5553
5.0646 2.3442 -0.5567
5.0693 2.3330 -0.5538
5.0735 2.3230 -0.5530
5.0768 2.3149 -0.5556
5.0806 2.3059 -0.5553
4.5944 3.4493 0.1052
4.5910 3.4543 0.0769
4.5937 3.4452 0.0474
4.5920 3.4462 0.0178
4.5948 3.4368 -0.0125
4.5913 3.4418 -0.0433
4.5918 3.4375 -0.0745
4.5923 3.4331 -0.1062
4.5828 3.4480 -0.1739
4.5832 3.4437 -0.2077
4.5772 3.4537 -0.2445
4.5658 3.4755 -0.2850
4.5712 3.4599 -0.3190
4.5739 3.4503 -0.3545
4.5820 3.4287 -0.3869
4.5847 3.4190 -0.4228
4.5879 3.4081 -0.4586
4.5885 3.4029 -0.4968
4.5818 3.4136 -0.5420
4.6111 3.3459 -0.5548
4.6758 3.1981 -0.5636
4.7062 3.1291 -0.5647
4.7340 3.0660 -0.5652
4.7589 3.0094 -0.5661
4.7886 2.9427 -0.5572
4.8287 2.8517 -0.5573
4.8625 2.7750 -0.5579
4.9061 2.6762 -0.5554
4.9166 2.6521 -0.5590
4.9476 2.5836 -0.5395
4.9560 2.5641 -0.5426
4.9593 2.5553 -0.5571
4.9770 2.5151 -0.5564
4.9846 2.4978 -0.5575
4.9921 2.4808 -0.5578
5.0018 2.4594 -0.5505
5.0064 2.4485 -0.5573
5.0138 2.4318 -0.5543
5.0195 2.4188 -0.5559
5.0277 2.4010 -0.5482
5.0309 2.3927 -0.5563
5.0373 2.3786 -0.5528
5.0414 2.3690 -0.5567
5.0476 2.3554 -0.5519
5.0518 2.3456 -0.5538
5.0566 2.3349 -0.5527
5.0607 2.3254 -0.5537
5.0656 2.3146 -0.5503
5.0685 2.3077 -0.5557
5.0718 2.2998 -0.5582
4.5735 3.4308 0.1682
4.5616 3.4535 0.1433
4.5621 3.4490 0.1144
4.5600 3.4501 0.0856
4.5648 3.4362 0.0554
4.5675 3.4268 0.0253
4.5703 3.4172 -0.0050
4.5512 3.4468 -0.1012
4.5419 3.4626 -0.1362
4.5422 3.4580 -0.1702
4.5450 3.4479 -0.2040
4.5478 3.4378 -0.2381
4.5478 3.4335 -0.2736
4.5484 3.4281 -0.3095
4.5551 3.3962 -0.4554
4.5579 3.3859 -0.4921
4.5426 3.4126 -0.5443
4.6158 3.2539 -0.5567
4.6553 3.1694 -0.5538
4.6781 3.1193 -0.5647
4.7337 2.9996 -0.5665
4.8118 2.8337 -0.5517
4.8258 2.8029 -0.5587
4.8468 2.7584 -0.5527
4.8567 2.7361 -0.5629
4.8890 2.6674 -0.5566
4.9164 2.6092 -0.5517
4.9368 2.5650 -0.5545
4.9577 2.5205 -0.5507
4.9646 2.5052 -0.5553
4.9718 2.4894 -0.5585
4.9810 2.4700 -0.5552
4.9901 2.4510 -0.5510
4.9962 2.4376 -0.5539
5.0043 2.4207 -0.5500
5.0088 2.4103 -0.5559
5.0153 2.3964 -0.5549
5.0210 2.3841 -0.5555
5.0280 2.3697 -0.5509
5.0377 2.3485 -0.5538
5.0431 2.3372 -0.5522
5.0480 2.3266 -0.5512
5.0517 2.3184 -0.5548
5.0574 2.3067 -0.5490
5.0603 2.2998 -0.5544
5.0638 2.2921 -0.5570
4.5385 3.4439 0.2347
4.5330 3.4437 0.1522
4.5306 3.4446 0.1236
4.5284 3.4451 0.0944
4.5332 3.4311 0.0638
4.5290 3.4356 0.0337
4.5265 3.4364 0.0028
4.5093 3.4669 -0.0294
4.4967 3.4880 -0.0633
4.4988 3.4789 -0.0971
4.5042 3.4635 -0.1305
4.5095 3.4482 -0.1640
4.5122 3.4378 -0.1982
4.5125 3.4324 -0.2335
4.5179 3.4168 -0.2673
4.5074 3.4325 -0.3082
4.4926 3.4346 -0.5123
4.4985 3.4177 -0.5492
4.5760 3.2583 -0.5631
4.6562 3.0960 -0.5575
4.7469 2.9125 -0.5510
4.7681 2.8692 -0.5537
4.8085 2.7870 -0.5545
4.8270 2.7495 -0.5540
4.8452 2.7129 -0.5517
4.8572 2.6876 -0.5574
4.8728 2.6561 -0.5556
4.8993 2.6025 -0.5551
4.9241 2.5525 -0.5512
4.9323 2.5353 -0.5559
4.9431 2.5136 -0.5538
4.9626 2.4743 -0.5502
4.9695 2.4599 -0.5536
4.9786 2.4419 -0.5505
4.9911 2.4156 -0.5560
4.9973 2.4029 -0.5579
5.0051 2.3875 -0.5539
5.0118 2.3742 -0.5524
5.0190 2.3601 -0.5479
5.0227 2.3518 -0.5543
5.0270 2.3425 -0.5580
5.0333 2.3303 -0.5542
5.0374 2.3214 -0.5571
5.0432 2.3102 -0.5533
5.0473 2.3017 -0.5554
5.0519 2.2924 -0.5544
5.0558 2.2843 -0.5557
4.5034 3.4345 0.1613
4.5037 3.4294 0.1320
4.4984 3.4352 0.1031
4.4983 3.4307 0.0727
4.5010 3.4207 0.0417
4.4933 3.4307 0.0107
4.4721 3.4664 -0.0217
4.4606 3.4834 -0.0559
4.4660 3.4678 -0.0898
4.4687 3.4573 -0.1240
4.4709 3.4477 -0.1587
4.4737 3.4370 -0.1935
4.4791 3.4213 -0.2278
4.4700 3.4326 -0.2673
4.4668 3.4328 -0.3059
4.4418 3.4733 -0.3556
4.4285 3.4918 -0.4026
4.4345 3.4744 -0.4404
4.4405 3.4570 -0.4783
4.4430 3.4458 -0.5185
4.4525 3.4222 -0.5540
4.6187 3.1004 -0.5656
4.6801 2.9818 -0.5688
4.7401 2.8676 -0.5603
4.7826 2.7856 -0.5620
4.8278 2.7004 -0.5500
4.8407 2.6748 -0.5553
4.8526 2.6511 -0.5609
4.8817 2.5953 -0.5584
4.9181 2.5257 -0.5561
4.9289 2.5051 -0.5552
4.9392 2.4855 -0.5541
4.9464 2.4708 -0.5585
4.9596 2.4471 -0.5481
4.9682 2.4307 -0.5470
4.9804 2.4061 -0.5547
4.9886 2.3907 -0.5515
4.9930 2.3813 -0.5583
5.0003 2.3676 -0.5559
5.0078 2.3537 -0.5517
5.0182 2.3332 -0.5551
5.0244 2.3217 -0.5526
5.0287 2.3129 -0.5555
5.0354 2.3010 -0.5494
5.0399 2.2922 -0.5501
5.0440 2.2840 -0.5518
5.0474 2.2769 -0.5558
4.4761 3.4245 0.1991
4.4406 3.4752 0.1164
4.4457 3.4603 0.0840
4.4429 3.4601 0.0521
4.4367 3.4658 0.0197
4.4329 3.4670 -0.0137
4.4327 3.4617 -0.0477
4.4347 3.4521 -0.0820
4.4374 3.4414 -0.1166
4.4368 3.4365 -0.1520
4.4395 3.4254 -0.1872
4.4505 3.3999 -0.2203
4.4532 3.3889 -0.2556
4.4315 3.4207 -0.3007
4.4081 3.4552 -0.3493
4.3899 3.4801 -0.3984
4.3960 3.4624 -0.4368
4.4021 3.4448 -0.4751
4.4082 3.4272 -0.5135
4.4005 3.4329 -0.5616
4.5081 3.2367 -0.5619
4.5835 3.0978 -0.5701
4.6412 2.9962 -0.5486
4.6646 2.9521 -0.5570
4.6896 2.9058 -0.5612
4.7123 2.8636 -0.5654
4.7634 2.7714 -0.5595
4.7842 2.7335 -0.5588
4.8061 2.6944 -0.5542
4.8218 2.6654 -0.5566
4.8359 2.6392 -0.5597
4.8542 2.6067 -0.5542
4.8696 2.5790 -0.5516
4.8911 2.5387 -0.5584
4.9025 2.5179 -0.5588
4.9348 2.4595 -0.5557
4.9447 2.4417 -0.5539
4.9532 2.4261 -0.5542
4.9628 2.4091 -0.5507
4.9703 2.3954 -0.5514
4.9753 2.3853 -0.5577
4.9833 2.3710 -0.5551
4.9909 2.3576 -0.5528
4.9964 2.3471 -0.5554
5.0038 2.3343 -0.5518
5.0095 2.3238 -0.5522
5.0147 2.3140 -0.5533
5.0207 2.3035 -0.5515
5.0243 2.2960 -0.5566
5.0301 2.2859 -0.5538
5.0396 2.2687 -0.5532
4.4174 3.4538 0.1556
4.4111 3.4590 0.1253
4.4044 3.4649 0.0942
4.4032 3.4610 0.0615
4.4085 3.4456 0.0281
4.4138 3.4302 -0.0054
4.4191 3.4148 -0.0389
4.4158 3.4143 -0.0731
4.4183 3.4036 -0.1073
4.4083 3.4140 -0.1440
4.3936 3.4253 -0.2203
4.3893 3.4256 -0.2592
4.3675 3.4547 -0.3056
4.3625 3.4556 -0.3476
4.3685 3.4381 -0.3857
4.3746 3.4206 -0.4237
