ply
format ascii 1.0
element vertex 2099
property float x
property float y
property float z
end_header
2.8449 -1.0495 0.4964
2.9441 -1.2069 0.4742
2.9795 -1.2009 0.4730
3.4088 -0.3228 0.5458
3.4884 -0.2139 0.5534
3.5162 -0.2875 0.5440
3.5747 -0.2548 0.5445
3.6038 -0.3101 0.5370
3.6513 -0.3068 0.5349
3.4512 -1.0400 0.4660
1.4964 -1.8808 0.4450
1.5115 -1.8581 0.4463
1.4850 -1.8024 0.4522
0.3959 -0.4746 0.6122
2.2582 -0.5904 0.5203
1.9375 1.9411 0.7481
2.1853 1.9582 0.7386
2.3038 1.9972 0.7367
2.8480 -1.0517 0.4554
2.8895 -1.0302 0.4554
3.4363 -0.2460 0.4975
3.4702 -0.3037 0.4911
3.4157 -0.6404 0.4651
3.5074 -0.4858 0.4741
3.4756 -0.7051 0.4570
3.5057 -0.7296 0.4536
3.4832 -0.8881 0.4412
3.4484 -1.0618 0.4281
0.6311 -0.6268 0.5200
0.7701 1.4607 0.6407
0.9814 1.2875 0.6226
1.5655 0.1619 0.5337
2.2051 -0.6230 0.4633
2.2002 1.8685 0.6136
2.3439 1.6244 0.5937
2.4575 1.6078 0.5886
2.5639 1.6968 0.5901
3.0872 -1.2079 0.3962
3.1200 -1.2081 0.3950
3.1699 -1.7667 0.3596
3.1810 -1.7841 0.3581
3.1354 -1.9613 0.3491
-0.1716 -0.1792 0.4886
0.3869 -0.4932 0.4617
0.7518 1.4866 0.5223
1.0718 1.0699 0.4984
1.4162 0.5221 0.4691
1.9570 -0.6453 0.4122
2.2088 -0.6370 0.4054
2.2496 -0.5490 0.4074
2.2968 1.0937 0.4648
2.4680 1.5295 0.4756
2.5639 1.8363 0.4839
3.0883 -1.2225 0.3598
3.1223 -1.2168 0.3590
3.0380 -1.7621 0.3419
3.0542 -1.7765 0.3409
3.0726 -1.7815 0.3402
3.0912 -1.7841 0.3396
3.1086 -1.7893 0.3389
3.1286 -1.7860 0.3385
3.1460 -1.7891 0.3379
3.1543 -1.8138 0.3368
3.1371 -1.9642 0.3319
1.3650 -1.7709 0.3521
0.3700 -0.9110 0.3813
0.3265 -0.3468 0.3884
1.0172 1.1834 0.3914
1.2898 0.8243 0.3820
2.1443 -0.6298 0.3491
2.2091 -0.6379 0.3477
2.2721 -0.6455 0.3463
2.2972 -0.4706 0.3478
2.2108 0.9967 0.3656
2.3079 1.0287 0.3640
2.3934 1.1875 0.3640
3.0240 -1.7466 0.3193
3.0407 -1.7629 0.3188
3.0564 -1.7796 0.3183
3.0748 -1.7844 0.3179
3.0877 -1.8041 0.3174
3.1091 -1.7971 0.3170
3.1420 -1.8080 0.3163
0.5482 -1.0624 0.3146
0.3904 -0.3189 0.3059
1.9217 -0.5605 0.2915
2.1594 -0.6836 0.2905
2.1876 -0.5542 0.2883
2.2507 -0.5496 0.2875
2.3011 -0.4855 0.2860
2.3561 -0.4338 0.2846
2.2053 1.0544 0.2653
2.3045 1.0871 0.2637
2.4150 0.9968 0.2637
3.0228 -1.7630 0.2957
3.0415 -1.7709 0.2956
3.0614 -1.7731 0.2954
3.0723 -1.8019 0.2956
3.0244 -2.0807 0.3001
3.0312 -2.0968 0.3003
3.0418 -2.1020 0.3002
3.0547 -2.1010 0.3001
3.0669 -2.1013 0.2999
3.0782 -2.1030 0.2998
0.5082 -0.9735 0.2489
0.4925 -0.8077 0.2424
0.3656 -0.6087 0.2349
0.4198 -0.5661 0.2330
0.3987 -0.4473 0.2284
0.2639 -0.2024 0.2191
2.1724 -0.4945 0.2245
2.2641 -0.6063 0.2286
2.3078 -0.5145 0.2248
2.2117 1.0299 0.1640
2.2796 1.3308 0.1518
2.3675 1.5682 0.1421
2.8674 -0.9979 0.2421
3.0349 -1.2115 0.2500
3.0620 -1.2489 0.2514
3.0141 -1.7226 0.2703
3.0270 -1.7581 0.2717
3.0430 -1.7765 0.2724
3.0621 -1.7810 0.2725
3.0084 -2.0943 0.2851
3.0193 -2.1004 0.2853
3.0277 -2.1116 0.2857
3.0396 -2.1131 0.2857
3.0507 -2.1159 0.2858
3.0643 -2.1124 0.2856
0.1037 -0.4839 0.1490
0.1605 -0.4374 0.1462
1.9771 -0.7163 0.1739
2.0489 -0.7364 0.1756
2.1259 -0.7805 0.1789
2.1723 -0.4940 0.1604
2.2308 -0.4576 0.1583
2.2934 -0.4371 0.1573
2.8358 -0.7861 0.1830
3.0129 -1.7402 0.2463
3.0279 -1.7662 0.2480
3.0475 -1.7715 0.2485
3.0664 -1.7770 0.2490
3.0085 -2.1004 0.2698
3.0170 -2.1126 0.2706
3.0296 -2.1127 0.2707
3.0385 -2.1216 0.2713
3.0489 -2.1256 0.2717
3.0595 -2.1285 0.2719
3.0722 -2.1265 0.2718
1.3918 -1.8548 0.2093
-0.1713 -0.2625 0.0419
2.0002 -0.7815 0.1194
2.0753 -0.6232 0.1060
2.1879 -0.5543 0.1012
2.2349 -0.4730 0.0944
2.3005 -0.4684 0.0949
2.0964 1.1182 -0.0531
2.1664 1.3894 -0.0770
2.8781 -0.9413 0.1462
2.9180 -0.9886 0.1511
2.9600 -0.9907 0.1518
3.0565 -1.1361 0.1665
3.0201 -1.7230 0.2197
3.0335 -1.7568 0.2230
3.0496 -1.7748 0.2248
3.0081 -2.1078 0.2547
3.0170 -2.1187 0.2559
3.0296 -2.1187 0.2560
3.0409 -2.1214 0.2564
3.0487 -2.1315 0.2575
3.0581 -2.1369 0.2581
3.0683 -2.1400 0.2585
1.3783 -1.8527 0.1722
1.3715 -1.8118 0.1672
-0.4707 -0.1349 -0.0722
-0.1656 -0.2842 -0.0477
0.2373 -0.5361 -0.0089
0.7983 1.3090 -0.2140
1.0736 1.0003 -0.1714
2.0561 -0.5654 0.0355
2.1599 -0.4449 0.0236
2.2353 -0.4728 0.0286
2.1105 1.0487 -0.1537
2.1735 1.3623 -0.1893
2.2657 1.5549 -0.2100
2.3750 1.6478 -0.2185
2.8392 1.9197 -0.2401
2.9578 1.9587 -0.2420
3.0086 -0.9705 0.1048
3.0416 -1.0240 0.1119
3.0795 -1.0336 0.1138
3.0174 -1.7463 0.1966
3.0372 -1.7545 0.1980
3.0542 -1.7700 0.2002
3.0135 -2.0995 0.2381
3.0188 -2.1198 0.2407
3.0305 -2.1223 0.2412
3.0392 -2.1310 0.2425
3.0485 -2.1375 0.2434
3.0710 -2.1396 0.2442
1.3701 -1.8544 0.1349
1.4004 -1.8392 0.1337
-0.1910 -0.3809 -0.1275
0.5449 -0.8231 -0.0403
0.2110 -0.4286 -0.1080
-0.0874 0.6944 -0.2800
0.4207 0.7560 -0.2730
0.6812 0.5508 -0.2351
1.9629 -0.6923 -0.0148
2.0082 -0.6303 -0.0224
1.8074 0.2151 -0.1511
1.8319 0.4523 -0.1847
2.1331 -0.3401 -0.0605
2.2321 -0.4561 -0.0406
2.2893 -0.4017 -0.0467
2.2315 0.9732 -0.2477
2.3222 1.0909 -0.2619
2.4285 1.0820 -0.2572
2.5193 1.2960 -0.2854
2.8351 1.2597 -0.2702
2.9397 1.3402 -0.2786
3.0371 1.2823 -0.2672
3.0224 -1.7385 0.1700
3.0371 -1.7661 0.1745
3.0557 -1.7757 0.1764
3.0154 -2.1008 0.2223
3.0217 -2.1186 0.2251
3.0320 -2.1247 0.2263
3.0402 -2.1345 0.2279
3.0593 -2.1450 0.2301
3.0688 -2.1492 0.2310
-0.4805 -0.3672 -0.2334
0.3015 -0.7958 -0.1281
0.4461 -0.8334 -0.1158
0.4985 -0.7954 -0.1202
0.5688 -0.7723 -0.1213
0.5002 -0.6161 -0.1510
0.5197 -0.5359 -0.1640
0.4602 -0.2509 -0.2154
0.2683 0.0965 -0.2830
0.3122 0.1899 -0.2973
0.4094 0.2219 -0.2989
0.5300 0.2221 -0.2940
0.6706 0.1904 -0.2829
0.8242 0.1318 -0.2666
0.9338 0.1326 -0.2623
0.9893 0.2215 -0.2754
1.1306 0.1631 -0.2597
1.2353 0.1632 -0.2555
1.2659 0.3126 -0.2799
1.3581 0.3429 -0.2814
1.9872 -0.7606 -0.0661
2.0317 -0.7013 -0.0746
1.9570 0.0141 -0.2007
2.1598 -0.4440 -0.1137
2.2211 -0.4051 -0.1179
2.2462 -0.1776 -0.1560
2.1880 0.6160 -0.2950
2.2752 0.6822 -0.3028
2.3724 0.6767 -0.2980
2.4732 0.6050 -0.2815
2.5608 0.6681 -0.2889
2.6512 0.6978 -0.2904
2.7416 0.7276 -0.2918
2.8313 0.7228 -0.2874
2.9985 0.6147 -0.2620
3.0900 0.7082 -0.2744
3.1020 -0.9633 0.0137
3.0225 -1.7502 0.1459
3.0368 -1.7788 0.1514
3.0548 -1.7895 0.1540
3.0137 -2.1117 0.2078
3.0212 -2.1259 0.2105
3.0314 -2.1319 0.2120
3.0400 -2.1405 0.2138
3.0514 -2.1419 0.2145
3.0619 -2.1447 0.2154
3.0727 -2.1463 0.2161
-0.0597 -0.6965 -0.2430
0.2736 -0.8676 -0.1923
0.2468 -0.7659 -0.2139
0.3399 -0.7580 -0.2109
0.4310 -0.7497 -0.2081
0.6698 -0.8776 -0.1707
0.5051 -0.6345 -0.2274
0.5970 -0.6269 -0.2244
0.6194 -0.5484 -0.2390
0.7295 -0.5606 -0.2311
0.7547 -0.4790 -0.2461
0.8927 -0.4088 -0.2533
0.9546 -0.3627 -0.2595
1.0178 -0.3160 -0.2657
1.1106 -0.3113 -0.2620
1.2021 -0.3070 -0.2584
1.3158 -0.3429 -0.2456
1.4246 -0.3783 -0.2331
1.5280 -0.4113 -0.2214
1.5219 -0.2265 -0.2586
1.5889 -0.1797 -0.2647
1.8380 -0.5673 -0.1750
1.9706 -0.7219 -0.1375
2.0112 -0.6466 -0.1506
1.9527 -0.2488 -0.2329
2.0135 -0.1844 -0.2428
2.1465 -0.3915 -0.1948
2.2403 -0.4876 -0.1710
2.2944 -0.4171 -0.1824
2.3080 -0.0875 -0.2476
2.3721 0.0048 -0.2628
2.4424 0.0764 -0.2737
2.5150 0.1509 -0.2849
2.7490 0.2537 -0.2939
2.8277 0.2796 -0.2952
2.9003 0.1787 -0.2714
2.9688 0.1073 -0.2538
3.0586 0.3040 -0.2887
3.0235 -1.7585 0.1215
3.0395 -1.7800 0.1266
3.0587 -1.7872 0.1290
3.0151 -2.1143 0.1921
3.0231 -2.1271 0.1951
3.0338 -2.1318 0.1966
3.0436 -2.1379 0.1983
3.0534 -2.1429 0.1997
3.0646 -2.1444 0.2006
3.0748 -2.1472 0.2017
0.1463 -1.0094 -0.2440
0.5189 -1.2014 -0.1784
0.2835 -0.9642 -0.2463
0.2969 -0.8993 -0.2602
0.3671 -0.8762 -0.2614
0.4197 -0.8384 -0.2669
0.4725 -0.7995 -0.2727
0.6425 -0.8655 -0.2477
0.7412 -0.8720 -0.2404
0.7182 -0.7606 -0.2671
0.7735 -0.7220 -0.2727
0.8442 -0.6987 -0.2738
0.9568 -0.7231 -0.2617
1.0259 -0.7004 -0.2628
1.0822 -0.6614 -0.2684
1.1396 -0.6220 -0.2740
1.2334 -0.6321 -0.2662
1.3132 -0.6253 -0.2631
1.3610 -0.5696 -0.2729
1.4408 -0.5638 -0.2696
1.5100 -0.5411 -0.2707
1.5965 -0.5515 -0.2632
1.6483 -0.4955 -0.2730
1.7094 -0.4549 -0.2786
1.8355 -0.5672 -0.2457
2.0090 -0.8268 -0.1764
2.0100 -0.6471 -0.2172
1.9941 -0.3817 -0.2786
2.0837 -0.4301 -0.2623
2.1682 -0.4761 -0.2469
2.2550 -0.5501 -0.2250
2.3145 -0.5141 -0.2297
2.3638 -0.4117 -0.2501
2.4167 -0.3011 -0.2722
2.4802 -0.2412 -0.2821
2.5488 -0.2186 -0.2832
2.6164 -0.1769 -0.2887
2.6856 -0.1541 -0.2899
2.7547 -0.1109 -0.2957
2.8249 -0.0673 -0.3015
2.8911 -0.1254 -0.2843
2.9493 -0.2365 -0.2557
2.9600 -0.7608 -0.1356
2.9917 -0.9011 -0.1018
3.0276 -0.9610 -0.0861
3.0682 -0.9733 -0.0809
3.1093 -0.9761 -0.0779
3.0271 -1.7566 0.0950
3.0388 -1.7938 0.1042
3.0608 -1.7906 0.1047
3.0834 -1.7852 0.1048
3.0138 -2.1239 0.1779
3.0250 -2.1284 0.1795
3.0343 -2.1366 0.1820
3.0418 -2.1474 0.1849
3.0554 -2.1440 0.1849
3.0637 -2.1515 0.1871
3.0751 -2.1519 0.1878
0.5663 -1.2468 -0.2294
0.6007 -1.1439 -0.2535
0.6333 -1.1006 -0.2623
0.7099 -1.0916 -0.2594
0.7583 -1.0594 -0.2644
0.8341 -1.0507 -0.2614
0.9459 -1.0771 -0.2471
0.9707 -1.0221 -0.2595
1.0324 -1.0018 -0.2605
1.0941 -0.9815 -0.2615
1.1877 -0.9975 -0.2510
1.2274 -0.9528 -0.2598
1.2791 -0.9206 -0.2645
1.3592 -0.9247 -0.2580
1.4201 -0.9047 -0.2590
1.6636 -0.8246 -0.2630
1.7176 -0.7915 -0.2678
1.8526 -0.7786 -0.2619
1.9400 -0.8232 -0.2445
2.0034 -0.8166 -0.2419
2.0788 -0.8467 -0.2291
2.1114 -0.7525 -0.2510
2.1741 -0.7461 -0.2484
2.2292 -0.7137 -0.2529
2.2911 -0.7076 -0.2503
2.3549 -0.7151 -0.2440
2.4126 -0.6961 -0.2450
2.4667 -0.6498 -0.2531
2.5175 -0.5598 -0.2727
2.5754 -0.5092 -0.2818
2.6375 -0.5040 -0.2789
2.6988 -0.5001 -0.2757
2.7593 -0.4945 -0.2730
2.8140 -0.6821 -0.2213
2.8734 -0.5719 -0.2454
2.9223 -0.6597 -0.2196
2.9876 -0.9690 -0.1360
3.0333 -0.9539 -0.1367
3.0726 -0.9756 -0.1285
3.0095 -1.7486 0.0651
3.0296 -1.7593 0.0692
3.0426 -1.7917 0.0784
3.0648 -1.7884 0.0791
3.0849 -1.7910 0.0811
3.0245 -2.1355 0.1652
3.0367 -2.1366 0.1663
3.0470 -2.1414 0.1683
3.0547 -2.1511 0.1713
3.0628 -2.1586 0.1737
0.6345 -1.3635 -0.2559
0.6905 -1.3451 -0.2568
0.7091 -1.2996 -0.2684
0.7782 -1.2899 -0.2657
0.8349 -1.2713 -0.2667
0.9145 -1.2713 -0.2605
0.9705 -1.2529 -0.2614
1.0266 -1.2345 -0.2623
1.0930 -1.2258 -0.2597
1.1285 -1.1878 -0.2677
1.1849 -1.1692 -0.2686
1.2506 -1.1607 -0.2660
1.2976 -1.1321 -0.2705
1.3626 -1.1239 -0.2678
1.4186 -1.1054 -0.2687
1.4906 -1.1080 -0.2624
1.5459 -1.0898 -0.2633
1.6012 -1.0716 -0.2642
1.6565 -1.0534 -0.2651
1.7053 -1.0242 -0.2696
1.7547 -0.9948 -0.2742
1.8107 -0.9764 -0.2751
1.8723 -0.9693 -0.2724
1.9379 -0.9729 -0.2662
1.9974 -0.9655 -0.2638
2.0479 -0.9367 -0.2680
2.1067 -0.9295 -0.2655
2.1614 -0.9115 -0.2664
2.2062 -0.8593 -0.2778
2.2650 -0.8531 -0.2750
2.3254 -0.8575 -0.2691
2.3708 -0.7920 -0.2842
2.4329 -0.8100 -0.2743
2.4879 -0.7919 -0.2752
2.5429 -0.7738 -0.2761
2.5988 -0.7675 -0.2736
2.6535 -0.7495 -0.2745
2.7079 -0.7195 -0.2788
2.7629 -0.6761 -0.2869
2.8158 -0.7567 -0.2598
2.8927 -1.0943 -0.1577
2.9395 -1.0476 -0.1674
3.0757 -0.7056 -0.2543
3.0952 -0.8740 -0.2048
3.0112 -1.7547 0.0396
3.0341 -1.7543 0.0412
3.0480 -1.7841 0.0508
3.0652 -1.7976 0.0560
3.0838 -1.8046 0.0594
3.0203 -2.1196 0.1442
3.0332 -2.1205 0.1455
3.0361 -2.1438 0.1523
3.0458 -2.1497 0.1548
3.0567 -2.1521 0.1563
3.0667 -2.1559 0.1582
3.0757 -2.1611 0.1603
1.0123 -1.4207 -0.2669
1.0832 -1.4195 -0.2612
1.1342 -1.4027 -0.2620
1.1671 -1.3698 -0.2695
1.2274 -1.3610 -0.2670
1.2872 -1.3523 -0.2645
1.3456 -1.3431 -0.2623
1.3964 -1.3265 -0.2631
1.4471 -1.3098 -0.2639
1.5118 -1.3095 -0.2584
1.5555 -1.2851 -0.2622
1.6060 -1.2685 -0.2631
1.6745 -1.2771 -0.2544
1.7565 -1.3083 -0.2375
1.7891 -1.2684 -0.2471
1.8233 -1.2281 -0.2568
1.8729 -1.2118 -0.2576
1.9356 -1.2202 -0.2495
1.9929 -1.2214 -0.2442
2.0372 -1.1968 -0.2480
2.0821 -1.1720 -0.2519
2.1275 -1.1470 -0.2558
2.1889 -1.1660 -0.2445
2.2315 -1.1329 -0.2512
2.2774 -1.1077 -0.2551
2.3286 -1.1009 -0.2528
2.3710 -1.0578 -0.2626
2.4275 -1.0784 -0.2512
2.4743 -1.0530 -0.2552
2.5253 -1.0552 -0.2500
2.5744 -1.0491 -0.2476
2.6199 -1.0050 -0.2575
2.6690 -0.9989 -0.2552
2.7177 -1.0019 -0.2500
2.7655 -0.9862 -0.2508
2.8130 -0.9796 -0.2487
2.9113 -0.9091 -0.2623
2.9578 -0.9129 -0.2571
3.0058 -0.8971 -0.2578
3.0539 -0.8813 -0.2586
2.9936 -1.7431 0.0068
3.0114 -1.7664 0.0156
3.0256 -1.7978 0.0268
3.0472 -1.7977 0.0286
3.0678 -1.8000 0.0311
3.0886 -1.8002 0.0330
3.0298 -2.1347 0.1329
3.0391 -2.1426 0.1362
3.0483 -2.1496 0.1392
3.0587 -2.1532 0.1413
3.0765 -2.1644 0.1463
1.2926 -1.7797 -0.1738
1.2865 -1.7339 -0.1901
1.2458 -1.6596 -0.2196
1.3435 -1.6872 -0.2007
1.2777 -1.5335 -0.2599
1.3169 -1.5117 -0.2636
1.3709 -1.5029 -0.2614
1.4383 -1.5076 -0.2532
1.4574 -1.4654 -0.2659
1.5042 -1.4500 -0.2666
1.5572 -1.4415 -0.2644
1.6038 -1.4262 -0.2652
1.6504 -1.4109 -0.2659
1.6970 -1.3955 -0.2667
1.7593 -1.4019 -0.2585
1.7801 -1.3502 -0.2742
1.8415 -1.3569 -0.2660
1.9054 -1.3708 -0.2550
1.9962 -1.3409 -0.2565
2.0803 -1.2963 -0.2637
2.1325 -1.2960 -0.2587
2.1659 -1.2502 -0.2713
2.2122 -1.2349 -0.2720
2.2661 -1.2431 -0.2640
2.3141 -1.2363 -0.2617
2.3574 -1.2131 -0.2655
2.4014 -1.1906 -0.2689
2.4456 -1.1671 -0.2727
2.4917 -1.1519 -0.2735
2.5411 -1.1615 -0.2654
2.6331 -1.1472 -0.2614
2.6773 -1.1167 -0.2676
2.7220 -1.0671 -0.2803
2.7684 -1.0429 -0.2842
2.8123 -1.1132 -0.2558
2.8509 -1.1981 -0.2229
2.9037 -1.0502 -0.2686
2.9517 -1.0095 -0.2779
2.9988 -0.9850 -0.2818
3.0406 -0.9971 -0.2735
3.0179 -1.7529 -0.0160
3.0319 -1.7862 -0.0032
3.0488 -1.8036 0.0044
3.0714 -1.7991 0.0050
3.0928 -1.7981 0.0067
3.0337 -2.1314 0.1156
3.0411 -2.1439 0.1206
3.0525 -2.1461 0.1225
3.0613 -2.1532 0.1257
3.0685 -2.1628 0.1297
3.0799 -2.1630 0.1309
1.1928 -1.7619 -0.2358
1.2137 -1.7343 -0.2439
1.2691 -1.7299 -0.2396
1.3248 -1.7264 -0.2350
1.4021 -1.7405 -0.2214
1.4423 -1.7273 -0.2221
1.3859 -1.6331 -0.2633
1.4538 -1.6404 -0.2533
1.4963 -1.6264 -0.2540
1.5387 -1.6124 -0.2547
1.6344 -1.5958 -0.2507
1.6716 -1.5766 -0.2539
1.7086 -1.5565 -0.2575
1.7466 -1.5371 -0.2607
1.7984 -1.5349 -0.2560
1.8360 -1.5146 -0.2596
1.8785 -1.5006 -0.2603
1.9289 -1.4989 -0.2555
1.9744 -1.4908 -0.2537
2.0230 -1.4887 -0.2493
2.0645 -1.4750 -0.2500
2.1060 -1.4613 -0.2507
2.1530 -1.4597 -0.2463
2.1967 -1.4523 -0.2444
2.2305 -1.4204 -0.2527
2.2632 -1.3819 -0.2636
2.3135 -1.3930 -0.2541
2.3623 -1.4047 -0.2445
2.4031 -1.3913 -0.2452
2.4409 -1.3650 -0.2510
2.4846 -1.3644 -0.2465
2.5254 -1.3510 -0.2472
2.5661 -1.3376 -0.2478
2.6076 -1.3309 -0.2459
2.6462 -1.2915 -0.2565
2.6861 -1.2496 -0.2679
2.7280 -1.2289 -0.2712
2.7702 -1.2219 -0.2693
2.8111 -1.2431 -0.2570
2.8523 -1.2296 -0.2577
2.8910 -1.2445 -0.2479
2.9352 -1.1963 -0.2612
2.9837 -1.1299 -0.2809
3.0238 -1.1316 -0.2760
2.9977 -1.7525 -0.0467
3.0141 -1.7808 -0.0344
3.0308 -1.8020 -0.0247
3.0539 -1.7974 -0.0240
3.0754 -1.7972 -0.0217
3.0977 -1.7938 -0.0206
3.0247 -2.1275 0.0963
3.0322 -2.1409 0.1021
3.0405 -2.1510 0.1067
3.0502 -2.1567 0.1099
3.0606 -2.1602 0.1123
3.0706 -2.1639 0.1147
3.0796 -2.1688 0.1176
1.2639 -1.8164 -0.2523
1.2977 -1.7994 -0.2552
1.3433 -1.7903 -0.2536
1.3645 -1.7637 -0.2619
1.4227 -1.7641 -0.2549
1.4737 -1.7601 -0.2506
1.5131 -1.7472 -0.2512
1.5369 -1.7207 -0.2591
1.5712 -1.7025 -0.2625
1.6112 -1.6893 -0.2631
1.6512 -1.6761 -0.2638
1.6963 -1.6682 -0.2617
1.7402 -1.6596 -0.2601
1.7667 -1.6313 -0.2684
1.8114 -1.6234 -0.2664
1.8514 -1.6103 -0.2670
1.8915 -1.5971 -0.2677
1.9243 -1.5735 -0.2734
1.9679 -1.5651 -0.2717
2.0516 -1.5444 -0.2703
2.2606 -1.5011 -0.2634
2.2978 -1.4820 -0.2668
2.3373 -1.4690 -0.2674
2.3802 -1.4676 -0.2630
2.4988 -1.4345 -0.2625
2.5360 -1.4105 -0.2679
2.5745 -1.3909 -0.2713
2.6147 -1.3846 -0.2692
2.6545 -1.3774 -0.2674
2.6922 -1.3335 -0.2808
2.7322 -1.3135 -0.2842
2.7722 -1.3259 -0.2745
2.8114 -1.3198 -0.2724
2.8508 -1.3069 -0.2730
2.8885 -1.3131 -0.2661
2.9295 -1.2810 -0.2743
2.9715 -1.2485 -0.2825
3.0093 -1.2478 -0.2784
2.9946 -1.7791 -0.0654
3.0184 -1.7762 -0.0638
3.0338 -1.8025 -0.0513
3.0554 -1.8033 -0.0485
3.0780 -1.7998 -0.0473
3.1054 -1.7819 -0.0513
3.0220 -2.1404 0.0838
3.0361 -2.1377 0.0844
3.0430 -2.1511 0.0906
3.0517 -2.1591 0.0948
3.0603 -2.1660 0.0987
3.0703 -2.1697 0.1013
3.0829 -2.1674 0.1019
1.3093 -1.8901 -0.2596
1.3519 -1.8809 -0.2582
1.3952 -1.8725 -0.2564
1.4429 -1.8675 -0.2525
1.5104 -1.8775 -0.2396
1.5420 -1.8622 -0.2422
1.5686 -1.8427 -0.2473
1.6094 -1.8342 -0.2458
1.6237 -1.8032 -0.2575
1.6647 -1.7945 -0.2561
1.7185 -1.7983 -0.2476
1.7549 -1.7863 -0.2482
1.7721 -1.7543 -0.2600
1.8242 -1.7586 -0.2515
1.8568 -1.7421 -0.2545
1.9004 -1.7384 -0.2506
1.9338 -1.7226 -0.2533
1.9974 -1.6850 -0.2615
2.0402 -1.6817 -0.2575
2.0878 -1.6875 -0.2490
2.1385 -1.7010 -0.2367
2.1648 -1.6728 -0.2456
2.1960 -1.6518 -0.2507
2.2235 -1.6214 -0.2605
2.2642 -1.6187 -0.2565
2.3043 -1.6162 -0.2525
2.3419 -1.6087 -0.2510
2.3810 -1.6066 -0.2470
2.4167 -1.5948 -0.2476
2.4523 -1.5831 -0.2481
2.4900 -1.5804 -0.2445
2.5254 -1.5688 -0.2451
2.5569 -1.5331 -0.2566
2.5962 -1.5455 -0.2462
2.6291 -1.5093 -0.2578
2.6644 -1.4870 -0.2631
2.7014 -1.4904 -0.2569
2.7372 -1.4688 -0.2617
2.7734 -1.4667 -0.2580
2.8099 -1.4391 -0.2654
2.8453 -1.4430 -0.2592
2.8817 -1.4262 -0.2619
2.9165 -1.4255 -0.2578
2.9554 -1.3912 -0.2678
2.9855 -1.4174 -0.2526
3.0187 -1.7877 -0.0873
3.0375 -1.8010 -0.0791
3.0563 -1.8114 -0.0722
3.0828 -1.7958 -0.0756
3.0257 -2.1373 0.0658
3.0341 -2.1482 0.0716
3.0434 -2.1559 0.0761
3.0558 -2.1557 0.0776
3.0630 -2.1660 0.0830
3.0813 -2.1756 0.0895
1.3820 -1.9749 -0.2531
1.4116 -1.9603 -0.2558
1.4466 -1.9488 -0.2564
1.4708 -1.9302 -0.2618
1.5213 -1.9291 -0.2554
1.5515 -1.9143 -0.2581
1.5990 -1.9122 -0.2526
1.6293 -1.8974 -0.2553
1.6606 -1.8832 -0.2576
1.6987 -1.8746 -0.2564
1.7303 -1.8603 -0.2588
1.7613 -1.8452 -0.2615
1.7918 -1.8294 -0.2647
1.8234 -1.8142 -0.2675
1.8696 -1.8144 -0.2610
1.9044 -1.8030 -0.2616
2.0487 -1.7642 -0.2599
2.0786 -1.7457 -0.2644
2.1618 -1.7463 -0.2527
2.5711 -1.6155 -0.2576
2.6056 -1.6090 -0.2559
2.6381 -1.5847 -0.2627
2.6720 -1.5687 -0.2655
2.7059 -1.5479 -0.2706
2.7405 -1.5365 -0.2712
2.7751 -1.5251 -0.2717
2.8100 -1.5049 -0.2764
2.8452 -1.4885 -0.2792
2.8784 -1.4960 -0.2712
3.0062 -1.7568 -0.1319
3.0314 -1.7514 -0.1310
3.0406 -1.8016 -0.1063
3.0825 -1.8072 -0.0980
3.0272 -2.1400 0.0497
3.0356 -2.1508 0.0558
3.0568 -2.1593 0.0627
3.0650 -2.1672 0.0676
3.0768 -2.1672 0.0692
3.0841 -2.1754 0.0740
1.5787 -2.1232 -0.1903
1.5329 -2.0700 -0.2236
1.5136 -2.0293 -0.2467
1.5420 -2.0161 -0.2491
1.5871 -2.0138 -0.2436
1.6070 -1.9947 -0.2502
1.6394 -1.9841 -0.2507
1.6719 -1.9734 -0.2512
1.6853 -1.9478 -0.2620
1.7184 -1.9369 -0.2625
1.7726 -1.9441 -0.2510
1.7979 -1.9271 -0.2557
1.8343 -1.9199 -0.2539
1.8697 -1.9121 -0.2525
1.9049 -1.9044 -0.2512
1.9372 -1.8937 -0.2517
1.9668 -1.8801 -0.2541
2.0074 -1.8793 -0.2486
2.0418 -1.8718 -0.2472
2.0806 -1.8706 -0.2421
2.1100 -1.8570 -0.2445
2.1396 -1.8434 -0.2469
2.1695 -1.8298 -0.2493
2.2014 -1.8193 -0.2498
2.2368 -1.8153 -0.2466
2.2702 -1.8082 -0.2452
2.2972 -1.7878 -0.2514
2.3291 -1.7772 -0.2519
2.3650 -1.7770 -0.2467
2.3917 -1.7528 -0.2548
2.4260 -1.7492 -0.2516
2.4578 -1.7387 -0.2521
2.4914 -1.7353 -0.2488
2.5256 -1.7366 -0.2431
2.5553 -1.7182 -0.2479
2.5850 -1.6969 -0.2542
2.6168 -1.6864 -0.2547
2.6498 -1.6871 -0.2495
2.6812 -1.6767 -0.2500
2.7123 -1.6550 -0.2562
2.7442 -1.6521 -0.2529
2.7758 -1.6417 -0.2534
2.8074 -1.6313 -0.2539
2.8387 -1.6249 -0.2525
2.8724 -1.5907 -0.2646
2.9214 -1.6745 -0.2156
2.9454 -1.6964 -0.2011
2.9681 -1.7168 -0.1876
2.9874 -1.7460 -0.1702
3.0078 -1.7633 -0.1586
3.0283 -1.7757 -0.1494
3.0895 -1.7969 -0.1298
3.0425 -2.1410 0.0347
3.0489 -2.1552 0.0428
3.0572 -2.1640 0.0484
3.0682 -2.1661 0.0511
3.0784 -2.1695 0.0542
1.5602 -2.0922 -0.2436
1.5701 -2.0699 -0.2539
1.6011 -2.0597 -0.2544
1.6281 -2.0470 -0.2568
1.6668 -2.0419 -0.2534
1.7013 -2.0344 -0.2520
1.7151 -2.0117 -0.2618
1.7498 -2.0041 -0.2603
1.7776 -1.9911 -0.2628
1.8056 -1.9781 -0.2653
1.8519 -1.9810 -0.2564
1.8713 -1.9603 -0.2644
1.9416 -1.9476 -0.2599
1.9678 -1.9323 -0.2639
1.9989 -1.9221 -0.2644
2.0345 -1.9171 -0.2614
2.0941 -1.8936 -0.2644
2.1273 -1.8865 -0.2630
2.1873 -1.8630 -0.2660
2.2564 -1.8555 -0.2590
2.3440 -1.8152 -0.2665
2.3750 -1.8050 -0.2670
2.3986 -1.7743 -0.2795
2.4784 -1.8110 -0.2474
2.5661 -1.7717 -0.2544
2.6565 -1.7419 -0.2559
2.7468 -1.7055 -0.2609
2.7771 -1.6955 -0.2614
2.8077 -1.6778 -0.2660
2.8394 -1.6522 -0.2746
2.8684 -1.6617 -0.2649
2.8966 -1.6695 -0.2563
2.9208 -1.6988 -0.2369
2.9437 -1.7237 -0.2201
2.9666 -1.7400 -0.2078
2.9878 -1.7587 -0.1945
3.0123 -1.7583 -0.1909
3.0277 -1.7904 -0.1714
3.0509 -1.7895 -0.1682
3.0724 -1.7929 -0.1630
3.0911 -1.8029 -0.1547
3.1155 -1.7949 -0.1551
3.0405 -2.1514 0.0222
3.0493 -2.1600 0.0281
3.0581 -2.1676 0.0335
3.0697 -2.1685 0.0359
3.0769 -2.1776 0.0418
1.6084 -2.1262 -0.2520
1.6264 -2.1098 -0.2581
1.6520 -2.0976 -0.2607
1.7088 -2.1054 -0.2467
1.7415 -2.0985 -0.2451
1.7666 -2.0864 -0.2476
1.7928 -2.0749 -0.2496
1.8305 -2.0720 -0.2449
1.8625 -2.0652 -0.2433
1.8798 -2.0463 -0.2511
1.9142 -2.0416 -0.2479
1.9483 -2.0370 -0.2447
1.9791 -2.0297 -0.2436
2.0098 -2.0225 -0.2425
2.0382 -2.0131 -0.2430
2.0472 -1.9818 -0.2591
2.0889 -1.9870 -0.2491
2.1200 -1.9805 -0.2475
2.1446 -1.9658 -0.2516
2.1788 -1.9640 -0.2469
2.2089 -1.9569 -0.2458
2.2374 -1.9475 -0.2462
2.2658 -1.9382 -0.2467
2.2942 -1.9288 -0.2472
2.3243 -1.9227 -0.2455
2.3527 -1.9134 -0.2460
2.3796 -1.9007 -0.2485
2.4103 -1.8972 -0.2453
2.4377 -1.8854 -0.2474
2.4613 -1.8615 -0.2568
2.4909 -1.8546 -0.2557
2.5196 -1.8452 -0.2562
2.5491 -1.8393 -0.2545
2.5770 -1.8263 -0.2571
2.6063 -1.8204 -0.2554
2.6349 -1.8110 -0.2559
2.6638 -1.8044 -0.2548
2.6925 -1.7977 -0.2536
2.7208 -1.7856 -0.2557
2.7493 -1.7734 -0.2578
2.7779 -1.7668 -0.2566
2.8065 -1.7545 -0.2587
2.8354 -1.7412 -0.2613
2.8632 -1.7416 -0.2564
2.8920 -1.7292 -0.2585
2.9235 -1.6999 -0.2697
2.9462 -1.7265 -0.2509
2.9717 -1.7305 -0.2443
2.9916 -1.7561 -0.2265
3.0140 -1.7648 -0.2178
3.0293 -1.7967 -0.1973
3.0531 -1.7936 -0.1950
3.0716 -1.8064 -0.1846
3.0865 -1.8271 -0.1705
3.1171 -1.8009 -0.1801
3.0435 -2.1507 0.0046
3.0493 -2.1658 0.0141
3.0607 -2.1678 0.0171
3.0689 -2.1755 0.0228
3.0772 -2.1822 0.0280
3.0899 -2.1799 0.0289
1.6523 -2.1571 -0.2601
1.7156 -2.1428 -0.2572
1.7368 -2.1293 -0.2615
1.7622 -2.1181 -0.2636
1.7840 -2.1044 -0.2679
1.8214 -2.1015 -0.2629
1.8685 -2.1066 -0.2513
1.9020 -2.1022 -0.2479
1.9140 -2.0804 -0.2588
1.9419 -2.0712 -0.2592
1.9623 -2.0551 -0.2652
2.0257 -2.0436 -0.2606
2.0536 -2.0344 -0.2611
2.0834 -2.0274 -0.2599
2.2293 -1.9916 -0.2549
2.3196 -1.9788 -0.2463
2.3527 -1.9820 -0.2385
2.4256 -1.9383 -0.2514
2.4528 -1.9293 -0.2519
2.4863 -1.9399 -0.2395
2.5086 -1.9166 -0.2494
2.5906 -1.8952 -0.2474
2.6691 -1.8469 -0.2621
2.6984 -1.8654 -0.2458
2.7250 -1.8538 -0.2479
2.7790 -1.8107 -0.2639
2.8061 -1.8102 -0.2593
2.8327 -1.8099 -0.2547
2.8594 -1.8040 -0.2535
2.8894 -1.7706 -0.2680
2.9184 -1.7526 -0.2735
2.9452 -1.7494 -0.2705
2.9695 -1.7564 -0.2620
2.9919 -1.7688 -0.2506
3.0106 -1.7918 -0.2335
3.0333 -1.7946 -0.2277
3.0548 -1.7998 -0.2208
3.0732 -1.8125 -0.2099
3.0924 -1.8203 -0.2018
3.1186 -1.8069 -0.2050
3.0445 -2.1545 -0.0110
3.0513 -2.1672 -0.0021
3.0600 -2.1747 0.0039
3.0710 -2.1767 0.0071
3.0787 -2.1845 0.0131
1.7538 -2.1965 -0.2494
1.7662 -2.1794 -0.2578
1.7958 -2.1724 -0.2565
1.8271 -2.1668 -0.2541
1.8490 -2.1549 -0.2574
1.8853 -2.1532 -0.2515
1.9117 -2.1445 -0.2520
1.9305 -2.1300 -0.2576
1.9570 -2.1212 -0.2580
1.9906 -2.1186 -0.2532
2.0169 -2.1099 -0.2537
2.0490 -2.1068 -0.2495
2.0751 -2.0982 -0.2499
2.0978 -2.0861 -0.2532
2.1292 -2.0832 -0.2490
2.1484 -2.0666 -0.2558
2.1848 -2.0705 -0.2464
2.2135 -2.0657 -0.2440
2.2382 -2.0557 -0.2455
2.2578 -2.0381 -0.2529
2.2883 -2.0364 -0.2481
2.3141 -2.0279 -0.2485
2.3400 -2.0194 -0.2490
2.3646 -2.0085 -0.2511
2.3917 -2.0024 -0.2498
2.4186 -1.9963 -0.2485
2.4444 -1.9878 -0.2489
2.4717 -1.9835 -0.2464
2.4951 -1.9684 -0.2515
2.5455 -1.9462 -0.2558
2.5742 -1.9498 -0.2481
2.5990 -1.9369 -0.2514
2.6231 -1.9178 -0.2589
2.6506 -1.9200 -0.2523
2.6756 -1.9034 -0.2580
2.7020 -1.9003 -0.2549
2.7279 -1.8945 -0.2535
2.7537 -1.8860 -0.2539
2.7796 -1.8691 -0.2596
2.8058 -1.8577 -0.2618
2.8312 -1.8577 -0.2570
2.8577 -1.8434 -0.2609
2.8826 -1.8436 -0.2560
2.9088 -1.8322 -0.2582
2.9338 -1.8286 -0.2557
2.9605 -1.8152 -0.2591
2.9857 -1.8097 -0.2577
3.0146 -1.7890 -0.2652
3.0335 -1.8061 -0.2509
3.0539 -1.8143 -0.2418
3.0714 -1.8290 -0.2291
3.0895 -1.8389 -0.2194
3.1241 -1.8023 -0.2359
3.1585 -1.7696 -0.2500
3.0464 -2.1560 -0.0277
3.0564 -2.1620 -0.0220
3.0642 -2.1716 -0.0145
3.0737 -2.1769 -0.0094
3.0790 -2.1891 -0.0006
3.0924 -2.1856 -0.0003
1.7861 -2.2207 -0.2583
1.8146 -2.2141 -0.2569
1.8400 -2.2057 -0.2573
1.8701 -2.2004 -0.2548
1.8981 -2.1940 -0.2534
1.9278 -2.1888 -0.2508
1.9443 -2.1741 -0.2572
1.9580 -2.1567 -0.2660
1.9901 -2.1535 -0.2616
2.0203 -2.1491 -0.2584
2.0434 -2.1387 -0.2607
2.0710 -2.1324 -0.2593
2.0964 -2.1241 -0.2597
2.1231 -2.1172 -0.2589
2.1400 -2.0996 -0.2672
2.1767 -2.1041 -0.2567
2.1942 -2.0863 -0.2650
2.2214 -2.0802 -0.2636
2.2764 -2.0695 -0.2595
2.3906 -2.0624 -0.2411
2.4111 -2.0464 -0.2476
2.4849 -2.0221 -0.2488
2.5592 -1.9995 -0.2488
2.5828 -1.9871 -0.2522
2.6571 -1.9654 -0.2516
2.6817 -1.9573 -0.2520
2.7555 -1.9330 -0.2532
2.7804 -1.9156 -0.2598
2.9067 -1.8620 -0.2698
2.9319 -1.8537 -0.2702
2.9561 -1.8504 -0.2676
2.9819 -1.8391 -0.2698
3.0076 -1.8288 -0.2715
3.0337 -1.8174 -0.2737
3.0549 -1.8225 -0.2661
3.0712 -1.8402 -0.2510
3.0937 -1.8375 -0.2483
3.1158 -1.8348 -0.2456
3.0474 -2.1598 -0.0433
3.0553 -2.1701 -0.0348
3.0646 -2.1763 -0.0288
3.0763 -2.1771 -0.0260
3.0860 -2.1813 -0.0212
1.8123 -2.2629 -0.2539
1.8447 -2.2596 -0.2493
1.8658 -2.2499 -0.2516
1.8898 -2.2420 -0.2520
1.9074 -2.2298 -0.2568
1.9335 -2.2230 -0.2559
1.9621 -2.2182 -0.2532
1.9819 -2.2071 -0.2567
2.0086 -2.2010 -0.2552
2.0424 -2.2009 -0.2481
2.0608 -2.1885 -0.2529
2.0954 -2.1899 -0.2444
2.1139 -2.1774 -0.2492
2.1308 -2.1627 -0.2559
2.1596 -2.1596 -0.2519
2.1867 -2.1553 -0.2491
2.2092 -2.1460 -0.2508
2.2330 -2.1382 -0.2512
2.2529 -2.1252 -0.2560
2.2818 -2.1240 -0.2507
2.3045 -2.1147 -0.2523
2.3317 -2.1121 -0.2483
2.3563 -2.1059 -0.2474
2.3777 -2.0943 -0.2510
2.4043 -2.0919 -0.2469
2.4286 -2.0858 -0.2460
2.4499 -2.0732 -0.2502
2.4755 -2.0703 -0.2468
2.4978 -2.0593 -0.2497
2.5219 -2.0532 -0.2488
2.5476 -2.0530 -0.2435
2.5670 -2.0301 -0.2553
2.5921 -2.0283 -0.2512
2.6146 -2.0145 -0.2561
2.6393 -2.0127 -0.2520
2.6623 -2.0006 -0.2556
2.6866 -1.9990 -0.2515
2.7105 -1.9958 -0.2487
2.7337 -1.9835 -0.2523
2.7572 -1.9721 -0.2552
2.7810 -1.9597 -0.2588
2.8051 -1.9453 -0.2637
2.8281 -1.9488 -0.2564
2.8514 -1.9448 -0.2542
2.8763 -1.9265 -0.2617
2.8995 -1.9225 -0.2595
2.9245 -1.9079 -0.2644
2.9489 -1.8980 -0.2661
2.9712 -1.8971 -0.2619
2.9963 -1.8842 -0.2655
3.0202 -1.8764 -0.2659
3.0431 -1.8716 -0.2644
3.0680 -1.8606 -0.2667
3.0919 -1.8528 -0.2671
3.1138 -1.8501 -0.2642
3.1384 -1.8402 -0.2659
3.0479 -2.1646 -0.0583
3.0589 -2.1684 -0.0533
3.0661 -2.1788 -0.0444
3.0779 -2.1795 -0.0414
3.0875 -2.1837 -0.0364
3.0974 -2.1869 -0.0321
1.8271 -2.2964 -0.2555
1.8504 -2.2887 -0.2559
1.8757 -2.2822 -0.2549
1.8990 -2.2746 -0.2553
1.9222 -2.2669 -0.2557
1.9454 -2.2593 -0.2561
1.9650 -2.2492 -0.2591
1.9884 -2.2415 -0.2594
2.0194 -2.2395 -0.2539
2.0367 -2.2274 -0.2589
2.0512 -2.2126 -0.2665
2.0818 -2.2108 -0.2610
2.1163 -2.2130 -0.2515
2.1595 -2.1952 -0.2549
2.2030 -2.1772 -0.2583
2.3047 -2.1592 -0.2485
2.3492 -2.1428 -0.2506
2.3728 -2.1368 -0.2496
2.5344 -2.0927 -0.2456
2.5564 -2.0837 -0.2473
2.5772 -2.0696 -0.2530
2.6461 -2.0523 -0.2501
2.6695 -2.0519 -0.2451
2.6915 -2.0410 -0.2481
2.7364 -2.0281 -0.2475
2.7588 -2.0189 -0.2492
2.7814 -2.0041 -0.2550
2.8039 -2.0004 -0.2527
2.8275 -1.9808 -0.2617
2.8490 -1.9856 -0.2534
2.8707 -1.9839 -0.2497
2.8953 -1.9630 -0.2595
2.9177 -1.9575 -0.2585
2.9428 -1.9392 -0.2663
2.9667 -1.9277 -0.2694
3.0112 -1.9185 -0.2661
3.0348 -1.9089 -0.2678
3.0571 -1.9034 -0.2668
3.0599 -2.1721 -0.0687
3.0659 -2.1846 -0.0581
3.0788 -2.1831 -0.0563
3.0860 -2.1917 -0.0484
3.0970 -2.1926 -0.0452
1.8381 -2.3442 -0.2446
1.8535 -2.3337 -0.2490
1.8777 -2.3275 -0.2480
1.9040 -2.3225 -0.2457
1.9219 -2.3130 -0.2487
1.9419 -2.3046 -0.2505
1.9679 -2.2997 -0.2481
1.9899 -2.2924 -0.2485
2.0137 -2.2864 -0.2474
2.0392 -2.2816 -0.2451
2.0457 -2.2632 -0.2577
2.0713 -2.2584 -0.2554
2.0952 -2.2524 -0.2543
2.1220 -2.2489 -0.2506
2.1410 -2.2391 -0.2537
2.1631 -2.2318 -0.2541
2.1908 -2.2299 -0.2489
2.2073 -2.2172 -0.2548
2.2320 -2.2127 -0.2524
2.2528 -2.2041 -0.2541
2.2796 -2.2025 -0.2490
2.3003 -2.1939 -0.2507
2.3233 -2.1881 -0.2497
2.3441 -2.1795 -0.2514
2.3650 -2.1708 -0.2532
2.3915 -2.1711 -0.2466
2.4107 -2.1594 -0.2511
2.4341 -2.1553 -0.2487
2.4521 -2.1403 -0.2560
2.4762 -2.1378 -0.2522
2.4980 -2.1306 -0.2526
2.5205 -2.1250 -0.2515
2.5433 -2.1211 -0.2491
2.5636 -2.1090 -0.2536
2.5854 -2.1018 -0.2540
2.6084 -2.0997 -0.2502
2.6288 -2.0857 -0.2561
2.6513 -2.0820 -0.2537
2.6731 -2.0748 -0.2540
2.6950 -2.0694 -0.2530
2.7172 -2.0693 -0.2478
2.7385 -2.0551 -0.2537
2.7602 -2.0479 -0.2540
2.7821 -2.0371 -0.2572
2.8038 -2.0318 -0.2562
2.8261 -2.0190 -0.2607
2.8474 -2.0174 -0.2569
2.8679 -2.0197 -0.2502
2.8926 -1.9935 -0.2646
2.9136 -1.9920 -0.2607
2.9346 -1.9887 -0.2583
2.9569 -1.9796 -0.2600
2.9782 -1.9744 -0.2590
3.0029 -1.9572 -0.2664
3.0237 -1.9540 -0.2639
3.0471 -1.9427 -0.2671
3.0699 -1.9333 -0.2689
3.0912 -1.9281 -0.2678
3.1141 -1.9188 -0.2696
3.1389 -1.9052 -0.2742
3.0587 -2.1801 -0.0812
3.0669 -2.1882 -0.0730
3.0762 -2.1933 -0.0669
3.0869 -2.1952 -0.0629
3.0953 -2.2006 -0.0567
1.9262 -2.3390 -0.2539
1.9435 -2.3297 -0.2571
1.9710 -2.3260 -0.2532
2.0378 -2.3067 -0.2521
2.0626 -2.3022 -0.2497
2.0909 -2.2776 -0.2624
2.1206 -2.2768 -0.2557
2.1404 -2.2685 -0.2574
2.1883 -2.2590 -0.2532
2.2081 -2.2507 -0.2549
2.2294 -2.2437 -0.2553
2.3617 -2.2082 -0.2509
2.4482 -2.1851 -0.2480
2.4684 -2.1767 -0.2498
2.4855 -2.1612 -0.2580
2.5312 -2.1560 -0.2508
2.5511 -2.1459 -0.2540
2.5731 -2.1422 -0.2515
2.5940 -2.1353 -0.2518
2.6146 -2.1268 -0.2536
2.6356 -2.1198 -0.2539
2.6987 -2.1009 -0.2535
2.7197 -2.0940 -0.2539
2.7405 -2.0835 -0.2571
2.7616 -2.0757 -0.2582
2.7829 -2.0615 -0.2643
2.8036 -2.0646 -0.2567
2.8247 -2.0558 -0.2585
2.8890 -2.0284 -0.2646
2.9116 -2.0147 -0.2700
2.9745 -1.9985 -0.2674
2.9940 -1.9974 -0.2634
3.0145 -1.9925 -0.2623
3.0338 -1.9906 -0.2590
3.0589 -1.9725 -0.2674
3.1031 -1.9543 -0.2710
3.0586 -2.1859 -0.0950
3.0695 -2.1886 -0.0901
3.0795 -2.1925 -0.0845
3.0860 -2.2020 -0.0752
3.1001 -2.1973 -0.0754
1.9251 -2.3780 -0.2480
1.9402 -2.3686 -0.2520
1.9628 -2.3629 -0.2509
1.9884 -2.3589 -0.2475
2.0058 -2.3505 -0.2501
2.0263 -2.3438 -0.2504
2.0495 -2.3388 -0.2485
2.0618 -2.3268 -0.2555
2.0841 -2.3212 -0.2543
2.1081 -2.3169 -0.2517
2.1294 -2.3107 -0.2513
2.1443 -2.2996 -0.2568
2.1695 -2.2967 -0.2527
2.1937 -2.2931 -0.2494
2.2147 -2.2871 -0.2490
2.2364 -2.2818 -0.2478
2.2553 -2.2737 -0.2496
2.2737 -2.2650 -0.2522
2.2953 -2.2597 -0.2510
2.3156 -2.2530 -0.2514
2.3399 -2.2513 -0.2465
2.3526 -2.2346 -0.2572
2.3756 -2.2315 -0.2538
2.3993 -2.2299 -0.2490
2.4155 -2.2166 -0.2560
2.4376 -2.2129 -0.2533
2.4579 -2.2062 -0.2537
2.4786 -2.2003 -0.2533
2.4989 -2.1936 -0.2536
2.5189 -2.1861 -0.2547
2.5401 -2.1818 -0.2528
2.5585 -2.1695 -0.2583
2.5806 -2.1685 -0.2534
2.6013 -2.1634 -0.2523
2.6214 -2.1568 -0.2526
2.6420 -2.1518 -0.2514
2.6626 -2.1486 -0.2487
2.6818 -2.1352 -0.2551
2.7021 -2.1285 -0.2554
2.7224 -2.1236 -0.2542
2.7426 -2.1152 -0.2561
2.7628 -2.1040 -0.2602
2.7830 -2.1036 -0.2552
2.8032 -2.0970 -0.2556
2.8232 -2.0922 -0.2544
2.8432 -2.0865 -0.2539
2.8634 -2.0799 -0.2543
2.8835 -2.0732 -0.2546
2.9042 -2.0638 -0.2572
2.9239 -2.0590 -0.2560
2.9480 -2.0369 -0.2684
2.9653 -2.0419 -0.2597
2.9849 -2.0372 -0.2585
3.0058 -2.0285 -0.2604
3.0253 -2.0239 -0.2592
3.0455 -2.0172 -0.2595
3.0665 -2.0085 -0.2613
3.0880 -1.9988 -0.2640
3.0846 -2.1884 -0.1046
3.0930 -2.1945 -0.0972
3.1016 -2.1997 -0.0906
1.9536 -2.3961 -0.2498
1.9900 -2.3815 -0.2528
2.0079 -2.3739 -0.2546
2.0317 -2.3695 -0.2519
2.0496 -2.3619 -0.2537
2.0722 -2.3571 -0.2518
2.0893 -2.3488 -0.2544
2.1074 -2.3411 -0.2562
2.1290 -2.3358 -0.2550
2.1463 -2.3274 -0.2577
2.1687 -2.3227 -0.2557
2.1908 -2.3181 -0.2537
2.2098 -2.3109 -0.2548
2.2556 -2.3038 -0.2485
2.3137 -2.2838 -0.2503
2.3367 -2.2815 -0.2460
2.3545 -2.2730 -0.2486
2.3910 -2.2566 -0.2531
2.4116 -2.2516 -0.2519
2.4352 -2.2517 -0.2452
2.4511 -2.2394 -0.2517
2.4742 -2.2398 -0.2451
2.4913 -2.2288 -0.2501
2.5098 -2.2201 -0.2527
2.5328 -2.2223 -0.2445
2.5489 -2.2073 -0.2533
2.5915 -2.2065 -0.2423
2.6098 -2.1969 -0.2458
2.6471 -2.1776 -0.2526
2.6662 -2.1686 -0.2552
2.6861 -2.1648 -0.2532
2.7062 -2.1661 -0.2465
2.7250 -2.1519 -0.2539
2.7445 -2.1447 -0.2550
2.7640 -2.1356 -0.2576
2.7831 -2.1407 -0.2478
2.8027 -2.1290 -0.2528
2.8224 -2.1190 -0.2562
2.8412 -2.1190 -0.2511
2.8619 -2.1034 -0.2592
2.8821 -2.0932 -0.2627
2.9414 -2.0728 -0.2644
2.9589 -2.0741 -0.2585
2.9781 -2.0686 -0.2580
2.9970 -2.0642 -0.2567
3.0181 -2.0528 -0.2610
3.0366 -2.0494 -0.2589
3.0552 -2.0450 -0.2577
3.0768 -2.0335 -0.2619
3.0954 -2.0291 -0.2607
3.1159 -2.0206 -0.2626
3.0849 -2.1931 -0.1188
3.1051 -2.1785 -0.1261
3.1181 -2.1769 -0.1240
2.5571 -3.7126 -0.2475
2.5766 -3.7063 -0.2478
2.5976 -3.6951 -0.2443
2.6172 -3.6879 -0.2438
2.6355 -3.6854 -0.2472
2.6534 -3.6856 -0.2528
2.6933 -3.6692 -0.2504
2.7130 -3.6619 -0.2499
2.7331 -3.6501 -0.2457
2.7523 -3.6448 -0.2467
2.7716 -3.6402 -0.2486
2.7911 -3.6295 -0.2450
2.8104 -3.6224 -0.2446
2.8297 -3.6170 -0.2456
2.8489 -3.6107 -0.2459
2.8686 -3.6095 -0.2509
2.8877 -3.5999 -0.2481
2.9060 -3.5870 -0.2423
2.9258 -3.5848 -0.2464
2.9831 -3.5645 -0.2458
3.0030 -3.5606 -0.2484
3.0215 -3.5520 -0.2464
3.0403 -3.5450 -0.2459
3.0615 -3.5433 -0.2508
3.0801 -3.5355 -0.2496
3.0990 -3.5285 -0.2491
3.1186 -3.5230 -0.2502
3.1361 -3.5138 -0.2474
3.1567 -3.5097 -0.2500
3.1734 -3.4999 -0.2465
3.1941 -3.4958 -0.2491
3.2133 -3.4896 -0.2494
3.2308 -3.4813 -0.2474
3.2493 -3.4744 -0.2469
3.2702 -3.4702 -0.2495
3.2900 -3.4646 -0.2506
3.3113 -3.4603 -0.2532
3.3319 -3.4553 -0.2551
3.3520 -3.4496 -0.2562
3.3691 -3.4415 -0.2541
3.4043 -3.4265 -0.2516
3.4210 -3.4185 -0.2496
3.4435 -3.4147 -0.2530
3.4627 -3.4084 -0.2533
3.4865 -3.4050 -0.2575
3.5058 -3.3987 -0.2578
3.5232 -3.3913 -0.2566
3.5414 -3.3845 -0.2561
3.5586 -3.3772 -0.2548
3.5778 -3.3710 -0.2551
3.5970 -3.3647 -0.2554
3.6162 -3.3585 -0.2557
3.6320 -3.3507 -0.2537
3.6511 -3.3445 -0.2540
2.4224 -3.7963 -0.2544
2.4420 -3.7917 -0.2562
2.4634 -3.7830 -0.2551
2.4840 -3.7763 -0.2554
2.5037 -3.7716 -0.2572
2.5235 -3.7669 -0.2590
2.5476 -3.7503 -0.2520
2.5679 -3.7437 -0.2523
2.5874 -3.7400 -0.2548
2.6097 -3.7266 -0.2500
2.6283 -3.7267 -0.2554
2.6483 -3.7220 -0.2572
2.6701 -3.7087 -0.2524
2.6907 -3.7003 -0.2512
2.7104 -3.6974 -0.2545
2.7307 -3.6907 -0.2548
2.7517 -3.6778 -0.2500
2.7721 -3.6668 -0.2466
2.7922 -3.6603 -0.2469
2.8122 -3.6537 -0.2472
2.8322 -3.6455 -0.2461
2.8527 -3.6476 -0.2538
2.8727 -3.6384 -0.2519
2.9347 -3.6270 -0.2603
2.9551 -3.6203 -0.2606
2.9737 -3.6064 -0.2542
2.9955 -3.6055 -0.2597
3.0138 -3.5925 -0.2541
3.0343 -3.5867 -0.2552
3.0542 -3.5794 -0.2547
3.0767 -3.5782 -0.2603
3.0938 -3.5648 -0.2539
3.1139 -3.5582 -0.2542
3.1348 -3.5531 -0.2560
3.1550 -3.5466 -0.2563
3.1958 -3.5342 -0.2577
3.2171 -3.5290 -0.2595
3.2318 -3.5155 -0.2524
3.2483 -3.5049 -0.2482
3.2705 -3.5011 -0.2515
3.2917 -3.4960 -0.2533
3.3117 -3.4895 -0.2536
3.3303 -3.4817 -0.2524
3.3552 -3.4797 -0.2580
3.3790 -3.4763 -0.2621
3.3932 -3.4647 -0.2564
3.4600 -3.4500 -0.2633
3.4733 -3.4386 -0.2576
3.4897 -3.4298 -0.2549
3.5315 -3.4180 -0.2571
3.5466 -3.4087 -0.2536
3.5614 -3.3995 -0.2502
2.4986 -3.7953 -0.2490
2.5196 -3.7884 -0.2494
2.6902 -3.7206 -0.2421
2.7107 -3.7148 -0.2431
2.7314 -3.7080 -0.2434
2.7516 -3.7068 -0.2480
2.7728 -3.6946 -0.2441
2.7936 -3.6852 -0.2423
2.8142 -3.6784 -0.2426
2.8349 -3.6735 -0.2444
2.9167 -3.6416 -0.2414
2.9797 -3.6272 -0.2474
3.0004 -3.6205 -0.2477
3.0217 -3.6154 -0.2494
3.0418 -3.6070 -0.2483
3.1226 -3.5763 -0.2460
3.1440 -3.5711 -0.2478
3.1678 -3.5696 -0.2532
3.2059 -3.5510 -0.2488
3.2265 -3.5443 -0.2491
3.2471 -3.5376 -0.2494
3.2666 -3.5295 -0.2483
3.2902 -3.5262 -0.2522
3.3109 -3.5195 -0.2526
3.3329 -3.5141 -0.2543
3.3488 -3.5027 -0.2496
3.3694 -3.4960 -0.2499
3.3914 -3.4906 -0.2517
3.4327 -3.4772 -0.2523
3.4533 -3.4705 -0.2527
3.4910 -3.4547 -0.2504
3.5151 -3.4504 -0.2536
3.5320 -3.4413 -0.2511
3.5544 -3.4358 -0.2528
3.5799 -3.4319 -0.2568
3.5976 -3.4235 -0.2549
3.6203 -3.4179 -0.2567
3.6367 -3.4091 -0.2541
3.6594 -3.4034 -0.2559
3.6800 -3.3967 -0.2562
3.6984 -3.3890 -0.2551
3.7189 -3.3823 -0.2554
2.3500 -3.8890 -0.2555
2.3732 -3.8796 -0.2545
2.3954 -3.8724 -0.2548
2.4176 -3.8652 -0.2552
2.4415 -3.8539 -0.2528
2.4644 -3.8447 -0.2518
2.4848 -3.8416 -0.2549
2.5084 -3.8303 -0.2525
2.5517 -3.8180 -0.2546
2.5732 -3.8128 -0.2563
2.5953 -3.8056 -0.2566
2.6184 -3.7946 -0.2542
2.6408 -3.7855 -0.2532
2.6635 -3.7745 -0.2508
2.6853 -3.7674 -0.2512
2.7069 -3.7622 -0.2529
2.7287 -3.7551 -0.2532
2.7503 -3.7516 -0.2563
2.7947 -3.7238 -0.2467
2.8163 -3.7230 -0.2519
2.8605 -3.7193 -0.2608
2.8821 -3.7070 -0.2570
2.9038 -3.6981 -0.2560
2.9247 -3.6842 -0.2508
2.9473 -3.6822 -0.2553
2.9914 -3.6696 -0.2574
3.0147 -3.6674 -0.2618
3.0317 -3.6449 -0.2491
3.0533 -3.6379 -0.2494
3.0783 -3.6396 -0.2574
3.0995 -3.6309 -0.2563
3.1406 -3.6122 -0.2529
3.1623 -3.6051 -0.2532
3.1875 -3.6040 -0.2591
3.2041 -3.5889 -0.2518
3.2256 -3.5818 -0.2521
3.2509 -3.5799 -0.2573
3.2737 -3.5742 -0.2591
3.2955 -3.5671 -0.2594
3.3148 -3.5573 -0.2570
3.3378 -3.5516 -0.2587
3.3635 -3.5486 -0.2632
3.3812 -3.5374 -0.2594
3.4001 -3.5277 -0.2569
3.4232 -3.5220 -0.2587
3.4510 -3.5201 -0.2646
3.4642 -3.5060 -0.2573
3.4866 -3.4996 -0.2583
3.5057 -3.4907 -0.2565
3.5298 -3.4855 -0.2590
3.5451 -3.4743 -0.2544
3.5647 -3.4662 -0.2534
3.5842 -3.4580 -0.2523
3.6134 -3.4557 -0.2582
3.6369 -3.4498 -0.2600
3.6637 -3.4455 -0.2638
3.6812 -3.4363 -0.2614
3.6974 -3.4266 -0.2582
3.7144 -3.4175 -0.2557
3.7358 -3.4105 -0.2561
2.4933 -3.8840 -0.2609
2.5455 -3.8508 -0.2499
2.7056 -3.7933 -0.2484
2.7963 -3.7540 -0.2426
2.8632 -3.7322 -0.2437
3.0199 -3.6830 -0.2474
3.0417 -3.6741 -0.2465
3.0857 -3.6580 -0.2458
3.1086 -3.6523 -0.2475
3.1532 -3.6378 -0.2482
3.1721 -3.6245 -0.2433
3.1979 -3.6233 -0.2489
3.2235 -3.6212 -0.2539
3.2394 -3.6044 -0.2456
3.2616 -3.5972 -0.2460
3.2815 -3.5871 -0.2437
3.3059 -3.5828 -0.2467
3.3540 -3.5725 -0.2514
3.3764 -3.5652 -0.2517
3.3987 -3.5580 -0.2521
3.4210 -3.5507 -0.2524
3.4470 -3.5467 -0.2561
3.4671 -3.5375 -0.2545
3.4847 -3.5264 -0.2508
3.5053 -3.5179 -0.2498
3.5699 -3.4951 -0.2495
3.5939 -3.4891 -0.2512
3.6084 -3.4772 -0.2462
3.6323 -3.4712 -0.2479
3.6583 -3.4663 -0.2509
3.6804 -3.4591 -0.2513
3.7025 -3.4519 -0.2516
3.7246 -3.4447 -0.2519
3.7490 -3.4386 -0.2536
3.7711 -3.4314 -0.2540
3.7979 -3.4263 -0.2570
2.3891 -3.9510 -0.2540
2.4117 -3.9464 -0.2562
2.4379 -3.9333 -0.2535
2.4619 -3.9255 -0.2538
2.4851 -3.9198 -0.2555
2.5105 -3.9079 -0.2533
2.5359 -3.8951 -0.2506
2.5591 -3.8894 -0.2522
2.5811 -3.8886 -0.2570
2.6061 -3.8768 -0.2549
2.6295 -3.8710 -0.2565
2.6539 -3.8613 -0.2556
2.6785 -3.8487 -0.2528
2.7020 -3.8429 -0.2545
2.7256 -3.8379 -0.2567
2.7497 -3.8274 -0.2552
2.7740 -3.8095 -0.2487
2.7974 -3.8082 -0.2534
2.8212 -3.8068 -0.2582
2.8448 -3.7928 -0.2542
2.8683 -3.7806 -0.2514
2.8920 -3.7747 -0.2530
2.9150 -3.7618 -0.2496
2.9623 -3.7482 -0.2516
2.9848 -3.7364 -0.2488
3.0082 -3.7287 -0.2492
3.0329 -3.7253 -0.2527
3.0575 -3.7209 -0.2556
3.0811 -3.7132 -0.2560
3.1041 -3.7039 -0.2551
3.1301 -3.7018 -0.2599
3.1532 -3.6925 -0.2590
3.1769 -3.6847 -0.2594
3.2006 -3.6770 -0.2598
3.2202 -3.6625 -0.2544
3.2456 -3.6579 -0.2573
3.2738 -3.6568 -0.2635
3.2890 -3.6374 -0.2536
3.3113 -3.6283 -0.2527
3.3376 -3.6243 -0.2563
3.3648 -3.6209 -0.2605
3.3961 -3.6216 -0.2685
3.4107 -3.6041 -0.2599
3.4391 -3.6012 -0.2648
3.4615 -3.5921 -0.2639
3.4814 -3.5811 -0.2610
3.4981 -3.5676 -0.2556
3.5230 -3.5613 -0.2573
3.5489 -3.5556 -0.2596
3.5741 -3.5492 -0.2612
3.5994 -3.5427 -0.2629
3.6211 -3.5339 -0.2620
3.6344 -3.5196 -0.2552
3.6990 -3.4940 -0.2531
3.7242 -3.4876 -0.2548
3.7474 -3.4801 -0.2551
3.7738 -3.4742 -0.2574
3.7937 -3.4650 -0.2559
3.8123 -3.4554 -0.2536
3.8353 -3.4479 -0.2540
2.3956 -3.9971 -0.2569
2.4237 -3.9816 -0.2531
2.4748 -3.9622 -0.2521
2.6000 -3.9197 -0.2529
2.6763 -3.8848 -0.2474
2.7026 -3.8635 -0.2394
2.7507 -3.8524 -0.2431
2.8237 -3.8195 -0.2383
2.8961 -3.7978 -0.2406
2.9699 -3.7811 -0.2466
3.3065 -3.6642 -0.2471
3.3255 -3.6498 -0.2419
3.3506 -3.6435 -0.2435
3.3758 -3.6371 -0.2451
3.4017 -3.6314 -0.2473
3.4292 -3.6270 -0.2508
3.4513 -3.6171 -0.2493
3.4704 -3.6045 -0.2454
3.4996 -3.6014 -0.2501
3.5198 -3.5902 -0.2474
3.5519 -3.5889 -0.2539
3.5762 -3.5810 -0.2543
3.5961 -3.5700 -0.2516
3.6203 -3.5621 -0.2520
3.6444 -3.5543 -0.2524
3.6908 -3.5374 -0.2519
3.7099 -3.5266 -0.2492
3.7339 -3.5188 -0.2495
3.7630 -3.5138 -0.2530
3.7818 -3.5032 -0.2503
3.8057 -3.4954 -0.2507
3.8319 -3.4887 -0.2523
3.8594 -3.4825 -0.2545
3.8858 -3.4757 -0.2562
2.3286 -4.0624 -0.2528
2.3548 -4.0538 -0.2532
2.3810 -4.0453 -0.2536
2.4073 -4.0368 -0.2540
2.4327 -4.0303 -0.2556
2.4597 -4.0197 -0.2549
2.4853 -4.0132 -0.2564
2.5122 -4.0026 -0.2557
2.5384 -3.9941 -0.2561
2.5654 -3.9825 -0.2548
2.5909 -3.9770 -0.2569
2.6177 -3.9655 -0.2556
2.6425 -3.9648 -0.2606
2.6709 -3.9427 -0.2530
2.6975 -3.9294 -0.2505
2.7229 -3.9258 -0.2538
2.7489 -3.9173 -0.2542
2.7749 -3.9088 -0.2546
2.8010 -3.8976 -0.2533
2.8270 -3.8974 -0.2589
2.8530 -3.8862 -0.2576
2.8791 -3.8777 -0.2580
2.9801 -3.8273 -0.2486
3.0083 -3.8301 -0.2566
3.0362 -3.8294 -0.2622
3.0616 -3.8183 -0.2609
3.1095 -3.7898 -0.2535
3.1352 -3.7815 -0.2539
3.1609 -3.7731 -0.2543
3.1878 -3.7671 -0.2565
3.2103 -3.7524 -0.2522
3.2393 -3.7504 -0.2573
3.2674 -3.7458 -0.2606
3.2948 -3.7397 -0.2628
3.3167 -3.7252 -0.2585
3.3408 -3.7146 -0.2572
3.3637 -3.7025 -0.2546
3.3940 -3.7000 -0.2597
3.4198 -3.6916 -0.2601
3.4475 -3.6854 -0.2623
3.4734 -3.6770 -0.2627
3.4993 -3.6685 -0.2631
3.5251 -3.6601 -0.2635
3.5525 -3.6531 -0.2651
3.5722 -3.6393 -0.2608
3.6003 -3.6329 -0.2630
3.6352 -3.6317 -0.2699
3.6613 -3.6232 -0.2703
3.6874 -3.6147 -0.2707
3.7034 -3.5994 -0.2646
3.7292 -3.5910 -0.2650
3.7444 -3.5759 -0.2589
3.7699 -3.5676 -0.2593
3.7923 -3.5575 -0.2579
3.8125 -3.5464 -0.2553
3.8324 -3.5353 -0.2528
3.8850 -3.5200 -0.2548
3.9079 -3.5107 -0.2540
2.3619 -4.1058 -0.2542
2.3865 -4.1042 -0.2585
2.4058 -4.1184 -0.2709
2.4342 -4.1092 -0.2713
2.4688 -4.0803 -0.2614
2.7766 -3.9374 -0.2409
3.1425 -3.7997 -0.2357
3.1746 -3.8051 -0.2455
3.1977 -3.7892 -0.2409
3.2265 -3.7854 -0.2447
3.2780 -3.7659 -0.2439
3.3307 -3.7487 -0.2447
3.3587 -3.7424 -0.2468
3.3984 -3.7090 -0.2353
3.4293 -3.7064 -0.2402
3.4606 -3.7037 -0.2451
3.4889 -3.6973 -0.2472
3.5216 -3.6950 -0.2526
3.5460 -3.6842 -0.2514
3.5725 -3.6756 -0.2518
3.6037 -3.6710 -0.2556
3.6280 -3.6604 -0.2543
3.6546 -3.6517 -0.2547
3.6786 -3.6411 -0.2535
3.7051 -3.6325 -0.2539
3.7234 -3.6182 -0.2492
3.7525 -3.6115 -0.2513
3.8023 -3.5925 -0.2505
3.8265 -3.5827 -0.2497
3.8528 -3.5742 -0.2501
3.8758 -3.5639 -0.2489
3.9019 -3.5554 -0.2493
3.9281 -3.5469 -0.2497
3.9577 -3.5401 -0.2518
2.3081 -4.1905 -0.2584
2.3386 -4.1777 -0.2573
2.3694 -4.1640 -0.2557
2.3984 -4.1545 -0.2562
2.4275 -4.1451 -0.2566
2.4575 -4.1325 -0.2555
2.4874 -4.1200 -0.2544
2.5163 -4.1106 -0.2549
2.5444 -4.1042 -0.2569
2.5749 -4.0877 -0.2537
2.6043 -4.0754 -0.2526
2.6330 -4.0660 -0.2530
2.6617 -4.0567 -0.2535
2.6896 -4.0542 -0.2576
2.7473 -4.0354 -0.2585
2.7764 -4.0222 -0.2569
2.8052 -4.0062 -0.2537
2.8337 -3.9941 -0.2525
2.8621 -3.9821 -0.2514
2.8910 -3.9783 -0.2550
2.9196 -3.9690 -0.2555
2.9482 -3.9597 -0.2559
2.9767 -3.9504 -0.2564
3.0347 -3.9353 -0.2594
3.0896 -3.9081 -0.2550
3.1169 -3.8955 -0.2533
3.1474 -3.8921 -0.2575
3.2055 -3.8760 -0.2600
3.2329 -3.8643 -0.2588
3.2614 -3.8550 -0.2593
3.2899 -3.8457 -0.2597
3.3170 -3.8341 -0.2586
3.3420 -3.8194 -0.2553
3.3739 -3.8156 -0.2595
3.4040 -3.8086 -0.2615
3.4308 -3.7971 -0.2604
3.4532 -3.7804 -0.2555
3.4876 -3.7786 -0.2613
3.5115 -3.7642 -0.2580
3.5418 -3.7572 -0.2600
3.5772 -3.7551 -0.2658
3.6036 -3.7437 -0.2646
3.6321 -3.7344 -0.2651
3.6606 -3.7251 -0.2655
3.6915 -3.7178 -0.2676
3.7176 -3.7066 -0.2664
3.7487 -3.6992 -0.2685
3.7684 -3.6835 -0.2636
3.7967 -3.6742 -0.2640
3.8194 -3.6613 -0.2612
3.8476 -3.6521 -0.2617
3.8787 -3.6448 -0.2637
3.9039 -3.6338 -0.2626
3.9153 -3.6151 -0.2544
3.9708 -3.5970 -0.2552
3.9985 -3.5880 -0.2557
4.0216 -3.5767 -0.2539
2.3213 -4.2364 -0.2508
2.4097 -4.2152 -0.2562
2.4390 -4.2095 -0.2586
2.4721 -4.1911 -0.2552
2.5015 -4.1854 -0.2576
2.5311 -4.1795 -0.2601
2.8372 -4.0308 -0.2391
3.3909 -3.8440 -0.2443
3.4124 -3.8238 -0.2377
3.4492 -3.8250 -0.2452
3.4784 -3.8155 -0.2457
3.5094 -3.8083 -0.2476
3.5366 -3.7966 -0.2466
3.5631 -3.7842 -0.2450
3.5900 -3.7726 -0.2439
3.6241 -3.7681 -0.2480
3.6555 -3.7607 -0.2499
3.6848 -3.7512 -0.2504
3.7172 -3.7444 -0.2529
3.7432 -3.7322 -0.2513
3.7698 -3.7207 -0.2503
3.7954 -3.7086 -0.2487
3.8244 -3.6991 -0.2491
3.8601 -3.6942 -0.2532
3.8971 -3.6897 -0.2577
3.9447 -3.6638 -0.2530
3.9665 -3.6501 -0.2499
4.0244 -3.6312 -0.2508
4.0534 -3.6218 -0.2512
4.0824 -3.6124 -0.2517
2.2567 -4.3446 -0.2575
2.2892 -4.3340 -0.2580
2.3254 -4.3137 -0.2543
2.3593 -4.2988 -0.2530
2.3915 -4.2884 -0.2535
2.4224 -4.2821 -0.2559
2.4559 -4.2674 -0.2545
2.4892 -4.2527 -0.2532
2.5204 -4.2464 -0.2555
2.5526 -4.2359 -0.2560
2.5863 -4.2173 -0.2528
2.6183 -4.2069 -0.2533
2.6504 -4.1965 -0.2538
2.6824 -4.1861 -0.2543
2.7151 -4.1668 -0.2506
2.7471 -4.1526 -0.2492
2.7784 -4.1548 -0.2558
2.8104 -4.1444 -0.2563
2.8424 -4.1340 -0.2568
2.8740 -4.1152 -0.2531
2.9058 -4.1048 -0.2536
2.9367 -4.0871 -0.2503
2.9705 -4.0923 -0.2588
3.0011 -4.0738 -0.2551
3.0321 -4.0599 -0.2537
3.0654 -4.0567 -0.2580
3.0985 -4.0507 -0.2609
3.1305 -4.0403 -0.2614
3.1588 -4.0187 -0.2557
3.1892 -4.0050 -0.2543
3.2221 -3.9981 -0.2567
3.2552 -3.9911 -0.2591
3.2870 -3.9808 -0.2596
3.3138 -3.9606 -0.2544
3.3785 -3.9434 -0.2573
3.4081 -3.9299 -0.2559
3.4396 -3.9197 -0.2564
3.4732 -3.9126 -0.2588
3.5025 -3.8992 -0.2573
3.5388 -3.8950 -0.2617
3.5679 -3.8818 -0.2603
3.6021 -3.8744 -0.2627
3.6427 -3.8736 -0.2694
3.6654 -3.8538 -0.2637
3.6941 -3.8407 -0.2622
3.7318 -3.8360 -0.2666
3.7604 -3.8229 -0.2652
3.7823 -3.8044 -0.2599
3.8238 -3.8023 -0.2662
3.8519 -3.7893 -0.2647
3.8763 -3.7738 -0.2613
3.9040 -3.7610 -0.2599
3.9504 -3.7611 -0.2682
3.9860 -3.7533 -0.2706
4.0268 -3.7486 -0.2755
4.0495 -3.7327 -0.2716
4.0813 -3.7223 -0.2721
4.1044 -3.7072 -0.2687
4.1315 -3.6945 -0.2672
4.1630 -3.6843 -0.2677
4.1852 -3.6695 -0.2643
2.1776 -4.4799 -0.2693
2.2102 -4.4751 -0.2724
2.2482 -4.4569 -0.2704
2.4378 -4.3530 -0.2539
2.7134 -4.2354 -0.2454
2.7470 -4.2207 -0.2441
3.3330 -4.0002 -0.2396
3.4238 -3.9582 -0.2353
3.4581 -3.9509 -0.2376
3.5572 -3.9225 -0.2409
3.6009 -3.9255 -0.2496
3.6304 -3.9111 -0.2478
3.6576 -3.8946 -0.2447
3.6900 -3.8840 -0.2452
3.7284 -3.8792 -0.2494
3.7550 -3.8629 -0.2462
3.7874 -3.8524 -0.2468
3.8199 -3.8418 -0.2473
3.8481 -3.8278 -0.2455
3.8883 -3.8234 -0.2501
3.9245 -3.8154 -0.2524
3.9571 -3.8048 -0.2530
3.9984 -3.8000 -0.2576
4.0274 -3.7868 -0.2563
4.0602 -3.7761 -0.2568
4.1770 -3.7256 -0.2529
4.2037 -3.7121 -0.2511
4.2361 -3.7016 -0.2516
2.1555 -4.5499 -0.2556
2.1945 -4.5323 -0.2541
2.2404 -4.4961 -0.2457
2.3086 -4.3955 -0.2130
2.3529 -4.3539 -0.2021
2.3430 -4.4782 -0.2539
2.3776 -4.4728 -0.2570
2.4159 -4.4545 -0.2551
2.4566 -4.4257 -0.2491
2.4941 -4.4077 -0.2471
2.5300 -4.3961 -0.2477
2.5618 -4.4070 -0.2574
2.5990 -4.3901 -0.2559
2.6376 -4.3610 -0.2494
2.6745 -4.3393 -0.2458
2.7175 -4.2353 -0.2078
2.7817 -4.2938 -0.2429
2.8530 -4.2968 -0.2553
2.8891 -4.2850 -0.2559
2.9255 -4.2780 -0.2585
2.9612 -4.2616 -0.2570
2.9972 -4.2499 -0.2576
3.0323 -4.2326 -0.2556
3.0672 -4.2164 -0.2541
3.1019 -4.2003 -0.2525
3.1375 -4.1887 -0.2531
3.1745 -4.1815 -0.2558
3.2149 -4.1839 -0.2631
3.2495 -4.1678 -0.2615
3.2817 -4.1466 -0.2575
3.3137 -4.1265 -0.2538
3.3512 -4.1192 -0.2565
3.3868 -4.1076 -0.2570
3.4202 -4.0919 -0.2555
3.4528 -4.0755 -0.2535
3.4881 -4.0640 -0.2540
3.5181 -4.0445 -0.2504
3.5621 -4.0457 -0.2577
3.6005 -4.0381 -0.2604
3.6361 -4.0265 -0.2609
3.6685 -4.0111 -0.2594
3.7000 -3.9950 -0.2574
3.7354 -3.9835 -0.2579
3.7671 -3.9683 -0.2564
3.7949 -3.9496 -0.2526
3.8336 -3.9419 -0.2553
3.8767 -3.9375 -0.2602
3.9120 -3.9261 -0.2607
3.9524 -3.9187 -0.2638
3.9879 -3.9072 -0.2644
4.0279 -3.8990 -0.2671
4.0635 -3.8874 -0.2677
4.0991 -3.8758 -0.2682
4.1298 -3.8610 -0.2666
4.1703 -3.8526 -0.2693
4.2059 -3.8411 -0.2699
4.2415 -3.8295 -0.2705
4.2772 -3.8179 -0.2710
4.3072 -3.8033 -0.2694
4.3244 -3.7822 -0.2630
4.3595 -3.7708 -0.2636
