ply
format ascii 1.0
element vertex 2123
property float x
property float y
property float z
end_header
5.1131 -1.8571 -0.2643
4.9670 -1.9269 -0.2684
4.7297 -2.0404 -0.2752
4.2968 -2.2561 -0.1618
4.3572 -2.2201 -0.2628
4.2983 -2.2481 -0.2659
4.2298 -2.2815 -0.2594
4.1744 -2.3082 -0.2573
4.1259 -2.3315 -0.2566
4.0817 -2.3528 -0.2561
4.0488 -2.3682 -0.2616
4.0080 -2.3880 -0.2585
3.9711 -2.4059 -0.2562
3.9148 -2.4326 -0.2608
3.8601 -2.4589 -0.2596
3.8325 -2.4724 -0.2559
3.8091 -2.4837 -0.2549
3.7720 -2.5012 -0.2602
3.7324 -2.5204 -0.2567
3.7159 -2.5283 -0.2573
3.6966 -2.5379 -0.2523
3.6845 -2.5434 -0.2573
3.6696 -2.5506 -0.2567
3.6556 -2.5573 -0.2564
3.6425 -2.5636 -0.2566
3.6280 -2.5708 -0.2529
3.6149 -2.5772 -0.2506
3.6038 -2.5825 -0.2512
3.5951 -2.5864 -0.2560
3.5823 -2.5929 -0.2508
3.5740 -2.5966 -0.2548
3.5633 -2.6019 -0.2522
3.5543 -2.6062 -0.2529
3.5450 -2.6107 -0.2519
3.5373 -2.6142 -0.2544
4.2914 -2.2670 0.3244
4.3078 -2.2569 0.3025
4.3373 -2.2401 0.2793
4.3180 -2.2480 0.2559
4.2338 -2.2891 0.2370
4.2016 -2.3020 0.1950
4.2066 -2.2976 0.1714
4.2319 -2.2824 0.1437
4.2427 -2.2747 0.1168
4.2540 -2.2667 0.0886
4.9912 -1.8628 -0.2778
4.8438 -1.9378 -0.2752
4.2669 -2.2405 -0.1509
4.3443 -2.1953 -0.2242
4.3517 -2.1882 -0.2653
4.2854 -2.2219 -0.2643
4.2172 -2.2570 -0.2580
4.1246 -2.3035 -0.2631
3.9686 -2.3827 -0.2632
3.9033 -2.4160 -0.2596
3.8467 -2.4451 -0.2559
3.7589 -2.4897 -0.2554
3.7419 -2.4981 -0.2578
3.7245 -2.5068 -0.2585
3.6898 -2.5247 -0.2556
3.6596 -2.5401 -0.2544
3.6324 -2.5540 -0.2534
3.6232 -2.5581 -0.2597
3.6092 -2.5656 -0.2555
3.5880 -2.5762 -0.2578
3.5744 -2.5836 -0.2504
3.5647 -2.5885 -0.2508
3.5561 -2.5927 -0.2533
3.5463 -2.5978 -0.2515
3.5376 -2.6022 -0.2519
3.5283 -2.6071 -0.2492
7.1475 -0.8312 1.5879
4.3764 -2.2185 0.5702
4.3439 -2.2333 0.5427
4.1782 -2.3086 0.4006
4.1737 -2.3092 0.3821
4.2387 -2.2673 0.3074
4.2246 -2.2728 0.2859
4.2126 -2.2772 0.2646
4.2067 -2.2783 0.2430
4.1967 -2.2816 0.2215
4.2075 -2.2736 0.1978
4.2498 -2.2458 0.1435
4.2874 -2.2225 0.1104
4.2984 -2.2137 0.0805
4.9726 -1.8191 -0.2724
4.2519 -2.2170 -0.1471
4.3413 -2.1579 -0.2652
4.2541 -2.2059 -0.2518
4.2066 -2.2307 -0.2580
4.1014 -2.2874 -0.2542
3.9580 -2.3634 -0.2633
3.8660 -2.4129 -0.2601
3.7942 -2.4514 -0.2604
3.7700 -2.4647 -0.2566
3.7158 -2.4935 -0.2593
3.6810 -2.5124 -0.2559
3.6651 -2.5211 -0.2544
3.6502 -2.5292 -0.2530
3.6372 -2.5360 -0.2541
3.6251 -2.5424 -0.2556
3.6111 -2.5502 -0.2521
3.6011 -2.5552 -0.2558
3.5888 -2.5621 -0.2533
3.5797 -2.5665 -0.2572
3.5679 -2.5732 -0.2535
3.5564 -2.5798 -0.2492
3.5484 -2.5837 -0.2530
3.5406 -2.5876 -0.2565
3.5320 -2.5921 -0.2570
3.5236 -2.5966 -0.2572
4.3541 -2.2069 0.5930
4.3464 -2.2090 0.5721
4.3387 -2.2111 0.5511
4.3172 -2.2206 0.5267
4.3095 -2.2226 0.5058
4.3107 -2.2198 0.4866
4.3084 -2.2189 0.4663
4.3026 -2.2199 0.4451
4.2837 -2.2281 0.4219
4.2661 -2.2356 0.3992
4.2177 -2.2535 0.3126
4.2189 -2.2481 0.2693
4.1781 -2.2616 0.1815
4.1963 -2.2484 0.1550
4.3364 -2.1604 0.0740
4.3211 -2.1662 0.0476
5.1714 -1.6497 -0.2824
4.9034 -1.8048 -0.2494
4.8670 -1.8211 -0.2883
4.2558 -2.1697 -0.2592
4.2017 -2.2000 -0.2618
4.1312 -2.2412 -0.2496
4.0245 -2.3029 -0.2365
4.0117 -2.3078 -0.2576
3.9808 -2.3247 -0.2628
3.9386 -2.3494 -0.2554
3.9030 -2.3700 -0.2511
3.8847 -2.3791 -0.2620
3.8607 -2.3923 -0.2657
3.8070 -2.4232 -0.2610
3.7396 -2.4619 -0.2552
3.7242 -2.4701 -0.2598
3.7056 -2.4808 -0.2583
3.6857 -2.4926 -0.2530
3.6715 -2.5004 -0.2552
3.6570 -2.5085 -0.2558
3.6417 -2.5174 -0.2537
3.6002 -2.5416 -0.2468
3.5899 -2.5471 -0.2494
3.5793 -2.5530 -0.2503
3.5708 -2.5572 -0.2554
3.5611 -2.5626 -0.2566
3.5507 -2.5687 -0.2549
3.5402 -2.5750 -0.2515
3.5240 -2.5837 -0.2556
4.3198 -2.2005 0.5930
4.3180 -2.1992 0.5742
4.3080 -2.2025 0.5528
4.3004 -2.2045 0.5320
4.2849 -2.2110 0.5093
4.2805 -2.2111 0.4892
4.2814 -2.2081 0.4699
4.2811 -2.2059 0.4498
4.2784 -2.2049 0.4290
4.2681 -2.2083 0.4070
4.2620 -2.2093 0.3853
4.2641 -2.2055 0.3641
4.2486 -2.2119 0.3414
4.2523 -2.2070 0.3195
4.2686 -2.1945 0.2969
4.2774 -2.1863 0.2731
4.1235 -2.2681 0.1919
4.3213 -2.1325 0.0490
5.2095 -1.5607 -0.2943
4.9604 -1.7121 -0.2704
4.8557 -1.7726 -0.2863
4.2702 -2.1368 -0.1636
4.3507 -2.0791 -0.2425
4.3038 -2.1054 -0.2559
4.2601 -2.1299 -0.2686
4.0114 -2.2899 -0.1734
4.0010 -2.2933 -0.1958
3.9891 -2.2978 -0.2170
3.9802 -2.3002 -0.2405
3.9649 -2.3071 -0.2585
3.9276 -2.3297 -0.2553
3.9028 -2.3437 -0.2617
3.8685 -2.3648 -0.2564
3.8489 -2.3755 -0.2645
3.7955 -2.4079 -0.2597
3.7557 -2.4311 -0.2641
3.7148 -2.4560 -0.2602
3.6982 -2.4657 -0.2617
3.6792 -2.4775 -0.2577
3.6481 -2.4962 -0.2562
3.6331 -2.5054 -0.2543
3.6195 -2.5136 -0.2536
3.6073 -2.5208 -0.2544
3.5938 -2.5292 -0.2513
3.5846 -2.5341 -0.2562
3.5750 -2.5394 -0.2597
3.5624 -2.5475 -0.2547
3.5520 -2.5538 -0.2537
3.5444 -2.5577 -0.2593
3.5340 -2.5643 -0.2561
3.5247 -2.5700 -0.2548
4.2291 -2.2256 0.5578
4.2634 -2.2029 0.5503
4.2604 -2.2022 0.5313
4.2573 -2.2015 0.5120
4.2561 -2.1996 0.4929
4.2463 -2.2028 0.4716
4.2480 -2.1991 0.4525
4.2422 -2.1998 0.4316
4.2436 -2.1962 0.4115
4.2293 -2.2021 0.3892
4.2303 -2.1986 0.3684
4.2241 -2.1995 0.3465
4.2256 -2.1955 0.3248
4.2376 -2.1849 0.3026
4.2317 -2.1854 0.2795
4.3672 -2.0923 0.2223
4.0979 -2.2583 0.1982
4.0937 -2.2579 0.1767
4.3547 -2.0797 0.0743
4.2813 -2.1239 0.0604
5.1551 -1.5280 -0.2771
4.2697 -2.1047 -0.1316
4.2475 -2.1152 -0.1564
4.3483 -2.0394 -0.2467
4.0331 -2.2488 -0.1647
3.9780 -2.2763 -0.2165
3.9647 -2.2819 -0.2367
3.9495 -2.2889 -0.2549
3.8813 -2.3323 -0.2512
3.8356 -2.3595 -0.2619
3.7851 -2.3915 -0.2598
3.7659 -2.4031 -0.2636
3.7012 -2.4450 -0.2545
3.6686 -2.4653 -0.2558
3.6542 -2.4742 -0.2575
3.6386 -2.4842 -0.2556
3.6100 -2.5026 -0.2524
3.5980 -2.5101 -0.2532
3.5853 -2.5183 -0.2513
3.5752 -2.5243 -0.2542
3.5631 -2.5323 -0.2510
3.5539 -2.5377 -0.2540
3.5445 -2.5434 -0.2555
3.5349 -2.5494 -0.2552
3.5252 -2.5559 -0.2533
3.5168 -2.5609 -0.2545
3.5087 -2.5659 -0.2554
3.5007 -2.5709 -0.2558
4.1914 -2.2244 0.5558
4.1869 -2.2246 0.5379
4.1800 -2.2263 0.5191
4.1743 -2.2272 0.5006
4.1726 -2.2256 0.4828
4.1709 -2.2240 0.4647
4.1658 -2.2244 0.4457
4.1740 -2.2163 0.4286
4.2071 -2.1922 0.4143
4.2052 -2.1903 0.3938
4.2130 -2.1820 0.3739
4.1998 -2.1874 0.3516
4.1964 -2.1863 0.3299
4.1995 -2.1809 0.3080
4.2022 -2.1756 0.2854
4.1916 -2.1791 0.2625
4.1920 -2.1752 0.2389
4.0763 -2.2465 0.2040
4.0623 -2.2527 0.1842
4.0660 -2.2467 0.1614
5.1245 -1.4794 -0.2673
4.2383 -2.0891 -0.1204
4.2134 -2.1021 -0.1434
4.1253 -2.1624 -0.1311
4.0864 -2.1865 -0.1414
4.1118 -2.1514 -0.2601
4.0761 -2.1736 -0.2696
4.0090 -2.2210 -0.2509
3.9426 -2.2637 -0.2591
3.9158 -2.2804 -0.2658
3.8204 -2.3450 -0.2570
3.8023 -2.3557 -0.2653
3.7780 -2.3719 -0.2645
3.7509 -2.3909 -0.2576
3.6926 -2.4297 -0.2567
3.6584 -2.4526 -0.2548
3.6432 -2.4627 -0.2548
3.6264 -2.4745 -0.2502
3.6135 -2.4829 -0.2514
3.6023 -2.4897 -0.2551
3.5789 -2.5050 -0.2567
3.5565 -2.5200 -0.2558
3.5453 -2.5278 -0.2533
3.5345 -2.5354 -0.2502
3.5259 -2.5408 -0.2524
3.5163 -2.5474 -0.2505
3.5082 -2.5526 -0.2518
3.5005 -2.5574 -0.2540
3.4937 -2.5612 -0.2583
4.1952 -2.2007 0.5833
4.1785 -2.2086 0.5613
4.1663 -2.2136 0.5411
4.1648 -2.2117 0.5240
4.1537 -2.2161 0.5040
4.1552 -2.2122 0.4872
4.1358 -2.2220 0.4654
4.1319 -2.2216 0.4470
4.1439 -2.2105 0.4312
4.1466 -2.2055 0.4130
4.1784 -2.1807 0.3979
4.1821 -2.1748 0.3780
4.1855 -2.1689 0.3573
4.1875 -2.1638 0.3359
4.1799 -2.1653 0.3135
4.1566 -2.1778 0.2911
4.1463 -2.1812 0.2690
4.1567 -2.1699 0.2457
4.1177 -2.1937 0.2255
4.0637 -2.2286 0.2087
4.0524 -2.2330 0.1884
4.0514 -2.2299 0.1663
4.1899 -2.0876 -0.1011
4.1828 -2.0872 -0.1321
4.1638 -2.0962 -0.1571
4.1588 -2.0941 -0.1898
4.2077 -2.0484 -0.2577
4.1676 -2.0742 -0.2704
4.1118 -2.1134 -0.2690
4.0514 -2.1572 -0.2598
4.0065 -2.1887 -0.2587
3.9701 -2.2137 -0.2616
3.9357 -2.2373 -0.2638
3.9023 -2.2606 -0.2641
3.8367 -2.3074 -0.2580
3.8147 -2.3218 -0.2635
3.7891 -2.3398 -0.2628
3.7653 -2.3565 -0.2622
3.7377 -2.3772 -0.2540
3.7213 -2.3877 -0.2595
3.7009 -2.4023 -0.2575
3.6327 -2.4507 -0.2530
3.6050 -2.4700 -0.2529
3.5926 -2.4786 -0.2537
3.5823 -2.4850 -0.2581
3.5695 -2.4943 -0.2556
3.5568 -2.5040 -0.2512
3.5480 -2.5093 -0.2561
3.5359 -2.5187 -0.2503
3.5272 -2.5243 -0.2531
3.5180 -2.5308 -0.2531
3.5097 -2.5362 -0.2550
3.5012 -2.5421 -0.2552
3.4927 -2.5483 -0.2538
3.4853 -2.5531 -0.2557
4.1791 -2.1896 0.6039
4.1821 -2.1846 0.5889
4.1676 -2.1912 0.5676
4.1618 -2.1921 0.5492
4.1496 -2.1972 0.5288
4.1406 -2.2002 0.5094
4.1439 -2.1947 0.4931
4.1277 -2.2026 0.4718
4.1236 -2.2022 0.4533
4.1283 -2.1955 0.4362
4.1248 -2.1945 0.4171
4.1588 -2.1668 0.4029
4.1736 -2.1524 0.3843
4.1616 -2.1571 0.3622
4.1551 -2.1578 0.3406
4.1412 -2.1638 0.3185
4.1347 -2.1645 0.2966
4.1289 -2.1646 0.2745
4.1266 -2.1621 0.2520
4.1101 -2.1701 0.2302
4.0475 -2.2131 0.2139
4.0329 -2.2201 0.1940
4.0300 -2.2182 0.1723
4.1186 -2.1403 0.1047
4.2089 -2.0582 0.0213
4.1852 -2.0711 -0.0026
4.1916 -2.0599 -0.0373
4.1869 -2.0574 -0.0688
4.1842 -2.0532 -0.1018
4.1738 -2.0552 -0.1319
4.1691 -2.0523 -0.1653
4.2262 -1.9969 -0.2367
4.1963 -2.0148 -0.2582
4.1418 -2.0545 -0.2611
4.0899 -2.0924 -0.2620
4.0433 -2.1265 -0.2632
3.9986 -2.1595 -0.2624
3.9664 -2.1819 -0.2694
3.9319 -2.2068 -0.2718
3.8565 -2.2642 -0.2613
3.8354 -2.2782 -0.2699
3.7769 -2.3227 -0.2617
3.7536 -2.3399 -0.2614
3.6925 -2.3850 -0.2608
3.6731 -2.3998 -0.2581
3.6576 -2.4108 -0.2603
3.6405 -2.4237 -0.2581
3.6226 -2.4381 -0.2521
3.5945 -2.4591 -0.2504
3.5828 -2.4673 -0.2523
3.5705 -2.4765 -0.2516
3.5597 -2.4841 -0.2534
3.5489 -2.4921 -0.2535
3.5383 -2.4999 -0.2530
3.5280 -2.5077 -0.2519
3.5190 -2.5140 -0.2536
3.5089 -2.5221 -0.2502
3.5014 -2.5267 -0.2545
3.4922 -2.5342 -0.2512
3.4851 -2.5387 -0.2548
3.4763 -2.5460 -0.2504
4.1699 -2.1678 0.5949
4.1535 -2.1760 0.5728
4.1434 -2.1797 0.5530
4.1467 -2.1739 0.5374
4.1285 -2.1835 0.5151
4.1284 -2.1800 0.4980
4.1222 -2.1808 0.4790
4.1150 -2.1824 0.4597
4.1078 -2.1841 0.4403
4.1109 -2.1779 0.4225
4.1232 -2.1649 0.4054
4.1564 -2.1359 0.3898
4.1591 -2.1296 0.3691
4.1406 -2.1392 0.3462
4.1157 -2.1494 0.3021
4.1098 -2.1494 0.2801
4.1134 -2.1420 0.2574
4.0800 -2.1636 0.2367
4.0381 -2.1923 0.2183
4.0168 -2.2048 0.1991
4.0138 -2.2027 0.1775
4.0895 -2.1307 0.1132
4.1346 -2.0877 0.0739
4.1665 -2.0549 0.0347
4.2014 -1.9972 -0.1135
4.1734 -2.0143 -0.1361
4.1437 -2.0331 -0.1565
4.2372 -1.9412 -0.2506
4.1869 -1.9782 -0.2603
4.1352 -2.0172 -0.2655
4.0326 -2.0968 -0.2649
3.9508 -2.1598 -0.2667
3.9176 -2.1849 -0.2701
3.8887 -2.2062 -0.2754
3.8144 -2.2671 -0.2593
3.7869 -2.2887 -0.2578
3.7391 -2.3260 -0.2567
3.7200 -2.3401 -0.2599
3.6788 -2.3729 -0.2558
3.6418 -2.4027 -0.2502
3.6294 -2.4111 -0.2561
3.6137 -2.4237 -0.2540
3.5869 -2.4443 -0.2547
3.5628 -2.4628 -0.2555
3.5503 -2.4732 -0.2522
3.5411 -2.4794 -0.2567
3.5292 -2.4896 -0.2521
3.5191 -2.4976 -0.2511
3.5114 -2.5025 -0.2564
3.5018 -2.5104 -0.2543
3.4840 -2.5249 -0.2509
3.4767 -2.5300 -0.2533
4.1660 -2.1447 0.6041
4.1588 -2.1463 0.5850
4.1547 -2.1456 0.5668
4.1514 -2.1442 0.5487
4.1877 -2.1130 0.5420
4.1856 -2.1104 0.5228
4.1795 -2.1107 0.5022
4.1081 -2.1610 0.4666
4.1007 -2.1626 0.4469
4.1129 -2.1490 0.4307
4.1106 -2.1464 0.4112
4.1155 -2.1381 0.3922
4.1155 -2.1336 0.3719
4.1055 -2.1369 0.3504
4.0903 -2.1444 0.3286
4.0950 -2.1358 0.3075
4.1036 -2.1238 0.2854
4.0873 -2.1321 0.2633
4.0853 -2.1286 0.2405
4.0454 -2.1568 0.2211
4.0008 -2.1894 0.2042
3.9960 -2.1885 0.1829
3.9943 -2.1849 0.1607
4.0686 -2.1150 0.1197
4.1379 -2.0413 0.0437
3.9943 -2.1570 0.0372
4.1420 -2.0000 -0.1244
4.1183 -2.0141 -0.1478
4.2055 -1.9224 -0.2387
4.1714 -1.9457 -0.2586
4.1393 -1.9676 -0.2779
4.0744 -2.0224 -0.2700
4.0181 -2.0697 -0.2638
3.9793 -2.1004 -0.2680
3.9415 -2.1308 -0.2701
3.9024 -2.1633 -0.2677
3.8706 -2.1888 -0.2696
3.8302 -2.2243 -0.2589
3.8091 -2.2396 -0.2674
3.7713 -2.2737 -0.2528
3.7515 -2.2886 -0.2585
3.7327 -2.3027 -0.2639
3.7013 -2.3318 -0.2485
3.6886 -2.3398 -0.2592
3.6680 -2.3574 -0.2557
3.6522 -2.3697 -0.2584
3.6368 -2.3819 -0.2602
3.6186 -2.3979 -0.2549
3.6032 -2.4109 -0.2530
3.5891 -2.4226 -0.2520
3.5770 -2.4320 -0.2541
3.5538 -2.4505 -0.2562
3.5415 -2.4613 -0.2531
3.5212 -2.4775 -0.2544
3.5099 -2.4879 -0.2491
3.5016 -2.4940 -0.2522
3.4847 -2.5075 -0.2536
3.4773 -2.5129 -0.2566
3.4684 -2.5212 -0.2518
4.1886 -2.1049 0.6409
4.1953 -2.0956 0.6267
4.1977 -2.0895 0.6103
4.1878 -2.0928 0.5890
4.1888 -2.0876 0.5713
4.1934 -2.0794 0.5542
4.1851 -2.0813 0.5329
4.1692 -2.0892 0.5094
4.1346 -2.1121 0.4817
4.0905 -2.1431 0.4531
4.0985 -2.1320 0.4362
4.1033 -2.1234 0.4179
4.0971 -2.1237 0.3973
4.0872 -2.1269 0.3760
4.0886 -2.1207 0.3558
4.0880 -2.1161 0.3347
4.0779 -2.1194 0.3129
4.0786 -2.1134 0.2910
4.0683 -2.1169 0.2689
4.0596 -2.1188 0.2466
4.0269 -2.1420 0.2266
3.9831 -2.1755 0.2095
3.9814 -2.1717 0.1878
3.9748 -2.1721 0.1665
4.0990 -2.0453 0.0854
3.9815 -2.1354 0.0409
4.1227 -1.9920 -0.0486
4.0813 -2.0070 -0.1322
4.1433 -1.9251 -0.2485
4.1092 -1.9501 -0.2660
4.0662 -1.9851 -0.2743
4.0051 -2.0402 -0.2640
3.9622 -2.0769 -0.2647
3.9217 -2.1119 -0.2638
3.8818 -2.1472 -0.2599
3.8508 -2.1734 -0.2620
3.8201 -2.1999 -0.2617
3.7913 -2.2248 -0.2608
3.7660 -2.2465 -0.2615
3.7203 -2.2854 -0.2629
3.6955 -2.3082 -0.2569
3.6809 -2.3188 -0.2650
3.6428 -2.3526 -0.2609
3.6228 -2.3716 -0.2536
3.5809 -2.4071 -0.2559
3.5678 -2.4185 -0.2553
3.5554 -2.4292 -0.2549
3.5431 -2.4403 -0.2528
3.5318 -2.4502 -0.2519
3.5233 -2.4562 -0.2577
3.5123 -2.4664 -0.2545
3.5006 -2.4782 -0.2472
3.4931 -2.4834 -0.2526
3.4762 -2.4978 -0.2531
3.4692 -2.5028 -0.2574
3.4613 -2.5098 -0.2565
4.1877 -2.0634 0.6004
4.1844 -2.0612 0.5810
4.1866 -2.0544 0.5631
4.1858 -2.0500 0.5437
4.1753 -2.0535 0.5212
4.1502 -2.0693 0.4951
4.1009 -2.1056 0.4642
4.0768 -2.1211 0.4403
4.0814 -2.1121 0.4222
4.0821 -2.1062 0.4028
4.0834 -2.0997 0.3829
4.0794 -2.0978 0.3618
4.0617 -2.1079 0.3396
4.0624 -2.1016 0.3184
4.0579 -2.0998 0.2965
4.0581 -2.0937 0.2742
4.0501 -2.0949 0.2517
4.0217 -2.1150 0.2309
3.9748 -2.1530 0.2136
3.9591 -2.1619 0.1939
3.9571 -2.1579 0.1720
3.9942 -2.1157 0.1402
4.0542 -2.0426 0.0702
4.1970 -1.8506 -0.1640
4.0436 -1.9929 -0.1518
4.0820 -1.9302 -0.2561
4.0452 -1.9602 -0.2688
3.9891 -2.0128 -0.2621
3.9454 -2.0525 -0.2618
3.8717 -2.1189 -0.2632
3.8038 -2.1820 -0.2574
3.7757 -2.2077 -0.2568
3.7549 -2.2248 -0.2632
3.7053 -2.2711 -0.2581
3.6844 -2.2902 -0.2577
3.6664 -2.3059 -0.2598
3.6479 -2.3228 -0.2593
3.6296 -2.3400 -0.2567
3.6012 -2.3644 -0.2621
3.5863 -2.3782 -0.2609
3.5674 -2.3989 -0.2475
3.5345 -2.4266 -0.2554
3.5224 -2.4386 -0.2517
3.5124 -2.4475 -0.2523
3.5032 -2.4552 -0.2546
3.4848 -2.4720 -0.2542
3.4769 -2.4784 -0.2571
3.4679 -2.4874 -0.2538
3.4600 -2.4947 -0.2534
3.4525 -2.5014 -0.2537
4.2148 -2.0099 0.6225
4.1843 -2.0303 0.5925
4.1786 -2.0297 0.5718
4.1857 -2.0180 0.5548
4.1750 -2.0215 0.5318
4.1661 -2.0235 0.5093
4.1164 -2.0616 0.4770
4.0677 -2.0994 0.4469
4.0753 -2.0870 0.4294
4.0825 -2.0748 0.4108
4.0791 -2.0720 0.3899
4.0565 -2.0869 0.3667
4.0448 -2.0917 0.3449
4.0380 -2.0920 0.3235
4.0478 -2.0764 0.3021
4.0351 -2.0821 0.2799
4.0379 -2.0728 0.2570
3.9586 -2.1375 0.2188
3.9431 -2.1465 0.1990
3.9408 -2.1424 0.1772
3.9732 -2.1026 0.1466
4.0202 -2.0467 0.1087
4.0282 -2.0302 0.0784
4.2215 -1.7698 -0.1832
4.2157 -1.7633 -0.2245
4.0020 -1.9838 -0.1683
4.0338 -1.9235 -0.2712
3.9388 -2.0150 -0.2686
3.8631 -2.0873 -0.2685
3.7924 -2.1575 -0.2593
3.7338 -2.2158 -0.2513
3.7150 -2.2319 -0.2579
3.6967 -2.2478 -0.2634
3.6730 -2.2719 -0.2583
3.6570 -2.2855 -0.2638
3.6194 -2.3231 -0.2583
3.5616 -2.3782 -0.2586
3.5365 -2.4027 -0.2567
3.5250 -2.4139 -0.2560
3.5151 -2.4226 -0.2586
3.5046 -2.4330 -0.2575
3.4952 -2.4415 -0.2589
3.4856 -2.4511 -0.2576
3.4754 -2.4623 -0.2522
3.4672 -2.4700 -0.2530
3.4587 -2.4787 -0.2508
3.4517 -2.4845 -0.2541
3.4448 -2.4902 -0.2570
3.4377 -2.4970 -0.2571
6.6806 0.1130 1.8860
4.1900 -1.9743 0.5475
4.1771 -1.9796 0.5231
4.1504 -1.9977 0.4954
4.0857 -2.0518 0.4598
4.0570 -2.0727 0.4343
4.0687 -2.0553 0.4168
4.0602 -2.0571 0.3952
4.0411 -2.0691 0.3722
4.0351 -2.0685 0.3509
4.0407 -2.0563 0.3300
4.0357 -2.0543 0.3078
4.0230 -2.0601 0.2854
4.0201 -2.0559 0.2626
4.0096 -2.0593 0.2400
3.9482 -2.1159 0.2233
3.9313 -2.1267 0.2035
3.9245 -2.1268 0.1823
3.9232 -2.1211 0.1597
4.6996 -1.2096 -0.2538
4.6129 -1.2890 -0.2787
4.5081 -1.3915 -0.2884
4.3837 -1.5197 -0.2790
4.3111 -1.5893 -0.2901
3.9761 -1.9679 -0.1585
4.0172 -1.8916 -0.2697
3.9679 -1.9416 -0.2687
3.9174 -1.9946 -0.2618
3.8461 -2.0653 -0.2651
3.8143 -2.0970 -0.2660
3.7288 -2.1844 -0.2622
3.7025 -2.2122 -0.2577
3.6823 -2.2319 -0.2600
3.6652 -2.2474 -0.2655
3.6469 -2.2653 -0.2669
3.6275 -2.2857 -0.2640
3.5933 -2.3214 -0.2601
3.5802 -2.3335 -0.2637
3.5614 -2.3563 -0.2514
3.5494 -2.3675 -0.2540
3.5382 -2.3779 -0.2568
3.5175 -2.3967 -0.2634
3.5059 -2.4093 -0.2603
3.4942 -2.4231 -0.2542
3.4853 -2.4312 -0.2568
3.4762 -2.4404 -0.2566
3.4686 -2.4466 -0.2615
3.4595 -2.4568 -0.2580
3.4514 -2.4652 -0.2573
3.4439 -2.4723 -0.2584
3.4359 -2.4817 -0.2542
6.4722 0.0943 1.7084
6.3757 0.0982 1.3951
4.0573 -2.0332 0.4233
4.0446 -2.0390 0.4009
4.0312 -2.0456 0.3785
4.0180 -2.0522 0.3563
4.0106 -2.0454 0.3132
4.0054 -2.0433 0.2909
4.0089 -2.0318 0.2680
3.9193 -2.1066 0.2080
3.9083 -2.1113 0.1875
3.9027 -2.1099 0.1658
4.5734 -1.2512 -0.2661
4.4591 -1.3711 -0.2705
4.4032 -1.4211 -0.2980
3.9400 -1.9536 -0.1779
3.9196 -1.9549 -0.2379
3.8924 -1.9791 -0.2515
3.8734 -1.9925 -0.2717
3.8212 -2.0543 -0.2528
3.8031 -2.0679 -0.2693
3.6965 -2.1814 -0.2684
3.6707 -2.2111 -0.2615
3.6551 -2.2250 -0.2695
3.6257 -2.2629 -0.2494
3.6162 -2.2677 -0.2651
3.5987 -2.2871 -0.2628
3.5818 -2.3063 -0.2593
3.5657 -2.3246 -0.2554
3.5533 -2.3369 -0.2582
3.5276 -2.3650 -0.2559
3.5165 -2.3762 -0.2573
3.5052 -2.3887 -0.2560
3.4954 -2.3984 -0.2579
3.4843 -2.4119 -0.2530
3.4756 -2.4202 -0.2556
3.4667 -2.4297 -0.2556
3.4499 -2.4477 -0.2550
3.4423 -2.4557 -0.2555
3.4350 -2.4630 -0.2567
3.4276 -2.4714 -0.2550
3.4203 -2.4803 -0.2516
4.0663 -1.9966 0.4545
4.0344 -2.0225 0.4277
4.0274 -2.0225 0.4064
4.0172 -2.0259 0.3844
4.0009 -2.0359 0.3618
3.9990 -2.0302 0.3406
3.9931 -2.0288 0.3187
3.9900 -2.0241 0.2965
3.9846 -2.0219 0.2739
3.9790 -2.0198 0.2510
3.9138 -2.0783 0.2116
3.8947 -2.0926 0.1922
3.8850 -2.0958 0.1713
4.5936 -1.1595 -0.2180
4.5920 -1.1384 -0.2803
4.4341 -1.3209 -0.2649
4.3621 -1.3948 -0.2835
4.1814 -1.5990 -0.2783
3.8964 -1.9504 -0.1905
3.8943 -1.9392 -0.2276
3.8780 -1.9485 -0.2517
3.8524 -1.9724 -0.2650
3.8069 -2.0278 -0.2527
3.7854 -2.0475 -0.2650
3.7352 -2.1005 -0.2738
3.7028 -2.1408 -0.2627
3.6741 -2.1764 -0.2531
3.6326 -2.2237 -0.2509
3.6157 -2.2418 -0.2532
3.6032 -2.2522 -0.2630
3.5876 -2.2693 -0.2641
3.5717 -2.2877 -0.2626
3.5428 -2.3211 -0.2595
3.5316 -2.3322 -0.2636
3.5174 -2.3506 -0.2569
3.4953 -2.3755 -0.2564
3.4852 -2.3868 -0.2565
3.4746 -2.4000 -0.2527
3.4657 -2.4098 -0.2534
3.4583 -2.4156 -0.2600
3.4490 -2.4278 -0.2553
3.4410 -2.4367 -0.2553
3.4329 -2.4468 -0.2525
3.4257 -2.4548 -0.2526
3.4195 -2.4597 -0.2582
3.4126 -2.4677 -0.2574
6.1195 0.1275 1.3216
4.0258 -1.9967 0.4350
4.0155 -2.0001 0.4128
3.9954 -2.0145 0.3892
3.9986 -2.0028 0.3689
3.9817 -2.0137 0.3461
3.9779 -2.0096 0.3243
3.9802 -1.9982 0.3022
3.9730 -1.9975 0.2794
3.9808 -1.9789 0.2555
3.9785 -1.9720 0.2311
3.8887 -2.0641 0.1955
3.8788 -2.0673 0.1743
4.6220 -1.0276 -0.2336
4.5729 -1.0682 -0.2776
4.4084 -1.2700 -0.2590
4.3373 -1.3464 -0.2784
4.1733 -1.5379 -0.2842
4.0298 -1.7114 -0.2746
3.9086 -1.8620 -0.2559
3.8785 -1.8927 -0.2681
3.8328 -1.9501 -0.2599
3.7940 -1.9980 -0.2546
3.7710 -2.0210 -0.2652
3.7435 -2.0527 -0.2673
3.7173 -2.0834 -0.2681
3.6624 -2.1532 -0.2554
3.6265 -2.1924 -0.2635
3.5901 -2.2366 -0.2608
3.5742 -2.2555 -0.2606
3.5613 -2.2687 -0.2658
3.5289 -2.3127 -0.2512
3.5065 -2.3373 -0.2559
3.4854 -2.3615 -0.2577
3.4755 -2.3731 -0.2580
3.4668 -2.3819 -0.2617
3.4569 -2.3953 -0.2575
3.4479 -2.4066 -0.2557
3.4405 -2.4138 -0.2598
3.4319 -2.4256 -0.2556
3.4247 -2.4333 -0.2576
3.4173 -2.4429 -0.2556
3.4104 -2.4511 -0.2554
3.4042 -2.4573 -0.2583
6.2752 0.2826 1.7710
4.0295 -1.9558 0.4452
3.9981 -1.9835 0.4183
3.9878 -1.9869 0.3962
3.9682 -2.0015 0.3728
3.9707 -1.9895 0.3522
3.9701 -1.9810 0.3305
3.9609 -1.9828 0.3079
3.9571 -1.9779 0.2851
3.9643 -1.9588 0.2613
3.9792 -1.9290 0.2353
3.8939 -2.0192 0.1970
3.8805 -2.0268 0.1755
3.8860 -2.0089 0.1494
4.6547 -0.9074 -0.1833
4.5534 -0.9949 -0.2748
4.4443 -1.1264 -0.2857
4.3224 -1.2813 -0.2792
4.0768 -1.5888 -0.2771
3.9048 -1.8074 -0.2679
3.8596 -1.8651 -0.2649
3.8148 -1.9246 -0.2568
3.7869 -1.9561 -0.2644
3.7599 -1.9874 -0.2703
3.7240 -2.0364 -0.2602
3.6774 -2.0921 -0.2661
3.6506 -2.1289 -0.2582
3.6306 -2.1535 -0.2592
3.6113 -2.1778 -0.2586
3.5973 -2.1918 -0.2670
3.5782 -2.2179 -0.2616
3.5463 -2.2594 -0.2574
3.5324 -2.2770 -0.2568
3.5196 -2.2931 -0.2568
3.5077 -2.3075 -0.2577
3.4965 -2.3212 -0.2586
3.4854 -2.3354 -0.2578
3.4749 -2.3487 -0.2571
3.4652 -2.3606 -0.2575
3.4561 -2.3717 -0.2583
3.4471 -2.3834 -0.2574
3.4389 -2.3929 -0.2589
3.4302 -2.4057 -0.2545
3.4234 -2.4116 -0.2604
3.4154 -2.4236 -0.2557
3.4085 -2.4321 -0.2562
3.4017 -2.4405 -0.2561
3.3952 -2.4495 -0.2543
6.3562 0.5035 1.8686
6.3459 0.5233 1.7959
4.0189 -1.9298 0.4526
3.9872 -1.9590 0.4252
3.9640 -1.9782 0.4006
3.9636 -1.9693 0.3800
3.9484 -1.9789 0.3572
3.9476 -1.9701 0.3358
3.9385 -1.9718 0.3134
3.9417 -1.9572 0.2908
3.9509 -1.9342 0.2669
3.9656 -1.9029 0.2409
3.9645 -1.8923 0.2148
4.5312 -0.9816 -0.1403
4.5211 -0.9675 -0.2001
4.5103 -0.9537 -0.2612
4.4498 -1.0169 -0.2973
4.3116 -1.2059 -0.2829
4.2220 -1.3226 -0.2859
4.0448 -1.5657 -0.2656
3.9389 -1.7027 -0.2715
3.8387 -1.8404 -0.2596
3.8082 -1.8769 -0.2678
3.7745 -1.9210 -0.2686
3.7448 -1.9592 -0.2707
3.7104 -2.0086 -0.2618
3.6640 -2.0672 -0.2675
3.6408 -2.0987 -0.2655
3.6191 -2.1285 -0.2630
3.6012 -2.1512 -0.2651
3.5839 -2.1737 -0.2659
3.5632 -2.2057 -0.2555
3.5478 -2.2263 -0.2550
3.5355 -2.2400 -0.2605
3.5208 -2.2610 -0.2568
3.5091 -2.2752 -0.2597
3.4965 -2.2929 -0.2573
3.4864 -2.3040 -0.2621
3.4753 -2.3193 -0.2606
3.4655 -2.3316 -0.2621
3.4541 -2.3508 -0.2530
3.4461 -2.3586 -0.2589
3.4371 -2.3713 -0.2572
3.4282 -2.3852 -0.2525
3.4209 -2.3934 -0.2557
3.4137 -2.4016 -0.2584
3.4067 -2.4104 -0.2595
3.3997 -2.4198 -0.2590
3.3930 -2.4298 -0.2567
3.3870 -2.4356 -0.2611
6.3377 0.6599 1.8501
3.9955 -1.9289 0.4770
3.9900 -1.9260 0.4557
3.9530 -1.9537 0.4072
3.9414 -1.9589 0.3848
3.9358 -1.9561 0.3633
3.9280 -1.9559 0.3412
3.9241 -1.9505 0.3191
3.9256 -1.9373 0.2966
3.9402 -1.9050 0.2726
3.9473 -1.8825 0.2470
3.9393 -1.8811 0.2217
4.9133 -0.3143 -0.1987
4.4892 -0.9415 -0.1270
4.5386 -0.8306 -0.2120
4.4894 -0.8764 -0.2581
4.3950 -0.9988 -0.2770
4.1787 -1.3044 -0.2691
4.0459 -1.4838 -0.2811
3.8719 -1.7767 -0.1795
3.8312 -1.8317 -0.1830
3.8215 -1.8296 -0.2149
3.8177 -1.8154 -0.2543
3.7875 -1.8536 -0.2623
3.7571 -1.8938 -0.2667
3.6923 -1.9890 -0.2570
3.6685 -2.0210 -0.2595
3.6458 -2.0520 -0.2607
3.6024 -2.1147 -0.2566
3.5682 -2.1608 -0.2597
3.5503 -2.1882 -0.2548
3.5348 -2.2108 -0.2529
3.5220 -2.2271 -0.2562
3.5093 -2.2440 -0.2577
3.4839 -2.2819 -0.2525
3.4735 -2.2954 -0.2547
3.4634 -2.3088 -0.2560
3.4539 -2.3214 -0.2575
3.4438 -2.3375 -0.2535
3.4360 -2.3454 -0.2595
3.4274 -2.3576 -0.2590
3.4190 -2.3705 -0.2567
3.4119 -2.3782 -0.2611
3.4043 -2.3901 -0.2586
3.3965 -2.4047 -0.2508
3.3904 -2.4101 -0.2572
3.3841 -2.4182 -0.2586
3.3782 -2.4249 -0.2619
6.0269 0.4768 1.6798
4.0112 -1.8891 0.5322
3.9991 -1.8945 0.5087
3.9884 -1.8981 0.4858
3.9777 -1.9016 0.4628
3.9309 -1.9435 0.4118
3.9194 -1.9487 0.3896
3.9254 -1.9293 0.3698
3.9168 -1.9301 0.3474
3.9150 -1.9209 0.3253
3.9197 -1.9020 0.3025
3.9231 -1.8842 0.2786
3.9230 -1.8710 0.2536
3.9265 -1.8517 0.2272
4.9434 -0.1636 -0.1227
4.8320 -0.3014 -0.1729
4.4568 -0.8508 -0.1819
3.8256 -1.7995 -0.1509
3.8091 -1.8105 -0.1760
3.8036 -1.7991 -0.2127
3.7918 -1.8003 -0.2433
3.7697 -1.8236 -0.2608
3.7386 -1.8680 -0.2636
3.6799 -1.9556 -0.2618
3.6319 -2.0265 -0.2620
3.6091 -2.0619 -0.2587
3.5917 -2.0850 -0.2635
3.5737 -2.1111 -0.2643
3.5540 -2.1441 -0.2571
3.5242 -2.1874 -0.2585
3.5110 -2.2057 -0.2606
3.4986 -2.2230 -0.2625
3.4862 -2.2417 -0.2618
3.4733 -2.2641 -0.2556
3.4636 -2.2756 -0.2607
3.4534 -2.2909 -0.2606
3.4353 -2.3149 -0.2655
3.4252 -2.3343 -0.2571
3.4176 -2.3431 -0.2617
3.4020 -2.3670 -0.2601
3.3945 -2.3799 -0.2566
3.3878 -2.3891 -0.2579
3.3815 -2.3968 -0.2611
3.3751 -2.4065 -0.2603
3.3691 -2.4162 -0.2590
6.0128 0.6058 1.7290
5.8960 0.4950 1.6033
6.0129 0.6823 1.5957
5.8926 0.5660 1.4703
3.9873 -1.8688 0.5166
3.9704 -1.8809 0.4915
3.9645 -1.8778 0.4699
3.9471 -1.8907 0.4451
3.9241 -1.9120 0.4195
3.9092 -1.9220 0.3963
3.8964 -1.9292 0.3738
3.9015 -1.9094 0.3533
3.9043 -1.8926 0.3315
3.9041 -1.8797 0.3085
3.8994 -1.8733 0.2847
3.8974 -1.8625 0.2601
3.8938 -1.8535 0.2348
3.9112 -1.8095 0.2056
3.8922 -1.8086 0.1520
3.8748 -1.8216 0.1272
3.8506 -1.8296 0.0750
3.8460 -1.8196 0.0451
3.8295 -1.8315 0.0209
3.8245 -1.8216 -0.0099
3.8135 -1.8231 -0.0376
3.8023 -1.8247 -0.0653
3.7998 -1.8082 -0.1009
3.7826 -1.7987 -0.1644
3.7669 -1.8090 -0.1893
3.7595 -1.8006 -0.2241
3.7504 -1.7957 -0.2576
3.7257 -1.8276 -0.2692
3.6995 -1.8652 -0.2753
3.6477 -1.9451 -0.2773
3.6187 -1.9973 -0.2656
3.5764 -2.0661 -0.2610
3.5608 -2.0871 -0.2668
3.5412 -2.1225 -0.2587
3.5256 -2.1471 -0.2582
3.5112 -2.1699 -0.2579
3.4861 -2.2071 -0.2615
3.4738 -2.2270 -0.2602
3.4621 -2.2467 -0.2577
3.4524 -2.2593 -0.2622
3.4417 -2.2787 -0.2577
3.4321 -2.2942 -0.2569
3.4235 -2.3064 -0.2590
3.4145 -2.3231 -0.2546
3.4069 -2.3328 -0.2583
3.3994 -2.3432 -0.2605
3.3921 -2.3543 -0.2611
3.3851 -2.3653 -0.2611
3.3785 -2.3754 -0.2616
3.3719 -2.3877 -0.2581
3.3659 -2.3954 -0.2609
3.3602 -2.4024 -0.2645
5.9313 0.6920 1.6783
5.9431 0.7489 1.6179
6.3324 1.3213 1.7372
3.9292 -1.8736 0.4508
3.9084 -1.8924 0.4256
3.8949 -1.9006 0.4025
3.8991 -1.8813 0.3825
3.8938 -1.8763 0.3602
3.8877 -1.8724 0.3374
3.8872 -1.8591 0.3145
3.8851 -1.8478 0.2906
3.8799 -1.8414 0.2661
3.8696 -1.8433 0.2415
3.8571 -1.8489 0.2171
3.8617 -1.8242 0.1894
3.8544 -1.8199 0.1629
3.8440 -1.8211 0.1370
3.8293 -1.8305 0.1125
3.8217 -1.8263 0.0852
3.8138 -1.8221 0.0575
3.8102 -1.8091 0.0267
3.7967 -1.8159 0.0012
3.7912 -1.8057 -0.0300
3.7853 -1.7957 -0.0620
3.7811 -1.7814 -0.0965
3.7682 -1.7857 -0.1241
3.7554 -1.7899 -0.1518
3.7415 -1.7968 -0.1781
3.7336 -1.7889 -0.2121
3.7216 -1.7907 -0.2414
3.7063 -1.8009 -0.2658
3.6774 -1.8486 -0.2665
3.6450 -1.9086 -0.2563
3.6268 -1.9318 -0.2677
3.6026 -1.9742 -0.2641
3.5822 -2.0078 -0.2644
3.5594 -2.0520 -0.2544
3.5452 -2.0701 -0.2631
3.5287 -2.0980 -0.2624
3.5135 -2.1232 -0.2623
3.4988 -2.1489 -0.2602
3.4859 -2.1696 -0.2613
3.4732 -2.1918 -0.2597
3.4617 -2.2105 -0.2602
3.4510 -2.2275 -0.2615
3.4403 -2.2467 -0.2592
3.4313 -2.2587 -0.2640
3.4217 -2.2760 -0.2616
3.4134 -2.2878 -0.2651
3.4047 -2.3041 -0.2620
3.3964 -2.3202 -0.2580
3.3889 -2.3332 -0.2572
3.3752 -2.3541 -0.2601
3.3687 -2.3653 -0.2596
3.3625 -2.3770 -0.2573
6.1277 1.0789 1.9181
3.8933 -1.8717 0.4318
3.8786 -1.8819 0.4083
3.8752 -1.8738 0.3872
3.8796 -1.8376 0.3442
3.8657 -1.8460 0.3203
3.8618 -1.8373 0.2966
3.8532 -1.8363 0.2725
3.8436 -1.8371 0.2482
3.8434 -1.8202 0.2224
3.8319 -1.8240 0.1976
3.8257 -1.8176 0.1715
3.8113 -1.8270 0.1473
3.7988 -1.8327 0.1228
3.7975 -1.8153 0.0934
3.7896 -1.7894 0.0333
3.7773 -1.7934 0.0069
3.7743 -1.7767 -0.0263
3.7590 -1.7871 -0.0510
3.7404 -1.7802 -0.1109
3.7313 -1.7754 -0.1421
3.7185 -1.7797 -0.1695
3.7057 -1.7839 -0.1970
3.6920 -1.7907 -0.2230
3.6781 -1.7984 -0.2484
3.6586 -1.8226 -0.2636
3.6363 -1.8571 -0.2710
3.6132 -1.8964 -0.2732
3.5673 -1.9826 -0.2652
3.5479 -2.0184 -0.2629
3.5318 -2.0446 -0.2661
3.5140 -2.0798 -0.2602
3.4982 -2.1105 -0.2561
3.4725 -2.1538 -0.2592
3.4610 -2.1723 -0.2618
3.4500 -2.1906 -0.2635
3.4382 -2.2153 -0.2574
3.4287 -2.2300 -0.2605
3.4192 -2.2471 -0.2601
3.4103 -2.2624 -0.2607
3.4020 -2.2760 -0.2624
3.3934 -2.2950 -0.2565
3.3861 -2.3052 -0.2606
3.3789 -2.3176 -0.2611
3.3719 -2.3299 -0.2609
3.3652 -2.3445 -0.2569
3.3590 -2.3527 -0.2609
3.3530 -2.3632 -0.2611
3.3472 -2.3744 -0.2595
3.3417 -2.3840 -0.2598
3.8756 -1.8547 0.4374
3.8628 -1.8622 0.4143
3.8546 -1.8617 0.3923
3.8619 -1.8337 0.3725
3.8756 -1.7933 0.3518
3.8387 -1.8270 0.3025
3.8317 -1.8230 0.2786
3.8216 -1.8247 0.2545
3.8119 -1.8256 0.2302
3.8082 -1.8140 0.2046
3.8010 -1.8092 0.1790
3.7908 -1.8102 0.1538
3.7867 -1.7980 0.1261
3.7827 -1.7850 0.0974
3.7757 -1.7777 0.0691
3.7689 -1.7696 0.0399
3.7735 -1.7338 0.0020
3.7569 -1.7472 -0.0225
3.9146 -1.2866 -0.2524
3.7097 -1.7549 -0.1353
3.6915 -1.7745 -0.1556
3.6789 -1.7786 -0.1826
3.6595 -1.8034 -0.1989
3.6538 -1.7869 -0.2367
3.6377 -1.8026 -0.2569
3.6161 -1.8377 -0.2646
3.5915 -1.8857 -0.2619
3.5497 -1.9658 -0.2596
3.5323 -1.9971 -0.2614
3.5155 -2.0289 -0.2609
3.4998 -2.0589 -0.2602
3.4860 -2.0834 -0.2622
3.4605 -2.1293 -0.2648
3.4368 -2.1770 -0.2601
3.4164 -2.2173 -0.2574
3.4075 -2.2322 -0.2599
3.3991 -2.2453 -0.2634
3.3831 -2.2738 -0.2656
3.3754 -2.2915 -0.2611
3.3683 -2.3066 -0.2587
3.3615 -2.3200 -0.2576
3.3551 -2.3333 -0.2558
3.3433 -2.3524 -0.2602
3.3377 -2.3630 -0.2600
3.3325 -2.3767 -0.2545
4.5333 -0.8290 0.8827
4.5306 -0.8052 0.8449
4.5147 -0.8022 0.8002
3.8929 -1.7917 0.4737
3.8676 -1.8206 0.4459
3.8513 -1.8342 0.4215
3.8490 -1.8227 0.4005
3.8516 -1.8012 0.3797
3.8590 -1.7700 0.3583
3.8120 -1.8250 0.3082
3.8100 -1.8109 0.2846
3.7979 -1.8165 0.2608
3.8004 -1.7918 0.2353
3.7903 -1.7927 0.2105
3.7838 -1.7858 0.1846
3.7700 -1.7945 0.1604
3.7757 -1.7588 0.1291
3.7902 -1.7005 0.0912
3.8036 -1.6418 0.0499
3.7916 -1.6424 0.0198
3.7810 -1.6393 -0.0115
3.8734 -1.2836 -0.2327
3.8459 -1.3158 -0.2619
3.7956 -1.4172 -0.2607
3.6432 -1.7689 -0.1997
3.6308 -1.7730 -0.2265
3.6193 -1.7735 -0.2554
3.5965 -1.8156 -0.2598
3.5755 -1.8547 -0.2637
3.5175 -1.9710 -0.2630
3.5030 -1.9948 -0.2697
3.4862 -2.0333 -0.2634
3.4717 -2.0636 -0.2616
3.4587 -2.0893 -0.2620
3.4454 -2.1209 -0.2556
3.4353 -2.1349 -0.2634
3.4134 -2.1858 -0.2544
3.3955 -2.2189 -0.2578
3.3791 -2.2514 -0.2579
3.3720 -2.2596 -0.2658
3.3645 -2.2785 -0.2606
3.3576 -2.2964 -0.2553
3.3511 -2.3101 -0.2543
3.3450 -2.3195 -0.2579
3.3335 -2.3415 -0.2594
3.3281 -2.3523 -0.2592
4.4671 -0.8998 0.9451
4.4468 -0.9065 0.9013
4.4544 -0.8658 0.8722
3.8800 -1.7636 0.4816
3.8507 -1.8013 0.4520
3.8454 -1.7946 0.4304
3.8414 -1.7849 0.4087
3.8330 -1.7834 0.3856
3.8245 -1.7820 0.3622
3.8213 -1.7694 0.3391
3.8052 -1.7833 0.3146
3.7950 -1.7849 0.2906
3.7889 -1.7776 0.2662
3.7771 -1.7603 0.2155
3.7795 -1.7315 0.1871
3.7971 -1.6646 0.1521
3.8002 -1.6296 0.1183
3.7900 -1.6262 0.0882
3.7868 -1.6044 0.0539
3.7851 -1.5769 0.0168
3.7788 -1.5603 -0.0192
3.8318 -1.3323 -0.1566
3.8866 -1.1215 -0.2687
3.8330 -1.2326 -0.2725
3.7820 -1.3429 -0.2708
3.6276 -1.7292 -0.2026
3.6122 -1.7436 -0.2246
3.5958 -1.7626 -0.2436
3.5841 -1.7639 -0.2719
3.5585 -1.8250 -0.2642
3.5383 -1.8673 -0.2649
3.4719 -2.0081 -0.2659
3.4574 -2.0426 -0.2617
3.4441 -2.0733 -0.2587
3.4318 -2.1029 -0.2549
3.4215 -2.1207 -0.2598
3.4011 -2.1665 -0.2569
3.3921 -2.1856 -0.2572
3.3834 -2.2055 -0.2557
3.3754 -2.2208 -0.2576
3.3678 -2.2352 -0.2598
3.3535 -2.2662 -0.2590
3.3469 -2.2803 -0.2590
3.3407 -2.2985 -0.2531
3.3348 -2.3089 -0.2558
3.3291 -2.3193 -0.2579
3.3235 -2.3288 -0.2607
3.3186 -2.3440 -0.2551
4.4879 -0.9081 1.1403
4.4683 -0.9146 1.0982
4.4825 -0.8653 1.0795
4.4624 -0.8720 1.0362
4.4206 -0.9156 0.9790
3.8395 -1.7704 0.4600
3.8354 -1.7604 0.4387
3.8310 -1.7505 0.4167
3.8209 -1.7521 0.3929
3.8165 -1.7413 0.3699
3.8037 -1.7482 0.3453
3.7864 -1.7652 0.3206
3.7923 -1.7301 0.2967
3.7873 -1.7186 0.2714
3.7981 -1.6687 0.2436
3.7940 -1.6526 0.2154
3.7882 -1.6396 0.1866
3.7797 -1.6328 0.1576
3.7763 -1.6121 0.1260
3.7803 -1.5697 0.0894
3.7740 -1.5534 0.0555
3.7572 -1.5660 0.0270
3.7529 -1.5421 -0.0102
3.8688 -1.0378 -0.2752
3.7635 -1.2772 -0.2761
3.7223 -1.3687 -0.2788
3.6857 -1.4498 -0.2813
3.5909 -1.7233 -0.2179
3.5770 -1.7331 -0.2420
3.5637 -1.7410 -0.2668
3.5234 -1.8287 -0.2716
3.5029 -1.8818 -0.2644
3.4875 -1.9122 -0.2696
3.4557 -1.9927 -0.2607
3.4304 -2.0500 -0.2613
3.4082 -2.1011 -0.2608
3.3884 -2.1495 -0.2569
3.3797 -2.1690 -0.2575
3.3715 -2.1849 -0.2606
3.3562 -2.2188 -0.2617
3.3491 -2.2360 -0.2605
3.3424 -2.2478 -0.2643
3.3300 -2.2799 -0.2601
3.3188 -2.3063 -0.2591
3.3086 -2.3298 -0.2588
3.3038 -2.3401 -0.2596
3.8339 -1.7064 0.4501
3.8052 -1.7051 0.3774
3.7959 -1.7037 0.3529
3.7476 -1.5389 0.0646
3.7320 -1.5485 0.0356
3.7262 -1.5270 -0.0006
3.7295 -1.4738 -0.0467
3.8316 -1.0136 -0.2613
3.7906 -1.0964 -0.2789
3.7423 -1.2141 -0.2794
3.7015 -1.3112 -0.2820
3.6638 -1.4038 -0.2816
3.6317 -1.4801 -0.2839
3.5888 -1.6139 -0.2543
3.5426 -1.7209 -0.2601
3.5263 -1.7461 -0.2750
3.5030 -1.8159 -0.2620
3.4876 -1.8453 -0.2705
3.4690 -1.9000 -0.2609
3.4398 -1.9753 -0.2569
3.4156 -2.0328 -0.2586
3.3946 -2.0802 -0.2625
3.3851 -2.1005 -0.2655
3.3761 -2.1196 -0.2684
3.3675 -2.1405 -0.2687
3.3515 -2.1880 -0.2599
3.3444 -2.2048 -0.2607
3.3376 -2.2214 -0.2606
3.3312 -2.2380 -0.2598
3.3251 -2.2535 -0.2591
3.3139 -2.2824 -0.2577
3.3085 -2.2940 -0.2591
3.3038 -2.3091 -0.2556
3.2986 -2.3171 -0.2603
3.2940 -2.3285 -0.2600
4.0498 -1.0117 0.4012
4.1536 -0.5482 0.2220
3.9017 -1.1476 0.1640
3.8652 -1.2088 0.1313
3.8312 -1.2653 0.1007
3.7534 -1.4631 0.0946
3.7073 -1.5302 0.0439
3.7235 -1.1335 -0.2881
3.6826 -1.2386 -0.2903
3.6451 -1.3380 -0.2895
3.6089 -1.4406 -0.2823
3.5506 -1.6042 -0.2725
3.5077 -1.7137 -0.2755
3.4850 -1.7887 -0.2609
3.4696 -1.8216 -0.2681
3.4539 -1.8629 -0.2682
3.4387 -1.9067 -0.2644
3.4245 -1.9503 -0.2584
3.4122 -1.9830 -0.2580
3.4013 -2.0070 -0.2624
3.3908 -2.0327 -0.2642
3.3807 -2.0610 -0.2626
3.3714 -2.0844 -0.2635
3.3543 -2.1317 -0.2611
3.3394 -2.1755 -0.2569
3.3259 -2.2067 -0.2607
3.3198 -2.2245 -0.2591
3.3144 -2.2466 -0.2517
3.3084 -2.2542 -0.2594
3.3034 -2.2715 -0.2554
3.2982 -2.2834 -0.2569
3.2934 -2.2952 -0.2579
3.2883 -2.3034 -0.2628
3.2843 -2.3176 -0.2593
4.6389 0.3479 0.7804
4.4766 0.0205 0.6669
3.9111 -1.2967 0.4233
3.9705 -1.1050 0.4031
4.0020 -0.9787 0.3709
4.0080 -0.9159 0.3313
4.0287 -0.8073 0.2883
3.8510 -1.2282 0.2178
3.8492 -1.1880 0.1786
3.8360 -1.1809 0.1405
3.8088 -1.2194 0.1074
3.6818 -1.4676 0.0116
3.6551 -1.5211 -0.0073
3.7736 -0.9003 -0.2534
3.7381 -0.9729 -0.2775
3.6950 -1.0879 -0.2833
3.6583 -1.1827 -0.2911
3.5858 -1.3996 -0.2809
3.5296 -1.5703 -0.2710
3.4894 -1.6748 -0.2789
3.4534 -1.7799 -0.2761
3.4222 -1.8814 -0.2646
3.4081 -1.9346 -0.2532
3.3761 -2.0146 -0.2624
3.3575 -2.0701 -0.2598
3.3413 -2.1164 -0.2595
3.3267 -2.1497 -0.2663
3.3202 -2.1718 -0.2632
3.3140 -2.1910 -0.2617
3.3027 -2.2270 -0.2581
3.2973 -2.2402 -0.2601
3.2924 -2.2561 -0.2583
3.2827 -2.2802 -0.2612
3.2786 -2.2949 -0.2585
3.2741 -2.3049 -0.2608
4.2421 -0.4128 0.6161
3.9334 -1.0526 0.3760
3.9392 -0.9882 0.3392
3.8128 -1.1325 0.1479
3.7749 -1.2115 0.1186
3.7799 -1.1366 0.0716
3.6476 -1.4302 -0.0160
3.7009 -1.0447 -0.1914
3.6985 -0.9674 -0.2582
3.6645 -1.0489 -0.2759
3.6293 -1.1464 -0.2840
3.6009 -1.2144 -0.2989
3.5365 -1.4309 -0.2836
3.5127 -1.5012 -0.2855
3.4678 -1.6576 -0.2706
3.4491 -1.7223 -0.2646
3.4341 -1.7614 -0.2699
3.4045 -1.8688 -0.2565
3.3925 -1.9050 -0.2571
3.3811 -1.9419 -0.2554
3.3613 -1.9875 -0.2671
3.3435 -2.0510 -0.2601
3.3279 -2.0942 -0.2636
3.3207 -2.1141 -0.2652
3.3141 -2.1368 -0.2632
3.3020 -2.1760 -0.2617
3.2962 -2.1915 -0.2634
3.2910 -2.2098 -0.2615
3.2865 -2.2299 -0.2566
3.2816 -2.2442 -0.2570
3.2720 -2.2669 -0.2624
3.2675 -2.2781 -0.2643
3.2640 -2.2929 -0.2611
4.3609 -0.1252 0.8331
4.3476 -0.0985 0.7822
3.8506 -1.2292 0.4082
3.8428 -1.2098 0.3756
3.8212 -1.2330 0.3405
3.8016 -1.2505 0.3064
3.7875 -1.2501 0.2725
3.7566 -1.2043 0.1656
3.7354 -1.2283 0.1322
3.7416 -1.1432 0.0856
3.6695 -1.1009 -0.1171
3.6629 -1.0460 -0.1724
3.6765 -0.8693 -0.2672
3.6421 -0.9588 -0.2849
3.6057 -1.0730 -0.2898
3.5716 -1.1864 -0.2896
3.5130 -1.3920 -0.2817
3.4867 -1.4959 -0.2698
3.4472 -1.6301 -0.2675
3.4150 -1.7399 -0.2655
3.4012 -1.7845 -0.2664
3.3655 -1.9105 -0.2610
3.3554 -1.9428 -0.2617
3.3461 -1.9809 -0.2565
3.3291 -2.0236 -0.2664
3.3013 -2.1209 -0.2628
3.2952 -2.1390 -0.2645
3.2894 -2.1569 -0.2653
3.2844 -2.1786 -0.2616
3.2801 -2.2011 -0.2560
3.2751 -2.2157 -0.2572
3.2663 -2.2457 -0.2567
3.2617 -2.2562 -0.2602
4.3551 -0.2159 1.0281
4.3365 -0.2077 0.9787
4.3113 -0.2160 0.9245
4.2687 -0.2712 0.8595
4.2495 -0.2642 0.8095
4.2358 -0.2410 0.7618
3.8460 -1.1791 0.4526
3.7109 -1.2515 0.1800
3.6966 -1.2511 0.1457
3.7077 -1.0636 0.0495
3.6870 -1.0838 0.0136
3.6610 -1.1325 -0.0162
3.6557 -1.0736 -0.0671
3.6327 -1.1090 -0.0986
3.6151 -1.1148 -0.1364
3.6012 -0.9798 -0.2578
3.5744 -1.0431 -0.2799
3.5439 -1.1455 -0.2850
3.5140 -1.2612 -0.2801
3.4879 -1.3622 -0.2758
3.4646 -1.4552 -0.2702
3.4437 -1.5411 -0.2633
3.4264 -1.6023 -0.2643
3.4118 -1.6380 -0.2755
3.3396 -1.9216 -0.2608
3.3307 -1.9512 -0.2625
3.3148 -2.0099 -0.2619
3.3075 -2.0339 -0.2635
3.2941 -2.0794 -0.2654
3.2834 -2.1322 -0.2561
3.2773 -2.1445 -0.2625
3.2730 -2.1685 -0.2570
3.2679 -2.1835 -0.2592
3.2639 -2.2033 -0.2557
3.2554 -2.2328 -0.2565
3.2509 -2.2436 -0.2602
3.2470 -2.2562 -0.2612
2.9770 -0.1682 0.8794
3.0238 -0.2624 0.8541
3.0802 -0.2438 0.8532
2.9219 -0.2021 0.8201
2.9853 -0.1307 0.8293
3.0415 -0.1466 0.8215
3.0878 -0.2265 0.8015
1.5096 -1.9902 0.5481
1.5103 -1.9627 0.5530
1.4919 -1.9209 0.5619
1.4967 -1.8931 0.5665
1.5144 -1.8736 0.5687
3.0109 0.1010 0.8104
3.0676 0.0410 0.7954
3.1237 0.0037 0.7845
3.1638 -0.1221 0.7590
1.4962 -1.9875 0.5218
1.5363 -1.9856 0.5194
1.4640 -1.8429 0.5465
2.8721 -0.2170 0.7057
2.9567 0.1698 0.7604
3.0170 0.1059 0.7464
3.1355 0.0464 0.7292
3.1732 -0.1008 0.7037
1.5168 -2.0063 0.4899
1.4919 -1.9020 0.5052
1.4715 -1.8547 0.5127
1.5077 -1.8473 0.5115
2.8027 -0.8274 0.5700
2.9455 -0.0704 0.6621
3.0272 0.1535 0.6869
3.1536 0.1332 0.6767
3.1884 -0.0443 0.6511
1.5069 -2.0059 0.4625
1.4964 -1.9713 0.4668
1.4819 -1.9012 0.4752
1.4963 -1.8450 0.4806
0.4250 -0.4966 0.6833
3.0316 0.1369 0.6178
3.0800 -0.0059 0.5997
3.1579 0.1170 0.6091
3.2076 0.0361 0.5977
3.2575 -0.0201 0.5890
3.4312 -1.0808 0.4641
1.4971 -2.0056 0.4345
1.4884 -1.8796 0.4457
1.4519 -1.7817 0.4557
0.4842 -0.5677 0.6018
2.8553 -0.8247 0.4759
3.0279 0.0365 0.5419
3.1088 0.1865 0.5512
3.1904 0.3012 0.5574
3.2352 0.1649 0.5438
3.4678 -0.7160 0.4583
3.4977 -0.7406 0.4549
3.4550 -1.0358 0.4316
3.4770 -1.0585 0.4287
0.5939 -0.5958 0.5245
0.8634 1.2481 0.6278
0.9761 1.2852 0.6260
1.0887 1.3224 0.6243
1.3087 1.0737 0.6012
2.2999 2.0285 0.6241
2.4369 1.8253 0.6067
3.1159 0.1915 0.4823
3.1756 0.1483 0.4775
3.2432 0.1706 0.4764
3.4604 -1.0371 0.3946
3.4793 -1.0673 0.3921
-0.0951 -0.2538 0.4852
0.4186 -0.4321 0.4644
0.7465 1.4843 0.5258
1.1925 1.0578 0.4977
1.3936 0.8401 0.4841
1.4047 1.1278 0.4944
2.4591 1.5796 0.4817
2.5632 1.7225 0.4841
2.9069 -0.8422 0.3801
3.0266 -0.0932 0.4044
3.1124 0.1094 0.4094
3.1800 0.1317 0.4084
3.2587 0.2201 0.4094
3.3850 0.5458 0.4179
3.4762 -1.0888 0.3552
3.5236 -1.0502 0.3553
1.4402 -1.9602 0.3486
1.3612 -1.7727 0.3524
0.4158 -0.9523 0.3808
0.3433 -0.3704 0.3892
0.8743 1.4945 0.4012
1.2174 0.9876 0.3884
1.4000 0.8158 0.3827
1.3957 1.1477 0.3868
2.3076 0.9875 0.3670
2.3799 1.2750 0.3690
2.5583 1.9864 0.3741
2.8643 -0.8588 0.3338
2.9570 -0.8282 0.3324
3.1064 0.0099 0.3395
3.1781 0.0727 0.3389
3.2632 0.2032 0.3388
3.3746 0.4469 0.3395
3.4785 -1.0975 0.3189
0.3867 -0.9421 0.3156
0.0539 0.0241 0.3067
1.5057 0.8241 0.2798
2.1472 1.4188 0.2647
2.2994 1.0858 0.2673
2.4135 0.9557 0.2677
2.5798 1.6144 0.2572
2.8726 -0.7785 0.2852
2.9161 -0.8248 0.2853
2.9697 -0.7465 0.2837
3.1589 -0.1008 0.2731
3.2218 -0.0800 0.2721
3.2922 -0.0211 0.2705
3.4618 -0.9978 0.2814
3.5033 -0.9776 0.2807
0.5324 -1.0673 0.2532
0.5192 -0.9878 0.2502
0.3970 -0.5506 0.2337
0.4139 -0.4687 0.2305
1.3518 0.9287 0.1739
1.4843 0.8799 0.1754
1.5987 0.8724 0.1753
1.6376 1.1197 0.1657
1.6813 1.3975 0.1548
1.7696 1.5417 0.1490
1.9466 1.2721 0.1589
2.0929 1.0805 0.1658
2.2066 1.0288 0.1675
2.2687 1.3783 0.1538
2.3669 1.5149 0.1483
2.4628 1.7702 0.1382
2.5737 1.9283 0.1317
2.7838 -0.3735 0.2198
2.8325 -0.6596 0.2307
2.8758 -0.7904 0.2356
2.9158 -0.8762 0.2388
2.9694 -0.7907 0.2353
3.0953 -0.1729 0.2112
3.1657 -0.0981 0.2081
3.2227 -0.1137 0.2085
3.2712 -0.1644 0.2103
3.3397 -0.1095 0.2080
3.5286 -0.9322 0.2391
-0.0040 -0.4923 0.1501
0.1449 -0.5255 0.1530
1.3506 1.2585 0.0450
1.7644 1.5690 0.0273
2.7885 -0.3237 0.1547
2.8337 -0.7307 0.1811
2.8809 -0.7707 0.1840
2.9239 -0.8281 0.1879
2.9693 -0.8324 0.1884
3.0890 -0.6359 0.1764
3.1960 -0.5771 0.1732
3.2315 -0.6327 0.1770
3.2929 -0.5687 0.1732
3.5504 -0.8085 0.1901
1.4204 -1.9434 0.2178
1.4144 -1.8742 0.2115
-0.3872 -0.0830 0.0239
1.1457 1.4558 -0.0935
1.4690 0.9120 -0.0398
1.4380 1.3707 -0.0817
1.6407 1.5575 -0.0957
2.0513 1.3522 -0.0714
2.1467 1.4908 -0.0825
2.7977 0.0184 0.0598
2.8600 -0.1605 0.0769
2.9325 -0.7764 0.1336
2.9780 -0.7933 0.1358
3.0154 -0.8584 0.1422
3.0745 -0.7614 0.1343
3.1210 -0.7557 0.1344
3.1993 -0.5898 0.1205
3.3359 -0.1925 0.0865
3.4605 -0.9620 0.1579
3.5209 -0.8986 0.1530
3.5338 -0.9517 0.1580
3.5493 -0.9933 0.1620
3.5670 -1.0256 0.1652
3.6046 -1.0132 0.1646
1.3375 -1.8981 0.1767
1.3610 -1.8798 0.1751
1.3693 -1.8508 0.1719
1.3729 -1.8169 0.1680
-0.2279 -0.2368 -0.0534
0.2331 -0.5380 -0.0076
1.0272 1.0917 -0.1800
1.1196 1.1781 -0.1880
1.5314 0.7268 -0.1258
1.5522 1.0066 -0.1581
1.6832 0.9549 -0.1490
1.7527 1.1222 -0.1670
1.8808 1.0665 -0.1576
2.0030 1.0140 -0.1486
2.1126 1.0059 -0.1452
2.2018 1.1259 -0.1572
2.2784 1.3978 -0.1872
2.7271 0.5413 -0.0768
2.8016 -0.0412 -0.0070
2.8725 0.0244 -0.0130
2.9746 0.5323 -0.0701
3.0020 -0.6212 0.0654
3.1933 -0.0490 0.0029
3.2831 -0.2092 0.0237
4.4935 2.4663 -0.2615
3.4664 -0.9634 0.1161
3.5032 -0.9587 0.1164
3.5332 -0.9688 0.1182
3.5623 -0.9792 0.1201
3.5799 -1.0124 0.1244
1.3864 -1.8336 0.1326
0.5071 -0.7951 -0.0446
-0.0996 0.5332 -0.2549
-0.0240 0.6094 -0.2634
0.5784 0.7065 -0.2583
1.0867 0.6846 -0.2390
1.1153 0.8835 -0.2667
1.4528 0.6326 -0.2199
1.5510 0.6649 -0.2214
1.6247 0.7740 -0.2348
1.7473 0.7296 -0.2245
1.8355 0.8006 -0.2319
1.9347 0.8333 -0.2335
2.0641 0.7137 -0.2122
2.4377 0.9164 -0.2294
2.5324 0.9885 -0.2368
2.6319 0.9804 -0.2325
2.7307 0.7848 -0.2012
2.8061 -0.0581 -0.0776
2.8770 0.0071 -0.0848
3.0379 -0.3533 -0.0278
3.1548 0.0778 -0.0861
3.2432 0.2158 -0.1031
3.2633 -0.0435 -0.0652
3.3129 -0.0994 -0.0556
3.7530 1.5636 -0.2808
3.8808 1.6978 -0.2960
4.0451 1.9509 -0.3272
4.1385 1.9304 -0.3213
4.1955 1.8016 -0.3009
3.4898 -1.0072 0.0805
3.5458 -0.9553 0.0748
3.6085 -0.8917 0.0677
3.6496 -0.8781 0.0670
3.6908 -0.8646 0.0664
0.4426 -0.9150 -0.1011
0.4934 -0.8785 -0.1052
0.5779 -0.8704 -0.1032
0.6613 -0.8626 -0.1011
0.4960 -0.6177 -0.1497
0.5154 -0.5375 -0.1627
0.4348 -0.2293 -0.2186
0.2106 0.1563 -0.2937
0.3333 0.1573 -0.2889
0.4294 0.1889 -0.2904
0.5720 0.1580 -0.2793
0.6661 0.1890 -0.2807
0.7392 0.2516 -0.2885
0.8543 0.2510 -0.2837
0.9848 0.2202 -0.2731
1.0770 0.2506 -0.2746
1.1526 0.3130 -0.2821
1.2614 0.3114 -0.2774
1.3535 0.3418 -0.2789
1.4457 0.3722 -0.2803
1.5252 0.4358 -0.2880
1.6301 0.4330 -0.2832
1.7115 0.4972 -0.2909
1.8047 0.5280 -0.2924
1.9067 0.5242 -0.2876
2.0138 0.4888 -0.2771
2.0911 0.5849 -0.2904
2.1715 0.6853 -0.3043
2.2802 0.6119 -0.2874
2.3753 0.6079 -0.2828
2.4657 0.6377 -0.2842
2.5560 0.6675 -0.2856
2.6453 0.7323 -0.2931
2.7377 0.5611 -0.2600
2.8145 0.1237 -0.1821
2.8797 -0.0523 -0.1494
2.9366 -0.2051 -0.1209
2.9696 -0.5207 -0.0656
3.2254 0.0617 -0.1548
3.2987 0.1066 -0.1595
3.4029 0.2938 -0.1873
3.5833 0.7785 -0.2628
3.7709 1.2126 -0.3294
3.3810 -0.9340 0.0218
3.4203 -0.9283 0.0224
3.5149 -0.8743 0.0170
-0.1666 -0.7064 -0.2455
0.2498 -0.8541 -0.1954
0.2819 -0.7991 -0.2047
0.3544 -0.7752 -0.2058
0.3702 -0.7019 -0.2196
0.6341 -0.8503 -0.1770
0.4437 -0.5816 -0.2398
0.4223 -0.4585 -0.2653
0.6670 -0.6040 -0.2243
0.7739 -0.6152 -0.2167
0.7505 -0.4805 -0.2446
0.8226 -0.3266 -0.2716
0.9349 -0.3433 -0.2627
1.0431 -0.3592 -0.2542
1.1340 -0.3540 -0.2507
1.1709 -0.2655 -0.2664
1.2363 -0.2171 -0.2728
1.4408 -0.2529 -0.2555
1.5378 -0.2694 -0.2473
1.5942 -0.2023 -0.2579
1.6709 -0.1770 -0.2591
1.7641 -0.1948 -0.2509
1.8165 -0.1042 -0.2663
1.9222 -0.1675 -0.2484
2.0208 -0.2258 -0.2320
2.0933 -0.2020 -0.2331
2.1466 -0.0935 -0.2520
2.2168 -0.0456 -0.2580
2.2885 0.0018 -0.2638
2.3645 0.0269 -0.2650
2.4297 0.1495 -0.2861
2.5062 0.2016 -0.2927
2.5856 0.2278 -0.2939
2.7461 -0.1736 -0.2062
2.8109 -0.2813 -0.1816
2.8652 -0.4720 -0.1410
2.9169 -0.5531 -0.1224
2.9706 -0.5622 -0.1179
3.0245 -0.5579 -0.1160
3.0798 -0.5396 -0.1169
3.1375 -0.5072 -0.1205
3.2437 -0.2233 -0.1716
3.3417 -0.0341 -0.2043
3.4641 0.2272 -0.2501
3.3111 -0.7917 -0.0553
3.3517 -0.7969 -0.0523
3.4014 -0.7713 -0.0549
3.4206 -0.8362 -0.0411
3.4619 -0.8308 -0.0401
3.4957 -0.8445 -0.0357
3.5286 -0.8574 -0.0315
3.5346 -0.9318 -0.0164
4.2669 0.5146 -0.2671
4.1036 0.0436 -0.1817
4.0933 -0.0816 -0.1574
0.1026 -0.9842 -0.2517
0.5437 -1.2233 -0.1715
0.2612 -0.9524 -0.2496
0.3304 -0.9296 -0.2506
0.3995 -0.9068 -0.2517
0.3591 -0.7930 -0.2799
0.4864 -0.8167 -0.2670
0.6700 -0.8956 -0.2383
0.8087 -0.9411 -0.2198
0.8043 -0.8513 -0.2404
0.8286 -0.7848 -0.2540
0.8546 -0.7158 -0.2681
0.9527 -0.7245 -0.2604
1.0084 -0.6856 -0.2659
1.0652 -0.6463 -0.2714
1.1478 -0.6396 -0.2681
1.2056 -0.6000 -0.2736
1.2758 -0.5769 -0.2747
1.3675 -0.5877 -0.2669
1.4367 -0.5649 -0.2680
1.4961 -0.5248 -0.2735
1.5567 -0.4843 -0.2791
1.6355 -0.4788 -0.2757
1.7052 -0.4559 -0.2768
1.7748 -0.4329 -0.2779
1.8515 -0.4281 -0.2745
1.9268 -0.4228 -0.2712
2.0010 -0.4178 -0.2680
2.0641 -0.3776 -0.2734
2.1281 -0.3370 -0.2788
2.2054 -0.3504 -0.2712
2.2700 -0.3097 -0.2766
2.3386 -0.2870 -0.2777
2.4019 -0.2262 -0.2877
2.4716 -0.2032 -0.2888
2.5429 -0.2002 -0.2853
2.6213 -0.3436 -0.2482
2.7508 -0.3009 -0.2502
2.8075 -0.6175 -0.1752
2.8649 -0.5719 -0.1821
2.9236 -0.5249 -0.1893
2.9824 -0.4921 -0.1932
3.0298 -0.5575 -0.1756
3.0757 -0.6060 -0.1619
3.1170 -0.6631 -0.1465
3.1837 -0.5704 -0.1636
3.2846 -0.3351 -0.2110
3.3098 -0.6549 -0.1370
3.3027 -0.8439 -0.0946
3.3340 -0.8766 -0.0854
3.4171 -0.8657 -0.0830
3.4917 -0.8728 -0.0769
3.5099 -0.9212 -0.0649
3.5449 -0.9240 -0.0622
3.6057 -0.8671 -0.0715
4.0807 -0.0275 -0.2337
0.4576 -1.1749 -0.2547
0.5197 -1.1545 -0.2557
0.6293 -1.1020 -0.2615
0.6919 -1.0814 -0.2625
0.7544 -1.0608 -0.2635
0.8036 -1.0283 -0.2684
0.9171 -1.0550 -0.2539
0.9900 -1.0463 -0.2511
1.0509 -1.0262 -0.2521
1.1233 -1.0186 -0.2490
1.2039 -1.0216 -0.2428
1.2134 -0.9421 -0.2624
1.2847 -0.9338 -0.2596
1.3736 -0.9503 -0.2493
1.4160 -0.9058 -0.2578
1.4769 -0.8857 -0.2587
1.6139 -0.8711 -0.2531
1.7204 -0.8055 -0.2625
1.8541 -0.7919 -0.2569
1.9198 -0.7856 -0.2540
1.9742 -0.7523 -0.2587
2.0439 -0.7599 -0.2520
2.1114 -0.7662 -0.2458
2.1662 -0.7339 -0.2503
2.2285 -0.7276 -0.2477
2.2870 -0.7083 -0.2486
2.3402 -0.6622 -0.2567
2.4018 -0.6562 -0.2540
2.4606 -0.6368 -0.2549
2.5148 -0.5741 -0.2672
2.5773 -0.5841 -0.2604
2.6373 -0.5786 -0.2577
2.6970 -0.5874 -0.2514
2.7552 -0.6884 -0.2216
2.8074 -0.7791 -0.1950
2.8685 -0.5858 -0.2400
2.9274 -0.5389 -0.2480
2.9877 -0.4916 -0.2559
3.0439 -0.4873 -0.2532
3.1039 -0.4532 -0.2577
3.1570 -0.4632 -0.2516
3.2220 -0.6536 -0.1986
3.2542 -0.7184 -0.1799
3.2894 -0.7577 -0.1675
3.3172 -0.8147 -0.1510
3.3608 -0.8095 -0.1494
3.4108 -0.7838 -0.1525
3.4468 -0.7995 -0.1460
3.4856 -0.8040 -0.1422
3.5122 -0.8380 -0.1318
3.5414 -0.8609 -0.1239
3.5658 -0.8916 -0.1144
3.6084 -0.8775 -0.1151
3.6808 -0.8761 -0.1105
3.7014 -0.9049 -0.1018
0.6043 -1.3474 -0.2625
0.6738 -1.3376 -0.2598
0.7302 -1.3190 -0.2607
0.7623 -1.2822 -0.2687
0.8311 -1.2726 -0.2660
0.9221 -1.2821 -0.2562
0.9889 -1.2732 -0.2536
1.0227 -1.2358 -0.2615
1.0891 -1.2270 -0.2589
1.1548 -1.2185 -0.2562
1.1907 -1.1804 -0.2642
1.2561 -1.1720 -0.2615
1.3117 -1.1536 -0.2623
1.3674 -1.1353 -0.2632
1.4313 -1.1273 -0.2605
1.4866 -1.1091 -0.2614
1.5191 -1.0590 -0.2731
1.5754 -1.0404 -0.2739
1.6387 -1.0327 -0.2712
1.7013 -1.0252 -0.2685
1.7632 -1.0179 -0.2657
1.8126 -0.9885 -0.2702
1.8738 -0.9815 -0.2674
1.9339 -0.9738 -0.2649
1.9889 -0.9556 -0.2658
2.0352 -0.9151 -0.2737
2.0989 -0.9194 -0.2675
2.1504 -0.8903 -0.2718
2.2057 -0.8721 -0.2726
2.2638 -0.8650 -0.2701
2.3188 -0.8469 -0.2710
2.3716 -0.8174 -0.2752
2.4328 -0.8346 -0.2656
2.4822 -0.7809 -0.2770
2.5334 -0.7246 -0.2889
2.5928 -0.7444 -0.2787
2.6481 -0.7262 -0.2796
2.7028 -0.6819 -0.2879
2.7586 -0.7980 -0.2506
2.8081 -0.8898 -0.2207
2.8667 -0.7037 -0.2689
2.9257 -0.6215 -0.2876
2.9828 -0.5896 -0.2923
3.0337 -0.6112 -0.2822
3.0887 -0.5931 -0.2830
3.1459 -0.5621 -0.2874
3.1759 -0.6715 -0.2540
3.1884 -0.8332 -0.2071
3.2338 -0.8274 -0.2053
