ply
format ascii 1.0
element vertex 2121
property float x
property float y
property float z
end_header
3.6286 -0.8644 0.0402
3.6371 -0.9007 0.0396
3.1293 1.4300 0.0414
3.2185 1.4460 0.0459
3.2544 1.4388 0.0473
3.2903 1.3766 0.0473
3.2999 1.3354 0.0467
5.3473 3.0635 0.1842
5.1287 2.7399 0.1659
5.0579 2.5624 0.1581
4.3058 0.4292 0.0686
4.2608 0.3562 0.0647
4.2453 0.0514 0.0561
4.2588 -0.0064 0.0552
3.4128 -0.1384 0.0135
3.0800 -0.2013 -0.0032
3.0840 -0.2274 -0.0037
3.0668 -0.2499 -0.0050
3.0638 -0.2739 -0.0058
3.0844 -0.3027 -0.0056
3.1369 -0.3397 -0.0042
3.1432 -0.3667 -0.0046
3.1427 -0.3918 -0.0053
3.1651 -0.4236 -0.0051
3.1923 -0.4577 -0.0048
3.2022 -0.4867 -0.0051
3.2228 -0.5198 -0.0050
3.2446 -0.5539 -0.0049
3.0769 -0.5543 -0.0125
3.0801 -0.5773 -0.0130
3.6661 -0.9215 0.0046
3.6552 -0.9482 0.0034
3.6393 -0.9713 0.0021
3.6662 -1.0181 0.0021
3.2306 1.5249 0.0082
3.2623 1.5123 0.0086
3.2662 1.4636 0.0077
3.2759 1.4222 0.0070
3.2914 1.3875 0.0066
3.3129 1.3590 0.0065
5.1485 2.8944 0.0736
5.3100 2.9218 0.0774
5.3340 2.8190 0.0758
4.2465 0.3538 0.0048
4.4125 0.2526 0.0061
4.1776 0.1617 -0.0004
4.2180 0.1069 -0.0007
4.2315 0.0491 -0.0016
4.2313 -0.0091 -0.0028
3.4784 -0.1064 -0.0196
3.3787 -0.1386 -0.0222
3.1479 -0.1558 -0.0272
3.0893 -0.1781 -0.0288
3.0836 -0.2036 -0.0294
3.0832 -0.2293 -0.0299
3.0606 -0.2509 -0.0308
3.0578 -0.2750 -0.0313
3.0727 -0.3025 -0.0316
3.1395 -0.3429 -0.0311
3.1436 -0.3696 -0.0315
3.1522 -0.3975 -0.0319
3.1689 -0.4279 -0.0322
3.1857 -0.4588 -0.0325
3.1991 -0.4891 -0.0328
3.2161 -0.5209 -0.0331
3.2414 -0.5565 -0.0333
3.2480 -0.5851 -0.0338
3.0962 -0.5444 -0.0360
3.0794 -0.5590 -0.0366
3.0803 -0.5812 -0.0370
3.2322 1.5383 -0.0324
3.2638 1.5252 -0.0328
3.2736 1.4832 -0.0335
3.2776 1.4343 -0.0342
3.3040 1.4118 -0.0347
3.3138 1.3694 -0.0353
5.2615 3.0206 -0.0237
5.2151 2.8532 -0.0258
4.2463 0.4176 -0.0542
4.1504 0.3357 -0.0548
4.2602 0.2314 -0.0569
4.1641 0.1594 -0.0574
4.1908 0.1035 -0.0583
4.2042 0.0460 -0.0592
4.2313 -0.0110 -0.0602
3.4250 -0.1068 -0.0567
3.1078 -0.1545 -0.0555
3.0862 -0.1795 -0.0557
3.0653 -0.2032 -0.0559
3.0868 -0.2318 -0.0565
3.0567 -0.2523 -0.0566
3.0462 -0.2749 -0.0568
3.0665 -0.3035 -0.0573
3.1274 -0.3426 -0.0583
3.1529 -0.3749 -0.0589
3.1627 -0.4034 -0.0593
3.1794 -0.4343 -0.0599
3.1825 -0.4611 -0.0602
3.1993 -0.4926 -0.0608
3.2279 -0.5290 -0.0615
3.2648 -0.5697 -0.0623
3.2342 -0.5833 -0.0623
3.1771 1.5285 -0.0722
3.2064 1.5153 -0.0733
3.2320 1.4954 -0.0743
3.2693 1.4886 -0.0755
3.2734 1.4396 -0.0760
3.2832 1.3976 -0.0767
3.2930 1.3556 -0.0773
5.1677 2.9498 -0.1247
5.0599 2.7283 -0.1230
5.2494 2.7792 -0.1287
4.2758 0.4248 -0.1162
4.1898 0.3436 -0.1141
4.1239 0.2713 -0.1126
4.2317 0.2271 -0.1164
4.2743 0.1705 -0.1182
4.1257 0.0970 -0.1140
4.0766 0.0376 -0.1129
3.1215 -0.1572 -0.0839
3.0915 -0.1818 -0.0831
3.0796 -0.2068 -0.0829
3.0826 -0.2332 -0.0832
3.0593 -0.2549 -0.0827
3.0478 -0.2775 -0.0825
3.0604 -0.3046 -0.0831
3.1432 -0.3492 -0.0861
3.1497 -0.3769 -0.0865
3.1662 -0.4075 -0.0873
3.1762 -0.4365 -0.0879
3.1941 -0.4683 -0.0887
3.1824 -0.4901 -0.0885
3.2211 -0.5302 -0.0900
3.2625 -0.5727 -0.0917
3.2693 -0.6021 -0.0922
3.0141 -0.6367 -0.0843
3.2126 1.5350 -0.1148
3.2804 1.4586 -0.1189
3.2904 1.4160 -0.1195
3.2937 1.3660 -0.1198
5.2015 2.8769 -0.2286
5.1570 2.7146 -0.2263
4.2610 0.4224 -0.1781
4.1758 0.3412 -0.1732
4.1233 0.2711 -0.1703
4.0610 0.2034 -0.1668
3.2554 -0.0734 -0.1202
3.2085 -0.1045 -0.1175
3.1662 -0.1330 -0.1151
3.1105 -0.1580 -0.1119
3.0797 -0.1823 -0.1101
3.0764 -0.2083 -0.1100
3.0794 -0.2348 -0.1102
3.0564 -0.2565 -0.1089
3.0450 -0.2791 -0.1083
3.0708 -0.3093 -0.1098
3.1366 -0.3503 -0.1137
3.1776 -0.3873 -0.1162
3.1775 -0.4139 -0.1162
3.1762 -0.4398 -0.1162
3.1941 -0.4718 -0.1173
3.2076 -0.5027 -0.1182
3.2223 -0.5344 -0.1191
3.2440 -0.5692 -0.1204
3.0244 -0.6063 -0.1076
3.0083 -0.6176 -0.1067
3.0208 -0.6444 -0.1075
3.1822 1.5593 -0.1543
3.2185 1.5547 -0.1574
3.3338 1.4775 -0.1669
4.1088 1.9588 -0.2351
5.3206 2.6266 -0.3413
4.2916 0.4299 -0.2439
4.2172 0.3495 -0.2371
3.2636 0.0259 -0.1544
3.2540 -0.0086 -0.1535
3.1866 -0.0436 -0.1476
3.2104 -0.0747 -0.1495
3.1528 -0.1339 -0.1443
3.0785 -0.1840 -0.1377
3.0732 -0.2098 -0.1372
3.0730 -0.2359 -0.1370
3.0674 -0.2606 -0.1364
3.0671 -0.2859 -0.1363
3.0645 -0.3103 -0.1360
3.1135 -0.3473 -0.1400
3.1531 -0.3836 -0.1432
3.1741 -0.4160 -0.1448
3.1774 -0.4434 -0.1450
3.1874 -0.4729 -0.1457
3.1940 -0.5014 -0.1462
3.2188 -0.5368 -0.1481
3.2405 -0.5718 -0.1498
3.1257 -0.5724 -0.1400
3.0818 -0.5972 -0.1362
3.0311 -0.5931 -0.1319
3.0165 -0.6059 -0.1306
2.9910 -0.6119 -0.1284
2.9843 -0.6275 -0.1277
3.1833 1.5729 -0.1965
3.2140 1.5605 -0.1998
3.3676 1.5283 -0.2167
3.3588 1.4602 -0.2150
3.3890 1.4366 -0.2181
3.5176 1.5157 -0.2334
4.1546 2.0167 -0.3104
5.3701 2.6835 -0.4541
3.1960 0.0198 -0.1812
3.1963 -0.0125 -0.1809
3.2037 -0.0442 -0.1814
3.1988 -0.0759 -0.1805
3.2061 -0.1074 -0.1809
3.1207 -0.1337 -0.1711
3.0971 -0.1602 -0.1681
3.0668 -0.1845 -0.1645
3.0572 -0.2096 -0.1631
3.0517 -0.2346 -0.1622
3.0461 -0.2590 -0.1613
3.0468 -0.2841 -0.1611
3.0735 -0.3149 -0.1638
3.1431 -0.3575 -0.1712
3.1783 -0.3935 -0.1747
3.1773 -0.4201 -0.1743
3.1773 -0.4467 -0.1741
3.1985 -0.4802 -0.1761
3.2086 -0.5103 -0.1769
3.2346 -0.5468 -0.1794
3.2153 -0.5655 -0.1770
3.1717 -0.5725 -0.1721
3.1482 -0.5865 -0.1693
3.1290 -0.6013 -0.1670
3.0933 -0.6068 -0.1629
3.0495 -0.6485 -0.1575
3.0491 -0.6689 -0.1573
3.0391 -0.6834 -0.1560
3.6305 1.9251 -0.3076
3.3545 1.4658 -0.2611
3.3716 1.4275 -0.2629
3.4305 1.4334 -0.2712
4.1380 2.0139 -0.3801
5.5452 2.8451 -0.5912
5.7510 2.8740 -0.6205
5.5885 0.7196 -0.5607
5.3274 0.5642 -0.5215
3.2014 0.0196 -0.2149
3.1959 -0.0134 -0.2135
3.2114 -0.0451 -0.2152
3.1872 -0.0772 -0.2112
3.1719 -0.1078 -0.2086
3.1387 -0.1363 -0.2034
3.1039 -0.1625 -0.1981
3.0603 -0.1856 -0.1916
3.0603 -0.2120 -0.1912
3.0634 -0.2385 -0.1912
3.0377 -0.2596 -0.1872
3.0374 -0.2845 -0.1867
3.0823 -0.3194 -0.1924
3.1266 -0.3561 -0.1980
3.1823 -0.3977 -0.2050
3.1704 -0.4213 -0.2030
3.1738 -0.4489 -0.2030
3.1883 -0.4802 -0.2045
3.2129 -0.5156 -0.2073
3.2231 -0.5462 -0.2082
3.2118 -0.5680 -0.2063
3.1458 -0.5652 -0.1971
3.1327 -0.5834 -0.1949
3.1228 -0.6024 -0.1932
3.0931 -0.6107 -0.1889
3.0781 -0.6253 -0.1866
3.0383 -0.6255 -0.1810
3.0262 -0.6395 -0.1791
3.0139 -0.6527 -0.1771
3.0098 -0.6700 -0.1762
3.3764 1.5019 -0.3129
3.3873 1.4554 -0.3136
3.4119 1.4237 -0.3170
3.5293 1.4864 -0.3381
4.6237 2.4033 -0.5434
4.9384 2.5858 -0.6005
5.0535 2.5711 -0.6194
5.0127 2.4195 -0.6090
5.0669 2.3482 -0.6164
5.0896 2.2507 -0.6179
5.1124 2.1532 -0.6194
5.1351 2.0557 -0.6209
5.0944 1.9172 -0.6108
5.0847 1.8021 -0.6064
5.1390 1.7261 -0.6137
5.1928 1.6477 -0.6209
5.2153 1.5512 -0.6224
5.1108 1.3945 -0.6012
5.1950 1.3294 -0.6137
5.3171 1.2758 -0.6330
5.4107 1.2051 -0.6470
5.3626 1.0809 -0.6360
5.2832 0.9513 -0.6196
5.3052 0.8568 -0.6210
5.3954 0.7794 -0.6343
5.4536 0.6909 -0.6420
5.2733 0.5543 -0.6085
3.2097 0.0195 -0.2498
3.2013 -0.0140 -0.2476
3.2169 -0.0461 -0.2495
3.1839 -0.0785 -0.2432
3.1564 -0.1088 -0.2379
3.1316 -0.1374 -0.2330
3.0878 -0.1628 -0.2251
3.0684 -0.1883 -0.2212
3.0748 -0.2159 -0.2216
3.0665 -0.2411 -0.2196
3.0400 -0.2623 -0.2147
3.0632 -0.2922 -0.2179
3.0695 -0.3190 -0.2183
3.1297 -0.3597 -0.2274
3.1710 -0.3977 -0.2335
3.1680 -0.4238 -0.2323
3.1747 -0.4526 -0.2328
3.1914 -0.4849 -0.2348
3.1982 -0.5139 -0.2353
3.2128 -0.5461 -0.2369
3.2387 -0.5833 -0.2404
3.2264 -0.6046 -0.2378
3.1616 -0.6008 -0.2271
3.1325 -0.6112 -0.2220
3.1169 -0.6268 -0.2190
3.1103 -0.6463 -0.2174
3.0931 -0.6595 -0.2142
3.0202 -0.6605 -0.2019
3.6632 1.9951 -0.4327
3.5800 1.8201 -0.4111
3.4359 1.5825 -0.3757
3.4042 1.4850 -0.3665
3.4225 1.4453 -0.3689
3.4702 1.4355 -0.3779
4.6964 2.3810 -0.6468
4.7170 2.2927 -0.6481
4.7637 2.2263 -0.6553
4.8109 2.1582 -0.6625
4.8053 2.0480 -0.6580
4.8261 1.9589 -0.6594
4.8739 1.8883 -0.6666
4.8406 1.7630 -0.6563
4.6422 0.5907 -0.5820
4.8180 0.5505 -0.6152
4.8858 0.4800 -0.6264
4.6737 0.3608 -0.5812
3.2524 -0.0124 -0.2915
3.2212 -0.0472 -0.2843
3.1723 -0.0797 -0.2737
3.1461 -0.1099 -0.2677
3.1420 -0.1396 -0.2660
3.0473 -0.1878 -0.2460
3.0620 -0.2161 -0.2480
3.0537 -0.2412 -0.2456
3.0253 -0.2617 -0.2394
3.0780 -0.2978 -0.2487
3.0759 -0.3231 -0.2475
3.1133 -0.3583 -0.2537
3.1749 -0.4019 -0.2645
3.1818 -0.4313 -0.2649
3.1744 -0.4559 -0.2628
3.1845 -0.4860 -0.2638
3.1912 -0.5151 -0.2643
3.2091 -0.5486 -0.2668
3.2395 -0.5878 -0.2715
3.2701 -0.6282 -0.2763
3.2738 -0.6571 -0.2761
3.1260 -0.6589 -0.2471
3.1229 -0.6802 -0.2459
3.1139 -0.6977 -0.2436
3.6294 1.9674 -0.4849
3.6232 1.8865 -0.4806
3.4863 1.6535 -0.4412
3.4000 1.4911 -0.4158
3.4183 1.4512 -0.4185
3.4513 1.4259 -0.4249
4.1355 1.9656 -0.5985
4.2188 1.9563 -0.6169
4.2533 1.8986 -0.6225
4.2529 1.8101 -0.6191
4.3063 1.7661 -0.6295
4.3236 1.6918 -0.6306
4.3041 1.5907 -0.6225
4.2858 1.4932 -0.6148
4.3382 1.4445 -0.6248
4.3369 1.3600 -0.6213
4.3362 1.2772 -0.6181
4.3530 1.2052 -0.6192
4.3519 1.1240 -0.6160
4.3686 1.0526 -0.6171
4.4215 0.9973 -0.6269
4.4202 0.9172 -0.6237
4.4370 0.8452 -0.6248
4.4353 0.7668 -0.6215
4.4706 0.7012 -0.6270
4.4686 0.6239 -0.6237
4.4853 0.5524 -0.6248
4.5400 0.4895 -0.6348
4.4630 0.3988 -0.6141
4.4793 0.3289 -0.6152
4.1596 0.2140 -0.5392
4.1737 0.1536 -0.5401
3.3634 0.0299 -0.3536
3.2810 -0.0120 -0.3336
3.2662 -0.0474 -0.3290
3.1569 -0.0809 -0.3032
3.1419 -0.1112 -0.2987
3.1206 -0.1400 -0.2929
3.0672 -0.1645 -0.2800
3.0583 -0.1908 -0.2770
3.0555 -0.2172 -0.2754
3.0296 -0.2394 -0.2688
3.0358 -0.2660 -0.2692
3.0599 -0.2964 -0.2735
3.0811 -0.3270 -0.2771
3.1206 -0.3631 -0.2846
3.1722 -0.4043 -0.2947
3.1791 -0.4338 -0.2951
3.1816 -0.4618 -0.2947
3.1819 -0.4887 -0.2937
3.1777 -0.5137 -0.2919
3.2022 -0.5497 -0.2960
3.2446 -0.5942 -0.3039
3.2395 1.5999 -0.4305
3.4430 1.6145 -0.4828
3.4028 1.5054 -0.4678
3.4140 1.4571 -0.4685
3.5099 1.4980 -0.4946
3.9848 1.8330 -0.6297
4.0289 1.7932 -0.6391
4.0298 1.7127 -0.6358
4.0454 1.6458 -0.6368
4.0610 1.5790 -0.6379
4.0766 1.5121 -0.6389
4.1228 1.4677 -0.6487
4.1540 1.4106 -0.6541
4.1087 1.3020 -0.6379
4.1432 0.6000 -0.6159
4.1159 0.5252 -0.6057
4.1302 0.4636 -0.6067
4.2013 0.4147 -0.6226
4.2615 0.2933 -0.6325
4.0411 0.1976 -0.5725
4.1060 0.1456 -0.5866
3.3366 -0.0103 -0.3848
3.2907 -0.0481 -0.3715
3.1933 -0.0825 -0.3453
3.1497 -0.1130 -0.3329
3.1236 -0.1418 -0.3250
3.0768 -0.1670 -0.3121
3.0579 -0.1926 -0.3062
3.0520 -0.2188 -0.3035
3.0554 -0.2458 -0.3032
3.0212 -0.2654 -0.2937
3.0650 -0.3000 -0.3033
3.0809 -0.3296 -0.3060
3.1297 -0.3685 -0.3167
3.1727 -0.4077 -0.3259
3.1753 -0.4360 -0.3253
3.1973 -0.4706 -0.3294
3.1891 -0.4950 -0.3262
3.1927 -0.5233 -0.3259
3.2106 -0.5572 -0.3289
3.2485 -0.6001 -0.3367
3.3111 -0.6556 -0.3501
3.6329 -0.8709 -0.4223
3.6353 -0.9068 -0.4213
3.6445 -0.9459 -0.4219
3.6204 -0.9666 -0.4149
3.5592 -0.9644 -0.3995
3.4926 -0.9561 -0.3830
3.4531 -0.9615 -0.3728
3.5964 1.8820 -0.5931
3.6095 1.8256 -0.5940
3.5487 1.6842 -0.5696
3.4026 1.4552 -0.5167
3.4661 1.4624 -0.5350
3.5097 1.4448 -0.5465
3.7486 1.6151 -0.6227
3.7404 1.5358 -0.6164
3.7433 1.4682 -0.6138
3.7568 1.4104 -0.6147
3.7595 1.3438 -0.6121
3.8055 1.3117 -0.6235
3.8192 1.2532 -0.6244
3.8447 1.2030 -0.6290
3.8353 1.1288 -0.6226
3.8265 1.0567 -0.6165
3.8625 1.0126 -0.6244
3.8647 0.9481 -0.6218
3.8667 0.8844 -0.6191
3.8801 0.8270 -0.6200
3.9051 0.7748 -0.6245
3.9186 0.7170 -0.6254
3.9085 0.6502 -0.6191
3.9337 0.5973 -0.6236
3.9121 0.5287 -0.6140
3.9605 0.4824 -0.6254
3.9739 0.4250 -0.6262
3.9629 0.3621 -0.6199
4.0007 0.3102 -0.6280
3.9893 0.2487 -0.6217
3.9671 0.1872 -0.6123
4.0283 0.1366 -0.6271
3.4041 -0.0082 -0.4432
3.3689 -0.0479 -0.4312
3.1728 -0.0837 -0.3739
3.1135 -0.1132 -0.3556
3.0864 -0.1411 -0.3466
3.0569 -0.1670 -0.3369
3.0574 -0.1945 -0.3356
3.0547 -0.2212 -0.3335
3.0283 -0.2434 -0.3249
3.0408 -0.2715 -0.3271
3.0648 -0.3024 -0.3323
3.0743 -0.3307 -0.3336
3.1514 -0.3773 -0.3530
3.1795 -0.4129 -0.3591
3.1790 -0.4405 -0.3576
3.1934 -0.4729 -0.3601
3.1864 -0.4978 -0.3568
3.1857 -0.5244 -0.3553
3.1959 -0.5552 -0.3566
3.2500 -0.6051 -0.3694
3.3113 -0.6604 -0.3839
3.7018 -0.9115 -0.4817
3.7182 -0.9562 -0.4841
3.6917 -0.9781 -0.4755
3.6238 -0.9752 -0.4564
3.5151 -0.9452 -0.4272
3.4797 -0.9547 -0.4167
3.4879 -0.9895 -0.4172
3.5698 1.9361 -0.6485
3.5830 1.8797 -0.6494
3.5869 1.8123 -0.6468
3.5019 1.6427 -0.6104
3.4051 1.4688 -0.5702
3.4094 1.4125 -0.5683
3.4429 1.3868 -0.5773
3.4775 1.3602 -0.5866
3.4578 1.2807 -0.5758
3.5933 1.3433 -0.6218
3.6237 1.3056 -0.6291
3.6272 1.2443 -0.6267
3.6488 1.1980 -0.6308
3.6430 1.1306 -0.6251
3.6368 1.0643 -0.6194
3.7060 1.0496 -0.6401
3.7574 0.3709 -0.6172
3.7787 0.3216 -0.6210
3.7617 0.2642 -0.6124
3.8029 0.2181 -0.6226
3.6804 0.0995 -0.5775
3.5662 0.0426 -0.5385
3.4425 -0.0076 -0.4969
3.4215 -0.0483 -0.4880
3.1691 -0.0850 -0.4070
3.1420 -0.1157 -0.3967
3.0964 -0.1434 -0.3809
3.0602 -0.1690 -0.3681
3.0537 -0.1959 -0.3645
3.0511 -0.2227 -0.3622
3.0341 -0.2466 -0.3555
3.0425 -0.2742 -0.3565
3.0675 -0.3056 -0.3626
3.0834 -0.3357 -0.3658
3.1475 -0.3793 -0.3833
3.1618 -0.4110 -0.3860
3.1655 -0.4397 -0.3855
3.1682 -0.4678 -0.3847
3.1751 -0.4974 -0.3851
3.1820 -0.5269 -0.3856
3.2192 -0.5690 -0.3948
3.2711 -0.6187 -0.4082
3.3399 -0.6783 -0.4263
3.5709 -0.8859 -0.4866
3.4797 -0.8695 -0.4590
3.4880 -0.9051 -0.4596
3.4793 -0.9307 -0.4553
3.4600 -0.9492 -0.4483
3.3821 1.5156 -0.6181
3.3796 1.4513 -0.6130
3.4049 1.4181 -0.6196
3.4021 1.3548 -0.6145
3.4134 1.3065 -0.6153
3.4031 1.2379 -0.6073
3.4359 1.2100 -0.6168
3.4690 1.1807 -0.6262
3.4511 1.1075 -0.6153
3.4771 1.0711 -0.6219
3.4884 1.0226 -0.6227
3.5231 0.9907 -0.6325
3.5110 0.9256 -0.6242
3.5300 0.8819 -0.6279
3.5260 0.8240 -0.6227
3.5217 0.7671 -0.6176
3.5485 0.7275 -0.6242
3.5789 0.6346 -0.6287
3.5663 0.5761 -0.6205
3.5935 0.5345 -0.6272
3.6048 0.4863 -0.6279
3.6355 0.3921 -0.6324
3.6385 0.3415 -0.6302
3.6498 0.2933 -0.6309
3.6443 0.2418 -0.6257
3.6554 0.1940 -0.6264
3.5711 0.1335 -0.5936
3.5236 0.0825 -0.5740
3.5069 0.0372 -0.5654
3.5168 -0.0054 -0.5660
3.4549 -0.0491 -0.5420
3.1346 -0.1170 -0.4278
3.1131 -0.1461 -0.4185
3.0753 -0.1722 -0.4039
3.0731 -0.2002 -0.4013
3.0385 -0.2230 -0.3880
3.0277 -0.2477 -0.3827
3.0483 -0.2777 -0.3878
3.0578 -0.3060 -0.3893
3.0871 -0.3394 -0.3971
3.1624 -0.3864 -0.4199
3.1767 -0.4187 -0.4227
3.1722 -0.4453 -0.4195
3.1792 -0.4753 -0.4199
3.1830 -0.5041 -0.4194
3.1857 -0.5323 -0.4185
3.2120 -0.5702 -0.4251
3.2386 -0.6090 -0.4317
3.3463 -0.6862 -0.4636
3.4463 -0.7641 -0.4929
3.4767 -0.8109 -0.5003
3.4907 -0.8499 -0.5026
3.4992 -0.8862 -0.5031
3.5076 -0.9225 -0.5037
3.4709 -0.9321 -0.4905
3.4473 -0.9478 -0.4814
3.4084 -0.9526 -0.4677
3.2869 1.4742 -0.6326
3.3098 1.4423 -0.6389
3.3206 1.3958 -0.6396
3.3385 1.3568 -0.6435
3.3494 1.3100 -0.6442
3.3469 1.2499 -0.6390
3.3641 1.2096 -0.6425
3.3686 1.1572 -0.6404
3.3657 1.0990 -0.6352
3.3699 1.0477 -0.6331
3.3799 0.8432 -0.6221
3.3974 0.7017 -0.6185
3.4146 0.6612 -0.6221
3.4180 0.6134 -0.6199
3.4283 0.5693 -0.6206
3.4294 0.4734 -0.6141
3.4199 0.4229 -0.6069
3.4101 0.3736 -0.5998
3.4272 0.3334 -0.6033
3.4535 0.2497 -0.6071
3.4700 0.2082 -0.6103
3.4735 0.1642 -0.6084
3.4769 0.1206 -0.6066
3.4604 0.0753 -0.5971
3.4701 0.0335 -0.5978
3.5201 -0.0065 -0.6136
3.5166 -0.0496 -0.6092
3.1242 -0.1181 -0.4577
3.0921 -0.1464 -0.4437
3.0467 -0.1713 -0.4249
3.0473 -0.1991 -0.4232
3.0198 -0.2223 -0.4112
3.0293 -0.2502 -0.4128
3.0448 -0.2794 -0.4165
3.0604 -0.3092 -0.4202
3.0865 -0.3420 -0.4276
3.1738 -0.3928 -0.4565
3.1695 -0.4199 -0.4530
3.1692 -0.4478 -0.4509
3.1763 -0.4779 -0.4513
3.1907 -0.5108 -0.4544
3.1903 -0.5381 -0.4523
3.2048 -0.5714 -0.4553
3.2605 -0.6232 -0.4724
3.3872 -0.7102 -0.5135
3.3800 -0.7373 -0.5088
3.4250 -0.8514 -0.5175
3.4275 -0.8829 -0.5161
3.3906 -0.8906 -0.5018
3.1579 1.3273 -0.6195
3.1677 1.2855 -0.6201
3.1926 1.2610 -0.6283
3.1979 1.2136 -0.6267
3.1915 1.1545 -0.6194
3.2067 1.1184 -0.6227
3.2321 1.0916 -0.6309
3.2372 1.0449 -0.6293
3.2415 0.9979 -0.6273
3.2569 0.9606 -0.6306
3.2668 0.9184 -0.6312
3.2594 0.8633 -0.6239
3.2585 0.8141 -0.6196
3.3013 0.7953 -0.6355
3.2827 0.7348 -0.6232
3.2924 0.6934 -0.6238
3.2851 0.6424 -0.6168
3.3237 0.6169 -0.6305
3.3102 0.5636 -0.6208
3.3197 0.5226 -0.6214
3.3293 0.4815 -0.6221
3.3503 0.4449 -0.6277
3.3662 0.4057 -0.6310
3.3759 0.3641 -0.6316
3.3919 0.3244 -0.6350
3.3835 0.2779 -0.6279
3.3932 0.2367 -0.6286
3.4147 0.1978 -0.6342
3.4374 0.1583 -0.6403
3.4220 0.1130 -0.6305
3.4073 0.0692 -0.6210
3.4347 0.0300 -0.6290
3.4442 -0.0111 -0.6297
3.4471 -0.0522 -0.6276
3.1169 -0.1193 -0.4887
3.0958 -0.1484 -0.4778
3.0586 -0.1743 -0.4607
3.0653 -0.2033 -0.4612
3.0372 -0.2270 -0.4479
3.0348 -0.2534 -0.4449
3.0604 -0.2851 -0.4527
3.0700 -0.3140 -0.4543
3.0828 -0.3440 -0.4571
3.1737 -0.3960 -0.4898
3.1809 -0.4268 -0.4903
3.1881 -0.4576 -0.4908
3.2110 -0.4939 -0.4972
3.1877 -0.5136 -0.4862
3.1831 -0.5393 -0.4823
3.2019 -0.5744 -0.4871
3.2573 -0.6263 -0.5054
3.2808 -0.6656 -0.5119
3.2764 -0.6917 -0.5080
3.2619 -0.7122 -0.5005
3.2135 -0.7395 -0.4788
3.1871 -0.7499 -0.4673
3.1444 -0.7726 -0.4482
3.0995 1.2145 -0.6305
3.0907 1.1541 -0.6214
3.1226 1.0418 -0.6256
3.1364 1.0072 -0.6287
3.1358 0.9118 -0.6202
3.1360 0.8657 -0.6163
3.1828 0.8576 -0.6360
3.1628 0.7958 -0.6220
3.1849 0.6766 -0.6213
3.1939 0.6381 -0.6219
3.2102 0.4334 -0.6113
3.2329 0.4012 -0.6185
3.2621 0.3704 -0.6285
3.2764 0.3335 -0.6316
3.2649 0.2887 -0.6227
3.2891 0.2544 -0.6303
3.2828 0.2123 -0.6239
3.2971 0.1751 -0.6270
3.2905 0.1342 -0.6205
3.3039 0.0969 -0.6232
3.3026 0.0579 -0.6192
3.3329 0.0217 -0.6293
3.3258 -0.0174 -0.6229
3.3451 -0.0551 -0.6280
3.3483 -0.0932 -0.6261
3.1423 -0.1220 -0.5338
3.0614 -0.1476 -0.4963
3.0390 -0.1742 -0.4842
3.0555 -0.2040 -0.4889
3.0405 -0.2296 -0.4801
3.0471 -0.2579 -0.4805
3.0657 -0.2887 -0.4860
3.0693 -0.3166 -0.4852
3.0892 -0.3485 -0.4911
3.3904 -0.4946 -0.6098
3.3886 -0.5277 -0.6062
3.3503 -0.5474 -0.5878
3.2914 -0.5570 -0.5613
3.2813 -0.5830 -0.5546
3.3070 -0.6236 -0.5623
3.2966 -0.6487 -0.5556
3.2914 -0.6755 -0.5511
3.2850 -0.7010 -0.5460
3.2632 -0.7180 -0.5351
3.2378 -0.7317 -0.5228
3.2251 -0.7512 -0.5156
3.1902 -0.7568 -0.4999
3.1099 -0.7562 -0.4649
3.0096 1.1637 -0.6278
3.0101 1.1169 -0.6236
3.0112 1.0716 -0.6199
3.0235 1.0394 -0.6226
3.0282 0.9988 -0.6210
3.0444 0.9702 -0.6259
3.0491 0.9297 -0.6243
3.0576 0.8931 -0.6249
3.0583 0.8496 -0.6211
3.0628 0.8100 -0.6195
3.0792 0.7803 -0.6244
3.0837 0.7408 -0.6228
3.0792 0.6951 -0.6164
3.0925 0.6626 -0.6196
3.1091 0.6319 -0.6245
3.1176 0.5956 -0.6250
3.1260 0.5593 -0.6256
3.1345 0.5231 -0.6262
3.1387 0.4847 -0.6245
3.1600 0.4544 -0.6317
3.1513 0.4105 -0.6235
3.1597 0.3745 -0.6240
3.1585 0.3351 -0.6198
3.1809 0.3039 -0.6273
3.1751 0.2636 -0.6209
3.1754 0.2258 -0.6175
3.1837 0.1904 -0.6180
3.2046 0.1574 -0.6247
3.2130 0.1215 -0.6253
3.2168 0.0851 -0.6236
3.2297 0.0498 -0.6264
3.2334 0.0137 -0.6247
3.2418 -0.0220 -0.6253
3.2501 -0.0578 -0.6258
3.2632 -0.0935 -0.6286
3.0814 -0.1508 -0.5381
3.0739 -0.1795 -0.5319
3.0682 -0.2077 -0.5266
3.0367 -0.2312 -0.5097
3.0492 -0.2606 -0.5128
3.0589 -0.2898 -0.5146
3.0726 -0.3201 -0.5181
3.1025 -0.3549 -0.5289
3.2748 -0.4315 -0.6023
3.3613 -0.4897 -0.6374
3.3584 -0.5220 -0.6330
3.3130 -0.5384 -0.6102
3.2700 -0.5531 -0.5887
3.2735 -0.5844 -0.5874
3.2949 -0.6231 -0.5938
3.2931 -0.6520 -0.5902
3.2880 -0.6788 -0.5853
3.2870 -0.7071 -0.5822
3.2848 -0.7345 -0.5786
3.2837 -0.7619 -0.5755
3.2791 -0.7870 -0.5710
3.0355 -0.6929 -0.4658
3.0469 -0.7216 -0.4685
2.9574 1.0622 -0.6329
2.9804 1.0444 -0.6425
2.9812 1.0004 -0.6385
2.9752 0.9498 -0.6304
2.9863 0.9181 -0.6327
2.9741 0.8216 -0.6168
2.9890 0.7939 -0.6215
3.0266 0.5438 -0.6150
3.0237 0.5040 -0.6095
3.0579 0.4096 -0.6170
3.0970 0.3146 -0.6270
3.0857 0.2743 -0.6172
3.0935 0.2408 -0.6178
3.0895 0.1695 -0.6085
3.1286 0.1428 -0.6254
3.1402 0.1096 -0.6278
3.1326 0.0737 -0.6203
3.1201 0.0382 -0.6105
3.1398 0.0062 -0.6172
3.1476 -0.0270 -0.6177
3.1469 -0.0603 -0.6139
3.1508 -0.0932 -0.6126
3.1508 -0.1256 -0.6093
3.0914 -0.1533 -0.5768
3.0842 -0.1825 -0.5702
3.0738 -0.2105 -0.5621
3.0583 -0.2368 -0.5517
3.0651 -0.2659 -0.5522
3.0590 -0.2924 -0.5464
3.0956 -0.3283 -0.5611
3.1797 -0.3782 -0.5981
3.2153 -0.4180 -0.6119
3.2797 -0.4683 -0.6391
3.2876 -0.5024 -0.6396
3.2463 -0.5185 -0.6173
3.2415 -0.5464 -0.6120
3.2449 -0.5771 -0.6106
3.2524 -0.6094 -0.6111
3.2684 -0.6456 -0.6154
3.2717 -0.6760 -0.6140
3.2612 -0.6993 -0.6064
3.0210 -0.6453 -0.4916
3.0083 -0.6596 -0.4839
3.0108 -0.6824 -0.4828
3.0199 -0.7093 -0.4846
2.8756 0.9713 -0.6189
2.8795 0.9347 -0.6170
2.8937 0.9101 -0.6219
2.9161 0.8938 -0.6321
2.9148 0.8515 -0.6268
2.9194 0.8159 -0.6253
2.9270 0.7834 -0.6258
2.9407 0.7564 -0.6302
2.9390 0.7157 -0.6249
2.9434 0.6807 -0.6234
2.9438 0.6429 -0.6195
2.9649 0.6209 -0.6283
2.9725 0.5883 -0.6288
2.9663 0.5468 -0.6210
2.9737 0.5148 -0.6215
2.9755 0.4794 -0.6186
2.9887 0.4507 -0.6225
2.9962 0.4187 -0.6230
3.0036 0.3866 -0.6235
3.0145 0.3561 -0.6259
3.0434 0.3324 -0.6388
3.0407 0.2958 -0.6333
3.0370 0.2596 -0.6274
3.0524 0.2298 -0.6324
3.0450 0.1935 -0.6245
3.0640 0.1642 -0.6314
3.0572 0.1291 -0.6240
3.0784 0.0662 -0.6284
3.0822 0.0338 -0.6269
3.0832 0.0014 -0.6239
3.1008 -0.0299 -0.6299
3.1083 -0.0619 -0.6304
3.0942 -0.0936 -0.6194
3.0978 -0.1248 -0.6179
3.1165 -0.1570 -0.6244
3.1124 -0.1874 -0.6189
3.1052 -0.2168 -0.6119
3.1163 -0.2483 -0.6144
3.1157 -0.2778 -0.6108
3.1160 -0.3072 -0.6078
3.1449 -0.3430 -0.6193
3.1721 -0.3794 -0.6298
3.1835 -0.4123 -0.6323
3.1829 -0.4416 -0.6288
3.1821 -0.4705 -0.6253
3.1976 -0.5049 -0.6298
3.2132 -0.5397 -0.6343
3.2165 -0.5699 -0.6328
3.2239 -0.6016 -0.6333
3.2230 -0.6295 -0.6297
2.9835 -0.5634 -0.5092
2.9871 -0.5872 -0.5085
2.9908 -0.6110 -0.5079
2.9912 -0.6327 -0.5057
3.2273 -0.8723 -0.6056
2.8420 0.9382 -0.6327
2.8493 0.9069 -0.6332
2.8537 0.8722 -0.6316
2.8669 0.8475 -0.6362
2.8630 0.8044 -0.6290
2.8725 0.7757 -0.6310
2.8889 0.7532 -0.6377
2.8790 0.6328 -0.6180
2.8915 0.6068 -0.6221
2.9105 0.5851 -0.6303
2.9057 0.5459 -0.6230
2.9193 0.5196 -0.6276
2.9175 0.4834 -0.6224
2.9227 0.4177 -0.6177
2.9355 0.3905 -0.6218
2.9576 0.3673 -0.6316
2.9363 0.2916 -0.6107
2.9398 0.2607 -0.6090
2.9527 0.2332 -0.6131
2.9657 0.2052 -0.6173
2.9666 0.1737 -0.6141
2.9823 0.1460 -0.6197
2.9716 0.1126 -0.6098
2.9936 0.0856 -0.6191
2.9700 0.0517 -0.6018
2.9985 0.0249 -0.6148
3.0018 -0.0050 -0.6131
3.0243 -0.0339 -0.6225
3.0221 -0.0640 -0.6177
3.0132 -0.0934 -0.6093
3.0294 -0.1231 -0.6150
3.0362 -0.1526 -0.6154
3.0403 -0.1818 -0.6143
3.0634 -0.2134 -0.6237
3.0540 -0.2407 -0.6152
3.0570 -0.2694 -0.6136
3.0912 -0.3046 -0.6288
3.1021 -0.3356 -0.6314
3.1161 -0.3677 -0.6356
3.1232 -0.3981 -0.6360
3.1263 -0.4272 -0.6344
3.1303 -0.4565 -0.6333
3.1374 -0.4867 -0.6337
3.1362 -0.5137 -0.6299
3.1587 -0.5501 -0.6384
3.1296 -0.5645 -0.6202
2.9644 -0.5359 -0.5299
2.9575 -0.5542 -0.5239
2.9685 -0.5814 -0.5270
3.1776 -0.7706 -0.6234
3.1802 -0.7973 -0.6217
3.1947 -0.8316 -0.6259
3.1983 -0.8589 -0.6248
2.7882 0.8795 -0.6289
2.7806 0.8328 -0.6186
2.7947 0.8121 -0.6245
2.7942 0.7749 -0.6195
2.8187 0.7645 -0.6329
2.8077 0.7169 -0.6204
2.8242 0.6973 -0.6279
2.8311 0.6680 -0.6283
2.8180 0.6214 -0.6147
2.8370 0.6029 -0.6238
2.8438 0.5739 -0.6243
2.8616 0.5530 -0.6323
2.8574 0.5158 -0.6252
2.8570 0.4820 -0.6207
2.8637 0.4532 -0.6212
2.8753 0.4272 -0.6249
2.8771 0.3955 -0.6220
2.8973 0.3091 -0.6234
2.9007 0.2790 -0.6216
2.8997 0.2475 -0.6171
2.9175 0.2227 -0.6247
2.9294 0.1954 -0.6285
2.9309 0.1651 -0.6256
2.9341 0.1355 -0.6239
2.9555 0.0201 -0.6223
2.9712 -0.0078 -0.6283
2.9688 -0.0369 -0.6232
2.9727 -0.0655 -0.6220
2.9877 -0.0941 -0.6274
2.9888 -0.1225 -0.6245
2.9927 -0.1509 -0.6233
3.0078 -0.1802 -0.6287
3.0059 -0.2078 -0.6242
3.0126 -0.2362 -0.6246
3.0250 -0.2658 -0.6284
3.0385 -0.2959 -0.6327
3.0452 -0.3247 -0.6332
3.0362 -0.3492 -0.6247
3.0487 -0.3794 -0.6285
3.0584 -0.4089 -0.6306
3.0721 -0.4399 -0.6349
3.0848 -0.4710 -0.6387
3.0754 -0.4935 -0.6302
3.0790 -0.5207 -0.6290
2.9734 -0.5218 -0.5655
2.9710 -0.5430 -0.5614
3.1153 -0.6647 -0.6329
3.1357 -0.7010 -0.6406
3.1393 -0.7280 -0.6394
3.1417 -0.7542 -0.6376
3.1527 -0.7856 -0.6403
3.1551 -0.8116 -0.6385
2.7337 0.8191 -0.6205
2.7575 0.7762 -0.6298
2.7735 0.7585 -0.6376
2.7638 0.6785 -0.6209
2.7725 0.6530 -0.6230
2.7617 0.6094 -0.6104
2.7831 0.5956 -0.6222
2.7983 0.5423 -0.6247
2.8065 0.4836 -0.6222
2.8233 0.3686 -0.6176
2.8248 0.3389 -0.6145
2.8262 0.3095 -0.6115
2.8399 0.2858 -0.6171
2.8579 0.2634 -0.6256
2.8618 0.2349 -0.6243
2.8589 0.2044 -0.6184
2.8601 0.1758 -0.6153
2.8638 0.1481 -0.6140
2.8848 0.1246 -0.6242
2.8886 0.0967 -0.6229
2.8932 0.0692 -0.6222
2.8889 0.0406 -0.6157
2.8880 0.0130 -0.6115
2.8970 -0.0135 -0.6136
2.8978 -0.0405 -0.6105
2.9113 -0.0670 -0.6156
2.9157 -0.0938 -0.6148
2.9238 -0.1207 -0.6164
2.9356 -0.1479 -0.6203
2.9260 -0.1731 -0.6108
2.9246 -0.1986 -0.6066
2.9488 -0.2279 -0.6181
2.9665 -0.2569 -0.6255
2.9642 -0.2821 -0.6207
2.9540 -0.3050 -0.6111
2.9631 -0.3322 -0.6133
2.9801 -0.3619 -0.6201
2.9784 -0.3862 -0.6159
3.0015 -0.4187 -0.6262
3.0138 -0.4480 -0.6302
3.0142 -0.4728 -0.6271
2.9708 -0.4787 -0.5987
2.9533 -0.4939 -0.5856
2.9417 -0.5107 -0.5760
3.0136 -0.5682 -0.6140
3.0280 -0.5989 -0.6192
3.0583 -0.6386 -0.6331
3.0583 -0.6622 -0.6300
3.0551 -0.6837 -0.6251
3.0465 -0.7014 -0.6173
3.0805 -0.7454 -0.6330
3.0922 -0.7761 -0.6364
3.1018 -0.8055 -0.6386
2.6949 0.7775 -0.6208
2.7032 0.7536 -0.6230
2.7072 0.7246 -0.6216
2.7156 0.7006 -0.6238
2.7239 0.6764 -0.6260
2.7257 0.6453 -0.6228
2.7282 0.6153 -0.6203
2.7381 0.5925 -0.6236
2.7465 0.5680 -0.6258
2.7504 0.5396 -0.6245
2.7657 0.5205 -0.6320
2.7720 0.4937 -0.6325
2.7673 0.4592 -0.6245
2.7751 0.4339 -0.6261
2.7796 0.4065 -0.6253
2.7810 0.3773 -0.6221
2.7855 0.3502 -0.6213
2.7868 0.3215 -0.6181
2.7994 0.2987 -0.6233
2.8079 0.2735 -0.6255
2.8141 0.2473 -0.6259
2.8160 0.2194 -0.6233
2.8196 0.1924 -0.6219
2.8257 0.1664 -0.6223
2.8343 0.1410 -0.6245
2.8404 0.1148 -0.6250
2.8439 0.0882 -0.6235
2.8457 0.0614 -0.6209
2.8587 0.0364 -0.6262
2.8622 0.0100 -0.6247
2.8656 -0.0163 -0.6233
2.8717 -0.0423 -0.6237
2.8759 -0.0683 -0.6229
2.8938 -0.0945 -0.6312
2.8954 -0.1205 -0.6286
2.8894 -0.1457 -0.6211
2.9094 -0.1731 -0.6306
2.9108 -0.1986 -0.6280
2.9047 -0.2226 -0.6204
2.9135 -0.2489 -0.6227
2.9243 -0.2757 -0.6261
2.9323 -0.3022 -0.6277
2.9364 -0.3276 -0.6269
2.9444 -0.3541 -0.6285
2.9436 -0.3779 -0.6247
2.9595 -0.4072 -0.6312
2.9765 -0.4374 -0.6383
2.9717 -0.4593 -0.6320
2.9516 -0.4741 -0.6164
2.9230 -0.4838 -0.5959
2.9246 -0.5063 -0.5939
2.9570 -0.5440 -0.6102
3.0021 -0.5897 -0.6340
3.0113 -0.6174 -0.6363
3.0195 -0.6448 -0.6379
3.0288 -0.6729 -0.6402
3.0179 -0.6887 -0.6307
3.0272 -0.7166 -0.6329
3.0354 -0.7440 -0.6346
2.6838 0.6391 -0.6233
2.6875 0.6115 -0.6218
2.6934 0.5863 -0.6222
2.7037 0.5345 -0.6217
2.7110 0.5107 -0.6234
2.7136 0.4533 -0.6166
2.7156 0.4256 -0.6139
2.7330 0.4087 -0.6237
2.7389 0.3836 -0.6240
2.7353 0.3527 -0.6169
2.7347 0.3244 -0.6123
2.7469 0.3031 -0.6177
2.7583 0.2809 -0.6225
2.7642 0.2559 -0.6228
2.7601 0.2269 -0.6157
2.7758 0.2059 -0.6236
2.7733 0.1780 -0.6177
2.7791 0.1533 -0.6181
2.7789 0.1270 -0.6140
2.7907 0.1038 -0.6188
2.7964 0.0790 -0.6192
2.8083 0.0553 -0.6240
2.8080 0.0295 -0.6200
2.8120 0.0046 -0.6191
2.8116 -0.0205 -0.6151
2.8253 -0.0448 -0.6211
2.8185 -0.0696 -0.6126
2.8323 -0.0942 -0.6187
2.8299 -0.1183 -0.6134
2.8512 -0.1440 -0.6246
2.8588 -0.1691 -0.6262
2.8600 -0.1933 -0.6234
2.8573 -0.2166 -0.6181
2.8649 -0.2415 -0.6197
2.8754 -0.2671 -0.6233
2.8812 -0.2918 -0.6237
2.8956 -0.3190 -0.6298
2.8946 -0.3418 -0.6257
2.8887 -0.3627 -0.6184
2.9042 -0.3906 -0.6252
2.9218 -0.4199 -0.6333
2.9277 -0.4449 -0.6337
2.9265 -0.4669 -0.6296
2.9222 -0.4871 -0.6235
2.9229 -0.5092 -0.6207
2.9408 -0.5399 -0.6288
2.9322 -0.5570 -0.6202
2.9431 -0.5842 -0.6238
2.9530 -0.6111 -0.6267
2.9566 -0.6345 -0.6258
2.9571 -0.6558 -0.6230
2.9755 -0.6884 -0.6311
2.9845 -0.7153 -0.6334
2.6246 0.7014 -0.6191
2.6330 0.6807 -0.6221
2.6386 0.6565 -0.6224
2.6464 0.6347 -0.6248
2.6471 0.6049 -0.6206
2.6606 0.5890 -0.6281
2.6598 0.5581 -0.6226
2.6640 0.5326 -0.6217
2.6696 0.5084 -0.6221
2.6737 0.4831 -0.6211
2.6876 0.4656 -0.6287
2.6812 0.4320 -0.6186
2.6906 0.4108 -0.6223
2.6962 0.3868 -0.6226
2.7034 0.3637 -0.6243
2.7051 0.3372 -0.6214
2.7146 0.3154 -0.6250
2.7234 0.2930 -0.6280
2.7202 0.2645 -0.6212
2.7202 0.2380 -0.6170
2.7282 0.2153 -0.6193
2.7312 0.1905 -0.6177
2.7335 0.1657 -0.6154
2.7540 0.1466 -0.6277
2.7504 0.1200 -0.6208
2.7576 0.0965 -0.6225
2.7572 0.0715 -0.6182
2.7671 0.0485 -0.6219
2.7804 0.0257 -0.6282
2.7817 0.0012 -0.6253
2.7811 -0.0231 -0.6210
2.7866 -0.0469 -0.6214
2.7850 -0.0706 -0.6164
2.8004 -0.0944 -0.6241
2.8114 -0.1186 -0.6284
2.8197 -0.1428 -0.6308
2.8052 -0.1645 -0.6166
2.8180 -0.1891 -0.6222
2.8403 -0.2157 -0.6346
2.8356 -0.2378 -0.6276
2.8450 -0.2625 -0.6307
2.8487 -0.2860 -0.6297
2.8562 -0.3105 -0.6314
2.8599 -0.3339 -0.6304
2.8790 -0.3624 -0.6401
2.8710 -0.3817 -0.6312
2.8727 -0.4042 -0.6289
2.8822 -0.4296 -0.6319
2.8927 -0.4557 -0.6356
2.8934 -0.4775 -0.6327
2.8989 -0.5014 -0.6330
2.9005 -0.5233 -0.6307
2.8968 -0.5422 -0.6251
2.9044 -0.5669 -0.6268
2.9171 -0.5948 -0.6318
2.9196 -0.6167 -0.6302
2.9324 -0.6450 -0.6352
2.9359 -0.6676 -0.6343
2.9436 -0.6929 -0.6360
2.6031 0.6500 -0.6226
2.6058 0.6234 -0.6202
2.6112 0.6002 -0.6206
2.6166 0.5771 -0.6210
2.6317 0.5350 -0.6257
2.6421 0.4600 -0.6214
2.6490 0.4381 -0.6231
2.6544 0.4149 -0.6235
2.6591 0.3644 -0.6187
2.6729 0.3204 -0.6222
2.6752 0.2955 -0.6198
2.6837 0.2742 -0.6229
2.6875 0.2504 -0.6219
2.6912 0.2267 -0.6208
2.6998 0.2051 -0.6239
2.6971 0.1790 -0.6175
2.6991 0.1551 -0.6151
2.7027 0.1319 -0.6140
2.7163 0.1115 -0.6212
2.7217 0.0886 -0.6216
2.7219 0.0647 -0.6178
2.7324 0.0428 -0.6223
2.7411 0.0204 -0.6254
2.7448 -0.0028 -0.6244
2.7501 -0.0257 -0.6247
2.7414 -0.0492 -0.6141
2.7608 -0.0716 -0.6255
2.7662 -0.0946 -0.6258
2.7698 -0.1174 -0.6248
2.7697 -0.1398 -0.6210
2.7786 -0.1630 -0.6241
2.7729 -0.1842 -0.6162
2.7800 -0.2071 -0.6179
2.7872 -0.2300 -0.6196
2.7943 -0.2531 -0.6214
2.7958 -0.2748 -0.6189
2.7992 -0.2968 -0.6179
2.8083 -0.3205 -0.6210
2.8212 -0.3457 -0.6269
2.8304 -0.3700 -0.6301
2.8378 -0.3937 -0.6318
2.8431 -0.4167 -0.6322
2.8386 -0.4353 -0.6256
2.8539 -0.4627 -0.6329
2.8492 -0.4808 -0.6263
2.8545 -0.5035 -0.6266
2.8659 -0.5295 -0.6311
2.8549 -0.5432 -0.6203
2.8622 -0.5669 -0.6221
2.8571 -0.5831 -0.6154
2.8686 -0.6093 -0.6200
2.8780 -0.6344 -0.6231
2.8853 -0.6584 -0.6249
2.8885 -0.6794 -0.6238
2.5640 0.6648 -0.6212
2.5652 0.6372 -0.6173
2.5744 0.6201 -0.6219
2.5755 0.5929 -0.6180
2.5835 0.5739 -0.6212
2.5887 0.5516 -0.6215
2.5995 0.5352 -0.6275
2.6062 0.5141 -0.6293
2.6014 0.4820 -0.6197
2.6138 0.4664 -0.6271
2.6176 0.4426 -0.6261
2.6199 0.4178 -0.6236
2.6221 0.3932 -0.6211
2.6318 0.3743 -0.6257
2.6324 0.3489 -0.6218
2.6422 0.3296 -0.6264
2.6428 0.3045 -0.6225
2.6433 0.2797 -0.6186
2.6531 0.2601 -0.6232
2.6583 0.2380 -0.6235
2.6635 0.2158 -0.6238
2.6622 0.1910 -0.6185
2.6738 0.1714 -0.6245
2.6872 0.1520 -0.6320
2.6809 0.1261 -0.6224
2.6894 0.1049 -0.6256
2.6912 0.0819 -0.6230
2.6913 0.0588 -0.6191
2.7049 0.0383 -0.6266
2.7066 0.0157 -0.6241
2.7118 -0.0064 -0.6244
2.7169 -0.0284 -0.6248
2.7203 -0.0506 -0.6237
2.7255 -0.0726 -0.6240
2.7375 -0.1167 -0.6261
2.7463 -0.1391 -0.6293
2.7442 -0.1604 -0.6239
2.7512 -0.1827 -0.6257
2.7581 -0.2050 -0.6275
2.7614 -0.2267 -0.6264
2.7647 -0.2483 -0.6253
2.7670 -0.2695 -0.6235
2.7806 -0.2939 -0.6303
2.7839 -0.3154 -0.6292
2.7929 -0.3388 -0.6324
2.7942 -0.3595 -0.6299
2.7935 -0.3793 -0.6259
2.8025 -0.4029 -0.6291
2.8037 -0.4231 -0.6265
2.8227 -0.4515 -0.6370
2.8219 -0.4709 -0.6330
2.8251 -0.4920 -0.6319
2.8262 -0.5118 -0.6294
2.8313 -0.5338 -0.6297
2.8426 -0.5594 -0.6344
2.8457 -0.5802 -0.6333
2.8529 -0.6036 -0.6351
2.8581 -0.6258 -0.6354
2.8653 -0.6493 -0.6372
2.5253 0.6462 -0.6118
2.5428 0.5861 -0.6157
2.5478 0.5649 -0.6160
2.5577 0.5223 -0.6167
2.5661 0.5047 -0.6207
2.5641 0.4762 -0.6137
2.5776 0.4633 -0.6228
2.5840 0.4431 -0.6246
2.5810 0.4147 -0.6169
2.5889 0.3958 -0.6201
2.5961 0.3762 -0.6227
2.6111 0.3120 -0.6237
2.6085 0.2859 -0.6166
2.6196 0.2683 -0.6228
2.6292 0.2494 -0.6276
2.6256 0.2236 -0.6198
2.6321 0.2031 -0.6216
2.6371 0.1819 -0.6220
2.6477 0.1627 -0.6275
2.6454 0.1388 -0.6211
2.6520 0.1180 -0.6229
2.6553 0.0963 -0.6218
2.6578 0.0745 -0.6199
2.6569 0.0522 -0.6150
2.6643 0.0317 -0.6176
2.6751 0.0114 -0.6231
2.6715 -0.0106 -0.6160
2.6747 -0.0317 -0.6148
2.6857 -0.0524 -0.6204
2.6967 -0.0735 -0.6259
2.6911 -0.0944 -0.6173
2.7031 -0.1158 -0.6236
2.7134 -0.1375 -0.6284
2.7040 -0.1571 -0.6168
2.7106 -0.1782 -0.6186
2.7164 -0.1993 -0.6197
2.7204 -0.2201 -0.6192
2.7299 -0.2422 -0.6233
2.7255 -0.2608 -0.6161
2.7285 -0.2810 -0.6150
2.7362 -0.3027 -0.6175
2.7563 -0.3288 -0.6298
2.7507 -0.3462 -0.6219
2.7556 -0.3671 -0.6222
2.7692 -0.3918 -0.6293
2.7712 -0.4117 -0.6274
2.7762 -0.4329 -0.6277
2.7821 -0.4545 -0.6288
2.7791 -0.4715 -0.6231
2.7850 -0.4930 -0.6242
2.7868 -0.5123 -0.6223
2.7948 -0.5350 -0.6248
2.7986 -0.5553 -0.6244
2.8015 -0.5749 -0.6232
2.8094 -0.5979 -0.6258
2.8216 -0.6238 -0.6314
2.4995 0.6710 -0.6194
2.5057 0.6522 -0.6213
2.5118 0.6333 -0.6231
2.5167 0.6125 -0.6234
2.5202 0.5899 -0.6222
2.5237 0.5675 -0.6210
2.5231 0.5402 -0.6153
2.5396 0.5069 -0.6235
2.5409 0.4825 -0.6200
2.5422 0.4583 -0.6165
2.5484 0.4392 -0.6184
2.5554 0.4206 -0.6210
2.5638 0.4031 -0.6251
2.5657 0.3800 -0.6224
2.5676 0.3570 -0.6196
2.5694 0.3343 -0.6169
2.5735 0.3133 -0.6165
2.5827 0.2959 -0.6214
2.5830 0.2725 -0.6171
2.5885 0.2526 -0.6182
2.5925 0.2317 -0.6177
2.6019 0.2136 -0.6226
2.6083 0.1938 -0.6245
2.6179 0.1525 -0.6251
2.6251 0.1105 -0.6235
2.6332 0.0909 -0.6268
2.6330 0.0691 -0.6226
2.6428 0.0496 -0.6275
2.6368 0.0272 -0.6178
2.6449 0.0073 -0.6212
2.6522 -0.0128 -0.6238
2.6552 -0.0334 -0.6226
2.6574 -0.0539 -0.6206
2.6639 -0.0743 -0.6225
2.6765 -0.0949 -0.6297
2.6734 -0.1151 -0.6231
2.6791 -0.1356 -0.6242
2.6856 -0.1562 -0.6260
2.6841 -0.1757 -0.6209
2.6925 -0.1967 -0.6243
2.6954 -0.2167 -0.6231
2.7075 -0.2388 -0.6296
2.7067 -0.2579 -0.6253
2.7068 -0.2769 -0.6217
2.7125 -0.2975 -0.6228
2.7191 -0.3184 -0.6247
2.7239 -0.3388 -0.6250
2.7382 -0.3630 -0.6331
2.7440 -0.3840 -0.6342
2.7449 -0.4029 -0.6314
2.7399 -0.4188 -0.6239
2.7398 -0.4366 -0.6203
2.7494 -0.4593 -0.6245
2.7541 -0.4796 -0.6249
2.7639 -0.5027 -0.6291
2.7747 -0.5267 -0.6341
2.7815 -0.5486 -0.6359
2.7863 -0.5692 -0.6363
2.7921 -0.5905 -0.6374
2.7908 -0.6069 -0.6330
1.0766 0.3205 -0.6254
1.0890 0.2957 -0.6195
1.1004 0.2719 -0.6145
1.1271 0.1882 -0.6088
1.1326 0.1681 -0.6083
1.1334 0.1498 -0.6117
1.1380 0.1300 -0.6120
1.1335 0.1132 -0.6199
1.1473 0.0529 -0.6208
1.1590 0.0312 -0.6150
1.1732 0.0095 -0.6068
1.1673 -0.0084 -0.6163
1.1770 -0.0290 -0.6120
1.1876 -0.0493 -0.6069
1.1915 -0.0882 -0.6121
1.1985 -0.1080 -0.6101
1.2030 -0.1276 -0.6104
1.2167 -0.1467 -0.6022
1.2211 -0.1660 -0.6025
1.2166 -0.1865 -0.6113
1.2203 -0.2063 -0.6123
1.2304 -0.2248 -0.6072
1.2317 -0.2450 -0.6106
1.2299 -0.2663 -0.6171
1.2391 -0.2847 -0.6127
1.2483 -0.3027 -0.6084
1.2520 -0.3225 -0.6094
1.2550 -0.3426 -0.6113
1.2610 -0.3615 -0.6100
1.2662 -0.3806 -0.6095
1.2662 -0.4025 -0.6145
1.2707 -0.4221 -0.6148
1.2796 -0.4390 -0.6104
1.2841 -0.4585 -0.6107
1.2864 -0.4795 -0.6133
1.2845 -0.5039 -0.6206
1.2954 -0.5186 -0.6139
1.2999 -0.5382 -0.6142
1.3037 -0.5583 -0.6153
1.3089 -0.5773 -0.6148
1.3127 -0.5975 -0.6159
1.3131 -0.6213 -0.6208
1.3237 -0.6345 -0.6141
1.3302 -0.6517 -0.6120
1.3333 -0.6727 -0.6139
1.3352 -0.6954 -0.6173
1.3403 -0.7142 -0.6168
1.3429 -0.7363 -0.6195
1.3493 -0.7533 -0.6174
1.3569 -0.7682 -0.6138
1.3602 -0.7895 -0.6156
1.3659 -0.8071 -0.6143
1.3703 -0.8265 -0.6146
1.3712 -0.8521 -0.6197
1.3757 -0.8716 -0.6199
1.3825 -0.8869 -0.6171
1.3852 -0.9097 -0.6197
1.0389 0.3741 -0.6216
1.0447 0.3525 -0.6211
1.0544 0.3286 -0.6178
1.0631 0.3056 -0.6151
1.0611 0.2885 -0.6206
1.0640 0.2685 -0.6224
1.0726 0.2457 -0.6198
1.0822 0.2226 -0.6164
1.0822 0.2039 -0.6204
1.0870 0.1830 -0.6207
1.0965 0.1603 -0.6173
1.0966 0.1412 -0.6213
1.1060 0.1188 -0.6179
1.1153 0.0967 -0.6145
1.1047 0.0803 -0.6274
1.1077 0.0597 -0.6292
1.1384 0.0330 -0.6080
1.1387 0.0134 -0.6120
1.1481 -0.0275 -0.6126
1.1511 -0.0478 -0.6144
1.1907 -0.1907 -0.6106
1.2061 -0.2728 -0.6148
1.2202 -0.3120 -0.6109
1.2233 -0.3329 -0.6127
1.2365 -0.3718 -0.6096
1.2473 -0.4113 -0.6087
1.2564 -0.4288 -0.6044
1.2647 -0.4465 -0.6010
1.2607 -0.4954 -0.6151
1.2682 -0.5136 -0.6124
1.2818 -0.5504 -0.6085
1.2833 -0.5976 -0.6174
1.2921 -0.6139 -0.6132
1.2961 -0.6348 -0.6142
1.2973 -0.6586 -0.6183
1.3074 -0.6729 -0.6126
1.3120 -0.6930 -0.6129
1.3120 -0.7189 -0.6185
1.3199 -0.7350 -0.6150
1.3246 -0.7552 -0.6153
1.3305 -0.7735 -0.6141
1.3370 -0.7909 -0.6121
1.3447 -0.8611 -0.6206
1.3581 -0.9231 -0.6223
1.0369 0.2967 -0.6135
1.0399 0.2762 -0.6152
1.0644 0.1882 -0.6129
1.0730 0.1655 -0.6104
1.0858 0.1022 -0.6128
1.0944 0.0799 -0.6102
1.0975 0.0591 -0.6120
1.1050 0.0373 -0.6101
1.1135 0.0155 -0.6076
1.1210 -0.0060 -0.6058
1.1196 -0.0263 -0.6111
1.1354 -0.0690 -0.6067
1.1377 -0.0899 -0.6092
1.1355 -0.1324 -0.6199
1.1589 -0.1527 -0.6043
1.1596 -0.1740 -0.6083
1.1702 -0.1942 -0.6035
1.1725 -0.2154 -0.6060
1.1716 -0.2374 -0.6114
1.1748 -0.2589 -0.6131
1.1893 -0.2774 -0.6048
1.1917 -0.2990 -0.6072
1.1965 -0.3198 -0.6076
1.1942 -0.3434 -0.6144
1.2030 -0.3629 -0.6111
1.2148 -0.3807 -0.6049
1.2157 -0.4034 -0.6088
1.2258 -0.4214 -0.6040
1.2253 -0.4451 -0.6094
1.2286 -0.4670 -0.6112
1.2371 -0.4855 -0.6079
1.2330 -0.5124 -0.6169
1.2430 -0.5298 -0.6121
1.2464 -0.5519 -0.6139
1.2526 -0.5717 -0.6128
1.2539 -0.5957 -0.6167
1.2573 -0.6181 -0.6185
1.2685 -0.6331 -0.6122
1.2684 -0.6589 -0.6176
1.2781 -0.6749 -0.6129
1.2801 -0.6988 -0.6161
1.2877 -0.7166 -0.6135
1.2945 -0.7351 -0.6116
1.3019 -0.7525 -0.6090
1.3040 -0.7767 -0.6122
1.3068 -0.8002 -0.6147
1.3104 -0.8229 -0.6165
1.3164 -0.8420 -0.6153
1.3200 -0.8648 -0.6171
1.3248 -0.8857 -0.6174
1.3277 -0.9098 -0.6199
1.3313 -0.9329 -0.6217
1.3350 -0.9562 -0.6235
1.3452 -0.9673 -0.6172
0.9815 0.3606 -0.6190
0.9945 0.3338 -0.6139
0.9957 0.3135 -0.6170
1.0048 0.2891 -0.6145
1.0119 0.2659 -0.6135
1.0170 0.2436 -0.6138
1.0087 0.2270 -0.6238
1.0291 0.1983 -0.6131
1.0153 0.1831 -0.6272
1.0393 0.1539 -0.6138
1.0407 0.1329 -0.6169
1.0523 0.1086 -0.6124
1.0454 0.0897 -0.6217
1.0625 0.0644 -0.6131
1.0576 0.0443 -0.6210
1.0663 0.0212 -0.6185
1.0819 -0.0240 -0.6151
1.0800 -0.0456 -0.6209
1.0921 -0.0684 -0.6157
1.1049 -0.1127 -0.6143
1.1201 -0.1565 -0.6108
1.1419 -0.2438 -0.6107
1.1387 -0.2676 -0.6180
1.1620 -0.3313 -0.6120
1.1623 -0.3550 -0.6165
1.1720 -0.3750 -0.6127
1.1771 -0.3969 -0.6130
1.1937 -0.4616 -0.6126
1.1972 -0.4843 -0.6143
1.2167 -0.5467 -0.6111
1.2224 -0.5678 -0.6107
1.2237 -0.5924 -0.6145
1.2302 -0.6130 -0.6135
1.2280 -0.6413 -0.6208
1.2373 -0.6592 -0.6169
1.2487 -0.6747 -0.6109
1.2712 -0.8140 -0.6206
1.2876 -0.8779 -0.6202
1.3033 -0.9125 -0.6145
1.3064 -0.9372 -0.6169
1.3132 -0.9558 -0.6151
1.3194 -0.9752 -0.6140
0.9624 0.3053 -0.6169
0.9697 0.2811 -0.6159
0.9770 0.2570 -0.6149
0.9823 0.2337 -0.6153
0.9857 0.2113 -0.6170
0.9930 0.1873 -0.6160
1.0040 0.1622 -0.6124
1.0055 0.1403 -0.6154
1.0162 0.0939 -0.6160
1.0252 0.0699 -0.6137
1.0369 0.0456 -0.6094
1.0421 0.0227 -0.6098
1.0544 -0.0232 -0.6091
1.0631 -0.0688 -0.6111
1.0684 -0.0916 -0.6115
1.0736 -0.1145 -0.6118
1.0927 -0.1369 -0.6015
1.0927 -0.1597 -0.6058
1.0996 -0.1821 -0.6049
1.0963 -0.2058 -0.6119
1.1083 -0.2274 -0.6069
1.1151 -0.2497 -0.6059
1.1137 -0.2738 -0.6115
1.1304 -0.2935 -0.6025
1.1307 -0.3173 -0.6069
1.1310 -0.3415 -0.6112
1.1458 -0.3606 -0.6035
1.1367 -0.3889 -0.6159
1.1482 -0.4089 -0.6109
1.1566 -0.4300 -0.6085
1.1524 -0.4575 -0.6169
1.1685 -0.4742 -0.6079
1.1721 -0.4977 -0.6096
1.1727 -0.5232 -0.6139
1.1810 -0.5438 -0.6116
1.1750 -0.5746 -0.6220
1.1884 -0.5913 -0.6149
1.1921 -0.6152 -0.6166
1.2032 -0.6329 -0.6116
1.2012 -0.6620 -0.6187
1.2107 -0.6807 -0.6149
1.2187 -0.7005 -0.6126
1.2211 -0.7260 -0.6156
1.2277 -0.7471 -0.6146
1.2384 -0.7634 -0.6095
1.2408 -0.7891 -0.6126
1.2446 -0.8132 -0.6143
1.2484 -0.8375 -0.6160
1.2550 -0.8583 -0.6149
1.2601 -0.8809 -0.6153
1.2640 -0.9053 -0.6170
1.2705 -0.9259 -0.6159
1.2744 -0.9505 -0.6176
1.2809 -0.9710 -0.6166
1.2873 -0.9914 -0.6156
1.2925 -1.0139 -0.6159
1.2964 -1.0387 -0.6176
0.8966 0.3978 -0.6199
0.9122 0.3679 -0.6140
0.9128 0.3463 -0.6175
0.9115 0.3253 -0.6223
0.9171 0.3007 -0.6227
0.9179 0.2783 -0.6262
0.9333 0.2496 -0.6202
0.9389 0.2252 -0.6206
0.9464 0.2001 -0.6197
0.9520 0.1757 -0.6200
0.9623 0.1499 -0.6172
0.9679 0.1257 -0.6176
0.9874 0.0753 -0.6126
0.9818 0.0536 -0.6206
0.9894 0.0055 -0.6239
0.9986 -0.0194 -0.6217
1.0230 -0.0453 -0.6087
1.0204 -0.0686 -0.6147
1.0312 -0.0927 -0.6113
1.0349 -0.1165 -0.6129
1.0387 -0.1404 -0.6145
1.0531 -0.1879 -0.6127
1.0586 -0.2118 -0.6130
1.0666 -0.2351 -0.6115
1.0678 -0.2597 -0.6150
1.0717 -0.2840 -0.6167
1.0846 -0.3059 -0.6113
1.0993 -0.3776 -0.6136
1.1243 -0.4709 -0.6124
1.1281 -0.4954 -0.6141
1.1544 -0.5868 -0.6116
1.1598 -0.6103 -0.6120
1.1662 -0.6611 -0.6166
1.1666 -0.6894 -0.6214
1.1735 -0.7119 -0.6205
1.1761 -0.7386 -0.6235
1.1830 -0.7610 -0.6225
1.1899 -0.7834 -0.6216
1.2051 -0.7961 -0.6128
1.2084 -0.8523 -0.6207
1.2193 -0.8690 -0.6158
1.2280 -0.8880 -0.6129
1.2374 -0.9367 -0.6149
1.2441 -0.9582 -0.6140
1.2482 -0.9836 -0.6156
1.2517 -1.0101 -0.6179
1.2520 -1.0422 -0.6235
1.2625 -1.0572 -0.6186
0.8944 0.2837 -0.6121
0.9156 0.1837 -0.6148
0.9377 0.1069 -0.6129
0.9519 0.0800 -0.6078
0.9529 0.0560 -0.6112
0.9633 0.0303 -0.6086
0.9763 0.0045 -0.6040
0.9747 -0.0193 -0.6093
0.9786 -0.0440 -0.6109
1.0001 -0.1186 -0.6089
1.0159 -0.1678 -0.6066
1.0232 -0.1922 -0.6058
1.0126 -0.2190 -0.6178
1.0388 -0.2406 -0.6034
1.0419 -0.2655 -0.6056
1.0389 -0.3183 -0.6168
1.0529 -0.3408 -0.6110
1.0701 -0.3615 -0.6028
1.0756 -0.4125 -0.6078
1.0797 -0.4377 -0.6094
1.0869 -0.4615 -0.6085
1.0893 -0.4876 -0.6114
1.1005 -0.5091 -0.6074
1.0968 -0.5392 -0.6152
1.1024 -0.5639 -0.6156
1.1097 -0.5876 -0.6147
1.1245 -0.6057 -0.6076
1.1285 -0.6312 -0.6092
1.1342 -0.6556 -0.6096
1.1412 -0.6788 -0.6087
1.1380 -0.7111 -0.6166
1.1459 -0.7337 -0.6151
1.1530 -0.7569 -0.6142
1.1550 -0.7851 -0.6177
1.1628 -0.8075 -0.6162
1.1699 -0.8305 -0.6153
1.1707 -0.8608 -0.6200
1.1826 -0.8779 -0.6148
1.1820 -0.9103 -0.6207
1.1891 -0.9333 -0.6199
1.2042 -0.9449 -0.6115
1.2004 -0.9826 -0.6206
1.2140 -0.9955 -0.6134
1.2117 -1.0320 -0.6213
1.2297 -1.0369 -0.6098
1.2308 -1.0686 -0.6145
1.2351 -1.0951 -0.6162
1.2388 -1.1229 -0.6184
0.7881 0.4461 -0.6252
0.8085 0.4116 -0.6176
0.8177 0.3835 -0.6162
0.8238 0.3569 -0.6166
0.8349 0.3281 -0.6141
0.8332 0.2808 -0.6230
0.8453 0.2518 -0.6199
0.8514 0.2251 -0.6203
0.8652 0.1960 -0.6161
0.8771 0.1678 -0.6130
0.8726 0.1444 -0.6198
0.8787 0.1178 -0.6202
0.8792 0.0925 -0.6241
0.8928 0.0644 -0.6198
0.9232 -0.0682 -0.6218
0.9275 -0.0946 -0.6233
0.9408 -0.1211 -0.6191
0.9529 -0.1738 -0.6198
0.9580 -0.2274 -0.6253
0.9616 -0.2544 -0.6275
0.9796 -0.2787 -0.6197
0.9942 -0.3029 -0.6142
1.0027 -0.3282 -0.6128
0.9952 -0.3582 -0.6226
1.0054 -0.3831 -0.6200
1.0180 -0.4069 -0.6157
1.0330 -0.4292 -0.6096
1.0408 -0.4825 -0.6133
1.0355 -0.5142 -0.6220
1.0463 -0.5377 -0.6188
1.0476 -0.5666 -0.6228
1.0704 -0.6116 -0.6153
1.0641 -0.6463 -0.6251
1.0800 -0.6650 -0.6178
1.0777 -0.6976 -0.6247
1.0919 -0.7169 -0.6186
1.0882 -0.7514 -0.6267
1.0980 -0.7742 -0.6241
1.1098 -0.7946 -0.6197
1.1063 -0.8302 -0.6279
1.1217 -0.8464 -0.6205
1.1258 -0.9073 -0.6279
1.1417 -0.9216 -0.6199
1.1549 -0.9714 -0.6195
1.1642 -0.9925 -0.6168
1.1780 -1.0408 -0.6158
1.1910 -1.0899 -0.6154
1.2040 -1.1036 -0.6091
1.2066 -1.1343 -0.6125
0.7344 0.4691 -0.6233
0.7531 0.4345 -0.6171
0.7437 0.3892 -0.6301
0.7412 0.3647 -0.6355
0.7638 0.3292 -0.6271
0.7798 0.2714 -0.6263
0.8395 0.1999 -0.6005
0.8167 0.1815 -0.6176
0.8230 0.1538 -0.6180
0.8620 0.0668 -0.6075
0.8897 -0.0422 -0.6075
0.8987 -0.0694 -0.6062
0.9093 -0.1508 -0.6125
0.9386 -0.1764 -0.5983
0.9271 -0.2048 -0.6099
0.9369 -0.2595 -0.6124
0.9578 -0.2837 -0.6033
0.9670 -0.3667 -0.6107
0.9757 -0.3928 -0.6094
0.9885 -0.4173 -0.6053
0.9971 -0.4430 -0.6040
1.0057 -0.4685 -0.6027
1.0045 -0.4986 -0.6082
1.0066 -0.5275 -0.6114
1.0144 -0.5536 -0.6107
1.0206 -0.5805 -0.6111
1.0339 -0.6028 -0.6064
1.0376 -0.6311 -0.6085
1.0484 -0.6545 -0.6055
1.0476 -0.6863 -0.6110
1.0515 -0.7149 -0.6131
1.0562 -0.7431 -0.6146
1.0623 -0.7700 -0.6150
1.0767 -0.7893 -0.6091
1.0747 -0.8239 -0.6158
1.0743 -0.8575 -0.6213
1.0828 -0.8824 -0.6200
1.0911 -0.9071 -0.6187
1.0995 -0.9317 -0.6174
1.1071 -0.9569 -0.6167
1.1077 -0.9908 -0.6216
1.1180 -1.0125 -0.6186
1.1277 -1.0347 -0.6162
1.1400 -1.0529 -0.6114
1.1380 -1.0913 -0.6187
1.1522 -1.1060 -0.6122
1.1563 -1.1357 -0.6143
1.1624 -1.1623 -0.6147
1.1627 -1.1989 -0.6203
1.1727 -1.2190 -0.6172
0.6960 0.4577 -0.6147
0.7058 0.4270 -0.6136
0.7094 0.3993 -0.6156
0.7162 0.3701 -0.6160
0.7158 0.3438 -0.6201
0.7196 0.3155 -0.6222
0.7363 0.2824 -0.6173
0.7460 0.2522 -0.6162
0.7566 0.2218 -0.6145
0.7564 0.1947 -0.6186
0.7631 0.1655 -0.6191
0.7670 0.1370 -0.6211
0.7861 0.1050 -0.6147
0.7738 0.0796 -0.6257
0.7768 0.0507 -0.6282
0.8061 0.0182 -0.6160
0.8305 -0.0126 -0.6063
0.8166 -0.0395 -0.6184
0.8104 -0.0680 -0.6263
0.8208 -0.0975 -0.6246
0.8457 -0.1265 -0.6144
0.8726 -0.2713 -0.6203
0.8906 -0.2980 -0.6138
0.9011 -0.3559 -0.6162
0.9018 -0.3864 -0.6204
0.9343 -0.4369 -0.6089
0.9250 -0.4716 -0.6195
0.9283 -0.5018 -0.6221
0.9456 -0.5256 -0.6156
0.9676 -0.6097 -0.6152
0.9646 -0.6442 -0.6221
0.9839 -0.6644 -0.6139
0.9904 -0.6928 -0.6143
1.0003 -0.7519 -0.6174
1.0088 -0.8127 -0.6214
1.0154 -0.8413 -0.6219
1.0220 -0.8699 -0.6223
1.0263 -0.9008 -0.6244
1.0329 -0.9294 -0.6248
1.0489 -0.9477 -0.6181
1.0526 -0.9793 -0.6207
1.0570 -1.0103 -0.6228
1.0571 -1.0468 -0.6281
1.0588 -1.0819 -0.6324
1.0676 -1.1081 -0.6312
1.1220 -1.2181 -0.6158
1.1383 -1.2296 -0.6080
0.5852 0.5076 -0.6351
0.6049 0.4697 -0.6296
0.6245 0.4325 -0.6241
0.6388 0.3981 -0.6211
0.6713 0.2725 -0.6209
0.7320 0.1124 -0.6102
0.7389 0.0822 -0.6106
0.7525 0.0509 -0.6076
0.7532 -0.0079 -0.6155
0.7839 -0.0695 -0.6074
0.7908 -0.0995 -0.6078
0.7876 -0.1296 -0.6138
0.8042 -0.1899 -0.6132
0.8252 -0.2492 -0.6100
0.8409 -0.2777 -0.6054
0.8451 -0.3079 -0.6074
0.8606 -0.3356 -0.6027
0.8674 -0.3651 -0.6032
0.8828 -0.3920 -0.5985
0.8818 -0.4558 -0.6081
0.8970 -0.4820 -0.6034
0.9038 -0.5114 -0.6038
0.9047 -0.5436 -0.6079
0.9066 -0.5758 -0.6114
0.9135 -0.6055 -0.6118
0.9340 -0.6272 -0.6036
0.9308 -0.6970 -0.6152
0.9455 -0.7213 -0.6105
0.9523 -0.7509 -0.6110
0.9677 -0.7737 -0.6057
0.9690 -0.8075 -0.6098
0.9781 -0.8350 -0.6087
0.9826 -0.8665 -0.6107
0.9818 -0.9032 -0.6162
0.9932 -0.9285 -0.6136
1.0029 -0.9550 -0.6120
0.9972 -0.9981 -0.6212
1.0165 -1.0140 -0.6129
1.0254 -1.0409 -0.6117
1.0272 -1.0765 -0.6158
1.0297 -1.1116 -0.6194
1.0436 -1.1319 -0.6146
1.0455 -1.1682 -0.6187
1.0502 -1.2009 -0.6207
1.0612 -1.2245 -0.6180
1.0659 -1.2572 -0.6200
1.0707 -1.2902 -0.6220
1.0816 -1.3133 -0.6193
1.0864 -1.3463 -0.6213
0.5495 0.4896 -0.6196
0.5529 0.4587 -0.6220
0.5697 0.4218 -0.6182
0.5772 0.3891 -0.6187
0.5715 0.3615 -0.6253
0.5832 0.3271 -0.6239
0.5947 0.2928 -0.6225
0.6023 0.2600 -0.6230
0.6098 0.2272 -0.6235
0.6223 0.1931 -0.6216
0.6249 0.1616 -0.6245
0.6412 0.1270 -0.6207
0.6561 0.0619 -0.6217
0.6674 0.0288 -0.6203
0.6936 -0.0368 -0.6155
0.6935 -0.0687 -0.6198
0.7047 -0.1011 -0.6184
0.7158 -0.1332 -0.6169
0.7231 -0.1654 -0.6174
0.7378 -0.1969 -0.6141
0.7415 -0.2292 -0.6165
0.7309 -0.2638 -0.6265
0.7633 -0.2920 -0.6136
0.7671 -0.3245 -0.6160
0.7709 -0.3573 -0.6184
0.7608 -0.3940 -0.6285
0.7926 -0.4192 -0.6155
0.7896 -0.4545 -0.6217
0.8072 -0.4828 -0.6164
0.8077 -0.5174 -0.6208
0.8117 -0.5509 -0.6232
0.8224 -0.5814 -0.6217
0.8265 -0.6151 -0.6241
0.8536 -0.6364 -0.6130
0.8575 -0.6698 -0.6154
0.8899 -0.6856 -0.6008
0.9339 -0.6918 -0.5789
0.9375 -0.7235 -0.5813
0.8897 -0.7938 -0.6153
0.8781 -0.8400 -0.6275
0.8886 -0.8696 -0.6260
0.8960 -0.9016 -0.6265
0.9095 -0.9281 -0.6231
0.9198 -0.9570 -0.6216
0.9301 -0.9856 -0.6201
0.9433 -1.0110 -0.6166
0.9620 -1.1085 -0.6200
0.9491 -1.1649 -0.6342
0.9565 -1.1971 -0.6347
0.9724 -1.2180 -0.6293
0.9882 -1.2383 -0.6239
1.0010 -1.2619 -0.6204
0.9999 -1.3056 -0.6268
1.0154 -1.3247 -0.6213
1.0301 -1.3442 -0.6164
0.4505 0.5297 -0.6254
0.4585 0.4946 -0.6259
0.5220 0.2791 -0.6224
0.5683 0.0371 -0.6305
0.6452 -0.0698 -0.6068
0.6631 -0.2048 -0.6151
0.7406 -0.3307 -0.5936
0.7365 -0.3659 -0.6000
0.7406 -0.3996 -0.6023
0.7368 -0.4360 -0.6087
0.7444 -0.4693 -0.6092
0.7521 -0.5025 -0.6097
0.7529 -0.5386 -0.6138
