ply
format ascii 1.0
element vertex 2199
property float x
property float y
property float z
end_header
6.0379 2.5050 -0.2045
6.0392 2.5437 -0.2082
6.0266 2.5598 -0.2068
6.0000 2.5504 -0.2001
5.9789 2.5488 -0.1953
5.9583 2.5462 -0.1905
6.0466 1.3469 -0.0908
6.0560 1.3559 -0.0933
6.0513 1.3698 -0.0935
6.0501 1.3827 -0.0943
6.0499 1.3955 -0.0952
6.0565 1.4067 -0.0974
6.0505 1.4213 -0.0973
6.0501 1.4348 -0.0983
6.0442 1.4494 -0.0983
6.0481 1.4624 -0.1001
6.0442 1.4769 -0.1005
6.0479 1.4905 -0.1022
6.0472 1.5050 -0.1032
6.0474 1.5196 -0.1044
6.0434 1.5347 -0.1048
6.0435 1.5497 -0.1060
6.0415 1.5650 -0.1068
6.0445 1.5806 -0.1086
6.0453 1.5965 -0.1100
6.0360 1.6119 -0.1094
6.0378 1.6283 -0.1110
6.0404 1.6452 -0.1128
6.0509 1.6814 -0.1177
6.0453 1.6980 -0.1179
6.0350 1.7134 -0.1171
6.0417 1.7334 -0.1199
6.0482 1.7540 -0.1228
6.0462 1.7725 -0.1238
6.0449 1.7915 -0.1251
6.0400 1.8092 -0.1255
6.0485 1.8331 -0.1290
6.0443 1.8517 -0.1296
6.0400 1.8705 -0.1303
6.0358 1.8894 -0.1309
6.0409 1.9140 -0.1338
6.0442 1.9383 -0.1364
6.0438 1.9608 -0.1380
6.0486 2.0358 -0.1448
6.0418 2.1327 -0.1510
6.0404 2.1584 -0.1528
6.0458 2.1916 -0.1564
6.0370 2.2392 -0.1584
6.0396 2.2717 -0.1614
6.0419 2.3048 -0.1644
6.0360 2.3284 -0.1651
6.0287 2.3501 -0.1654
6.0298 2.3837 -0.1682
6.0383 2.4631 -0.1761
6.0474 2.5127 -0.1817
6.0442 2.5439 -0.1835
6.0315 2.5599 -0.1823
6.0073 2.5550 -0.1772
5.9912 2.5628 -0.1747
5.9615 2.5436 -0.1674
5.9486 2.5543 -0.1657
6.0502 1.3483 -0.0770
6.0468 1.3615 -0.0773
6.0503 1.3726 -0.0787
6.0503 1.3851 -0.0795
6.0502 1.3978 -0.0804
6.0546 1.4096 -0.0819
6.0509 1.4236 -0.0823
6.0472 1.4376 -0.0826
6.0502 1.4505 -0.0840
6.0497 1.4642 -0.0849
6.0481 1.4784 -0.0856
6.0442 1.4929 -0.0859
6.0458 1.5070 -0.0871
6.0472 1.5214 -0.0884
6.0506 1.5361 -0.0899
6.0496 1.5512 -0.0908
6.0476 1.5822 -0.0926
6.0454 1.5979 -0.0933
6.0361 1.6131 -0.0928
6.0449 1.6303 -0.0955
6.0426 1.6465 -0.0962
6.0402 1.6630 -0.0969
6.0455 1.6812 -0.0990
6.0439 1.6984 -0.1000
6.0432 1.7160 -0.1010
6.0519 1.7367 -0.1039
6.0414 1.7522 -0.1032
6.0414 1.7709 -0.1045
6.0394 1.7893 -0.1054
6.0409 1.8095 -0.1071
6.0351 1.8268 -0.1073
6.0409 1.8497 -0.1099
6.0359 1.8678 -0.1103
6.0423 1.8922 -0.1130
6.0440 1.9149 -0.1148
6.0413 1.9353 -0.1158
6.0402 1.9571 -0.1171
6.0374 1.9780 -0.1181
6.0428 2.0053 -0.1208
6.0447 2.0307 -0.1229
6.0447 2.0553 -0.1246
6.0484 2.1095 -0.1289
6.0432 2.1310 -0.1296
6.0466 2.1612 -0.1322
6.0413 2.1833 -0.1328
6.0328 2.2021 -0.1327
6.0358 2.2337 -0.1354
6.0355 2.2624 -0.1373
6.0432 2.3015 -0.1413
6.0388 2.3268 -0.1423
6.0387 2.3581 -0.1444
6.0370 2.3879 -0.1462
6.0401 2.4252 -0.1492
6.0366 2.4884 -0.1530
6.0349 2.5212 -0.1550
6.0318 2.5523 -0.1566
6.0061 2.5447 -0.1518
5.9836 2.5405 -0.1477
5.9698 2.5506 -0.1461
5.9662 2.5797 -0.1475
6.0514 1.3505 -0.0629
6.0504 1.3629 -0.0634
6.0493 1.3755 -0.0640
6.0493 1.3879 -0.0648
6.0493 1.4004 -0.0655
6.0537 1.4121 -0.0669
6.0513 1.4258 -0.0673
6.0465 1.4399 -0.0675
6.0484 1.4529 -0.0685
6.0491 1.4664 -0.0694
6.0487 1.4803 -0.0702
6.0470 1.4945 -0.0708
6.0464 1.5088 -0.0716
6.0404 1.5236 -0.0716
6.0524 1.5377 -0.0742
6.0484 1.5529 -0.0745
6.0485 1.5681 -0.0754
6.0434 1.5991 -0.0766
6.0402 1.6147 -0.0770
6.0471 1.6316 -0.0790
6.0438 1.6477 -0.0795
6.0454 1.6648 -0.0808
6.0390 1.6807 -0.0808
6.0414 1.6985 -0.0822
6.0475 1.7177 -0.0842
6.0429 1.7346 -0.0846
6.0430 1.7530 -0.0857
6.0383 1.7700 -0.0860
6.0401 1.7896 -0.0875
6.0424 1.8297 -0.0902
6.0338 1.8458 -0.0899
6.0352 1.8668 -0.0914
6.0452 1.8931 -0.0943
6.0462 1.9152 -0.0958
6.0427 1.9350 -0.0965
6.0400 1.9555 -0.0973
6.0440 1.9810 -0.0994
6.0402 2.0016 -0.1001
6.0322 2.0191 -0.1000
6.0375 2.0472 -0.1025
6.0417 2.0754 -0.1047
6.0448 2.1036 -0.1068
6.0453 2.1301 -0.1085
6.0457 2.1571 -0.1102
6.0412 2.1797 -0.1109
6.0375 2.2033 -0.1118
6.0422 2.2955 -0.1179
6.0383 2.4163 -0.1246
6.0413 2.4542 -0.1273
6.0413 2.4886 -0.1293
6.0376 2.5181 -0.1306
6.0440 2.5647 -0.1342
6.0181 2.5574 -0.1302
5.9992 2.5603 -0.1277
5.9781 2.5576 -0.1246
6.0559 1.3397 -0.0486
6.0526 1.3527 -0.0488
6.0528 1.3647 -0.0495
6.0505 1.3776 -0.0499
6.0494 1.3902 -0.0504
6.0471 1.4034 -0.0508
6.0471 1.4161 -0.0514
6.0516 1.4280 -0.0526
6.0536 1.4407 -0.0534
6.0488 1.4550 -0.0536
6.0496 1.4684 -0.0544
6.0437 1.4829 -0.0544
6.0487 1.4962 -0.0557
6.0438 1.5108 -0.0559
6.0421 1.5253 -0.0564
6.0436 1.5397 -0.0573
6.0450 1.5545 -0.0582
6.0441 1.5696 -0.0589
6.0453 1.5849 -0.0598
6.0443 1.6004 -0.0605
6.0463 1.6165 -0.0615
6.0462 1.6326 -0.0623
6.0409 1.6483 -0.0625
6.0466 1.6659 -0.0641
6.0442 1.6825 -0.0646
6.0398 1.6988 -0.0650
6.0470 1.7181 -0.0668
6.0473 1.7362 -0.0677
6.0446 1.7537 -0.0683
6.0456 1.7727 -0.0694
6.0418 1.7903 -0.0698
6.0417 1.8095 -0.0708
6.0461 1.8311 -0.0724
6.0402 1.8484 -0.0726
6.0452 1.8714 -0.0743
6.0428 1.8910 -0.0751
6.0404 1.9108 -0.0758
6.0379 1.9309 -0.0765
6.0353 1.9511 -0.0772
6.0352 1.9734 -0.0784
6.0409 2.0004 -0.0804
6.0414 2.0242 -0.0816
6.0359 2.0438 -0.0820
6.0419 2.0732 -0.0842
6.0402 2.0968 -0.0852
6.0415 2.1497 -0.0880
6.0426 2.1777 -0.0896
6.0483 2.2112 -0.0919
6.0383 2.2284 -0.0917
6.0382 2.2569 -0.0931
6.0395 2.2877 -0.0948
6.0391 2.3171 -0.0963
6.0474 2.3587 -0.0993
6.0357 2.3745 -0.0988
6.0427 2.4166 -0.1017
6.0338 2.4367 -0.1017
6.0424 2.4834 -0.1051
6.0437 2.5204 -0.1071
6.0421 2.5536 -0.1086
6.0315 2.5724 -0.1083
6.0052 2.5626 -0.1048
5.9826 2.5574 -0.1020
6.0546 1.3427 -0.0345
6.0513 1.3557 -0.0348
6.0504 1.3680 -0.0352
6.0518 1.3797 -0.0358
6.0473 1.4057 -0.0365
6.0473 1.4183 -0.0370
6.0472 1.4311 -0.0376
6.0505 1.4435 -0.0384
6.0481 1.4572 -0.0387
6.0478 1.4707 -0.0393
6.0441 1.4848 -0.0396
6.0437 1.4986 -0.0401
6.0465 1.5124 -0.0409
6.0438 1.5269 -0.0413
6.0453 1.5413 -0.0420
6.0468 1.5560 -0.0428
6.0428 1.5710 -0.0431
6.0441 1.5862 -0.0438
6.0463 1.6019 -0.0447
6.0432 1.6174 -0.0450
6.0493 1.6341 -0.0463
6.0430 1.6496 -0.0464
6.0428 1.6661 -0.0471
6.0465 1.6837 -0.0481
6.0450 1.7006 -0.0487
6.0497 1.7374 -0.0507
6.0461 1.7545 -0.0511
6.0386 1.7704 -0.0511
6.0444 1.7913 -0.0524
6.0424 1.8097 -0.0530
6.0414 1.8287 -0.0538
6.0453 1.8708 -0.0559
6.0385 1.8879 -0.0560
6.0407 1.9100 -0.0571
6.0382 1.9300 -0.0577
6.0418 1.9541 -0.0591
6.0435 1.9777 -0.0602
6.0396 2.0209 -0.0617
6.0409 2.0457 -0.0628
6.0337 2.0639 -0.0629
6.0355 2.0900 -0.0642
6.0467 2.1518 -0.0678
6.0384 2.1701 -0.0678
6.0443 2.2033 -0.0697
6.0383 2.2245 -0.0701
6.0405 2.2843 -0.0728
6.0309 2.3318 -0.0739
6.0385 2.3728 -0.0763
6.0442 2.4127 -0.0785
6.0411 2.4410 -0.0794
6.0428 2.4771 -0.0811
6.0394 2.5063 -0.0820
6.0379 2.5391 -0.0833
6.0404 2.5793 -0.0852
6.0064 2.5566 -0.0812
5.9857 2.5548 -0.0793
6.0508 1.3467 -0.0206
6.0536 1.3575 -0.0211
6.0527 1.3697 -0.0214
6.0494 1.3828 -0.0217
6.0472 1.3956 -0.0220
6.0427 1.4091 -0.0221
6.0474 1.4205 -0.0228
6.0475 1.4333 -0.0232
6.0451 1.4467 -0.0235
6.0495 1.4590 -0.0242
6.0504 1.4723 -0.0247
6.0512 1.4858 -0.0252
6.0442 1.5004 -0.0253
6.0460 1.5142 -0.0258
6.0433 1.5286 -0.0262
6.0460 1.5429 -0.0268
6.0475 1.5576 -0.0274
6.0446 1.5725 -0.0277
6.0428 1.5875 -0.0281
6.0388 1.6026 -0.0283
6.0493 1.6191 -0.0296
6.0472 1.6349 -0.0299
6.0502 1.6517 -0.0307
6.0490 1.6681 -0.0312
6.0517 1.6855 -0.0319
6.0423 1.7006 -0.0318
6.0439 1.7184 -0.0325
6.0365 1.7339 -0.0326
6.0427 1.7537 -0.0336
6.0401 1.7711 -0.0340
6.0441 1.7912 -0.0350
6.0422 1.8095 -0.0355
6.0412 1.8284 -0.0360
6.0401 1.8475 -0.0366
6.0395 1.8877 -0.0379
6.0417 1.9098 -0.0388
6.0385 1.9290 -0.0392
6.0448 1.9548 -0.0405
6.0422 1.9753 -0.0410
6.0413 1.9973 -0.0417
6.0377 2.0176 -0.0421
6.0399 2.0428 -0.0431
6.0298 2.0824 -0.0438
6.0390 2.1156 -0.0455
6.0449 2.2003 -0.0486
6.0374 2.2196 -0.0488
6.0422 2.2531 -0.0502
6.0437 2.2837 -0.0514
6.0417 2.3408 -0.0531
6.0325 2.4222 -0.0553
6.0366 2.4611 -0.0568
6.0468 2.5108 -0.0591
6.0467 2.5459 -0.0603
6.0376 2.5667 -0.0604
6.0123 2.5589 -0.0586
5.9861 2.5473 -0.0566
6.0526 1.3371 -0.0068
6.0531 1.3484 -0.0071
6.0499 1.3612 -0.0073
6.0502 1.3729 -0.0076
6.0506 1.3849 -0.0079
6.0496 1.3973 -0.0082
6.0486 1.4099 -0.0085
6.0464 1.4230 -0.0087
6.0453 1.4359 -0.0090
6.0476 1.4483 -0.0094
6.0452 1.4618 -0.0096
6.0474 1.4747 -0.0100
6.0505 1.4878 -0.0105
6.0457 1.5021 -0.0106
6.0465 1.5160 -0.0110
6.0515 1.5298 -0.0115
6.0455 1.5445 -0.0117
6.0514 1.5591 -0.0123
6.0464 1.5739 -0.0125
6.0457 1.5890 -0.0128
6.0470 1.6044 -0.0132
6.0492 1.6203 -0.0137
6.0461 1.6359 -0.0140
6.0492 1.6525 -0.0145
6.0460 1.6684 -0.0148
6.0428 1.6845 -0.0151
6.0475 1.7025 -0.0157
6.0402 1.7179 -0.0158
6.0447 1.7367 -0.0164
6.0470 1.7554 -0.0170
6.0435 1.7724 -0.0173
6.0485 1.7929 -0.0180
6.0447 1.8104 -0.0183
6.0447 1.8297 -0.0187
6.0418 1.8479 -0.0191
6.0435 1.8687 -0.0197
6.0404 1.8874 -0.0200
6.0437 1.9100 -0.0207
6.0449 1.9319 -0.0213
6.0381 1.9491 -0.0215
6.0347 1.9687 -0.0218
6.0392 1.9941 -0.0226
6.0408 2.0182 -0.0233
6.0389 2.0399 -0.0237
6.0512 2.0741 -0.0250
6.0381 2.0873 -0.0249
6.0433 2.1168 -0.0258
6.0368 2.1361 -0.0261
6.0416 2.1668 -0.0270
6.0355 2.2138 -0.0279
6.0368 2.2710 -0.0294
6.0445 2.3094 -0.0306
6.0443 2.3390 -0.0314
6.0431 2.3681 -0.0320
6.0426 2.3987 -0.0328
6.0331 2.4171 -0.0329
6.0309 2.4461 -0.0335
6.0393 2.4921 -0.0350
6.0381 2.5245 -0.0357
6.0374 2.5586 -0.0366
6.0100 2.5469 -0.0353
5.9898 2.5459 -0.0345
6.0511 1.3402 0.0065
6.0467 1.3532 0.0064
6.0497 1.3637 0.0061
6.0489 1.3758 0.0060
6.0517 1.3869 0.0057
6.0520 1.3990 0.0055
6.0510 1.4116 0.0053
6.0488 1.4246 0.0052
6.0489 1.4373 0.0049
6.0478 1.4503 0.0047
6.0477 1.4634 0.0045
6.0488 1.4765 0.0043
6.0441 1.4905 0.0041
6.0461 1.5039 0.0039
6.0447 1.5178 0.0037
6.0465 1.5318 0.0034
6.0428 1.5461 0.0032
6.0455 1.5606 0.0030
6.0482 1.5754 0.0027
6.0464 1.5904 0.0025
6.0467 1.6057 0.0022
6.0438 1.6209 0.0020
6.0460 1.6369 0.0017
6.0429 1.6525 0.0015
6.0440 1.6689 0.0012
6.0459 1.6858 0.0009
6.0477 1.7032 0.0006
6.0423 1.7190 0.0004
6.0390 1.7354 0.0002
6.0435 1.7545 -0.0002
6.0429 1.7724 -0.0005
6.0423 1.7905 -0.0008
6.0453 1.8105 -0.0011
6.0416 1.8280 -0.0014
6.0463 1.8497 -0.0018
6.0378 1.8652 -0.0019
6.0432 1.8882 -0.0024
6.0419 1.9081 -0.0027
6.0424 1.9293 -0.0031
6.0436 1.9515 -0.0034
6.0368 1.9687 -0.0036
6.0409 2.0632 -0.0052
6.0422 2.0885 -0.0057
6.0384 2.1096 -0.0060
6.0328 2.1293 -0.0062
6.0313 2.1532 -0.0066
6.0410 2.1892 -0.0073
6.0400 2.2150 -0.0077
6.0467 2.2500 -0.0084
6.0431 2.3030 -0.0092
6.0359 2.4150 -0.0110
6.0394 2.4855 -0.0122
6.0320 2.5075 -0.0124
6.0302 2.5388 -0.0129
6.0275 2.5694 -0.0134
5.9954 2.5481 -0.0127
6.0500 1.3319 0.0197
6.0495 1.3433 0.0196
6.0501 1.3545 0.0195
6.0482 1.3667 0.0194
6.0475 1.3786 0.0193
6.0504 1.3896 0.0193
6.0495 1.4019 0.0191
6.0510 1.4138 0.0191
6.0488 1.4268 0.0189
6.0478 1.4396 0.0188
6.0502 1.4519 0.0187
6.0468 1.4655 0.0186
6.0467 1.4787 0.0185
6.0455 1.4922 0.0184
6.0464 1.5056 0.0183
6.0451 1.5195 0.0181
6.0492 1.5333 0.0181
6.0455 1.5476 0.0179
6.0439 1.5621 0.0178
6.0428 1.5915 0.0175
6.0443 1.6067 0.0174
6.0424 1.6219 0.0173
6.0469 1.6380 0.0172
6.0418 1.6532 0.0170
6.0418 1.6693 0.0169
6.0449 1.6864 0.0168
6.0447 1.7031 0.0166
6.0445 1.7201 0.0165
6.0442 1.7373 0.0163
6.0428 1.7545 0.0162
6.0423 1.7723 0.0160
6.0476 1.7926 0.0159
6.0459 1.8106 0.0158
6.0422 1.8280 0.0156
6.0414 1.8469 0.0154
6.0423 1.8670 0.0153
6.0496 1.8909 0.0152
6.0474 1.9104 0.0150
6.0425 1.9283 0.0148
6.0402 1.9481 0.0146
6.0477 1.9748 0.0145
6.0346 1.9876 0.0142
6.0409 2.0146 0.0140
6.0426 2.0389 0.0139
6.0467 2.0658 0.0137
6.0472 2.0904 0.0135
6.0518 2.1192 0.0133
6.0428 2.1360 0.0131
6.0356 2.1543 0.0128
6.0340 2.1785 0.0126
6.0364 2.2074 0.0124
6.0346 2.2323 0.0122
6.0319 2.2566 0.0120
6.0431 2.2984 0.0118
6.0362 2.3188 0.0115
6.0392 2.3523 0.0113
6.0337 2.3752 0.0110
6.0328 2.4364 0.0105
6.0336 2.4699 0.0102
6.0321 2.5006 0.0100
6.0438 2.5539 0.0097
6.0285 2.5633 0.0094
6.0073 2.5612 0.0092
6.0509 1.3341 0.0326
6.0516 1.3450 0.0327
6.0510 1.3566 0.0326
6.0467 1.3695 0.0325
6.0497 1.3803 0.0326
6.0490 1.3923 0.0326
6.0506 1.4039 0.0326
6.0509 1.4161 0.0326
6.0500 1.4287 0.0326
6.0490 1.4414 0.0326
6.0480 1.4544 0.0325
6.0469 1.4674 0.0325
6.0492 1.4802 0.0326
6.0457 1.4940 0.0324
6.0456 1.5075 0.0324
6.0465 1.5211 0.0325
6.0508 1.5348 0.0326
6.0470 1.5491 0.0325
6.0499 1.5635 0.0326
6.0472 1.5782 0.0325
6.0471 1.6081 0.0325
6.0474 1.6235 0.0325
6.0392 1.6381 0.0322
6.0479 1.6551 0.0325
6.0407 1.6700 0.0322
6.0395 1.7193 0.0322
6.0444 1.7378 0.0324
6.0400 1.7539 0.0322
6.0446 1.7732 0.0324
6.0411 1.7901 0.0323
6.0425 1.8091 0.0323
6.0408 1.8271 0.0323
6.0429 1.8472 0.0323
6.0392 1.8648 0.0322
6.0476 1.8892 0.0325
6.0443 1.9284 0.0324
6.0394 1.9463 0.0322
6.0389 1.9674 0.0322
6.0357 1.9868 0.0321
6.0404 2.0124 0.0322
6.0413 2.0359 0.0323
6.0496 2.0901 0.0326
6.0391 2.1050 0.0322
6.0403 2.1308 0.0322
6.0431 2.1587 0.0323
6.0375 2.1788 0.0321
6.0379 2.2596 0.0321
6.0422 2.2928 0.0323
6.0347 2.3413 0.0320
6.0346 2.3711 0.0320
6.0359 2.4034 0.0321
6.0399 2.4407 0.0322
6.0466 2.4833 0.0325
6.0348 2.5317 0.0320
6.0393 2.5739 0.0322
6.0082 2.5549 0.0310
6.0500 1.3481 0.0454
6.0501 1.3709 0.0456
6.0433 1.3845 0.0453
6.0500 1.3943 0.0458
6.0504 1.4062 0.0459
6.0496 1.4185 0.0460
6.0476 1.4313 0.0459
6.0550 1.4423 0.0465
6.0433 1.4572 0.0459
6.0458 1.4696 0.0461
6.0471 1.4824 0.0463
6.0494 1.4954 0.0466
6.0458 1.5092 0.0465
6.0457 1.5228 0.0466
6.0478 1.5366 0.0468
6.0419 1.5508 0.0465
6.0449 1.5650 0.0468
6.0445 1.5794 0.0469
6.0462 1.5942 0.0472
6.0445 1.6091 0.0472
6.0449 1.6244 0.0473
6.0442 1.6397 0.0474
6.0477 1.6560 0.0477
6.0436 1.6713 0.0476
6.0437 1.6876 0.0478
6.0417 1.7036 0.0478
6.0457 1.7214 0.0482
6.0485 1.7394 0.0485
6.0422 1.7549 0.0482
6.0369 1.7707 0.0480
6.0395 1.7895 0.0483
6.0458 1.8103 0.0489
6.0471 1.8297 0.0491
6.0425 1.8466 0.0490
6.0417 1.8656 0.0491
6.0465 1.8878 0.0495
6.0454 1.9075 0.0496
6.0415 1.9257 0.0495
6.0463 1.9710 0.0502
6.0475 1.9938 0.0505
6.0389 2.0096 0.0501
6.0364 2.0301 0.0501
6.0400 2.0559 0.0505
6.0434 2.0822 0.0509
6.0414 2.1045 0.0510
6.0377 2.1255 0.0509
6.0314 2.1442 0.0507
6.0343 2.1722 0.0511
6.0361 2.1999 0.0514
6.0401 2.2309 0.0519
6.0399 2.2579 0.0521
6.0396 2.2853 0.0523
6.0368 2.3102 0.0523
6.0362 2.3384 0.0525
6.0386 2.3711 0.0529
6.0361 2.3981 0.0530
6.0436 2.4721 0.0541
6.0363 2.4936 0.0538
6.0334 2.5222 0.0538
6.0332 2.5559 0.0541
6.0216 2.5705 0.0535
6.0559 1.3485 0.0586
6.0490 1.3621 0.0582
6.0472 1.3741 0.0582
6.0479 1.3854 0.0585
6.0460 1.3977 0.0585
6.0417 1.4106 0.0583
6.0471 1.4213 0.0590
6.0499 1.4329 0.0594
6.0490 1.4456 0.0595
6.0480 1.4583 0.0596
6.0494 1.4709 0.0600
6.0472 1.4842 0.0600
6.0496 1.4972 0.0604
6.0484 1.5107 0.0605
6.0494 1.5242 0.0608
6.0447 1.5383 0.0606
6.0445 1.5522 0.0608
6.0464 1.5664 0.0612
6.0450 1.5808 0.0613
6.0489 1.5957 0.0619
6.0473 1.6105 0.0620
6.0467 1.6256 0.0622
6.0482 1.6412 0.0626
6.0463 1.6567 0.0627
6.0444 1.6723 0.0628
6.0436 1.6882 0.0629
6.0447 1.7049 0.0633
6.0477 1.7224 0.0638
6.0456 1.7389 0.0639
6.0464 1.7565 0.0643
6.0451 1.7737 0.0644
6.0447 1.7915 0.0647
6.0452 1.8100 0.0650
6.0436 1.8279 0.0652
6.0507 1.8501 0.0661
6.0461 1.8673 0.0660
6.0329 1.8798 0.0651
6.0405 1.9038 0.0661
6.0404 1.9240 0.0664
6.0393 1.9440 0.0667
6.0423 1.9885 0.0676
6.0471 2.0141 0.0684
6.0447 2.0347 0.0686
6.0386 2.0527 0.0683
6.0369 2.0744 0.0685
6.0452 2.1298 0.0701
6.0431 2.1527 0.0703
6.0443 2.1792 0.0708
6.0329 2.1930 0.0701
6.0387 2.2524 0.0715
6.0350 2.3033 0.0720
6.0377 2.3354 0.0728
6.0340 2.3597 0.0728
6.0279 2.3810 0.0727
6.0452 2.4363 0.0750
6.0396 2.4597 0.0749
6.0435 2.4981 0.0759
6.0405 2.5267 0.0761
6.0347 2.5509 0.0760
6.0202 2.5605 0.0749
6.0494 1.3421 0.0703
6.0490 1.3533 0.0705
6.0531 1.3746 0.0715
6.0438 1.3889 0.0708
6.0482 1.3993 0.0715
6.0488 1.4110 0.0719
6.0493 1.4229 0.0722
6.0510 1.4348 0.0727
6.0465 1.4480 0.0725
6.0432 1.4611 0.0725
6.0471 1.4732 0.0732
6.0484 1.4859 0.0736
6.0462 1.4993 0.0737
6.0485 1.5124 0.0743
6.0450 1.5398 0.0745
6.0414 1.5537 0.0745
6.0423 1.5678 0.0749
6.0454 1.5821 0.0756
6.0494 1.5969 0.0764
6.0462 1.6267 0.0767
6.0467 1.6420 0.0771
6.0460 1.6575 0.0774
6.0474 1.6736 0.0780
6.0465 1.6895 0.0783
6.0404 1.7044 0.0780
6.0446 1.7221 0.0788
6.0456 1.7393 0.0793
6.0424 1.7554 0.0794
6.0402 1.7721 0.0795
6.0449 1.7916 0.0805
6.0425 1.8087 0.0807
6.0479 1.8295 0.0817
6.0464 1.8477 0.0820
6.0466 1.8670 0.0825
6.0391 1.8825 0.0821
6.0393 1.9023 0.0825
6.0402 1.9229 0.0831
6.0429 1.9451 0.0839
6.0418 1.9653 0.0843
6.0405 1.9857 0.0847
6.0437 2.0098 0.0856
6.0378 2.0274 0.0854
6.0373 2.0725 0.0864
6.0407 2.1229 0.0879
6.0413 2.1479 0.0886
6.0387 2.1958 0.0895
6.0389 2.2221 0.0901
6.0394 2.3044 0.0921
6.0414 2.3354 0.0931
6.0417 2.3649 0.0938
6.0333 2.3831 0.0933
6.0371 2.4187 0.0946
6.0440 2.4923 0.0971
6.0478 2.5313 0.0984
6.0448 2.5603 0.0988
6.0288 2.5676 0.0972
6.0540 1.3429 0.0832
6.0549 1.3537 0.0836
6.0455 1.3680 0.0828
6.0477 1.3786 0.0835
6.0459 1.3905 0.0836
6.0429 1.4029 0.0836
6.0485 1.4132 0.0847
6.0478 1.4253 0.0850
6.0483 1.4374 0.0854
6.0488 1.4496 0.0858
6.0503 1.4619 0.0864
6.0470 1.4750 0.0864
6.0496 1.4876 0.0871
6.0463 1.5010 0.0871
6.0429 1.5145 0.0871
6.0441 1.5278 0.0877
6.0452 1.5413 0.0883
6.0451 1.5551 0.0887
6.0449 1.5692 0.0891
6.0447 1.5834 0.0895
6.0432 1.5978 0.0898
6.0418 1.6124 0.0900
6.0468 1.6278 0.0912
6.0506 1.6435 0.0922
6.0488 1.6588 0.0924
6.0428 1.6735 0.0921
6.0420 1.6893 0.0925
6.0475 1.7067 0.0938
6.0455 1.7228 0.0940
6.0362 1.7369 0.0932
6.0403 1.7550 0.0944
6.0413 1.7726 0.0950
6.0410 1.7901 0.0956
6.0467 1.8104 0.0969
6.0423 1.8268 0.0969
6.0468 1.8475 0.0981
6.0461 1.8662 0.0986
6.0435 1.8842 0.0988
6.0399 1.9218 0.0996
6.0427 1.9439 0.1006
6.0389 1.9621 0.1007
6.0420 2.0069 0.1025
6.0388 2.0264 0.1027
6.0320 2.0432 0.1023
6.0359 2.0690 0.1037
6.0325 2.0891 0.1039
6.0360 2.1158 0.1052
6.0368 2.1407 0.1060
6.0387 2.1924 0.1079
6.0373 2.2167 0.1085
6.0383 2.2441 0.1095
6.0457 2.2798 0.1116
6.0431 2.3044 0.1120
6.0380 2.3262 0.1120
6.0400 2.3575 0.1133
6.0417 2.3894 0.1145
6.0425 2.4208 0.1156
6.0466 2.4898 0.1183
6.0476 2.5241 0.1195
6.0462 2.5553 0.1203
6.0388 2.5771 0.1200
6.0505 1.3576 0.0954
6.0463 1.3701 0.0952
6.0497 1.3803 0.0961
6.0480 1.3922 0.0963
6.0513 1.4029 0.0973
6.0432 1.4166 0.0966
6.0538 1.4261 0.0985
6.0494 1.4392 0.0984
6.0486 1.4516 0.0988
6.0490 1.4640 0.0993
6.0482 1.4767 0.0997
6.0496 1.4894 0.1004
6.0439 1.5030 0.1000
6.0453 1.5160 0.1008
6.0465 1.5292 0.1015
6.0477 1.5428 0.1022
6.0452 1.5705 0.1029
6.0416 1.5846 0.1029
6.0459 1.5992 0.1041
6.0411 1.6134 0.1039
6.0473 1.6289 0.1055
6.0479 1.6441 0.1062
6.0495 1.6598 0.1070
6.0478 1.6752 0.1074
6.0417 1.6899 0.1070
6.0409 1.7057 0.1075
6.0411 1.7221 0.1082
6.0434 1.7393 0.1092
6.0475 1.7576 0.1106
6.0454 1.7742 0.1109
6.0472 1.7925 0.1119
6.0439 1.8091 0.1120
6.0436 1.8271 0.1127
6.0422 1.8449 0.1131
6.0417 1.8635 0.1138
6.0430 1.8833 0.1148
6.0384 1.9002 0.1147
6.0415 1.9218 0.1160
6.0387 1.9402 0.1163
6.0406 1.9619 0.1175
6.0367 1.9801 0.1176
6.0444 2.0289 0.1207
6.0483 2.0545 0.1223
6.0423 2.0723 0.1221
6.0311 2.0854 0.1208
6.0347 2.1120 0.1224
6.0382 2.1392 0.1240
6.0363 2.1617 0.1246
6.0411 2.1917 0.1265
6.0473 2.2241 0.1288
6.0435 2.2730 0.1301
6.0410 2.2974 0.1307
6.0496 2.3364 0.1335
6.0484 2.3638 0.1344
6.0432 2.3861 0.1345
6.0371 2.4075 0.1344
6.0357 2.4357 0.1352
6.0371 2.4689 0.1368
6.0383 2.5027 0.1383
6.0334 2.5274 0.1385
6.0365 2.5658 0.1405
6.0499 1.3601 0.1074
6.0457 1.3725 0.1073
6.0454 1.3838 0.1077
6.0488 1.3942 0.1088
6.0471 1.4061 0.1091
6.0478 1.4176 0.1097
6.0473 1.4296 0.1102
6.0503 1.4410 0.1113
6.0484 1.4536 0.1115
6.0440 1.4667 0.1114
6.0496 1.4912 0.1135
6.0451 1.5045 0.1133
6.0453 1.5176 0.1140
6.0501 1.5306 0.1154
6.0502 1.5442 0.1160
6.0455 1.5580 0.1159
6.0443 1.5719 0.1163
6.0499 1.5862 0.1180
6.0474 1.6005 0.1182
6.0448 1.6149 0.1184
6.0445 1.6296 0.1190
6.0485 1.6452 0.1205
6.0458 1.6601 0.1207
6.0452 1.6755 0.1213
6.0456 1.6914 0.1221
6.0406 1.7062 0.1219
6.0409 1.7225 0.1227
6.0400 1.7387 0.1233
6.0433 1.7565 0.1247
6.0423 1.7732 0.1253
6.0420 1.8082 0.1269
6.0388 1.8247 0.1271
6.0325 1.8400 0.1267
6.0321 1.8581 0.1275
6.0424 1.8823 0.1304
6.0418 1.9013 0.1312
6.0420 1.9211 0.1322
6.0403 1.9401 0.1328
6.0384 1.9592 0.1333
6.0412 1.9819 0.1349
6.0401 2.0023 0.1356
6.0362 2.0208 0.1358
6.0395 2.0453 0.1375
6.0399 2.0680 0.1386
6.0410 2.0919 0.1400
6.0456 2.1195 0.1420
6.0409 2.1882 0.1444
6.0439 2.2169 0.1463
6.0451 2.2443 0.1478
6.0420 2.2672 0.1483
6.0444 2.3251 0.1514
6.0418 2.3501 0.1521
6.0375 2.3731 0.1524
6.0370 2.4019 0.1537
6.0303 2.4220 0.1534
6.0372 2.4629 0.1566
6.0393 2.4977 0.1586
6.0353 2.5235 0.1591
6.0430 2.5692 0.1625
6.0335 2.5870 0.1617
6.0505 1.3622 0.1195
6.0490 1.3738 0.1199
6.0474 1.3854 0.1202
6.0496 1.3961 0.1212
6.0504 1.4074 0.1220
6.0499 1.4192 0.1225
6.0506 1.4309 0.1233
6.0500 1.4430 0.1238
6.0444 1.4562 0.1234
6.0474 1.4680 0.1246
6.0491 1.4803 0.1256
6.0459 1.4933 0.1257
6.0450 1.5062 0.1262
6.0465 1.5191 0.1272
6.0455 1.5324 0.1277
6.0445 1.5458 0.1283
6.0469 1.5594 0.1295
6.0480 1.5733 0.1304
6.0479 1.5874 0.1312
6.0488 1.6018 0.1321
6.0475 1.6162 0.1326
6.0483 1.6311 0.1336
6.0468 1.6459 0.1341
6.0485 1.6614 0.1353
6.0435 1.7075 0.1368
6.0438 1.7237 0.1377
6.0409 1.7393 0.1380
6.0463 1.7577 0.1401
6.0432 1.7737 0.1403
6.0421 1.8081 0.1419
6.0449 1.8272 0.1435
6.0466 1.8463 0.1449
6.0383 1.8608 0.1440
6.0388 1.8798 0.1452
6.0464 1.9228 0.1490
6.0362 1.9565 0.1488
6.0344 1.9757 0.1495
6.0390 1.9999 0.1517
6.0343 2.0176 0.1517
6.0386 2.0426 0.1539
6.0400 2.0660 0.1555
6.0368 2.0859 0.1559
6.0380 2.1099 0.1574
6.0416 2.1370 0.1596
6.0442 2.1637 0.1616
6.0462 2.2682 0.1676
6.0349 2.3363 0.1690
6.0403 2.3719 0.1720
6.0345 2.3928 0.1720
6.0356 2.4240 0.1739
6.0334 2.4511 0.1749
6.0273 2.4726 0.1749
6.0356 2.5171 0.1789
6.0434 2.5627 0.1829
6.0392 2.5892 0.1835
6.0525 1.3639 0.1318
6.0522 1.3750 0.1325
6.0545 1.3856 0.1336
6.0516 1.3978 0.1337
6.0525 1.4090 0.1346
6.0470 1.4220 0.1342
6.0452 1.4341 0.1345
6.0479 1.4575 0.1365
6.0460 1.4701 0.1369
6.0477 1.4822 0.1380
6.0457 1.4951 0.1384
6.0449 1.5079 0.1390
6.0429 1.5210 0.1393
6.0467 1.5339 0.1410
6.0469 1.5472 0.1418
6.0505 1.5608 0.1434
6.0482 1.5746 0.1438
6.0493 1.5887 0.1449
6.0503 1.6030 0.1460
6.0512 1.6176 0.1471
6.0487 1.6321 0.1474
6.0495 1.6472 0.1485
6.0468 1.6619 0.1488
6.0464 1.6772 0.1497
6.0415 1.6918 0.1495
6.0474 1.7090 0.1518
6.0445 1.7244 0.1522
6.0427 1.7402 0.1527
6.0429 1.7568 0.1538
6.0399 1.7727 0.1541
6.0493 1.7933 0.1574
6.0452 1.8093 0.1575
6.0450 1.8270 0.1586
6.0407 1.8432 0.1586
6.0415 1.8619 0.1599
6.0455 1.9019 0.1633
6.0410 1.9187 0.1633
6.0339 1.9538 0.1639
6.0416 1.9794 0.1672
6.0369 1.9968 0.1672
6.0369 2.0178 0.1685
6.0413 2.0429 0.1710
6.0419 2.0655 0.1725
6.0432 2.0892 0.1742
6.0382 2.1077 0.1743
6.0420 2.1346 0.1768
6.0438 2.1604 0.1787
6.0462 2.2124 0.1824
6.0425 2.2339 0.1829
6.0387 2.2555 0.1834
6.0357 2.2783 0.1842
6.0334 2.3023 0.1852
6.0368 2.3340 0.1878
6.0351 2.3598 0.1890
6.0453 2.4026 0.1939
6.0385 2.4227 0.1936
6.0395 2.4543 0.1958
6.0358 2.4794 0.1965
6.0395 2.5168 0.1996
6.0404 2.5837 0.2039
5.9898 0.9502 0.1044
5.9798 0.9445 0.1050
5.9740 0.9356 0.1066
5.9712 0.9242 0.1090
5.9658 0.9143 0.1109
5.9589 0.9050 0.1126
5.9518 0.8957 0.1142
5.9444 0.8862 0.1159
5.9394 0.8741 0.1183
5.9322 0.8635 0.1202
5.9245 0.8528 0.1222
5.9191 0.8394 0.1249
5.9099 0.8293 0.1265
5.9003 0.8192 0.1282
5.8911 0.8080 0.1301
5.8884 0.7885 0.1344
5.8776 0.7779 0.1361
5.8692 0.7635 0.1388
5.8563 0.7545 0.1399
5.8416 0.7182 0.1472
5.8329 0.7002 0.1508
5.8201 0.6878 0.1527
5.7975 0.6546 0.1587
5.7716 0.6227 0.1643
3.8838 -3.9687 1.0860
5.9795 0.9594 0.0900
5.9775 0.9484 0.0921
5.9817 0.9325 0.0957
5.9711 0.9266 0.0962
5.9677 0.9151 0.0984
5.9608 0.9058 0.0999
5.9480 0.8854 0.1033
5.9429 0.8733 0.1055
5.9318 0.8661 0.1063
5.9215 0.8581 0.1074
5.9222 0.8386 0.1114
5.9111 0.8303 0.1125
5.9038 0.8175 0.1147
5.9007 0.7992 0.1183
5.8878 0.7914 0.1191
5.8791 0.7781 0.1213
5.8706 0.7637 0.1237
5.8616 0.7491 0.1262
5.8501 0.7372 0.1280
5.8389 0.7242 0.1299
5.8249 0.7149 0.1310
5.8191 0.6910 0.1356
5.8070 0.6766 0.1378
5.7933 0.6639 0.1396
5.7822 0.6452 0.1428
5.7700 0.6272 0.1457
4.7573 -0.4726 0.3104
4.7217 -0.4845 0.3106
5.9865 0.9571 0.0790
5.9877 0.9438 0.0816
5.9794 0.9364 0.0825
5.9732 0.9274 0.0838
5.9645 0.9199 0.0847
5.9566 0.9115 0.0858
5.9514 0.9006 0.0876
5.9439 0.8912 0.0889
5.9426 0.8759 0.0916
5.9306 0.8696 0.0922
5.9264 0.8556 0.0945
5.9217 0.8414 0.0969
5.9114 0.8322 0.0980
5.9049 0.8185 0.1002
5.8916 0.8118 0.1007
5.8784 0.7810 0.1057
5.8678 0.7694 0.1072
5.8575 0.7568 0.1090
5.8374 0.7283 0.1132
5.8323 0.7048 0.1173
5.8210 0.6895 0.1195
5.8060 0.6799 0.1204
5.7943 0.6634 0.1228
5.7865 0.6378 0.1271
5.7716 0.6248 0.1287
4.7843 -0.4662 0.2762
4.7484 -0.4783 0.2764
4.7125 -0.4903 0.2766
5.9922 0.9556 0.0676
5.9865 0.9469 0.0687
5.9805 0.9380 0.0699
5.9773 0.9267 0.0715
5.9706 0.9176 0.0727
5.9605 0.9108 0.0733
5.9522 0.9023 0.0743
5.9494 0.8889 0.0764
5.9451 0.8760 0.0783
5.9339 0.8689 0.0789
5.9278 0.8566 0.0806
5.9238 0.8416 0.0828
5.9118 0.8341 0.0835
5.9019 0.8240 0.0847
5.8949 0.8102 0.0866
5.8881 0.7954 0.0886
5.8778 0.7840 0.0900
5.8720 0.7661 0.0926
5.8634 0.7507 0.0947
5.8511 0.7397 0.0959
5.8396 0.7268 0.0975
5.8343 0.7033 0.1011
5.8146 0.6660 0.1062
5.7973 0.6590 0.1065
5.7858 0.6404 0.1090
5.7727 0.6234 0.1111
4.9346 -0.1962 0.2044
4.8800 -0.2715 0.2140
4.8014 -0.4037 0.2318
4.7535 -0.4483 0.2367
4.7235 -0.4469 0.2351
5.9946 0.9565 0.0553
5.9876 0.9485 0.0561
5.9772 0.9427 0.0565
5.9751 0.9307 0.0581
5.9684 0.9217 0.0591
5.9633 0.9109 0.0604
5.9559 0.9017 0.0614
5.9539 0.8874 0.0633
5.9429 0.8803 0.0639
5.9362 0.8690 0.0652
5.9336 0.8534 0.0673
5.9183 0.8494 0.0672
5.9121 0.8360 0.0688
5.9118 0.8156 0.0717
5.8974 0.8096 0.0719
5.8867 0.7992 0.0730
5.8764 0.7879 0.0741
5.8712 0.7692 0.0765
5.8633 0.7529 0.0785
5.8509 0.7420 0.0795
5.8437 0.7226 0.0819
5.8202 0.6943 0.0850
5.8098 0.6761 0.0871
5.7957 0.6635 0.0883
5.7861 0.6410 0.0910
4.9741 -0.1437 0.1681
4.9728 -0.0706 0.1579
4.9410 -0.0892 0.1592
4.9037 -0.1209 0.1621
4.8745 -0.1307 0.1623
4.8430 -0.1458 0.1631
5.9991 0.9559 0.0431
5.9876 0.9509 0.0433
5.9793 0.9436 0.0439
5.9750 0.9332 0.0450
5.9734 0.9203 0.0464
5.9672 0.9103 0.0474
5.9606 0.9003 0.0484
5.9527 0.8909 0.0492
5.9463 0.8797 0.0503
5.9368 0.8709 0.0510
5.9323 0.8570 0.0525
5.9116 0.8389 0.0539
5.9064 0.8236 0.0556
5.8953 0.8143 0.0563
5.8883 0.7996 0.0578
5.8807 0.7847 0.0593
5.8719 0.7704 0.0606
5.8625 0.7561 0.0620
5.8494 0.7460 0.0628
5.8416 0.7277 0.0646
5.8214 0.6939 0.0679
5.8157 0.6673 0.0709
5.7982 0.6603 0.0711
5.7854 0.6436 0.0726
5.2767 -0.2769 0.1635
5.2439 -0.2642 0.1610
5.2158 -0.2287 0.1559
5.9992 0.9583 0.0303
5.9976 0.9466 0.0314
5.9825 0.9438 0.0312
5.9770 0.9341 0.0320
5.9712 0.9244 0.0328
5.9640 0.9153 0.0334
5.9623 0.9013 0.0347
5.9450 0.8832 0.0360
5.9436 0.8671 0.0374
5.9266 0.8647 0.0372
5.9224 0.8500 0.0385
5.9177 0.8349 0.0398
5.9107 0.8214 0.0409
5.8993 0.8120 0.0415
5.8876 0.8025 0.0421
5.8800 0.7877 0.0433
5.8711 0.7735 0.0444
5.8610 0.7601 0.0454
5.8524 0.7438 0.0467
5.8437 0.7264 0.0481
5.8220 0.6945 0.0505
5.8119 0.6755 0.0521
5.7960 0.6657 0.0526
5.7838 0.6482 0.0539
4.8589 -0.5587 0.1436
4.8328 -0.5317 0.1405
4.8130 -0.4914 0.1362
4.7863 -0.4746 0.1340
4.7577 -0.4652 0.1324
4.7354 -0.4425 0.1298
5.9991 0.9607 0.0174
5.9920 0.9528 0.0179
5.9857 0.9440 0.0184
5.9801 0.9344 0.0189
5.9720 0.9261 0.0194
5.9658 0.9163 0.0199
5.9650 0.9016 0.0210
5.9559 0.8930 0.0214
5.9484 0.8827 0.0220
5.9369 0.8755 0.0223
5.9323 0.8618 0.0232
5.9237 0.8511 0.0238
5.9196 0.8353 0.0248
5.9045 0.8303 0.0249
5.8941 0.8201 0.0254
5.8877 0.8047 0.0264
5.8850 0.7838 0.0278
5.8717 0.7749 0.0282
5.8616 0.7615 0.0290
5.8541 0.7435 0.0301
5.8458 0.7252 0.0312
5.8328 0.7130 0.0318
5.8199 0.6998 0.0325
5.8103 0.6800 0.0338
5.7944 0.6702 0.0342
5.7850 0.6471 0.0356
5.7736 0.6255 0.0369
5.1211 -1.0858 0.1448
4.9674 -0.6867 0.1146
4.9524 -0.5918 0.1078
4.9110 -0.6057 0.1080
4.8613 -0.6467 0.1101
4.8193 -0.6608 0.1103
4.7836 -0.6561 0.1094
4.7452 -0.6612 0.1091
5.9957 0.9654 0.0044
5.9875 0.9582 0.0046
5.9845 0.9473 0.0051
5.9810 0.9362 0.0055
5.9708 0.9295 0.0058
5.9696 0.9158 0.0064
5.9647 0.9043 0.0069
5.9584 0.8933 0.0073
5.9517 0.8823 0.0077
5.9374 0.8775 0.0078
5.9301 0.8662 0.0083
5.9240 0.8531 0.0088
5.9125 0.8449 0.0091
5.9087 0.8282 0.0098
5.9011 0.8146 0.0104
5.8944 0.7991 0.0110
5.8627 0.7621 0.0124
5.8557 0.7432 0.0132
5.8443 0.7294 0.0137
5.8330 0.7146 0.0143
5.8272 0.6895 0.0154
5.8092 0.6835 0.0155
5.7983 0.6644 0.0163
5.7894 0.6394 0.0173
5.7759 0.6216 0.0180
5.7580 0.6123 0.0183
6.3131 -2.9668 0.1851
5.4331 -3.4930 0.2014
5.0992 -1.1914 0.0943
5.0021 -1.4544 0.1054
4.8549 -0.6449 0.0675
4.8006 -0.6961 0.0694
4.6110 -1.0099 0.0819
4.5765 -0.9884 0.0807
4.5027 -1.0682 0.0837
4.4848 -1.0091 0.0808
4.4581 -0.9762 0.0791
4.4217 -0.9685 0.0784
5.9991 0.9656 -0.0085
5.9908 0.9585 -0.0084
5.9909 0.9454 -0.0081
5.9798 0.9395 -0.0080
5.9717 0.9313 -0.0078
5.9683 0.9192 -0.0076
5.9615 0.9093 -0.0073
5.9515 0.9015 -0.0072
5.9468 0.8890 -0.0069
5.9415 0.8763 -0.0067
5.9340 0.8650 -0.0064
5.9244 0.8552 -0.0062
5.9202 0.8396 -0.0059
5.9121 0.8270 -0.0057
5.9043 0.8134 -0.0054
5.8879 0.8090 -0.0053
5.8871 0.7858 -0.0048
5.8736 0.7769 -0.0046
5.8658 0.7600 -0.0043
5.8536 0.7483 -0.0040
5.8446 0.7310 -0.0037
5.8331 0.7162 -0.0034
5.8228 0.6985 -0.0030
5.8092 0.6852 -0.0027
5.8001 0.6625 -0.0023
5.7747 0.6255 -0.0015
6.3906 -2.8039 0.0701
6.3350 -3.0985 0.0763
5.0871 -1.2255 0.0368
4.4644 -1.5304 0.0429
4.3894 -1.5895 0.0441
4.2334 -1.7118 0.0466
5.9957 0.9702 -0.0215
5.9907 0.9610 -0.0215
5.9897 0.9487 -0.0216
5.9849 0.9384 -0.0216
5.9736 0.9324 -0.0215
5.9671 0.9226 -0.0215
5.9632 0.9104 -0.0215
5.9540 0.9019 -0.0215
5.9510 0.8878 -0.0215
5.9402 0.8799 -0.0214
5.9318 0.8694 -0.0214
5.9306 0.8516 -0.0215
5.9229 0.8393 -0.0215
5.9115 0.8300 -0.0214
5.9006 0.8198 -0.0214
5.8974 0.8003 -0.0214
5.8849 0.7907 -0.0213
5.8721 0.7809 -0.0213
5.8617 0.7677 -0.0213
5.8552 0.7481 -0.0213
5.8424 0.7362 -0.0212
5.8310 0.7215 -0.0212
5.8272 0.6930 -0.0213
5.8128 0.6806 -0.0212
5.8014 0.6615 -0.0212
5.7888 0.6432 -0.0212
5.7729 0.6302 -0.0211
6.4149 -2.9268 -0.0403
6.3588 -3.2414 -0.0411
5.6481 -3.4794 -0.0364
5.0746 -1.2601 -0.0230
4.9638 -1.5822 -0.0234
4.8054 -0.7575 -0.0189
4.6624 -1.0664 -0.0190
4.4971 -1.4067 -0.0190
4.2043 -1.8975 -0.0187
4.0956 -2.0198 -0.0183
4.0363 -2.0179 -0.0178
3.9667 -2.0412 -0.0173
3.9321 -1.9886 -0.0169
6.0025 0.9685 -0.0348
5.9984 0.9585 -0.0350
5.9885 0.9519 -0.0350
5.9806 0.9439 -0.0351
5.9785 0.9313 -0.0355
5.9719 0.9215 -0.0356
5.9629 0.9131 -0.0357
5.9565 0.9023 -0.0359
5.9470 0.8937 -0.0360
5.9443 0.8788 -0.0364
5.9357 0.8683 -0.0366
5.9251 0.8594 -0.0367
5.9198 0.8447 -0.0370
5.9093 0.8347 -0.0371
5.9015 0.8212 -0.0374
5.8989 0.8009 -0.0379
5.8863 0.7913 -0.0380
5.8741 0.7807 -0.0381
5.8648 0.7657 -0.0384
5.8562 0.7488 -0.0388
5.8432 0.7369 -0.0389
5.8345 0.7178 -0.0393
5.8272 0.6948 -0.0399
5.8017 0.6625 -0.0404
5.7876 0.6470 -0.0406
5.7730 0.6313 -0.0408
6.6876 -3.0367 -0.1624
6.5032 -2.8111 -0.1529
6.4049 -2.8991 -0.1538
5.0884 -1.1179 -0.0805
4.1148 -3.8983 -0.1454
4.8147 -0.8379 -0.0679
4.7879 -0.7886 -0.0660
4.6048 -1.2107 -0.0753
4.4329 -1.5578 -0.0826
4.3329 -1.6798 -0.0845
4.1790 -1.9290 -0.0892
4.0893 -2.0023 -0.0899
4.0409 -1.9753 -0.0883
3.9940 -1.9489 -0.0868
3.9909 -1.8322 -0.0833
5.9928 0.9646 -0.0481
5.9916 0.9524 -0.0488
5.9815 0.9457 -0.0489
5.9783 0.9340 -0.0494
5.9756 0.9213 -0.0500
5.9723 0.9083 -0.0507
5.9609 0.9013 -0.0508
5.9567 0.8881 -0.0514
5.9456 0.8801 -0.0515
5.9369 0.8697 -0.0519
5.9296 0.8576 -0.0524
5.9193 0.8477 -0.0527
5.9095 0.8369 -0.0530
5.9046 0.8202 -0.0538
5.8982 0.8041 -0.0545
5.8848 0.7954 -0.0547
5.8766 0.7798 -0.0553
5.8717 0.7588 -0.0563
5.8571 0.7496 -0.0565
5.8471 0.7334 -0.0571
5.8375 0.7152 -0.0579
5.8207 0.7074 -0.0579
5.8131 0.6834 -0.0590
5.7985 0.6699 -0.0594
5.7919 0.6398 -0.0608
5.7756 0.6268 -0.0611
6.5322 -2.9370 -0.2744
5.1683 -0.5496 -0.1102
4.9091 -0.6278 -0.1080
4.8514 -0.6901 -0.1100
4.8034 -0.7158 -0.1102
4.5896 -1.2273 -0.1328
4.2037 -1.9895 -0.1648
4.1221 -2.0393 -0.1654
4.0612 -2.0372 -0.1638
3.9785 -2.0874 -0.1645
6.0013 0.9742 -0.0612
5.9993 0.9629 -0.0620
5.9915 0.9550 -0.0624
5.9907 0.9419 -0.0634
5.9822 0.9337 -0.0638
5.9743 0.9247 -0.0643
5.9662 0.9156 -0.0647
5.9624 0.9026 -0.0657
5.9553 0.8917 -0.0663
5.9540 0.8753 -0.0676
5.9399 0.8695 -0.0676
5.9274 0.8621 -0.0677
5.9227 0.8467 -0.0688
5.9135 0.8351 -0.0694
5.9099 0.8168 -0.0708
5.8960 0.8090 -0.0709
5.8855 0.7969 -0.0716
5.8751 0.7839 -0.0723
5.8728 0.7597 -0.0741
5.8605 0.7470 -0.0747
5.8467 0.7360 -0.0752
5.8359 0.7196 -0.0761
5.8272 0.6986 -0.0775
5.8140 0.6835 -0.0783
5.7983 0.6719 -0.0787
5.7915 0.6419 -0.0809
5.7706 0.5880 -0.0845
6.6665 -2.9785 -0.4012
6.4476 -2.6150 -0.3646
5.7274 -3.2333 -0.3902
5.3801 -3.4093 -0.3927
5.2137 -0.4818 -0.1518
5.1670 -0.5219 -0.1535
5.1074 -0.6282 -0.1600
5.0501 -0.7028 -0.1641
4.9833 -0.3426 -0.1329
4.9200 -0.4405 -0.1387
4.3855 -1.6264 -0.2161
4.1875 -1.9974 -0.2392
4.1053 -2.0473 -0.2405
4.0214 -2.0988 -0.2418
3.1869 -3.8603 -0.3554
6.0080 0.9727 -0.0752
5.9992 0.9655 -0.0756
5.9935 0.9562 -0.0764
5.9895 0.9453 -0.0774
5.9779 0.9393 -0.0775
5.9731 0.9282 -0.0785
5.9630 0.9206 -0.0789
5.9639 0.9040 -0.0807
5.9504 0.8984 -0.0807
5.9430 0.8874 -0.0816
5.9411 0.8709 -0.0832
5.9343 0.8581 -0.0843
5.9137 0.8374 -0.0857
5.9055 0.8241 -0.0867
5.8953 0.8122 -0.0876
5.8882 0.7961 -0.0890
5.8790 0.7814 -0.0902
5.8706 0.7648 -0.0916
5.8614 0.7480 -0.0930
5.8504 0.7326 -0.0941
5.8371 0.7197 -0.0950
5.8256 0.7031 -0.0962
5.8149 0.6837 -0.0979
5.7976 0.6747 -0.0981
5.7903 0.6458 -0.1009
5.7794 0.6210 -0.1030
5.7639 0.6042 -0.1042
7.1025 -2.7406 -0.5172
6.8364 -2.7155 -0.5033
6.6786 -2.6085 -0.4852
6.6257 -2.8421 -0.5079
6.4735 -2.7291 -0.4894
6.3423 -2.6704 -0.4776
6.2350 -2.7063 -0.4769
6.0901 -2.5167 -0.4505
5.8142 -2.9498 -0.4850
5.7074 -3.0396 -0.4901
5.5944 -3.0234 -0.4836
5.4831 -2.8597 -0.4614
5.2063 -0.4967 -0.1979
5.1576 -0.5458 -0.2011
5.1051 -0.6067 -0.2054
5.1074 -0.2261 -0.1649
5.0818 -0.1977 -0.1608
5.0486 -0.2035 -0.1600
5.0107 -0.2268 -0.1609
4.9741 -0.2443 -0.1612
4.9450 -0.2382 -0.1593
4.9125 -0.2438 -0.1585
4.1608 -2.0318 -0.3173
4.0988 -2.0293 -0.3144
3.9793 -2.1645 -0.3237
6.0045 0.9773 -0.0883
6.0024 0.9661 -0.0897
5.9966 0.9567 -0.0906
5.9851 0.9508 -0.0909
5.9807 0.9399 -0.0921
5.9728 0.9309 -0.0929
5.9685 0.9190 -0.0942
5.9598 0.9098 -0.0950
5.9509 0.9005 -0.0958
5.9408 0.8918 -0.0964
5.9363 0.8777 -0.0981
5.9329 0.8619 -0.1000
5.9208 0.8536 -0.1005
5.9192 0.8342 -0.1030
5.9025 0.8297 -0.1028
5.8960 0.8138 -0.1045
5.8853 0.8018 -0.1056
5.8782 0.7847 -0.1075
5.8709 0.7665 -0.1095
5.8641 0.7464 -0.1119
5.8464 0.7405 -0.1118
5.8372 0.7216 -0.1138
5.8250 0.7060 -0.1152
5.8152 0.6849 -0.1176
5.8036 0.6652 -0.1196
5.7922 0.6435 -0.1219
5.7780 0.6251 -0.1236
5.7628 0.6074 -0.1252
6.6981 -1.7448 -0.4862
6.5887 -1.7163 -0.4768
6.5437 -1.8648 -0.4943
6.5060 -2.0603 -0.5183
6.4425 -2.2003 -0.5337
6.2918 -2.0196 -0.5020
6.2082 -2.0843 -0.5063
6.1161 -2.1152 -0.5057
6.0810 -2.4915 -0.5540
5.9224 -2.1076 -0.4948
5.8560 -2.3557 -0.5244
5.5601 -2.1942 -0.4878
5.4712 -2.3311 -0.5014
5.3768 -2.4773 -0.5161
5.2781 -2.5902 -0.5260
5.1267 -0.7004 -0.2667
5.1515 -0.1489 -0.1946
5.0829 -0.1718 -0.1941
5.0455 -0.1949 -0.1953
5.0127 -0.2006 -0.1944
4.9837 -0.1946 -0.1921
4.9642 -0.1622 -0.1868
4.9421 -0.1423 -0.1830
4.9120 -0.1471 -0.1821
6.0056 0.9667 -0.1040
5.9870 0.9521 -0.1052
5.9825 0.9412 -0.1067
5.9735 0.9330 -0.1075
5.9662 0.9232 -0.1086
5.9651 0.9082 -0.1109
5.9532 0.9011 -0.1113
5.9535 0.8835 -0.1142
5.9409 0.8762 -0.1146
5.9324 0.8650 -0.1159
5.9226 0.8544 -0.1170
5.9201 0.8358 -0.1198
5.9004 0.8344 -0.1188
5.8924 0.8203 -0.1206
5.8866 0.8027 -0.1231
5.8846 0.7791 -0.1268
5.8732 0.7659 -0.1282
5.8619 0.7517 -0.1298
5.8443 0.7457 -0.1297
5.8423 0.7159 -0.1343
5.8270 0.7045 -0.1352
5.8140 0.6887 -0.1370
5.8057 0.6629 -0.1406
5.7658 0.6016 -0.1480
6.5302 -1.5596 -0.5399
6.4217 -1.5104 -0.5255
6.3496 -1.5627 -0.5295
6.1882 -1.6168 -0.5285
6.0961 -1.5923 -0.5190
6.0424 -1.7522 -0.5414
5.7733 -1.6472 -0.5084
5.6974 -1.6987 -0.5120
5.6188 -1.7250 -0.5115
5.5373 -1.6501 -0.4946
5.4615 -1.7516 -0.5063
5.2962 -2.0021 -0.5364
5.1597 -1.7515 -0.4881
5.1497 -0.8170 -0.3380
5.1312 -0.0783 -0.2186
5.0920 -0.1154 -0.2222
5.0547 -0.1415 -0.2241
5.0226 -0.1481 -0.2232
4.9943 -0.1429 -0.2207
4.9684 -0.1328 -0.2175
4.9413 -0.1283 -0.2152
4.9109 -0.1344 -0.2143
3.9156 -2.2432 -0.4919
3.8783 -2.1806 -0.4797
3.8808 -2.0400 -0.4573
3.8953 -1.8870 -0.4337
6.0022 0.9714 -0.1173
5.9931 0.9642 -0.1180
5.9951 0.9493 -0.1210
5.9832 0.9433 -0.1213
5.9782 0.9322 -0.1230
5.9745 0.9196 -0.1251
5.9647 0.9111 -0.1260
5.9600 0.8982 -0.1281
5.9442 0.8939 -0.1278
5.9430 0.8769 -0.1309
5.9359 0.8642 -0.1328
5.9275 0.8521 -0.1345
5.9179 0.8406 -0.1360
5.9064 0.8305 -0.1371
5.8988 0.8155 -0.1393
5.8927 0.7979 -0.1422
5.8824 0.7842 -0.1441
5.8697 0.7727 -0.1454
5.8628 0.7527 -0.1486
5.8520 0.7367 -0.1509
5.8389 0.7230 -0.1525
5.8291 0.7031 -0.1556
5.8164 0.6864 -0.1578
5.8069 0.6625 -0.1616
5.7909 0.6489 -0.1631
5.7808 0.6217 -0.1675
5.7699 0.5932 -0.1721
6.3663 -1.1223 -0.5349
6.3029 -1.1653 -0.5385
6.2322 -1.1890 -0.5380
6.1726 -1.2524 -0.5458
6.0857 -1.2163 -0.5330
6.0113 -1.2205 -0.5286
5.9417 -1.2438 -0.5282
5.8689 -1.2475 -0.5238
5.7998 -1.2706 -0.5233
5.7287 -1.2747 -0.5192
5.6665 -1.3784 -0.5343
5.5969 -1.4235 -0.5379
5.5251 -1.4258 -0.5334
5.4544 -1.4070 -0.5249
5.3901 -1.2183 -0.4851
5.2469 -0.7814 -0.3933
5.1676 -0.6495 -0.3631
5.1775 -0.1314 -0.2667
5.1283 -0.0702 -0.2519
5.0905 -0.1015 -0.2551
4.9384 -0.1203 -0.2481
4.9138 -0.1109 -0.2446
4.8821 -0.1216 -0.2444
4.0109 -1.7340 -0.4861
3.8531 -1.9432 -0.5144
6.0108 0.9687 -0.1330
5.9961 0.9648 -0.1327
5.9897 0.9555 -0.1342
5.9830 0.9460 -0.1357
5.9818 0.9323 -0.1386
5.9675 0.9275 -0.1385
5.9634 0.9148 -0.1409
5.9587 0.9019 -0.1433
5.9525 0.8895 -0.1455
5.9301 0.8522 -0.1517
5.9180 0.8430 -0.1528
5.9093 0.8298 -0.1549
5.8973 0.8196 -0.1562
5.8973 0.7950 -0.1615
5.8835 0.7852 -0.1625
5.8764 0.7664 -0.1660
5.8642 0.7530 -0.1679
5.8550 0.7345 -0.1711
5.8401 0.7233 -0.1724
5.8253 0.7112 -0.1738
5.8065 0.6648 -0.1823
5.7967 0.6389 -0.1871
5.7815 0.6215 -0.1897
5.7649 0.6056 -0.1918
5.5704 -1.0073 -0.5234
5.4487 -1.0964 -0.5330
5.3939 -0.8525 -0.4762
5.3433 -0.7820 -0.4571
5.2922 -0.7755 -0.4517
5.2410 -0.7813 -0.4489
5.1332 -0.8400 -0.4530
5.1690 -0.1503 -0.3075
5.1557 -0.0612 -0.2873
5.1310 -0.0386 -0.2805
5.0214 -0.1154 -0.2884
4.9899 -0.1219 -0.2873
4.9677 -0.1015 -0.2812
4.9428 -0.0924 -0.2773
4.9110 -0.1030 -0.2771
6.0109 0.9838 -0.1442
5.9987 0.9787 -0.1444
6.0012 0.9642 -0.1481
5.9916 0.9569 -0.1490
5.9858 0.9468 -0.1510
5.9805 0.9358 -0.1532
5.9785 0.9219 -0.1564
5.9685 0.9134 -0.1576
5.9663 0.8984 -0.1610
5.9529 0.8919 -0.1614
5.9453 0.8801 -0.1636
5.9331 0.8720 -0.1645
5.9279 0.8569 -0.1677
5.9242 0.8394 -0.1717
5.9108 0.8308 -0.1726
5.9108 0.8073 -0.1783
5.8972 0.7976 -0.1795
5.8793 0.7927 -0.1791
5.8729 0.7732 -0.1833
5.8656 0.7534 -0.1874
5.8534 0.7391 -0.1898
5.8412 0.7238 -0.1925
5.8278 0.7091 -0.1949
5.8214 0.6814 -0.2011
5.7918 0.6500 -0.2061
5.7759 0.6345 -0.2084
5.7626 0.6117 -0.2128
6.0487 -0.6045 -0.5338
5.9906 -0.6117 -0.5304
5.9388 -0.6413 -0.5331
5.8917 -0.6959 -0.5422
5.8358 -0.7146 -0.5418
5.7798 -0.7333 -0.5414
5.7256 -0.7648 -0.5443
5.6693 -0.7836 -0.5439
5.5554 -0.7952 -0.5367
5.5004 -0.8402 -0.5428
5.4441 -0.8457 -0.5392
5.3966 -0.5860 -0.4719
5.3386 -0.7688 -0.5112
5.2795 -0.8621 -0.5287
5.2218 -0.9069 -0.5345
5.1644 -0.9394 -0.5374
5.1340 -0.7903 -0.4984
5.1506 -0.0629 -0.3230
5.1246 -0.0451 -0.3164
5.0937 -0.0503 -0.3149
5.0708 -0.0284 -0.3076
5.0366 -0.0480 -0.3093
5.0015 -0.0689 -0.3113
4.9717 -0.0738 -0.3099
4.9468 -0.0658 -0.3058
4.9099 -0.0904 -0.3085
4.8763 -0.1058 -0.3093
4.2858 -1.0203 -0.4797
6.0153 0.9839 -0.1592
6.0116 0.9735 -0.1617
6.0042 0.9650 -0.1633
5.9975 0.9557 -0.1652
5.9875 0.9482 -0.1662
5.9889 0.9325 -0.1706
5.9763 0.9262 -0.1711
5.9681 0.9164 -0.1730
5.9614 0.9050 -0.1754
5.9559 0.8920 -0.1784
5.9456 0.8825 -0.1800
5.9350 0.8729 -0.1815
5.9335 0.8541 -0.1865
5.9235 0.8427 -0.1886
5.9138 0.8303 -0.1910
5.9064 0.8147 -0.1946
5.8956 0.8019 -0.1970
5.8870 0.7859 -0.2005
5.8808 0.7655 -0.2054
5.8670 0.7538 -0.2073
5.8541 0.7404 -0.2097
5.8422 0.7242 -0.2129
5.8335 0.7020 -0.2181
5.8157 0.6931 -0.2188
5.8039 0.6729 -0.2231
5.7944 0.6464 -0.2294
5.7807 0.6256 -0.2337
5.7654 0.6063 -0.2374
6.0620 -0.3100 -0.5154
6.0201 -0.3433 -0.5203
5.9776 -0.3778 -0.5255
5.9365 -0.4220 -0.5335
5.8942 -0.4676 -0.5418
5.8415 -0.4741 -0.5384
5.6899 -0.5147 -0.5347
5.6381 -0.5118 -0.5288
5.5895 -0.5382 -0.5312
5.4405 -0.6195 -0.5388
5.3941 -0.5155 -0.5060
5.3428 -0.6005 -0.5241
5.2903 -0.6587 -0.5348
5.2389 -0.6870 -0.5375
5.1885 -0.7039 -0.5371
5.1346 -0.7432 -0.5426
5.1726 -0.0838 -0.3671
5.1464 -0.0602 -0.3581
5.1206 -0.0415 -0.3505
5.0959 -0.0234 -0.3432
5.0641 -0.0340 -0.3430
5.0323 -0.0446 -0.3428
5.0021 -0.0507 -0.3415
4.9720 -0.0567 -0.3402
4.9370 -0.0766 -0.3421
4.9030 -0.0930 -0.3433
4.8793 -0.0837 -0.3384
4.8351 -0.1239 -0.3450
4.4329 -0.8657 -0.5073
4.3618 -0.9290 -0.5176
6.0074 0.9911 -0.1711
6.0103 0.9769 -0.1757
6.0008 0.9697 -0.1768
5.9932 0.9611 -0.1786
5.9872 0.9511 -0.1809
5.9896 0.9348 -0.1861
5.9759 0.9292 -0.1863
5.9695 0.9180 -0.1890
5.9636 0.9059 -0.1920
5.9545 0.8959 -0.1940
5.9442 0.8864 -0.1958
5.9401 0.8709 -0.2000
5.9281 0.8619 -0.2014
5.9205 0.8482 -0.2047
5.9115 0.8352 -0.2077
5.9063 0.8173 -0.2125
5.8995 0.8000 -0.2170
5.8854 0.7902 -0.2184
5.8754 0.7748 -0.2220
5.8684 0.7543 -0.2274
5.8564 0.7393 -0.2306
5.8433 0.7248 -0.2335
5.8333 0.7043 -0.2386
5.8204 0.6869 -0.2425
5.7895 0.6575 -0.2480
5.7743 0.6403 -0.2515
5.9957 -0.2726 -0.5498
5.8983 -0.2881 -0.5440
5.7075 -0.3088 -0.5297
5.6243 -0.4060 -0.5500
5.5789 -0.4404 -0.5555
5.4844 -0.4720 -0.5549
5.4369 -0.5060 -0.5600
5.3470 -0.4466 -0.5325
5.2945 -0.5447 -0.5563
5.2502 -0.5313 -0.5476
5.2060 -0.5280 -0.5418
5.1673 -0.0862 -0.4048
5.1424 -0.0563 -0.3932
5.1127 -0.0531 -0.3891
5.0879 -0.0343 -0.3807
5.0570 -0.0406 -0.3793
5.0309 -0.0322 -0.3740
4.9958 -0.0530 -0.3765
4.9676 -0.0534 -0.3736
4.9359 -0.0641 -0.3734
4.9024 -0.0793 -0.3743
4.8662 -0.1005 -0.3768
4.4603 -0.7868 -0.5396
4.4084 -0.8132 -0.5420
4.3561 -0.8398 -0.5444
6.0134 0.9778 -0.1910
6.0048 0.9699 -0.1926
6.0001 0.9594 -0.1955
5.9909 0.9513 -0.1971
5.9854 0.9404 -0.2000
5.9765 0.9315 -0.2019
5.9691 0.9210 -0.2045
5.9604 0.9111 -0.2068
5.9540 0.8990 -0.2100
5.9461 0.8874 -0.2130
5.9338 0.8792 -0.2142
5.9236 0.8688 -0.2164
5.9221 0.8493 -0.2227
5.9122 0.8370 -0.2256
5.9048 0.8216 -0.2298
5.8897 0.7876 -0.2393
5.8788 0.7729 -0.2428
5.8674 0.7581 -0.2464
5.8524 0.7471 -0.2483
5.8339 0.7409 -0.2481
5.9264 -0.0711 -0.5270
5.8446 -0.0985 -0.5264
5.8117 -0.1445 -0.5377
5.7670 -0.1454 -0.5328
5.7244 -0.1527 -0.5302
5.6800 -0.1466 -0.5230
5.6401 -0.1670 -0.5251
5.5992 -0.1807 -0.5248
5.3543 -0.2557 -0.5209
5.3104 -0.3054 -0.5321
5.2661 -0.3421 -0.5391
5.2217 -0.3720 -0.5437
5.1878 -0.3324 -0.5267
5.1906 -0.1088 -0.4532
5.1696 -0.0519 -0.4320
5.1394 -0.0480 -0.4272
5.1147 -0.0253 -0.4168
5.0850 -0.0263 -0.4136
5.0554 -0.0282 -0.4108
5.0248 -0.0344 -0.4093
4.9914 -0.0496 -0.4104
4.9577 -0.0649 -0.4115
4.9291 -0.0665 -0.4086
4.8954 -0.0818 -0.4097
4.8531 -0.1169 -0.4164
4.6323 -0.4775 -0.5095
4.5483 -0.5825 -0.5343
4.4971 -0.6147 -0.5389
6.0237 0.9871 -0.2044
6.0175 0.9781 -0.2069
6.0067 0.9715 -0.2079
6.0039 0.9596 -0.2118
5.9936 0.9522 -0.2132
5.9850 0.9434 -0.2152
5.9780 0.9331 -0.2180
5.9760 0.9186 -0.2230
5.9578 0.8986 -0.2279
5.9497 0.8870 -0.2311
5.9413 0.8752 -0.2342
5.9339 0.8618 -0.2381
5.9244 0.8497 -0.2412
5.9100 0.8419 -0.2422
5.9074 0.8213 -0.2493
5.8964 0.8086 -0.2525
5.8894 0.7904 -0.2581
5.8816 0.7719 -0.2638
5.8345 0.7423 -0.2685
5.9481 -0.0058 -0.5521
5.7512 -0.0787 -0.5533
5.2740 -0.2316 -0.5477
5.2362 -0.2313 -0.5428
5.2002 -0.2245 -0.5358
5.1766 -0.1571 -0.5085
5.1611 -0.0691 -0.4749
5.1352 -0.0451 -0.4629
5.1068 -0.0367 -0.4563
5.0806 -0.0237 -0.4483
5.0482 -0.0345 -0.4481
5.0220 -0.0265 -0.4418
4.9920 -0.0316 -0.4398
4.9619 -0.0377 -0.4382
4.9284 -0.0528 -0.4394
4.8864 -0.0887 -0.4470
4.8388 -0.1354 -0.4577
4.7917 -0.1780 -0.4671
4.6733 -0.3712 -0.5216
4.6142 -0.4277 -0.5344
4.5602 -0.4706 -0.5429
4.5206 -0.4839 -0.5427
6.0120 0.9840 -0.2196
6.0044 0.9756 -0.2218
6.0016 0.9638 -0.2260
5.9903 0.9571 -0.2271
5.9876 0.9444 -0.2317
5.9757 0.9375 -0.2327
5.9692 0.9264 -0.2362
5.9564 0.9024 -0.2437
5.9533 0.8867 -0.2495
5.9398 0.8792 -0.2505
5.9300 0.8680 -0.2536
5.9229 0.8538 -0.2581
5.9143 0.8401 -0.2623
5.9045 0.8270 -0.2661
5.7962 0.6491 -0.3206
5.7865 0.1056 -0.5313
5.7145 0.0864 -0.5289
5.6809 0.0653 -0.5325
5.6445 0.0581 -0.5303
5.6096 0.0415 -0.5320
5.5745 0.0238 -0.5341
5.5394 0.0022 -0.5377
5.5026 0.0105 -0.5294
5.4671 -0.0063 -0.5311
5.4316 -0.0132 -0.5289
5.3961 -0.0251 -0.5287
5.3584 -0.0692 -0.5407
5.3236 -0.0651 -0.5344
5.2890 -0.0659 -0.5299
5.2542 -0.0726 -0.5278
5.2178 -0.0897 -0.5294
5.1842 -0.0912 -0.5254
5.1603 -0.0500 -0.5060
5.1344 -0.0271 -0.4936
5.1077 -0.0134 -0.4846
5.0817 -0.0015 -0.4763
5.0510 -0.0079 -0.4746
5.0176 -0.0230 -0.4759
4.9841 -0.0381 -0.4772
4.9536 -0.0444 -0.4755
4.9181 -0.0642 -0.4783
4.8690 -0.1160 -0.4918
4.8176 -0.1697 -0.5057
4.7600 -0.2332 -0.5226
4.7191 -0.2567 -0.5262
4.6709 -0.2945 -0.5343
4.6281 -0.3197 -0.5382
4.6123 -0.2925 -0.5254
6.0193 1.0070 -0.2267
6.0169 0.9964 -0.2308
6.0129 0.9862 -0.2345
6.0052 0.9778 -0.2369
5.9943 0.9712 -0.2381
5.9930 0.9581 -0.2434
5.9843 0.9493 -0.2458
5.9791 0.9378 -0.2499
5.9532 0.9077 -0.2588
5.9519 0.8906 -0.2657
5.9251 0.8543 -0.2771
5.9128 0.8443 -0.2795
5.9030 0.8313 -0.2835
5.8939 0.8165 -0.2884
5.8548 0.7507 -0.3103
5.8413 0.7364 -0.3143
5.8294 0.7187 -0.3200
5.2190 -0.0550 -0.5556
5.1820 -0.0771 -0.5594
5.1572 -0.0415 -0.5408
5.1361 0.0003 -0.5201
5.1071 0.0032 -0.5145
5.0735 -0.0119 -0.5160
5.0410 -0.0228 -0.5158
5.0133 -0.0194 -0.5102
4.9827 -0.0257 -0.5084
4.9453 -0.0509 -0.5135
4.9112 -0.0663 -0.5149
4.8660 -0.1078 -0.5257
4.8194 -0.1497 -0.5365
4.7725 -0.1899 -0.5464
4.7324 -0.2131 -0.5503
4.7034 -0.2130 -0.5460
4.6947 -0.1739 -0.5283
4.6972 -0.1174 -0.5049
6.0338 1.0020 -0.2466
6.0200 0.9974 -0.2465
6.0105 0.9903 -0.2482
5.9833 0.9376 -0.2678
5.9553 0.9088 -0.2763
5.9554 0.8904 -0.2847
5.9302 0.8733 -0.2884
5.9176 0.8642 -0.2905
5.9156 0.8442 -0.2993
5.8930 0.8201 -0.3066
5.8070 0.2757 -0.5391
5.7777 0.2581 -0.5424
5.7141 0.2369 -0.5420
5.6499 0.2192 -0.5398
5.6177 0.2123 -0.5378
5.5870 0.1943 -0.5411
5.4915 0.1701 -0.5370
5.4599 0.1634 -0.5350
5.4283 0.1489 -0.5366
5.2712 0.1002 -0.5338
5.2397 0.0896 -0.5336
5.2039 0.0573 -0.5425
5.1710 0.0424 -0.5441
5.1389 0.0316 -0.5439
5.1116 0.0390 -0.5362
5.0825 0.0370 -0.5325
5.0497 0.0221 -0.5341
5.0152 0.0028 -0.5374
4.9834 -0.0078 -0.5371
4.9495 -0.0240 -0.5391
4.9199 -0.0291 -0.5367
4.8838 -0.0499 -0.5404
4.8453 -0.0754 -0.5459
4.8109 -0.0908 -0.5474
4.7806 -0.0971 -0.5454
4.7460 -0.1125 -0.5470
4.7214 -0.1082 -0.5411
4.7050 -0.0894 -0.5300
5.9874 0.9528 -0.2785
5.9792 0.9433 -0.2817
5.9696 0.9343 -0.2844
5.9632 0.9052 -0.2974
5.9357 0.8710 -0.3093
5.9229 0.8619 -0.3116
5.9008 0.8141 -0.3310
5.2502 0.1721 -0.5318
5.2214 0.1653 -0.5302
5.1860 0.1295 -0.5416
5.1549 0.1152 -0.5433
5.1203 0.0892 -0.5500
5.0910 0.0832 -0.5480
5.0578 0.0644 -0.5515
5.0241 0.0454 -0.5550
4.9932 0.0351 -0.5548
4.9639 0.0291 -0.5527
4.9313 0.0144 -0.5544
4.9023 0.0085 -0.5523
4.8735 0.0027 -0.5503
4.8428 -0.0076 -0.5501
4.8076 -0.0270 -0.5535
4.7791 -0.0328 -0.5515
4.7531 -0.0338 -0.5476
5.9842 0.9577 -0.2926
5.9797 0.9457 -0.2980
5.9601 0.9105 -0.3126
5.9509 0.8998 -0.3165
5.9334 0.8758 -0.3257
5.9258 0.8618 -0.3316
5.7366 0.3890 -0.5415
5.6524 0.3580 -0.5425
5.5950 0.3445 -0.5391
5.5397 0.3136 -0.5452
5.3965 0.2532 -0.5506
5.3126 0.2442 -0.5402
5.2836 0.2307 -0.5420
5.2565 0.2283 -0.5384
5.2255 0.2055 -0.5446
5.1976 0.1990 -0.5429
5.1717 0.1999 -0.5378
5.1415 0.1831 -0.5411
5.1130 0.1736 -0.5409
5.0846 0.1640 -0.5407
5.0540 0.1480 -0.5434
5.0226 0.1309 -0.5467
4.9926 0.1179 -0.5480
4.9696 0.1226 -0.5414
4.9425 0.1164 -0.5397
4.9110 0.1002 -0.5425
4.8771 0.0793 -0.5472
4.8483 0.0696 -0.5470
4.8270 0.0749 -0.5405
4.8004 0.0688 -0.5388
4.7719 0.0593 -0.5386
