ply
format ascii 1.0
element vertex 2100
property float x
property float y
property float z
end_header
0.2891 -0.8729 -0.1733
0.6277 -1.1315 -0.1858
1.3161 -1.6314 -0.1472
2.0523 -2.1738 -0.1254
2.1366 -2.2365 -0.1244
2.2112 -2.2919 -0.1232
2.2764 -2.3404 -0.1225
2.3189 -2.3757 -0.1309
2.4353 -2.4584 -0.1199
2.4966 -2.4990 -0.1068
2.5104 -2.5161 -0.1235
2.5525 -2.5456 -0.1185
2.5782 -2.5668 -0.1234
2.6340 -2.6092 -0.1250
2.6681 -2.6318 -0.1177
2.6868 -2.6476 -0.1222
2.7046 -2.6626 -0.1264
2.7326 -2.6808 -0.1195
2.7771 -2.7113 -0.1123
2.7905 -2.7228 -0.1161
2.8055 -2.7345 -0.1174
2.8195 -2.7456 -0.1187
2.8374 -2.7573 -0.1146
2.8612 -2.7764 -0.1179
2.8733 -2.7856 -0.1180
2.8870 -2.7948 -0.1154
2.8967 -2.8028 -0.1172
2.9080 -2.8108 -0.1163
2.9199 -2.8187 -0.1136
2.9294 -2.8259 -0.1137
2.9359 -2.8324 -0.1178
0.0625 -0.4617 0.7458
0.4223 -0.8293 0.4690
0.3752 -0.8295 0.3867
0.1512 -0.8947 -0.1629
1.3853 -1.7430 -0.0993
1.4149 -1.7837 -0.1476
1.9863 -2.1817 -0.1309
2.0777 -2.2458 -0.1292
2.1483 -2.2970 -0.1323
2.2160 -2.3452 -0.1327
2.2723 -2.3862 -0.1355
2.3241 -2.4237 -0.1374
2.3849 -2.4640 -0.1308
2.4945 -2.5350 -0.1145
2.5515 -2.5792 -0.1239
2.6218 -2.6257 -0.1157
2.6518 -2.6457 -0.1127
2.6693 -2.6606 -0.1187
2.7578 -2.7213 -0.1138
2.7643 -2.7306 -0.1255
2.7989 -2.7474 -0.1064
2.8060 -2.7562 -0.1157
2.8203 -2.7666 -0.1164
2.8361 -2.7770 -0.1143
2.8487 -2.7862 -0.1153
2.8540 -2.7938 -0.1245
2.8744 -2.8039 -0.1140
2.8859 -2.8120 -0.1139
2.8982 -2.8200 -0.1120
2.9108 -2.8334 -0.1229
2.9260 -2.8408 -0.1147
2.9311 -2.8469 -0.1209
1.1983 -1.4343 0.5311
0.4355 -0.9409 0.4881
0.3632 -0.9254 0.4083
0.2678 -1.0727 -0.1057
1.2605 -1.7379 -0.1060
1.3935 -1.8354 -0.1265
1.9430 -2.2032 -0.1257
2.1342 -2.3276 -0.1170
2.1895 -2.3678 -0.1245
2.2549 -2.4112 -0.1235
2.3062 -2.4468 -0.1266
2.3477 -2.4770 -0.1325
2.4531 -2.5435 -0.1224
2.5354 -2.5961 -0.1163
2.5749 -2.6203 -0.1108
2.6015 -2.6390 -0.1131
2.6475 -2.6723 -0.1188
2.6679 -2.6872 -0.1220
2.6931 -2.7031 -0.1196
2.7174 -2.7181 -0.1165
2.7382 -2.7315 -0.1153
2.7539 -2.7431 -0.1179
2.7662 -2.7536 -0.1232
2.7925 -2.7669 -0.1127
2.8022 -2.7759 -0.1190
2.8305 -2.7950 -0.1194
2.8457 -2.8042 -0.1169
2.8568 -2.8124 -0.1187
2.8735 -2.8211 -0.1126
2.8796 -2.8280 -0.1194
2.8913 -2.8353 -0.1182
2.9006 -2.8422 -0.1198
2.9130 -2.8490 -0.1162
2.9221 -2.8553 -0.1167
0.2304 -0.9066 0.5119
0.3241 -1.0002 0.4290
-0.7189 -0.3859 0.3185
-0.3014 -0.8516 -0.1671
1.2400 -1.7930 -0.0844
1.3615 -1.8801 -0.1092
1.4580 -1.9519 -0.1350
1.6223 -2.0549 -0.1325
1.7607 -2.1416 -0.1304
1.9567 -2.2684 -0.1370
2.0476 -2.3252 -0.1352
2.1417 -2.3812 -0.1267
2.2069 -2.4229 -0.1276
2.2549 -2.4560 -0.1341
2.3186 -2.4942 -0.1290
2.3802 -2.5300 -0.1214
2.4932 -2.6039 -0.1270
2.5389 -2.6294 -0.1186
2.5705 -2.6492 -0.1183
2.5976 -2.6669 -0.1196
2.6177 -2.6819 -0.1252
2.6454 -2.6986 -0.1231
2.6927 -2.7278 -0.1214
2.7174 -2.7418 -0.1174
2.7377 -2.7542 -0.1162
2.7747 -2.7767 -0.1141
2.7863 -2.7860 -0.1187
2.8013 -2.7956 -0.1191
2.8169 -2.8049 -0.1176
2.8292 -2.8134 -0.1193
2.8455 -2.8220 -0.1152
2.8610 -2.8301 -0.1113
2.8680 -2.8370 -0.1171
2.8784 -2.8441 -0.1182
2.8919 -2.8510 -0.1144
2.8997 -2.8573 -0.1177
2.9050 -2.8633 -0.1241
0.0754 -0.8061 0.7889
0.9220 -1.3771 0.6334
1.2010 -1.6932 0.2762
1.2338 -1.7351 0.2229
-0.1827 -1.0279 -0.1105
1.2608 -1.8669 -0.0537
1.2124 -1.8672 -0.1234
1.5653 -2.0794 -0.1265
1.7334 -2.1757 -0.1165
1.9136 -2.2899 -0.1322
1.9866 -2.3369 -0.1401
2.1010 -2.3988 -0.1247
2.2012 -2.4525 -0.1098
2.2340 -2.4783 -0.1247
2.3441 -2.5434 -0.1231
2.4050 -2.5760 -0.1141
2.4396 -2.5986 -0.1185
2.5066 -2.6405 -0.1230
2.5729 -2.6791 -0.1205
2.6261 -2.7112 -0.1211
2.6806 -2.7409 -0.1145
2.7180 -2.7647 -0.1178
2.7558 -2.7866 -0.1162
2.7712 -2.7963 -0.1176
2.7873 -2.8058 -0.1171
2.7999 -2.8144 -0.1197
2.8184 -2.8234 -0.1147
2.8326 -2.8315 -0.1138
2.8458 -2.8391 -0.1131
2.8678 -2.8530 -0.1150
2.8758 -2.8595 -0.1189
1.0846 -1.5737 0.5735
1.0152 -1.5575 0.5192
1.1667 -1.6685 0.4583
1.2757 -1.7528 0.4044
1.3267 -1.8467 0.2499
0.2740 -1.3963 -0.0898
1.0254 -1.8169 -0.0827
0.9990 -1.8310 -0.1512
1.5122 -2.0859 -0.0697
1.5733 -2.1331 -0.0999
1.6229 -2.1742 -0.1309
1.8691 -2.3116 -0.1276
1.9334 -2.3533 -0.1407
2.0393 -2.4092 -0.1317
2.1307 -2.4574 -0.1237
2.2022 -2.4965 -0.1209
2.3074 -2.5574 -0.1246
2.3486 -2.5824 -0.1289
2.3996 -2.6095 -0.1248
2.4854 -2.6555 -0.1192
2.5504 -2.6922 -0.1193
2.6031 -2.7230 -0.1220
2.6606 -2.7524 -0.1146
2.6953 -2.7749 -0.1217
2.7182 -2.7865 -0.1184
2.7340 -2.7964 -0.1209
2.7706 -2.8158 -0.1179
2.8296 -2.8481 -0.1158
2.8413 -2.8551 -0.1168
2.8573 -2.8620 -0.1117
2.8762 -2.8745 -0.1160
2.8851 -2.8803 -0.1179
0.5079 -1.3469 0.5543
-0.1583 -1.0550 0.4079
1.3245 -1.9247 0.2152
1.2735 -1.9904 -0.0032
1.3492 -2.0457 -0.0387
1.2953 -2.0453 -0.1053
1.5398 -2.1876 -0.1343
1.8039 -2.3262 -0.1304
1.8973 -2.3772 -0.1336
2.0724 -2.4689 -0.1305
2.1493 -2.5083 -0.1271
2.1957 -2.5365 -0.1353
2.2907 -2.5782 -0.1146
2.3849 -2.6284 -0.1152
2.3994 -2.6434 -0.1321
2.4567 -2.6687 -0.1202
2.4821 -2.6851 -0.1270
2.5315 -2.7064 -0.1153
2.5529 -2.7205 -0.1217
2.6000 -2.7481 -0.1276
2.6558 -2.7748 -0.1209
2.6739 -2.7858 -0.1239
2.7395 -2.8172 -0.1160
2.7546 -2.8260 -0.1178
2.7731 -2.8347 -0.1151
2.7889 -2.8428 -0.1143
2.8001 -2.8502 -0.1177
2.8175 -2.8576 -0.1134
2.8260 -2.8643 -0.1186
2.8423 -2.8709 -0.1138
2.8507 -2.8772 -0.1180
2.8607 -2.8832 -0.1195
2.8725 -2.8889 -0.1183
1.5254 -1.8830 0.6930
1.4928 -1.8834 0.6539
1.3407 -1.9869 0.2340
1.2996 -1.9899 0.1789
1.0556 -1.9057 0.0904
1.2787 -2.0474 0.0202
1.1295 -2.0099 -0.0668
1.0777 -2.0140 -0.1368
1.3055 -2.1253 -0.1307
1.6228 -2.2835 -0.1296
1.7363 -2.3418 -0.1331
1.8026 -2.3818 -0.1492
1.9462 -2.4453 -0.1297
2.0455 -2.4918 -0.1222
2.1289 -2.5313 -0.1170
2.1974 -2.5646 -0.1149
2.3028 -2.6183 -0.1172
2.3512 -2.6423 -0.1167
2.3870 -2.6622 -0.1213
2.4705 -2.7021 -0.1170
2.5067 -2.7195 -0.1153
2.5239 -2.7324 -0.1254
2.5607 -2.7485 -0.1199
2.5843 -2.7615 -0.1227
2.6450 -2.7878 -0.1132
2.6625 -2.7982 -0.1171
2.6893 -2.8093 -0.1117
2.7058 -2.8187 -0.1145
2.7249 -2.8280 -0.1138
2.7509 -2.8444 -0.1216
2.7716 -2.8525 -0.1164
2.7913 -2.8601 -0.1112
2.8000 -2.8669 -0.1170
2.8095 -2.8736 -0.1214
2.8272 -2.8800 -0.1158
2.8375 -2.8861 -0.1180
2.8468 -2.8920 -0.1208
2.8571 -2.8976 -0.1220
-0.2234 -0.5090 2.0955
1.5115 -1.9437 0.6583
1.4220 -1.9161 0.6247
1.4264 -1.9377 0.5793
1.4622 -2.0717 0.3073
1.4176 -2.0721 0.2575
1.2815 -2.0353 0.1945
1.1766 -2.0142 0.1289
1.0438 -1.9844 0.0530
1.1342 -2.0440 0.0134
1.1254 -2.0644 -0.0436
1.0602 -2.0645 -0.1152
1.2143 -2.1438 -0.1310
1.4438 -2.2456 -0.1168
1.5613 -2.3053 -0.1270
1.6652 -2.3580 -0.1361
1.7498 -2.4026 -0.1472
1.8945 -2.4632 -0.1299
1.9692 -2.5006 -0.1351
2.1659 -2.5828 -0.1113
2.2528 -2.6299 -0.1258
2.3575 -2.6770 -0.1209
2.4418 -2.7155 -0.1182
2.4749 -2.7317 -0.1197
2.5030 -2.7463 -0.1229
2.5378 -2.7613 -0.1198
2.5685 -2.7749 -0.1179
2.6238 -2.7994 -0.1142
2.6446 -2.8099 -0.1159
2.6586 -2.8193 -0.1224
2.6755 -2.8286 -0.1257
2.6950 -2.8378 -0.1256
2.7249 -2.8470 -0.1146
2.7452 -2.8552 -0.1113
2.7714 -2.8697 -0.1164
2.7840 -2.8766 -0.1185
2.7993 -2.8831 -0.1169
2.8251 -2.8952 -0.1169
2.8337 -2.9010 -0.1209
2.8433 -2.9065 -0.1234
1.4760 -1.9740 0.6693
1.3794 -2.1047 0.2694
1.1486 -2.1264 -0.0156
1.1661 -2.1557 -0.0653
1.0492 -2.1404 -0.1492
1.4793 -2.3220 -0.1301
1.5905 -2.3750 -0.1392
1.6962 -2.4241 -0.1449
1.8348 -2.4799 -0.1325
1.9565 -2.5283 -0.1202
2.0051 -2.5557 -0.1338
2.0767 -2.5875 -0.1343
2.2267 -2.6479 -0.1210
2.3345 -2.6935 -0.1164
2.4096 -2.7288 -0.1212
2.6024 -2.8112 -0.1151
2.6372 -2.8226 -0.1060
2.6466 -2.8313 -0.1165
2.6638 -2.8404 -0.1198
2.6808 -2.8490 -0.1224
2.7215 -2.8653 -0.1186
2.7354 -2.8726 -0.1214
2.7483 -2.8797 -0.1245
2.7726 -2.8863 -0.1150
2.7835 -2.8927 -0.1186
2.7952 -2.8988 -0.1207
2.8079 -2.9045 -0.1212
2.8233 -2.9099 -0.1177
1.5034 -2.0341 0.6718
1.3922 -2.1567 0.2851
1.3351 -2.1556 0.2337
0.6083 -1.9722 -0.0352
1.1492 -2.2007 -0.0462
1.0319 -2.1880 -0.1282
1.1969 -2.2611 -0.1393
1.5973 -2.4161 -0.1150
1.6852 -2.4578 -0.1272
1.7924 -2.5024 -0.1279
1.9083 -2.5469 -0.1199
1.9837 -2.5796 -0.1234
2.0566 -2.6101 -0.1242
2.2086 -2.6677 -0.1121
2.2407 -2.6859 -0.1234
2.2972 -2.7077 -0.1198
2.5180 -2.7999 -0.1217
2.5806 -2.8232 -0.1158
2.6849 -2.8683 -0.1201
2.7252 -2.8830 -0.1157
2.7432 -2.8897 -0.1140
2.7583 -2.8961 -0.1144
2.7801 -2.9019 -0.1070
2.7833 -2.9082 -0.1184
2.7933 -2.9140 -0.1221
2.8100 -2.9190 -0.1178
1.5122 -2.0827 0.6766
1.3712 -2.1745 0.3428
1.3344 -2.1812 0.2952
1.3388 -2.2029 0.2495
1.2689 -2.1997 0.1951
0.4855 -1.9661 0.0367
0.4039 -1.9698 -0.0437
1.1195 -2.2408 -0.0303
1.3119 -2.3607 -0.1338
1.4944 -2.4278 -0.1259
1.5990 -2.4724 -0.1352
1.7147 -2.5174 -0.1356
1.8341 -2.5607 -0.1290
1.9110 -2.5926 -0.1340
2.0126 -2.6278 -0.1246
2.0898 -2.6563 -0.1215
2.1500 -2.6802 -0.1229
2.2151 -2.7036 -0.1189
2.2684 -2.7239 -0.1179
2.3050 -2.7406 -0.1237
2.3859 -2.7726 -0.1254
2.4292 -2.7876 -0.1214
2.4692 -2.8014 -0.1175
2.5141 -2.8147 -0.1082
2.5282 -2.8248 -0.1187
2.5817 -2.8453 -0.1184
2.6296 -2.8634 -0.1173
2.6493 -2.8715 -0.1185
2.6710 -2.8793 -0.1170
2.6896 -2.8866 -0.1173
2.7091 -2.8934 -0.1157
2.7458 -2.9060 -0.1119
2.7561 -2.9121 -0.1167
2.7674 -2.9179 -0.1201
2.7815 -2.9233 -0.1198
2.7976 -2.9281 -0.1167
1.3111 -5.6952 1.0695
1.3349 -5.5945 1.0572
1.3317 -5.2431 1.0350
1.2826 -5.2180 1.0452
1.4291 -4.9623 0.9932
-1.0471 -3.3611 1.4833
-1.0703 -3.2557 1.4819
0.7428 -2.8231 1.0182
0.7299 -2.7644 1.0175
0.2259 -1.9368 1.0844
0.1670 -1.8471 1.0927
1.3372 -5.6050 1.0017
1.3720 -5.4948 0.9875
1.2198 -5.2831 1.0078
1.2835 -5.1574 0.9864
1.4417 -4.9602 0.9401
-0.4347 -5.4016 1.3740
-0.3227 -5.1255 1.3331
-0.7730 -3.2654 1.3187
0.7530 -2.8756 0.9639
0.7566 -2.8208 0.9598
0.7437 -2.7621 0.9591
0.5426 -2.6467 0.9958
-1.0948 -1.6051 1.2884
-0.9830 -1.5669 1.2618
-0.4087 -1.7500 1.1482
0.1527 -1.8892 1.0347
0.2484 -1.8788 1.0133
1.3512 -5.6027 0.9426
1.2851 -5.2356 0.9351
1.4853 -4.9329 0.8796
1.4219 -4.9210 0.8913
-0.5809 -5.2515 1.2974
-0.5763 -4.0521 1.2303
-1.1988 -3.3473 1.3120
0.7799 -2.9323 0.9059
0.7670 -2.8733 0.9051
0.7705 -2.8185 0.9014
0.7576 -2.7598 0.9007
-0.6614 -1.7778 1.1213
-0.6440 -1.7058 1.1140
-0.4548 -1.7161 1.0779
0.0674 -1.8979 0.9868
0.1913 -1.8979 0.9628
1.4006 -5.5610 0.8754
1.4888 -5.0007 0.8324
1.4250 -4.9905 0.8428
1.4233 -4.9278 0.8399
2.0173 -4.2922 0.7072
1.9985 -4.1816 0.7048
1.9700 -4.1566 0.7085
-0.9724 -3.3487 1.1683
-0.9021 -3.2483 1.1513
-0.5467 -3.1744 1.0872
0.6931 -2.9669 0.8661
0.7789 -2.9268 0.8495
0.7972 -2.8749 0.8438
0.8450 -2.8322 0.8335
0.7714 -2.7575 0.8423
0.7586 -2.6989 0.8415
0.6640 -2.6134 0.8533
-0.6040 -1.7901 1.0277
-0.6977 -1.6686 1.0376
-0.5713 -1.6483 1.0151
0.0102 -1.8586 0.9268
0.0922 -1.8361 0.9117
1.4600 -5.5076 0.8084
1.3292 -5.5788 0.8307
1.3159 -5.5182 0.8300
1.3277 -5.4324 0.8244
1.3515 -5.3368 0.8166
1.3858 -5.2341 0.8070
1.5522 -5.0165 0.7730
1.5114 -4.9899 0.7778
1.4379 -4.9883 0.7884
1.4147 -4.9426 0.7898
2.0137 -4.3405 0.6754
2.0258 -4.2908 0.6714
2.0073 -4.2614 0.6728
1.9945 -4.2280 0.6731
1.4519 -4.2101 0.7516
1.5601 -4.1154 0.7316
1.5407 -4.0719 0.7324
-1.2533 -3.3355 1.1075
-1.0427 -3.1298 1.0676
0.6839 -3.0804 0.8132
0.7899 -2.9807 0.7933
0.8537 -2.9378 0.7820
0.8560 -2.8835 0.7793
0.7982 -2.8139 0.7846
0.8156 -2.7640 0.7798
0.8181 -2.7107 0.7771
0.8055 -2.6531 0.7764
0.6650 -2.5504 0.7923
0.5636 -2.4569 0.8029
0.3130 -2.3008 0.8325
-0.7143 -1.6479 0.9533
0.1476 -1.9155 0.8394
0.1322 -1.8454 0.8385
2.4605 -4.4899 0.5916
2.4522 -4.4667 0.5917
2.4421 -4.4454 0.5921
2.4363 -4.4189 0.5917
2.3646 -4.4289 0.6009
2.3584 -4.4005 0.6005
1.5905 -4.9302 0.7149
1.5702 -4.8871 0.7157
1.4490 -4.9235 0.7319
2.0096 -4.3056 0.6392
2.0063 -4.2660 0.6381
2.0031 -4.2266 0.6369
1.5916 -4.2070 0.6863
1.5105 -4.1891 0.6954
1.5450 -4.1234 0.6886
1.5074 -4.0855 0.6917
-0.7422 -3.3461 0.9365
0.6850 -3.0149 0.7497
0.6541 -2.9485 0.7508
0.8218 -2.9254 0.7295
0.8696 -2.8813 0.7219
0.8570 -2.8237 0.7212
0.8293 -2.7617 0.7221
0.8014 -2.6990 0.7231
0.8039 -2.6458 0.7207
0.7758 -2.5824 0.7216
0.7631 -2.5241 0.7208
0.7027 -2.4468 0.7251
0.2029 -2.1835 0.7756
-0.5986 -1.7674 0.8568
-0.6930 -1.6444 0.8635
-0.1531 -1.8230 0.8048
0.2764 -1.9689 0.7582
0.1721 -1.8548 0.7664
0.3922 -1.9124 0.7419
0.3979 -1.8592 0.7391
2.0591 -4.3180 0.5992
1.5770 -4.2164 0.6426
1.4934 -4.1453 0.6484
1.1226 -4.0345 0.6806
0.9175 -3.1632 0.6709
0.9357 -3.0544 0.6655
0.8938 -2.9913 0.6674
0.8959 -2.9366 0.6653
0.7600 -2.8485 0.6755
0.9142 -2.8332 0.6600
0.8430 -2.7594 0.6644
0.8453 -2.7062 0.6624
0.7873 -2.6333 0.6656
0.7744 -2.5746 0.6648
0.7921 -2.5276 0.6615
0.7321 -2.4507 0.6647
0.6843 -2.1639 0.6596
0.4409 -1.9844 0.6772
0.5029 -1.9619 0.6704
0.6617 -1.9969 0.6561
1.3402 -6.1697 0.6692
1.2267 -6.2391 0.6794
1.9717 -5.1222 0.5936
2.0089 -5.0226 0.5881
2.0644 -4.7134 0.5752
2.0155 -4.7155 0.5788
1.9457 -4.7343 0.5844
2.0443 -4.3329 0.5658
1.5882 -4.2145 0.5954
1.5246 -4.1889 0.5993
0.9263 -2.8841 0.6053
0.8089 -2.7986 0.6114
0.8108 -2.7436 0.6097
0.7828 -2.6798 0.6099
0.6875 -2.5925 0.6143
0.8185 -2.5833 0.6045
0.6224 -2.0169 0.6025
1.2723 -6.1962 0.6094
1.9393 -5.1747 0.5544
1.9758 -4.7626 0.5432
1.9007 -4.7849 0.5472
1.8257 -4.8023 0.5512
1.7345 -4.8290 0.5561
1.6675 -4.8294 0.5592
1.6649 -4.7737 0.5581
1.6705 -4.7121 0.5564
1.7085 -4.6279 0.5527
2.0242 -4.3516 0.5314
2.0309 -4.3044 0.5300
1.5556 -4.2320 0.5508
1.5538 -4.1797 0.5496
0.4959 -3.0985 0.5746
1.0038 -3.0574 0.5497
0.9502 -2.9927 0.5508
0.9085 -2.9288 0.5513
0.9251 -2.8782 0.5493
0.8683 -2.8088 0.5504
0.7620 -2.7226 0.5534
0.4977 -2.5818 0.5626
0.4427 -2.5014 0.5634
0.4685 -2.4486 0.5609
0.5505 -2.4193 0.5564
0.5739 -2.3702 0.5542
0.5952 -2.3219 0.5520
0.6004 -2.2678 0.5506
0.7249 -2.2180 0.5435
0.6796 -2.1428 0.5439
1.2293 -6.3646 0.5469
1.3020 -6.1746 0.5420
1.3625 -5.5331 0.5295
1.5622 -5.2506 0.5202
1.5702 -5.1760 0.5188
1.7931 -4.8404 0.5081
1.4611 -5.0794 0.5194
1.3568 -5.1013 0.5221
1.4697 -4.9399 0.5168
1.4992 -4.8523 0.5147
2.0073 -4.3683 0.4952
1.5498 -4.2378 0.5028
1.5293 -4.1927 0.5025
1.1236 -4.1011 0.5097
0.5920 -3.1066 0.5038
0.9906 -3.0503 0.4942
0.9781 -2.9934 0.4935
0.9657 -2.9366 0.4928
0.8516 -2.7981 0.4928
0.7434 -2.7104 0.4937
0.2410 -2.4236 0.4995
0.1186 -2.1747 0.4978
0.1526 -2.1220 0.4962
-0.0176 -1.9788 0.4974
-0.0900 -1.8756 0.4971
-0.0513 -1.8250 0.4954
0.1372 -1.8538 0.4918
0.3878 -1.9242 0.4876
0.0561 -1.6819 0.4906
-0.0122 -1.5786 0.4903
1.2458 -6.2712 0.4766
1.3770 -5.5307 0.4684
1.4586 -5.3701 0.4669
1.7280 -4.9092 0.4626
1.5152 -4.9755 0.4624
1.3819 -5.0202 0.4624
1.9908 -4.3850 0.4575
1.5593 -4.1832 0.4533
1.5301 -4.1413 0.4527
1.0797 -4.2473 0.4520
1.1369 -4.1626 0.4513
1.0526 -4.1237 0.4505
0.4669 -3.0846 0.4358
0.5735 -3.0333 0.4356
0.7758 -3.0056 0.4361
0.9629 -2.9852 0.4367
0.9358 -2.9242 0.4359
0.9376 -2.8700 0.4352
0.7546 -2.7647 0.4332
0.8526 -2.7367 0.4333
0.6413 -2.6131 0.4310
0.2342 -2.4124 0.4269
-0.5619 -2.0504 0.4193
-0.5072 -1.9877 0.4188
0.1617 -2.1824 0.4239
-0.0651 -2.0168 0.4210
-0.3912 -1.7970 0.4170
-0.2222 -1.6557 0.4161
-0.3665 -1.5065 0.4137
-0.0034 -1.6361 0.4168
-0.1007 -1.5142 0.4149
-0.1466 -1.4198 0.4136
1.3988 -5.9953 0.4104
1.5986 -5.5810 0.4139
1.5342 -5.5880 0.4120
1.5540 -5.4920 0.4120
1.3282 -5.5974 0.4058
1.4146 -5.4286 0.4074
1.3646 -5.4056 0.4058
1.7424 -4.9635 0.4146
1.7395 -4.9073 0.4141
1.6877 -4.8955 0.4125
1.5580 -4.9477 0.4089
1.5055 -4.9276 0.4071
1.4060 -4.9414 0.4042
1.9751 -4.3558 0.4179
1.5248 -4.2004 0.4033
1.4752 -4.1651 0.4016
1.2166 -4.2015 0.3940
1.1647 -4.1559 0.3921
1.0672 -4.1213 0.3890
0.4621 -3.0788 0.3643
0.9495 -2.9220 0.3782
0.9656 -2.8715 0.3783
0.9096 -2.8019 0.3762
0.9405 -2.7570 0.3769
0.8074 -2.6601 0.3723
0.7625 -2.5888 0.3705
0.0525 -2.1267 0.3461
-0.9524 -1.5262 0.3120
-0.6797 -1.5681 0.3205
-0.4768 -1.5872 0.3268
0.0473 -1.7833 0.3439
-0.4120 -1.4678 0.3281
1.3998 -5.9290 0.3460
1.2915 -5.9846 0.3398
1.4060 -5.5259 0.3462
1.4524 -5.4012 0.3488
1.7105 -4.9435 0.3634
1.7715 -4.8286 0.3668
1.5803 -4.9373 0.3560
1.4437 -4.9873 0.3482
2.0190 -4.3748 0.3808
1.8884 -4.3716 0.3734
1.8856 -4.3258 0.3732
1.8829 -4.2803 0.3731
1.8479 -4.2530 0.3711
1.7994 -4.2309 0.3683
1.7175 -4.2223 0.3636
1.5846 -4.2321 0.3561
1.5271 -4.2024 0.3528
1.5161 -4.1519 0.3522
1.4462 -4.1224 0.3482
1.2049 -4.1450 0.3345
1.0379 -4.1319 0.3250
0.6056 -3.0279 0.3002
0.7555 -2.9912 0.3087
0.8244 -2.9452 0.3126
0.8897 -2.9022 0.3163
0.8766 -2.8424 0.3155
0.9378 -2.8038 0.3190
0.9685 -2.7592 0.3207
0.8832 -2.6782 0.3159
0.9289 -2.6403 0.3185
0.7137 -2.5068 0.3062
0.6112 -2.4092 0.3003
0.0958 -2.1343 0.2710
-0.9069 -1.6222 0.2139
-1.0202 -1.4800 0.2074
-0.6973 -1.5453 0.2258
-0.0249 -1.8017 0.2640
0.2646 -1.8235 0.2805
0.2943 -1.7790 0.2822
1.1643 -2.1878 0.3317
2.0215 -4.4232 0.3417
2.0281 -4.3733 0.3425
2.0152 -4.3379 0.3416
1.8150 -4.3241 0.3249
1.6427 -4.3155 0.3106
1.5892 -4.2879 0.3063
1.5417 -4.2547 0.3025
1.4918 -4.2203 0.2985
1.1656 -4.2250 0.2712
-0.0038 -4.4423 0.1721
-0.5119 -4.4791 0.1293
0.5874 -2.9535 0.2300
0.7566 -2.9249 0.2443
0.8254 -2.8810 0.2503
0.9061 -2.8441 0.2573
0.8776 -2.7802 0.2552
0.8335 -2.7108 0.2519
0.8202 -2.6502 0.2512
0.6367 -2.5289 0.2365
0.7103 -2.4975 0.2428
0.5902 -2.3922 0.2334
-0.8614 -1.7182 0.1157
-0.3445 -1.8583 0.1582
-0.3969 -1.7558 0.1544
-0.5976 -1.5794 0.1386
1.2293 -2.2187 0.2879
1.8265 -4.8515 0.2753
1.8094 -4.8108 0.2738
1.8274 -4.7388 0.2767
2.0235 -4.4732 0.3015
2.0360 -4.4177 0.3035
2.0009 -4.3982 0.2999
1.9299 -4.4017 0.2920
1.8706 -4.3931 0.2855
1.8413 -4.3623 0.2826
1.7835 -4.3469 0.2764
1.7215 -4.3306 0.2697
1.3435 -4.2859 0.2283
0.2826 -2.8153 0.1277
0.7088 -2.7854 0.1753
0.6946 -2.7206 0.1745
0.6804 -2.6559 0.1737
0.4724 -2.5258 0.1521
0.5774 -2.4995 0.1641
0.6199 -2.4548 0.1693
0.5482 -2.3664 0.1624
-0.4067 -1.8983 0.0619
-0.9041 -1.5945 0.0103
-0.9263 -1.4935 0.0090
-0.9036 -1.4146 0.0125
-0.9255 -1.3148 0.0112
1.1871 -2.2261 0.2349
1.1978 -2.1906 0.2365
1.7702 -4.9143 0.2181
1.7510 -4.8729 0.2161
1.2209 -5.2806 0.1355
1.9549 -4.5344 0.2503
2.0085 -4.4443 0.2594
1.9716 -4.4249 0.2546
1.8273 -4.4266 0.2346
1.1059 -4.6770 0.1303
1.1518 -4.3706 0.1420
-0.2317 -4.7334 -0.0559
-0.4147 -4.6842 -0.0804
-0.4381 -4.5775 -0.0817
-0.7348 -4.5439 -0.1222
-0.6641 -4.4067 -0.1100
-0.5083 -4.2574 -0.0858
-0.4474 -4.1357 -0.0752
-0.5551 -4.0441 -0.0885
-0.7145 -3.9538 -0.1090
-0.6019 -3.8307 -0.0912
-0.7157 -3.7299 -0.1052
-0.6932 -3.6190 -0.1001
-0.6721 -3.5106 -0.0953
-0.5227 -3.4068 -0.0728
-0.2745 -3.3166 -0.0368
-0.4857 -3.2085 -0.0641
-1.1397 -2.9346 -0.1498
-0.4714 -2.9206 -0.0571
-0.1699 -2.8783 -0.0146
0.0554 -2.8371 0.0173
0.3252 -2.8178 0.0550
0.6090 -2.8158 0.0944
0.3624 -2.6853 0.0625
0.2003 -2.5686 0.0421
0.3759 -2.5521 0.0668
0.4040 -2.4943 0.0717
0.5344 -2.4756 0.0901
0.6353 -2.4522 0.1044
0.5639 -2.3638 0.0961
-0.7084 -1.6683 -0.0677
-0.8149 -1.5311 -0.0801
-0.6696 -1.5150 -0.0597
-0.7720 -1.3780 -0.0714
-0.5564 -1.4086 -0.0421
-0.2362 -1.5076 0.0005
2.5706 -4.2674 0.3157
2.5551 -4.2248 0.3142
1.7735 -4.9204 0.1676
0.6671 -5.7826 -0.0370
0.9797 -5.4174 0.0237
1.1019 -5.0700 0.0523
1.7036 -4.5139 0.1656
0.7256 -4.9833 -0.0083
1.0267 -4.7273 0.0479
1.1515 -4.5855 0.0720
1.0615 -4.5584 0.0577
1.1233 -4.4569 0.0704
1.1388 -4.3800 0.0748
1.0652 -4.3400 0.0635
0.0824 -4.5243 -0.1044
-0.0368 -4.4609 -0.1227
-0.0578 -4.3651 -0.1239
-0.0115 -4.2533 -0.1135
-0.0321 -4.1594 -0.1147
-0.0195 -4.0596 -0.1103
-0.1066 -3.9766 -0.1228
-0.2338 -3.8946 -0.1420
-0.2553 -3.7968 -0.1432
-0.2398 -3.6967 -0.1383
-0.2610 -3.5999 -0.1395
-0.3196 -3.5035 -0.1470
-0.2679 -3.4070 -0.1361
-0.3625 -3.3079 -0.1494
-0.3459 -3.2128 -0.1444
-0.1893 -3.1334 -0.1165
-0.0461 -3.0615 -0.0909
0.1941 -3.0123 -0.0498
0.3289 -2.9580 -0.0261
0.4729 -2.9130 -0.0011
0.5613 -2.8636 0.0148
0.5662 -2.7986 0.0172
0.5101 -2.7179 0.0098
0.4524 -2.6348 0.0022
0.3474 -2.5346 -0.0129
0.3772 -2.4764 -0.0066
0.5109 -2.4585 0.0161
0.6506 -2.4497 0.0395
-0.2503 -1.8629 -0.0964
-0.3020 -1.7611 -0.1026
-0.2881 -1.6906 -0.0986
-0.1801 -1.6706 -0.0801
1.4528 -5.4659 0.0372
1.4637 -5.3783 0.0420
1.7934 -4.9104 0.1202
1.7668 -4.8760 0.1161
1.3324 -5.0543 0.0261
1.2928 -5.0117 0.0197
1.2919 -4.9387 0.0217
1.4828 -4.7318 0.0651
1.6906 -4.5284 0.1117
1.5710 -4.5473 0.0878
1.1664 -4.6553 0.0058
1.2225 -4.5535 0.0198
1.3140 -4.4390 0.0410
1.3129 -4.3741 0.0428
1.3128 -4.3095 0.0447
1.3119 -4.2461 0.0464
1.3699 -4.1621 0.0602
1.1120 -4.1872 0.0093
0.6598 -4.1745 -0.0784
0.5094 -4.1307 -0.1063
0.4680 -4.0561 -0.1122
0.4745 -3.9716 -0.1084
0.4328 -3.8957 -0.1142
0.3397 -3.8245 -0.1302
0.2951 -3.7446 -0.1365
0.2768 -3.6615 -0.1375
0.3624 -3.5747 -0.1183
0.3448 -3.4945 -0.1193
0.3272 -3.4142 -0.1203
0.2314 -3.3304 -0.1365
0.4036 -3.1117 -0.0964
0.4555 -3.0457 -0.0843
0.4172 -2.9673 -0.0894
0.4007 -2.8922 -0.0904
0.4297 -2.8274 -0.0828
0.5422 -2.7857 -0.0596
0.3973 -2.6795 -0.0846
0.4263 -2.6191 -0.0772
0.6159 -2.6127 -0.0401
0.6206 -2.5519 -0.0373
0.5469 -2.4630 -0.0490
0.4911 -2.3785 -0.0573
0.3907 -2.2737 -0.0737
0.0280 -2.0503 -0.1376
-0.0175 -1.9572 -0.1437
-0.0937 -1.8481 -0.1553
-0.1118 -1.7658 -0.1563
-0.0140 -1.7442 -0.1366
0.1285 -1.7520 -0.1091
1.0475 -2.1604 0.0575
1.3971 -5.7853 -0.0516
1.3693 -5.7357 -0.0560
1.2550 -5.7837 -0.0833
1.2840 -5.6655 -0.0725
1.2974 -5.4853 -0.0630
1.7573 -4.9551 0.0590
1.8465 -4.8104 0.0841
1.7351 -4.8536 0.0577
1.6626 -4.8555 0.0414
1.1646 -5.1212 -0.0795
1.2098 -5.0084 -0.0653
1.7529 -4.5480 0.0728
1.7658 -4.4838 0.0780
1.7317 -4.4512 0.0715
1.6884 -4.4224 0.0629
1.5505 -4.4447 0.0313
1.4878 -4.4183 0.0182
1.4866 -4.3581 0.0202
1.2769 -4.3948 -0.0280
1.2372 -4.3456 -0.0351
1.1824 -4.3006 -0.0457
1.1261 -4.2535 -0.0566
1.3001 -4.1272 -0.0131
1.3473 -4.0509 0.0002
0.8195 -4.0579 -0.1179
0.8221 -3.9830 -0.1146
0.7884 -3.9157 -0.1197
0.7911 -3.8418 -0.1164
0.7572 -3.7735 -0.1215
0.7024 -3.7059 -0.1313
0.6866 -3.6337 -0.1322
0.6707 -3.5615 -0.1332
0.6549 -3.4893 -0.1341
0.6591 -3.4175 -0.1305
0.6636 -3.3468 -0.1270
0.6673 -3.2771 -0.1236
0.6120 -3.2025 -0.1333
0.5962 -3.1308 -0.1342
0.5805 -3.0592 -0.1351
0.5648 -2.9875 -0.1360
0.5700 -2.9201 -0.1324
0.7815 -2.9009 -0.0844
0.5790 -2.7880 -0.1256
0.5019 -2.7008 -0.1396
0.4862 -2.6292 -0.1405
0.5329 -2.5778 -0.1282
0.5975 -2.5357 -0.1123
0.8153 -2.5543 -0.0643
0.5480 -2.3918 -0.1181
0.3636 -2.2525 -0.1542
0.3698 -2.1894 -0.1506
0.4618 -2.1672 -0.1292
0.3828 -2.0667 -0.1432
0.3448 -1.9842 -0.1487
0.3064 -1.9006 -0.1542
0.2906 -1.8284 -0.1552
1.0968 -2.2258 0.0105
1.1565 -2.2155 0.0242
1.1096 -2.1428 0.0163
1.3816 -5.4919 -0.1124
1.8387 -4.8849 0.0289
1.8429 -4.8225 0.0326
1.8025 -4.8015 0.0233
1.6659 -4.8614 -0.0137
1.7164 -4.7571 0.0035
1.7856 -4.6429 0.0258
1.7980 -4.5773 0.0317
1.7875 -4.5296 0.0311
1.7771 -4.4820 0.0305
1.7666 -4.4343 0.0299
1.7483 -4.3914 0.0271
1.7537 -4.3345 0.0309
1.7433 -4.2871 0.0303
1.6765 -4.2677 0.0143
1.3160 -4.3155 -0.0788
1.3030 -4.2561 -0.0795
1.2642 -4.2061 -0.0872
1.2113 -4.1591 -0.0985
1.1839 -4.1020 -0.1030
1.3370 -3.9951 -0.0598
1.1285 -3.9852 -0.1120
1.1432 -3.9166 -0.1054
1.1717 -3.8474 -0.0952
1.1987 -3.7808 -0.0855
1.1026 -3.7313 -0.1077
1.0755 -3.6078 -0.1093
1.0481 -3.5465 -0.1136
1.0781 -3.4840 -0.1033
1.0498 -3.4228 -0.1079
1.0072 -3.3600 -0.1159
0.9775 -3.2966 -0.1207
1.0094 -3.2387 -0.1102
0.9960 -3.1773 -0.1110
0.9209 -3.1064 -0.1269
0.9226 -3.0462 -0.1239
0.9254 -2.9870 -0.1207
1.0445 -2.9555 -0.0893
0.8498 -2.8503 -0.1339
0.8220 -2.7235 -0.1355
0.7910 -2.6544 -0.1404
0.8103 -2.6023 -0.1333
0.8927 -2.5754 -0.1114
0.7827 -2.4763 -0.1349
0.7689 -2.4133 -0.1357
0.7891 -2.3654 -0.1286
0.7910 -2.3105 -0.1257
0.7441 -2.2324 -0.1342
0.9931 -2.2054 -0.0702
1.0331 -2.1799 -0.0590
1.9105 -4.8800 -0.0021
1.8647 -4.8686 -0.0145
1.8542 -4.8207 -0.0151
1.8584 -4.7593 -0.0109
1.8034 -4.7507 -0.0260
1.6668 -4.8063 -0.0672
1.5980 -4.7984 -0.0862
1.5353 -4.7817 -0.1031
1.8321 -4.4504 -0.0031
1.6725 -4.5001 -0.0506
1.5074 -4.5423 -0.0992
1.5853 -4.4350 -0.0719
1.6390 -4.3470 -0.0525
1.7121 -4.2538 -0.0273
1.6514 -4.2288 -0.0432
1.4677 -4.2536 -0.0962
1.3768 -4.2299 -0.1206
1.3523 -4.1766 -0.1249
1.3396 -4.1187 -0.1257
1.3509 -4.0534 -0.1193
1.3263 -3.9995 -0.1236
1.3492 -3.9333 -0.1138
1.2888 -3.8868 -0.1286
1.3007 -3.8245 -0.1222
1.2757 -3.7691 -0.1265
1.2881 -3.7085 -0.1200
1.2630 -3.6527 -0.1244
1.2864 -3.5933 -0.1148
1.2379 -3.5382 -0.1258
1.1998 -3.4811 -0.1337
1.1742 -3.4229 -0.1381
1.1873 -3.3659 -0.1316
1.1215 -3.3041 -0.1471
1.1489 -3.2493 -0.1367
1.1362 -3.1913 -0.1374
1.1235 -3.1334 -0.1382
1.1241 -3.0778 -0.1353
1.1115 -3.0202 -0.1360
1.1259 -2.9689 -0.1294
1.0862 -2.9050 -0.1375
1.0736 -2.8474 -0.1382
1.0335 -2.7814 -0.1462
1.0207 -2.7231 -0.1470
1.0357 -2.6746 -0.1404
1.0091 -2.6117 -0.1448
0.9964 -2.5538 -0.1455
0.9978 -2.5018 -0.1426
0.9994 -2.4506 -0.1396
0.9868 -2.3934 -0.1403
0.9599 -2.3290 -0.1448
0.9761 -2.2863 -0.1381
1.1323 -2.3199 -0.0957
1.0713 -2.2396 -0.1090
0.9387 -2.1156 -0.1403
0.8967 -2.0410 -0.1484
0.8841 -1.9834 -0.1492
1.7780 -5.1561 -0.1088
1.9112 -4.9471 -0.0557
1.9973 -4.7995 -0.0206
1.9378 -4.8051 -0.0395
1.9011 -4.7848 -0.0498
1.8101 -4.8119 -0.0797
1.7673 -4.7905 -0.0918
1.7149 -4.7745 -0.1073
1.7118 -4.7160 -0.1050
1.9698 -4.4110 -0.0076
1.7613 -4.5044 -0.0778
1.6580 -4.5152 -0.1106
1.6639 -4.4528 -0.1053
1.6439 -4.4065 -0.1089
1.6939 -4.3220 -0.0886
1.7156 -4.2559 -0.0782
1.6969 -4.2110 -0.0815
1.7425 -4.1376 -0.0632
1.5874 -4.1486 -0.1122
1.5570 -4.1040 -0.1191
1.5265 -4.0583 -0.1261
1.5534 -3.9938 -0.1141
1.5513 -3.9397 -0.1118
1.5215 -3.8929 -0.1185
1.4699 -3.8495 -0.1321
1.4884 -3.7910 -0.1231
1.4874 -3.7373 -0.1204
1.5151 -3.6808 -0.1087
1.5040 -3.6301 -0.1093
1.4832 -3.5799 -0.1130
1.4817 -3.5286 -0.1106
1.4706 -3.4779 -0.1112
1.4388 -3.4266 -0.1183
1.4483 -3.3764 -0.1125
1.4561 -3.3271 -0.1073
1.3850 -3.2706 -0.1264
1.3837 -3.2200 -0.1240
1.3724 -3.1685 -0.1246
1.3182 -3.1090 -0.1382
1.3180 -3.0586 -0.1355
1.2932 -2.8074 -0.1292
1.3042 -2.7638 -0.1233
1.2481 -2.6956 -0.1370
1.2141 -2.6343 -0.1442
1.2371 -2.5964 -0.1349
1.2366 -2.5494 -0.1325
1.2144 -2.4927 -0.1362
1.2250 -2.4517 -0.1307
1.2369 -2.4124 -0.1248
1.2147 -2.3557 -0.1285
1.2147 -2.3110 -0.1260
1.1687 -2.2399 -0.1364
1.1223 -2.1218 -0.1443
2.1533 -4.7928 -0.0144
1.9016 -4.8504 -0.1041
1.9121 -4.7830 -0.0963
1.9019 -4.7363 -0.0969
1.8558 -4.7211 -0.1117
1.8379 -4.6794 -0.1152
1.8124 -4.6432 -0.1217
2.0391 -4.4137 -0.0298
1.8641 -4.4931 -0.0946
1.8108 -4.4764 -0.1118
1.7774 -4.4436 -0.1212
1.7899 -4.3811 -0.1130
1.7795 -4.3334 -0.1136
1.7299 -4.3069 -0.1289
1.7350 -4.2500 -0.1237
1.7243 -4.2016 -0.1243
1.7192 -4.0983 -0.1196
1.6763 -4.0624 -0.1320
1.6982 -4.0025 -0.1208
1.6795 -3.9571 -0.1244
1.6524 -3.9135 -0.1309
1.6417 -3.8648 -0.1315
1.6645 -3.8092 -0.1203
1.6784 -3.7572 -0.1123
1.6436 -3.7139 -0.1215
1.6331 -3.6662 -0.1221
1.6227 -3.6185 -0.1227
1.6209 -3.5704 -0.1203
1.5931 -3.5235 -0.1269
1.5633 -3.4275 -0.1311
1.5704 -3.3802 -0.1257
1.5778 -3.3340 -0.1203
1.5495 -3.2849 -0.1269
1.5120 -3.2336 -0.1366
1.5286 -3.1896 -0.1281
1.5091 -3.1403 -0.1318
1.5169 -3.0963 -0.1263
1.4419 -3.0334 -0.1481
1.4590 -2.9916 -0.1396
1.4950 -2.9567 -0.1251
1.4753 -2.9066 -0.1287
1.4555 -2.8560 -0.1324
1.4260 -2.8015 -0.1391
1.4250 -2.7570 -0.1366
1.3953 -2.7013 -0.1433
1.3750 -2.6487 -0.1470
1.3740 -2.6045 -0.1445
1.3927 -2.5701 -0.1360
1.3626 -2.5126 -0.1427
1.3620 -2.4696 -0.1403
1.3515 -2.4217 -0.1409
1.3609 -2.3851 -0.1354
1.3505 -2.3377 -0.1360
1.3401 -2.2903 -0.1366
1.2993 -2.2237 -0.1464
2.0849 -4.9378 -0.0933
2.1482 -4.8085 -0.0608
2.1339 -4.7742 -0.0637
2.0838 -4.7787 -0.0827
2.0298 -4.7837 -0.1032
2.0457 -4.6624 -0.0889
1.9955 -4.6579 -0.1073
1.9915 -4.6090 -0.1054
1.9999 -4.5502 -0.0982
2.0900 -4.3804 -0.0529
1.9773 -4.4167 -0.0974
1.8990 -4.3190 -0.1199
1.9149 -4.2596 -0.1098
1.8993 -4.2192 -0.1129
1.8957 -4.1723 -0.1109
1.8862 -4.1286 -0.1115
1.8898 -4.0791 -0.1067
1.8608 -4.0437 -0.1151
1.8306 -4.0075 -0.1238
1.8613 -3.9493 -0.1084
1.8455 -3.9080 -0.1114
1.8287 -3.8665 -0.1148
1.8457 -3.8164 -0.1050
1.8298 -3.7749 -0.1081
1.8334 -3.7295 -0.1036
1.8240 -3.6868 -0.1041
1.7883 -3.6473 -0.1147
1.7712 -3.6045 -0.1181
1.7959 -3.5588 -0.1058
1.7866 -3.5161 -0.1063
1.7975 -3.4734 -0.0993
1.7475 -3.4302 -0.1150
1.7790 -3.3892 -0.1004
1.7285 -3.3436 -0.1161
1.7398 -3.3027 -0.1090
1.7025 -3.2562 -0.1197
1.6700 -3.2090 -0.1286
1.6603 -3.1649 -0.1291
1.6658 -3.1241 -0.1242
1.6257 -3.0730 -0.1357
1.6216 -2.9885 -0.1314
1.6203 -2.9471 -0.1290
1.6010 -2.8593 -0.1301
1.5830 -2.8122 -0.1336
1.5722 -2.7277 -0.1318
1.5346 -2.5918 -0.1364
1.5337 -2.5523 -0.1340
1.5241 -2.5084 -0.1346
1.5525 -2.4489 -0.1199
1.5432 -2.4063 -0.1204
1.5181 -2.3536 -0.1261
2.2215 -4.7307 -0.0695
2.2170 -4.6881 -0.0681
2.1400 -4.7260 -0.1021
2.1055 -4.7127 -0.1150
2.0917 -4.6761 -0.1178
2.0826 -4.6346 -0.1183
2.0679 -4.5983 -0.1215
2.0692 -4.5472 -0.1171
2.0553 -4.5100 -0.1199
2.0461 -4.4685 -0.1204
2.1092 -4.3713 -0.0876
2.0130 -4.3479 -0.1247
2.0265 -4.2913 -0.1149
1.9947 -4.2645 -0.1257
1.9855 -4.2227 -0.1263
1.9935 -4.1717 -0.1192
1.9784 -4.1336 -0.1224
1.9694 -4.0922 -0.1229
1.9603 -4.0508 -0.1234
1.9459 -4.0116 -0.1262
1.9546 -3.9635 -0.1191
1.9331 -3.9267 -0.1250
1.9303 -3.8834 -0.1228
1.9330 -3.8391 -0.1184
1.9241 -3.7982 -0.1189
1.9096 -3.7586 -0.1217
1.9117 -3.7156 -0.1176
1.8972 -3.6758 -0.1204
1.8826 -3.6356 -0.1233
1.8671 -3.5952 -0.1265
1.8580 -3.5541 -0.1270
1.8366 -3.5132 -0.1326
1.8242 -3.4303 -0.1313
1.8345 -3.3901 -0.1241
1.7911 -3.3056 -0.1352
1.7751 -3.2631 -0.1385
1.7987 -3.2268 -0.1261
1.7898 -3.1860 -0.1267
1.7547 -3.1395 -0.1373
1.7658 -3.1029 -0.1300
1.7629 -3.0635 -0.1282
1.7335 -3.0167 -0.1365
1.7244 -2.9753 -0.1371
1.7298 -2.9389 -0.1321
1.7271 -2.9002 -0.1303
1.7245 -2.8619 -0.1284
1.7029 -2.8160 -0.1337
1.6727 -2.7657 -0.1421
1.6636 -2.7241 -0.1426
1.6684 -2.6894 -0.1380
1.6518 -2.6444 -0.1413
1.6503 -2.6070 -0.1390
1.6489 -2.5701 -0.1368
1.6465 -2.5329 -0.1349
1.6442 -2.4960 -0.1331
1.6353 -2.4554 -0.1336
1.6264 -2.4147 -0.1341
1.6040 -2.3652 -0.1394
2.1584 -4.4743 -0.1178
2.1770 -4.3680 -0.1009
2.1648 -4.3338 -0.1034
2.1516 -4.2999 -0.1063
2.1433 -4.2621 -0.1068
2.1259 -4.2305 -0.1117
2.1318 -4.1836 -0.1053
2.1236 -4.1460 -0.1058
2.1102 -4.1113 -0.1087
2.0799 -4.0424 -0.1162
2.1060 -3.9487 -0.0971
2.0882 -3.9155 -0.1021
2.0659 -3.8832 -0.1091
2.0479 -3.8487 -0.1141
2.0683 -3.8029 -0.1014
2.0602 -3.7659 -0.1019
2.0475 -3.7299 -0.1044
2.0440 -3.6920 -0.1028
2.0313 -3.6557 -0.1054
2.0333 -3.6174 -0.1013
2.0150 -3.5815 -0.1063
1.9965 -3.5450 -0.1113
1.9779 -3.5079 -0.1164
1.9858 -3.4702 -0.1098
1.9508 -3.4321 -0.1219
1.9377 -3.3938 -0.1244
1.9448 -3.3570 -0.1183
1.9424 -3.3200 -0.1163
1.9200 -3.2439 -0.1197
1.9177 -3.2073 -0.1177
1.9035 -3.1684 -0.1207
1.9173 -3.1362 -0.1120
1.8869 -3.0930 -0.1216
1.8848 -3.0571 -0.1196
1.8478 -3.0103 -0.1318
1.8333 -2.9699 -0.1348
1.8248 -2.9314 -0.1353
1.8164 -2.8929 -0.1358
1.8205 -2.8597 -0.1312
1.8353 -2.8318 -0.1225
1.8154 -2.7888 -0.1276
1.8071 -2.7510 -0.1280
1.8106 -2.7192 -0.1239
1.7905 -2.6753 -0.1290
1.7703 -2.6308 -0.1341
1.7794 -2.6027 -0.1279
1.7711 -2.5650 -0.1283
1.7695 -2.5314 -0.1263
1.7612 -2.4939 -0.1267
2.3132 -4.5939 -0.0990
2.2903 -4.5758 -0.1081
2.2756 -4.5475 -0.1124
2.2677 -4.5115 -0.1129
2.3220 -4.4141 -0.0788
2.3576 -4.3397 -0.0554
2.2590 -4.3901 -0.1060
2.2402 -4.3643 -0.1125
2.2195 -4.3390 -0.1199
2.2075 -4.3058 -0.1226
2.2125 -4.2598 -0.1161
2.1997 -4.2273 -0.1191
2.1794 -4.1994 -0.1261
2.1756 -4.1603 -0.1244
2.1760 -4.1189 -0.1205
2.1638 -4.0851 -0.1231
2.1559 -4.0489 -0.1236
2.1573 -4.0081 -0.1193
2.1537 -3.9702 -0.1175
2.1277 -3.9419 -0.1272
2.1241 -3.9039 -0.1255
2.1381 -3.8601 -0.1150
2.1483 -3.7818 -0.1031
2.1362 -3.7481 -0.1058
2.1159 -3.7159 -0.1124
2.0909 -3.6837 -0.1212
2.0830 -3.6479 -0.1216
2.0789 -3.6116 -0.1203
2.0757 -3.5755 -0.1186
2.0664 -3.4688 -0.1133
2.0359 -3.4330 -0.1244
2.0414 -3.3979 -0.1186
2.0337 -3.3625 -0.1191
2.0017 -3.3243 -0.1306
2.0045 -3.2897 -0.1262
2.0005 -3.2545 -0.1249
2.0026 -3.2208 -0.1209
1.9731 -3.1464 -0.1280
1.9793 -3.1145 -0.1222
1.9664 -3.0775 -0.1249
1.9688 -3.0453 -0.1209
1.9416 -3.0031 -0.1298
1.9338 -2.9673 -0.1303
1.9404 -2.9373 -0.1245
1.9326 -2.9019 -0.1249
1.9249 -2.8664 -0.1254
1.9118 -2.8285 -0.1281
1.9146 -2.7982 -0.1240
1.8813 -2.7497 -0.1352
1.8788 -2.7166 -0.1335
1.8591 -2.6741 -0.1389
1.8631 -2.6450 -0.1344
1.8596 -2.6118 -0.1330
1.8474 -2.5733 -0.1353
1.8340 -2.5339 -0.1380
2.3818 -4.6491 -0.1094
2.3538 -4.6414 -0.1226
2.3699 -4.5780 -0.1084
2.3491 -4.5601 -0.1171
2.3521 -4.5141 -0.1111
2.3508 -4.4738 -0.1079
2.3534 -4.4299 -0.1023
2.3808 -4.3622 -0.0821
2.3683 -4.3355 -0.0857
2.3386 -4.3240 -0.0994
2.2935 -4.3239 -0.1220
2.3003 -4.2778 -0.1141
2.2993 -4.2390 -0.1108
2.2710 -4.2211 -0.1233
2.2592 -4.1504 -0.1223
2.2666 -4.1069 -0.1144
2.2775 -4.0625 -0.1046
2.2594 -4.0354 -0.1111
2.2588 -3.9985 -0.1078
2.2557 -3.9633 -0.1059
2.2374 -3.9352 -0.1123
2.2301 -3.9018 -0.1128
2.2115 -3.8727 -0.1192
2.2268 -3.8311 -0.1076
2.2195 -3.7981 -0.1080
2.2229 -3.7621 -0.1028
2.2121 -3.7303 -0.1051
2.2013 -3.6982 -0.1074
2.1824 -3.6674 -0.1139
2.2014 -3.6302 -0.1007
2.1943 -3.5977 -0.1012
2.1835 -3.5655 -0.1034
2.1801 -3.5327 -0.1020
2.1729 -3.5002 -0.1024
2.1545 -3.4677 -0.1084
2.1511 -3.4350 -0.1070
2.1116 -3.4003 -0.1234
2.1406 -3.3699 -0.1059
2.1373 -3.3377 -0.1045
2.1263 -3.3047 -0.1068
2.1357 -3.2749 -0.0992
2.0914 -3.2354 -0.1175
2.0969 -3.2051 -0.1118
2.0768 -3.1690 -0.1183
2.0825 -3.1394 -0.1126
2.0754 -3.1066 -0.1130
2.0803 -3.0778 -0.1078
2.0691 -3.0438 -0.1101
2.0619 -3.0112 -0.1105
2.0466 -2.9753 -0.1147
2.0394 -2.9425 -0.1151
2.0446 -2.9153 -0.1098
2.0072 -2.8684 -0.1240
2.0304 -2.8503 -0.1106
2.0275 -2.8200 -0.1092
1.9948 -2.7737 -0.1210
2.0004 -2.7480 -0.1157
1.9566 -2.6937 -0.1323
1.9818 -2.6799 -0.1184
1.9702 -2.6443 -0.1208
1.9531 -2.6049 -0.1255
2.4329 -4.6323 -0.1184
2.4352 -4.5875 -0.1125
2.4223 -4.5629 -0.1168
2.4087 -4.5388 -0.1215
2.4141 -4.4914 -0.1137
2.3940 -4.4339 -0.1184
2.3900 -4.3985 -0.1169
2.3860 -4.3633 -0.1153
2.3790 -4.3313 -0.1157
2.3774 -4.2943 -0.1127
2.3587 -4.2727 -0.1205
2.3548 -4.2378 -0.1189
2.3406 -4.2113 -0.1237
2.3375 -4.1759 -0.1217
2.3336 -4.1414 -0.1201
2.3298 -4.1071 -0.1186
2.3285 -4.0714 -0.1156
2.3215 -4.0396 -0.1160
2.2946 -4.0188 -0.1281
2.2984 -3.9807 -0.1222
2.2947 -3.9469 -0.1206
2.2936 -3.9122 -0.1176
2.2806 -3.8829 -0.1214
2.2796 -3.8486 -0.1184
2.2727 -3.8167 -0.1188
2.2692 -3.7838 -0.1172
2.2198 -3.6608 -0.1307
2.2238 -3.5939 -0.1216
2.2104 -3.5626 -0.1255
2.2098 -3.5302 -0.1224
2.1996 -3.4665 -0.1213
2.2076 -3.4353 -0.1137
2.1857 -3.4031 -0.1221
2.1787 -3.3714 -0.1225
2.1695 -3.2782 -0.1177
2.1587 -3.2460 -0.1201
2.1439 -3.2127 -0.1245
2.1330 -3.1800 -0.1269
2.1151 -3.1451 -0.1328
2.1190 -3.1163 -0.1277
2.1121 -3.0845 -0.1281
2.1010 -3.0512 -0.1305
2.0778 -3.0131 -0.1389
2.0840 -2.9861 -0.1328
2.0841 -2.9572 -0.1297
2.0896 -2.9310 -0.1241
2.0743 -2.8955 -0.1285
2.0632 -2.8616 -0.1309
2.0604 -2.8320 -0.1293
2.0492 -2.7980 -0.1317
2.0465 -2.7686 -0.1301
2.0353 -2.7343 -0.1325
2.0207 -2.6978 -0.1365
2.0170 -2.6679 -0.1354
2.0143 -2.6388 -0.1337
2.0117 -2.6099 -0.1321
2.4661 -4.5956 -0.1322
2.4699 -4.5499 -0.1249
2.4739 -4.5050 -0.1176
2.4774 -4.4618 -0.1109
2.4560 -4.4107 -0.1173
2.4575 -4.3712 -0.1120
2.4479 -4.3442 -0.1144
2.4443 -4.3108 -0.1128
2.4270 -4.2909 -0.1204
2.4364 -4.2455 -0.1099
2.4275 -4.2175 -0.1119
2.4209 -4.1875 -0.1122
2.4222 -4.1511 -0.1075
2.4292 -4.1111 -0.0991
2.4067 -4.0932 -0.1098
2.4050 -4.0601 -0.1071
2.4018 -4.0283 -0.1054
2.3920 -4.0006 -0.1078
2.3888 -3.9691 -0.1061
2.3823 -3.9394 -0.1065
2.3816 -3.9070 -0.1032
2.3777 -3.8764 -0.1021
2.3674 -3.8168 -0.1012
2.3524 -3.7905 -0.1068
2.3494 -3.7599 -0.1051
2.3394 -3.7314 -0.1076
2.3505 -3.6976 -0.0975
2.3300 -3.6716 -0.1062
2.3236 -3.6422 -0.1066
2.3135 -3.6133 -0.1091
2.3070 -3.5838 -0.1094
2.2915 -3.5550 -0.1150
2.3005 -3.5244 -0.1065
2.3005 -3.4949 -0.1032
2.2848 -3.4657 -0.1088
2.2840 -3.4365 -0.1061
2.2748 -3.4070 -0.1080
2.2683 -3.3777 -0.1084
2.2552 -3.3476 -0.1124
2.2526 -3.3186 -0.1107
2.2490 -3.2897 -0.1095
2.2552 -3.2629 -0.1030
2.2332 -3.2304 -0.1118
2.2229 -3.1999 -0.1143
2.2262 -3.1732 -0.1094
2.2139 -3.1421 -0.1130
2.2034 -3.1113 -0.1154
2.2010 -3.0833 -0.1137
2.1834 -3.0496 -0.1199
2.1942 -3.0269 -0.1113
2.1847 -2.9963 -0.1132
2.1680 -2.9623 -0.1189
2.1718 -2.9377 -0.1140
2.1508 -2.9010 -0.1218
2.1589 -2.8790 -0.1147
2.1378 -2.8415 -0.1225
2.1281 -2.8100 -0.1245
2.1215 -2.7802 -0.1249
2.1300 -2.7597 -0.1178
2.1192 -2.7275 -0.1203
2.0944 -2.6857 -0.1297
2.0921 -2.6587 -0.1280
2.5374 -4.5049 -0.1145
2.5289 -4.4789 -0.1164
2.5183 -4.4555 -0.1200
2.5256 -4.4092 -0.1102
2.5150 -4.3859 -0.1138
2.5013 -4.3655 -0.1195
2.4927 -4.3389 -0.1215
2.4960 -4.2995 -0.1149
2.4920 -4.2684 -0.1136
2.4758 -4.2493 -0.1210
2.4717 -4.2181 -0.1197
2.4631 -4.1912 -0.1217
2.4761 -4.1458 -0.1085
2.4628 -4.1230 -0.1138
2.4487 -4.1004 -0.1196
2.4400 -4.0732 -0.1216
2.4360 -4.0426 -0.1203
2.4189 -3.9227 -0.1163
2.3975 -3.8379 -0.1191
2.3888 -3.7185 -0.1101
2.3157 -3.4647 -0.1238
2.3270 -3.4366 -0.1137
2.3236 -3.4086 -0.1124
2.3259 -3.3813 -0.1078
2.3198 -3.3535 -0.1081
2.3079 -3.3248 -0.1118
2.3043 -3.2705 -0.1075
2.2895 -3.2407 -0.1129
2.2678 -3.2086 -0.1221
2.2586 -3.1793 -0.1241
2.2652 -3.1548 -0.1173
2.2401 -3.1203 -0.1282
2.2239 -3.0879 -0.1341
2.2306 -3.0640 -0.1272
2.2303 -3.0379 -0.1243
2.2018 -2.9996 -0.1369
2.2085 -2.9510 -0.1270
2.1867 -2.8387 -0.1268
2.1772 -2.8083 -0.1288
2.1614 -2.7738 -0.1342
2.1583 -2.7471 -0.1329
2.1617 -2.7249 -0.1282
2.5688 -4.4329 -0.1187
2.5670 -4.3997 -0.1156
2.5688 -4.3623 -0.1097
2.5592 -4.3394 -0.1129
2.5445 -4.3222 -0.1201
2.5428 -4.2896 -0.1170
2.5323 -4.2668 -0.1208
2.5330 -4.2322 -0.1160
2.5292 -4.2026 -0.1147
2.5293 -4.1696 -0.1104
2.5279 -4.1384 -0.1074
2.5258 -4.1081 -0.1049
2.5160 -4.0844 -0.1081
2.5125 -4.0557 -0.1067
2.5129 -4.0242 -0.1025
2.5046 -3.9992 -0.1045
2.5012 -3.9709 -0.1031
2.5001 -3.9413 -0.1000
2.4632 -3.9017 -0.1185
2.4802 -3.8630 -0.1028
2.4769 -3.8352 -0.1014
2.4594 -3.8136 -0.1098
2.4510 -3.7877 -0.1118
2.4611 -3.7551 -0.1012
2.4460 -3.7316 -0.1079
2.4306 -3.7075 -0.1146
2.4336 -3.6502 -0.1055
2.4277 -3.6237 -0.1058
2.4140 -3.5982 -0.1113
2.4134 -3.5708 -0.1082
2.4022 -3.5446 -0.1120
2.3945 -3.5178 -0.1135
2.4013 -3.4906 -0.1058
2.3900 -3.4641 -0.1096
2.3943 -3.4378 -0.1035
2.3709 -3.4103 -0.1149
2.3725 -3.3841 -0.1106
2.3638 -3.3571 -0.1127
2.3664 -3.3316 -0.1078
2.3445 -3.3022 -0.1180
2.3519 -3.2780 -0.1102
2.3432 -3.2507 -0.1123
2.3432 -3.2256 -0.1091
2.3393 -3.1996 -0.1083
2.3335 -3.1732 -0.1086
2.3169 -3.1430 -0.1154
2.3060 -3.1145 -0.1186
2.3081 -3.0907 -0.1143
2.3053 -3.0653 -0.1129
2.3075 -3.0423 -0.1086
2.2875 -3.0093 -0.1171
2.2817 -2.9825 -0.1174
2.2614 -2.9483 -0.1259
2.2668 -2.9273 -0.1199
2.2589 -2.8993 -0.1214
2.2551 -2.8737 -0.1205
2.2439 -2.8436 -0.1238
2.2433 -2.8200 -0.1212
2.2470 -2.7994 -0.1163
2.2315 -2.7663 -0.1219
2.2202 -2.7357 -0.1252
2.6050 -4.3569 -0.1163
2.5915 -4.3405 -0.1232
2.5935 -4.3044 -0.1170
2.5877 -4.2781 -0.1173
2.5834 -4.2501 -0.1164
2.5777 -4.2239 -0.1168
2.5719 -4.1977 -0.1171
2.5624 -4.1751 -0.1204
2.5626 -4.1431 -0.1160
2.5592 -4.1149 -0.1145
2.5489 -4.0928 -0.1184
2.5493 -4.0615 -0.1140
2.5358 -4.0415 -0.1203
2.5301 -4.0152 -0.1206
2.5220 -3.9905 -0.1228
2.5288 -3.9559 -0.1135
2.5168 -3.9339 -0.1186
2.4947 -3.8004 -0.1155
2.4791 -3.7500 -0.1192
2.4844 -3.7204 -0.1117
2.4680 -3.6703 -0.1159
2.4492 -3.5929 -0.1181
2.4479 -3.5665 -0.1154
2.4396 -3.5409 -0.1176
2.4322 -3.5151 -0.1191
2.4337 -3.4890 -0.1146
2.4326 -3.4634 -0.1119
2.4213 -3.4122 -0.1125
2.4296 -3.3880 -0.1038
2.3810 -3.2818 -0.1221
2.3848 -3.2581 -0.1163
2.3648 -3.2286 -0.1258
2.3610 -3.2031 -0.1249
2.3602 -3.1787 -0.1222
2.3447 -3.1494 -0.1286
2.3439 -3.1251 -0.1259
2.3332 -3.0971 -0.1293
2.3245 -3.0697 -0.1314
2.3218 -3.0448 -0.1299
2.3291 -3.0248 -0.1223
2.3103 -2.9925 -0.1306
2.2983 -2.9170 -0.1285
2.3040 -2.8977 -0.1221
2.2921 -2.8682 -0.1261
2.2927 -2.8463 -0.1228
2.2676 -2.7855 -0.1314
2.7443 -4.2341 -0.0313
2.6446 -4.3115 -0.1126
2.6342 -4.2928 -0.1173
2.6266 -4.2703 -0.1195
2.6267 -4.2383 -0.1148
2.6277 -4.2059 -0.1096
2.6187 -4.1851 -0.1130
2.6103 -4.1632 -0.1158
2.6136 -4.1294 -0.1086
2.6097 -4.1033 -0.1077
2.6028 -4.0800 -0.1093
2.6004 -4.0527 -0.1071
2.5859 -4.0356 -0.1149
2.5804 -4.0107 -0.1152
2.5811 -3.9812 -0.1105
2.5773 -3.9555 -0.1096
2.5703 -3.9319 -0.1111
2.5586 -3.9110 -0.1165
2.5651 -3.8793 -0.1074
2.5613 -3.8539 -0.1064
2.5543 -3.8303 -0.1080
2.5489 -3.8058 -0.1083
2.5395 -3.7830 -0.1118
2.5398 -3.7561 -0.1077
2.5420 -3.7290 -0.1023
2.5216 -3.7096 -0.1140
2.5178 -3.6844 -0.1130
2.5167 -3.6587 -0.1102
2.5173 -3.6330 -0.1061
2.5120 -3.6086 -0.1064
2.5006 -3.5852 -0.1111
2.4908 -3.5612 -0.1146
2.4916 -3.5361 -0.1105
2.4942 -3.5112 -0.1051
2.4728 -3.4874 -0.1168
2.4737 -3.4627 -0.1127
2.4701 -3.4383 -0.1117
2.4648 -3.4139 -0.1120
2.4695 -3.3904 -0.1053
2.4559 -3.3652 -0.1114
2.4487 -3.3405 -0.1129
2.4480 -3.3169 -0.1101
2.4333 -3.2906 -0.1167
2.4430 -3.2697 -0.1069
2.4406 -3.2463 -0.1053
2.4104 -3.2149 -0.1221
2.4098 -3.1917 -0.1193
2.4024 -3.1663 -0.1209
2.4058 -3.1449 -0.1154
2.3886 -3.1158 -0.1234
2.3832 -3.0910 -0.1237
2.3877 -3.0707 -0.1176
2.3864 -3.0481 -0.1154
2.3790 -3.0227 -0.1170
2.3686 -2.9956 -0.1205
2.3734 -2.9766 -0.1144
2.3629 -2.9494 -0.1179
2.3668 -2.9304 -0.1125
2.3397 -2.8928 -0.1262
2.3374 -2.8700 -0.1246
2.3415 -2.8516 -0.1191
2.3361 -2.8271 -0.1195
2.3382 -2.8079 -0.1153
2.7474 -4.2362 -0.0546
2.7194 -4.2470 -0.0769
2.6698 -4.2847 -0.1193
2.6631 -4.2623 -0.1209
2.6669 -4.2267 -0.1128
2.6574 -4.2079 -0.1170
2.6457 -4.1911 -0.1232
2.6447 -4.1621 -0.1196
2.6275 -4.1204 -0.1260
2.6339 -4.0560 -0.1117
2.6272 -4.0336 -0.1133
2.6167 -3.9860 -0.1139
2.5987 -3.9160 -0.1168
2.5888 -3.8951 -0.1210
2.5954 -3.8641 -0.1115
2.5906 -3.8140 -0.1075
2.5766 -3.7947 -0.1150
2.5782 -3.6681 -0.0948
2.5443 -3.6029 -0.1102
2.5331 -3.5803 -0.1151
2.5152 -3.4622 -0.1106
2.5137 -3.4389 -0.1083
2.4980 -3.3918 -0.1128
2.5020 -3.3695 -0.1065
2.4896 -3.3452 -0.1121
2.4868 -3.3000 -0.1074
2.4779 -3.2759 -0.1104
2.4624 -3.2498 -0.1179
2.4753 -3.2316 -0.1056
2.4501 -3.2019 -0.1199
2.4417 -3.1554 -0.1191
2.4385 -3.1326 -0.1181
2.4274 -3.1065 -0.1224
2.4242 -3.0837 -0.1214
2.4170 -3.0591 -0.1230
2.4098 -3.0344 -0.1246
2.4075 -2.9913 -0.1199
2.4003 -2.9666 -0.1215
2.3931 -2.9418 -0.1232
2.3838 -2.9156 -0.1262
2.3765 -2.8905 -0.1278
2.3712 -2.8667 -0.1281
2.3660 -2.8428 -0.1284
2.3629 -2.8205 -0.1274
2.7711 -4.2638 -0.0660
2.7698 -4.2099 -0.0584
2.7144 -4.2311 -0.1049
2.7066 -4.2121 -0.1079
2.6975 -4.1945 -0.1122
2.6925 -4.1716 -0.1125
2.6917 -4.1438 -0.1088
2.6781 -4.1305 -0.1172
2.6731 -4.1074 -0.1175
2.6753 -4.0771 -0.1110
2.6688 -4.0557 -0.1126
2.6653 -4.0315 -0.1116
2.6573 -4.0113 -0.1146
2.6598 -3.9822 -0.1081
2.6608 -3.9548 -0.1029
2.6422 -3.9425 -0.1154
2.6418 -3.9164 -0.1116
2.6384 -3.8926 -0.1106
2.6256 -3.8748 -0.1177
2.6394 -3.8409 -0.1016
2.6250 -3.8237 -0.1101
2.6264 -3.7979 -0.1049
2.6101 -3.7558 -0.1109
2.6051 -3.7332 -0.1112
2.6018 -3.7100 -0.1101
2.5903 -3.6895 -0.1159
2.5919 -3.6648 -0.1107
2.5819 -3.6435 -0.1151
2.5871 -3.6186 -0.1072
2.5703 -3.5983 -0.1171
2.5704 -3.5747 -0.1132
2.5706 -3.5515 -0.1094
2.5639 -3.5292 -0.1111
2.5573 -3.5068 -0.1127
2.5488 -3.4842 -0.1158
2.5527 -3.4617 -0.1092
2.5513 -3.4394 -0.1067
2.5446 -3.4170 -0.1084
2.5289 -3.3935 -0.1169
2.5221 -3.3706 -0.1186
2.5244 -3.3490 -0.1133
2.5250 -3.3275 -0.1095
2.5164 -3.3044 -0.1125
2.5096 -3.2814 -0.1142
2.5009 -3.2579 -0.1173
2.4940 -3.2347 -0.1189
2.5005 -3.2157 -0.1109
2.4937 -3.1927 -0.1126
2.4791 -3.1666 -0.1198
2.4703 -3.1423 -0.1228
2.4711 -3.1221 -0.1190
2.4681 -3.1003 -0.1179
2.4572 -3.0749 -0.1223
2.4542 -3.0532 -0.1212
2.4473 -3.0294 -0.1229
2.4423 -3.0067 -0.1232
2.4353 -2.9827 -0.1249
2.4343 -2.9624 -0.1224
2.4273 -2.9384 -0.1241
2.4223 -2.9157 -0.1243
2.4090 -2.8874 -0.1302
2.4123 -2.8702 -0.1249
2.4052 -2.8459 -0.1266
2.7734 -4.2111 -0.0805
2.7608 -4.2016 -0.0892
2.7359 -4.2081 -0.1106
2.7202 -4.2005 -0.1221
2.7153 -4.1780 -0.1224
2.7131 -4.1523 -0.1198
2.7124 -4.1251 -0.1159
2.7027 -4.0808 -0.1165
2.6964 -4.0601 -0.1181
2.6930 -4.0365 -0.1170
2.6911 -4.0117 -0.1145
2.6804 -3.9948 -0.1204
2.6770 -3.9714 -0.1193
2.6706 -3.9503 -0.1210
2.6740 -3.9219 -0.1135
2.6483 -3.8887 -0.1289
2.6462 -3.8391 -0.1224
2.6499 -3.8122 -0.1149
2.6364 -3.7946 -0.1230
2.6250 -3.7266 -0.1210
2.6163 -3.6585 -0.1168
2.6100 -3.6139 -0.1145
2.6052 -3.5921 -0.1148
2.6064 -3.5694 -0.1101
2.6007 -3.5478 -0.1111
2.5943 -3.5263 -0.1128
2.5921 -3.5044 -0.1109
2.5765 -3.4610 -0.1165
2.5850 -3.4398 -0.1060
2.5651 -3.4172 -0.1184
2.5522 -3.3945 -0.1252
2.5627 -3.3744 -0.1133
2.5643 -3.3538 -0.1085
2.5459 -3.3297 -0.1196
2.5365 -3.3068 -0.1234
2.5316 -3.2847 -0.1237
2.5333 -3.2645 -0.1190
2.5190 -3.1990 -0.1198
2.5123 -3.1764 -0.1215
2.5055 -3.1537 -0.1232
2.4959 -3.1297 -0.1271
2.4931 -3.0889 -0.1226
2.4883 -3.0670 -0.1229
2.4924 -3.0499 -0.1167
2.4787 -3.0232 -0.1234
2.4739 -3.0013 -0.1237
2.4711 -2.9806 -0.1226
2.4608 -2.9179 -0.1205
2.4447 -2.8882 -0.1287
2.4378 -2.8647 -0.1305
2.7844 -4.2854 -0.1092
2.7875 -4.2519 -0.1007
2.7718 -4.2200 -0.1085
2.7671 -4.1989 -0.1088
2.7645 -4.1750 -0.1069
2.7579 -4.1567 -0.1093
2.7546 -4.1339 -0.1081
2.7507 -4.1120 -0.1077
2.7461 -4.0910 -0.1079
2.7415 -4.0700 -0.1082
2.7319 -4.0543 -0.1136
2.7273 -4.0331 -0.1139
2.7291 -4.0055 -0.1075
2.7209 -3.9879 -0.1115
2.7184 -3.9649 -0.1095
2.7138 -3.9439 -0.1098
2.7040 -3.9270 -0.1152
2.6941 -3.9098 -0.1206
2.7053 -3.8771 -0.1054
2.6984 -3.8578 -0.1079
2.6885 -3.8403 -0.1133
2.6823 -3.8201 -0.1151
2.6816 -3.7968 -0.1117
2.6801 -3.7742 -0.1090
2.6700 -3.7559 -0.1144
2.6733 -3.7314 -0.1073
2.6647 -3.7121 -0.1112
2.6618 -3.6906 -0.1100
2.6572 -3.6697 -0.1103
2.6452 -3.6509 -0.1172
2.6389 -3.6301 -0.1190
2.6517 -3.6052 -0.1037
2.6397 -3.5859 -0.1106
2.6342 -3.5652 -0.1116
2.6280 -3.5445 -0.1134
2.6319 -3.5228 -0.1062
2.6188 -3.5025 -0.1139
2.6081 -3.4817 -0.1194
2.6096 -3.4606 -0.1144
2.6050 -3.4397 -0.1147
2.6022 -3.4188 -0.1135
2.5869 -3.3968 -0.1227
2.5894 -3.3765 -0.1170
2.5839 -3.3554 -0.1180
2.5847 -3.3354 -0.1138
2.5728 -3.3129 -0.1200
2.5774 -3.2941 -0.1128
2.5728 -3.2733 -0.1131
2.5701 -3.2531 -0.1119
2.5618 -3.2310 -0.1151
2.5497 -3.2074 -0.1214
2.5470 -3.1871 -0.1201
2.5433 -3.1664 -0.1197
2.5387 -3.1454 -0.1199
2.5486 -3.1312 -0.1090
2.5226 -3.1000 -0.1257
2.5298 -3.0849 -0.1170
2.5193 -3.0608 -0.1217
2.5147 -3.0398 -0.1220
2.5110 -3.0193 -0.1215
2.5064 -2.9983 -0.1218
2.5008 -2.9766 -0.1228
2.4972 -2.9563 -0.1223
2.4998 -2.9402 -0.1173
2.4849 -2.9121 -0.1251
2.4855 -2.8948 -0.1216
2.8020 -4.2356 -0.1101
2.7898 -4.1997 -0.1144
2.7866 -4.1772 -0.1131
2.7807 -4.1586 -0.1149
2.7751 -4.1132 -0.1116
2.7693 -4.0944 -0.1134
2.7648 -4.0740 -0.1137
2.7471 -4.0170 -0.1190
2.7468 -3.9921 -0.1147
2.7423 -3.9717 -0.1150
2.7465 -3.9435 -0.1061
2.7229 -3.8672 -0.1132
2.7091 -3.7611 -0.1061
2.6948 -3.7234 -0.1119
2.6835 -3.6405 -0.1068
2.6748 -3.6005 -0.1073
2.6695 -3.5806 -0.1084
2.6548 -3.5412 -0.1143
2.6504 -3.5209 -0.1145
2.6494 -3.5005 -0.1117
2.6432 -3.4804 -0.1135
2.6484 -3.4604 -0.1053
2.6326 -3.4399 -0.1155
2.6326 -3.4200 -0.1119
2.6282 -3.3999 -0.1122
2.6282 -3.3804 -0.1086
2.6221 -3.3602 -0.1104
2.6095 -3.3385 -0.1176
2.6124 -3.3199 -0.1117
2.6036 -3.2798 -0.1122
2.5973 -3.2592 -0.1140
2.5854 -3.2365 -0.1204
2.5829 -3.2169 -0.1191
2.5797 -3.1788 -0.1150
2.5724 -3.1574 -0.1176
2.5728 -3.1395 -0.1140
2.5635 -3.1170 -0.1181
2.5640 -3.0994 -0.1145
2.5596 -3.0793 -0.1147
2.5522 -3.0576 -0.1173
2.5508 -3.0392 -0.1152
2.5444 -3.0179 -0.1171
2.5350 -2.9946 -0.1212
2.5224 -2.9689 -0.1277
2.5200 -2.9499 -0.1264
4.2023 -3.9047 -0.1128
4.2014 -3.8695 -0.1194
4.1780 -3.8035 -0.1117
4.1746 -3.7841 -0.1127
4.1610 -3.7597 -0.1052
4.1254 -3.6023 -0.1056
4.1238 -3.5834 -0.1082
4.1153 -3.5441 -0.1086
4.1137 -3.5248 -0.1112
4.1120 -3.5054 -0.1137
4.1009 -3.4657 -0.1119
4.0858 -3.4458 -0.1021
4.0941 -3.4262 -0.1139
4.0799 -3.4069 -0.1049
4.0790 -3.3872 -0.1082
4.0772 -3.3673 -0.1108
4.0673 -3.3486 -0.1056
4.0679 -3.3282 -0.1105
4.0709 -3.3070 -0.1177
4.0595 -3.2890 -0.1110
4.0529 -3.2701 -0.1089
4.0471 -3.2511 -0.1075
4.0452 -3.2307 -0.1101
4.0425 -3.2105 -0.1119
4.0360 -3.1919 -0.1098
4.0341 -3.1713 -0.1124
4.0298 -3.1517 -0.1126
4.0264 -3.1317 -0.1136
