ply
format ascii 1.0
element vertex 2124
property float x
property float y
property float z
end_header
7.0724 -1.3198 0.3080
7.1763 -1.2781 0.2257
7.1747 -1.2767 0.1413
7.1358 -1.2896 0.0576
7.1342 -1.2882 -0.0293
7.0950 -1.3012 -0.1138
7.0557 -1.3142 -0.1984
6.8446 -1.3935 -0.2559
6.4065 -1.5608 -0.2636
6.0799 -1.6854 -0.2740
5.5308 -1.8953 -0.2754
4.8676 -2.1488 -0.2746
4.3658 -2.3413 -0.2475
4.2541 -2.3839 -0.2503
4.2180 -2.3975 -0.2597
4.1310 -2.4307 -0.2625
4.0047 -2.4792 -0.2511
3.9764 -2.4900 -0.2540
3.9254 -2.5093 -0.2601
3.8474 -2.5392 -0.2560
3.8253 -2.5477 -0.2555
3.8029 -2.5563 -0.2532
3.7854 -2.5629 -0.2555
3.7653 -2.5706 -0.2532
3.7464 -2.5779 -0.2511
3.7321 -2.5833 -0.2540
3.7146 -2.5901 -0.2513
3.7036 -2.5942 -0.2573
3.6874 -2.6004 -0.2542
3.6741 -2.6055 -0.2549
3.6599 -2.6110 -0.2527
3.6354 -2.6203 -0.2523
3.6233 -2.6250 -0.2506
3.6125 -2.6291 -0.2509
3.6032 -2.6326 -0.2533
3.5918 -2.6371 -0.2502
3.5823 -2.6407 -0.2504
3.5729 -2.6443 -0.2502
3.5660 -2.6468 -0.2551
6.8125 -1.3675 1.1308
7.0409 -1.2746 1.1217
7.0354 -1.2722 0.9884
6.9670 -1.2949 0.8410
6.9635 -1.2940 0.7714
7.0220 -1.2655 0.6346
6.9541 -1.2903 0.5553
7.1158 -1.2198 0.4098
7.2631 -1.1573 0.3303
7.2624 -1.1547 0.2444
7.1464 -1.1988 0.1608
7.1072 -1.2118 0.0763
6.9958 -1.2543 -0.0024
7.1022 -1.2077 -0.1005
7.0253 -1.2361 -0.1819
6.8803 -1.2925 -0.2511
5.8155 -1.7232 -0.2796
5.5718 -1.8218 -0.2836
5.3208 -1.9239 -0.2734
5.1353 -1.9992 -0.2711
4.8719 -2.1057 -0.2779
4.7392 -2.1597 -0.2708
4.3574 -2.3176 -0.1803
4.3608 -2.3150 -0.2153
4.3416 -2.3220 -0.2392
4.2723 -2.3491 -0.2670
4.2105 -2.3744 -0.2611
4.0338 -2.4462 -0.2548
3.9057 -2.4983 -0.2502
3.8858 -2.5062 -0.2561
3.8607 -2.5164 -0.2554
3.8385 -2.5253 -0.2562
3.8152 -2.5348 -0.2542
3.7983 -2.5416 -0.2584
3.7745 -2.5514 -0.2527
3.7561 -2.5589 -0.2525
3.7396 -2.5655 -0.2534
3.7261 -2.5708 -0.2576
3.7075 -2.5786 -0.2531
3.6932 -2.5843 -0.2540
3.6819 -2.5887 -0.2586
3.6663 -2.5952 -0.2550
3.6522 -2.6010 -0.2530
3.6404 -2.6057 -0.2538
3.6275 -2.6110 -0.2517
3.6050 -2.6202 -0.2506
3.5958 -2.6238 -0.2531
3.5862 -2.6277 -0.2539
3.5762 -2.6318 -0.2530
3.5686 -2.6347 -0.2570
3.5580 -2.6392 -0.2526
7.1106 -1.1673 1.1692
7.0432 -1.1925 1.0872
7.0087 -1.2040 1.0129
6.8831 -1.2538 0.9224
6.8494 -1.2649 0.8499
7.1297 -1.1364 0.6706
6.9903 -1.1922 0.5819
7.0549 -1.1612 0.5094
7.1232 -1.1284 0.4327
7.4394 -0.9891 0.3552
7.1947 -1.0901 0.2659
7.0433 -1.1513 0.1830
7.0408 -1.1485 0.0974
7.0375 -1.1459 0.0101
7.0723 -1.1267 -0.0828
6.9945 -1.1564 -0.1652
6.8838 -1.2005 -0.2408
6.0811 -1.5442 -0.2627
5.8919 -1.6240 -0.2931
5.6449 -1.7298 -0.2999
5.1099 -1.9611 -0.2630
4.8411 -2.0763 -0.2682
4.3455 -2.2932 -0.1780
4.3457 -2.2916 -0.2117
4.3293 -2.2975 -0.2373
4.2607 -2.3256 -0.2659
4.1895 -2.3568 -0.2538
4.1593 -2.3692 -0.2654
4.0746 -2.4056 -0.2654
4.0356 -2.4224 -0.2643
3.9870 -2.4438 -0.2524
3.9546 -2.4577 -0.2517
3.9050 -2.4787 -0.2588
3.8558 -2.4998 -0.2602
3.8064 -2.5212 -0.2546
3.7691 -2.5371 -0.2572
3.7475 -2.5466 -0.2526
3.7325 -2.5529 -0.2557
3.7165 -2.5598 -0.2561
3.7015 -2.5662 -0.2569
3.6894 -2.5712 -0.2611
3.6717 -2.5790 -0.2553
3.6570 -2.5855 -0.2530
3.6457 -2.5902 -0.2556
3.6321 -2.5961 -0.2531
3.6230 -2.5998 -0.2581
3.6077 -2.6068 -0.2497
3.5990 -2.6103 -0.2539
3.5877 -2.6153 -0.2516
3.5788 -2.6190 -0.2537
3.5706 -2.6224 -0.2568
3.5614 -2.6263 -0.2570
3.5530 -2.6299 -0.2581
4.2315 -2.3546 0.5226
6.9849 -1.1368 1.1057
6.9821 -1.1342 1.0379
6.9158 -1.1597 0.9571
6.8214 -1.1978 0.8728
6.9727 -1.1264 0.8270
7.0016 -1.1094 0.7582
7.3273 -0.9591 0.7185
6.9622 -1.1184 0.6043
7.3258 -0.9403 0.3769
7.0870 -1.0387 0.2011
7.0102 -1.0688 0.1167
6.9706 -1.0819 0.0313
6.9635 -1.0749 -0.1482
6.8869 -1.1050 -0.2300
6.1369 -1.4436 -0.2678
5.8616 -1.5680 -0.2818
5.3231 -1.8132 -0.2716
5.0648 -1.9319 -0.2488
4.8235 -2.0407 -0.2634
4.7345 -2.0805 -0.2741
4.3269 -2.2715 -0.1725
4.4011 -2.2338 -0.2440
4.3634 -2.2499 -0.2607
4.3107 -2.2735 -0.2670
4.2565 -2.2980 -0.2694
4.1430 -2.3500 -0.2612
4.0981 -2.3705 -0.2603
4.0459 -2.3947 -0.2511
4.0278 -2.4021 -0.2662
3.9244 -2.4494 -0.2602
3.8952 -2.4628 -0.2588
3.8674 -2.4755 -0.2568
3.8460 -2.4851 -0.2600
3.8207 -2.4967 -0.2572
3.7747 -2.5180 -0.2516
3.7551 -2.5269 -0.2507
3.7380 -2.5346 -0.2518
3.7253 -2.5400 -0.2579
3.7049 -2.5496 -0.2516
3.6914 -2.5556 -0.2545
3.6745 -2.5635 -0.2505
3.6634 -2.5683 -0.2553
3.6507 -2.5740 -0.2564
3.6389 -2.5793 -0.2580
3.6238 -2.5864 -0.2524
3.6142 -2.5906 -0.2563
3.6026 -2.5959 -0.2552
3.5912 -2.6012 -0.2535
3.5801 -2.6064 -0.2513
3.5713 -2.6103 -0.2535
3.5601 -2.6156 -0.2490
3.5527 -2.6187 -0.2531
3.5444 -2.6224 -0.2542
4.2064 -2.3465 0.5240
4.2023 -2.3462 0.4918
6.9123 -1.0687 0.8461
6.8765 -1.0806 0.7691
7.1829 -0.9307 0.7312
6.9330 -1.0436 0.6271
5.3538 -1.7396 -0.2791
4.9668 -1.9263 -0.2679
4.7359 -2.0366 -0.2774
4.2904 -2.2588 -0.1585
4.3605 -2.2178 -0.2644
4.2296 -2.2811 -0.2591
4.1283 -2.3299 -0.2581
4.0720 -2.3576 -0.2486
4.0471 -2.3687 -0.2601
3.9695 -2.4064 -0.2546
3.9448 -2.4178 -0.2610
3.9169 -2.4311 -0.2628
3.8571 -2.4603 -0.2563
3.8325 -2.4721 -0.2557
3.8063 -2.4850 -0.2514
3.7896 -2.4926 -0.2569
3.7713 -2.5013 -0.2591
3.7337 -2.5194 -0.2583
3.7146 -2.5288 -0.2552
3.6965 -2.5377 -0.2521
3.6820 -2.5446 -0.2531
3.6695 -2.5504 -0.2565
3.6538 -2.5582 -0.2531
3.6425 -2.5634 -0.2564
3.6285 -2.5703 -0.2538
3.6149 -2.5770 -0.2505
3.6043 -2.5820 -0.2522
3.5945 -2.5865 -0.2547
3.5823 -2.5927 -0.2507
3.5739 -2.5964 -0.2547
3.5632 -2.6017 -0.2521
3.5547 -2.6057 -0.2540
3.5459 -2.6099 -0.2544
3.5377 -2.6137 -0.2556
4.1800 -2.3343 0.4623
4.1810 -2.3325 0.4461
4.3257 -2.2474 0.3030
4.3002 -2.2584 0.2801
4.2917 -2.2609 0.2572
4.2429 -2.2840 0.2367
4.2074 -2.2985 0.1946
4.2179 -2.2892 0.1463
5.3489 -1.6805 -0.2763
5.0000 -1.8573 -0.2805
4.2694 -2.2387 -0.1518
4.3373 -2.1986 -0.2203
4.3474 -2.1900 -0.2626
4.2944 -2.2164 -0.2694
4.2170 -2.2566 -0.2577
4.1292 -2.3005 -0.2663
4.0659 -2.3338 -0.2518
4.0351 -2.3489 -0.2589
3.9670 -2.3832 -0.2616
3.9054 -2.4145 -0.2616
3.8438 -2.4465 -0.2526
3.7628 -2.4870 -0.2604
3.7431 -2.4971 -0.2594
3.7245 -2.5066 -0.2583
3.7050 -2.5168 -0.2544
3.6891 -2.5248 -0.2544
3.6566 -2.5418 -0.2491
3.6458 -2.5469 -0.2540
3.6324 -2.5538 -0.2532
3.6237 -2.5576 -0.2606
3.6097 -2.5650 -0.2564
3.5874 -2.5763 -0.2564
3.5749 -2.5831 -0.2515
3.5651 -2.5880 -0.2519
3.5551 -2.5932 -0.2506
3.5477 -2.5966 -0.2552
3.5376 -2.6020 -0.2517
3.5287 -2.6066 -0.2504
4.3307 -2.2395 0.5398
4.2150 -2.2774 0.2863
4.2093 -2.2785 0.2650
4.1933 -2.2850 0.2440
4.1875 -2.2861 0.2226
4.2399 -2.2507 0.1454
4.2872 -2.2221 0.1107
4.3095 -2.2070 0.0783
4.9642 -1.8231 -0.2691
4.9263 -1.8397 -0.3084
4.2627 -2.2102 -0.1521
4.3346 -2.1613 -0.2612
4.2653 -2.1987 -0.2583
4.2152 -2.2251 -0.2633
4.1075 -2.2833 -0.2584
3.9899 -2.3460 -0.2611
3.9564 -2.3640 -0.2617
3.9136 -2.3879 -0.2511
3.8902 -2.3999 -0.2567
3.8673 -2.4118 -0.2614
3.8366 -2.4287 -0.2558
3.7941 -2.4511 -0.2602
3.7699 -2.4644 -0.2564
3.7163 -2.4928 -0.2600
3.6798 -2.5130 -0.2538
3.6645 -2.5212 -0.2532
3.6490 -2.5298 -0.2508
3.6240 -2.5430 -0.2533
3.6111 -2.5500 -0.2520
3.6021 -2.5542 -0.2578
3.5887 -2.5619 -0.2531
3.5791 -2.5667 -0.2558
3.5678 -2.5730 -0.2534
3.5573 -2.5789 -0.2515
3.5401 -2.5878 -0.2550
3.5324 -2.5916 -0.2582
3.5231 -2.5968 -0.2557
4.3566 -2.2070 0.6126
4.3490 -2.2090 0.5919
4.3391 -2.2123 0.5705
4.3314 -2.2144 0.5496
4.3111 -2.2232 0.5256
4.3013 -2.2265 0.5043
4.3160 -2.2164 0.4880
4.3103 -2.2173 0.4670
4.3023 -2.2195 0.4454
4.2878 -2.2253 0.4228
4.2187 -2.2477 0.2696
4.1741 -2.2634 0.1823
4.1980 -2.2469 0.1550
4.3068 -2.1804 0.1094
4.3334 -2.1616 0.0749
4.3181 -2.1674 0.0486
5.1498 -1.6617 -0.2752
4.9284 -1.7889 -0.2578
4.8822 -1.8111 -0.2938
4.2529 -2.1826 -0.1510
4.3141 -2.1366 -0.2555
4.2556 -2.1693 -0.2589
4.1938 -2.2046 -0.2565
4.0532 -2.2873 -0.2267
4.0170 -2.3074 -0.2304
4.0116 -2.3075 -0.2574
3.9385 -2.3491 -0.2551
3.9042 -2.3688 -0.2523
3.8812 -2.3812 -0.2583
3.8538 -2.3967 -0.2581
3.8075 -2.4225 -0.2616
3.7389 -2.4621 -0.2541
3.7235 -2.4703 -0.2587
3.7056 -2.4805 -0.2581
3.6857 -2.4923 -0.2528
3.6709 -2.5006 -0.2541
3.6553 -2.5096 -0.2527
3.5888 -2.5477 -0.2470
3.5783 -2.5536 -0.2479
3.5698 -2.5578 -0.2529
3.5616 -2.5620 -0.2576
3.5507 -2.5685 -0.2548
3.5401 -2.5748 -0.2513
3.5235 -2.5839 -0.2542
4.3148 -2.2027 0.5919
4.3119 -2.2020 0.5728
4.3043 -2.2040 0.5522
4.2877 -2.2111 0.5292
4.2846 -2.2106 0.5096
4.2780 -2.2120 0.4891
4.2811 -2.2078 0.4702
4.2829 -2.2043 0.4505
4.2781 -2.2046 0.4294
4.2626 -2.2110 0.4066
4.2670 -2.2059 0.3862
4.2679 -2.2027 0.3648
4.2412 -2.2157 0.3413
4.2621 -2.2006 0.3201
4.2634 -2.1971 0.2972
4.2772 -2.1859 0.2734
4.1251 -2.2666 0.1919
4.3023 -2.1438 0.0540
5.1858 -1.5748 -0.2864
4.9695 -1.7055 -0.2732
4.8714 -1.7617 -0.2920
4.2490 -2.1502 -0.1529
4.3505 -2.0786 -0.2422
4.3106 -2.1003 -0.2596
4.2669 -2.1248 -0.2726
4.0187 -2.2844 -0.1784
3.9994 -2.2940 -0.1944
3.9926 -2.2949 -0.2196
3.9850 -2.2964 -0.2445
3.9605 -2.3098 -0.2545
3.9247 -2.3314 -0.2525
3.8986 -2.3463 -0.2574
3.8671 -2.3655 -0.2548
3.8488 -2.3752 -0.2643
3.8192 -2.3935 -0.2596
3.7935 -2.4091 -0.2571
3.7772 -2.4179 -0.2645
3.7532 -2.4327 -0.2606
3.7147 -2.4557 -0.2601
3.6976 -2.4659 -0.2606
3.6775 -2.4786 -0.2547
3.6486 -2.4956 -0.2570
3.6331 -2.5052 -0.2541
3.6205 -2.5125 -0.2555
3.6067 -2.5210 -0.2531
3.5933 -2.5294 -0.2500
3.5840 -2.5343 -0.2550
3.5754 -2.5388 -0.2607
3.5624 -2.5473 -0.2546
3.5533 -2.5524 -0.2571
3.5444 -2.5575 -0.2592
3.5339 -2.5641 -0.2559
3.5250 -2.5694 -0.2559
4.2581 -2.2080 0.5669
4.2653 -2.2012 0.5512
4.2601 -2.2018 0.5316
4.2351 -2.2141 0.5070
4.2537 -2.2005 0.4927
4.2438 -2.2037 0.4715
4.2499 -2.1974 0.4532
4.2440 -2.1982 0.4323
4.2453 -2.1946 0.4121
4.2311 -2.2005 0.3897
4.2250 -2.2013 0.3682
4.2258 -2.1979 0.3470
4.2273 -2.1939 0.3252
4.2403 -2.1827 0.3029
4.2363 -2.1820 0.2797
4.1050 -2.2532 0.1976
4.1025 -2.2517 0.1756
4.2758 -2.1270 0.0620
5.1666 -1.5193 -0.2803
4.2727 -2.1020 -0.1328
4.2505 -2.1126 -0.1577
4.0929 -2.2006 -0.2381
3.9799 -2.2744 -0.2180
3.9597 -2.2852 -0.2323
3.9494 -2.2886 -0.2546
3.8825 -2.3310 -0.2523
3.8349 -2.3598 -0.2609
3.8128 -2.3731 -0.2647
3.7856 -2.3908 -0.2604
3.7464 -2.4148 -0.2654
3.7022 -2.4438 -0.2561
3.6696 -2.4642 -0.2574
3.6541 -2.4739 -0.2573
3.6380 -2.4845 -0.2545
3.6114 -2.5011 -0.2552
3.5979 -2.5099 -0.2530
3.5843 -2.5190 -0.2490
3.5747 -2.5245 -0.2529
3.5653 -2.5300 -0.2565
3.5539 -2.5375 -0.2539
3.5445 -2.5432 -0.2553
3.5349 -2.5493 -0.2551
3.5259 -2.5548 -0.2556
3.5164 -2.5612 -0.2531
3.5086 -2.5658 -0.2552
4.2033 -2.2165 0.5599
4.1898 -2.2223 0.5391
4.1797 -2.2259 0.5194
4.1776 -2.2219 0.4843
4.1706 -2.2236 0.4650
4.2049 -2.1990 0.4533
4.2150 -2.1866 0.4157
4.2049 -2.1899 0.3941
4.2078 -2.1849 0.3737
4.1995 -2.1870 0.3519
4.2096 -2.1770 0.3308
4.1925 -2.1849 0.3082
4.2001 -2.1764 0.2857
4.1913 -2.1787 0.2628
4.1917 -2.1748 0.2392
4.0665 -2.2493 0.1838
4.0657 -2.2464 0.1617
5.1241 -1.4787 -0.2668
4.2350 -2.0910 -0.1186
4.2132 -2.1017 -0.1431
4.1296 -2.1586 -0.1333
4.0840 -2.1879 -0.1398
4.0768 -2.1884 -0.1675
4.1187 -2.1456 -0.2649
4.0739 -2.1749 -0.2677
4.0088 -2.2206 -0.2506
3.9392 -2.2660 -0.2558
3.9124 -2.2828 -0.2624
3.8805 -2.3040 -0.2618
3.8240 -2.3416 -0.2611
3.8010 -2.3564 -0.2637
3.7791 -2.3706 -0.2658
3.7497 -2.3917 -0.2558
3.7279 -2.4064 -0.2538
3.7105 -2.4175 -0.2564
3.6876 -2.4339 -0.2487
3.6437 -2.4620 -0.2556
3.6259 -2.4748 -0.2490
3.6023 -2.4895 -0.2549
3.5779 -2.5058 -0.2544
3.5560 -2.5203 -0.2545
3.5453 -2.5276 -0.2532
3.5360 -2.5335 -0.2547
3.5250 -2.5415 -0.2498
3.5163 -2.5473 -0.2503
3.5081 -2.5525 -0.2516
3.5015 -2.5559 -0.2576
3.4933 -2.5615 -0.2569
4.1915 -2.2024 0.5824
4.1782 -2.2082 0.5616
4.1692 -2.2112 0.5423
4.1624 -2.2128 0.5237
4.1513 -2.2171 0.5038
4.1517 -2.2139 0.4867
4.1406 -2.2183 0.4668
4.1499 -2.2091 0.4509
4.1557 -2.2021 0.4336
4.1791 -2.1831 0.4182
4.1840 -2.1764 0.3990
4.1799 -2.1757 0.3781
4.1871 -2.1672 0.3577
4.1806 -2.1680 0.3358
4.1731 -2.1695 0.3137
4.1563 -2.1774 0.2914
4.1560 -2.1738 0.2690
4.1565 -2.1696 0.2460
4.0617 -2.2295 0.2092
4.0522 -2.2327 0.1887
4.0460 -2.2333 0.1675
4.2142 -2.0740 -0.0778
4.1927 -2.0849 -0.1022
4.1587 -2.1056 -0.1197
4.1533 -2.1040 -0.1511
4.1485 -2.1019 -0.1835
4.2018 -2.0526 -0.2538
4.1618 -2.0784 -0.2662
4.0444 -2.1625 -0.2542
4.0030 -2.1912 -0.2557
3.9660 -2.2167 -0.2579
3.9279 -2.2436 -0.2563
3.9021 -2.2603 -0.2639
3.8384 -2.3055 -0.2599
3.8181 -2.3183 -0.2675
3.7861 -2.3422 -0.2589
3.7652 -2.3563 -0.2620
3.7393 -2.3754 -0.2562
3.7212 -2.3875 -0.2593
3.7008 -2.4021 -0.2573
3.6331 -2.4500 -0.2538
3.6049 -2.4698 -0.2527
3.5921 -2.4789 -0.2526
3.5817 -2.4853 -0.2569
3.5699 -2.4937 -0.2565
3.5571 -2.5034 -0.2521
3.5480 -2.5091 -0.2559
3.5370 -2.5171 -0.2536
3.5272 -2.5242 -0.2529
3.5187 -2.5297 -0.2553
3.5089 -2.5370 -0.2524
3.5008 -2.5424 -0.2538
3.4923 -2.5486 -0.2524
3.4856 -2.5525 -0.2568
4.1817 -2.1843 0.5892
4.1673 -2.1909 0.5679
4.1520 -2.1982 0.5465
4.1493 -2.1969 0.5291
4.1331 -2.2048 0.5077
4.1323 -2.2021 0.4906
4.1233 -2.2051 0.4712
4.1323 -2.1956 0.4555
4.1398 -2.1869 0.4387
4.1567 -2.1714 0.4226
4.1710 -2.1575 0.4049
4.1676 -2.1561 0.3840
4.1632 -2.1554 0.3627
4.1511 -2.1601 0.3406
4.1391 -2.1648 0.3187
4.1245 -2.1715 0.2968
4.1269 -2.1656 0.2748
4.1369 -2.1539 0.2517
4.1099 -2.1698 0.2304
4.0456 -2.2141 0.2143
4.0343 -2.2185 0.1940
4.0331 -2.2153 0.1720
4.1135 -2.1437 0.1062
4.1967 -2.0552 -0.0391
4.1972 -2.0484 -0.0730
4.1869 -2.0504 -0.1029
4.1765 -2.0524 -0.1331
4.1739 -2.0477 -0.1678
4.2295 -1.9935 -0.2385
4.1961 -2.0145 -0.2579
4.1470 -2.0494 -0.2646
4.0412 -2.1279 -0.2614
3.9906 -2.1662 -0.2556
3.9612 -2.1862 -0.2646
3.9330 -2.2053 -0.2728
3.8951 -2.2340 -0.2690
3.8552 -2.2651 -0.2597
3.8329 -2.2801 -0.2670
3.7751 -2.3241 -0.2593
3.7552 -2.3380 -0.2634
3.7287 -2.3589 -0.2564
3.6919 -2.3853 -0.2598
3.6730 -2.3996 -0.2579
3.6550 -2.4132 -0.2557
3.6409 -2.4230 -0.2588
3.6220 -2.4384 -0.2510
3.5940 -2.4594 -0.2493
3.5831 -2.4666 -0.2532
3.5704 -2.4763 -0.2515
3.5597 -2.4839 -0.2532
3.5476 -2.4934 -0.2501
3.5390 -2.4988 -0.2550
3.5286 -2.5066 -0.2540
3.5193 -2.5133 -0.2546
3.5088 -2.5219 -0.2500
3.5010 -2.5271 -0.2532
3.4914 -2.5350 -0.2486
3.4850 -2.5386 -0.2547
3.4759 -2.5463 -0.2490
4.1680 -2.1719 0.6106
4.1664 -2.1697 0.5940
4.1573 -2.1727 0.5745
4.1504 -2.1742 0.5557
4.1392 -2.1787 0.5355
4.1281 -2.1831 0.5154
4.1171 -2.1876 0.4954
4.1150 -2.1855 0.4777
4.1167 -2.1807 0.4604
4.1161 -2.1773 0.4422
4.1269 -2.1656 0.4255
4.1522 -2.1428 0.4100
4.1561 -2.1356 0.3901
4.1478 -2.1376 0.3683
4.1358 -2.1423 0.3462
4.1119 -2.1518 0.3023
4.1052 -2.1525 0.2804
4.1148 -2.1403 0.2576
4.0942 -2.1518 0.2358
4.0412 -2.1893 0.2182
4.0215 -2.2005 0.1987
4.0136 -2.2023 0.1778
4.1609 -2.0590 0.0366
4.2048 -1.9937 -0.1150
4.1731 -2.0139 -0.1358
4.1769 -2.0029 -0.1751
4.2506 -1.9285 -0.2586
4.1901 -1.9747 -0.2622
4.1403 -2.0119 -0.2690
4.0846 -2.0554 -0.2676
4.0324 -2.0965 -0.2646
3.9525 -2.1577 -0.2682
3.9132 -2.1887 -0.2657
3.8856 -2.2088 -0.2720
3.8143 -2.2668 -0.2591
3.7857 -2.2896 -0.2562
3.7585 -2.3115 -0.2524
3.7379 -2.3269 -0.2550
3.7168 -2.3433 -0.2551
3.6772 -2.3743 -0.2531
3.6445 -2.3992 -0.2553
3.6293 -2.4109 -0.2559
3.6136 -2.4235 -0.2538
3.6000 -2.4339 -0.2545
3.5873 -2.4436 -0.2555
3.5640 -2.4611 -0.2584
3.5506 -2.4725 -0.2531
3.5403 -2.4802 -0.2544
3.5299 -2.4884 -0.2541
3.5194 -2.4969 -0.2520
3.5113 -2.5023 -0.2562
3.5024 -2.5092 -0.2565
3.4930 -2.5170 -0.2539
3.4840 -2.5247 -0.2507
3.4764 -2.5303 -0.2519
3.4704 -2.5335 -0.2591
4.1801 -2.1375 0.6264
4.1615 -2.1474 0.6028
4.1564 -2.1475 0.5846
4.1564 -2.1437 0.5678
4.1862 -2.1176 0.5602
4.1913 -2.1097 0.5435
4.1411 -2.1434 0.5110
4.1152 -2.1591 0.4864
4.1078 -2.1607 0.4669
4.1042 -2.1594 0.4480
4.1182 -2.1443 0.4320
4.1297 -2.1309 0.4145
4.1252 -2.1299 0.3938
4.1233 -2.1268 0.3731
4.1070 -2.1351 0.3508
4.0887 -2.1404 0.3076
4.0999 -2.1262 0.2858
4.0955 -2.1248 0.2632
4.0767 -2.1352 0.2414
4.0435 -2.1578 0.2215
4.0086 -2.1823 0.2034
3.9956 -2.1833 0.1606
4.0684 -2.1146 0.1200
4.1354 -2.0429 0.0447
4.1638 -1.9790 -0.1357
4.1309 -2.0015 -0.1548
4.2112 -1.9163 -0.2421
4.1744 -1.9422 -0.2604
4.1358 -1.9704 -0.2753
4.0817 -2.0145 -0.2756
4.0223 -2.0650 -0.2671
3.9731 -2.1063 -0.2624
3.9360 -2.1360 -0.2648
3.9004 -2.1649 -0.2657
3.8704 -2.1885 -0.2694
3.8323 -2.2216 -0.2612
3.8106 -2.2375 -0.2692
3.7749 -2.2693 -0.2574
3.7524 -2.2871 -0.2597
3.7295 -2.3060 -0.2593
3.7042 -2.3281 -0.2529
3.6880 -2.3401 -0.2583
3.6688 -2.3560 -0.2571
3.6535 -2.3678 -0.2607
3.6357 -2.3828 -0.2583
3.6190 -2.3971 -0.2556
3.6018 -2.4123 -0.2501
3.5894 -2.4219 -0.2528
3.5774 -2.4313 -0.2549
3.5636 -2.4433 -0.2513
3.5533 -2.4509 -0.2550
3.5414 -2.4611 -0.2529
3.5309 -2.4695 -0.2534
3.5214 -2.4768 -0.2553
3.5102 -2.4872 -0.2501
3.5015 -2.4938 -0.2521
3.4849 -2.5068 -0.2547
3.4775 -2.5122 -0.2577
3.4686 -2.5206 -0.2529
3.4613 -2.5263 -0.2538
4.2047 -2.0920 0.6480
4.2011 -2.0905 0.6294
4.2004 -2.0868 0.6117
4.1984 -2.0839 0.5932
4.1923 -2.0842 0.5729
4.1823 -2.0875 0.5512
4.1790 -2.0855 0.5315
4.1194 -2.1282 0.4967
4.0996 -2.1396 0.4737
4.0902 -2.1427 0.4534
4.0945 -2.1347 0.4358
4.1129 -2.1149 0.4198
4.1066 -2.1152 0.3989
4.0913 -2.1229 0.3768
4.0866 -2.1218 0.3559
4.0834 -2.1194 0.3348
4.0810 -2.1162 0.3133
4.0749 -2.1160 0.2913
4.0606 -2.1230 0.2694
4.0577 -2.1199 0.2470
4.0283 -2.1403 0.2267
3.9860 -2.1724 0.2094
3.9765 -2.1755 0.1888
3.9731 -2.1731 0.1671
4.1054 -2.0388 0.0839
4.0977 -2.0387 0.0566
3.9749 -2.1412 0.0436
4.1664 -1.9307 -0.1421
4.0903 -1.9974 -0.1373
4.1494 -1.9183 -0.2525
4.1090 -1.9497 -0.2657
4.0708 -1.9796 -0.2779
3.9983 -2.0469 -0.2582
3.9585 -2.0804 -0.2612
3.9198 -2.1135 -0.2619
3.8788 -2.1501 -0.2568
3.8210 -2.1984 -0.2627
3.7891 -2.2270 -0.2579
3.7648 -2.2475 -0.2599
3.7381 -2.2713 -0.2563
3.7201 -2.2852 -0.2627
3.6954 -2.3080 -0.2568
3.6808 -2.3186 -0.2648
3.6404 -2.3553 -0.2565
3.6210 -2.3737 -0.2500
3.5796 -2.4086 -0.2529
3.5665 -2.4200 -0.2523
3.5550 -2.4296 -0.2538
3.5430 -2.4401 -0.2526
3.5328 -2.4484 -0.2548
3.5006 -2.4781 -0.2471
3.4924 -2.4843 -0.2502
3.4761 -2.4976 -0.2530
3.4694 -2.5021 -0.2585
3.4615 -2.5091 -0.2576
4.1955 -2.0613 0.6216
4.1874 -2.0630 0.6007
4.1860 -2.0593 0.5819
4.1825 -2.0572 0.5622
4.1807 -2.0536 0.5426
4.1554 -2.0694 0.5161
4.1085 -2.1036 0.4850
4.0879 -2.1161 0.4616
4.0837 -2.1146 0.4420
4.0944 -2.1004 0.4248
4.0967 -2.0931 0.4053
4.0814 -2.1009 0.3830
4.0731 -2.1027 0.3616
4.0664 -2.1031 0.3402
4.0588 -2.1042 0.3186
4.0519 -2.1046 0.2968
4.0602 -2.0911 0.2744
4.0498 -2.0946 0.2520
4.0199 -2.1162 0.2313
3.9791 -2.1484 0.2133
3.9551 -2.1652 0.1948
3.9568 -2.1576 0.1722
3.9889 -2.1204 0.1417
4.0646 -2.0318 0.0671
4.0701 -2.0183 0.0353
4.2032 -1.8434 -0.1672
4.0459 -1.9899 -0.1531
4.0793 -1.9326 -0.2540
4.0426 -1.9625 -0.2666
3.9871 -2.0145 -0.2604
3.9452 -2.0522 -0.2615
3.9151 -2.0771 -0.2705
3.8672 -2.1238 -0.2583
3.8342 -2.1539 -0.2579
3.8036 -2.1817 -0.2572
3.7527 -2.2271 -0.2603
3.7052 -2.2709 -0.2579
3.6694 -2.3014 -0.2650
3.6487 -2.3213 -0.2607
3.6291 -2.3404 -0.2557
3.5999 -2.3660 -0.2593
3.5854 -2.3792 -0.2589
3.5684 -2.3970 -0.2502
3.5465 -2.4150 -0.2571
3.5351 -2.4253 -0.2573
3.5230 -2.4372 -0.2536
3.5126 -2.4468 -0.2532
3.5034 -2.4545 -0.2555
3.4850 -2.4713 -0.2551
3.4768 -2.4782 -0.2570
3.4676 -2.4878 -0.2524
3.4596 -2.4951 -0.2520
3.4524 -2.5012 -0.2536
4.1876 -2.0322 0.6126
4.1820 -2.0316 0.5921
4.1801 -2.0278 0.5727
4.1742 -2.0272 0.5516
4.1673 -2.0275 0.5300
4.1406 -2.0453 0.5030
4.0912 -2.0833 0.4714
4.0691 -2.0975 0.4476
4.0776 -2.0844 0.4301
4.0796 -2.0768 0.4107
4.0737 -2.0763 0.3896
4.0561 -2.0865 0.3669
4.0477 -2.0883 0.3455
4.0361 -2.0932 0.3237
4.0475 -2.0761 0.3024
4.0348 -2.0818 0.2802
4.0352 -2.0748 0.2574
3.9643 -2.1313 0.2183
3.9458 -2.1433 0.1988
3.9478 -2.1348 0.1760
3.9700 -2.1052 0.1476
4.0242 -2.0420 0.1079
4.2356 -1.7533 -0.1907
4.2228 -1.7546 -0.2286
4.0124 -1.9710 -0.1755
4.0267 -1.9313 -0.2653
3.9669 -1.9915 -0.2549
3.9408 -2.0120 -0.2704
3.8598 -2.0910 -0.2649
3.7923 -2.1572 -0.2591
3.7356 -2.2129 -0.2538
3.7153 -2.2310 -0.2584
3.6956 -2.2488 -0.2618
3.6733 -2.2710 -0.2588
3.6569 -2.2853 -0.2636
3.6184 -2.3242 -0.2565
3.5882 -2.3529 -0.2571
3.5622 -2.3768 -0.2603
3.5354 -2.4044 -0.2536
3.5246 -2.4143 -0.2548
3.5147 -2.4230 -0.2574
3.5042 -2.4334 -0.2563
3.4954 -2.4407 -0.2598
3.4849 -2.4521 -0.2552
3.4751 -2.4627 -0.2510
3.4674 -2.4692 -0.2540
3.4587 -2.4785 -0.2507
3.4519 -2.4837 -0.2552
3.4447 -2.4900 -0.2569
3.4372 -2.4980 -0.2545
4.2217 -1.9700 0.6385
4.2108 -1.9736 0.6149
4.1851 -1.9780 0.5464
4.1583 -1.9962 0.5183
4.1188 -2.0264 0.4878
4.0665 -2.0691 0.4558
4.0608 -2.0684 0.4355
4.0759 -2.0478 0.4184
4.0714 -2.0457 0.3971
4.0392 -2.0704 0.3723
4.0379 -2.0651 0.3515
4.0364 -2.0599 0.3300
4.0354 -2.0540 0.3081
4.0227 -2.0598 0.2856
4.0265 -2.0487 0.2626
4.0019 -2.0667 0.2409
3.9464 -2.1171 0.2237
3.9339 -2.1234 0.2033
3.9229 -2.1281 0.1828
3.9285 -2.1148 0.1586
3.9887 -2.0415 0.1184
4.6830 -1.2273 -0.2469
4.6049 -1.2972 -0.2749
4.5077 -1.3911 -0.2880
4.2145 -1.6891 -0.2794
3.9759 -1.9676 -0.1582
4.0147 -1.8941 -0.2676
3.9822 -1.9225 -0.2816
3.9246 -1.9846 -0.2687
3.8890 -2.0191 -0.2727
3.8444 -2.0670 -0.2632
3.8127 -2.0988 -0.2640
3.7286 -2.1841 -0.2619
3.7023 -2.2120 -0.2575
3.6830 -2.2303 -0.2612
3.6659 -2.2458 -0.2668
3.6463 -2.2658 -0.2660
3.6262 -2.2875 -0.2615
3.5936 -2.3205 -0.2607
3.5797 -2.3339 -0.2627
3.5623 -2.3542 -0.2539
3.5497 -2.3667 -0.2547
3.5177 -2.3959 -0.2643
3.5058 -2.4092 -0.2601
3.4935 -2.4241 -0.2520
3.4852 -2.4310 -0.2566
3.4769 -2.4384 -0.2598
3.4682 -2.4470 -0.2602
3.4603 -2.4543 -0.2624
3.4513 -2.4650 -0.2571
3.4439 -2.4722 -0.2583
3.4359 -2.4816 -0.2541
4.0642 -2.0256 0.4249
4.0443 -2.0387 0.4012
4.0309 -2.0453 0.3788
4.0192 -2.0503 0.3568
4.0121 -2.0505 0.3351
4.0102 -2.0451 0.3134
4.0125 -2.0351 0.2912
4.0108 -2.0292 0.2682
4.0016 -2.0311 0.2452
3.9121 -2.1140 0.2093
3.9094 -2.1095 0.1875
3.9011 -2.1112 0.1664
4.4647 -1.3632 -0.2732
4.3809 -1.4480 -0.2854
4.2881 -1.5466 -0.2853
4.1812 -1.6663 -0.2674
3.9436 -1.9482 -0.1807
3.9214 -1.9517 -0.2395
3.8958 -1.9738 -0.2548
3.8702 -1.9964 -0.2682
3.8292 -2.0420 -0.2620
3.8029 -2.0676 -0.2691
3.7466 -2.1270 -0.2704
3.6891 -2.1928 -0.2566
3.6718 -2.2089 -0.2635
3.6529 -2.2282 -0.2657
3.6268 -2.2607 -0.2515
3.5823 -2.3048 -0.2608
3.5660 -2.3238 -0.2560
3.5528 -2.3374 -0.2571
3.5268 -2.3661 -0.2539
3.5155 -2.3780 -0.2542
3.5054 -2.3879 -0.2568
3.4953 -2.3983 -0.2577
3.4842 -2.4117 -0.2528
3.4756 -2.4200 -0.2555
3.4664 -2.4301 -0.2544
3.4591 -2.4358 -0.2604
3.4499 -2.4476 -0.2548
3.4424 -2.4549 -0.2565
3.4347 -2.4634 -0.2554
3.4277 -2.4707 -0.2561
3.4205 -2.4790 -0.2539
4.0499 -2.0130 0.4512
4.0396 -2.0164 0.4291
4.0239 -2.0255 0.4061
4.0168 -2.0256 0.3847
4.0036 -2.0323 0.3624
3.9949 -2.0340 0.3406
3.9899 -2.0317 0.3189
3.9897 -2.0238 0.2968
3.9793 -2.0272 0.2743
3.9821 -2.0155 0.2510
3.8957 -2.0908 0.1922
3.8900 -2.0893 0.1704
4.6407 -1.1216 -0.1741
4.6010 -1.1490 -0.2208
4.5690 -1.1670 -0.2696
4.4279 -1.3280 -0.2615
4.3462 -1.4148 -0.2744
4.1772 -1.6039 -0.2754
3.9053 -1.9369 -0.1984
3.8890 -1.9462 -0.2226
3.8763 -1.9505 -0.2500
3.8507 -1.9743 -0.2632
3.8081 -2.0254 -0.2541
3.7824 -2.0515 -0.2613
3.7358 -2.0988 -0.2748
3.6752 -2.1741 -0.2549
3.6344 -2.2200 -0.2543
3.6178 -2.2375 -0.2575
3.5709 -2.2888 -0.2608
3.5556 -2.3070 -0.2580
3.5412 -2.3243 -0.2550
3.5311 -2.3327 -0.2626
3.5176 -2.3497 -0.2576
3.4954 -2.3747 -0.2572
3.4858 -2.3847 -0.2593
3.4745 -2.3998 -0.2526
3.4665 -2.4070 -0.2575
3.4584 -2.4148 -0.2610
3.4489 -2.4277 -0.2551
3.4403 -2.4385 -0.2518
3.4328 -2.4466 -0.2524
3.4258 -2.4541 -0.2537
3.4194 -2.4596 -0.2581
3.4121 -2.4694 -0.2536
6.4613 0.3414 1.8102
6.0660 0.0743 1.3030
4.0412 -1.9870 0.4587
4.0308 -1.9905 0.4364
4.0204 -1.9939 0.4140
3.9936 -2.0159 0.3892
3.9864 -2.0159 0.3678
3.9828 -2.0117 0.3465
3.9754 -2.0118 0.3245
3.9749 -2.0037 0.3024
3.9617 -2.0104 0.2799
3.9770 -1.9827 0.2560
3.8819 -2.0719 0.1969
3.8855 -2.0582 0.1730
3.8836 -2.0511 0.1493
4.6138 -1.0373 -0.2301
4.5885 -1.0457 -0.2846
4.3319 -1.3529 -0.2752
4.1614 -1.5544 -0.2758
4.0897 -1.6400 -0.2739
4.0375 -1.6989 -0.2810
3.9103 -1.8587 -0.2575
3.8764 -1.8955 -0.2659
3.8357 -1.9446 -0.2633
3.7965 -1.9932 -0.2577
3.7708 -2.0208 -0.2650
3.7433 -2.0525 -0.2671
3.7191 -2.0795 -0.2710
3.6622 -2.1530 -0.2552
3.6257 -2.1936 -0.2619
3.5896 -2.2371 -0.2598
3.5740 -2.2553 -0.2604
3.5611 -2.2685 -0.2656
3.5288 -2.3125 -0.2510
3.5067 -2.3365 -0.2567
3.4955 -2.3497 -0.2566
3.4853 -2.3614 -0.2576
3.4752 -2.3736 -0.2569
3.4665 -2.3825 -0.2605
3.4570 -2.3945 -0.2584
3.4484 -2.4045 -0.2588
3.4406 -2.4130 -0.2608
3.4318 -2.4254 -0.2555
3.4247 -2.4332 -0.2575
3.4171 -2.4434 -0.2543
3.4103 -2.4510 -0.2552
3.4041 -2.4572 -0.2582
6.2457 0.2544 1.7575
4.0148 -1.9720 0.4423
3.9992 -1.9815 0.4189
3.9845 -1.9901 0.3960
3.9664 -2.0029 0.3729
3.9718 -1.9875 0.3526
3.9628 -1.9892 0.3303
3.9592 -1.9842 0.3081
3.9606 -1.9627 0.2617
3.9828 -1.9237 0.2352
3.9023 -2.0074 0.1957
3.8845 -2.0207 0.1748
3.8784 -2.0184 0.1515
4.6454 -0.9191 -0.1797
4.5552 -1.0190 -0.2099
4.5606 -0.9831 -0.2781
4.4568 -1.1067 -0.2922
4.3273 -1.2730 -0.2819
4.0829 -1.5782 -0.2818
4.0162 -1.6636 -0.2773
3.9082 -1.8010 -0.2714
3.8612 -1.8618 -0.2666
3.8145 -1.9243 -0.2565
3.7867 -1.9559 -0.2642
3.7572 -1.9917 -0.2667
3.7226 -2.0384 -0.2582
3.6772 -2.0919 -0.2659
3.6505 -2.1286 -0.2580
3.6312 -2.1518 -0.2604
3.6104 -2.1791 -0.2570
3.5754 -2.2235 -0.2553
3.5462 -2.2592 -0.2572
3.5335 -2.2740 -0.2600
3.5189 -2.2943 -0.2549
3.5081 -2.3059 -0.2593
3.4966 -2.3203 -0.2594
3.4855 -2.3345 -0.2586
3.4752 -2.3472 -0.2588
3.4649 -2.3612 -0.2564
3.4562 -2.3709 -0.2592
3.4468 -2.3839 -0.2562
3.4386 -2.3934 -0.2577
3.4301 -2.4055 -0.2543
3.4230 -2.4129 -0.2580
3.4153 -2.4234 -0.2556
3.4085 -2.4313 -0.2572
3.4014 -2.4417 -0.2535
3.3951 -2.4494 -0.2541
6.3548 0.5045 1.8694
6.3445 0.5243 1.7968
4.0163 -1.9321 0.4524
3.9919 -1.9525 0.4265
3.9622 -1.9797 0.4006
3.9584 -1.9752 0.3796
3.9543 -1.9707 0.3581
3.9452 -1.9724 0.3359
3.9368 -1.9733 0.3136
3.9401 -1.9587 0.2911
3.9518 -1.9322 0.2671
3.9633 -1.9052 0.2414
3.9678 -1.8869 0.2146
4.5379 -0.9703 -0.1426
4.5058 -0.9894 -0.1935
4.5098 -0.9532 -0.2608
4.4493 -1.0165 -0.2969
4.2216 -1.3222 -0.2856
3.9939 -1.6286 -0.2731
3.9386 -1.7024 -0.2713
3.8415 -1.8346 -0.2627
3.8138 -1.8657 -0.2746
3.7702 -1.9285 -0.2630
3.7434 -1.9613 -0.2688
3.7102 -2.0084 -0.2616
3.6646 -2.0654 -0.2686
3.6406 -2.0985 -0.2653
3.6190 -2.1283 -0.2628
3.6017 -2.1495 -0.2664
3.5831 -2.1750 -0.2643
3.5640 -2.2033 -0.2577
3.5351 -2.2406 -0.2595
3.5196 -2.2638 -0.2533
3.5094 -2.2736 -0.2613
3.4966 -2.2921 -0.2581
3.4863 -2.3038 -0.2619
3.4752 -2.3191 -0.2605
3.4652 -2.3321 -0.2610
3.4543 -2.3493 -0.2549
3.4460 -2.3585 -0.2588
3.4372 -2.3704 -0.2580
3.4281 -2.3851 -0.2524
3.4206 -2.3940 -0.2545
3.4134 -2.4028 -0.2560
3.4064 -2.4109 -0.2583
3.3995 -2.4203 -0.2577
3.3930 -2.4290 -0.2578
3.3868 -2.4362 -0.2598
6.3678 0.6969 1.8674
6.0648 0.3832 1.6461
3.9763 -1.9329 0.4326
3.9499 -1.9570 0.4070
3.9424 -1.9568 0.3853
3.9334 -1.9585 0.3633
3.9277 -1.9557 0.3415
3.9173 -1.9591 0.3191
3.9284 -1.9326 0.2968
3.9380 -1.9073 0.2729
3.9506 -1.8770 0.2470
5.1947 0.0319 -0.1003
5.1401 -0.0063 -0.1772
5.0247 -0.1398 -0.2333
4.5107 -0.9062 -0.1347
4.5380 -0.8301 -0.2115
4.4010 -0.9875 -0.2801
4.1783 -1.3040 -0.2688
4.0515 -1.4728 -0.2856
3.9196 -1.6881 -0.2224
3.8344 -1.8250 -0.1862
3.8225 -1.8269 -0.2160
3.8158 -1.8184 -0.2522
3.7888 -1.8501 -0.2641
3.7569 -1.8936 -0.2664
3.6932 -1.9864 -0.2585
3.6433 -2.0573 -0.2561
3.6029 -2.1129 -0.2577
3.5686 -2.1591 -0.2610
3.5518 -2.1835 -0.2591
3.5352 -2.2091 -0.2543
3.5210 -2.2292 -0.2536
3.5086 -2.2454 -0.2558
3.4838 -2.2818 -0.2524
3.4744 -2.2916 -0.2590
3.4633 -2.3087 -0.2558
3.4540 -2.3205 -0.2583
3.4437 -2.3373 -0.2533
3.4360 -2.3445 -0.2604
3.4276 -2.3560 -0.2609
3.4189 -2.3703 -0.2565
3.4117 -2.3788 -0.2599
3.4040 -2.3907 -0.2574
3.3965 -2.4039 -0.2518
3.3903 -2.4100 -0.2571
3.3840 -2.4188 -0.2572
3.3779 -2.4261 -0.2593
6.0790 0.5420 1.7083
4.0122 -1.8870 0.5330
4.0015 -1.8905 0.5099
3.9880 -1.8978 0.4861
3.9718 -1.9087 0.4616
3.9292 -1.9451 0.4118
3.9223 -1.9439 0.3904
3.9224 -1.9327 0.3697
3.9146 -1.9325 0.3475
3.9134 -1.9225 0.3254
3.9211 -1.8990 0.3028
3.9161 -1.8937 0.2790
3.9209 -1.8734 0.2539
3.9262 -1.8514 0.2274
4.9854 -0.0938 -0.1333
4.8689 -0.2389 -0.1842
4.5321 -0.7208 -0.2140
3.8730 -1.7285 -0.1512
3.8300 -1.7900 -0.1550
3.8075 -1.8128 -0.1745
3.8001 -1.8055 -0.2089
3.7868 -1.8099 -0.2374
3.7724 -1.8168 -0.2645
3.7395 -1.8653 -0.2649
3.6828 -1.9481 -0.2668
3.6333 -2.0223 -0.2649
3.6107 -2.0569 -0.2624
3.5915 -2.0848 -0.2633
3.5710 -2.1181 -0.2578
3.5549 -2.1408 -0.2598
3.5394 -2.1633 -0.2605
3.5240 -2.1872 -0.2584
3.5114 -2.2039 -0.2620
3.4978 -2.2251 -0.2599
3.4856 -2.2431 -0.2599
3.4723 -2.2670 -0.2520
3.4637 -2.2747 -0.2615
3.4530 -2.2915 -0.2595
3.4435 -2.3051 -0.2604
3.4350 -2.3156 -0.2644
3.4250 -2.3349 -0.2559
3.4174 -2.3437 -0.2606
3.4089 -2.3590 -0.2553
3.4019 -2.3669 -0.2599
3.3945 -2.3791 -0.2575
3.3877 -2.3890 -0.2578
3.3812 -2.3981 -0.2587
3.3750 -2.4064 -0.2602
3.3690 -2.4161 -0.2589
6.0659 0.6752 1.7592
5.8946 0.4958 1.6040
5.9313 0.5801 1.5573
5.9434 0.6346 1.4952
3.9727 -1.8768 0.4926
3.9620 -1.8803 0.4696
3.9421 -1.8970 0.4442
3.9224 -1.9136 0.4195
3.9076 -1.9236 0.3963
3.9004 -1.9224 0.3746
3.9012 -1.9092 0.3536
3.9055 -1.8767 0.3088
3.8956 -1.8785 0.2850
3.9016 -1.8549 0.2601
3.8979 -1.8460 0.2346
3.9092 -1.8120 0.2061
3.8903 -1.8110 0.1527
3.8745 -1.8213 0.1275
3.8564 -1.8360 0.1036
3.8488 -1.8320 0.0759
3.8443 -1.8219 0.0461
3.8278 -1.8339 0.0220
3.8287 -1.8127 -0.0125
3.8131 -1.8229 -0.0373
3.8080 -1.8123 -0.0698
3.8099 -1.7864 -0.1097
3.7985 -1.7873 -0.1393
3.7811 -1.8010 -0.1630
3.7723 -1.7960 -0.1957
3.7578 -1.8037 -0.2220
3.7487 -1.7988 -0.2555
3.7220 -1.8358 -0.2638
3.6926 -1.8816 -0.2643
3.6659 -1.9229 -0.2651
3.6465 -1.9473 -0.2754
3.6176 -1.9995 -0.2635
3.5951 -2.0365 -0.2602
3.5756 -2.0675 -0.2595
3.5254 -2.1469 -0.2580
3.5110 -2.1697 -0.2577
3.4857 -2.2077 -0.2606
3.4731 -2.2292 -0.2575
3.4622 -2.2458 -0.2584
3.4521 -2.2599 -0.2611
3.4410 -2.2809 -0.2548
3.4320 -2.2940 -0.2567
3.4235 -2.3055 -0.2599
3.4147 -2.3207 -0.2574
3.4071 -2.3304 -0.2612
3.3992 -2.3438 -0.2594
3.3919 -2.3549 -0.2599
3.3853 -2.3629 -0.2642
3.3784 -2.3745 -0.2625
3.3717 -2.3890 -0.2556
3.3658 -2.3953 -0.2607
3.3601 -2.4023 -0.2643
5.9299 0.6928 1.6790
6.0528 0.8994 1.6754
6.2271 1.1812 1.6879
3.8958 -1.8984 0.4030
3.8939 -1.8886 0.3820
3.8922 -1.8779 0.3603
3.8885 -1.8702 0.3378
3.8925 -1.8495 0.3150
3.8785 -1.8578 0.2909
3.8762 -1.8467 0.2665
3.8692 -1.8430 0.2417
3.8651 -1.8339 0.2161
3.8613 -1.8240 0.1896
3.8556 -1.8169 0.1628
3.8407 -1.8263 0.1381
3.8318 -1.8248 0.1116
3.8185 -1.8314 0.0866
3.8135 -1.8219 0.0577
3.8086 -1.8116 0.0277
3.7977 -1.8129 0.0006
3.7867 -1.8143 -0.0267
3.7826 -1.8008 -0.0597
3.7780 -1.7873 -0.0938
3.7614 -1.8003 -0.1174
3.7540 -1.7923 -0.1503
3.7386 -1.8026 -0.1749
3.7319 -1.7922 -0.2100
3.7227 -1.7870 -0.2431
3.7119 -1.7853 -0.2747
3.6771 -1.8484 -0.2663
3.6454 -1.9067 -0.2572
3.6297 -1.9223 -0.2740
3.5828 -2.0051 -0.2661
3.5607 -2.0468 -0.2582
3.5438 -2.0741 -0.2595
3.5283 -2.0986 -0.2615
3.5136 -2.1222 -0.2629
3.4997 -2.1447 -0.2638
3.4863 -2.1670 -0.2635
3.4730 -2.1916 -0.2595
3.4614 -2.2112 -0.2592
3.4508 -2.2274 -0.2613
3.4400 -2.2474 -0.2581
3.4312 -2.2585 -0.2638
3.4217 -2.2751 -0.2624
3.4135 -2.2860 -0.2668
3.4046 -2.3039 -0.2618
3.3964 -2.3193 -0.2588
3.3890 -2.3315 -0.2591
3.3819 -2.3428 -0.2598
3.3751 -2.3540 -0.2599
3.3686 -2.3651 -0.2594
3.3623 -2.3777 -0.2560
3.8929 -1.8714 0.4320
3.8812 -1.8768 0.4092
3.8760 -1.8716 0.3876
3.8781 -1.8539 0.3666
3.8747 -1.8450 0.3441
3.8620 -1.8515 0.3204
3.8625 -1.8351 0.2969
3.8529 -1.8360 0.2727
3.8489 -1.8265 0.2479
3.8400 -1.8256 0.2231
3.8330 -1.8209 0.1976
3.8239 -1.8201 0.1721
3.8043 -1.8397 0.1496
3.7984 -1.8324 0.1230
3.7931 -1.8233 0.0954
3.7880 -1.8135 0.0668
3.7879 -1.7919 0.0343
3.7782 -1.7904 0.0063
3.7711 -1.7828 -0.0240
3.7637 -1.7752 -0.0550
3.7411 -1.7772 -0.1118
3.7309 -1.7752 -0.1419
3.7148 -1.7883 -0.1651
3.7008 -1.7960 -0.1905
3.6927 -1.7879 -0.2242
3.6799 -1.7921 -0.2517
3.6575 -1.8250 -0.2618
3.6360 -1.8569 -0.2708
3.6137 -1.8936 -0.2748
3.5671 -1.9824 -0.2650
3.5294 -2.0529 -0.2592
3.5138 -2.0796 -0.2601
3.4986 -2.1078 -0.2581
3.4846 -2.1333 -0.2569
3.4719 -2.1553 -0.2575
3.4607 -2.1729 -0.2609
3.4497 -2.1913 -0.2625
3.4381 -2.2152 -0.2573
3.4286 -2.2299 -0.2604
3.4190 -2.2470 -0.2600
3.4105 -2.2598 -0.2633
3.4017 -2.2774 -0.2603
3.3930 -2.2973 -0.2534
3.3860 -2.3050 -0.2604
3.3787 -2.3175 -0.2609
3.3718 -2.3298 -0.2608
3.3651 -2.3428 -0.2589
3.3589 -2.3534 -0.2596
3.3529 -2.3639 -0.2598
3.3471 -2.3743 -0.2594
3.3416 -2.3823 -0.2620
3.8811 -1.8445 0.4393
3.8635 -1.8599 0.4148
3.8559 -1.8585 0.3929
3.8615 -1.8335 0.3727
3.8676 -1.8067 0.3512
3.8342 -1.8346 0.3027
3.8314 -1.8227 0.2788
3.8212 -1.8245 0.2547
3.8129 -1.8224 0.2303
3.8079 -1.8138 0.2049
3.7978 -1.8147 0.1799
3.7891 -1.8128 0.1545
3.7851 -1.8006 0.1269
3.7785 -1.7932 0.0994
3.7795 -1.7681 0.0671
3.7685 -1.7694 0.0401
3.7759 -1.7270 0.0004
3.7566 -1.7470 -0.0223
3.9038 -1.3129 -0.2422
3.7061 -1.7637 -0.1311
3.6889 -1.7806 -0.1524
3.6817 -1.7694 -0.1868
3.6622 -1.7942 -0.2033
3.6498 -1.7983 -0.2300
3.6382 -1.7998 -0.2583
3.6174 -1.8322 -0.2677
3.5947 -1.8732 -0.2697
3.5499 -1.9638 -0.2606
3.5149 -2.0305 -0.2594
3.5015 -2.0501 -0.2669
3.4858 -2.0832 -0.2620
3.4720 -2.1101 -0.2605
3.4603 -2.1292 -0.2646
3.4367 -2.1769 -0.2600
3.4162 -2.2172 -0.2573
3.4077 -2.2288 -0.2633
3.3989 -2.2460 -0.2623
3.3904 -2.2640 -0.2595
3.3831 -2.2720 -0.2674
3.3753 -2.2914 -0.2610
3.3681 -2.3073 -0.2576
3.3614 -2.3199 -0.2575
3.3550 -2.3332 -0.2557
3.3432 -2.3523 -0.2601
3.3323 -2.3750 -0.2567
4.5517 -0.7975 0.8927
4.5360 -0.7944 0.8483
4.5077 -0.8120 0.7980
4.4378 -0.9002 0.7313
3.8866 -1.8016 0.4720
3.8700 -1.8153 0.4470
3.8487 -1.8380 0.4211
3.8486 -1.8224 0.4007
3.8469 -1.8090 0.3792
3.8570 -1.7727 0.3583
3.8172 -1.8139 0.3086
3.8096 -1.8106 0.2849
3.7999 -1.8114 0.2609
3.7963 -1.7994 0.2360
3.7886 -1.7954 0.2110
3.7798 -1.7933 0.1858
3.7697 -1.7942 0.1606
3.7766 -1.7557 0.1288
3.7870 -1.7070 0.0928
3.8020 -1.6444 0.0507
3.7943 -1.6346 0.0182
3.7866 -1.6240 -0.0154
3.8753 -1.2768 -0.2347
3.8478 -1.3090 -0.2642
3.6429 -1.7687 -0.1995
3.6304 -1.7728 -0.2263
3.6198 -1.7706 -0.2568
3.5955 -1.8182 -0.2580
3.5747 -1.8563 -0.2624
3.5173 -1.9709 -0.2628
3.5028 -1.9946 -0.2695
3.4849 -2.0384 -0.2591
3.4720 -2.0608 -0.2636
3.4582 -2.0909 -0.2603
3.4456 -2.1181 -0.2578
3.4351 -2.1347 -0.2633
3.3956 -2.2162 -0.2603
3.3791 -2.2496 -0.2596
3.3717 -2.2611 -0.2638
3.3644 -2.2792 -0.2595
3.3575 -2.2963 -0.2552
3.3449 -2.3186 -0.2589
3.3334 -2.3413 -0.2592
3.3280 -2.3530 -0.2580
4.4472 -0.9566 0.9652
4.4437 -0.9365 0.9324
4.4631 -0.8775 0.9112
4.4368 -0.8938 0.8638
3.8767 -1.7685 0.4808
3.8491 -1.8031 0.4519
3.8449 -1.7943 0.4306
3.8394 -1.7877 0.4086
3.8342 -1.7801 0.3861
3.8271 -1.7756 0.3629
3.8184 -1.7743 0.3391
3.8019 -1.7891 0.3147
3.7974 -1.7787 0.2908
3.7898 -1.7744 0.2663
3.7821 -1.7702 0.2415
3.7829 -1.7224 0.1864
3.7967 -1.6644 0.1523
3.8030 -1.6215 0.1173
3.7939 -1.6152 0.0865
3.7879 -1.6002 0.0533
3.7862 -1.5728 0.0161
3.7784 -1.5601 -0.0189
3.8465 -1.2880 -0.1704
3.8836 -1.1289 -0.2658
3.8280 -1.2466 -0.2669
3.7816 -1.3426 -0.2705
3.7420 -1.4228 -0.2758
3.7006 -1.5146 -0.2715
3.6263 -1.7327 -0.2005
3.6104 -1.7490 -0.2216
3.5979 -1.7531 -0.2485
3.5809 -1.7757 -0.2648
3.5569 -1.8304 -0.2606
3.5371 -1.8717 -0.2618
3.5195 -1.9064 -0.2652
3.5020 -1.9445 -0.2643
3.4705 -2.0152 -0.2603
3.4563 -2.0479 -0.2573
3.4441 -2.0723 -0.2593
3.4219 -2.1161 -0.2636
3.4012 -2.1637 -0.2593
3.3920 -2.1837 -0.2588
3.3832 -2.2053 -0.2555
3.3754 -2.2172 -0.2611
3.3677 -2.2342 -0.2606
3.3534 -2.2678 -0.2569
3.3406 -2.2992 -0.2519
3.3347 -2.3097 -0.2546
3.3291 -2.3217 -0.2546
3.3235 -2.3303 -0.2584
3.3184 -2.3431 -0.2561
4.5096 -0.8714 1.1575
4.4789 -0.8955 1.1068
4.4757 -0.8747 1.0758
4.4499 -0.8912 1.0288
3.8391 -1.7701 0.4603
3.8360 -1.7580 0.4392
3.8306 -1.7502 0.4169
3.8194 -1.7539 0.3929
3.8175 -1.7380 0.3704
3.8047 -1.7448 0.3457
3.7823 -1.7732 0.3206
3.7986 -1.7145 0.2970
3.7869 -1.7184 0.2716
3.7947 -1.6756 0.2441
3.7895 -1.6625 0.2164
3.7923 -1.6283 0.1858
3.7819 -1.5959 0.1239
3.7769 -1.5774 0.0910
3.7750 -1.5492 0.0549
3.7609 -1.5539 0.0246
3.7511 -1.5458 -0.0090
3.8578 -1.0716 -0.2636
3.8163 -1.1509 -0.2808
3.7649 -1.2702 -0.2784
3.7155 -1.3915 -0.2690
3.6800 -1.4697 -0.2722
3.5915 -1.7193 -0.2196
3.5745 -1.7424 -0.2368
3.5634 -1.7409 -0.2666
3.5216 -1.8360 -0.2668
3.5021 -1.8844 -0.2624
3.4857 -1.9213 -0.2632
3.4560 -1.9888 -0.2633
3.4431 -2.0167 -0.2651
3.4309 -2.0435 -0.2662
3.4079 -2.1018 -0.2599
3.3886 -2.1449 -0.2609
3.3797 -2.1662 -0.2599
3.3715 -2.1821 -0.2631
3.3561 -2.2160 -0.2643
3.3490 -2.2350 -0.2613
3.3423 -2.2503 -0.2613
3.3299 -2.2815 -0.2579
3.3087 -2.3314 -0.2564
3.8096 -1.7158 0.4010
3.8020 -1.7112 0.3772
3.7878 -1.7213 0.3521
3.7485 -1.5346 0.0640
3.7332 -1.5433 0.0347
3.7283 -1.5188 -0.0023
3.7236 -1.4915 -0.0417
3.8286 -1.0223 -0.2582
3.7923 -1.0883 -0.2814
3.7454 -1.2000 -0.2843
3.7011 -1.3110 -0.2818
3.6585 -1.4240 -0.2726
3.6302 -1.4847 -0.2814
3.5936 -1.5895 -0.2658
3.5703 -1.6404 -0.2721
3.5436 -1.7140 -0.2636
3.5243 -1.7555 -0.2694
3.5050 -1.8024 -0.2698
3.4870 -1.8470 -0.2691
3.4695 -1.8951 -0.2638
3.4398 -1.9733 -0.2581
3.4149 -2.0373 -0.2549
3.3941 -2.0847 -0.2585
3.3846 -2.1068 -0.2598
3.3760 -2.1186 -0.2691
3.3674 -2.1367 -0.2719
3.3514 -2.1888 -0.2589
3.3442 -2.2047 -0.2606
3.3374 -2.2204 -0.2615
3.3310 -2.2370 -0.2606
3.3250 -2.2542 -0.2580
3.3189 -2.2634 -0.2637
3.3137 -2.2814 -0.2586
3.3084 -2.2939 -0.2590
3.3038 -2.3107 -0.2532
3.2986 -2.3179 -0.2590
3.2938 -2.3275 -0.2611
4.0492 -1.0114 0.4015
4.1528 -0.5478 0.2223
4.0215 -0.8550 0.1866
3.8646 -1.2085 0.1315
3.7575 -1.4484 0.0926
3.7145 -1.5043 0.0389
3.7212 -1.1413 -0.2849
3.6806 -1.2454 -0.2873
3.6423 -1.3488 -0.2847
3.6066 -1.4503 -0.2777
3.5503 -1.6040 -0.2723
3.5043 -1.7330 -0.2645
3.4852 -1.7856 -0.2625
3.4536 -1.8627 -0.2680
3.4392 -1.8999 -0.2687
3.4243 -1.9501 -0.2583
3.4009 -2.0097 -0.2601
3.3908 -2.0287 -0.2671
3.3803 -2.0637 -0.2601
3.3711 -2.0871 -0.2610
3.3541 -2.1325 -0.2602
3.3392 -2.1772 -0.2550
3.3258 -2.2094 -0.2578
3.3197 -2.2253 -0.2580
3.3141 -2.2447 -0.2536
3.3082 -2.2541 -0.2593
3.3030 -2.2687 -0.2584
3.2981 -2.2833 -0.2568
3.2934 -2.2969 -0.2556
3.2883 -2.3042 -0.2615
3.2840 -2.3167 -0.2603
4.5492 0.1366 0.7475
4.4432 -0.0583 0.6567
3.9975 -0.9426 0.3310
3.8462 -1.2408 0.2187
3.8359 -1.2271 0.1818
3.8252 -1.2135 0.1440
3.8044 -1.2318 0.1092
3.6753 -1.4903 0.0169
3.7820 -0.8609 -0.2648
3.7357 -0.9808 -0.2746
3.6913 -1.1030 -0.2777
3.6593 -1.1753 -0.2935
3.5881 -1.3843 -0.2871
3.5280 -1.5781 -0.2669
3.5073 -1.6316 -0.2714
3.4865 -1.6936 -0.2686
3.4505 -1.8034 -0.2619
3.4216 -1.8852 -0.2619
3.4076 -1.9383 -0.2504
3.3975 -1.9474 -0.2672
3.3573 -2.0681 -0.2613
3.3411 -2.1115 -0.2635
3.3338 -2.1405 -0.2563
3.3266 -2.1524 -0.2636
3.3201 -2.1736 -0.2612
3.3141 -2.1946 -0.2579
3.3025 -2.2260 -0.2590
3.2970 -2.2392 -0.2610
3.2920 -2.2542 -0.2603
3.2824 -2.2792 -0.2622
3.2785 -2.2948 -0.2584
3.2740 -2.3048 -0.2607
4.2047 -0.5075 0.6033
3.9435 -1.0215 0.3778
3.8473 -1.2153 0.2984
3.8101 -1.2862 0.2645
3.8228 -1.0956 0.1449
3.7689 -1.2306 0.1211
3.6581 -1.4400 0.0187
3.6459 -1.4353 -0.0146
3.7124 -0.9868 -0.2076
3.7033 -0.9400 -0.2664
3.6654 -1.0414 -0.2781
3.6299 -1.1400 -0.2861
3.6025 -1.2018 -0.3035
3.5100 -1.5184 -0.2772
3.4674 -1.6574 -0.2704
3.4338 -1.7613 -0.2698
3.4044 -1.8666 -0.2576
3.3926 -1.8979 -0.2615
3.3708 -1.9647 -0.2616
3.3612 -1.9834 -0.2699
3.3433 -2.0499 -0.2607
3.3206 -2.1140 -0.2651
3.3141 -2.1386 -0.2614
3.3023 -2.1816 -0.2560
3.2906 -2.2069 -0.2643
3.2863 -2.2298 -0.2565
3.2811 -2.2413 -0.2600
3.2767 -2.2564 -0.2588
3.2719 -2.2668 -0.2622
3.2637 -2.2919 -0.2621
4.3466 -0.0981 0.7826
4.1885 -0.4619 0.6663
3.8500 -1.2290 0.4085
3.8342 -1.2342 0.3745
3.8167 -1.2450 0.3404
3.7993 -1.2558 0.3066
3.7821 -1.2665 0.2730
3.7349 -1.2281 0.1325
3.7343 -1.1702 0.0894
3.6392 -1.3920 0.0214
3.6675 -1.1082 -0.1150
3.6624 -1.0458 -0.1722
3.6709 -0.8978 -0.2584
3.6386 -0.9766 -0.2788
3.6052 -1.0728 -0.2896
3.5720 -1.1799 -0.2918
3.5114 -1.4013 -0.2776
3.4867 -1.4915 -0.2715
3.4465 -1.6341 -0.2653
3.4010 -1.7823 -0.2674
3.3652 -1.9124 -0.2596
3.3552 -1.9427 -0.2615
3.3459 -1.9808 -0.2564
3.3291 -2.0305 -0.2609
3.3144 -2.0814 -0.2593
3.3008 -2.1159 -0.2670
3.2954 -2.1437 -0.2598
3.2894 -2.1588 -0.2634
3.2846 -2.1814 -0.2587
3.2801 -2.2029 -0.2539
3.2748 -2.2147 -0.2581
3.2694 -2.2235 -0.2648
3.2656 -2.2418 -0.2607
3.2615 -2.2561 -0.2601
3.2580 -2.2713 -0.2577
4.3607 -0.1989 1.0333
4.3355 -0.2073 0.9791
4.3103 -0.2156 0.9249
4.2790 -0.2404 0.8669
4.2600 -0.2323 0.8164
4.2075 -0.3175 0.7478
4.1538 -0.4102 0.6811
3.8472 -1.1731 0.4534
3.7117 -1.2457 0.1798
3.6960 -1.2509 0.1460
3.7057 -1.1429 0.0984
3.7088 -1.0557 0.0486
3.6878 -1.0770 0.0127
3.6617 -1.1257 -0.0173
3.6511 -1.0953 -0.0622
3.6335 -1.1012 -0.1002
3.6169 -1.1005 -0.1399
3.6056 -0.9451 -0.2684
3.5793 -1.0020 -0.2934
3.5453 -1.1304 -0.2902
3.5150 -1.2482 -0.2849
3.4880 -1.3568 -0.2778
3.4651 -1.4455 -0.2742
3.4437 -1.5368 -0.2651
3.4258 -1.6064 -0.2621
3.4117 -1.6347 -0.2770
3.3394 -1.9215 -0.2607
3.3307 -1.9593 -0.2566
3.3146 -2.0098 -0.2617
3.3075 -2.0388 -0.2595
3.3006 -2.0606 -0.2616
3.2938 -2.0783 -0.2661
3.2775 -2.1474 -0.2596
3.2727 -2.1674 -0.2578
3.2672 -2.1795 -0.2629
3.2639 -2.2042 -0.2546
3.2555 -2.2337 -0.2553
3.2510 -2.2445 -0.2590
3.2469 -2.2561 -0.2611
3.0520 0.0138 0.9135
3.0675 -0.3353 0.8339
3.1073 -0.4156 0.8123
3.0602 -0.4325 0.7623
3.1169 -0.3874 0.7668
1.5211 -1.9982 0.5457
1.5099 -1.9632 0.5528
1.5118 -1.9352 0.5577
1.5171 -1.9084 0.5621
1.5097 -1.8709 0.5693
3.0172 -0.4083 0.7188
3.0673 -0.4179 0.7133
3.1381 -0.2840 0.7320
3.1807 -0.3406 0.7187
3.2347 -0.3228 0.7179
1.4958 -1.9880 0.5216
1.4732 -1.8505 0.5445
1.4958 -1.8328 0.5458
2.9845 -0.2443 0.6940
3.0338 -0.3038 0.6814
3.1098 -0.1384 0.7022
3.1641 -0.1533 0.6962
3.2382 -0.3360 0.6627
1.5165 -2.0068 0.4897
1.4710 -1.8552 0.5125
1.4980 -1.8407 0.5128
2.8022 -0.8173 0.5714
2.9071 -0.6105 0.5927
3.0540 -0.1727 0.6421
3.1090 -0.1872 0.6369
3.1653 -0.1843 0.6340
3.2065 -0.2619 0.6212
3.2566 -0.2746 0.6166
3.4389 -1.0449 0.5034
1.5066 -2.0064 0.4623
1.5177 -1.8618 0.4775
0.4053 -0.4790 0.6859
2.9203 -0.4832 0.5559
2.9892 -0.3039 0.5719
3.1129 -0.2016 0.5767
3.1718 -0.1822 0.5758
3.2188 -0.2281 0.5684
3.2929 -0.1265 0.5757
3.3264 -0.2228 0.5634
0.4101 -0.4971 0.6107
2.1704 2.0181 0.7488
2.8551 -0.8146 0.4768
2.9086 -0.7036 0.4840
2.9959 -0.2870 0.5158
3.0618 -0.2019 0.5202
3.1729 -0.2130 0.5144
3.2345 -0.1772 0.5147
3.3114 -0.0696 0.5206
3.5006 -0.7304 0.4558
3.4817 -0.8800 0.4439
3.4517 -1.0420 0.4313
3.4763 -1.0584 0.4289
0.3954 -0.4962 0.5374
0.5766 -0.5799 0.5258
0.7371 1.5130 0.6483
0.9058 1.4418 0.6379
1.0450 1.4259 0.6320
1.3235 1.0299 0.5978
2.1782 1.9886 0.6260
2.3157 1.8452 0.6123
2.4611 1.4539 0.5832
2.5681 1.4406 0.5785
2.9118 -0.7155 0.4341
2.9823 -0.4781 0.4461
3.0597 -0.2660 0.4564
3.1205 -0.2305 0.4564
3.1794 -0.2110 0.4555
3.2446 -0.1575 0.4564
3.3384 0.0269 0.4644
3.4714 0.3534 0.4796
3.4597 -1.0370 0.3948
3.4846 -1.0531 0.3930
3.5144 -1.0554 0.3917
-0.2934 -0.0798 0.4967
0.4367 -0.4519 0.4628
0.9820 1.2569 0.5107
1.1537 1.1491 0.5020
1.3923 0.8396 0.4840
1.4340 1.0387 0.4902
2.4576 1.5794 0.4818
2.5568 1.8348 0.4885
2.8149 -0.8428 0.3827
2.9069 -0.8322 0.3806
2.9900 -0.4494 0.3924
3.0759 -0.1798 0.3999
3.1267 -0.2288 0.3967
3.2034 -0.1048 0.3992
3.2756 -0.0283 0.4000
3.3865 0.2211 0.4061
3.4814 0.3599 0.4086
4.0899 2.5239 0.4715
3.4642 -1.1155 0.3547
3.5230 -1.0500 0.3555
0.4474 -0.9785 0.3795
0.2198 -0.3551 0.3914
0.3211 -0.3500 0.3895
0.9671 1.2797 0.3966
1.2835 0.8219 0.3849
1.4554 0.6650 0.3797
1.4103 1.1012 0.3858
2.3110 0.9474 0.3664
2.3986 1.0591 0.3661
2.4422 1.8864 0.3752
2.8647 -0.8388 0.3341
2.9084 -0.8637 0.3330
3.0673 -0.2947 0.3368
3.1331 -0.2261 0.3363
3.1844 -0.2561 0.3349
3.2589 -0.1530 0.3347
3.3509 0.0157 0.3350
3.4590 0.2268 0.3354
0.4192 -0.9688 0.3152
0.4003 -0.8809 0.3142
1.5045 0.8237 0.2796
2.1384 1.4691 0.2641
2.2879 1.1720 0.2664
2.4049 1.0353 0.2668
2.5716 1.7788 0.2553
2.6882 1.6506 0.2556
2.8713 -0.7896 0.2855
2.9154 -0.8249 0.2854
2.9572 -0.8598 0.2854
3.0795 -0.2435 0.2760
3.1395 -0.2237 0.2751
3.1854 -0.2865 0.2754
3.2467 -0.2511 0.2742
3.3087 -0.2155 0.2731
3.3598 -0.2289 0.2727
3.4410 -1.0487 0.2825
3.4783 -1.0364 0.2819
0.2983 -0.8118 0.2436
0.4366 -0.7661 0.2415
0.4353 -0.6794 0.2381
0.4526 -0.6049 0.2352
0.4131 -0.4696 0.2301
0.2120 -0.1574 0.2187
1.0086 1.4745 0.1536
1.3010 1.0591 0.1688
1.4690 0.9199 0.1737
1.6101 0.8321 0.1767
1.6363 1.1192 0.1656
1.6800 1.3971 0.1548
1.7682 1.5413 0.1490
1.9640 1.1779 0.1624
2.0916 1.0802 0.1658
2.2113 0.9874 0.1691
2.2731 1.3294 0.1557
2.3608 1.5669 0.1463
2.4650 1.7132 0.1404
2.5768 1.8082 0.1365
2.7833 -0.3422 0.2187
2.8322 -0.6476 0.2303
2.8776 -0.7477 0.2340
2.9176 -0.8463 0.2377
2.9677 -0.8008 0.2358
3.0834 -0.2582 0.2146
3.1409 -0.2554 0.2144
3.1948 -0.2688 0.2147
3.2412 -0.3126 0.2163
3.3019 -0.2786 0.2148
3.3561 -0.2747 0.2145
3.4260 -0.2076 0.2117
3.4666 -0.9996 0.2421
0.1442 -0.5264 0.1526
1.4310 1.0232 0.0604
1.7879 1.4593 0.0344
2.0972 1.8017 0.0142
2.7885 -0.2562 0.1504
2.8829 -0.7261 0.1812
2.9224 -0.8380 0.1886
2.9686 -0.8324 0.1885
3.0281 -0.7219 0.1818
3.0724 -0.7383 0.1831
3.1372 -0.6304 0.1765
3.1854 -0.6262 0.1765
3.2835 -0.6046 0.1757
3.5314 -0.8539 0.1931
3.5769 -0.8314 0.1919
1.4035 -1.8676 0.2104
-0.2640 -0.1906 0.0348
1.1651 1.4005 -0.0885
1.4693 1.2675 -0.0721
1.6946 1.3418 -0.0756
1.8624 1.1372 -0.0546
2.0499 1.3519 -0.0714
2.1599 1.3882 -0.0731
2.7926 -0.2717 0.0861
2.8504 -0.3831 0.0970
2.8946 -0.6062 0.1178
2.9357 -0.7327 0.1298
2.9833 -0.7393 0.1311
3.0200 -0.8184 0.1388
3.0723 -0.7715 0.1353
3.1110 -0.8075 0.1391
3.1935 -0.6147 0.1229
3.2959 -0.3677 0.1020
3.3522 -0.3491 0.1011
3.4599 -0.9619 0.1581
3.5451 -0.8372 0.1481
3.5645 -0.8775 0.1520
3.5624 -0.9620 0.1596
3.5837 -0.9879 0.1622
1.3585 -1.8442 0.1705
1.3674 -1.8139 0.1672
0.2323 -0.5389 -0.0081
0.7919 1.3069 -0.2109
1.0043 1.1398 -0.1864
1.6171 0.7982 -0.1324
1.7506 0.7158 -0.1196
1.7632 1.0762 -0.1615
1.8372 1.2524 -0.1804
1.9662 1.1927 -0.1704
2.0736 1.2281 -0.1721
2.1810 1.2636 -0.1737
2.2712 1.4483 -0.1932
2.6051 1.5585 -0.1984
2.7249 0.6684 -0.0916
2.7973 -0.2521 0.0177
2.8536 -0.4138 0.0379
2.9171 -0.3296 0.0295
3.0041 -0.5960 0.0627
3.2618 -0.0071 -0.0002
3.3276 -0.2573 0.0306
3.3912 -0.2206 0.0277
3.4719 -0.9475 0.1146
3.5060 -0.9500 0.1157
3.5326 -0.9686 0.1184
3.5649 -0.9716 0.1195
3.6151 -0.9351 0.1164
3.6318 -0.9696 0.1209
1.3335 -1.8347 0.1308
1.3799 -1.8299 0.1315
-0.3426 -0.2648 -0.1485
0.1594 -0.5838 -0.0866
0.4720 -0.7654 -0.0505
-0.1006 0.5322 -0.2553
0.0080 0.5681 -0.2570
0.1167 0.6039 -0.2587
0.2552 0.5994 -0.2536
0.9627 0.6895 -0.2439
1.1400 0.5710 -0.2212
1.0746 0.9714 -0.2809
1.4656 0.5958 -0.2144
1.5095 0.7799 -0.2394
1.6598 0.6599 -0.2174
1.7673 0.6556 -0.2133
1.8443 0.7616 -0.2261
1.9152 0.9138 -0.2457
2.0556 0.7507 -0.2178
2.3110 1.1344 -0.2648
2.4331 0.9559 -0.2352
2.5336 0.9483 -0.2309
2.6294 1.0207 -0.2382
2.7284 0.9330 -0.2225
2.8021 -0.2320 -0.0527
2.8676 -0.1926 -0.0562
2.9291 -0.2257 -0.0495
3.0317 -0.4001 -0.0212
3.1570 0.0998 -0.0890
3.2272 0.1229 -0.0901
3.3190 0.2632 -0.1073
3.3043 -0.1364 -0.0503
3.3393 -0.2379 -0.0346
4.1207 1.8751 -0.3134
3.4873 -0.9250 0.0689
3.5051 -0.9683 0.0757
3.5488 -0.9466 0.0739
3.5962 -0.9173 0.0712
3.6449 -0.8866 0.0684
3.6859 -0.8731 0.0677
0.3717 -0.8590 -0.1141
0.4413 -0.8360 -0.1151
0.5446 -0.8425 -0.1098
0.6907 -0.8909 -0.0955
0.5664 -0.6866 -0.1356
0.3671 -0.1565 -0.2343
0.2363 0.1247 -0.2878
0.4308 0.0371 -0.2648
0.4997 0.0972 -0.2723
0.5928 0.1280 -0.2737
0.7073 0.1283 -0.2691
0.7592 0.2193 -0.2825
0.8722 0.2202 -0.2780
0.9654 0.2509 -0.2795
1.0585 0.2817 -0.2809
1.1516 0.3124 -0.2824
1.2604 0.3109 -0.2776
1.3379 0.3739 -0.2852
1.4448 0.3717 -0.2805
1.5726 0.3089 -0.2645
1.6621 0.3384 -0.2659
1.7417 0.3990 -0.2730
1.8135 0.4934 -0.2862
1.9224 0.4586 -0.2758
2.0128 0.4885 -0.2772
2.0900 0.5847 -0.2905
2.1822 0.6151 -0.2919
2.2791 0.6117 -0.2873
2.3704 0.6418 -0.2888
2.4617 0.6720 -0.2902
2.5529 0.7021 -0.2916
2.6442 0.7322 -0.2930
2.7355 0.7623 -0.2944
2.8127 0.0766 -0.1740
