ply
format ascii 1.0
element vertex 2085
property float x
property float y
property float z
end_header
4.0550 -1.7174 0.0317
4.0163 -1.6733 0.0295
3.9683 -1.6268 0.0270
3.9334 -1.5787 0.0249
3.9055 -1.5295 0.0230
4.9892 -1.4788 0.0593
5.0006 -1.4661 0.0594
5.0080 -1.4524 0.0594
5.0809 -1.3114 0.0593
5.0865 -1.3015 0.0593
5.0888 -1.2896 0.0591
5.0912 -1.2779 0.0590
5.0957 -1.2681 0.0590
4.2429 -2.3077 0.0100
4.2839 -2.2503 0.0115
4.3340 -2.1919 0.0136
4.3881 -2.1351 0.0160
4.4109 -2.0568 0.0161
4.3635 -2.0347 0.0127
4.3527 -2.0012 0.0115
4.3219 -1.9714 0.0091
4.3338 -1.9321 0.0091
4.3179 -1.8979 0.0075
4.2999 -1.8632 0.0058
4.2879 -1.8270 0.0045
4.2318 -1.7934 0.0004
4.1645 -1.7572 -0.0044
4.0409 -1.7183 -0.0128
3.9621 -1.6731 -0.0185
5.0056 -1.4341 0.0423
5.0160 -1.4224 0.0427
5.0254 -1.4108 0.0431
5.0410 -1.4028 0.0439
5.0443 -1.3893 0.0439
5.0559 -1.3805 0.0445
5.0582 -1.3670 0.0444
5.0636 -1.3555 0.0445
5.0731 -1.3470 0.0449
5.0879 -1.2874 0.0448
5.0903 -1.2756 0.0448
5.0948 -1.2657 0.0449
5.0993 -1.2560 0.0450
4.4074 -2.1305 -0.0176
4.4459 -2.0483 -0.0154
4.4145 -2.0228 -0.0187
4.3811 -1.9961 -0.0221
4.3564 -1.9657 -0.0248
4.3346 -1.9334 -0.0273
4.3237 -1.8983 -0.0288
4.3267 -1.8609 -0.0291
4.3197 -1.8248 -0.0303
4.2968 -1.7896 -0.0329
4.1108 -1.7178 -0.0508
5.0073 -1.4175 0.0253
5.0259 -1.4100 0.0268
5.0446 -1.4035 0.0284
5.0458 -1.3889 0.0283
5.0542 -1.3784 0.0289
5.0564 -1.3647 0.0289
5.0618 -1.3531 0.0292
5.0662 -1.3413 0.0294
5.0736 -1.3317 0.0299
5.0801 -1.3219 0.0303
5.0855 -1.3117 0.0307
5.0910 -1.3019 0.0310
4.2933 -2.2916 -0.0639
4.3739 -2.1817 -0.0559
4.4130 -2.1310 -0.0520
4.4307 -2.0549 -0.0509
4.4072 -2.0267 -0.0541
4.3867 -1.9965 -0.0570
4.3572 -1.9672 -0.0609
4.3257 -1.9366 -0.0651
4.2990 -1.9036 -0.0687
4.2752 -1.8688 -0.0720
4.2790 -1.8300 -0.0721
4.0102 -1.7200 -0.1055
3.8093 -1.4692 -0.1329
3.8436 -1.4241 -0.1295
3.8861 -1.3825 -0.1250
4.9874 -1.4587 0.0065
5.0389 -1.3996 0.0118
5.0493 -1.3896 0.0129
5.0546 -1.3774 0.0134
5.0599 -1.3655 0.0138
5.0653 -1.3540 0.0143
5.0727 -1.3441 0.0150
5.0729 -1.3298 0.0149
5.0814 -1.3213 0.0157
5.0847 -1.3096 0.0160
5.0881 -1.2982 0.0162
5.0972 -1.2643 0.0168
4.3932 -2.1768 -0.0895
4.4224 -2.1300 -0.0858
4.4292 -2.0924 -0.0853
4.2253 -2.0788 -0.1154
4.2231 -2.0386 -0.1162
4.2385 -1.9946 -0.1145
4.1907 -1.8811 -0.1230
3.8946 -1.7226 -0.1685
3.9356 -1.6741 -0.1631
3.8695 -1.4274 -0.1760
3.9029 -1.3847 -0.1716
3.8731 -1.3309 -0.1766
4.9740 -1.4529 -0.0132
5.0384 -1.3982 -0.0045
5.0518 -1.3898 -0.0026
5.0571 -1.3776 -0.0020
5.0624 -1.3657 -0.0013
5.0697 -1.3554 -0.0004
5.0751 -1.3442 0.0003
5.0773 -1.3314 0.0004
5.0924 -1.2999 0.0023
5.0948 -1.2879 0.0024
5.0981 -1.2769 0.0028
5.1025 -1.2670 0.0033
4.3175 -2.1322 -0.1394
4.2892 -2.1024 -0.1447
4.2317 -2.0792 -0.1551
4.2120 -2.0434 -0.1590
4.1786 -2.0096 -0.1652
4.1646 -1.9703 -0.1681
4.1554 -1.9295 -0.1702
4.1658 -1.8857 -0.1688
3.8580 -1.7239 -0.2248
3.8908 -1.6741 -0.2195
3.8198 -1.3689 -0.2354
3.7372 -1.3015 -0.2507
5.0357 -1.4115 -0.0211
5.0409 -1.3984 -0.0203
5.0533 -1.3894 -0.0183
5.0616 -1.3789 -0.0169
5.0699 -1.3689 -0.0156
5.0752 -1.3575 -0.0148
5.0881 -1.3231 -0.0129
5.0955 -1.3144 -0.0117
5.1001 -1.2905 -0.0111
5.1024 -1.2787 -0.0108
5.1123 -1.2602 -0.0093
5.1167 -1.2509 -0.0086
2.4678 -3.6137 -0.5431
2.5522 -3.4688 -0.5272
2.4261 -3.4446 -0.5532
2.4525 -3.3342 -0.5489
4.1874 -2.0516 -0.2055
4.1599 -2.0156 -0.2114
4.1518 -1.9745 -0.2135
4.1621 -1.9300 -0.2118
4.1852 -1.8845 -0.2075
4.2591 -1.8353 -0.1928
3.8864 -1.7739 -0.2698
3.9102 -1.7237 -0.2654
3.8534 -1.6742 -0.2775
5.0806 -1.3595 -0.0290
5.0829 -1.3466 -0.0286
5.0871 -1.3351 -0.0279
5.0914 -1.3240 -0.0271
5.0978 -1.3146 -0.0259
5.1032 -1.3048 -0.0249
5.1024 -1.2906 -0.0252
5.1067 -1.2805 -0.0244
5.1145 -1.2604 -0.0230
3.0758 -3.6454 -0.4960
3.1120 -3.5395 -0.4884
3.0053 -3.5368 -0.5134
3.0549 -3.2645 -0.5039
2.9674 -3.2368 -0.5246
2.8729 -3.2078 -0.5470
2.9587 -3.0795 -0.5279
3.0382 -2.9598 -0.5102
3.0550 -2.8740 -0.5069
3.0910 -2.7812 -0.4992
3.1443 -2.6839 -0.4875
3.1950 -2.5910 -0.4764
4.1757 -2.0567 -0.2508
4.1473 -2.0204 -0.2577
4.1111 -1.9841 -0.2665
4.1087 -1.9402 -0.2674
3.8387 -1.7771 -0.3320
3.8642 -1.7253 -0.3264
3.1944 -1.5980 -0.4843
3.1366 -1.5248 -0.4984
3.0373 -1.4445 -0.5223
3.1652 -1.3871 -0.4928
3.3132 -1.3403 -0.4585
3.4005 -1.2911 -0.4384
3.6097 -1.2725 -0.3896
4.9726 -1.4498 -0.0689
4.9806 -1.4352 -0.0672
4.9856 -1.4198 -0.0661
5.0017 -1.4098 -0.0624
5.0097 -1.3968 -0.0606
5.0108 -1.3807 -0.0605
5.0169 -1.3675 -0.0592
5.0393 -1.3482 -0.0541
5.0445 -1.3358 -0.0529
5.0538 -1.3264 -0.0508
5.0570 -1.3134 -0.0502
5.0582 -1.2992 -0.0500
3.3503 -3.3022 -0.5042
3.3625 -3.2233 -0.5015
3.3748 -3.1454 -0.4987
3.3675 -3.0112 -0.5015
4.0764 -2.1299 -0.3200
4.1498 -2.0655 -0.3010
4.1349 -2.0252 -0.3052
4.0588 -1.9501 -0.3257
3.5148 -1.9159 -0.4695
3.6500 -1.8442 -0.4342
3.8663 -1.7768 -0.3776
3.8538 -1.7262 -0.3812
3.7624 -1.6742 -0.4056
3.6834 -1.6176 -0.4269
3.3622 -1.4756 -0.5125
3.3429 -1.4088 -0.5180
3.4709 -1.3637 -0.4845
3.7202 -1.2945 -0.4192
4.9517 -1.4596 -0.0932
4.9625 -1.4269 -0.0905
5.0195 -1.4004 -0.0757
5.0306 -1.3897 -0.0728
5.0367 -1.3769 -0.0713
5.0480 -1.3520 -0.0684
5.0551 -1.3410 -0.0666
5.0563 -1.3266 -0.0664
5.0615 -1.3149 -0.0651
5.0657 -1.3030 -0.0641
5.0709 -1.2920 -0.0627
5.0752 -1.2806 -0.0617
5.0754 -1.2663 -0.0617
5.0786 -1.2545 -0.0610
5.0788 -1.2404 -0.0610
5.0821 -1.2290 -0.0602
3.6363 -3.2317 -0.4910
3.6330 -3.1718 -0.4923
3.6166 -3.1211 -0.4973
3.6385 -3.0436 -0.4912
3.6231 -2.9919 -0.4960
3.6442 -2.9168 -0.4902
3.6654 -2.8433 -0.4843
3.6001 -2.8193 -0.5036
3.6222 -2.7456 -0.4974
3.6190 -2.6860 -0.4986
3.6403 -2.6149 -0.4927
3.6616 -2.5454 -0.4867
3.6698 -2.4826 -0.4846
3.7455 -2.3954 -0.4628
4.0861 -2.1756 -0.3638
4.1847 -2.1017 -0.3351
4.1824 -2.0594 -0.3360
4.1743 -2.0184 -0.3386
4.1586 -1.9786 -0.3434
4.0948 -1.9459 -0.3623
3.8831 -1.7770 -0.4252
3.8716 -1.7266 -0.4288
3.8106 -1.6753 -0.4470
3.8395 -1.3185 -0.4401
4.9486 -1.4203 -0.1139
4.9496 -1.4021 -0.1137
4.9773 -1.3787 -0.1056
4.9833 -1.3641 -0.1039
5.0559 -1.3097 -0.0829
5.0746 -1.2785 -0.0775
5.0808 -1.2688 -0.0757
5.0830 -1.2563 -0.0752
5.0853 -1.2440 -0.0746
5.0875 -1.2318 -0.0740
3.8381 -2.7474 -0.4895
3.8352 -2.6938 -0.4906
3.8220 -2.6456 -0.4950
3.8293 -2.5866 -0.4928
3.8160 -2.5378 -0.4973
3.8235 -2.4794 -0.4950
4.1729 -2.2386 -0.3826
4.1904 -2.1887 -0.3770
4.1938 -2.1445 -0.3761
4.2104 -2.0968 -0.3708
4.1701 -2.0648 -0.3840
4.1744 -2.0204 -0.3827
4.1788 -1.9765 -0.3814
4.1764 -1.9340 -0.3823
4.1799 -1.8908 -0.3813
4.1517 -1.8513 -0.3906
4.0017 -1.7722 -0.4394
3.9673 -1.7255 -0.4506
3.8672 -1.6764 -0.4832
3.8644 -1.6253 -0.4843
3.8616 -1.5743 -0.4853
3.8685 -1.5242 -0.4832
3.8745 -1.4745 -0.4815
3.8630 -1.4226 -0.4853
3.8407 -1.3683 -0.4927
3.8281 -1.3149 -0.4969
3.8351 -1.2657 -0.4948
3.9969 -2.9142 -0.4891
3.9942 -2.8647 -0.4901
4.0081 -2.8038 -0.4852
3.9944 -2.7111 -0.4902
3.9750 -2.6718 -0.4971
3.9638 -2.6268 -0.5011
3.9695 -2.5724 -0.4992
4.0172 -2.4974 -0.4824
4.2641 -2.2902 -0.3952
4.2497 -2.2545 -0.4003
4.2051 -2.2295 -0.4161
4.0954 -2.2246 -0.4550
4.0929 -2.1791 -0.4560
4.1330 -2.1214 -0.4418
4.1835 -2.0636 -0.4240
4.1613 -2.0254 -0.4319
4.1048 -1.9929 -0.4520
4.0586 -1.9554 -0.4684
4.0856 -1.9052 -0.4589
4.0898 -1.8592 -0.4575
4.1227 -1.8114 -0.4459
4.1471 -1.7660 -0.4373
4.1179 -1.7233 -0.4477
4.0127 -1.6783 -0.4850
3.9860 -1.6303 -0.4945
3.9671 -1.5815 -0.5013
3.9808 -1.5349 -0.4965
3.9618 -1.4851 -0.5033
3.9417 -1.4342 -0.5105
3.9216 -1.3823 -0.5177
3.9538 -1.3405 -0.5063
4.5366 -1.3408 -0.2998
4.5388 -1.3110 -0.2991
3.8973 -0.9393 -0.5268
4.9274 -1.2563 -0.1614
4.9363 -1.2433 -0.1583
4.0893 -2.8021 -0.5054
4.1389 -2.6257 -0.4862
4.1226 -2.5890 -0.4925
4.2453 -2.3870 -0.4451
4.2840 -2.3261 -0.4302
4.1847 -2.3286 -0.4684
4.1824 -2.2854 -0.4693
4.1538 -2.2521 -0.4803
4.1579 -2.2058 -0.4787
4.1753 -2.1557 -0.4720
4.1795 -2.1105 -0.4704
4.2135 -2.0156 -0.4572
4.1923 -1.9775 -0.4654
4.1634 -1.9395 -0.4765
4.1345 -1.8999 -0.4876
4.1530 -1.8536 -0.4805
4.1563 -1.8098 -0.4792
4.1740 -1.7655 -0.4723
4.1649 -1.7230 -0.4758
4.1291 -1.6799 -0.4896
4.0482 -1.6330 -0.5207
4.0534 -1.5874 -0.5187
4.0653 -1.5429 -0.5141
4.0252 -1.4927 -0.5295
4.0747 -1.4542 -0.5104
4.0476 -1.3593 -0.5208
4.5403 -1.3714 -0.3311
4.5629 -1.3481 -0.3224
4.9077 -1.2225 -0.1896
4.2550 -2.7751 -0.4857
4.2153 -2.7615 -0.5022
4.2321 -2.7043 -0.4951
4.2417 -2.6533 -0.4910
4.2522 -2.6025 -0.4865
4.2555 -2.5572 -0.4851
4.2587 -2.5121 -0.4837
4.2564 -2.4706 -0.4845
4.2606 -2.4255 -0.4827
4.2926 -2.3668 -0.4693
4.2473 -2.3044 -0.4880
4.2209 -2.2728 -0.4989
4.2251 -2.2280 -0.4970
4.2405 -2.1797 -0.4905
4.2625 -2.1304 -0.4813
4.3546 -2.0236 -0.4427
4.2291 -1.9720 -0.4948
4.2268 -1.9304 -0.4957
4.2132 -1.8904 -0.5013
4.2200 -1.8057 -0.4983
4.2301 -1.7636 -0.4940
4.2335 -1.7223 -0.4925
4.2255 -1.6812 -0.4957
4.2290 -1.6402 -0.4942
4.1972 -1.3902 -0.5069
4.5520 -1.3738 -0.3592
4.5804 -1.3526 -0.3474
4.4630 -1.0858 -0.3956
4.9050 -1.2189 -0.2121
4.2492 -0.6717 -0.4837
4.3941 -0.7132 -0.4235
4.4052 -0.6892 -0.4189
4.3508 -2.5013 -0.4864
4.3276 -2.4750 -0.4967
4.3466 -2.4233 -0.4881
4.3490 -2.3818 -0.4868
4.3773 -2.3275 -0.4740
4.3189 -2.3164 -0.5000
4.3223 -2.2743 -0.4983
4.3248 -2.2329 -0.4971
4.3337 -2.1893 -0.4929
4.3418 -2.1467 -0.4891
4.3602 -2.1014 -0.4807
4.3870 -2.0549 -0.4686
4.4129 -2.0103 -0.4568
4.4063 -1.9751 -0.4596
4.3462 -1.9502 -0.4864
4.3188 -1.9163 -0.4985
4.3352 -1.8360 -0.4909
4.3529 -1.7961 -0.4828
4.3508 -1.7583 -0.4836
4.3185 -1.7211 -0.4979
4.2946 -1.6822 -0.5085
4.3330 -1.6065 -0.4910
4.4080 -1.5759 -0.4573
4.3898 -1.5021 -0.4652
4.3190 -1.4531 -0.4967
4.5485 -1.3409 -0.3936
4.4000 -1.1878 -0.4594
4.9123 -1.2414 -0.2305
4.9170 -1.2250 -0.2283
4.2858 -0.6586 -0.5085
4.2947 -0.6294 -0.5044
4.3660 -0.6526 -0.4726
4.4424 -2.5987 -0.4847
4.4384 -2.5255 -0.4862
4.4264 -2.4956 -0.4918
4.4299 -2.4552 -0.4899
4.4361 -2.4135 -0.4867
4.4258 -2.3817 -0.4914
4.4366 -2.3380 -0.4860
4.4301 -2.3040 -0.4889
4.4244 -2.2692 -0.4915
4.4178 -2.2347 -0.4944
4.4241 -2.1945 -0.4912
4.4267 -2.1562 -0.4897
4.4247 -2.1198 -0.4905
4.4144 -2.0862 -0.4953
4.4253 -2.0458 -0.4898
4.4540 -2.0015 -0.4758
4.4260 -1.9722 -0.4890
4.4101 -1.9390 -0.4965
4.3997 -1.9039 -0.5013
4.4201 -1.8640 -0.4913
4.4188 -1.7555 -0.4913
4.4110 -1.6118 -0.4942
4.3664 -1.5717 -0.5154
4.3795 -1.5364 -0.5089
4.3861 -1.5010 -0.5056
4.3936 -1.4663 -0.5018
4.4086 -1.3284 -0.4938
4.4115 -1.2251 -0.4919
4.4847 -1.2211 -0.4567
4.5283 -1.2082 -0.4358
4.9145 -1.2410 -0.2510
4.9202 -1.2252 -0.2482
4.3332 -0.6912 -0.5264
4.3450 -0.6656 -0.5206
4.3479 -0.6333 -0.5190
4.3558 -0.6056 -0.5151
4.3767 -0.5899 -0.5050
4.5174 -2.5099 -0.4849
4.5156 -2.4755 -0.4856
4.5173 -2.4387 -0.4844
4.5217 -2.3652 -0.4816
4.5044 -2.3401 -0.4903
4.4897 -2.3125 -0.4976
4.4878 -2.2776 -0.4983
4.4941 -2.2388 -0.4948
4.5041 -2.1987 -0.4894
4.4949 -2.1676 -0.4939
4.4885 -2.1348 -0.4969
4.4985 -2.0959 -0.4915
4.5012 -2.0601 -0.4899
4.5031 -2.0249 -0.4887
4.5049 -1.9899 -0.4875
4.4910 -1.9588 -0.4943
4.4771 -1.9270 -0.5012
4.4956 -1.8888 -0.4915
4.5133 -1.8520 -0.4822
4.5226 -1.8173 -0.4772
4.5704 -1.7484 -0.4522
4.5472 -1.7173 -0.4639
4.5304 -1.6850 -0.4722
4.5183 -1.6520 -0.4782
4.5042 -1.6182 -0.4851
4.4789 -1.5151 -0.4973
4.5045 -1.4863 -0.4840
4.4875 -1.4499 -0.4924
4.4695 -1.4124 -0.5013
4.4714 -1.3794 -0.5001
4.4696 -1.3455 -0.5008
4.4639 -1.3103 -0.5035
4.4821 -1.2835 -0.4939
4.5110 -1.2620 -0.4791
4.8890 -1.2636 -0.2860
4.9004 -1.2502 -0.2801
4.9148 -1.2393 -0.2726
4.9234 -1.2255 -0.2681
4.4468 -0.7758 -0.5083
4.4528 -0.7485 -0.5050
4.4392 -0.7052 -0.5117
4.4373 -0.6715 -0.5124
4.4473 -0.6482 -0.5071
4.5857 -2.5314 -0.4850
4.5776 -2.5038 -0.4891
4.5857 -2.4637 -0.4844
4.5947 -2.4236 -0.4791
4.5857 -2.3964 -0.4837
4.5731 -2.3711 -0.4903
4.5686 -2.3401 -0.4925
4.5596 -2.3115 -0.4971
4.5714 -2.2711 -0.4904
4.5769 -2.2348 -0.4871
4.5715 -2.2043 -0.4897
4.5697 -2.1718 -0.4904
4.5606 -2.1425 -0.4951
4.5588 -2.1099 -0.4957
4.5506 -2.0795 -0.4999
4.5488 -2.0467 -0.5006
4.5535 -2.0119 -0.4978
4.5489 -1.9800 -0.4999
4.5666 -1.9102 -0.4897
4.5648 -1.8781 -0.4904
4.6004 -1.7784 -0.4702
4.5754 -1.7488 -0.4834
4.5663 -1.7174 -0.4882
4.5543 -1.6855 -0.4944
4.5338 -1.6527 -0.5052
4.5379 -1.5239 -0.5018
4.5512 -1.4944 -0.4943
4.5419 -1.4609 -0.4990
4.8286 -1.3616 -0.3425
4.8407 -1.3443 -0.3357
4.8658 -1.2910 -0.3216
4.8781 -1.2765 -0.3148
4.8923 -1.2639 -0.3070
4.9057 -1.2516 -0.2996
4.9190 -1.2402 -0.2923
4.9266 -1.2257 -0.2880
4.9284 -1.2076 -0.2869
4.9186 -1.1812 -0.2920
4.4937 -0.7160 -0.5185
4.4958 -0.6872 -0.5171
4.6282 -2.5015 -0.4954
4.6389 -2.4604 -0.4887
4.6372 -2.4294 -0.4894
4.6490 -2.3888 -0.4822
4.6473 -2.3583 -0.4828
4.6510 -2.3243 -0.4803
4.6376 -2.3011 -0.4877
4.6387 -2.2688 -0.4868
4.6343 -2.2396 -0.4890
4.6416 -2.2042 -0.4844
4.6336 -2.1768 -0.4887
4.6220 -2.1507 -0.4951
4.6520 -2.1062 -0.4773
4.6504 -2.0762 -0.4780
4.6242 -2.0552 -0.4928
4.6061 -2.0298 -0.5030
4.6135 -1.9959 -0.4983
4.6219 -1.9622 -0.4931
4.6422 -1.9263 -0.4811
4.6405 -1.8963 -0.4817
4.6260 -1.8686 -0.4897
4.6124 -1.8400 -0.4973
4.6328 -1.8067 -0.4851
4.6340 -1.7764 -0.4842
4.6258 -1.7467 -0.4885
4.6056 -1.7170 -0.4998
4.6160 -1.6863 -0.4935
4.6116 -1.6559 -0.4957
4.6192 -1.6260 -0.4910
4.6213 -1.5962 -0.4895
4.6253 -1.5669 -0.4869
4.8280 -1.4522 -0.3690
4.8362 -1.4318 -0.3641
4.8481 -1.4133 -0.3570
4.8507 -1.3919 -0.3553
4.8751 -1.2943 -0.3402
4.8902 -1.2816 -0.3314
4.9005 -1.2670 -0.3252
4.9099 -1.2525 -0.3197
4.9367 -1.2498 -0.3042
4.9414 -1.2338 -0.3013
4.9374 -1.2119 -0.3034
4.9383 -1.1935 -0.3027
4.9353 -1.1722 -0.3042
4.8845 -1.0928 -0.3326
4.6969 -2.4497 -0.4870
4.6937 -2.3911 -0.4882
4.6920 -2.3617 -0.4888
4.6904 -2.3324 -0.4894
4.6942 -2.2996 -0.4867
4.6953 -2.2687 -0.4856
4.6999 -2.2359 -0.4824
4.6948 -2.2091 -0.4852
4.6851 -2.1843 -0.4908
4.6819 -2.1258 -0.4920
4.6857 -2.0942 -0.4893
4.6841 -2.0651 -0.4899
4.6728 -2.0097 -0.4961
4.6712 -1.9803 -0.4967
4.6777 -1.9488 -0.4923
4.6762 -1.9197 -0.4929
4.6821 -1.8599 -0.4885
4.6900 -1.8010 -0.4829
4.6869 -1.7441 -0.4841
4.6715 -1.7159 -0.4931
4.6726 -1.6871 -0.4920
4.6590 -1.6578 -0.5000
4.6630 -1.6290 -0.4972
4.6503 -1.5989 -0.5046
4.6570 -1.5707 -0.5001
4.6843 -1.5461 -0.4832
4.7584 -1.5321 -0.4379
4.7598 -1.5068 -0.4367
4.7584 -1.4809 -0.4373
4.8802 -1.2743 -0.3606
4.9048 -1.2678 -0.3455
4.9428 -1.2519 -0.3222
4.9446 -1.2340 -0.3209
4.9396 -1.2115 -0.3236
4.9414 -1.1937 -0.3223
4.9500 -1.1812 -0.3170
4.9566 -1.1678 -0.3127
4.7614 -2.4009 -0.4769
4.7475 -2.3832 -0.4855
4.7434 -2.3574 -0.4878
4.7525 -2.3218 -0.4815
4.7385 -2.3028 -0.4901
4.7441 -2.2702 -0.4861
4.7399 -2.2441 -0.4884
4.7464 -2.2115 -0.4837
4.7521 -2.1800 -0.4797
4.7338 -2.1328 -0.4907
4.7350 -2.1037 -0.4895
4.7281 -2.0783 -0.4936
4.7293 -2.0493 -0.4924
4.7277 -2.0215 -0.4930
4.7262 -1.9937 -0.4935
4.7274 -1.9650 -0.4924
4.7358 -1.9346 -0.4865
4.7271 -1.9089 -0.4918
4.7201 -1.8824 -0.4959
4.7295 -1.8526 -0.4894
4.7353 -1.8241 -0.4853
4.7250 -1.7702 -0.4911
4.7281 -1.7424 -0.4887
4.7165 -1.7153 -0.4958
4.7205 -1.6877 -0.4928
4.7236 -1.6604 -0.4904
4.7249 -1.6332 -0.4892
4.7178 -1.6054 -0.4933
4.7608 -1.5837 -0.4654
4.7974 -1.5636 -0.4417
4.7719 -1.5342 -0.4576
4.7397 -1.5018 -0.4778
4.7187 -1.4704 -0.4908
4.7172 -1.4432 -0.4914
4.7232 -1.4183 -0.4872
4.7086 -1.3869 -0.4961
4.7231 -1.3654 -0.4865
4.7141 -1.3356 -0.4918
4.6994 -1.3029 -0.5008
4.7130 -1.2823 -0.4917
4.6964 -1.2479 -0.5019
4.7053 -1.2258 -0.4959
4.6981 -1.1955 -0.5000
4.7204 -1.1817 -0.4856
4.9563 -1.2401 -0.3351
4.9437 -1.2124 -0.3427
4.9417 -1.1918 -0.3437
4.9541 -1.1822 -0.3357
4.9703 -1.1765 -0.3252
4.9799 -1.1662 -0.3189
4.9798 -1.1483 -0.3187
4.7920 -2.3795 -0.4859
4.7932 -2.3508 -0.4846
4.7891 -2.3263 -0.4870
4.7833 -2.3029 -0.4906
4.7862 -2.2731 -0.4881
4.7803 -2.2495 -0.4917
4.7859 -2.2183 -0.4874
4.7801 -2.1944 -0.4910
4.7786 -2.1678 -0.4915
4.7816 -2.1388 -0.4890
4.7801 -2.1123 -0.4896
4.7715 -2.0891 -0.4950
4.7746 -2.0604 -0.4925
4.7829 -2.0299 -0.4863
4.7772 -1.9248 -0.4885
4.7671 -1.8738 -0.4945
4.7674 -1.8469 -0.4938
4.7777 -1.7663 -0.4856
4.7616 -1.7412 -0.4960
4.7657 -1.7146 -0.4929
4.7569 -1.6882 -0.4983
4.7628 -1.6620 -0.4939
4.7632 -1.6359 -0.4933
4.7664 -1.6101 -0.4907
4.7852 -1.5866 -0.4776
4.8097 -1.5652 -0.4607
4.8000 -1.5390 -0.4668
4.7727 -1.5084 -0.4848
4.7624 -1.4549 -0.4908
4.7591 -1.4284 -0.4926
4.7582 -1.3771 -0.4924
4.7521 -1.3493 -0.4961
4.7534 -1.3244 -0.4948
4.7539 -1.2992 -0.4940
4.7322 -1.2377 -0.5077
4.7340 -1.1874 -0.5056
4.9761 -1.1608 -0.3418
4.9876 -1.1526 -0.3340
4.8337 -2.3487 -0.4851
4.8341 -2.3219 -0.4843
4.8353 -2.2946 -0.4830
4.8296 -2.2725 -0.4867
4.8255 -2.2490 -0.4891
4.8329 -2.2177 -0.4833
4.8377 -2.1886 -0.4794
4.8319 -2.1663 -0.4830
4.8306 -2.1411 -0.4836
4.8230 -2.1193 -0.4885
4.8172 -2.0962 -0.4922
4.8291 -2.0645 -0.4832
4.8251 -2.0406 -0.4856
4.8067 -2.0223 -0.4983
4.8160 -1.9927 -0.4912
4.8147 -1.9674 -0.4917
4.8133 -1.9420 -0.4922
4.8227 -1.9137 -0.4850
4.8150 -1.8903 -0.4900
4.8181 -1.8642 -0.4874
4.8204 -1.8385 -0.4853
4.8172 -1.8138 -0.4871
4.8176 -1.7886 -0.4863
4.8036 -1.7648 -0.4959
4.8067 -1.7392 -0.4932
4.8117 -1.7139 -0.4892
4.8167 -1.6889 -0.4852
4.8071 -1.6638 -0.4915
4.7948 -1.6380 -0.4998
4.7998 -1.6133 -0.4958
4.7984 -1.5881 -0.4963
4.7971 -1.5629 -0.4968
4.8040 -1.5393 -0.4915
4.8008 -1.5140 -0.4933
4.8012 -1.4894 -0.4925
4.7980 -1.4640 -0.4943
4.8096 -1.4430 -0.4857
4.7999 -1.4156 -0.4921
4.7939 -1.3890 -0.4959
4.7972 -1.3659 -0.4931
4.7781 -1.3335 -0.5061
4.7814 -1.3102 -0.5033
4.7819 -1.2859 -0.5025
4.7974 -1.2694 -0.4913
4.8007 -1.2473 -0.4885
4.7759 -1.2093 -0.5054
4.8088 -1.1116 -0.4803
4.8075 -1.0875 -0.4808
4.8242 -1.0775 -0.4688
5.0115 -1.1368 -0.3371
4.8764 -2.3420 -0.4814
4.8716 -2.3207 -0.4845
4.8702 -2.2964 -0.4850
4.8646 -2.2755 -0.4888
4.8658 -2.2491 -0.4873
4.8697 -2.2211 -0.4839
4.8688 -2.1717 -0.4835
4.8658 -2.1486 -0.4854
4.8666 -2.0984 -0.4837
4.8636 -2.0752 -0.4855
4.8525 -2.0556 -0.4934
4.8556 -2.0293 -0.4905
4.8560 -2.0043 -0.4897
4.8570 -1.9546 -0.4880
4.8659 -1.9032 -0.4803
4.8490 -1.8099 -0.4910
4.8477 -1.7858 -0.4915
4.8482 -1.7615 -0.4907
4.8411 -1.6652 -0.4940
4.8340 -1.5685 -0.4974
4.8327 -1.5443 -0.4979
4.8350 -1.5209 -0.4957
4.8305 -1.4723 -0.4980
4.8338 -1.4496 -0.4951
4.8367 -1.4037 -0.4920
4.8252 -1.3758 -0.5000
4.8184 -1.3493 -0.5046
4.8152 -1.3242 -0.5065
4.8054 -1.2957 -0.5131
4.8125 -1.2755 -0.5075
4.8112 -1.2511 -0.5080
4.8211 -1.1180 -0.4979
4.8179 -1.0928 -0.4998
4.8081 -1.0623 -0.5065
4.8191 -1.0481 -0.4980
4.9039 -2.2971 -0.4859
4.9095 -2.2681 -0.4809
4.9083 -2.2450 -0.4813
4.9018 -2.2257 -0.4859
4.8970 -2.2049 -0.4892
4.8975 -2.1803 -0.4883
4.9032 -2.1525 -0.4833
4.9037 -2.1283 -0.4824
4.9059 -2.1032 -0.4801
4.9011 -2.0821 -0.4833
4.9051 -2.0564 -0.4796
4.8933 -2.0385 -0.4884
4.8991 -2.0121 -0.4834
4.9014 -1.9877 -0.4811
4.8984 -1.9654 -0.4829
4.8936 -1.9437 -0.4862
4.8976 -1.9189 -0.4825
4.8928 -1.8970 -0.4857
4.8933 -1.8735 -0.4848
4.8903 -1.8510 -0.4867
4.8926 -1.8273 -0.4844
4.8913 -1.8044 -0.4848
4.8847 -1.7821 -0.4895
4.8763 -1.7597 -0.4956
4.8840 -1.7359 -0.4891
4.8845 -1.7128 -0.4881
4.8814 -1.6898 -0.4900
4.8766 -1.6667 -0.4933
4.8844 -1.6441 -0.4868
4.8759 -1.6206 -0.4929
4.8710 -1.5970 -0.4961
4.8806 -1.5756 -0.4882
4.8721 -1.5513 -0.4943
4.8836 -1.5311 -0.4849
4.8768 -1.5070 -0.4896
4.8774 -1.4847 -0.4887
4.8762 -1.4619 -0.4891
4.8768 -1.4397 -0.4882
4.8669 -1.3913 -0.4948
4.8712 -1.3707 -0.4910
4.8699 -1.3479 -0.4915
4.8520 -1.3169 -0.5047
4.8544 -1.2955 -0.5024
4.8587 -1.2754 -0.4986
4.8770 -1.2637 -0.4841
4.8437 -1.1319 -0.5072
4.8537 -1.1171 -0.4991
4.8449 -1.0883 -0.5053
4.8436 -1.0652 -0.5057
4.8499 -1.0484 -0.5005
4.8638 -1.0386 -0.4895
6.3615 -2.2068 -0.4831
6.3654 -2.1928 -0.4885
6.3599 -2.1697 -0.4839
6.3511 -2.1089 -0.4785
6.3503 -2.0905 -0.4789
6.3534 -2.0751 -0.4835
6.3486 -2.0539 -0.4797
6.3478 -2.0355 -0.4801
6.3493 -2.0187 -0.4830
6.3508 -2.0017 -0.4859
6.3312 -1.8671 -0.4737
6.3296 -1.8489 -0.4733
6.3296 -1.8311 -0.4745
6.3310 -1.8137 -0.4774
6.3318 -1.7959 -0.4794
6.3255 -1.7231 -0.4776
6.3230 -1.6690 -0.4788
6.3185 -1.6512 -0.4750
6.3177 -1.6333 -0.4754
6.3191 -1.6151 -0.4783
6.3160 -1.5975 -0.4762
6.3160 -1.5795 -0.4774
6.3129 -1.5621 -0.4753
6.3136 -1.5257 -0.4786
6.3120 -1.5081 -0.4781
6.3075 -1.4917 -0.4743
6.3089 -1.4547 -0.4784
6.3088 -1.4365 -0.4797
6.3065 -1.4194 -0.4783
6.3072 -1.4007 -0.4804
6.3057 -1.3833 -0.4800
6.3056 -1.3649 -0.4812
6.3055 -1.3465 -0.4824
6.3040 -1.3291 -0.4820
6.2988 -1.3147 -0.4773
6.3009 -1.2945 -0.4810
6.2994 -1.2773 -0.4806
6.2971 -1.2608 -0.4793
6.2963 -1.2431 -0.4796
6.2955 -1.2253 -0.4800
6.2976 -1.2046 -0.4838
6.2997 -1.1836 -0.4876
6.2960 -1.1688 -0.4846
6.2938 -1.1526 -0.4833
6.2930 -1.1348 -0.4837
6.2922 -1.1170 -0.4840
6.2914 -1.0992 -0.4844
6.2891 -1.0833 -0.4831
6.2883 -1.0655 -0.4835
6.3808 -2.2186 -0.4784
6.3800 -2.1996 -0.4789
6.3791 -2.1806 -0.4793
6.3791 -2.1622 -0.4805
6.3758 -2.1412 -0.4785
6.3734 -2.1210 -0.4773
6.3725 -2.1021 -0.4777
6.3725 -2.0838 -0.4789
6.3724 -2.0654 -0.4801
6.3716 -2.0464 -0.4805
6.3723 -2.0285 -0.4826
6.3699 -2.0085 -0.4814
6.3659 -1.9878 -0.4786
6.3642 -1.9685 -0.4782
6.3657 -1.9509 -0.4810
6.3625 -1.9309 -0.4790
6.3586 -1.9108 -0.4762
6.3554 -1.8912 -0.4742
6.3592 -1.8742 -0.4794
6.3599 -1.8559 -0.4814
6.3606 -1.8375 -0.4834
6.3575 -1.8180 -0.4814
6.3566 -1.7992 -0.4818
6.3550 -1.7802 -0.4814
6.3488 -1.7607 -0.4762
6.3533 -1.7427 -0.4822
6.3525 -1.7239 -0.4826
6.3463 -1.7049 -0.4774
6.3523 -1.6863 -0.4851
6.3446 -1.6677 -0.4782
6.3430 -1.6492 -0.4778
6.3406 -1.6308 -0.4765
6.3444 -1.6116 -0.4818
6.3405 -1.5935 -0.4790
6.3434 -1.5741 -0.4834
6.3434 -1.5552 -0.4847
6.3425 -1.5365 -0.4851
6.3432 -1.5172 -0.4871
6.3393 -1.4995 -0.4842
6.3370 -1.4815 -0.4830
6.3354 -1.4632 -0.4826
6.3346 -1.4446 -0.4830
6.3315 -1.4272 -0.4809
6.3359 -1.4057 -0.4871
6.3380 -1.3852 -0.4908
6.3335 -1.3688 -0.4871
6.3356 -1.3481 -0.4908
6.3266 -1.3352 -0.4821
6.3221 -1.3195 -0.4784
6.3242 -1.2988 -0.4821
6.3226 -1.2810 -0.4817
6.3269 -1.2580 -0.4878
6.3232 -1.2421 -0.4849
6.3253 -1.2208 -0.4886
6.3178 -1.2087 -0.4816
6.3236 -1.1836 -0.4894
6.3213 -1.1665 -0.4882
6.3183 -1.1504 -0.4861
6.3174 -1.1319 -0.4865
6.3130 -1.1177 -0.4827
6.3143 -1.0967 -0.4856
6.3142 -1.0774 -0.4869
6.3134 -1.0589 -0.4873
6.4044 -2.2153 -0.4780
6.4011 -2.1936 -0.4761
6.3978 -2.1719 -0.4742
6.3985 -2.1538 -0.4762
6.3977 -2.1343 -0.4766
6.3991 -2.0976 -0.4805
6.3966 -2.0769 -0.4794
6.4005 -2.0605 -0.4845
6.3973 -2.0392 -0.4826
6.3882 -1.9579 -0.4788
6.3897 -1.9395 -0.4816
6.3935 -1.9220 -0.4867
6.3926 -1.9023 -0.4871
6.3925 -1.8828 -0.4883
6.3775 -1.8397 -0.4759
6.3735 -1.8196 -0.4732
6.3780 -1.7824 -0.4803
6.3740 -1.7626 -0.4775
6.3723 -1.7433 -0.4772
6.3660 -1.7237 -0.4721
6.3714 -1.7048 -0.4788
6.3697 -1.6856 -0.4784
6.3643 -1.6665 -0.4741
6.3631 -1.5898 -0.4781
6.3575 -1.5333 -0.4762
6.3597 -1.5132 -0.4798
6.3558 -1.4952 -0.4770
6.3542 -1.4765 -0.4766
6.3571 -1.4558 -0.4810
6.3532 -1.4381 -0.4783
6.3516 -1.4194 -0.4779
6.3522 -1.3996 -0.4799
6.3537 -1.3792 -0.4827
6.3498 -1.3619 -0.4799
6.3497 -1.3424 -0.4811
6.3503 -1.3223 -0.4831
6.3418 -1.2698 -0.4780
6.3446 -1.2477 -0.4824
6.3401 -1.2320 -0.4788
6.3392 -1.2131 -0.4792
6.3391 -1.1935 -0.4804
6.3405 -1.1723 -0.4832
6.3374 -1.1556 -0.4812
6.3373 -1.1359 -0.4824
6.3364 -1.1170 -0.4828
6.3385 -1.0945 -0.4865
6.3362 -1.0773 -0.4853
6.3361 -1.0573 -0.4865
6.3345 -1.0392 -0.4861
6.4294 -2.2505 -0.4748
6.4317 -2.2333 -0.4782
6.4308 -2.2130 -0.4786
6.4266 -2.1899 -0.4761
6.4241 -2.1684 -0.4750
6.4248 -2.1495 -0.4769
6.4263 -2.1311 -0.4796
6.4254 -2.1108 -0.4801
6.4269 -2.0922 -0.4827
6.4220 -2.0692 -0.4794
6.4235 -2.0504 -0.4821
6.4218 -2.0296 -0.4818
6.4193 -2.0085 -0.4807
6.4183 -1.9882 -0.4812
6.4118 -1.9653 -0.4764
6.4117 -1.9456 -0.4775
6.4108 -1.9256 -0.4780
6.4075 -1.9046 -0.4762
6.4066 -1.8846 -0.4766
6.4073 -1.8651 -0.4785
6.4048 -1.8446 -0.4775
6.4055 -1.8250 -0.4794
6.4078 -1.8056 -0.4829
6.4045 -1.7851 -0.4810
6.4028 -1.7649 -0.4807
6.3996 -1.7446 -0.4789
6.3994 -1.7247 -0.4800
6.3985 -1.7047 -0.4805
6.3969 -1.6848 -0.4801
6.3967 -1.6648 -0.4813
6.3951 -1.6448 -0.4810
6.3942 -1.6249 -0.4814
6.3964 -1.6045 -0.4849
6.3900 -1.5854 -0.4800
6.3891 -1.5655 -0.4804
6.3890 -1.5455 -0.4816
6.3905 -1.5249 -0.4844
6.3865 -1.5059 -0.4817
6.3817 -1.4874 -0.4783
6.3808 -1.4677 -0.4788
6.3838 -1.4463 -0.4830
6.3829 -1.4264 -0.4834
6.3820 -1.4065 -0.4839
6.3842 -1.3850 -0.4874
6.3787 -1.3677 -0.4832
6.3793 -1.3469 -0.4852
6.3792 -1.3265 -0.4864
6.3821 -1.3040 -0.4907
6.3789 -1.2856 -0.4888
6.3757 -1.2674 -0.4869
6.3771 -1.2457 -0.4896
6.3747 -1.2270 -0.4885
6.3761 -1.2051 -0.4913
6.3729 -1.1872 -0.4894
6.3713 -1.1681 -0.4890
6.3666 -1.1520 -0.4856
6.3635 -1.1346 -0.4837
6.3641 -1.1133 -0.4857
6.3640 -1.0928 -0.4869
6.3668 -1.0687 -0.4912
6.3681 -1.0461 -0.4939
6.3628 -1.0317 -0.4897
6.3575 -1.0176 -0.4854
6.3588 -0.9951 -0.4882
6.4711 -2.2617 -0.4871
6.4635 -2.2345 -0.4818
6.4568 -2.2085 -0.4773
6.4616 -2.1921 -0.4827
6.4664 -2.1754 -0.4882
6.4638 -2.1528 -0.4873
6.4629 -2.1315 -0.4877
6.4676 -2.1140 -0.4932
6.4536 -2.0841 -0.4821
6.4502 -2.0616 -0.4804
6.4492 -2.0406 -0.4809
6.4548 -2.0231 -0.4871
6.4490 -1.9994 -0.4832
6.4448 -1.9769 -0.4808
6.4193 -1.7451 -0.4719
6.4303 -1.7255 -0.4833
6.4126 -1.5612 -0.4773
6.4117 -1.5407 -0.4777
6.4092 -1.5207 -0.4767
6.4059 -1.5011 -0.4749
6.4080 -1.4589 -0.4795
6.4070 -1.4176 -0.4811
6.4006 -1.3999 -0.4764
6.4020 -1.3783 -0.4791
6.4019 -1.3575 -0.4802
6.4009 -1.3371 -0.4807
6.4023 -1.3152 -0.4834
6.3991 -1.2963 -0.4816
6.3959 -1.2776 -0.4798
6.3927 -1.2590 -0.4780
6.3918 -1.2388 -0.4784
6.3878 -1.2211 -0.4758
6.3899 -1.1983 -0.4793
6.3883 -1.1788 -0.4790
6.3881 -1.1579 -0.4801
6.3872 -1.1376 -0.4806
6.3878 -1.1158 -0.4825
6.3846 -1.0980 -0.4807
6.3845 -1.0769 -0.4819
6.3858 -1.0541 -0.4846
6.3864 -1.0320 -0.4865
6.3855 -1.0116 -0.4870
6.3831 -0.9931 -0.4859
6.3822 -0.9728 -0.4863
6.4868 -2.2474 -0.4751
6.4858 -2.2257 -0.4756
6.4849 -2.2039 -0.4761
6.4806 -2.1797 -0.4738
6.4819 -2.1388 -0.4775
6.4810 -2.1171 -0.4779
6.4767 -2.0933 -0.4756
6.4732 -2.0702 -0.4740
6.4747 -2.0501 -0.4766
6.4680 -2.0254 -0.4721
6.4728 -2.0069 -0.4775
6.4694 -1.9842 -0.4759
6.4725 -1.9644 -0.4798
6.4699 -1.9421 -0.4789
6.4705 -1.9211 -0.4808
6.4622 -1.8970 -0.4749
6.4613 -1.8756 -0.4754
6.4603 -1.8542 -0.4758
6.4610 -1.8332 -0.4777
6.4584 -1.8114 -0.4768
6.4550 -1.7896 -0.4751
6.4597 -1.7690 -0.4805
6.4555 -1.7472 -0.4782
6.4602 -1.7261 -0.4836
6.4552 -1.7044 -0.4805
6.4558 -1.6829 -0.4824
6.4573 -1.6613 -0.4850
6.4507 -1.6402 -0.4805
6.4489 -1.6188 -0.4802
6.4480 -1.5975 -0.4807
6.4454 -1.5764 -0.4797
6.4429 -1.5554 -0.4788
6.4395 -1.5347 -0.4771
6.4409 -1.5129 -0.4797
6.4416 -1.4911 -0.4816
6.4430 -1.4689 -0.4842
6.4452 -1.4463 -0.4875
6.4371 -1.4278 -0.4815
6.4432 -1.4032 -0.4884
6.4431 -1.3813 -0.4896
6.4382 -1.3619 -0.4865
6.4372 -1.3405 -0.4869
6.4339 -1.3205 -0.4852
6.4345 -1.2982 -0.4871
6.4343 -1.2763 -0.4883
6.4279 -1.2588 -0.4837
6.4301 -1.2352 -0.4871
6.4252 -1.2170 -0.4839
6.4305 -1.1907 -0.4902
6.4295 -1.1693 -0.4906
6.4278 -1.1486 -0.4904
6.4183 -1.1352 -0.4829
6.4212 -1.1104 -0.4870
6.4203 -1.0891 -0.4874
6.4155 -1.0720 -0.4842
6.4138 -1.0518 -0.4840
6.4136 -1.0299 -0.4852
6.4142 -1.0070 -0.4871
6.4155 -0.9831 -0.4897
6.4161 -0.9600 -0.4916
6.4151 -0.9387 -0.4921
6.5367 -2.2824 -0.4881
6.5340 -2.2579 -0.4872
6.5262 -2.2296 -0.4824
6.5235 -2.2055 -0.4816
6.5208 -2.1815 -0.4807
6.5172 -2.1571 -0.4792
6.5145 -2.1333 -0.4783
6.5152 -2.1118 -0.4802
6.5058 -2.0842 -0.4740
6.5065 -2.0628 -0.4758
6.5055 -2.0404 -0.4763
6.5111 -2.0213 -0.4821
6.5068 -1.9971 -0.4799
6.5074 -1.9753 -0.4818
6.5064 -1.9527 -0.4823
6.4774 -1.6157 -0.4779
6.4803 -1.4803 -0.4884
6.4639 -1.4411 -0.4770
6.4587 -1.3988 -0.4751
6.4609 -1.3754 -0.4784
6.4606 -1.3307 -0.4807
6.4564 -1.3106 -0.4784
6.4570 -1.2878 -0.4803
6.4535 -1.2451 -0.4798
6.4525 -1.2232 -0.4803
6.4499 -1.2026 -0.4794
6.4489 -1.1808 -0.4798
6.4480 -1.1590 -0.4803
6.4525 -1.1323 -0.4857
6.4507 -1.1110 -0.4854
6.4505 -1.0883 -0.4866
6.4472 -1.0687 -0.4850
6.4415 -1.0517 -0.4813
6.4367 -1.0342 -0.4782
6.4427 -1.0047 -0.4850
6.4386 -0.9865 -0.4827
6.4368 -0.9657 -0.4825
6.4366 -0.9430 -0.4836
6.4372 -0.9193 -0.4855
6.5568 -2.2916 -0.4754
6.5540 -2.2667 -0.4746
6.5512 -2.2419 -0.4738
6.5485 -2.2173 -0.4731
6.5508 -2.1964 -0.4761
6.5413 -2.1672 -0.4702
6.5470 -2.1484 -0.4759
6.5409 -2.1219 -0.4725
6.5466 -2.1026 -0.4782
6.5456 -2.0792 -0.4787
6.5462 -2.0566 -0.4805
6.5401 -2.0307 -0.4771
6.5407 -2.0081 -0.4789
6.5380 -1.9840 -0.4781
6.5353 -1.9601 -0.4773
6.5325 -1.9362 -0.4765
6.5265 -1.9114 -0.4731
6.5305 -1.8898 -0.4775
6.5278 -1.8661 -0.4767
6.5250 -1.8426 -0.4759
6.5273 -1.8201 -0.4790
6.5230 -1.7964 -0.4769
6.5252 -1.7737 -0.4800
6.5192 -1.7500 -0.4766
6.5199 -1.7271 -0.4784
6.5221 -1.7041 -0.4815
6.5161 -1.6809 -0.4781
6.5118 -1.6580 -0.4760
6.5091 -1.6352 -0.4751
6.5147 -1.6116 -0.4809
6.5120 -1.5887 -0.4801
6.5175 -1.5645 -0.4858
6.5132 -1.5419 -0.4837
6.5105 -1.5192 -0.4829
6.5078 -1.4965 -0.4821
6.5068 -1.4735 -0.4826
6.5074 -1.4499 -0.4844
6.5080 -1.4261 -0.4862
6.5053 -1.4037 -0.4854
6.5059 -1.3798 -0.4872
6.5032 -1.3575 -0.4864
6.5022 -1.3344 -0.4869
6.4996 -1.3122 -0.4861
6.5033 -1.2862 -0.4905
6.5007 -1.2640 -0.4897
6.4980 -1.2419 -0.4889
6.4938 -1.2211 -0.4867
6.4960 -1.1957 -0.4899
6.4886 -1.1776 -0.4850
6.4907 -1.1521 -0.4882
6.4944 -1.1251 -0.4927
6.4902 -1.1047 -0.4905
6.4844 -1.0861 -0.4870
6.4850 -1.0617 -0.4888
6.4792 -1.0435 -0.4853
6.4814 -1.0174 -0.4885
6.4788 -0.9963 -0.4876
6.4777 -0.9734 -0.4881
6.4751 -0.9524 -0.4873
6.4741 -0.9296 -0.4878
6.4731 -0.9069 -0.4883
6.4705 -0.8861 -0.4874
6.6163 -2.3572 -0.4884
6.6030 -2.3221 -0.4804
6.5976 -2.2940 -0.4778
6.5948 -2.2681 -0.4771
6.5954 -2.2448 -0.4789
6.5969 -2.2220 -0.4813
6.5958 -2.1974 -0.4818
6.5904 -2.1700 -0.4793
6.5953 -2.1491 -0.4841
6.5865 -2.1200 -0.4791
6.5888 -2.0974 -0.4821
6.5826 -2.0702 -0.4789
6.5849 -2.0474 -0.4819
6.5502 -1.8689 -0.4656
6.5657 -1.8250 -0.4798
6.5680 -1.8013 -0.4828
6.5432 -1.7506 -0.4669
6.5380 -1.5614 -0.4735
6.5370 -1.5377 -0.4740
6.5326 -1.5149 -0.4720
6.5280 -1.4685 -0.4711
6.5333 -1.4187 -0.4779
6.5387 -1.3922 -0.4835
6.5252 -1.3498 -0.4756
6.5217 -1.3275 -0.4742
6.5231 -1.3027 -0.4766
6.5169 -1.2581 -0.4744
6.5199 -1.2320 -0.4781
6.5237 -1.2050 -0.4825
6.5127 -1.1643 -0.4764
6.5172 -1.1364 -0.4815
6.5111 -1.0926 -0.4793
6.5114 -1.0434 -0.4822
6.5093 -0.9962 -0.4832
6.5042 -0.9768 -0.4805
6.5016 -0.9552 -0.4797
6.5006 -0.9318 -0.4802
6.4963 -0.9121 -0.4781
6.4953 -0.8888 -0.4786
6.4911 -0.8695 -0.4765
6.6449 -2.3483 -0.4795
6.6438 -2.3225 -0.4801
6.6217 -2.2810 -0.4665
6.6206 -2.2559 -0.4671
6.6212 -2.2320 -0.4688
6.6261 -2.2108 -0.4735
6.6276 -2.1871 -0.4758
6.6238 -2.1601 -0.4746
6.6184 -2.1323 -0.4721
6.6216 -2.1094 -0.4757
6.6161 -2.0819 -0.4732
6.6150 -2.0567 -0.4738
6.6061 -2.0280 -0.4690
6.6110 -2.0055 -0.4737
6.6099 -1.9804 -0.4742
6.6130 -1.9567 -0.4777
6.6119 -1.9314 -0.4783
6.5962 -1.9020 -0.4687
6.5977 -1.8778 -0.4710
6.5982 -1.8533 -0.4727
6.6014 -1.8291 -0.4763
6.5960 -1.8033 -0.4738
6.6008 -1.7791 -0.4786
6.5954 -1.7535 -0.4761
6.5943 -1.7285 -0.4766
6.5957 -1.7036 -0.4790
6.5963 -1.6784 -0.4807
6.5951 -1.6533 -0.4813
6.5839 -1.6289 -0.4746
6.5929 -1.6029 -0.4824
6.5901 -1.5780 -0.4817
6.5889 -1.5529 -0.4823
6.5853 -1.5283 -0.4810
6.5867 -1.5027 -0.4833
6.5831 -1.4783 -0.4821
6.5819 -1.4533 -0.4826
6.5808 -1.4283 -0.4831
6.5739 -1.4054 -0.4794
6.5769 -1.3789 -0.4830
6.5741 -1.3547 -0.4823
6.5747 -1.3290 -0.4841
6.5735 -1.3040 -0.4846
6.5765 -1.2767 -0.4882
6.5713 -1.2541 -0.4857
6.5743 -1.2265 -0.4893
6.5691 -1.2041 -0.4868
6.5663 -1.1803 -0.4861
6.5684 -1.1530 -0.4891
6.5673 -1.1280 -0.4896
6.5605 -1.1075 -0.4858
6.5618 -1.0806 -0.4882
6.5639 -1.0529 -0.4912
6.5596 -1.0308 -0.4893
6.5585 -1.0059 -0.4898
6.5589 -0.9794 -0.4916
6.5538 -0.9585 -0.4891
6.5551 -0.9312 -0.4915
6.5484 -0.9124 -0.4876
6.5416 -0.8940 -0.4838
6.5445 -0.8648 -0.4875
6.5362 -0.8488 -0.4824
6.5351 -0.8244 -0.4829
6.7065 -2.4161 -0.4874
6.6999 -2.3844 -0.4846
6.6890 -2.3497 -0.4790
6.6278 -2.2781 -0.4413
6.6267 -2.2531 -0.4418
6.6344 -2.2341 -0.4480
6.6771 -2.2374 -0.4768
6.6742 -2.2096 -0.4762
6.6800 -2.1871 -0.4813
6.6718 -2.1564 -0.4774
6.6654 -2.1270 -0.4746
6.6642 -2.1005 -0.4751
6.6726 -2.0785 -0.4820
6.6644 -2.0487 -0.4780
6.6632 -2.0221 -0.4786
6.6608 -1.9690 -0.4797
6.6596 -1.9425 -0.4803
6.6486 -1.8873 -0.4757
6.6517 -1.8619 -0.4791
6.6574 -1.8367 -0.4843
6.6537 -1.8097 -0.4832
6.6444 -1.7560 -0.4797
6.6403 -1.7033 -0.4797
6.6392 -1.6770 -0.4803
6.6093 -1.3156 -0.4788
6.6006 -1.2937 -0.4741
6.6070 -1.2640 -0.4799
6.6184 -1.1767 -0.4922
6.5954 -1.1390 -0.4786
6.5959 -1.1121 -0.4803
6.5885 -0.9852 -0.4819
6.5857 -0.9611 -0.4813
6.5821 -0.9380 -0.4801
6.5769 -0.9167 -0.4776
6.5716 -0.8957 -0.4752
6.5730 -0.8678 -0.4775
6.5694 -0.8453 -0.4763
6.5650 -0.8239 -0.4745
6.7215 -2.4195 -0.4649
6.7274 -2.3977 -0.4698
6.7234 -2.3678 -0.4688
6.6545 -2.2903 -0.4286
6.6444 -2.2585 -0.4238
6.7172 -2.2293 -0.4718
6.7133 -2.2001 -0.4707
6.7147 -2.1740 -0.4730
6.7161 -2.1476 -0.4752
6.7175 -2.1212 -0.4774
6.7163 -2.0933 -0.4780
6.7071 -2.0620 -0.4737
6.7085 -2.0355 -0.4760
6.7046 -2.0068 -0.4749
6.7060 -1.9801 -0.4772
6.6817 -1.9188 -0.4647
6.6953 -1.8953 -0.4746
6.6984 -1.8688 -0.4779
6.6954 -1.8408 -0.4774
6.6942 -1.8133 -0.4780
6.6904 -1.7854 -0.4770
6.6917 -1.7582 -0.4792
6.6853 -1.7304 -0.4765
6.6867 -1.7030 -0.4787
6.6828 -1.6756 -0.4777
6.6842 -1.6481 -0.4799
6.6829 -1.6206 -0.4805
6.6843 -1.5928 -0.4828
6.6830 -1.5653 -0.4834
6.6792 -1.5382 -0.4823
6.6780 -1.5107 -0.4829
6.6742 -1.4839 -0.4818
6.6730 -1.4565 -0.4824
6.6692 -1.4299 -0.4813
6.6773 -1.3994 -0.4880
6.6600 -1.3778 -0.4780
6.6655 -1.3480 -0.4831
6.6668 -1.3195 -0.4854
6.6707 -1.2897 -0.4893
6.6711 -1.2613 -0.4910
6.6631 -1.2374 -0.4871
6.6569 -1.2129 -0.4844
6.6540 -1.1867 -0.4838
6.6527 -1.1595 -0.4844
6.6515 -1.1324 -0.4850
6.6478 -1.1070 -0.4839
6.6557 -1.0730 -0.4907
6.6570 -1.0437 -0.4930
6.6533 -1.0183 -0.4919
6.6471 -0.9951 -0.4891
6.6458 -0.9679 -0.4897
6.6380 -0.9468 -0.4857
6.5899 -0.9116 -0.4567
6.5846 -0.8905 -0.4544
6.5818 -0.8669 -0.4538
6.5782 -0.8444 -0.4527
6.5755 -0.8211 -0.4521
6.6310 -2.2659 -0.3862
6.7946 -2.2983 -0.4831
6.7843 -2.2631 -0.4786
6.7776 -2.2305 -0.4762
6.7852 -2.2061 -0.4820
6.7928 -2.1811 -0.4878
6.7879 -2.1495 -0.4863
6.7901 -2.1214 -0.4891
6.7941 -2.0938 -0.4928
6.7657 -2.0244 -0.4791
6.7617 -1.9943 -0.4782
6.7684 -1.9675 -0.4835
6.7464 -1.9042 -0.4733
6.7503 -1.8765 -0.4770
6.7451 -1.7607 -0.4795
6.7347 -1.7027 -0.4761
6.7360 -1.6739 -0.4783
6.7386 -1.5577 -0.4855
6.6860 -1.1434 -0.4740
6.6847 -1.1154 -0.4746
6.6733 -1.0947 -0.4687
6.6653 -1.0721 -0.4650
6.6616 -1.0466 -0.4640
6.6629 -1.0173 -0.4662
6.6566 -0.9941 -0.4636
6.8331 -2.3149 -0.4703
6.8345 -2.2859 -0.4724
6.8331 -2.2552 -0.4731
6.8340 -2.1956 -0.4764
6.8326 -2.1648 -0.4771
6.8249 -2.1312 -0.4743
6.8235 -2.1006 -0.4750
6.8221 -2.0699 -0.4756
6.8208 -2.0393 -0.4763
6.8158 -2.0075 -0.4750
6.8144 -1.9770 -0.4756
6.8015 -1.9435 -0.4699
6.8001 -1.9133 -0.4705
6.8076 -1.8850 -0.4761
6.8063 -1.8545 -0.4768
6.8022 -1.8237 -0.4759
6.7973 -1.7930 -0.4746
6.7960 -1.7628 -0.4753
6.7981 -1.7327 -0.4779
6.7906 -1.7023 -0.4751
6.7919 -1.6721 -0.4772
6.7905 -1.6419 -0.4779
6.7927 -1.6114 -0.4805
6.7940 -1.5807 -0.4827
6.7900 -1.5507 -0.4818
6.7886 -1.5204 -0.4825
6.7837 -1.4907 -0.4811
6.7859 -1.4597 -0.4838
6.7845 -1.4293 -0.4845
6.7831 -1.3990 -0.4851
6.7722 -1.3719 -0.4802
6.7683 -1.3428 -0.4794
6.7730 -1.3104 -0.4835
6.7682 -1.2818 -0.4822
6.7729 -1.2489 -0.4864
6.7750 -1.2170 -0.4891
6.7676 -1.1898 -0.4862
6.7576 -1.1646 -0.4817
6.7417 -1.1435 -0.4737
6.6818 -1.0088 -0.4462
6.6713 -0.9889 -0.4411
6.5954 -0.8696 -0.4038
6.5867 -0.8529 -0.3997
6.9459 -2.5398 -0.4854
6.9407 -2.5036 -0.4843
6.9428 -2.4728 -0.4869
6.9377 -2.4368 -0.4858
6.9325 -2.4011 -0.4846
6.9163 -2.3587 -0.4780
6.9258 -2.3324 -0.4842
6.9207 -2.2972 -0.4831
6.9302 -2.2700 -0.4894
6.9214 -2.2329 -0.4864
6.9053 -2.1929 -0.4797
6.8756 -2.1477 -0.4660
6.8806 -2.1185 -0.4699
6.8827 -2.0879 -0.4725
6.8849 -2.0570 -0.4751
6.8871 -2.0259 -0.4776
6.8820 -1.9925 -0.4765
6.8878 -1.9621 -0.4809
6.8827 -1.9288 -0.4797
6.8921 -1.8986 -0.4860
6.8726 -1.8628 -0.4774
6.8640 -1.8297 -0.4743
6.8668 -1.7342 -0.4801
6.8725 -1.7022 -0.4846
6.8640 -1.6699 -0.4815
6.8632 -1.5731 -0.4855
6.8617 -1.5408 -0.4862
6.9908 -2.3961 -0.4768
6.9726 -2.3517 -0.4697
6.9674 -2.3154 -0.4687
6.9695 -2.2833 -0.4712
6.9597 -2.2450 -0.4680
6.9471 -2.2059 -0.4635
6.9374 -2.1686 -0.4602
6.9322 -2.1338 -0.4592
6.9014 -2.0895 -0.4459
6.9072 -2.0596 -0.4501
6.9094 -2.0282 -0.4526
6.9189 -1.9986 -0.4586
6.9320 -1.9693 -0.4663
6.9232 -1.9342 -0.4635
6.9253 -1.9017 -0.4660
6.9166 -1.8671 -0.4632
6.9480 -1.8044 -0.4815
6.9429 -1.7699 -0.4805
6.9368 -1.7356 -0.4790
6.9317 -1.7016 -0.4779
6.9383 -1.6676 -0.4827
6.9250 -1.6341 -0.4776
6.9199 -1.6006 -0.4765
6.9220 -1.5666 -0.4791
6.9169 -1.5334 -0.4780
6.8930 -1.5037 -0.4675
6.8987 -1.4693 -0.4718
6.8794 -1.4404 -0.4635
6.7102 -1.0863 -0.3952
6.6968 -1.0672 -0.3894
6.6877 -1.0456 -0.3859
7.1117 -2.6440 -0.4838
7.1100 -2.6063 -0.4846
7.1036 -2.5653 -0.4834
7.1019 -2.5278 -0.4842
7.0908 -2.4843 -0.4810
7.0892 -2.4470 -0.4818
7.0968 -2.4151 -0.4867
7.0905 -2.3750 -0.4854
7.0646 -2.3251 -0.4756
6.9921 -2.2538 -0.4452
6.9134 -2.1837 -0.4118
6.8943 -2.1438 -0.4047
6.8854 -2.1091 -0.4021
6.8673 -2.0714 -0.3953
6.8530 -2.0360 -0.3902
6.9083 -1.9912 -0.4176
6.9143 -1.9607 -0.4217
6.9165 -1.9289 -0.4240
6.9683 -1.9065 -0.4489
7.0136 -1.8798 -0.4709
7.0477 -1.8488 -0.4880
7.0369 -1.8110 -0.4846
7.0133 -1.7729 -0.4753
7.0071 -1.7368 -0.4740
7.0146 -1.7012 -0.4790
6.9866 -1.6657 -0.4676
6.9641 -1.6315 -0.4586
6.9323 -1.5317 -0.4482
6.9344 -1.4973 -0.4506
6.9212 -1.4659 -0.4458
6.6424 -0.9796 -0.3378
6.9030 -2.1727 -0.3727
6.8847 -2.1339 -0.3665
6.8693 -2.0973 -0.3613
6.8557 -2.0621 -0.3570
6.8600 -2.0336 -0.3600
6.8492 -2.0003 -0.3567
6.8675 -1.9755 -0.3656
6.9033 -1.9539 -0.3818
6.9540 -1.9334 -0.4043
7.0231 -1.9133 -0.4347
7.0966 -1.8897 -0.4671
7.0754 -1.8494 -0.4597
7.0589 -1.8106 -0.4543
7.0481 -1.7731 -0.4511
7.0372 -1.7362 -0.4480
6.9256 -1.4661 -0.4112
6.9095 -1.4363 -0.4056
6.8971 -1.4064 -0.4015
6.7146 -1.0945 -0.3361
6.6195 -0.9035 -0.3032
6.6166 -0.8805 -0.3029
7.3258 -2.7785 -0.4820
7.3305 -2.7401 -0.4854
7.3353 -2.7013 -0.4888
7.3334 -2.6578 -0.4898
7.3381 -2.6185 -0.4932
7.3228 -2.5669 -0.4891
7.3141 -2.5198 -0.4876
7.3122 -2.4767 -0.4885
6.9488 -2.2191 -0.3549
6.8706 -2.0924 -0.3290
6.8720 -2.0631 -0.3307
6.8650 -2.0307 -0.3292
6.8665 -2.0012 -0.3309
6.8679 -1.9715 -0.3327
6.8807 -1.9445 -0.3388
7.0224 -1.9096 -0.3962
6.9247 -1.4343 -0.3763
6.6337 -0.9231 -0.2814
7.4064 -2.5611 -0.4736
7.3822 -2.5041 -0.4670
6.8974 -2.1581 -0.3038
6.8730 -2.1178 -0.2965
6.8908 -2.0950 -0.3038
6.8799 -2.0609 -0.3011
6.8814 -2.0314 -0.3028
6.8771 -2.0001 -0.3024
6.8691 -1.9679 -0.3007
6.8649 -1.9369 -0.3004
6.8930 -1.9131 -0.3115
6.7476 -1.1690 -0.2869
6.7363 -1.1473 -0.2836
6.7101 -1.0255 -0.2787
6.7062 -1.0009 -0.2782
7.6224 -3.0148 -0.4810
7.5992 -2.9008 -0.4775
7.5585 -2.7778 -0.4684
7.5651 -2.7340 -0.4722
7.5716 -2.6898 -0.4760
7.4769 -2.5894 -0.4482
6.9795 -2.2203 -0.2963
6.9363 -2.1693 -0.2838
6.8933 -2.1207 -0.2713
6.8890 -2.0892 -0.2710
6.8809 -2.0564 -0.2695
6.8757 -2.0250 -0.2689
6.8782 -1.9961 -0.2708
6.8768 -1.9660 -0.2715
6.8783 -1.9365 -0.2731
6.9010 -1.9113 -0.2815
6.9326 -1.8547 -0.2941
7.0706 -1.7321 -0.3444
6.9590 -1.5962 -0.3123
6.9575 -1.5632 -0.3130
6.6692 -0.9837 -0.2384
6.6571 -0.9679 -0.2349
6.9474 -2.1682 -0.2542
6.8971 -2.1168 -0.2408
6.8860 -2.0829 -0.2387
6.8914 -2.0553 -0.2413
6.8998 -2.0283 -0.2448
6.8985 -1.9979 -0.2454
6.8942 -1.9667 -0.2452
6.9054 -1.9393 -0.2496
6.8973 -1.9072 -0.2482
6.9065 -1.8786 -0.2520
6.8805 -1.4488 -0.2593
6.8658 -1.4216 -0.2558
6.7511 -1.1759 -0.2298
6.7499 -1.1487 -0.2304
6.7468 -1.1226 -0.2304
6.7456 -1.0954 -0.2310
6.6792 -1.0081 -0.2141
6.6061 -0.8974 -0.1959
6.5995 -0.8799 -0.1945
7.0480 -2.2387 -0.2465
6.9694 -2.1717 -0.2274
6.9284 -2.1240 -0.2178
6.9034 -2.0844 -0.2124
6.9089 -2.0566 -0.2148
6.9007 -2.0241 -0.2137
6.8954 -1.9928 -0.2133
6.9176 -1.9689 -0.2201
6.9672 -1.9500 -0.2343
6.9080 -1.9061 -0.2197
6.9242 -1.8787 -0.2250
6.9404 -1.8503 -0.2304
6.8532 -1.3364 -0.2241
6.8411 -1.2809 -0.2226
6.7506 -1.1251 -0.2033
6.7466 -1.0999 -0.2031
6.7028 -1.0753 -0.1920
6.6904 -1.0579 -0.1892
6.6696 -1.0477 -0.1839
6.6535 -1.0349 -0.1799
6.6486 -1.0136 -0.1793
6.6438 -0.9926 -0.1787
6.6362 -0.9743 -0.1773
6.6193 -0.9650 -0.1730
6.6023 -0.9328 -0.1695
6.5939 -0.9173 -0.1677
6.5901 -0.8975 -0.1674
6.9776 -2.1693 -0.1968
6.9502 -2.1272 -0.1915
6.9209 -2.0859 -0.1857
6.8987 -2.0485 -0.1816
6.8914 -2.0168 -0.1808
6.8930 -1.9881 -0.1821
6.9392 -1.9706 -0.1939
6.9784 -1.9489 -0.2041
6.9809 -1.9175 -0.2058
6.9390 -1.8783 -0.1969
6.9923 -1.8225 -0.2116
6.9047 -1.5078 -0.2006
6.8731 -1.3928 -0.1967
6.8415 -1.3430 -0.1906
6.8402 -1.3139 -0.1912
6.8215 -1.2918 -0.1874
6.8116 -1.2671 -0.1858
6.7739 -1.2556 -0.1771
6.7678 -1.2307 -0.1764
6.7532 -1.2106 -0.1735
6.7444 -1.1881 -0.1721
6.7384 -1.1644 -0.1714
6.7306 -1.1421 -0.1702
6.7027 -1.1331 -0.1638
6.7063 -1.1045 -0.1656
6.7004 -1.0824 -0.1649
6.6794 -1.0716 -0.1601
6.6716 -1.0518 -0.1589
6.6601 -1.0355 -0.1566
6.6400 -1.0022 -0.1528
6.6210 -0.9943 -0.1485
6.6144 -0.9762 -0.1475
6.6077 -0.9585 -0.1464
6.6001 -0.9420 -0.1451
6.5991 -0.9193 -0.1456
6.5990 -0.8957 -0.1464
6.9998 -2.1727 -0.1691
6.9722 -2.1304 -0.1646
6.9346 -2.0859 -0.1579
6.9031 -2.0454 -0.1524
6.8857 -2.0109 -0.1498
6.9004 -1.9862 -0.1537
6.9291 -1.9642 -0.1605
6.9417 -1.9369 -0.1641
6.9403 -1.9061 -0.1648
6.9499 -1.8771 -0.1677
6.9760 -1.8182 -0.1751
7.0162 -1.6573 -0.1887
6.9950 -1.6251 -0.1852
6.9699 -1.5944 -0.1808
6.9576 -1.5636 -0.1791
6.9198 -1.5369 -0.1719
6.9154 -1.5067 -0.1719
6.9003 -1.4788 -0.1695
6.8921 -1.4501 -0.1687
6.8878 -1.4208 -0.1687
6.8611 -1.3980 -0.1637
6.8412 -1.3746 -0.1602
6.8095 -1.3280 -0.1548
6.8082 -1.3001 -0.1554
6.7905 -1.2793 -0.1523
6.7863 -1.2533 -0.1522
6.7802 -1.2283 -0.1517
6.7703 -1.2056 -0.1503
6.7272 -1.1488 -0.1428
6.7097 -1.1334 -0.1396
6.7057 -1.1100 -0.1395
6.6892 -1.0954 -0.1364
6.6842 -1.0734 -0.1360
6.6802 -1.0509 -0.1359
6.6791 -1.0264 -0.1364
6.6570 -1.0189 -0.1319
6.6445 -1.0046 -0.1297
6.6368 -0.9868 -0.1286
6.6300 -0.9685 -0.1277
6.6214 -0.9523 -0.1264
6.6147 -0.9348 -0.1255
6.5975 -0.9280 -0.1220
6.5909 -0.9114 -0.1211
6.9680 -2.1234 -0.1325
6.9249 -2.0775 -0.1259
6.9033 -2.0410 -0.1229
6.8645 -2.0003 -0.1170
6.8814 -1.9770 -0.1208
6.9636 -1.9383 -0.1372
6.9511 -1.9050 -0.1359
6.9387 -1.8723 -0.1345
6.9624 -1.8453 -0.1398
7.0273 -1.8215 -0.1525
7.0810 -1.7931 -0.1633
7.0574 -1.7573 -0.1600
7.0349 -1.7228 -0.1569
7.0374 -1.6894 -0.1583
7.0359 -1.6559 -0.1591
7.0104 -1.6237 -0.1553
6.9771 -1.5936 -0.1500
6.9498 -1.5645 -0.1458
6.9305 -1.5358 -0.1431
6.9192 -1.5067 -0.1419
6.9080 -1.4783 -0.1407
6.8898 -1.4519 -0.1381
6.8914 -1.4215 -0.1393
6.8802 -1.3945 -0.1380
6.8543 -1.3726 -0.1339
6.8441 -1.3469 -0.1327
6.8192 -1.3270 -0.1287
6.7905 -1.3100 -0.1239
6.7893 -1.2829 -0.1245
6.7773 -1.2607 -0.1229
6.7712 -1.2363 -0.1225
6.7592 -1.2152 -0.1209
6.7454 -1.1957 -0.1190
6.7423 -1.1708 -0.1191
6.7216 -1.1566 -0.1157
6.7049 -1.1410 -0.1131
6.7038 -1.1161 -0.1136
6.6872 -1.1019 -0.1110
6.6813 -1.0809 -0.1105
6.6831 -1.0544 -0.1116
6.6461 -1.0094 -0.1061
6.6392 -0.9909 -0.1054
6.6228 -0.9815 -0.1026
6.6151 -0.9649 -0.1017
6.6016 -0.9309 -0.1002
6.5891 -0.9203 -0.0982
7.5942 -2.6351 -0.1858
7.5497 -2.5661 -0.1808
6.9210 -2.0714 -0.0957
6.8491 -2.0189 -0.0859
6.8529 -1.9928 -0.0872
7.0111 -2.0086 -0.1118
7.0382 -1.9835 -0.1167
6.9477 -1.9011 -0.1048
6.9392 -1.8696 -0.1044
6.9846 -1.8457 -0.1122
7.0349 -1.8199 -0.1209
7.0840 -1.7912 -0.1295
7.0572 -1.7554 -0.1263
7.0557 -1.7218 -0.1270
7.0491 -1.6882 -0.1270
7.0073 -1.6558 -0.1213
6.9897 -1.6243 -0.1194
6.8945 -1.4819 -0.1085
6.8812 -1.4550 -0.1071
6.8829 -1.4252 -0.1083
6.8686 -1.3995 -0.1068
6.8375 -1.3799 -0.1024
6.8452 -1.3488 -0.1045
6.7908 -1.2853 -0.0978
6.7837 -1.2611 -0.0973
6.7726 -1.2391 -0.0962
6.7586 -1.2192 -0.0946
6.7358 -1.2048 -0.0914
6.7248 -1.1849 -0.0902
6.7256 -1.1586 -0.0911
6.7245 -1.1334 -0.0916
6.7037 -1.1210 -0.0887
6.6958 -1.1010 -0.0880
6.6809 -1.0615 -0.0868
6.6602 -1.0281 -0.0845
6.6504 -1.0118 -0.0834
6.6416 -0.9951 -0.0825
6.6289 -0.9824 -0.0809
6.6153 -0.9712 -0.0791
6.6085 -0.9543 -0.0785
6.6007 -0.9387 -0.0777
6.5843 -0.9322 -0.0753
7.7420 -2.9008 -0.1512
7.7199 -2.8381 -0.1501
7.6789 -2.7654 -0.1467
7.6767 -2.7164 -0.1478
7.5941 -2.6245 -0.1395
7.4774 -2.4767 -0.1283
7.4463 -2.4196 -0.1258
7.4153 -2.3640 -0.1233
7.0084 -2.1282 -0.0766
6.8608 -2.0185 -0.0603
6.9885 -1.9367 -0.0793
6.9769 -1.9035 -0.0786
6.9755 -1.8726 -0.0793
7.0192 -1.8478 -0.0857
7.0464 -1.8187 -0.0901
7.0746 -1.7882 -0.0946
7.0812 -1.7549 -0.0964
7.0420 -1.7199 -0.0922
7.0660 -1.6870 -0.0962
7.0390 -1.6541 -0.0936
6.9938 -1.6236 -0.0886
6.9419 -1.5350 -0.0842
6.9264 -1.5069 -0.0830
6.8801 -1.4274 -0.0791
6.8546 -1.4052 -0.0764
6.8383 -1.3816 -0.0749
6.8340 -1.3548 -0.0751
6.8277 -1.3290 -0.0750
6.8125 -1.3069 -0.0736
6.8003 -1.2843 -0.0726
6.8011 -1.2566 -0.0735
6.7598 -1.2223 -0.0690
6.7435 -1.1785 -0.0681
6.7374 -1.1559 -0.0679
6.7194 -1.1411 -0.0660
6.7144 -1.1188 -0.0659
6.7044 -1.1001 -0.0651
6.6944 -1.0819 -0.0643
6.6844 -1.0642 -0.0635
6.6754 -1.0463 -0.0628
6.6537 -1.0389 -0.0602
6.6389 -1.0271 -0.0586
6.6438 -0.9993 -0.0600
6.6447 -0.9746 -0.0608
6.6114 -0.9581 -0.0569
6.5996 -0.9464 -0.0557
6.6006 -0.9227 -0.0564
8.1685 -3.5700 -0.1287
7.7621 -2.9496 -0.1027
7.7301 -2.8804 -0.1012
7.7279 -2.8305 -0.1023
7.7151 -2.7746 -0.1024
7.7129 -2.7251 -0.1035
7.5337 -2.5385 -0.0898
7.4855 -2.4716 -0.0865
7.4102 -2.3541 -0.0818
6.8780 -2.0473 -0.0344
6.8893 -2.0235 -0.0362
7.0235 -2.0349 -0.0499
6.9822 -1.9623 -0.0475
6.9777 -1.9309 -0.0479
6.9908 -1.9030 -0.0500
7.0122 -1.8756 -0.0529
7.0305 -1.8466 -0.0556
7.0730 -1.7859 -0.0616
7.0591 -1.7519 -0.0611
7.0793 -1.7194 -0.0640
7.0644 -1.6858 -0.0633
7.0177 -1.6538 -0.0593
6.9967 -1.6229 -0.0580
6.9571 -1.5640 -0.0554
6.9352 -1.5363 -0.0538
6.9267 -1.5075 -0.0537
6.9030 -1.4821 -0.0519
6.8566 -1.4347 -0.0483
6.8462 -1.4092 -0.0479
6.8450 -1.3815 -0.0485
6.8356 -1.3565 -0.0482
6.8331 -1.3016 -0.0494
6.7792 -1.2695 -0.0446
6.7730 -1.2458 -0.0446
6.7688 -1.2214 -0.0448
6.7627 -1.1982 -0.0448
6.7525 -1.1775 -0.0442
6.7393 -1.1591 -0.0434
6.7282 -1.1402 -0.0427
6.7230 -1.1179 -0.0427
6.7199 -1.0945 -0.0430
6.7009 -1.0824 -0.0414
6.6818 -1.0469 -0.0403
6.6509 -1.0230 -0.0377
6.6558 -0.9951 -0.0390
6.6419 -0.9833 -0.0378
6.6251 -0.9749 -0.0363
6.6152 -0.9610 -0.0356
6.6093 -0.9437 -0.0355
6.5965 -0.9336 -0.0344
6.5886 -0.9191 -0.0340
8.1898 -3.5679 -0.0717
8.2172 -3.5303 -0.0748
7.7775 -2.8972 -0.0564
7.7251 -2.8166 -0.0543
7.6664 -2.7351 -0.0518
7.6206 -2.6634 -0.0500
7.5674 -2.5901 -0.0477
7.5102 -2.5175 -0.0451
7.4785 -2.4596 -0.0441
7.4691 -2.4132 -0.0445
7.4450 -2.3610 -0.0439
6.9352 -2.0625 -0.0117
7.0434 -2.0678 -0.0200
7.0672 -2.0432 -0.0225
7.0658 -2.0106 -0.0232
7.0614 -1.9128 -0.0253
7.0725 -1.8822 -0.0269
7.0971 -1.8527 -0.0296
7.1081 -1.8204 -0.0313
7.0982 -1.7858 -0.0314
7.0790 -1.7511 -0.0307
7.0775 -1.7179 -0.0314
7.0636 -1.6846 -0.0312
6.9933 -1.6226 -0.0273
6.9691 -1.5934 -0.0261
6.9647 -1.5632 -0.0265
6.9323 -1.5371 -0.0247
6.9207 -1.5092 -0.0245
6.8572 -1.4359 -0.0214
6.8446 -1.4113 -0.0210
6.8403 -1.3849 -0.0213
6.8452 -1.3555 -0.0224
6.8297 -1.3332 -0.0218
6.7657 -1.2265 -0.0195
6.7504 -1.2084 -0.0187
6.7371 -1.1901 -0.0182
6.7410 -1.1623 -0.0192
6.7348 -1.1405 -0.0192
6.7003 -1.0879 -0.0179
6.6781 -1.0792 -0.0164
6.6650 -1.0649 -0.0157
6.6599 -1.0451 -0.0158
6.6519 -1.0043 -0.0162
6.6419 -0.9894 -0.0158
6.6199 -0.9629 -0.0147
6.6060 -0.9534 -0.0139
6.6020 -0.9348 -0.0141
6.6040 -0.9103 -0.0148
8.0829 -3.4643 -0.0104
8.1075 -3.4275 -0.0125
7.7349 -2.8582 -0.0067
7.7230 -2.8034 -0.0074
7.6928 -2.7388 -0.0074
7.6273 -2.6565 -0.0059
7.5331 -2.5195 -0.0043
7.4861 -2.4546 -0.0034
7.4767 -2.4084 -0.0040
7.4182 -2.3423 -0.0025
7.1403 -2.0596 0.0053
7.1249 -2.0218 0.0052
7.1096 -1.9847 0.0051
7.0982 -1.9162 0.0040
7.1463 -1.8906 0.0009
