ply
format ascii 1.0
element vertex 2165
property float x
property float y
property float z
end_header
0.7372 1.8189 0.3638
0.7361 1.8003 0.3618
0.7380 1.7829 0.3606
0.7430 1.7665 0.3599
0.7371 1.7479 0.3571
0.7353 1.7308 0.3552
0.7368 1.6985 0.3525
0.7469 1.6838 0.3529
0.7583 1.6691 0.3535
0.7674 1.6540 0.3537
0.7708 1.6385 0.3529
0.7753 1.6233 0.3522
0.7881 1.6081 0.3531
0.7997 1.5927 0.3537
0.8079 1.5772 0.3537
0.8148 1.5618 0.3535
0.8341 1.5453 0.3554
0.8523 1.5284 0.3570
0.8607 1.5124 0.3570
0.8704 1.4961 0.3572
0.8789 1.4799 0.3572
0.8874 1.4636 0.3572
0.9089 1.4447 0.3592
0.9382 1.4086 0.3610
0.9590 1.3886 0.3628
0.9774 1.3688 0.3642
0.9932 1.3494 0.3652
1.0119 1.3289 0.3666
0.7790 1.9148 0.3617
0.7373 1.8765 0.3520
0.7267 1.8529 0.3484
0.7311 1.8354 0.3476
0.7291 1.8161 0.3457
0.7385 1.8006 0.3459
0.7436 1.7838 0.3453
0.7402 1.7652 0.3432
0.7387 1.7476 0.3415
0.7283 1.7288 0.3383
0.7286 1.7125 0.3370
0.7276 1.6964 0.3355
0.7410 1.6822 0.3364
0.7626 1.6683 0.3386
0.7695 1.6529 0.3383
0.7730 1.6373 0.3376
0.7799 1.6220 0.3374
0.7868 1.6067 0.3372
0.7948 1.5913 0.3371
0.8029 1.5759 0.3371
0.8026 1.5610 0.3358
0.8217 1.5446 0.3374
0.8485 1.5269 0.3401
0.8631 1.5101 0.3409
0.8716 1.4938 0.3409
0.8839 1.4769 0.3414
0.8938 1.4602 0.3415
0.9037 1.4434 0.3416
0.9267 1.4237 0.3435
0.9408 1.4055 0.3442
0.9603 1.3857 0.3456
0.9679 1.3687 0.3453
0.9999 1.3447 0.3483
1.0269 1.3214 0.3505
1.0445 1.3005 0.3515
0.8004 1.9704 0.3499
0.7835 1.9169 0.3438
0.7471 1.8805 0.3363
0.7218 1.8510 0.3307
0.7210 1.8318 0.3292
0.7283 1.8156 0.3290
0.7325 1.7985 0.3283
0.7387 1.7821 0.3279
0.7406 1.7647 0.3269
0.7333 1.7289 0.3233
0.7206 1.7104 0.3203
0.7218 1.6947 0.3193
0.7341 1.6804 0.3198
0.7611 1.6670 0.3224
0.7715 1.6518 0.3227
0.7670 1.6358 0.3209
0.7762 1.6206 0.3210
0.7854 1.6052 0.3211
0.7923 1.5898 0.3209
0.8016 1.5743 0.3210
0.8098 1.5588 0.3209
0.8106 1.5439 0.3200
0.8336 1.5267 0.3217
0.8668 1.5076 0.3247
0.8703 1.4919 0.3240
0.8813 1.4751 0.3243
0.8899 1.4587 0.3242
0.8998 1.4419 0.3243
0.9188 1.4230 0.3254
0.9341 1.4046 0.3261
0.9429 1.3875 0.3260
0.9745 1.3642 0.3285
0.8024 1.9719 0.3303
0.8025 1.9484 0.3288
0.7849 1.9177 0.3249
0.7109 1.8468 0.3123
0.7212 1.8316 0.3125
0.7306 1.8160 0.3125
0.7358 1.7990 0.3120
0.7421 1.7824 0.3117
0.7473 1.7657 0.3112
0.7312 1.7447 0.3081
0.7329 1.7280 0.3072
0.7224 1.7099 0.3049
0.7160 1.6930 0.3032
0.7271 1.6787 0.3035
0.7642 1.6661 0.3067
0.7757 1.6508 0.3070
0.7759 1.6348 0.3060
0.7725 1.6191 0.3047
0.7852 1.6037 0.3051
0.7945 1.5882 0.3051
0.7991 1.5728 0.3047
0.8013 1.5577 0.3039
0.8070 1.5425 0.3036
0.8212 1.5263 0.3042
0.8517 1.5076 0.3063
0.8639 1.4908 0.3066
0.8724 1.4745 0.3065
0.8936 1.4557 0.3076
0.9023 1.4391 0.3075
0.9161 1.4212 0.3079
0.9249 1.4043 0.3078
0.9416 1.3853 0.3084
0.9545 3.4243 0.4002
0.7987 1.9705 0.3096
0.7969 1.9461 0.3082
0.7085 1.8651 0.2962
0.7119 1.8472 0.2955
0.7163 1.8298 0.2950
0.7236 1.8135 0.2948
0.7350 1.7984 0.2950
0.7393 1.7812 0.2944
0.7414 1.7637 0.2937
0.7338 1.7445 0.2920
0.7323 1.7272 0.2910
0.7177 1.7083 0.2887
0.7125 1.6917 0.2874
0.7269 1.6776 0.2879
0.7626 1.6648 0.2903
0.7753 1.6495 0.2906
0.7722 1.6334 0.2895
0.7642 1.6177 0.2879
0.7827 1.6023 0.2887
0.7908 1.5867 0.2886
0.7930 1.5715 0.2880
0.8012 1.5560 0.2879
0.8009 1.5413 0.2871
0.8224 1.5242 0.2880
0.8429 1.5068 0.2889
0.8700 1.4877 0.2902
0.8698 1.4728 0.2894
0.8922 1.4537 0.2904
0.8907 1.4392 0.2895
0.9109 1.4199 0.2902
0.9274 1.4011 0.2906
1.4978 1.1865 0.3288
1.5060 1.1606 0.3282
0.9774 3.4136 0.3620
0.7958 1.9697 0.2890
0.7904 1.9434 0.2875
0.6880 1.8569 0.2773
0.6981 1.8420 0.2773
0.7227 1.8129 0.2776
0.7270 1.7957 0.2772
0.7343 1.7794 0.2770
0.7333 1.7612 0.2761
0.7321 1.7434 0.2753
0.7307 1.7261 0.2745
0.7291 1.7091 0.2736
0.7100 1.6904 0.2716
0.7134 1.6752 0.2712
0.7689 1.6641 0.2743
0.7749 1.6482 0.2740
0.7743 1.6163 0.2726
0.7778 1.6009 0.2721
0.7824 1.5855 0.2718
0.7929 1.5698 0.2718
0.7998 1.5544 0.2716
0.8032 1.5392 0.2711
0.8113 1.5237 0.2710
0.8379 1.5055 0.2719
0.8586 1.4874 0.2725
0.8721 1.4702 0.2726
0.8795 1.4539 0.2724
0.8880 1.4374 0.2722
0.9605 3.3944 0.3205
0.7930 1.9688 0.2682
0.7952 1.9461 0.2676
0.7041 1.8441 0.2607
0.7134 1.8284 0.2605
0.7198 1.8117 0.2603
0.7292 1.7959 0.2601
0.7304 1.7779 0.2596
0.7356 1.7611 0.2593
0.7377 1.7439 0.2588
0.7333 1.7257 0.2581
0.7276 1.7080 0.2573
0.7129 1.6898 0.2561
0.7131 1.6742 0.2556
0.7684 1.6629 0.2575
0.7845 1.6474 0.2576
0.7805 1.6309 0.2569
0.7751 1.6149 0.2562
0.7798 1.5993 0.2559
0.7892 1.5836 0.2558
0.7892 1.5684 0.2553
0.7902 1.5534 0.2548
0.8019 1.5375 0.2548
0.8149 1.5213 0.2548
0.8304 1.5045 0.2549
0.8449 1.4875 0.2549
0.8645 1.4693 0.2551
0.8755 1.4524 0.2550
0.8879 1.4350 0.2550
1.8584 1.1273 0.2841
1.9490 1.0705 0.2859
1.8899 1.0571 0.2831
0.9310 3.4212 0.2806
0.9841 3.3838 0.2806
1.0352 3.4089 0.2820
0.7923 1.9934 0.2479
0.7800 1.9628 0.2471
0.7934 1.9456 0.2469
0.6889 1.8574 0.2434
0.6865 1.8376 0.2429
0.6976 1.8229 0.2428
0.7128 1.8093 0.2427
0.7262 1.7947 0.2426
0.7326 1.7779 0.2424
0.7410 1.7617 0.2422
0.7474 1.7450 0.2419
0.7400 1.7261 0.2414
0.7238 1.7066 0.2407
0.7050 1.6879 0.2400
0.7095 1.6728 0.2398
0.7667 1.6616 0.2405
0.7773 1.6457 0.2403
0.7823 1.6295 0.2400
0.7816 1.6135 0.2397
0.7749 1.5979 0.2392
0.7785 1.5825 0.2390
0.7901 1.5667 0.2388
0.7948 1.5513 0.2386
0.8006 1.5359 0.2383
0.8135 1.5196 0.2382
0.8291 1.5027 0.2381
0.8497 1.4846 0.2381
0.8606 1.4678 0.2379
0.8779 1.4496 0.2378
0.8916 1.4318 0.2376
1.8201 1.1627 0.2471
1.8720 1.1179 0.2469
1.8880 1.0824 0.2465
1.9329 1.0380 0.2462
1.9199 1.0114 0.2455
0.9363 3.4485 0.2407
0.9851 3.4753 0.2406
0.9910 3.4120 0.2399
1.0207 3.3960 0.2395
1.0522 3.3811 0.2391
0.7857 1.9906 0.2266
0.7882 1.9674 0.2264
0.7840 1.9416 0.2261
0.6827 1.8361 0.2258
0.7178 1.6725 0.2239
0.7705 1.6606 0.2233
0.7844 1.6447 0.2230
0.7873 1.6282 0.2229
0.7800 1.6120 0.2227
0.7780 1.5963 0.2226
0.7805 1.5808 0.2224
0.7829 1.5654 0.2222
0.7910 1.5498 0.2220
0.7980 1.5343 0.2218
0.8086 1.5183 0.2215
0.8289 1.5007 0.2212
0.8360 1.4848 0.2210
0.8690 1.4640 0.2205
0.8814 1.4465 0.2202
0.8939 1.4289 0.2199
1.8316 1.1856 0.2101
1.8118 1.1595 0.2100
1.8274 1.1247 0.2095
1.9236 1.0660 0.2081
1.9177 1.0367 0.2079
1.9259 1.0033 0.2075
1.8899 0.9856 0.2076
0.8888 3.4355 0.2011
0.9129 3.4142 0.2004
0.9484 3.4151 0.1992
0.9656 3.3766 0.1987
0.9907 3.3531 0.1979
1.0426 3.3774 0.1962
1.1685 3.4485 0.1921
0.7872 1.9921 0.2052
0.7862 1.9670 0.2052
0.7162 1.8685 0.2076
1.6680 2.1528 0.1767
1.9256 2.1849 0.1684
0.7634 1.6589 0.2062
0.7827 1.6433 0.2055
0.7857 1.6268 0.2055
0.7818 1.6105 0.2056
0.7901 1.5944 0.2053
0.7836 1.5790 0.2055
0.7826 1.5638 0.2056
0.7908 1.5481 0.2053
0.7919 1.5331 0.2053
0.8227 1.4996 0.2043
0.8395 1.4820 0.2038
0.8773 1.4601 0.2026
0.8861 1.4432 0.2023
1.8647 1.0474 0.1710
1.8659 1.0171 0.1710
0.9039 3.4107 0.1603
0.9466 3.4271 0.1576
0.9763 3.4130 0.1561
1.0463 3.3984 0.1523
1.1473 3.4261 0.1462
1.2291 3.4842 0.1409
0.7878 1.9683 0.1837
0.7793 1.9401 0.1845
0.7388 1.8991 0.1873
1.4846 2.1335 0.1421
0.7873 1.6254 0.1877
0.7880 1.6090 0.1879
0.7908 1.5928 0.1879
0.7946 1.5768 0.1879
0.7904 1.5615 0.1883
0.7882 1.5465 0.1886
0.7847 1.5321 0.1890
0.7987 1.5157 0.1884
0.8177 1.4983 0.1875
0.8465 1.4787 0.1861
0.8782 1.4576 0.1845
1.9537 1.0129 0.1284
0.9412 3.4319 0.1158
0.9830 3.4421 0.1121
1.0010 3.4021 0.1116
1.0545 3.4282 0.1066
1.1525 3.4488 0.0981
1.2066 3.4612 0.0933
1.2328 3.4249 0.0920
0.7830 1.9664 0.1624
0.7520 1.9051 0.1663
0.7918 1.6074 0.1699
0.7891 1.5912 0.1705
0.7896 1.5753 0.1708
0.7866 1.5600 0.1714
0.7914 1.5444 0.1714
0.7950 1.5290 0.1714
0.8519 1.4908 0.1676
0.8642 1.4733 0.1670
1.7985 1.1776 0.0972
0.9996 3.4144 0.0675
1.0398 3.4154 0.0631
1.1221 3.4888 0.0518
1.1697 3.4928 0.0465
1.1787 3.4288 0.0477
1.2046 3.3932 0.0462
1.3064 3.4721 0.0325
2.7429 3.5646 -0.1250
2.8320 3.5178 -0.1330
0.7853 1.9682 0.1402
0.7971 1.9493 0.1396
0.9404 1.6452 0.1346
0.9376 1.6246 0.1356
0.7959 1.5733 0.1526
0.7884 1.5581 0.1539
0.7922 1.5425 0.1541
0.8063 1.5257 0.1531
0.8252 1.5080 0.1517
0.8491 1.4891 0.1498
0.8686 1.4702 0.1483
0.9598 3.4265 0.0277
0.9985 3.4278 0.0225
1.0346 3.4205 0.0180
1.0863 3.4389 0.0103
1.1478 3.4694 0.0007
1.1848 3.4527 -0.0035
1.2230 3.4357 -0.0078
1.2437 3.3895 -0.0084
1.3231 3.4290 -0.0208
1.3522 3.3909 -0.0229
1.4184 3.4014 -0.0322
0.7837 1.9932 0.1170
0.7947 1.9735 0.1164
0.7905 1.9465 0.1182
3.7530 2.9740 -0.3235
4.1625 2.1745 -0.3414
0.9592 1.6657 0.1086
0.9537 1.6439 0.1104
0.9425 1.6228 0.1128
0.8672 1.5330 0.1270
0.8592 1.4852 0.1302
0.8562 1.4702 0.1313
0.8553 1.4551 0.1321
0.8347 1.4305 0.1360
0.8369 1.4160 0.1364
0.8365 1.4023 0.1371
0.8196 1.3938 0.1397
0.8149 1.3823 0.1409
0.8101 1.3713 0.1420
1.0105 3.4673 -0.0269
1.0199 3.4077 -0.0250
1.0664 3.4175 -0.0330
2.0834 3.6431 -0.2080
2.0373 3.4997 -0.1924
0.7857 1.9950 0.0937
0.8074 1.9805 0.0911
0.7972 1.9501 0.0945
3.2468 2.8893 -0.3498
3.2866 2.8007 -0.3510
3.4060 2.5351 -0.3547
3.4809 2.4553 -0.3621
3.5921 2.3814 -0.3755
3.7509 2.2113 -0.3910
3.6050 2.0924 -0.3609
2.4642 1.6938 -0.1562
2.4134 1.6357 -0.1448
0.8446 1.4854 0.1137
0.8391 1.4710 0.1154
0.8262 1.4588 0.1182
0.8102 1.4341 0.1222
0.8171 1.4187 0.1219
0.8241 1.4033 0.1217
0.8260 1.3894 0.1222
0.8101 1.3813 0.1252
0.7823 1.3780 0.1298
0.7720 1.3697 0.1320
2.3713 3.5100 -0.3293
2.4249 3.4507 -0.3351
2.3611 3.3027 -0.3130
0.7911 1.9987 0.0693
0.7971 1.9759 0.0697
0.7958 1.9499 0.0718
2.7803 2.0492 -0.3036
3.0701 2.0150 -0.3551
2.9552 1.9233 -0.3274
2.8733 1.8421 -0.3065
2.6420 1.7581 -0.2577
2.4048 1.6870 -0.2087
2.2488 1.6294 -0.1758
0.8017 1.4339 0.1066
0.8000 1.4209 0.1078
0.7957 1.4089 0.1094
0.7775 1.4016 0.1133
0.7713 1.3912 0.1152
0.7675 1.3805 0.1166
0.7610 1.3712 0.1185
0.7555 1.3618 0.1202
2.0503 3.4349 -0.3392
2.0804 3.3680 -0.3401
2.1260 3.3140 -0.3454
2.1405 3.2342 -0.3420
2.1706 3.1673 -0.3429
2.2007 3.1003 -0.3438
0.7980 2.0033 0.0437
0.7955 1.9757 0.0465
2.4594 2.5723 -0.3557
2.5273 2.5188 -0.3658
2.5386 2.4437 -0.3621
2.5691 2.3757 -0.3630
2.5997 2.3078 -0.3640
2.6109 2.2351 -0.3604
2.6412 2.1677 -0.3614
2.6518 2.0965 -0.3578
2.7856 2.0463 -0.3822
2.6726 1.9575 -0.3509
2.6635 1.8874 -0.3432
2.6174 1.8164 -0.3276
2.4109 1.7404 -0.2776
2.3766 1.6813 -0.2655
2.1990 1.6243 -0.2231
1.3732 1.5586 -0.0422
1.3429 1.5310 -0.0335
0.8804 1.4585 0.0706
0.8717 1.4445 0.0736
0.8077 1.4300 0.0884
0.7964 1.4195 0.0917
0.7897 1.4082 0.0940
0.7839 1.3972 0.0962
0.7604 1.3805 0.1025
0.7641 1.3676 0.1028
1.7190 3.3859 -0.3309
1.7911 3.3742 -0.3471
1.8677 3.3621 -0.3643
1.9084 3.3117 -0.3694
1.9107 3.2263 -0.3619
0.7861 1.9976 0.0228
2.1967 2.3961 -0.3526
2.2235 2.3364 -0.3534
2.2653 2.2814 -0.3583
2.2620 2.2130 -0.3511
2.3193 2.1613 -0.3599
2.3462 2.1012 -0.3608
2.3576 2.0383 -0.3576
2.3229 1.9689 -0.3428
2.3650 1.9129 -0.3476
2.3021 1.8451 -0.3262
2.3130 1.7878 -0.3234
2.3235 1.7312 -0.3206
2.2268 1.6723 -0.2919
1.3572 1.5561 -0.0726
1.3446 1.5277 -0.0669
0.8587 1.4603 0.0558
0.8476 1.4472 0.0597
0.8409 1.4338 0.0626
0.8183 1.4250 0.0688
0.8109 1.4131 0.0717
0.8105 1.3997 0.0730
1.4840 3.3789 -0.3345
1.5258 3.3469 -0.3422
1.5321 3.2720 -0.3360
1.5745 3.2386 -0.3438
1.6082 3.1942 -0.3480
1.6231 3.1304 -0.3453
1.6571 3.0853 -0.3496
1.6914 3.0395 -0.3539
1.7268 2.9937 -0.3584
1.7103 2.9059 -0.3447
1.7140 2.8367 -0.3384
1.7691 2.8057 -0.3498
1.8684 2.5237 -0.3464
1.9263 2.4863 -0.3579
1.9279 2.4218 -0.3515
1.9289 2.3586 -0.3450
1.9419 2.3015 -0.3424
1.9766 2.2524 -0.3465
2.0125 2.2030 -0.3509
2.0366 2.1495 -0.3516
2.0729 2.0991 -0.3560
2.0721 2.0399 -0.3495
2.0960 1.9868 -0.3502
2.1080 1.9318 -0.3476
2.2085 1.8890 -0.3699
2.1938 1.8301 -0.3597
2.2312 1.7774 -0.3641
2.2690 1.7239 -0.3685
2.2663 1.6688 -0.3620
1.3855 1.5517 -0.1142
1.3581 1.5235 -0.1039
1.7610 1.4203 -0.2006
1.7784 1.3815 -0.2011
0.8334 1.4331 0.0459
0.8169 1.4229 0.0514
1.2434 3.3074 -0.3163
1.2968 3.3051 -0.3318
1.3396 3.2846 -0.3420
1.3911 3.2725 -0.3558
1.3988 3.2041 -0.3499
1.4211 3.1543 -0.3506
1.4435 3.1045 -0.3513
1.4816 3.0710 -0.3586
1.4963 3.0128 -0.3560
1.4992 2.8081 -0.3326
1.7697 2.3531 -0.3584
1.7636 2.2921 -0.3493
1.7756 2.2397 -0.3467
1.7974 2.1913 -0.3473
1.8486 2.1519 -0.3578
1.8708 2.1026 -0.3585
1.8627 2.0460 -0.3494
1.9372 1.9549 -0.3605
2.0263 1.7076 -0.3575
2.0264 1.6584 -0.3517
1.3738 1.5490 -0.1461
1.3606 1.5200 -0.1388
1.9695 1.3912 -0.3032
1.9612 1.3513 -0.2960
1.9534 0.9539 -0.2465
1.1384 3.3148 -0.3378
1.1586 3.2698 -0.3384
1.1957 3.2497 -0.3478
1.1990 3.1799 -0.3397
1.2133 3.1271 -0.3374
1.2275 3.0748 -0.3351
1.2475 3.0303 -0.3357
1.2860 3.0072 -0.3451
1.3063 2.9620 -0.3458
1.3202 2.9101 -0.3435
1.3534 2.8780 -0.3500
1.3804 2.8388 -0.3535
1.3809 2.7752 -0.3453
1.4011 2.7303 -0.3460
1.4213 2.6853 -0.3466
1.4415 2.6403 -0.3472
1.4759 2.6055 -0.3538
1.4747 2.5456 -0.3455
1.4948 2.5009 -0.3461
1.5500 2.4196 -0.3533
1.5780 2.3783 -0.3569
1.5984 2.3329 -0.3575
1.6031 2.2806 -0.3522
1.6234 2.2357 -0.3528
1.6275 2.1848 -0.3475
1.6556 2.1430 -0.3511
1.6757 2.0983 -0.3517
1.6958 2.0535 -0.3524
1.7160 2.0088 -0.3530
1.7275 1.9622 -0.3506
1.7648 1.9209 -0.3572
1.8113 1.8800 -0.3669
1.8141 1.8321 -0.3615
1.8344 1.7869 -0.3621
1.8819 1.7437 -0.3718
1.8659 1.6961 -0.3604
1.8861 1.6511 -0.3610
1.8969 1.6062 -0.3586
1.3440 1.5473 -0.1720
1.3490 1.5175 -0.1698
1.9875 1.3837 -0.3587
2.0175 1.3378 -0.3623
2.0780 1.2865 -0.3752
2.0883 1.2427 -0.3727
2.1512 1.1886 -0.3859
2.1292 1.1519 -0.3740
2.0094 1.1407 -0.3338
2.2737 0.8718 -0.3840
2.2944 0.8260 -0.3846
2.3150 0.7801 -0.3852
1.0619 3.1327 -0.3369
1.1316 2.9614 -0.3368
1.1501 2.9202 -0.3373
1.2611 2.6732 -0.3408
1.2520 2.6085 -0.3282
1.2754 2.5726 -0.3313
1.3601 2.4186 -0.3389
1.4025 2.3402 -0.3425
1.4083 2.2928 -0.3377
1.4087 2.2437 -0.3308
1.4138 2.1980 -0.3259
1.4762 2.1764 -0.3448
1.5079 2.1403 -0.3508
1.5202 2.0969 -0.3488
1.5523 2.0598 -0.3548
1.5757 1.9734 -0.3505
1.5800 1.9292 -0.3457
1.5907 1.8870 -0.3434
1.6379 1.8509 -0.3548
1.6565 1.8095 -0.3554
1.6830 1.7690 -0.3588
1.7097 1.7280 -0.3623
1.6677 1.6835 -0.3411
1.3586 1.5738 -0.2164
1.3494 1.5437 -0.2089
1.8511 1.3950 -0.3640
1.7149 1.0545 -0.2670
1.7242 1.0223 -0.2656
1.7396 0.9881 -0.2661
0.9012 3.2222 -0.3382
0.9186 3.1836 -0.3388
0.9320 3.1378 -0.3367
0.9690 3.1331 -0.3500
0.9825 3.0870 -0.3479
0.9796 3.0159 -0.3356
0.9968 2.9776 -0.3362
1.0228 2.9518 -0.3420
1.0274 2.8959 -0.3350
1.0575 2.8746 -0.3431
1.0788 2.8408 -0.3459
1.0922 2.7973 -0.3442
1.1048 2.7534 -0.3420
1.1221 2.7149 -0.3426
1.1443 2.6814 -0.3458
1.1710 2.6517 -0.3513
1.1739 2.5996 -0.3442
1.1860 2.5567 -0.3420
1.2085 2.5227 -0.3453
1.2311 2.4883 -0.3485
1.2329 2.4385 -0.3413
1.2548 2.4036 -0.3442
1.2776 2.3689 -0.3474
1.3167 2.3434 -0.3583
1.3343 2.3042 -0.3589
1.3294 2.2535 -0.3490
1.3408 2.2123 -0.3468
1.3811 2.1842 -0.3578
1.3873 2.1406 -0.3533
1.4284 2.1108 -0.3643
1.4221 2.0634 -0.3544
1.4268 2.0209 -0.3495
1.4568 1.9861 -0.3555
1.4612 1.9444 -0.3506
1.4493 1.9000 -0.3391
1.5022 1.8690 -0.3544
1.5195 1.8306 -0.3549
1.5368 1.7921 -0.3554
1.5413 1.7525 -0.3509
1.2801 1.6328 -0.2325
1.2937 1.6025 -0.2329
1.2980 1.5726 -0.2298
1.3157 1.5424 -0.2318
1.7389 1.4040 -0.3714
1.7565 1.3648 -0.3719
1.7663 1.3270 -0.3697
1.7693 1.2908 -0.3652
1.7934 1.2507 -0.3681
1.8109 1.2120 -0.3686
1.0398 1.3162 -0.0911
1.8937 0.9547 -0.3597
1.9256 0.9111 -0.3650
0.8738 3.0459 -0.3425
0.8740 2.9820 -0.3317
0.9191 2.9316 -0.3416
0.9286 2.8855 -0.3376
0.9484 2.8551 -0.3406
0.9538 2.8045 -0.3341
0.9627 2.7598 -0.3302
0.9890 2.7376 -0.3372
1.0294 2.6226 -0.3342
1.0572 2.5993 -0.3416
1.0733 2.5635 -0.3421
1.0894 2.5277 -0.3426
1.1011 2.4882 -0.3406
1.1216 2.4562 -0.3436
1.1460 2.4268 -0.3486
1.1453 2.3785 -0.3401
1.1354 2.3256 -0.3270
1.1597 2.2965 -0.3320
1.2132 2.2388 -0.3441
1.1977 2.1870 -0.3289
1.2502 2.1699 -0.3476
1.2425 2.1237 -0.3365
1.2582 2.0886 -0.3370
1.2792 2.0555 -0.3400
1.3092 2.0250 -0.3471
1.3252 1.9894 -0.3476
1.3367 1.9525 -0.3460
1.3426 1.9146 -0.3419
1.3425 1.8761 -0.3354
1.3742 1.8442 -0.3429
1.4005 1.8105 -0.3480
1.4165 1.7750 -0.3485
1.3233 1.6628 -0.2911
1.3660 1.6313 -0.3032
1.3663 1.5989 -0.2978
1.4512 1.5642 -0.3267
1.3304 1.5383 -0.2727
1.3135 1.5101 -0.2610
1.0302 1.3518 -0.1176
1.0302 1.3336 -0.1145
1.0301 1.3158 -0.1114
1.6682 1.0586 -0.3296
1.7272 1.0088 -0.3454
1.7699 0.9638 -0.3552
0.7657 3.0455 -0.3378
0.7777 3.0054 -0.3357
0.7987 2.9832 -0.3409
0.8078 2.9382 -0.3366
0.8201 2.8997 -0.3350
0.8380 2.8711 -0.3376
0.8531 2.8375 -0.3381
0.8748 2.8139 -0.3433
0.8993 2.7934 -0.3503
0.9053 2.7462 -0.3442
0.9237 2.7165 -0.3469
0.9389 2.6825 -0.3473
0.9575 2.6525 -0.3500
0.9587 2.6025 -0.3413
0.9738 2.5689 -0.3418
0.9889 2.5353 -0.3423
1.0005 2.4983 -0.3406
1.0191 2.4682 -0.3432
1.0240 2.4258 -0.3376
1.0537 2.4046 -0.3468
1.0689 2.3709 -0.3472
1.0795 2.3339 -0.3451
1.0992 2.3034 -0.3482
1.1057 2.2642 -0.3438
1.1207 2.2308 -0.3443
1.1325 2.1955 -0.3430
1.1475 2.1622 -0.3435
1.1700 2.1324 -0.3479
1.1809 2.0970 -0.3461
1.2002 2.0653 -0.3488
1.2153 2.0317 -0.3493
1.2304 1.9981 -0.3497
1.2374 1.9621 -0.3462
1.2524 1.9288 -0.3467
1.2628 1.8943 -0.3450
1.2861 1.8629 -0.3494
1.2833 1.8262 -0.3414
1.1585 1.7418 -0.2709
1.2569 1.7208 -0.3104
1.3013 1.6917 -0.3246
1.3335 1.6605 -0.3331
1.3823 1.6286 -0.3487
1.4023 1.5953 -0.3513
1.3916 1.5630 -0.3407
1.3230 1.5354 -0.3054
1.3200 1.5062 -0.2987
1.3687 1.4721 -0.3139
1.2386 1.4600 -0.2543
1.1361 1.4045 -0.1989
1.0448 1.3826 -0.1547
1.0249 1.3685 -0.1433
1.0229 1.3505 -0.1391
1.0183 1.3337 -0.1340
1.0299 1.3123 -0.1352
1.0439 1.2901 -0.1372
0.7422 2.9470 -0.3477
0.7465 2.8951 -0.3394
0.7635 2.8684 -0.3421
0.7829 2.8454 -0.3467
0.7921 2.8046 -0.3430
0.8012 2.7644 -0.3393
0.8232 2.7445 -0.3458
0.8519 2.6805 -0.3467
0.8663 2.6486 -0.3471
0.8691 2.6021 -0.3392
0.8807 2.5674 -0.3378
0.9035 2.5458 -0.3443
0.9001 2.4951 -0.3327
0.9230 2.4732 -0.3391
0.9372 2.4417 -0.3396
0.9328 2.3934 -0.3280
0.9466 2.3626 -0.3284
0.9575 2.3295 -0.3270
0.9810 2.3063 -0.3334
1.0010 2.2797 -0.3376
1.0088 2.2443 -0.3343
1.0126 2.2069 -0.3287
1.0327 2.1800 -0.3328
1.0466 2.1491 -0.3333
1.0710 2.1238 -0.3398
1.0851 2.0926 -0.3402
1.0924 2.0584 -0.3369
1.1174 2.0319 -0.3434
1.1349 2.0019 -0.3457
1.1411 1.9678 -0.3419
1.1437 1.9331 -0.3363
1.1656 1.9045 -0.3409
1.1378 1.8635 -0.3197
1.0763 1.7881 -0.2759
1.1386 1.7679 -0.3012
1.1916 1.7438 -0.3214
1.2330 1.7165 -0.3355
1.2673 1.6871 -0.3458
1.2991 1.6565 -0.3548
1.2953 1.6247 -0.3467
1.3053 1.5936 -0.3452
1.3367 1.5618 -0.3537
1.3157 1.5325 -0.3381
1.3127 1.5034 -0.3309
1.3432 1.4712 -0.3389
1.0133 1.4256 -0.1745
1.0030 1.4084 -0.1662
1.0035 1.3893 -0.1627
1.0107 1.3689 -0.1620
1.0109 1.3505 -0.1585
1.0075 1.3335 -0.1536
1.0015 1.3179 -0.1476
1.0082 1.2986 -0.1469
1.0232 1.2763 -0.1496
0.6706 2.9308 -0.3472
0.6843 2.9003 -0.3476
0.6871 2.8476 -0.3379
0.7096 2.8353 -0.3465
0.7161 2.7918 -0.3406
0.7257 2.7550 -0.3376
0.7454 2.7356 -0.3434
0.7589 2.7055 -0.3438
0.7701 2.6718 -0.3423
0.7860 2.6453 -0.3447
0.7995 2.6152 -0.3451
0.8130 2.5851 -0.3455
0.8240 2.5518 -0.3440
0.8349 2.5186 -0.3424
0.8484 2.4887 -0.3429
0.8618 2.4588 -0.3433
0.8841 2.4380 -0.3501
0.8977 2.4078 -0.3505
0.9021 2.3691 -0.3445
0.9184 2.3417 -0.3469
0.9268 2.3075 -0.3439
0.9550 2.2891 -0.3541
0.9559 2.2495 -0.3462
0.9640 2.2159 -0.3432
0.9890 2.1936 -0.3510
0.9907 2.1565 -0.3440
1.0129 2.1316 -0.3498
1.0398 2.0716 -0.3507
1.0442 2.0376 -0.3456
1.0474 2.0037 -0.3401
1.0606 1.9743 -0.3405
1.0938 1.9516 -0.3523
1.1152 1.9239 -0.3572
1.1208 1.8915 -0.3532
1.0703 1.8464 -0.3183
1.0455 1.8105 -0.2983
1.0854 1.7882 -0.3136
1.1289 1.7648 -0.3304
1.1664 1.7390 -0.3438
1.1758 1.7092 -0.3422
1.2113 1.6812 -0.3541
1.2179 1.6511 -0.3510
1.2193 1.6213 -0.3454
1.2365 1.5918 -0.3479
0.9682 1.4902 -0.1917
0.9757 1.4691 -0.1910
0.9788 1.4489 -0.1883
0.9818 1.4290 -0.1855
0.9890 1.4084 -0.1848
1.0007 1.3868 -0.1861
1.0079 1.3663 -0.1854
0.9968 1.3511 -0.1766
0.9853 1.3369 -0.1678
0.9756 1.3228 -0.1600
0.9762 1.3059 -0.1567
0.9910 1.2843 -0.1595
1.0046 1.2628 -0.1618
1.0195 1.2407 -0.1647
0.6270 2.8459 -0.3418
0.6511 2.7856 -0.3410
0.6560 2.7417 -0.3337
0.6767 2.7287 -0.3418
0.6856 2.6934 -0.3386
0.6961 2.6613 -0.3369
0.7048 2.6266 -0.3337
0.7115 2.5895 -0.3290
0.7341 2.5767 -0.3381
0.7425 2.5425 -0.3349
0.7508 2.5087 -0.3317
0.7721 2.4921 -0.3393
0.7713 2.4477 -0.3288
0.7792 2.4148 -0.3256
0.8101 2.4076 -0.3405
0.8201 2.3766 -0.3388
0.8382 2.3539 -0.3433
0.8453 2.3204 -0.3396
0.8487 2.2842 -0.3332
0.8583 2.2541 -0.3315
0.8759 2.2304 -0.3356
0.8958 2.2081 -0.3411
0.8933 2.1696 -0.3311
0.8950 2.1351 -0.3242
0.9150 2.1126 -0.3298
0.9384 2.0913 -0.3375
0.9509 2.0635 -0.3379
0.9577 2.0329 -0.3346
0.9817 2.0104 -0.3423
0.9767 1.9752 -0.3317
0.9984 1.9512 -0.3379
0.9988 1.9194 -0.3309
1.0321 1.8983 -0.3439
1.0261 1.8654 -0.3333
1.0331 1.8366 -0.3305
1.0481 1.8099 -0.3325
1.0696 1.7841 -0.3381
1.0857 1.7569 -0.3406
1.1076 1.7303 -0.3462
1.1230 1.7025 -0.3482
1.1096 1.6729 -0.3344
0.9638 1.5944 -0.2389
0.9609 1.5723 -0.2324
0.9597 1.5507 -0.2269
0.9603 1.5295 -0.2224
0.9492 1.5101 -0.2121
0.9504 1.4900 -0.2082
0.9620 1.4685 -0.2095
0.9715 1.4473 -0.2098
0.9876 1.4248 -0.2133
1.0096 1.3625 -0.2110
0.9896 1.3499 -0.1975
0.9758 1.3364 -0.1871
0.9628 1.3236 -0.1773
0.9528 1.3106 -0.1690
0.9933 1.2799 -0.1837
0.9951 1.2628 -0.1808
1.0039 1.2432 -0.1810
0.5920 2.7791 -0.3409
0.6041 2.7520 -0.3413
0.6193 2.7313 -0.3449
0.6336 2.7082 -0.3474
0.6422 2.6739 -0.3440
0.6528 2.6438 -0.3428
0.6633 2.6139 -0.3415
0.6680 2.5749 -0.3349
0.6817 2.5509 -0.3369
0.6996 2.5329 -0.3427
0.7094 2.5026 -0.3409
0.7355 2.4946 -0.3537
0.7317 2.4464 -0.3400
0.7564 2.4350 -0.3512
0.7622 2.4003 -0.3462
0.7744 2.3732 -0.3466
0.7865 2.3461 -0.3469
0.7919 2.3124 -0.3419
0.8060 2.2875 -0.3439
0.8230 2.2650 -0.3481
0.8302 2.2337 -0.3446
0.8423 2.2069 -0.3450
0.8521 2.1784 -0.3437
0.8642 2.1516 -0.3441
0.8762 2.1248 -0.3445
0.8883 2.0979 -0.3448
0.9003 2.0711 -0.3452
0.9076 2.0419 -0.3423
0.9325 2.0214 -0.3515
0.9435 1.9619 -0.3434
0.9631 1.9381 -0.3487
0.9623 1.9069 -0.3408
0.9656 1.8778 -0.3357
0.9862 1.8539 -0.3416
0.9945 1.8266 -0.3397
1.0100 1.8009 -0.3423
1.0419 1.7779 -0.3548
1.0421 1.7491 -0.3480
1.0663 1.7238 -0.3556
1.0907 1.6977 -0.3632
0.9273 1.6374 -0.2564
0.9374 1.6150 -0.2567
0.9494 1.5925 -0.2581
0.9595 1.5700 -0.2584
0.9676 1.5477 -0.2576
1.2289 1.3467 -0.3570
1.0135 1.3581 -0.2381
0.9960 1.3447 -0.2249
0.9307 1.3149 -0.1810
0.9391 1.2962 -0.1812
0.9927 1.2601 -0.2028
1.0040 1.2394 -0.2042
0.5701 2.6892 -0.3384
0.5832 2.6667 -0.3404
0.5963 2.6441 -0.3425
0.6327 2.5696 -0.3453
0.6426 2.5410 -0.3439
0.6490 2.5071 -0.3391
0.6605 2.4815 -0.3395
0.6756 2.4611 -0.3433
0.6805 2.4263 -0.3374
0.6863 2.3938 -0.3326
0.6958 2.3663 -0.3312
0.7167 2.3523 -0.3401
0.7151 2.3125 -0.3290
0.7409 2.3027 -0.3420
0.7429 2.2678 -0.3343
0.7522 2.2407 -0.3330
0.7621 2.2144 -0.3322
0.7790 2.1940 -0.3371
0.7860 2.1654 -0.3340
0.7959 2.1392 -0.3332
0.8175 2.1213 -0.3416
0.8267 2.0944 -0.3402
0.8335 2.0663 -0.3371
0.8425 2.0398 -0.3358
0.8609 2.0184 -0.3413
0.8650 1.9896 -0.3365
0.8698 1.9616 -0.3322
0.8860 1.9387 -0.3360
0.8947 1.9127 -0.3346
0.9085 1.8886 -0.3367
0.9198 1.8635 -0.3370
0.9258 1.8371 -0.3339
0.9440 1.8138 -0.3389
0.9482 1.7873 -0.3346
0.9594 1.7624 -0.3350
0.9761 1.7382 -0.3388
0.9920 1.7137 -0.3420
0.9929 1.6877 -0.3360
0.9267 1.6354 -0.2832
1.0236 1.6129 -0.3353
1.0318 1.5882 -0.3339
1.0549 1.5628 -0.3412
1.0712 1.5374 -0.3445
1.0744 1.5130 -0.3402
1.0794 1.4888 -0.3370
1.0968 1.4630 -0.3409
1.1112 1.4375 -0.3430
1.1246 1.4121 -0.3445
1.1456 1.3849 -0.3501
1.1450 1.3623 -0.3440
1.1497 1.3390 -0.3409
1.0225 1.3334 -0.2635
0.9935 1.3241 -0.2439
0.9112 1.3185 -0.1933
0.8972 1.3084 -0.1824
0.5436 2.6416 -0.3407
0.5562 2.6202 -0.3428
0.5616 2.5843 -0.3366
0.5767 2.5680 -0.3417
0.5851 2.5385 -0.3391
0.5977 2.5170 -0.3412
0.6115 2.4971 -0.3445
0.6226 2.4725 -0.3449
0.6336 2.4478 -0.3452
0.6370 2.4122 -0.3378
0.6540 2.3961 -0.3441
0.6638 2.3700 -0.3433
0.6779 2.3493 -0.3466
0.6871 2.3225 -0.3451
0.7020 2.3022 -0.3491
0.7111 2.2755 -0.3476
0.7202 2.2489 -0.3462
0.7312 2.2243 -0.3465
0.7353 2.1936 -0.3408
0.7462 2.1693 -0.3412
0.7643 2.1507 -0.3475
0.7739 2.1250 -0.3467
0.7959 2.0761 -0.3474
0.8008 2.0479 -0.3429
0.8179 2.0271 -0.3480
0.8266 2.0013 -0.3466
0.8335 1.9750 -0.3439
0.8445 1.9507 -0.3442
0.8663 1.9021 -0.3449
0.8789 1.8784 -0.3465
0.8950 1.8556 -0.3504
0.8947 1.8281 -0.3429
0.8986 1.8023 -0.3384
0.9093 1.7784 -0.3387
0.9390 1.7576 -0.3518
0.9546 1.7338 -0.3552
0.9509 1.7075 -0.3458
0.9131 1.6560 -0.3081
0.9060 1.6329 -0.2975
0.9179 1.6108 -0.2990
1.0053 1.5865 -0.3475
1.0320 1.5614 -0.3576
1.0300 1.5378 -0.3500
1.0379 1.5138 -0.3485
1.0519 1.4892 -0.3507
1.0711 1.4637 -0.3559
1.0874 1.4383 -0.3593
1.0952 1.4143 -0.3578
1.1009 1.3909 -0.3551
1.1173 1.3652 -0.3585
1.1174 1.3435 -0.3527
1.0218 1.3301 -0.2889
0.8929 1.3217 -0.2055
0.8824 1.3107 -0.1959
1.2142 1.1452 -0.3603
1.2348 1.1166 -0.3656
0.5076 2.6188 -0.3410
0.5262 2.5666 -0.3386
0.5357 2.5412 -0.3377
0.5498 2.5248 -0.3423
0.5604 2.5013 -0.3427
0.5645 2.4665 -0.3355
0.5766 2.4461 -0.3377
0.5920 2.4308 -0.3437
0.5929 2.3926 -0.3334
0.6079 2.3763 -0.3387
0.6184 2.3530 -0.3390
0.6270 2.3274 -0.3375
0.6393 2.3065 -0.3397
0.6604 2.2958 -0.3506
0.6583 2.2578 -0.3384
0.6641 2.2298 -0.3344
0.6778 2.2101 -0.3378
0.6929 2.1914 -0.3425
0.6965 2.1620 -0.3366
0.7020 2.1348 -0.3325
0.7173 2.1159 -0.3372
0.7312 2.0955 -0.3407
0.7438 2.0738 -0.3429
0.7469 2.0457 -0.3369
0.7610 2.0250 -0.3404
0.7729 2.0028 -0.3420
0.7740 1.9747 -0.3347
0.7788 1.9491 -0.3306
0.7914 1.9275 -0.3328
0.8032 1.9054 -0.3344
0.8209 1.8853 -0.3404
0.8279 1.8611 -0.3382
0.8340 1.8369 -0.3354
0.8443 1.8141 -0.3357
0.8624 1.7931 -0.3417
0.8630 1.7681 -0.3351
0.8831 1.7469 -0.3424
0.8853 1.7228 -0.3370
0.9001 1.7004 -0.3405
0.9040 1.6770 -0.3363
0.8864 1.6306 -0.3115
0.8846 1.6089 -0.3042
0.9488 1.5857 -0.3401
0.9522 1.5633 -0.3360
0.9883 1.5384 -0.3529
1.0018 1.5148 -0.3551
1.0052 1.4922 -0.3510
1.0054 1.4706 -0.3449
1.0230 1.4463 -0.3497
1.0282 1.4241 -0.3469
1.0471 1.3992 -0.3523
1.0543 1.3767 -0.3507
1.0702 1.3521 -0.3542
1.0696 1.3319 -0.3481
1.0722 1.3112 -0.3440
1.1422 1.1705 -0.3504
0.4817 2.5684 -0.3375
0.4936 2.5503 -0.3404
0.5037 2.5278 -0.3408
0.5207 2.5196 -0.3502
0.5264 2.4879 -0.3446
0.5387 2.4691 -0.3475
0.5478 2.4445 -0.3466
0.5509 2.4100 -0.3384
0.5571 2.3814 -0.3342
0.5772 2.3749 -0.3462
0.5897 2.3556 -0.3491
0.5963 2.3280 -0.3455
0.6035 2.3016 -0.3426
0.6148 2.2807 -0.3442
0.6249 2.2582 -0.3445
0.6381 2.2393 -0.3481
0.6380 2.2057 -0.3379
0.6611 2.1967 -0.3513
0.6673 2.1702 -0.3477
0.6692 2.1404 -0.3402
0.6855 2.1234 -0.3464
0.6928 2.0987 -0.3441
0.6978 2.0726 -0.3398
0.7412 2.0142 -0.3526
0.7445 1.9877 -0.3469
0.7592 1.9402 -0.3430
0.7557 1.9120 -0.3321
0.7776 1.8951 -0.3423
0.7990 1.8771 -0.3518
0.8033 1.8527 -0.3475
0.8092 1.8290 -0.3445
0.8175 1.8064 -0.3435
0.8413 1.7873 -0.3544
0.8392 1.7623 -0.3454
0.8456 1.7395 -0.3431
0.8618 1.7182 -0.3480
0.8672 1.6725 -0.3381
0.8733 1.6504 -0.3357
0.8868 1.6286 -0.3387
0.8929 1.6068 -0.3363
0.9133 1.5846 -0.3439
0.9360 1.5618 -0.3529
0.9421 1.5397 -0.3505
0.9491 1.5177 -0.3488
0.9682 1.4943 -0.3552
0.9814 1.4713 -0.3575
0.9822 1.4504 -0.3518
1.0017 1.4262 -0.3581
1.0044 1.4053 -0.3537
1.0144 1.3830 -0.3540
1.0288 1.3594 -0.3570
1.0345 1.3382 -0.3547
1.0424 1.3165 -0.3536
0.8393 1.3207 -0.2135
0.8318 1.3098 -0.2050
0.4608 2.5291 -0.3384
0.4677 2.5012 -0.3346
0.4945 2.4332 -0.3328
0.5091 2.4216 -0.3399
0.5209 2.4039 -0.3429
0.5295 2.3805 -0.3418
0.5381 2.3571 -0.3408
0.5467 2.3339 -0.3397
0.5620 2.3209 -0.3468
0.5729 2.3008 -0.3485
0.5815 2.2775 -0.3474
0.5792 2.2405 -0.3341
0.5911 2.2223 -0.3371
0.6057 2.2067 -0.3429
0.6064 2.1756 -0.3336
0.6159 2.1545 -0.3339
0.6334 2.1409 -0.3424
0.6363 2.1134 -0.3359
0.6472 2.0934 -0.3375
0.6539 2.0699 -0.3351
0.6691 2.0530 -0.3409
0.6773 2.0307 -0.3398
0.6810 2.0056 -0.3346
0.7023 1.9917 -0.3459
0.7090 1.9685 -0.3434
0.7109 1.9431 -0.3369
0.7298 1.9265 -0.3454
0.7347 1.9030 -0.3416
0.7346 1.8778 -0.3336
0.7473 1.8580 -0.3367
0.7650 1.8396 -0.3438
0.7729 1.8178 -0.3428
0.7791 1.7956 -0.3403
0.7904 1.7748 -0.3420
0.7982 1.7533 -0.3409
0.8077 1.7321 -0.3412
0.8172 1.7109 -0.3415
0.8195 1.6889 -0.3363
0.8436 1.6691 -0.3476
0.8439 1.6472 -0.3410
0.8478 1.6260 -0.3371
0.8686 1.6049 -0.3457
0.8724 1.5838 -0.3419
0.8819 1.5627 -0.3422
0.8934 1.5414 -0.3438
0.9029 1.5202 -0.3441
0.9144 1.4987 -0.3458
0.9383 1.4752 -0.3558
0.9480 1.4536 -0.3561
0.9577 1.4320 -0.3564
0.9547 1.4133 -0.3484
0.9622 1.3926 -0.3473
0.9782 1.3696 -0.3518
0.9856 1.3488 -0.3507
1.0062 1.3240 -0.3579
0.9981 1.3083 -0.3471
1.0099 1.2864 -0.3488
0.8066 1.3302 -0.2140
0.8081 1.3163 -0.2108
0.4270 2.5449 -0.3452
0.4346 2.5195 -0.3427
0.4440 2.4987 -0.3430
0.4506 2.4715 -0.3391
0.4627 2.4571 -0.3436
0.4721 2.4362 -0.3439
0.4874 2.4273 -0.3526
0.4938 2.4004 -0.3487
0.5002 2.3738 -0.3447
0.5085 2.3511 -0.3436
0.5189 2.3321 -0.3453
0.5283 2.3113 -0.3456
0.5365 2.2888 -0.3445
0.5458 2.2680 -0.3448
0.5587 2.2519 -0.3493
0.5717 2.2355 -0.3538
0.5812 2.2145 -0.3541
0.5819 2.1835 -0.3445
0.5912 2.1628 -0.3448
0.6006 2.1420 -0.3451
0.6086 2.1200 -0.3440
0.6244 2.0764 -0.3417
0.6351 2.0569 -0.3434
0.6443 2.0363 -0.3437
0.6536 2.0157 -0.3440
0.6614 1.9941 -0.3428
0.6854 1.9304 -0.3401
0.7061 1.8905 -0.3428
0.7113 1.8684 -0.3396
0.7245 1.8495 -0.3434
0.7297 1.8276 -0.3401
0.7446 1.8090 -0.3454
0.7539 1.7884 -0.3457
0.7682 1.7690 -0.3503
0.7741 1.7476 -0.3477
0.7790 1.7262 -0.3444
0.7891 1.7059 -0.3454
0.7956 1.6851 -0.3436
0.8112 1.6651 -0.3489
0.8333 1.6450 -0.3592
0.8353 1.6239 -0.3537
0.8408 1.6032 -0.3512
0.8501 1.5825 -0.3514
0.8556 1.5621 -0.3489
0.8746 1.5407 -0.3563
0.8905 1.4802 -0.3486
0.9059 1.4585 -0.3532
0.9193 1.4369 -0.3564
0.9359 1.3959 -0.3555
0.9495 1.3740 -0.3587
0.9545 1.3545 -0.3561
0.9638 1.3338 -0.3564
0.9643 1.3160 -0.3509
0.7833 1.3363 -0.2191
0.7870 1.3219 -0.2171
0.4048 2.4962 -0.3376
0.4154 2.4808 -0.3408
0.4204 2.4510 -0.3345
0.4284 2.4291 -0.3333
0.4363 2.4074 -0.3321
0.4494 2.3968 -0.3390
0.4569 2.3740 -0.3371
0.4658 2.3542 -0.3373
0.4752 2.3353 -0.3384
0.4852 2.3173 -0.3401
0.4888 2.2886 -0.3330
0.5058 2.2819 -0.3443
0.5103 2.2552 -0.3387
0.5192 2.2354 -0.3390
0.5258 2.2125 -0.3363
0.5335 2.1913 -0.3351
0.5477 2.1782 -0.3420
0.5567 2.1583 -0.3423
0.5593 2.1316 -0.3352
0.5669 2.1107 -0.3340
0.5789 2.0943 -0.3380
0.5858 2.0728 -0.3360
0.6000 2.0578 -0.3422
0.6055 2.0352 -0.3388
0.6157 2.0165 -0.3406
0.6218 1.9948 -0.3379
0.6306 1.9751 -0.3381
0.6394 1.9555 -0.3384
0.6512 1.9375 -0.3417
0.6571 1.9162 -0.3390
0.6659 1.8965 -0.3392
0.6724 1.8759 -0.3373
0.6812 1.8563 -0.3376
0.6956 1.8388 -0.3430
0.7029 1.8185 -0.3418
0.7051 1.7968 -0.3362
0.7106 1.7765 -0.3335
0.7269 1.7588 -0.3404
0.7340 1.7389 -0.3392
0.7454 1.7197 -0.3417
0.7542 1.7001 -0.3420
0.7729 1.6814 -0.3504
0.7773 1.6611 -0.3470
0.7807 1.6411 -0.3428
0.7849 1.6214 -0.3393
0.7937 1.6019 -0.3396
0.8044 1.5823 -0.3414
0.8103 1.5629 -0.3394
0.8249 1.5429 -0.3442
0.8406 1.5224 -0.3497
0.8495 1.5026 -0.3500
0.8453 1.4849 -0.3405
0.8602 1.4643 -0.3453
0.8762 1.4431 -0.3508
0.8778 1.4250 -0.3458
0.8814 1.4067 -0.3423
0.8902 1.3872 -0.3426
0.9065 1.3654 -0.3481
0.9121 1.3468 -0.3462
0.9242 1.3260 -0.3487
0.9308 1.3071 -0.3475
0.9419 1.2866 -0.3492
0.7603 1.3299 -0.2188
0.7660 1.3152 -0.2183
0.3909 2.4693 -0.3421
0.3987 2.4478 -0.3409
0.4074 2.4285 -0.3411
0.4138 2.4040 -0.3376
0.4406 2.3485 -0.3399
0.4522 2.3351 -0.3448
0.4609 2.3158 -0.3450
0.4675 2.2928 -0.3423
0.4793 2.2788 -0.3471
0.4880 2.2595 -0.3474
0.4940 2.2359 -0.3438
0.5009 2.2142 -0.3418
0.5084 2.1935 -0.3406
0.5200 2.1781 -0.3446
0.5336 2.1354 -0.3406
0.5410 2.1149 -0.3393
0.5483 2.0946 -0.3381
0.5784 2.0152 -0.3345
0.6009 1.9815 -0.3412
0.6073 1.9610 -0.3392
0.6292 1.9021 -0.3361
0.6632 1.8491 -0.3454
0.6694 1.8291 -0.3433
0.6780 1.8100 -0.3436
0.6841 1.7902 -0.3415
0.6910 1.7708 -0.3403
0.6987 1.7517 -0.3397
0.7055 1.7325 -0.3385
0.7269 1.7157 -0.3503
0.7338 1.6962 -0.3490
0.7397 1.6768 -0.3470
0.7581 1.6194 -0.3416
0.7601 1.6006 -0.3364
0.7874 1.5624 -0.3455
0.8216 1.4864 -0.3465
0.8322 1.4670 -0.3484
0.8387 1.4483 -0.3471
0.8462 1.4296 -0.3466
0.8610 1.4090 -0.3515
0.8686 1.3901 -0.3510
0.8804 1.3701 -0.3536
0.8890 1.3509 -0.3538
0.7418 1.3347 -0.2249
0.7485 1.3198 -0.2251
-0.9171 1.8473 -0.3362
-0.9088 1.8287 -0.3364
-0.9004 1.8100 -0.3367
-0.8693 1.7522 -0.3328
-0.8672 1.7354 -0.3377
-0.8579 1.7165 -0.3372
-0.8466 1.6972 -0.3351
-0.8334 1.6776 -0.3315
-0.8242 1.6590 -0.3310
-0.8170 1.6408 -0.3320
-0.8145 1.6231 -0.3369
-0.8081 1.6047 -0.3387
-0.7979 1.5859 -0.3374
-0.7915 1.5674 -0.3392
-0.7778 1.5486 -0.3348
-0.7651 1.5302 -0.3312
-0.7640 1.5116 -0.3376
-0.7513 1.4933 -0.3340
-0.7448 1.4747 -0.3358
-0.7349 1.4565 -0.3345
-0.7267 1.4380 -0.3347
-0.7152 1.4202 -0.3319
-0.7070 1.4019 -0.3321
-0.7013 1.3829 -0.3347
-0.6907 1.3652 -0.3326
-0.6810 1.3474 -0.3313
-0.6775 1.3274 -0.3362
-0.6647 1.3109 -0.3318
-0.6581 1.2919 -0.3336
-0.6521 1.2725 -0.3362
-0.6396 1.2564 -0.3318
-0.6336 1.2369 -0.3343
-0.6240 1.2195 -0.3330
-0.6193 1.1989 -0.3372
-0.6118 1.1800 -0.3382
-0.5929 1.1698 -0.3260
-0.5685 1.1653 -0.3068
-0.4839 1.1523 -0.2391
-0.4510 1.1449 -0.2138
-0.4395 1.1370 -0.2069
-0.4332 1.1230 -0.2071
-0.4341 1.0989 -0.2175
-0.4552 0.9611 -0.2902
-0.4542 0.9327 -0.3006
-0.4567 0.8962 -0.3173
-0.4579 0.8606 -0.3324
-0.4531 0.8357 -0.3381
-0.4449 0.8174 -0.3384
-0.4364 0.8001 -0.3379
-0.4282 0.7819 -0.3381
-0.4193 0.7658 -0.3368
-0.4112 0.7476 -0.3370
-0.4054 0.7226 -0.3420
-0.3972 0.7043 -0.3422
-0.3891 0.6859 -0.3425
-0.3809 0.6676 -0.3427
-0.9691 1.8792 -0.3421
-0.9614 1.8601 -0.3431
-0.9527 1.8405 -0.3434
-0.9387 1.8191 -0.3400
-0.9268 1.7986 -0.3380
-0.9234 1.7808 -0.3420
-0.9168 1.7619 -0.3437
-0.9081 1.7423 -0.3440
-0.8933 1.7213 -0.3398
-0.8787 1.7006 -0.3356
-0.8780 1.6829 -0.3418
-0.8576 1.6614 -0.3331
-0.8559 1.6433 -0.3386
-0.8492 1.6242 -0.3403
-0.8368 1.6045 -0.3376
-0.8300 1.5853 -0.3394
-0.8187 1.5659 -0.3374
-0.8055 1.5466 -0.3339
-0.7997 1.5274 -0.3364
-0.7244 1.3542 -0.3402
-0.7166 1.3347 -0.3412
-0.6995 1.3186 -0.3333
-0.6700 1.2403 -0.3388
-0.6594 1.2224 -0.3368
-0.6466 1.2060 -0.3325
-0.6403 1.1857 -0.3350
-0.6250 1.1716 -0.3278
-0.5732 1.1630 -0.2885
-0.5499 1.1593 -0.2707
-0.4478 1.1513 -0.1897
-0.4392 1.1402 -0.1868
-0.4330 1.1263 -0.1870
-0.4324 1.1047 -0.1948
-0.4472 1.0078 -0.2437
-0.4556 0.9658 -0.2665
-0.4532 0.9403 -0.2743
-0.4589 0.8658 -0.3073
-0.9798 1.8458 -0.3370
-0.9708 1.8257 -0.3373
-0.9576 1.8042 -0.3347
-0.9487 1.7842 -0.3350
-0.9356 1.7631 -0.3324
-0.9309 1.7443 -0.3355
-0.9241 1.7248 -0.3372
-0.8992 1.6834 -0.3328
-0.8796 1.6434 -0.3319
-0.8756 1.6241 -0.3357
-0.8648 1.6040 -0.3345
-0.8578 1.5843 -0.3362
-0.8425 1.5641 -0.3315
-0.8373 1.5444 -0.3346
-0.8267 1.5245 -0.3334
-0.8073 1.4851 -0.3325
-0.7941 1.4657 -0.3292
-0.7871 1.4459 -0.3309
-0.7809 1.4258 -0.3333
-0.7738 1.4057 -0.3350
-0.7633 1.3863 -0.3339
-0.7545 1.3665 -0.3341
-0.7473 1.3463 -0.3358
-0.7353 1.3276 -0.3332
-0.7281 1.3073 -0.3349
-0.7208 1.2869 -0.3366
-0.7090 1.2684 -0.3340
-0.6980 1.2499 -0.3321
-0.6892 1.2302 -0.3323
-0.6841 1.2085 -0.3362
-0.6782 1.1870 -0.3394
-0.6595 1.1737 -0.3295
-0.5732 1.1645 -0.2651
-0.5256 1.1600 -0.2293
-0.4883 1.1521 -0.2029
-0.4509 1.1501 -0.1742
-0.4400 1.1420 -0.1686
-0.4333 1.1289 -0.1680
-0.4323 1.1082 -0.1748
-0.4372 1.0782 -0.1895
-0.4546 1.0006 -0.2314
-0.4491 0.9820 -0.2338
-0.4087 0.9712 -0.2060
-0.4693 0.7427 -0.3367
-0.4628 0.7178 -0.3406
-0.4562 0.6927 -0.3445
-0.4466 0.6751 -0.3433
-0.4369 0.6577 -0.3421
-0.4282 0.6380 -0.3424
-0.4182 0.6218 -0.3405
-1.0444 1.8996 -0.3407
-1.0395 1.8802 -0.3437
-1.0235 1.8567 -0.3399
-1.0120 1.8350 -0.3388
-1.0027 1.8141 -0.3391
-0.9997 1.7951 -0.3435
-0.9904 1.7740 -0.3437
-0.9654 1.7490 -0.3337
-0.9582 1.7287 -0.3354
-0.9561 1.7095 -0.3405
-0.9397 1.6873 -0.3359
-0.9285 1.6662 -0.3348
-0.9281 1.6467 -0.3413
-0.9208 1.6260 -0.3430
-0.9037 1.6044 -0.3377
-0.8983 1.5838 -0.3408
-0.8824 1.5627 -0.3362
-0.8732 1.5420 -0.3365
-0.8640 1.5213 -0.3368
-0.8566 1.5005 -0.3384
-0.8473 1.4798 -0.3387
-0.8363 1.4592 -0.3376
-0.8222 1.4171 -0.3416
-0.8112 1.3966 -0.3405
-0.7978 1.3768 -0.3373
-0.7686 1.3154 -0.3368
-0.7626 1.2937 -0.3398
-0.7518 1.2736 -0.3387
-0.7335 1.2323 -0.3392
-0.7257 1.2109 -0.3409
-0.7055 1.1965 -0.3307
-0.6871 1.1821 -0.3220
-0.6562 1.1768 -0.3006
-0.5490 1.1634 -0.2249
-0.5273 1.1602 -0.2097
-0.5106 1.1538 -0.1995
-0.4739 1.1480 -0.1740
-0.4467 1.1365 -0.1576
-0.4358 1.1286 -0.1522
-0.4332 1.1102 -0.1566
-0.4326 1.0883 -0.1638
-0.4401 1.0535 -0.1815
-0.4476 0.9896 -0.2093
-0.4375 0.9793 -0.2052
-0.4167 0.9616 -0.1958
-1.0373 1.8388 -0.3286
-1.0418 1.8217 -0.3375
-1.0279 1.7988 -0.3351
-1.0161 1.7766 -0.3341
-1.0034 1.7543 -0.3324
-0.9990 1.7339 -0.3360
-0.9955 1.7136 -0.3402
-0.9858 1.6918 -0.3405
-0.9528 1.6261 -0.3388
-0.9364 1.6039 -0.3344
-0.9249 1.5823 -0.3334
-0.9022 1.5604 -0.3244
-0.9058 1.5394 -0.3339
-0.9009 1.5179 -0.3376
-0.8694 1.4535 -0.3364
-0.8581 1.4322 -0.3354
-0.8451 1.4114 -0.3330
-0.8356 1.3900 -0.3333
-0.8244 1.3691 -0.3322
-0.8038 1.3270 -0.3315
-0.7960 1.3053 -0.3331
-0.7865 1.2840 -0.3334
-0.7770 1.2627 -0.3337
-0.7660 1.2421 -0.3326
-0.7611 1.2186 -0.3369
-0.7471 1.1997 -0.3332
-0.7177 1.1900 -0.3154
-0.6464 1.1842 -0.2664
-0.6211 1.1777 -0.2505
-0.5493 1.1647 -0.2036
-0.4888 1.1560 -0.1632
-0.4735 1.1508 -0.1540
-0.4585 1.1464 -0.1448
-0.4444 1.1419 -0.1362
-0.4366 1.1306 -0.1344
-0.4317 1.1154 -0.1359
-0.4359 1.0872 -0.1482
-0.4424 1.0540 -0.1639
-0.4430 1.0281 -0.1729
-0.4438 1.0008 -0.1826
-0.4349 0.9890 -0.1801
-0.4278 0.8855 -0.2093
-0.4182 0.8744 -0.2061
-0.4945 0.6199 -0.3449
-0.4806 0.6097 -0.3384
-0.4720 0.5863 -0.3400
-0.4634 0.5628 -0.3417
-0.4556 0.5368 -0.3447
-1.1418 1.9270 -0.3444
-1.1360 1.9057 -0.3472
-1.1213 1.8811 -0.3450
-1.1133 1.8588 -0.3466
-1.1052 1.8365 -0.3481
-1.0874 1.8113 -0.3440
-1.0730 1.7873 -0.3418
-1.0744 1.7673 -0.3491
-1.0600 1.7433 -0.3468
-1.0446 1.7193 -0.3440
-1.0232 1.6945 -0.3373
-1.0192 1.6729 -0.3414
-1.0211 1.6517 -0.3493
-1.0039 1.6280 -0.3452
-0.9831 1.6043 -0.3385
-0.9615 1.5811 -0.3312
-0.9582 1.5590 -0.3359
-0.9482 1.5366 -0.3362
-0.9401 1.5141 -0.3378
-0.9347 1.4914 -0.3413
-0.9264 1.4687 -0.3429
-0.9083 1.4469 -0.3374
-0.8900 1.4018 -0.3393
-0.8783 1.3796 -0.3383
-0.8666 1.3576 -0.3373
-0.8600 1.3343 -0.3402
-0.8426 1.3141 -0.3347
-0.8441 1.2880 -0.3440
-0.8252 1.2687 -0.3372
-0.8053 1.2241 -0.3378
-0.7884 1.2051 -0.3324
-0.6568 1.2022 -0.2439
-0.6333 1.1938 -0.2307
-0.6182 1.1808 -0.2245
-0.5976 1.1726 -0.2131
-0.5741 1.1681 -0.1985
-0.5476 1.1677 -0.1807
-0.4863 1.1606 -0.1413
-0.4579 1.1495 -0.1256
-0.4444 1.1445 -0.1180
-0.4348 1.1356 -0.1143
-0.4318 1.1183 -0.1177
-0.4322 1.0959 -0.1250
-0.4390 1.0629 -0.1401
-0.4425 1.0076 -0.1599
-0.4358 0.9925 -0.1601
-0.4949 0.5377 -0.3438
-0.4879 0.5073 -0.3487
-0.4788 0.4825 -0.3503
-1.1376 1.8814 -0.3263
-1.1328 1.8600 -0.3296
-1.1224 1.8367 -0.3299
-1.1250 1.8170 -0.3375
-1.1018 1.7693 -0.3369
-1.0840 1.7441 -0.3330
-1.0559 1.7173 -0.3230
-1.0498 1.6950 -0.3257
-1.0446 1.6727 -0.3291
-1.0393 1.6502 -0.3324
-1.0319 1.6271 -0.3345
-1.0136 1.6031 -0.3300
-0.9965 1.5796 -0.3260
-0.9930 1.5568 -0.3306
-0.9770 1.5102 -0.3343
-0.9648 1.4870 -0.3334
-0.9471 1.4644 -0.3288
-0.9350 1.4415 -0.3279
-0.9355 1.4170 -0.3355
-0.9163 1.3952 -0.3297
-0.9104 1.3712 -0.3331
-0.8958 1.3491 -0.3303
-0.8838 1.3265 -0.3294
-0.8752 1.3029 -0.3309
-0.8731 1.2771 -0.3374
-0.8444 1.2338 -0.3319
-0.8160 1.2189 -0.3180
-0.6926 1.2053 -0.2426
-0.6670 1.1965 -0.2287
-0.6294 1.1972 -0.2043
-0.6158 1.1835 -0.1996
-0.5966 1.1746 -0.1900
-0.5465 1.1703 -0.1589
-0.4863 1.1626 -0.1224
-0.4748 1.1539 -0.1177
-0.4604 1.1491 -0.1098
-0.4218 1.1347 -0.0893
-0.4338 1.0744 -0.1151
-0.4399 1.0414 -0.1289
-0.4563 0.8404 -0.1999
-0.5312 0.5539 -0.3342
-0.5229 0.5266 -0.3370
-0.5170 0.4923 -0.3436
-0.5037 0.4774 -0.3395
-0.4935 0.4544 -0.3398
-0.4805 0.4400 -0.3358
-1.1716 1.8250 -0.3340
-1.1628 1.8010 -0.3355
-1.1519 1.7764 -0.3359
-1.1441 1.7524 -0.3379
-1.1216 1.7255 -0.3319
-1.1107 1.7011 -0.3322
-1.1111 1.6784 -0.3389
-1.1142 1.6554 -0.3474
-1.0594 1.6029 -0.3289
-1.0484 1.5547 -0.3359
-1.0451 1.5302 -0.3409
-1.0398 1.5053 -0.3447
-1.0231 1.4808 -0.3416
-1.0222 1.4552 -0.3483
-0.9791 1.3820 -0.3429
-0.9611 1.3588 -0.3385
-0.9461 1.3080 -0.3439
-0.9217 1.2874 -0.3348
-0.9109 1.2631 -0.3351
-0.9197 1.2314 -0.3496
-0.8933 1.2129 -0.3387
-0.8046 1.2238 -0.2814
-0.7596 1.2193 -0.2553
-0.7373 1.2055 -0.2455
-0.7108 1.1952 -0.2323
-0.6312 1.1967 -0.1833
-0.6118 1.1873 -0.1741
-0.5948 1.1771 -0.1666
-0.5473 1.1711 -0.1393
-0.5308 1.1640 -0.1313
-0.5099 1.1622 -0.1190
-0.4895 1.1614 -0.1068
-0.4533 1.1594 -0.0853
-0.4424 1.1520 -0.0807
-0.4335 1.1428 -0.0779
-0.4271 1.1306 -0.0775
-0.4225 1.1160 -0.0788
-0.4219 1.0954 -0.0844
-0.4390 1.0223 -0.1157
-0.4314 1.0096 -0.1147
-0.4580 0.8442 -0.1781
-0.5365 0.4547 -0.3372
-0.5267 0.4284 -0.3387
-0.5215 0.3889 -0.3468
-1.1402 1.7016 -0.3187
-1.1383 1.6779 -0.3240
-1.1271 1.6527 -0.3244
-1.1299 1.6288 -0.3325
-1.1126 1.6029 -0.3295
-1.1042 1.5776 -0.3315
-1.0841 1.5520 -0.3268
-0.9680 1.2718 -0.3356
-0.9567 1.2463 -0.3359
-0.9289 1.2271 -0.3250
-0.8105 1.2209 -0.2584
-0.7795 1.2095 -0.2435
-0.7443 1.2020 -0.2253
-0.7230 1.1886 -0.2165
-0.6271 1.2003 -0.1580
-0.6113 1.1886 -0.1520
-0.5951 1.1781 -0.1455
-0.5431 1.1761 -0.1160
-0.5294 1.1669 -0.1106
-0.5166 1.1576 -0.1057
-0.4800 1.1729 -0.0805
-0.4642 1.1286 -0.0833
-0.4580 1.1148 -0.0835
-0.4525 1.1001 -0.0842
-0.4284 1.0894 -0.0733
-0.4270 1.0690 -0.0780
-0.4311 1.0393 -0.0884
-0.4310 1.0151 -0.0948
-0.4278 0.9951 -0.0984
-0.5841 0.4530 -0.3354
-0.5744 0.4246 -0.3374
-0.5632 0.3996 -0.3378
-0.5547 0.3675 -0.3415
-0.5409 0.3495 -0.3384
-0.5331 0.3146 -0.3433
-1.1534 1.6757 -0.3017
-1.1482 1.6510 -0.3052
-1.1429 1.6260 -0.3087
-1.1566 1.5760 -0.3290
-1.1564 1.5495 -0.3357
-1.1420 1.4952 -0.3417
-1.1177 1.4408 -0.3424
-1.0964 1.4147 -0.3375
-1.0790 1.3886 -0.3347
-1.0697 1.3613 -0.3366
-1.0218 1.2538 -0.3380
-0.8631 1.2245 -0.2590
-0.8221 1.2154 -0.2391
-0.7932 1.2027 -0.2265
-0.6265 1.2014 -0.1360
-0.6115 1.1895 -0.1309
-0.5937 1.1802 -0.1236
-0.5409 1.1794 -0.0950
-0.5286 1.1693 -0.0909
-0.5145 1.1614 -0.0852
-0.4952 1.1596 -0.0752
-0.4994 1.1342 -0.0840
-0.4916 1.1211 -0.0831
-0.4832 1.1088 -0.0817
-0.4774 1.0936 -0.0824
-0.4728 1.0767 -0.0842
-0.4657 1.0629 -0.0839
-0.4598 1.0475 -0.0846
-0.4348 1.0131 -0.0798
-0.4301 0.9960 -0.0816
-0.4301 0.9698 -0.0883
-0.6120 0.3466 -0.3470
-0.6001 0.3199 -0.3473
-0.5895 0.2896 -0.3493
-0.5776 0.2628 -0.3497
-1.1608 1.4337 -0.3329
-1.0213 1.2526 -0.3052
-0.9509 1.2463 -0.2706
-0.8734 1.2196 -0.2373
-0.7252 1.1882 -0.1689
-0.6123 1.1898 -0.1106
-0.5945 1.1808 -0.1037
-0.5633 1.1833 -0.0870
-0.5450 1.1774 -0.0791
-0.5404 1.1604 -0.0808
-0.5398 1.1393 -0.0856
-0.5309 1.1259 -0.0843
-0.5227 1.1119 -0.0835
-0.5133 1.0995 -0.0816
-0.5065 1.0843 -0.0818
-0.4965 1.0729 -0.0795
-0.4819 1.0444 -0.0789
-0.4800 1.0225 -0.0832
-0.4732 1.0073 -0.0834
-0.4675 0.9902 -0.0846
-0.4562 0.9824 -0.0807
-0.4395 0.9845 -0.0716
-0.4362 0.9639 -0.0749
-0.4438 0.8930 -0.0959
-0.4414 0.8677 -0.1008
-0.6396 0.2942 -0.3411
-0.6286 0.2629 -0.3430
-0.6071 0.2587 -0.3330
-0.6055 0.2023 -0.3459
-0.5887 0.1866 -0.3410
-1.1640 1.6685 -0.2468
-1.2009 1.6227 -0.2750
-0.9653 1.2403 -0.2487
-0.9263 1.2258 -0.2332
-0.8922 1.2113 -0.2201
-0.6388 1.1948 -0.1019
-0.5893 1.1858 -0.0801
-0.5748 1.1755 -0.0755
-0.5779 1.1512 -0.0825
-0.5707 1.1351 -0.0827
-0.5642 1.1182 -0.0834
-0.5535 1.1054 -0.0812
-0.4737 0.9307 -0.0826
-0.4530 0.9108 -0.0771
-0.4523 0.8826 -0.0832
-0.4457 0.8656 -0.0839
-0.4507 0.8234 -0.0959
-0.6827 0.2062 -0.3482
-0.6676 0.1812 -0.3466
-0.6544 0.1516 -0.3470
-0.6394 0.1268 -0.3454
-1.1639 1.6877 -0.2122
-1.1655 1.6644 -0.2179
-1.2385 1.3226 -0.3239
-1.2365 1.2890 -0.3302
-0.9764 1.2354 -0.2246
-0.9465 1.2173 -0.2149
-0.7575 1.1957 -0.1344
-0.7223 1.1906 -0.1197
-0.6251 1.1827 -0.0776
-0.6273 1.1586 -0.0838
-0.6145 1.1454 -0.0808
-0.5842 1.0773 -0.0817
-0.5868 1.0497 -0.0888
-0.6113 0.8116 -0.1508
-0.6050 0.7863 -0.1534
-0.4943 0.8710 -0.0854
-0.4872 0.8529 -0.0860
-0.4568 0.8496 -0.0731
-0.4541 0.8234 -0.0775
-0.7070 0.1002 -0.3461
-0.6912 0.0737 -0.3446
-0.6774 0.0425 -0.3451
-1.1971 1.7799 -0.1780
-1.1707 1.6844 -0.1860
-1.1659 1.6603 -0.1889
-1.2026 1.5351 -0.2294
-0.9711 1.2362 -0.1920
-0.9463 1.2166 -0.1855
-0.7515 1.1991 -0.1073
-0.6905 1.1861 -0.0842
-0.6777 1.1708 -0.0819
-0.6734 1.1500 -0.0843
-0.6615 1.1344 -0.0824
-0.6142 1.0238 -0.0847
-0.6047 1.0070 -0.0841
-0.6133 0.8797 -0.1132
-0.6076 0.8555 -0.1157
-0.6107 0.7835 -0.1314
-0.6014 0.7626 -0.1317
-0.5106 0.8160 -0.0828
-0.5074 0.7886 -0.0870
-0.4988 0.7715 -0.0868
-0.4840 0.7675 -0.0814
-0.7412 -0.0358 -0.3504
-0.7286 -0.0753 -0.3530
-0.7160 -0.1151 -0.3556
-1.1786 1.7270 -0.1517
-1.1642 1.6559 -0.1594
-1.1679 1.6324 -0.1652
-1.2151 1.5586 -0.1974
-1.2100 1.5314 -0.2005
-1.2148 1.5035 -0.2076
-0.7585 1.1956 -0.0873
-0.7416 1.1804 -0.0835
-0.7337 1.1603 -0.0842
-0.7156 1.1469 -0.0796
-0.8979 0.8146 -0.2129
-0.6161 0.8804 -0.0907
-0.6086 0.8589 -0.0918
-0.6151 0.7825 -0.1086
-0.6082 0.7579 -0.1105
-0.5913 0.7496 -0.1055
-0.5489 0.7523 -0.0885
-0.5364 0.7401 -0.0859
-0.5235 0.7294 -0.0828
-0.5070 0.6900 -0.0838
-0.7857 -0.1290 -0.3456
-0.7700 -0.1643 -0.3461
-1.1809 1.7004 -0.1285
-1.1754 1.6765 -0.1307
-1.1715 1.6288 -0.1376
-0.9845 1.2296 -0.1396
-0.8307 1.2100 -0.0876
-0.8078 1.1953 -0.0819
-0.8019 1.1727 -0.0836
-1.0180 0.8344 -0.2204
-0.9075 0.8089 -0.1850
-0.8831 0.7930 -0.1789
-0.8181 0.7825 -0.1574
-0.7720 0.7961 -0.1384
-0.6373 0.8240 -0.0850
-0.6362 0.7915 -0.0902
-0.6244 0.7742 -0.0890
-0.6186 0.7475 -0.0915
-0.6033 0.7361 -0.0880
-0.5751 0.7118 -0.0821
-0.5716 0.6808 -0.0862
-0.5580 0.6687 -0.0834
-0.5430 0.6604 -0.0794
-0.5283 0.6525 -0.0755
-0.8574 -0.2877 -0.3576
-0.8369 -0.3177 -0.3555
-0.8198 -0.3560 -0.3560
-1.1721 1.6947 -0.0979
-1.1743 1.6489 -0.1061
-1.1686 1.6246 -0.1081
-1.1639 1.6001 -0.1105
-1.1832 1.5762 -0.1207
-1.0791 1.2570 -0.1376
-0.9345 1.2190 -0.0957
-0.8870 1.1840 -0.0856
-0.8650 1.1671 -0.0811
-0.9955 1.0021 -0.1509
-1.0426 0.8582 -0.1897
-0.9347 0.8263 -0.1590
-0.9128 0.8072 -0.1549
-0.8933 0.7866 -0.1517
-0.7827 0.7881 -0.1148
-0.7271 0.7811 -0.0975
-0.7056 0.7722 -0.0918
-0.6479 0.7445 -0.0772
-0.6345 0.6913 -0.0813
-0.6201 0.6773 -0.0787
-0.6018 0.6710 -0.0737
-0.5878 0.6580 -0.0711
-0.5751 0.6433 -0.0693
-0.5566 0.6411 -0.0635
-0.5368 0.6431 -0.0567
-0.5186 0.6438 -0.0505
-0.5089 0.6265 -0.0500
-0.8637 -0.3647 -0.3272
-0.8697 -0.4668 -0.3457
-1.1592 1.7739 -0.0544
-1.1653 1.6895 -0.0687
-1.1711 1.6677 -0.0737
-1.1745 1.6449 -0.0781
-1.1786 1.6215 -0.0828
-1.1771 1.5971 -0.0860
-1.1838 1.5725 -0.0917
-1.2023 1.5207 -0.1049
-1.2169 1.4931 -0.1135
-1.2108 1.4654 -0.1157
-1.2126 1.4367 -0.1205
-1.0946 1.2510 -0.1123
-1.0033 1.2210 -0.0891
-0.9948 1.1949 -0.0904
-0.9662 1.1772 -0.0844
-1.0519 0.9313 -0.1468
-1.0483 0.8953 -0.1510
-1.0476 0.8564 -0.1566
-1.0188 0.8383 -0.1505
-0.9172 0.8062 -0.1245
-0.8978 0.7857 -0.1217
-0.8025 0.7701 -0.0951
-0.7818 0.7563 -0.0909
-0.7099 0.6973 -0.0779
-0.6963 0.6784 -0.0765
-0.6785 0.6664 -0.0729
-0.6597 0.6570 -0.0686
-0.6325 0.6634 -0.0594
-0.6128 0.6588 -0.0541
-0.5924 0.6573 -0.0482
-0.5796 0.6427 -0.0465
-0.5401 0.6449 -0.0342
-0.5250 0.6388 -0.0305
-0.5116 0.6298 -0.0278
-0.9212 -0.5794 -0.3312
-1.1697 1.7922 -0.0286
-1.1654 1.7708 -0.0303
-1.1575 1.7485 -0.0312
-1.1725 1.7302 -0.0378
-1.1824 1.7102 -0.0432
-1.1773 1.6871 -0.0450
-1.1721 1.6637 -0.0467
-1.1811 1.6416 -0.0522
-1.1853 1.6181 -0.0565
-1.1839 1.5937 -0.0595
-1.2003 1.5694 -0.0673
-1.2140 1.5437 -0.0745
-1.2292 1.5168 -0.0824
-1.2202 1.4896 -0.0836
-1.2294 1.4609 -0.0900
-1.2301 1.4320 -0.0941
-1.2395 1.4013 -0.1009
-1.2325 1.3408 -0.1071
-1.2118 1.3132 -0.1052
-1.1204 1.2419 -0.0898
-1.1118 1.2133 -0.0913
-1.0779 1.1935 -0.0847
-1.0551 1.1707 -0.0815
-1.0186 1.1545 -0.0737
-1.0279 1.1190 -0.0810
-1.0273 1.0869 -0.0852
-1.0927 0.9447 -0.1225
-1.0596 0.8891 -0.1210
-1.0558 0.8524 -0.1249
-1.0361 0.8271 -0.1229
-0.9550 0.8143 -0.1024
-0.9247 0.8025 -0.0956
-0.8858 0.7621 -0.0904
-0.8086 0.6900 -0.0790
-0.7871 0.6770 -0.0749
-0.7522 0.6833 -0.0644
-0.7278 0.6778 -0.0584
-0.7038 0.6733 -0.0525
-0.6816 0.6681 -0.0471
-0.6640 0.6569 -0.0438
-0.6015 0.6481 -0.0278
