ply
format ascii 1.0
element vertex 2196
property float x
property float y
property float z
end_header
5.2685 2.5431 0.1396
5.2720 2.5441 0.1309
5.2791 2.5458 0.1129
5.2819 2.5442 0.1031
5.2852 2.5436 0.0932
5.2893 2.5451 0.0836
5.2926 2.5444 0.0734
5.3001 2.5447 0.0525
5.3036 2.5436 0.0416
5.3074 2.5435 0.0306
5.3122 2.5453 0.0194
5.3161 2.5449 0.0078
5.3250 2.5457 -0.0162
5.3274 2.5411 -0.0284
5.3315 2.5402 -0.0410
5.3412 2.5410 -0.0672
5.3477 2.5445 -0.0813
5.3524 2.5440 -0.0953
5.3577 2.5443 -0.1097
5.3630 2.5444 -0.1245
5.3665 2.5408 -0.1386
5.3728 2.5424 -0.1546
5.3783 2.5421 -0.1704
5.3843 2.5424 -0.1868
5.3904 2.5426 -0.2037
5.3970 2.5434 -0.2214
5.4032 2.5432 -0.2391
5.4114 2.5460 -0.2589
5.4198 2.5485 -0.2793
5.4227 2.5421 -0.2951
5.4281 2.5396 -0.3134
5.4377 2.5430 -0.3363
5.4489 2.5483 -0.3615
5.4556 2.5466 -0.3823
5.4629 2.5454 -0.4042
5.4697 2.5433 -0.4259
5.4766 2.5410 -0.4480
5.4836 2.5386 -0.4706
5.4879 2.5326 -0.4900
5.5020 2.5384 -0.5226
5.5081 2.5340 -0.5450
5.5016 2.5147 -0.5499
5.4954 2.4965 -0.5547
5.4853 2.4743 -0.5529
5.4783 2.4563 -0.5551
5.4678 2.4352 -0.5512
5.4629 2.4203 -0.5551
5.4526 2.4007 -0.5500
5.4503 2.3894 -0.5571
5.4409 2.3717 -0.5521
5.4373 2.3599 -0.5562
5.4282 2.3435 -0.5504
5.4256 2.3333 -0.5553
5.4204 2.3212 -0.5555
5.4152 2.3094 -0.5551
5.4081 2.2964 -0.5507
5.2487 2.5450 0.1627
5.2513 2.5439 0.1539
5.2535 2.5416 0.1446
5.2579 2.5463 0.1373
5.2606 2.5450 0.1279
5.2643 2.5470 0.1194
5.2670 2.5455 0.1097
5.2701 2.5451 0.1001
5.2744 2.5479 0.0909
5.2768 2.5451 0.0804
5.2789 2.5411 0.0697
5.2832 2.5435 0.0597
5.2858 2.5405 0.0489
5.2906 2.5437 0.0385
5.2951 2.5457 0.0276
5.3001 2.5486 0.0164
5.3031 2.5462 0.0047
5.3053 2.5417 -0.0071
5.3108 2.5451 -0.0193
5.3148 2.5444 -0.0316
5.3196 2.5455 -0.0444
5.3240 2.5455 -0.0574
5.3285 2.5454 -0.0707
5.3318 2.5423 -0.0839
5.3359 2.5410 -0.0975
5.3414 2.5423 -0.1121
5.3478 2.5452 -0.1275
5.3530 2.5452 -0.1426
5.3569 2.5425 -0.1572
5.3631 2.5439 -0.1736
5.3679 2.5426 -0.1895
5.3715 2.5386 -0.2045
5.3797 2.5429 -0.2236
5.3847 2.5411 -0.2404
5.3917 2.5424 -0.2593
5.3983 2.5427 -0.2782
5.4068 2.5459 -0.2995
5.4150 2.5480 -0.3209
5.4179 2.5415 -0.3371
5.4287 2.5469 -0.3623
5.4341 2.5439 -0.3819
5.4401 2.5414 -0.4024
5.4467 2.5395 -0.4239
5.4564 2.5415 -0.4498
5.4729 2.5407 -0.4994
5.4886 2.5492 -0.5353
5.4868 2.5348 -0.5466
5.4817 2.5168 -0.5529
5.4760 2.4985 -0.5575
5.4654 2.4751 -0.5539
5.4600 2.4582 -0.5576
5.4517 2.4388 -0.5561
5.4449 2.4216 -0.5563
5.4369 2.4036 -0.5538
5.4315 2.3888 -0.5551
5.4259 2.3744 -0.5557
5.4225 2.3625 -0.5597
5.4174 2.3493 -0.5601
5.4082 2.3327 -0.5523
5.4045 2.3216 -0.5545
5.4001 2.3103 -0.5550
5.3963 2.2997 -0.5561
5.2371 2.5433 0.1588
5.2412 2.5483 0.1521
5.2437 2.5471 0.1431
5.2472 2.5495 0.1350
5.2495 2.5470 0.1253
5.2521 2.5456 0.1158
5.2550 2.5453 0.1064
5.2580 2.5449 0.0968
5.2614 2.5456 0.0872
5.2645 2.5450 0.0772
5.2675 2.5443 0.0670
5.2707 2.5435 0.0566
5.2735 2.5416 0.0459
5.2784 2.5459 0.0355
5.2828 2.5479 0.0246
5.2853 2.5446 0.0131
5.2901 2.5474 0.0017
5.2923 2.5429 -0.0102
5.2960 2.5424 -0.0222
5.3002 2.5428 -0.0345
5.3060 2.5469 -0.0475
5.3103 2.5470 -0.0605
5.3134 2.5440 -0.0734
5.3174 2.5429 -0.0868
5.3222 2.5435 -0.1008
5.3258 2.5411 -0.1146
5.3315 2.5433 -0.1297
5.3361 2.5425 -0.1445
5.3419 2.5442 -0.1605
5.3517 2.5427 -0.1920
5.3565 2.5413 -0.2081
5.3634 2.5440 -0.2265
5.3692 2.5439 -0.2441
5.3840 2.5488 -0.2839
5.3886 2.5457 -0.3015
5.3946 2.5448 -0.3208
5.4002 2.5430 -0.3401
5.4087 2.5455 -0.3631
5.4177 2.5485 -0.3873
5.4245 2.5475 -0.4091
5.4275 2.5405 -0.4263
5.4349 2.5399 -0.4495
5.4443 2.5418 -0.4760
5.4523 2.5413 -0.5010
5.4623 2.5433 -0.5296
5.4681 2.5390 -0.5520
5.4522 2.4949 -0.5530
5.4457 2.4758 -0.5548
5.4386 2.4565 -0.5548
5.4309 2.4370 -0.5530
5.4240 2.4192 -0.5520
5.4196 2.4047 -0.5547
5.4135 2.3888 -0.5540
5.4073 2.3733 -0.5524
5.4036 2.3609 -0.5551
5.3993 2.3482 -0.5562
5.3959 2.3368 -0.5589
5.3893 2.3226 -0.5545
5.3858 2.3117 -0.5559
5.3800 2.2992 -0.5523
5.3768 2.2893 -0.5539
5.3742 2.2802 -0.5562
5.2271 2.5476 0.1571
5.2290 2.5442 0.1476
5.2323 2.5467 0.1398
5.2350 2.5467 0.1310
5.2375 2.5455 0.1217
5.2409 2.5476 0.1131
5.2435 2.5462 0.1034
5.2461 2.5447 0.0936
5.2493 2.5454 0.0841
5.2519 2.5438 0.0739
5.2552 2.5442 0.0639
5.2582 2.5435 0.0535
5.2629 2.5480 0.0435
5.2643 2.5417 0.0321
5.2691 2.5460 0.0214
5.2729 2.5469 0.0102
5.2768 2.5477 -0.0014
5.2797 2.5452 -0.0132
5.2829 2.5438 -0.0252
5.2859 2.5412 -0.0374
5.2906 2.5435 -0.0501
5.2958 2.5465 -0.0634
5.2996 2.5455 -0.0765
5.3027 2.5425 -0.0896
5.3084 2.5460 -0.1042
5.3123 2.5446 -0.1181
5.3174 2.5458 -0.1331
5.3218 2.5451 -0.1479
5.3251 2.5415 -0.1622
5.3303 2.5423 -0.1782
5.3369 2.5454 -0.1956
5.3414 2.5441 -0.2118
5.3465 2.5434 -0.2286
5.3516 2.5426 -0.2458
5.3563 2.5408 -0.2629
5.3620 2.5405 -0.2812
5.3694 2.5431 -0.3019
5.3785 2.5486 -0.3253
5.3831 2.5453 -0.3436
5.3899 2.5456 -0.3649
5.3959 2.5442 -0.3855
5.4011 2.5411 -0.4053
5.4129 2.5367 -0.4478
5.4227 2.5402 -0.4755
5.4268 2.5344 -0.4947
5.4442 2.5481 -0.5357
5.4470 2.5398 -0.5536
5.4409 2.5191 -0.5563
5.4327 2.4962 -0.5549
5.4248 2.4745 -0.5531
5.4201 2.4577 -0.5563
5.4139 2.4394 -0.5560
5.4070 2.4209 -0.5540
5.3995 2.4023 -0.5500
5.3982 2.3916 -0.5576
5.3865 2.3608 -0.5535
5.3820 2.3475 -0.5534
5.3779 2.3351 -0.5536
5.3699 2.3116 -0.5535
5.3642 2.2916 -0.5569
5.2160 2.5471 0.1538
5.2183 2.5461 0.1450
5.2209 2.5463 0.1364
5.2236 2.5464 0.1277
5.2257 2.5440 0.1181
5.2295 2.5485 0.1101
5.2320 2.5471 0.1005
5.2342 2.5445 0.0904
5.2375 2.5464 0.0811
5.2418 2.5514 0.0720
5.2441 2.5485 0.0614
5.2467 2.5467 0.0508
5.2484 2.5416 0.0397
5.2517 2.5418 0.0291
5.2565 2.5471 0.0184
5.2590 2.5439 0.0070
5.2617 2.5417 -0.0045
5.2658 2.5435 -0.0162
5.2699 2.5451 -0.0282
5.2730 2.5435 -0.0404
5.2769 2.5438 -0.0530
5.2812 2.5450 -0.0661
5.2848 2.5441 -0.0792
5.2885 2.5431 -0.0925
5.2922 2.5419 -0.1061
5.2967 2.5425 -0.1204
5.3022 2.5456 -0.1358
5.3065 2.5450 -0.1505
5.3096 2.5415 -0.1648
5.3154 2.5440 -0.1814
5.3198 2.5429 -0.1971
5.3242 2.5417 -0.2131
5.3301 2.5436 -0.2311
5.3354 2.5437 -0.2486
5.3501 2.5514 -0.2898
5.3541 2.5476 -0.3068
5.3568 2.5414 -0.3225
5.3628 2.5413 -0.3426
5.3713 2.5456 -0.3666
5.3746 2.5398 -0.3836
5.3813 2.5398 -0.4057
5.3875 2.5389 -0.4276
5.3986 2.5457 -0.4575
5.4016 2.5386 -0.4750
5.4094 2.5391 -0.5006
5.4178 2.5400 -0.5275
5.4236 2.5366 -0.5504
5.4192 2.5178 -0.5552
5.4161 2.5014 -0.5617
5.4097 2.4809 -0.5615
5.3996 2.4558 -0.5533
5.3960 2.4406 -0.5573
5.3901 2.4226 -0.5559
5.3840 2.4051 -0.5537
5.3792 2.3897 -0.5535
5.3757 2.3764 -0.5555
5.3726 2.3639 -0.5580
5.3661 2.3479 -0.5525
5.3642 2.3376 -0.5569
5.3603 2.3254 -0.5565
5.3539 2.3110 -0.5499
5.3518 2.3014 -0.5527
5.3491 2.2915 -0.5540
5.2048 2.5454 0.1500
5.2070 2.5444 0.1413
5.2097 2.5458 0.1332
5.2123 2.5459 0.1244
5.2143 2.5436 0.1149
5.2164 2.5412 0.1053
5.2190 2.5411 0.0960
5.2227 2.5454 0.0875
5.2253 2.5450 0.0778
5.2275 2.5423 0.0675
5.2313 2.5462 0.0580
5.2341 2.5456 0.0476
5.2369 2.5448 0.0370
5.2395 2.5429 0.0261
5.2427 2.5430 0.0152
5.2470 2.5472 0.0041
5.2497 2.5450 -0.0074
5.2541 2.5488 -0.0193
5.2560 2.5433 -0.0311
5.2596 2.5438 -0.0434
5.2630 2.5432 -0.0559
5.2668 2.5435 -0.0687
5.2715 2.5465 -0.0824
5.2731 2.5398 -0.0947
5.2764 2.5378 -0.1079
5.2819 2.5422 -0.1230
5.2872 2.5454 -0.1384
5.2916 2.5457 -0.1534
5.2940 2.5405 -0.1670
5.3002 2.5449 -0.1842
5.3037 2.5421 -0.1992
5.3083 2.5418 -0.2156
5.3118 2.5387 -0.2310
5.3197 2.5457 -0.2519
5.3252 2.5464 -0.2704
5.3286 2.5421 -0.2864
5.3379 2.5506 -0.3107
5.3403 2.5435 -0.3258
5.3490 2.5498 -0.3505
5.3522 2.5441 -0.3672
5.3581 2.5436 -0.3883
5.3633 2.5415 -0.4086
5.3702 2.5421 -0.4318
5.3755 2.5396 -0.4529
5.3853 2.5447 -0.4821
5.3891 2.5389 -0.5013
5.3967 2.5393 -0.5274
5.4048 2.5400 -0.5549
5.4004 2.5205 -0.5588
5.3943 2.4988 -0.5585
5.3884 2.4783 -0.5580
5.3820 2.4576 -0.5556
5.3766 2.4392 -0.5549
5.3746 2.4261 -0.5607
5.3699 2.4097 -0.5603
5.3629 2.3907 -0.5541
5.3597 2.3774 -0.5560
5.3542 2.3615 -0.5521
5.3517 2.3499 -0.5548
5.3482 2.3374 -0.5548
5.3456 2.3263 -0.5564
5.3400 2.3123 -0.5507
5.3367 2.2938 -0.5570
5.1939 2.5448 0.1467
5.1958 2.5427 0.1377
5.1980 2.5418 0.1289
5.2012 2.5467 0.1215
5.2035 2.5456 0.1123
5.2059 2.5455 0.1032
5.2082 2.5442 0.0936
5.2110 2.5452 0.0844
5.2138 2.5460 0.0748
5.2168 2.5478 0.0652
5.2190 2.5450 0.0548
5.2219 2.5455 0.0445
5.2246 2.5448 0.0340
5.2268 2.5418 0.0230
5.2301 2.5430 0.0122
5.2339 2.5463 0.0011
5.2365 2.5441 -0.0104
5.2396 2.5439 -0.0221
5.2425 2.5425 -0.0339
5.2510 2.5486 -0.0593
5.2534 2.5449 -0.0717
5.2562 2.5421 -0.0844
5.2605 2.5441 -0.0982
5.2659 2.5497 -0.1132
5.2673 2.5419 -0.1256
5.2718 2.5433 -0.1404
5.2756 2.5428 -0.1551
5.2795 2.5421 -0.1701
5.2844 2.5440 -0.1863
5.2885 2.5430 -0.2020
5.2932 2.5436 -0.2187
5.2983 2.5449 -0.2363
5.3031 2.5451 -0.2538
5.3110 2.5526 -0.2760
5.3153 2.5507 -0.2936
5.3177 2.5438 -0.3084
5.3220 2.5417 -0.3265
5.3282 2.5434 -0.3477
5.3349 2.5455 -0.3700
5.3387 2.5414 -0.3881
5.3466 2.5453 -0.4133
5.3506 2.5408 -0.4320
5.3568 2.5406 -0.4551
5.3642 2.5423 -0.4808
5.3706 2.5415 -0.5049
5.3782 2.5426 -0.5318
5.3825 2.5373 -0.5523
5.3809 2.5218 -0.5608
5.3714 2.4935 -0.5518
5.3668 2.4743 -0.5526
5.3629 2.4568 -0.5543
5.3588 2.4397 -0.5551
5.3554 2.4241 -0.5570
5.3511 2.4077 -0.5563
5.3475 2.3928 -0.5567
5.3442 2.3789 -0.5575
5.3408 2.3652 -0.5576
5.3365 2.3508 -0.5549
5.3301 2.3261 -0.5540
5.3263 2.3136 -0.5515
5.3264 2.3060 -0.5589
5.3220 2.2936 -0.5541
5.1833 2.5455 0.1438
5.1855 2.5458 0.1355
5.1878 2.5461 0.1270
5.1906 2.5499 0.1192
5.1926 2.5475 0.1097
5.1946 2.5452 0.1000
5.1970 2.5451 0.0907
5.1992 2.5437 0.0810
5.2014 2.5423 0.0712
5.2043 2.5442 0.0617
5.2079 2.5493 0.0522
5.2098 2.5454 0.0415
5.2122 2.5436 0.0309
5.2155 2.5461 0.0203
5.2186 2.5474 0.0094
5.2215 2.5474 -0.0018
5.2238 2.5442 -0.0133
5.2265 2.5430 -0.0249
5.2308 2.5479 -0.0371
5.2336 2.5465 -0.0493
5.2362 2.5439 -0.0616
5.2401 2.5463 -0.0747
5.2436 2.5465 -0.0879
5.2543 2.5462 -0.1293
5.2577 2.5449 -0.1435
5.2622 2.5472 -0.1590
5.2651 2.5438 -0.1731
5.2692 2.5439 -0.1888
5.2722 2.5403 -0.2033
5.2778 2.5445 -0.2215
5.2812 2.5416 -0.2370
5.2842 2.5377 -0.2522
5.2907 2.5429 -0.2727
5.2948 2.5412 -0.2900
5.2999 2.5418 -0.3091
5.3070 2.5470 -0.3320
5.3142 2.5518 -0.3556
5.3179 2.5478 -0.3734
5.3227 2.5459 -0.3933
5.3261 2.5409 -0.4110
5.3313 2.5395 -0.4321
5.3386 2.5423 -0.4579
5.3446 2.5419 -0.4815
5.3518 2.5434 -0.5078
5.3573 2.5411 -0.5309
5.3600 2.5331 -0.5480
5.3565 2.5137 -0.5512
5.3487 2.4755 -0.5541
5.3445 2.4566 -0.5537
5.3419 2.4413 -0.5571
5.3374 2.4233 -0.5551
5.3324 2.4051 -0.5512
5.3310 2.3932 -0.5563
5.3293 2.3809 -0.5600
5.3238 2.3638 -0.5537
5.3203 2.3499 -0.5518
5.3178 2.3380 -0.5525
5.3157 2.3269 -0.5538
5.3120 2.3063 -0.5572
5.3084 2.2943 -0.5534
5.3080 2.2866 -0.5588
5.1723 2.5424 0.1398
5.1746 2.5441 0.1319
5.1767 2.5444 0.1235
5.1791 2.5458 0.1151
5.1814 2.5471 0.1065
5.1838 2.5483 0.0976
5.1858 2.5459 0.0878
5.1881 2.5457 0.0784
5.1908 2.5478 0.0690
5.1926 2.5440 0.0586
5.1954 2.5458 0.0488
5.1974 2.5431 0.0383
5.2001 2.5436 0.0279
5.2024 2.5417 0.0171
5.2055 2.5442 0.0064
5.2081 2.5432 -0.0048
5.2117 2.5475 -0.0163
5.2142 2.5453 -0.0279
5.2173 2.5461 -0.0399
5.2204 2.5467 -0.0522
5.2232 2.5452 -0.0646
5.2262 2.5446 -0.0773
5.2297 2.5459 -0.0906
5.2331 2.5460 -0.1040
5.2370 2.5479 -0.1182
5.2397 2.5449 -0.1316
5.2444 2.5493 -0.1473
5.2472 2.5460 -0.1612
5.2536 2.5420 -0.1905
5.2570 2.5403 -0.2056
5.2610 2.5402 -0.2218
5.2655 2.5417 -0.2392
5.2760 2.5473 -0.2773
5.2783 2.5407 -0.2917
5.2895 2.5459 -0.3331
5.2933 2.5429 -0.3509
5.2993 2.5453 -0.3732
5.3044 2.5451 -0.3942
5.3081 2.5409 -0.4124
5.3127 2.5388 -0.4329
5.3196 2.5418 -0.4586
5.3308 2.5402 -0.5053
5.3374 2.5409 -0.5314
5.3404 2.5337 -0.5492
5.3383 2.5163 -0.5546
5.3362 2.4992 -0.5594
5.3305 2.4759 -0.5546
5.3270 2.4577 -0.5550
5.3238 2.4405 -0.5554
5.3208 2.4243 -0.5560
5.3191 2.4108 -0.5597
5.3122 2.3795 -0.5563
5.3098 2.3664 -0.5571
5.3051 2.3502 -0.5508
5.3033 2.3388 -0.5524
5.3022 2.3287 -0.5558
5.2995 2.3167 -0.5542
5.2986 2.3075 -0.5579
5.2973 2.2981 -0.5600
5.2931 2.2853 -0.5531
5.1620 2.5443 0.1373
5.1646 2.5509 0.1308
5.1664 2.5487 0.1216
5.1725 2.5468 0.0943
5.1749 2.5491 0.0854
5.1764 2.5431 0.0749
5.1788 2.5441 0.0655
5.1813 2.5461 0.0559
5.1839 2.5479 0.0461
5.1859 2.5452 0.0355
5.1881 2.5435 0.0250
5.1905 2.5428 0.0143
5.1929 2.5420 0.0034
5.1961 2.5454 -0.0077
5.1991 2.5476 -0.0191
5.2013 2.5444 -0.0307
5.2044 2.5463 -0.0427
5.2072 2.5460 -0.0549
5.2131 2.5460 -0.0802
5.2158 2.5443 -0.0930
5.2190 2.5445 -0.1064
5.2220 2.5436 -0.1199
5.2257 2.5455 -0.1344
5.2285 2.5433 -0.1481
5.2323 2.5448 -0.1633
5.2348 2.5407 -0.1770
5.2429 2.5438 -0.2094
5.2460 2.5410 -0.2245
5.2547 2.5439 -0.2598
5.2584 2.5425 -0.2767
5.2640 2.5468 -0.2974
5.2668 2.5417 -0.3129
5.2786 2.5498 -0.3577
5.2826 2.5475 -0.3765
5.2858 2.5427 -0.3938
5.2913 2.5439 -0.4165
5.2969 2.5449 -0.4397
5.3037 2.5486 -0.4663
5.3072 2.5432 -0.4848
5.3109 2.5385 -0.5043
5.3213 2.5491 -0.5412
5.3222 2.5370 -0.5536
5.3193 2.5168 -0.5556
5.3166 2.4977 -0.5575
5.3134 2.4783 -0.5578
5.3104 2.4600 -0.5580
5.3066 2.4408 -0.5555
5.3056 2.4277 -0.5607
5.3019 2.4099 -0.5575
5.2987 2.3938 -0.5554
5.2954 2.3780 -0.5525
5.2944 2.3666 -0.5562
5.2912 2.3521 -0.5530
5.2900 2.3412 -0.5556
5.2874 2.3284 -0.5533
5.2860 2.3179 -0.5550
5.2842 2.3072 -0.5550
5.2831 2.2978 -0.5569
5.2812 2.2875 -0.5560
5.1542 2.5540 0.1286
5.1563 2.5556 0.1203
5.1590 2.5643 0.1135
5.1600 2.5535 0.1018
5.1616 2.5487 0.0917
5.1633 2.5452 0.0817
5.1654 2.5451 0.0723
5.1675 2.5449 0.0626
5.1699 2.5470 0.0531
5.1724 2.5489 0.0432
5.1747 2.5495 0.0329
5.1768 2.5478 0.0223
5.1787 2.5438 0.0114
5.1810 2.5431 0.0006
5.1839 2.5465 -0.0106
5.1865 2.5466 -0.0220
5.1890 2.5466 -0.0336
5.1915 2.5454 -0.0455
5.1941 2.5452 -0.0576
5.1972 2.5468 -0.0703
5.1999 2.5463 -0.0830
5.2034 2.5497 -0.0967
5.2059 2.5469 -0.1096
5.2091 2.5480 -0.1235
5.2116 2.5450 -0.1368
5.2146 2.5439 -0.1508
5.2179 2.5445 -0.1657
5.2214 2.5450 -0.1810
5.2244 2.5435 -0.1958
5.2286 2.5464 -0.2129
5.2324 2.5472 -0.2296
5.2359 2.5461 -0.2459
5.2387 2.5423 -0.2611
5.2422 2.5410 -0.2779
5.2476 2.5462 -0.2991
5.2515 2.5454 -0.3172
5.2562 2.5468 -0.3374
5.2599 2.5447 -0.3557
5.2645 2.5449 -0.3762
5.2681 2.5418 -0.3945
5.2731 2.5424 -0.4165
5.2773 2.5404 -0.4369
5.2826 2.5413 -0.4605
5.2881 2.5420 -0.4846
5.2941 2.5438 -0.5108
5.2989 2.5418 -0.5338
5.3018 2.5347 -0.5514
5.3019 2.5207 -0.5607
5.2991 2.5001 -0.5608
5.2938 2.4747 -0.5529
5.2918 2.4577 -0.5546
5.2914 2.4450 -0.5612
5.2880 2.4261 -0.5576
5.2857 2.4102 -0.5571
5.2845 2.3970 -0.5599
5.2803 2.3788 -0.5528
5.2789 2.3662 -0.5542
5.2771 2.3534 -0.5540
5.2761 2.3425 -0.5566
5.2738 2.3296 -0.5541
5.2730 2.3197 -0.5568
5.2708 2.3079 -0.5544
5.2699 2.2984 -0.5562
5.2689 2.2892 -0.5576
5.1439 2.5609 0.1274
5.1479 2.5650 0.1106
5.1498 2.5651 0.1013
5.1519 2.5662 0.0921
5.1537 2.5637 0.0820
5.1556 2.5623 0.0720
5.1573 2.5574 0.0614
5.1599 2.5628 0.0520
5.1614 2.5555 0.0409
5.1628 2.5482 0.0299
5.1647 2.5454 0.0193
5.1672 2.5481 0.0087
5.1692 2.5452 -0.0023
5.1711 2.5412 -0.0133
5.1742 2.5478 -0.0249
5.1762 2.5446 -0.0363
5.1787 2.5445 -0.0482
5.1815 2.5464 -0.0605
5.1843 2.5481 -0.0732
5.1868 2.5466 -0.0857
5.1891 2.5441 -0.0983
5.1916 2.5424 -0.1112
5.1945 2.5426 -0.1248
5.1980 2.5465 -0.1398
5.2013 2.5483 -0.1547
5.2047 2.5499 -0.1700
5.2069 2.5448 -0.1833
5.2104 2.5461 -0.1992
5.2130 2.5426 -0.2136
5.2166 2.5436 -0.2302
5.2194 2.5409 -0.2454
5.2233 2.5424 -0.2632
5.2265 2.5403 -0.2795
5.2315 2.5456 -0.3007
5.2344 2.5415 -0.3166
5.2423 2.5411 -0.3548
5.2468 2.5423 -0.3757
5.2498 2.5377 -0.3927
5.2553 2.5415 -0.4171
5.2601 2.5420 -0.4395
5.2660 2.5460 -0.4660
5.2693 2.5407 -0.4843
5.2735 2.5383 -0.5058
5.2788 2.5386 -0.5309
5.2844 2.5394 -0.5574
5.2824 2.5190 -0.5590
5.2793 2.4964 -0.5562
5.2778 2.4790 -0.5586
5.2760 2.4613 -0.5594
5.2724 2.4401 -0.5536
5.2719 2.4270 -0.5584
5.2679 2.3954 -0.5562
5.2643 2.3670 -0.5543
5.2630 2.3547 -0.5551
5.2617 2.3426 -0.5553
5.2609 2.3319 -0.5572
5.2591 2.3199 -0.5552
5.2582 2.3096 -0.5561
5.2581 2.3012 -0.5603
5.2564 2.2903 -0.5580
5.1297 2.5556 0.1399
5.1310 2.5448 0.1285
5.1327 2.5466 0.1206
5.1343 2.5446 0.1115
5.1361 2.5474 0.1034
5.1377 2.5428 0.0936
5.1401 2.5563 0.0871
5.1444 2.5656 0.0695
5.1462 2.5641 0.0593
5.1484 2.5672 0.0494
5.1504 2.5656 0.0388
5.1523 2.5627 0.0280
5.1544 2.5632 0.0172
5.1563 2.5591 0.0061
5.1583 2.5572 -0.0051
5.1606 2.5585 -0.0165
5.1624 2.5532 -0.0279
5.1642 2.5479 -0.0393
5.1666 2.5489 -0.0513
5.1687 2.5456 -0.0631
5.1713 2.5473 -0.0758
5.1738 2.5469 -0.0885
5.1761 2.5454 -0.1012
5.1793 2.5497 -0.1154
5.1810 2.5420 -0.1272
5.1844 2.5470 -0.1425
5.1869 2.5450 -0.1562
5.1896 2.5439 -0.1704
5.1929 2.5463 -0.1863
5.1959 2.5459 -0.2015
5.1986 2.5434 -0.2162
5.2021 2.5453 -0.2332
5.2045 2.5409 -0.2475
5.2085 2.5442 -0.2663
5.2122 2.5456 -0.2845
5.2158 2.5459 -0.3027
5.2187 2.5426 -0.3191
5.2220 2.5409 -0.3369
5.2256 2.5399 -0.3555
5.2312 2.5468 -0.3808
5.2341 2.5422 -0.3978
5.2383 2.5422 -0.4190
5.2423 2.5412 -0.4400
5.2475 2.5438 -0.4650
5.2523 2.5446 -0.4892
5.2561 2.5415 -0.5100
5.2631 2.5483 -0.5424
5.2646 2.5370 -0.5551
5.2640 2.5194 -0.5598
5.2630 2.5016 -0.5629
5.2601 2.4787 -0.5581
5.2577 2.4583 -0.5549
5.2569 2.4429 -0.5573
5.2566 2.4298 -0.5621
5.2522 2.3949 -0.5546
5.2514 2.3821 -0.5564
5.2508 2.3701 -0.5587
5.2491 2.3559 -0.5561
5.2483 2.3444 -0.5573
5.2472 2.3326 -0.5568
5.2457 2.3205 -0.5547
5.2453 2.3108 -0.5567
5.2439 2.2997 -0.5546
5.1208 2.5442 0.1253
5.1223 2.5410 0.1161
5.1238 2.5403 0.1075
5.1254 2.5420 0.0993
5.1270 2.5399 0.0900
5.1286 2.5366 0.0805
5.1305 2.5439 0.0726
5.1322 2.5440 0.0633
5.1339 2.5428 0.0536
5.1359 2.5485 0.0444
5.1378 2.5482 0.0344
5.1405 2.5649 0.0252
5.1423 2.5620 0.0142
5.1442 2.5591 0.0032
5.1465 2.5638 -0.0080
5.1487 2.5640 -0.0195
5.1508 2.5629 -0.0312
5.1531 2.5639 -0.0433
5.1556 2.5669 -0.0559
5.1575 2.5624 -0.0679
5.1596 2.5589 -0.0802
5.1634 2.5487 -0.1045
5.1654 2.5441 -0.1167
5.1684 2.5483 -0.1314
5.1707 2.5465 -0.1448
5.1730 2.5436 -0.1582
5.1756 2.5426 -0.1723
5.1785 2.5442 -0.1878
5.1816 2.5465 -0.2041
5.1875 2.5461 -0.2358
5.1901 2.5435 -0.2510
5.1934 2.5442 -0.2683
5.1959 2.5405 -0.2836
5.1997 2.5435 -0.3032
5.2041 2.5488 -0.3250
5.2068 2.5446 -0.3412
5.2104 2.5444 -0.3605
5.2141 2.5449 -0.3809
5.2172 2.5411 -0.3984
5.2219 2.5451 -0.4230
5.2254 2.5426 -0.4426
5.2293 2.5415 -0.4640
5.2339 2.5432 -0.4888
5.2385 2.5439 -0.5134
5.2424 2.5414 -0.5354
5.2456 2.5359 -0.5543
5.2457 2.5198 -0.5605
5.2434 2.4957 -0.5555
5.2435 2.4810 -0.5611
5.2416 2.4605 -0.5577
5.2405 2.4431 -0.5572
5.2388 2.4248 -0.5539
5.2391 2.4132 -0.5598
5.2379 2.3975 -0.5580
5.2362 2.3816 -0.5544
5.2359 2.3696 -0.5565
5.2350 2.3566 -0.5559
5.2335 2.3428 -0.5525
5.2339 2.3338 -0.5576
5.2320 2.3200 -0.5517
5.2325 2.3119 -0.5572
5.2314 2.3008 -0.5550
5.1107 2.5435 0.1222
5.1121 2.5441 0.1140
5.1136 2.5422 0.1050
5.1151 2.5426 0.0965
5.1166 2.5442 0.0880
5.1182 2.5457 0.0793
5.1197 2.5411 0.0693
5.1213 2.5412 0.0600
5.1229 2.5377 0.0501
5.1246 2.5423 0.0409
5.1264 2.5456 0.0313
5.1281 2.5419 0.0209
5.1299 2.5416 0.0106
5.1317 2.5411 0.0001
5.1336 2.5428 -0.0107
5.1355 2.5432 -0.0217
5.1378 2.5511 -0.0334
5.1400 2.5555 -0.0454
5.1417 2.5480 -0.0567
5.1437 2.5469 -0.0687
5.1467 2.5612 -0.0833
5.1490 2.5607 -0.0963
5.1511 2.5581 -0.1090
5.1539 2.5645 -0.1241
5.1566 2.5675 -0.1390
5.1585 2.5606 -0.1515
5.1607 2.5576 -0.1651
5.1630 2.5545 -0.1789
5.1649 2.5476 -0.1915
5.1673 2.5453 -0.2059
5.1699 2.5439 -0.2209
5.1723 2.5415 -0.2357
5.1753 2.5425 -0.2526
5.1777 2.5389 -0.2675
5.1816 2.5457 -0.2886
5.1842 2.5419 -0.3041
5.1867 2.5380 -0.3197
5.1905 2.5415 -0.3408
5.1939 2.5423 -0.3606
5.1973 2.5420 -0.3802
5.2009 2.5424 -0.4009
5.2039 2.5394 -0.4193
5.2074 2.5379 -0.4394
5.2113 2.5384 -0.4621
5.2166 2.5448 -0.4914
5.2195 2.5396 -0.5097
5.2247 2.5439 -0.5388
5.2271 2.5355 -0.5544
5.2267 2.5159 -0.5560
5.2263 2.4973 -0.5577
5.2264 2.4812 -0.5614
5.2238 2.4560 -0.5512
5.2238 2.4413 -0.5541
5.2233 2.4256 -0.5545
5.2229 2.4108 -0.5552
5.2228 2.3976 -0.5573
5.2222 2.3835 -0.5567
5.2208 2.3678 -0.5522
5.2215 2.3584 -0.5580
5.2206 2.3451 -0.5556
5.2210 2.3356 -0.5595
5.2199 2.3228 -0.5559
5.2196 2.3125 -0.5565
5.2195 2.3030 -0.5579
5.2201 2.2952 -0.5627
5.1007 2.5427 0.1191
5.1020 2.5434 0.1109
5.1034 2.5415 0.1020
5.1048 2.5433 0.0937
5.1062 2.5437 0.0850
5.1076 2.5440 0.0761
5.1091 2.5442 0.0669
5.1106 2.5455 0.0578
5.1121 2.5432 0.0479
5.1137 2.5420 0.0381
5.1153 2.5419 0.0282
5.1169 2.5394 0.0180
5.1186 2.5425 0.0078
5.1202 2.5398 -0.0027
5.1220 2.5427 -0.0134
5.1237 2.5420 -0.0244
5.1255 2.5413 -0.0355
5.1273 2.5394 -0.0468
5.1292 2.5407 -0.0586
5.1312 2.5428 -0.0708
5.1332 2.5427 -0.0830
5.1354 2.5487 -0.0967
5.1377 2.5524 -0.1104
5.1396 2.5478 -0.1227
5.1449 2.5631 -0.1547
5.1472 2.5620 -0.1690
5.1498 2.5647 -0.1850
5.1544 2.5591 -0.2139
5.1575 2.5649 -0.2326
5.1595 2.5577 -0.2458
5.1610 2.5451 -0.2560
5.1639 2.5469 -0.2739
5.1665 2.5449 -0.2901
5.1690 2.5420 -0.3060
5.1721 2.5432 -0.3250
5.1752 2.5443 -0.3444
5.1782 2.5434 -0.3631
5.1815 2.5441 -0.3833
5.1844 2.5413 -0.4014
5.1875 2.5400 -0.4211
5.1904 2.5361 -0.4390
5.1945 2.5399 -0.4645
5.1982 2.5403 -0.4877
5.2022 2.5412 -0.5122
5.2066 2.5441 -0.5397
5.2089 2.5351 -0.5543
5.2082 2.5118 -0.5514
5.2087 2.4954 -0.5554
5.2089 2.4786 -0.5579
5.2084 2.4595 -0.5559
5.2084 2.4434 -0.5568
5.2083 2.4276 -0.5571
5.2087 2.4147 -0.5607
5.2079 2.3977 -0.5565
5.2081 2.3854 -0.5589
5.2076 2.3709 -0.5565
5.2075 2.3585 -0.5567
5.2075 2.3356 -0.5578
5.2063 2.3217 -0.5516
5.2071 2.3136 -0.5569
5.2066 2.3025 -0.5545
5.2071 2.2942 -0.5579
5.0908 2.5420 0.1160
5.0919 2.5440 0.1082
5.0932 2.5434 0.0995
5.0947 2.5389 0.0900
5.0959 2.5419 0.0818
5.0972 2.5423 0.0729
5.0986 2.5425 0.0638
5.1000 2.5427 0.0545
5.1014 2.5416 0.0449
5.1029 2.5416 0.0353
5.1043 2.5427 0.0255
5.1059 2.5368 0.0151
5.1074 2.5400 0.0050
5.1089 2.5407 -0.0054
5.1106 2.5392 -0.0161
5.1121 2.5441 -0.0272
5.1138 2.5424 -0.0383
5.1155 2.5384 -0.0494
5.1173 2.5397 -0.0611
5.1190 2.5398 -0.0730
5.1209 2.5418 -0.0855
5.1227 2.5417 -0.0979
5.1246 2.5414 -0.1106
5.1266 2.5410 -0.1235
5.1307 2.5439 -0.1514
5.1327 2.5411 -0.1645
5.1350 2.5451 -0.1803
5.1371 2.5421 -0.1939
5.1422 2.5527 -0.2293
5.1446 2.5530 -0.2456
5.1468 2.5477 -0.2595
5.1501 2.5602 -0.2834
5.1529 2.5617 -0.3021
5.1556 2.5612 -0.3201
5.1579 2.5554 -0.3350
5.1608 2.5563 -0.3547
5.1636 2.5546 -0.3731
5.1661 2.5494 -0.3891
5.1685 2.5433 -0.4045
5.1712 2.5405 -0.4228
5.1749 2.5446 -0.4480
5.1788 2.5491 -0.4745
5.1814 2.5426 -0.4910
5.1847 2.5413 -0.5131
5.1888 2.5443 -0.5406
5.1908 2.5339 -0.5534
5.1912 2.5135 -0.5537
5.1926 2.4802 -0.5599
5.1924 2.4602 -0.5567
5.1926 2.4434 -0.5565
5.1932 2.4290 -0.5586
5.1933 2.4135 -0.5580
5.1935 2.3990 -0.5578
5.1937 2.3854 -0.5579
5.1939 2.3721 -0.5575
5.1945 2.3614 -0.5610
5.1940 2.3469 -0.5560
5.1945 2.3367 -0.5585
5.1945 2.3142 -0.5562
5.1950 2.3052 -0.5586
5.1958 2.2974 -0.5632
5.0809 2.5425 0.1133
5.0819 2.5446 0.1055
5.0833 2.5414 0.0963
5.0845 2.5420 0.0878
5.0856 2.5425 0.0791
5.0869 2.5417 0.0700
5.0882 2.5420 0.0610
5.0896 2.5398 0.0514
5.0907 2.5436 0.0423
5.0920 2.5436 0.0326
5.0935 2.5412 0.0226
5.0948 2.5434 0.0127
5.0962 2.5420 0.0023
5.0977 2.5405 -0.0081
5.0992 2.5401 -0.0188
5.1007 2.5418 -0.0298
5.1021 2.5445 -0.0411
5.1037 2.5437 -0.0525
5.1054 2.5407 -0.0638
5.1070 2.5419 -0.0759
5.1087 2.5441 -0.0884
5.1104 2.5419 -0.1005
5.1122 2.5416 -0.1131
5.1140 2.5383 -0.1253
5.1158 2.5419 -0.1395
5.1177 2.5403 -0.1527
5.1196 2.5415 -0.1670
5.1216 2.5407 -0.1810
5.1235 2.5379 -0.1945
5.1278 2.5422 -0.2266
5.1300 2.5436 -0.2431
5.1321 2.5375 -0.2561
5.1366 2.5352 -0.2881
5.1392 2.5404 -0.3086
5.1416 2.5392 -0.3258
5.1451 2.5558 -0.3560
5.1477 2.5549 -0.3749
5.1504 2.5531 -0.3935
5.1538 2.5609 -0.4206
5.1563 2.5554 -0.4373
5.1590 2.5515 -0.4556
5.1619 2.5490 -0.4755
5.1643 2.5418 -0.4911
5.1680 2.5467 -0.5196
5.1718 2.5504 -0.5481
5.1732 2.5333 -0.5532
5.1750 2.5208 -0.5630
5.1754 2.4986 -0.5597
5.1758 2.4775 -0.5563
5.1763 2.4589 -0.5547
5.1771 2.4435 -0.5562
5.1782 2.4122 -0.5552
5.1792 2.4002 -0.5590
5.1790 2.3829 -0.5525
5.1797 2.3708 -0.5540
5.1802 2.3584 -0.5539
5.1810 2.3480 -0.5567
5.1814 2.3367 -0.5568
5.1818 2.3256 -0.5563
5.1819 2.3141 -0.5541
5.1828 2.3057 -0.5576
5.1834 2.2968 -0.5596
5.0711 2.5430 0.1106
5.0722 2.5426 0.1022
5.0732 2.5433 0.0938
5.0744 2.5426 0.0851
5.0756 2.5407 0.0760
5.0763 2.5460 0.0679
5.0777 2.5427 0.0583
5.0788 2.5442 0.0491
5.0803 2.5408 0.0393
5.0811 2.5456 0.0300
5.0827 2.5409 0.0199
5.0841 2.5396 0.0098
5.0853 2.5406 -0.0004
5.0864 2.5437 -0.0109
5.0880 2.5399 -0.0215
5.0894 2.5395 -0.0323
5.0907 2.5422 -0.0436
5.0922 2.5415 -0.0549
5.0936 2.5418 -0.0665
5.0952 2.5409 -0.0783
5.0968 2.5378 -0.0898
5.0982 2.5420 -0.1030
5.0999 2.5387 -0.1149
5.1015 2.5426 -0.1288
5.1032 2.5401 -0.1414
5.1049 2.5406 -0.1551
5.1066 2.5429 -0.1698
5.1085 2.5373 -0.1820
5.1103 2.5383 -0.1969
5.1122 2.5392 -0.2121
5.1142 2.5381 -0.2268
5.1161 2.5387 -0.2427
5.1182 2.5382 -0.2585
5.1223 2.5360 -0.2904
5.1246 2.5377 -0.3087
5.1267 2.5349 -0.3246
5.1314 2.5367 -0.3627
5.1342 2.5443 -0.3880
5.1367 2.5433 -0.4073
5.1478 2.5463 -0.4966
5.1541 2.5498 -0.5481
5.1557 2.5320 -0.5521
5.1576 2.5181 -0.5599
5.1603 2.4832 -0.5638
5.1611 2.4624 -0.5593
5.1631 2.4303 -0.5596
5.1637 2.4122 -0.5545
5.1647 2.3989 -0.5560
5.1666 2.3738 -0.5583
5.1670 2.3595 -0.5547
5.1680 2.3491 -0.5575
5.1684 2.3360 -0.5538
5.1698 2.3151 -0.5544
5.1707 2.3061 -0.5566
5.1716 2.2978 -0.5598
5.0612 2.5448 0.1082
5.0619 2.5469 0.1003
5.0632 2.5438 0.0912
5.0642 2.5445 0.0826
5.0653 2.5438 0.0737
5.0661 2.5455 0.0650
5.0675 2.5422 0.0554
5.0687 2.5413 0.0460
5.0696 2.5427 0.0367
5.0705 2.5452 0.0273
5.0719 2.5428 0.0172
5.0733 2.5404 0.0071
5.0743 2.5414 -0.0031
5.0757 2.5400 -0.0135
5.0769 2.5397 -0.0241
5.0779 2.5426 -0.0351
5.0793 2.5421 -0.0462
5.0805 2.5425 -0.0576
5.0819 2.5418 -0.0691
5.0833 2.5420 -0.0810
5.0845 2.5443 -0.0935
5.0860 2.5442 -0.1059
5.0877 2.5410 -0.1179
5.0890 2.5438 -0.1316
5.0907 2.5414 -0.1442
5.0922 2.5419 -0.1579
5.0939 2.5393 -0.1708
5.0955 2.5416 -0.1858
5.0972 2.5407 -0.2000
5.0989 2.5417 -0.2153
5.1007 2.5387 -0.2292
5.1026 2.5375 -0.2441
5.1043 2.5408 -0.2618
5.1062 2.5411 -0.2785
5.1082 2.5386 -0.2938
5.1102 2.5359 -0.3093
5.1123 2.5358 -0.3269
5.1165 2.5368 -0.3643
5.1187 2.5362 -0.3830
5.1281 2.5337 -0.4626
5.1306 2.5299 -0.4807
5.1362 2.5379 -0.5352
5.1387 2.5313 -0.5518
5.1406 2.5145 -0.5558
5.1424 2.4980 -0.5592
5.1455 2.4624 -0.5591
5.1484 2.4316 -0.5611
5.1507 2.3995 -0.5560
5.1520 2.3878 -0.5590
5.1530 2.3737 -0.5570
5.1539 2.3600 -0.5544
5.1550 2.3490 -0.5558
5.1570 2.3271 -0.5560
5.1579 2.3167 -0.5560
5.1590 2.3082 -0.5594
5.0516 2.5441 0.1052
5.0525 2.5436 0.0968
5.0532 2.5457 0.0887
5.0546 2.5413 0.0793
5.0558 2.5394 0.0702
5.0565 2.5412 0.0616
5.0574 2.5416 0.0526
5.0586 2.5395 0.0431
5.0593 2.5422 0.0340
5.0607 2.5388 0.0241
5.0612 2.5436 0.0146
5.0623 2.5424 0.0045
5.0634 2.5423 -0.0057
5.0649 2.5386 -0.0161
5.0657 2.5418 -0.0268
5.0669 2.5414 -0.0376
5.0684 2.5375 -0.0483
5.0692 2.5414 -0.0600
5.0719 2.5388 -0.0830
5.0727 2.5433 -0.0958
5.0743 2.5401 -0.1075
5.0755 2.5422 -0.1206
5.0770 2.5399 -0.1329
5.0781 2.5437 -0.1472
5.0796 2.5422 -0.1603
5.0812 2.5407 -0.1736
5.0826 2.5420 -0.1882
5.0842 2.5402 -0.2020
5.0856 2.5431 -0.2181
5.0887 2.5456 -0.2503
5.0905 2.5433 -0.2652
5.0925 2.5372 -0.2781
5.1016 2.5421 -0.3698
5.1037 2.5381 -0.3859
5.1058 2.5341 -0.4021
5.1080 2.5324 -0.4206
5.1146 2.5414 -0.4934
5.1194 2.5371 -0.5350
5.1219 2.5336 -0.5550
5.1241 2.5160 -0.5580
5.1262 2.4937 -0.5538
5.1301 2.4589 -0.5540
5.1337 2.4302 -0.5584
5.1369 2.4020 -0.5594
5.1399 2.3768 -0.5613
5.1411 2.3623 -0.5575
5.1423 2.3489 -0.5541
5.1447 2.3269 -0.5540
5.1472 2.3092 -0.5597
5.0420 2.5445 0.1025
5.0424 2.5467 0.0947
5.0437 2.5437 0.0856
5.0448 2.5418 0.0766
5.0457 2.5412 0.0678
5.0464 2.5418 0.0590
5.0474 2.5410 0.0498
5.0482 2.5414 0.0406
5.0492 2.5405 0.0311
5.0494 2.5455 0.0218
5.0507 2.5432 0.0119
5.0518 2.5420 0.0018
5.0529 2.5408 -0.0084
5.0537 2.5418 -0.0188
5.0546 2.5427 -0.0294
5.0558 2.5412 -0.0402
5.0570 2.5396 -0.0511
5.0576 2.5435 -0.0628
5.0588 2.5428 -0.0743
5.0601 2.5409 -0.0858
5.0612 2.5412 -0.0979
5.0619 2.5455 -0.1111
5.0632 2.5444 -0.1235
5.0650 2.5390 -0.1350
5.0657 2.5439 -0.1496
5.0672 2.5415 -0.1623
5.0686 2.5410 -0.1759
5.0700 2.5404 -0.1898
5.0713 2.5406 -0.2043
5.0730 2.5369 -0.2174
5.0742 2.5398 -0.2338
5.0757 2.5396 -0.2492
5.0769 2.5421 -0.2665
5.0790 2.5361 -0.2793
5.0806 2.5355 -0.2956
5.0836 2.5375 -0.3314
5.0853 2.5374 -0.3493
5.0889 2.5374 -0.3868
5.0929 2.5310 -0.4206
5.0948 2.5318 -0.4417
5.1052 2.5329 -0.5546
5.1079 2.5145 -0.5564
5.1104 2.4944 -0.5548
5.1128 2.4803 -0.5599
5.1151 2.4602 -0.5556
5.1172 2.4439 -0.5554
5.1193 2.4315 -0.5597
5.1213 2.4151 -0.5572
5.1231 2.4018 -0.5583
5.1249 2.3881 -0.5577
5.1266 2.3747 -0.5565
5.1283 2.3634 -0.5582
5.1298 2.3505 -0.5559
5.1328 2.3303 -0.5593
5.1341 2.3187 -0.5567
5.0319 2.5476 0.1005
5.0336 2.5420 0.0909
5.0341 2.5429 0.0827
5.0351 2.5411 0.0738
5.0360 2.5405 0.0650
5.0368 2.5399 0.0560
5.0369 2.5441 0.0475
5.0378 2.5433 0.0381
5.0385 2.5436 0.0287
5.0393 2.5438 0.0191
5.0406 2.5404 0.0091
5.0411 2.5428 -0.0008
5.0418 2.5439 -0.0110
5.0426 2.5438 -0.0214
5.0436 2.5435 -0.0321
5.0445 2.5432 -0.0429
5.0452 2.5450 -0.0542
5.0465 2.5422 -0.0652
5.0471 2.5449 -0.0771
5.0484 2.5431 -0.0886
5.0496 2.5412 -0.1003
5.0508 2.5403 -0.1124
5.0517 2.5414 -0.1252
5.0528 2.5413 -0.1380
5.0539 2.5411 -0.1510
5.0550 2.5407 -0.1643
5.0558 2.5433 -0.1790
5.0572 2.5417 -0.1925
5.0590 2.5371 -0.2050
5.0602 2.5373 -0.2197
5.0611 2.5403 -0.2361
5.0624 2.5402 -0.2515
5.0636 2.5408 -0.2677
5.0653 2.5377 -0.2821
5.0669 2.5362 -0.2978
5.0682 2.5365 -0.3149
5.0695 2.5384 -0.3336
5.0708 2.5409 -0.3534
5.0722 2.5415 -0.3724
5.0737 2.5427 -0.3924
5.0755 2.5412 -0.4108
5.0776 2.5354 -0.4258
5.0797 2.5305 -0.4415
5.0832 2.5307 -0.4840
5.0848 2.5355 -0.5114
5.0868 2.5339 -0.5326
5.0890 2.5291 -0.5505
5.0918 2.5145 -0.5567
5.0948 2.4950 -0.5557
5.0974 2.4810 -0.5607
5.1002 2.4600 -0.5552
5.1027 2.4445 -0.5559
5.1050 2.4327 -0.5611
5.1073 2.4177 -0.5606
5.1096 2.4010 -0.5561
5.1136 2.3777 -0.5608
5.1156 2.3638 -0.5578
5.1174 2.3515 -0.5565
5.1240 2.3100 -0.5575
5.0233 2.5429 0.0967
5.0237 2.5438 0.0886
5.0247 2.5421 0.0798
5.0247 2.5455 0.0718
5.0254 2.5449 0.0629
5.0264 2.5430 0.0537
5.0270 2.5435 0.0447
5.0278 2.5427 0.0354
5.0284 2.5431 0.0260
5.0295 2.5409 0.0163
5.0300 2.5423 0.0066
5.0311 2.5401 -0.0034
5.0316 2.5413 -0.0136
5.0324 2.5412 -0.0239
5.0324 2.5456 -0.0348
5.0334 2.5441 -0.0455
5.0347 2.5415 -0.0563
5.0352 2.5432 -0.0678
5.0356 2.5459 -0.0797
5.0371 2.5419 -0.0909
5.0381 2.5412 -0.1027
5.0386 2.5435 -0.1155
5.0397 2.5425 -0.1278
5.0407 2.5425 -0.1406
5.0413 2.5444 -0.1543
5.0431 2.5389 -0.1660
5.0434 2.5436 -0.1813
5.0448 2.5411 -0.1944
5.0458 2.5414 -0.2089
5.0471 2.5397 -0.2228
5.0484 2.5388 -0.2374
5.0496 2.5378 -0.2522
5.0503 2.5414 -0.2699
5.0520 2.5374 -0.2838
5.0534 2.5360 -0.2994
5.0542 2.5390 -0.3183
5.0556 2.5383 -0.3352
5.0569 2.5383 -0.3530
5.0586 2.5355 -0.3692
5.0597 2.5377 -0.3898
5.0609 2.5389 -0.4101
5.0625 2.5374 -0.4287
5.0644 2.5340 -0.4460
5.0673 2.5359 -0.4903
5.0690 2.5353 -0.5119
5.0709 2.5322 -0.5312
5.0732 2.5267 -0.5481
5.0759 2.5152 -0.5578
5.0788 2.5023 -0.5652
5.0821 2.4830 -0.5634
5.0856 2.4599 -0.5548
5.0885 2.4443 -0.5553
5.0911 2.4304 -0.5572
5.0937 2.4161 -0.5575
5.0963 2.4008 -0.5549
5.0984 2.3910 -0.5607
5.1030 2.3630 -0.5549
5.1070 2.3417 -0.5575
5.1108 2.3194 -0.5546
5.1126 2.3104 -0.5563
5.0145 2.5430 0.0857
5.0145 2.5452 0.0777
5.0149 2.5460 0.0692
5.0155 2.5455 0.0603
5.0165 2.5436 0.0511
5.0172 2.5429 0.0420
5.0177 2.5434 0.0328
5.0184 2.5426 0.0233
5.0190 2.5429 0.0138
5.0188 2.5467 0.0041
5.0197 2.5456 -0.0060
5.0208 2.5432 -0.0162
5.0224 2.5385 -0.0264
5.0233 2.5372 -0.0368
5.0226 2.5439 -0.0480
5.0232 2.5447 -0.0592
5.0248 2.5397 -0.0698
5.0248 2.5436 -0.0818
5.0257 2.5430 -0.0935
5.0261 2.5444 -0.1058
5.0275 2.5414 -0.1174
5.0278 2.5436 -0.1304
5.0286 2.5436 -0.1433
5.0300 2.5404 -0.1554
5.0304 2.5432 -0.1697
5.0309 2.5449 -0.1840
5.0322 2.5424 -0.1971
5.0336 2.5398 -0.2103
5.0348 2.5382 -0.2241
5.0359 2.5374 -0.2387
5.0366 2.5383 -0.2544
5.0372 2.5411 -0.2716
5.0382 2.5408 -0.2876
5.0396 2.5385 -0.3027
5.0402 2.5416 -0.3216
5.0415 2.5400 -0.3379
5.0428 2.5391 -0.3552
5.0443 2.5364 -0.3713
5.0450 2.5395 -0.3926
5.0463 2.5391 -0.4115
5.0480 2.5359 -0.4285
5.0493 2.5360 -0.4489
5.0502 2.5383 -0.4720
5.0516 2.5380 -0.4932
5.0535 2.5343 -0.5114
5.0555 2.5297 -0.5289
5.0577 2.5243 -0.5457
5.0599 2.5181 -0.5616
5.0677 2.4778 -0.5563
5.0736 2.4512 -0.5649
5.0771 2.4323 -0.5595
5.0804 2.4145 -0.5543
5.0853 2.3921 -0.5616
5.0904 2.3665 -0.5603
5.0952 2.3408 -0.5543
5.0993 2.3209 -0.5561
5.1012 2.3124 -0.5590
5.0130 2.5468 -0.0848
5.0158 2.5425 -0.1200
5.0164 2.5426 -0.1325
5.0169 2.5437 -0.1456
5.0180 2.5416 -0.1580
5.0187 2.5414 -0.1712
5.0191 2.5431 -0.1855
5.0193 2.5457 -0.2006
5.0208 2.5421 -0.2134
5.0219 2.5405 -0.2273
5.0220 2.5436 -0.2437
5.0236 2.5398 -0.2571
5.0229 2.5473 -0.2770
5.0246 2.5433 -0.2909
5.0262 2.5392 -0.3048
5.0270 2.5396 -0.3220
5.0279 2.5398 -0.3394
5.0288 2.5399 -0.3573
5.0298 2.5399 -0.3755
5.0303 2.5422 -0.3961
5.0315 2.5409 -0.4144
5.0325 2.5412 -0.4344
5.0333 2.5429 -0.4565
5.0346 2.5420 -0.4766
5.0364 2.5376 -0.4937
5.0377 2.5372 -0.5152
5.0397 2.5318 -0.5319
5.0409 2.5318 -0.5550
5.0445 2.5172 -0.5608
5.0522 2.4834 -0.5639
5.0669 2.4156 -0.5554
5.0725 2.3918 -0.5603
5.0780 2.3675 -0.5609
5.0830 2.3454 -0.5621
4.7662 3.4584 0.1975
4.7673 3.4586 0.1720
4.7725 3.4421 0.1443
4.7736 3.4466 0.0918
4.7733 3.4574 0.0371
4.7745 3.4574 0.0086
4.7708 3.4775 -0.0206
4.7754 3.4637 -0.0503
4.7823 3.4405 -0.0794
4.7824 3.4455 -0.1103
5.0183 2.5440 -0.4586
5.0208 2.5404 -0.4974
5.0218 2.5400 -0.5190
5.0237 2.5355 -0.5366
5.0260 2.5286 -0.5515
5.0298 2.5140 -0.5570
5.0341 2.4966 -0.5582
5.0385 2.4788 -0.5576
5.0423 2.4635 -0.5593
5.0463 2.4471 -0.5583
5.0496 2.4339 -0.5609
5.0537 2.4167 -0.5564
5.0571 2.4026 -0.5556
5.0602 2.3901 -0.5565
5.0632 2.3779 -0.5569
5.0660 2.3666 -0.5580
5.0689 2.3548 -0.5574
5.0717 2.3433 -0.5563
5.0741 2.3338 -0.5585
5.0764 2.3245 -0.5603
5.0811 2.3058 -0.5616
4.7459 3.4545 0.0012
4.7456 3.4592 -0.0279
4.7387 3.4885 -0.0586
4.7459 3.4651 -0.0881
4.7543 3.4372 -0.1168
4.7528 3.4467 -0.1487
4.7536 3.4476 -0.1806
4.7571 3.4380 -0.2117
4.7592 3.4340 -0.2439
4.7665 3.4422 -0.5367
4.7759 3.4103 -0.5636
4.8861 2.9977 -0.5697
4.9126 2.8981 -0.5675
4.9352 2.8131 -0.5650
4.9565 2.7324 -0.5561
4.9865 2.6197 -0.5558
4.9974 2.5800 -0.5631
5.0039 2.5551 -0.5593
5.0090 2.5361 -0.5609
5.0150 2.5129 -0.5561
5.0193 2.4971 -0.5589
5.0293 2.4588 -0.5525
5.0324 2.4482 -0.5596
5.0362 2.4342 -0.5610
5.0436 2.4063 -0.5611
5.0477 2.3904 -0.5562
5.0510 2.3782 -0.5564
5.0535 2.3695 -0.5622
5.0599 2.3448 -0.5579
5.0627 2.3347 -0.5587
5.0651 2.3260 -0.5618
5.0676 2.3168 -0.5632
5.0700 2.3078 -0.5643
4.7160 3.4488 0.1037
4.7166 3.4551 -0.0062
4.7145 3.4648 -0.0353
4.7149 3.4656 -0.0651
4.7201 3.4524 -0.1252
4.7164 3.4676 -0.1580
4.7418 3.4117 -0.5700
4.8925 2.8876 -0.5632
4.9134 2.8154 -0.5690
4.9365 2.7343 -0.5595
4.9677 2.6263 -0.5635
4.9765 2.5955 -0.5564
4.9824 2.5750 -0.5584
4.9882 2.5549 -0.5597
4.9941 2.5343 -0.5592
5.0053 2.4952 -0.5567
5.0145 2.4636 -0.5591
5.0177 2.4530 -0.5662
5.0231 2.4339 -0.5600
5.0279 2.4166 -0.5552
5.0316 2.4039 -0.5563
5.0391 2.3778 -0.5547
5.0453 2.3566 -0.5583
5.0483 2.3463 -0.5594
5.0515 2.3349 -0.5577
5.0545 2.3244 -0.5567
5.0567 2.3171 -0.5619
4.6526 3.4510 -0.0268
4.6501 3.4558 -0.0571
4.6549 3.4420 -0.0870
4.6539 3.4429 -0.1182
4.6600 3.4239 -0.1799
4.6571 3.4295 -0.2135
4.6543 3.4347 -0.2479
4.6407 3.4650 -0.3244
4.6459 3.4500 -0.3572
4.6470 3.4452 -0.3930
4.6502 3.4351 -0.4277
4.6524 3.4256 -0.5018
4.6407 3.4526 -0.5526
4.7373 3.2066 -0.5589
4.7889 3.0754 -0.5595
4.8358 2.9567 -0.5534
4.9001 2.7930 -0.5561
4.9399 2.6920 -0.5519
4.9486 2.6698 -0.5572
4.9694 2.6170 -0.5551
4.9802 2.5898 -0.5506
4.9850 2.5770 -0.5606
4.9951 2.5516 -0.5550
5.0010 2.5363 -0.5602
5.0096 2.5148 -0.5562
5.0180 2.4937 -0.5513
5.0241 2.4780 -0.5523
5.0287 2.4661 -0.5579
5.0350 2.4503 -0.5567
5.0417 2.4334 -0.5527
5.0466 2.4209 -0.5544
5.0522 2.4067 -0.5523
5.0561 2.3966 -0.5564
5.0621 2.3817 -0.5508
5.0661 2.3714 -0.5528
5.0705 2.3601 -0.5520
5.0744 2.3502 -0.5532
5.0790 2.3388 -0.5501
5.0824 2.3299 -0.5517
5.0859 2.3211 -0.5529
5.0887 2.3136 -0.5565
4.6383 3.4264 0.2000
4.6426 3.4139 0.1726
4.6252 3.4498 0.0963
4.6225 3.4542 0.0683
4.6233 3.4501 0.0394
4.6203 3.4550 0.0102
4.6231 3.4458 -0.0197
4.6279 3.4321 -0.0497
4.6285 3.4284 -0.0802
4.6314 3.4189 -0.1108
4.6303 3.4192 -0.1425
4.6333 3.4095 -0.1737
4.6301 3.4147 -0.2073
4.6270 3.4194 -0.2419
4.6174 3.4395 -0.2806
4.6142 3.4442 -0.3175
4.6173 3.4342 -0.3518
4.6135 3.4403 -0.3909
4.6167 3.4299 -0.4261
4.6220 3.4144 -0.4598
4.6078 3.4414 -0.5507
4.6423 3.3584 -0.5569
4.7138 3.1869 -0.5535
4.7585 3.0788 -0.5668
4.8148 2.9447 -0.5520
4.8446 2.8723 -0.5648
4.8812 2.7851 -0.5577
4.9074 2.7218 -0.5607
4.9353 2.6556 -0.5527
4.9431 2.6364 -0.5596
4.9549 2.6083 -0.5559
4.9675 2.5786 -0.5483
4.9735 2.5636 -0.5558
4.9918 2.5201 -0.5509
4.9988 2.5032 -0.5526
5.0050 2.4881 -0.5556
5.0117 2.4719 -0.5559
5.0180 2.4567 -0.5566
5.0246 2.4412 -0.5555
5.0297 2.4285 -0.5581
5.0366 2.4123 -0.5535
5.0431 2.3971 -0.5493
5.0477 2.3859 -0.5512
5.0520 2.3755 -0.5538
5.0608 2.3542 -0.5554
5.0649 2.3444 -0.5567
5.0696 2.3331 -0.5538
5.0738 2.3232 -0.5530
5.0771 2.3151 -0.5557
5.0809 2.3060 -0.5554
4.5874 3.4674 0.1350
4.5859 3.4678 0.1067
4.5907 3.4542 0.0769
4.5934 3.4451 0.0474
4.5937 3.4415 0.0177
4.5965 3.4322 -0.0124
4.5954 3.4316 -0.0430
4.5915 3.4374 -0.0745
4.5921 3.4329 -0.1061
4.5927 3.4283 -0.1383
4.5919 3.4236 -0.2047
4.5858 3.4339 -0.2410
4.5748 3.4549 -0.2809
4.5779 3.4446 -0.3155
4.5809 3.4342 -0.3504
4.5863 3.4187 -0.3841
4.5872 3.4130 -0.4209
4.5900 3.4032 -0.4569
4.5906 3.3981 -0.4950
4.5770 3.4239 -0.5463
4.6088 3.3506 -0.5568
4.6830 3.1826 -0.5558
4.7079 3.1255 -0.5628
4.7589 3.0094 -0.5661
4.7842 2.9523 -0.5634
4.8123 2.8895 -0.5533
4.8673 2.7653 -0.5500
4.9055 2.6779 -0.5569
4.9194 2.6468 -0.5537
4.9456 2.5882 -0.5444
4.9552 2.5665 -0.5452
4.9602 2.5539 -0.5554
4.9762 2.5174 -0.5591
4.9859 2.4958 -0.5547
4.9920 2.4816 -0.5588
5.0014 2.4609 -0.5525
5.0063 2.4492 -0.5583
5.0137 2.4326 -0.5554
5.0207 2.4170 -0.5528
5.0273 2.4023 -0.5504
5.0379 2.3782 -0.5517
5.0420 2.3685 -0.5556
5.0479 2.3556 -0.5520
5.0518 2.3463 -0.5550
5.0575 2.3339 -0.5503
5.0613 2.3250 -0.5524
5.0659 2.3148 -0.5504
5.0688 2.3078 -0.5557
5.0721 2.2999 -0.5582
4.5651 3.4482 0.1705
4.5634 3.4487 0.1428
4.5639 3.4443 0.1140
4.5707 3.4261 0.0839
4.5692 3.4259 0.0549
4.5652 3.4311 0.0254
4.5679 3.4215 -0.0050
4.5662 3.4217 -0.0358
4.5645 3.4179 -0.0992
4.5614 3.4127 -0.1989
4.5500 3.4325 -0.2372
4.5529 3.4223 -0.2714
4.5506 3.4230 -0.3084
4.5416 3.4237 -0.4649
4.5527 3.3962 -0.4960
4.5398 3.4181 -0.5466
4.6118 3.2620 -0.5606
4.6553 3.1694 -0.5539
4.6763 3.1228 -0.5666
4.7074 3.0562 -0.5655
4.7350 2.9971 -0.5649
4.8119 2.8337 -0.5518
4.8242 2.8062 -0.5613
4.8503 2.7521 -0.5475
4.8592 2.7314 -0.5588
4.8872 2.6713 -0.5603
4.9166 2.6093 -0.5517
4.9374 2.5644 -0.5537
4.9468 2.5440 -0.5549
4.9587 2.5192 -0.5489
4.9660 2.5032 -0.5527
4.9742 2.4855 -0.5529
4.9900 2.4518 -0.5520
4.9958 2.4390 -0.5560
5.0035 2.4227 -0.5532
5.0098 2.4092 -0.5538
5.0166 2.3948 -0.5517
5.0210 2.3848 -0.5566
5.0283 2.3698 -0.5510
5.0319 2.3614 -0.5573
5.0380 2.3487 -0.5539
5.0431 2.3379 -0.5534
5.0480 2.3273 -0.5525
5.0581 2.3063 -0.5478
5.0607 2.3000 -0.5545
5.0650 2.2907 -0.5530
4.5251 3.4630 0.1829
4.5277 3.4537 0.1534
4.5325 3.4399 0.1232
4.5373 3.4260 0.0930
4.5286 3.4397 0.0642
4.5260 3.4409 0.0339
4.5142 3.4518 -0.0619
4.5043 3.4673 -0.0963
4.5039 3.4634 -0.1305
4.5067 3.4531 -0.1646
4.5146 3.4326 -0.1975
4.5199 3.4173 -0.2309
4.5152 3.4216 -0.2683
4.5176 3.4119 -0.3036
4.5206 3.4010 -0.3390
4.5183 3.4006 -0.3775
4.4900 3.4450 -0.4732
4.4744 3.4694 -0.5255
4.4838 3.4457 -0.5607
4.5732 3.2635 -0.5657
4.6898 3.0281 -0.5551
4.7095 2.9869 -0.5652
4.7484 2.9101 -0.5494
4.7690 2.8677 -0.5526
4.8086 2.7870 -0.5546
4.8271 2.7496 -0.5541
4.8441 2.7152 -0.5538
4.8536 2.6945 -0.5638
4.9007 2.6004 -0.5528
4.9104 2.5802 -0.5570
4.9259 2.5498 -0.5479
4.9325 2.5354 -0.5560
4.9402 2.5191 -0.5609
4.9512 2.4972 -0.5570
4.9640 2.4725 -0.5475
4.9687 2.4619 -0.5565
4.9777 2.4439 -0.5535
4.9914 2.4157 -0.5561
4.9972 2.4036 -0.5590
5.0068 2.3853 -0.5496
5.0121 2.3743 -0.5524
5.0179 2.3624 -0.5525
5.0233 2.3513 -0.5532
5.0266 2.3437 -0.5604
5.0339 2.3299 -0.5530
5.0381 2.3210 -0.5559
5.0435 2.3103 -0.5534
5.0485 2.3004 -0.5516
5.0525 2.2921 -0.5532
5.0558 2.2849 -0.5571
4.5005 3.4437 0.1910
4.5008 3.4388 0.1619
4.5056 3.4248 0.1315
4.5054 3.4207 0.1019
4.5030 3.4207 0.0721
4.5007 3.4205 0.0417
4.4881 3.4401 0.0108
4.4773 3.4557 -0.0216
4.4717 3.4614 -0.0551
4.4684 3.4625 -0.0895
4.4684 3.4572 -0.1241
4.4738 3.4416 -0.1580
4.4734 3.4369 -0.1935
4.4789 3.4211 -0.2278
4.4812 3.4112 -0.2632
4.4867 3.3954 -0.2976
4.4504 3.4448 -0.4312
4.4438 3.4505 -0.4761
4.4429 3.4457 -0.5186
4.4490 3.4283 -0.5566
4.5281 3.2733 -0.5749
4.6249 3.0895 -0.5596
4.6867 2.9704 -0.5616
4.7425 2.8637 -0.5575
4.8271 2.7020 -0.5514
4.8426 2.6719 -0.5526
4.8510 2.6541 -0.5639
4.8862 2.5884 -0.5507
4.9183 2.5258 -0.5562
4.9275 2.5078 -0.5587
4.9374 2.4888 -0.5586
4.9479 2.4690 -0.5558
4.9586 2.4491 -0.5510
4.9673 2.4327 -0.5500
4.9803 2.4068 -0.5558
4.9897 2.3897 -0.5495
4.9936 2.3808 -0.5572
5.0002 2.3683 -0.5570
5.0066 2.3560 -0.5562
5.0193 2.3323 -0.5528
5.0251 2.3213 -0.5514
5.0297 2.3121 -0.5531
5.0357 2.3011 -0.5494
5.0399 2.2928 -0.5515
5.0447 2.2837 -0.5506
5.0477 2.2771 -0.5559
4.4757 3.4292 0.2278
4.4805 3.4154 0.1977
4.4806 3.4103 0.1688
4.4678 3.4290 0.1421
4.4623 3.4341 0.1128
4.4621 3.4292 0.0819
4.4534 3.4399 0.0512
4.4478 3.4448 0.0193
4.4383 3.4565 -0.0137
4.4380 3.4513 -0.0475
4.4406 3.4409 -0.0815
4.4460 3.4253 -0.1153
4.4453 3.4206 -0.1503
4.4508 3.4049 -0.1845
4.4502 3.3998 -0.2203
4.4530 3.3887 -0.2556
4.4495 3.3888 -0.2937
4.4139 3.4379 -0.3866
4.4062 3.4443 -0.4311
4.4019 3.4447 -0.4752
4.4045 3.4332 -0.5159
4.4208 3.3982 -0.5473
4.5000 3.2502 -0.5685
4.5860 3.0936 -0.5679
4.6398 2.9986 -0.5502
4.6564 2.9657 -0.5657
4.6911 2.9035 -0.5596
4.7110 2.8659 -0.5672
4.7612 2.7752 -0.5626
4.7834 2.7351 -0.5601
4.8054 2.6959 -0.5556
4.8151 2.6762 -0.5670
4.8415 2.6308 -0.5512
4.8544 2.6067 -0.5543
4.8703 2.5783 -0.5509
4.8926 2.5368 -0.5561
4.9027 2.5180 -0.5589
4.9271 2.4746 -0.5521
4.9342 2.4608 -0.5576
4.9441 2.4430 -0.5559
4.9535 2.4262 -0.5543
4.9623 2.4104 -0.5528
4.9694 2.3972 -0.5545
4.9760 2.3848 -0.5567
4.9836 2.3711 -0.5551
4.9916 2.3572 -0.5518
4.9979 2.3457 -0.5521
5.0041 2.3344 -0.5519
5.0098 2.3239 -0.5523
5.0158 2.3132 -0.5510
5.0202 2.3046 -0.5540
5.0243 2.2966 -0.5579
5.0304 2.2860 -0.5539
5.0365 2.2758 -0.5493
5.0400 2.2688 -0.5533
4.4340 3.4559 0.3277
4.4413 3.4375 0.2964
4.4461 3.4236 0.2662
4.4364 3.4194 0.1515
4.4222 3.4387 0.1233
4.4160 3.4438 0.0926
4.4212 3.4288 0.0599
4.4082 3.4454 0.0280
4.4106 3.4351 -0.0055
4.4072 3.4346 -0.0394
4.4063 3.4298 -0.0739
4.3929 3.4463 -0.1107
4.3900 3.4308 -0.2212
4.3858 3.4310 -0.2604
4.3745 3.4426 -0.3030
4.3733 3.4373 -0.3432
4.3651 3.4433 -0.3873
4.3636 3.4381 -0.4293
4.3622 3.4326 -0.4721
4.3653 3.4199 -0.5130
4.3963 3.3621 -0.5354
4.4091 3.3339 -0.5684
4.5097 3.1597 -0.5698
4.5631 3.0692 -0.5603
4.6015 3.0030 -0.5595
4.6303 2.9523 -0.5644
4.6638 2.8951 -0.5617
4.7638 2.7227 -0.5592
4.7831 2.6892 -0.5597
4.8182 2.6285 -0.5599
4.8335 2.6020 -0.5607
4.8653 2.5480 -0.5551
4.8886 2.5073 -0.5581
4.9020 2.4848 -0.5543
4.9121 2.4672 -0.5554
4.9212 2.4511 -0.5575
4.9319 2.4330 -0.5551
4.9411 2.4171 -0.5546
4.9503 2.4016 -0.5533
4.9572 2.3891 -0.5562
4.9640 2.3769 -0.5586
4.9715 2.3640 -0.5583
4.9818 2.3477 -0.5497
4.9859 2.3394 -0.5568
4.9955 2.3244 -0.5478
4.9986 2.3174 -0.5563
5.0053 2.3064 -0.5541
5.0114 2.2960 -0.5524
5.0175 2.2860 -0.5502
5.0220 2.2778 -0.5525
5.0267 2.2695 -0.5531
4.3667 3.4788 0.2011
4.3720 3.4636 0.1680
4.3773 3.4485 0.1349
4.3727 3.4496 0.1032
4.3689 3.4495 0.0706
4.3743 3.4339 0.0367
4.3730 3.4292 0.0029
4.3784 3.4136 -0.0312
4.3678 3.4240 -0.0665
4.3533 3.4404 -0.1036
4.3267 3.4759 -0.1445
4.3215 3.4766 -0.1838
4.3240 3.4648 -0.2222
4.3300 3.4475 -0.2599
4.3280 3.4428 -0.3003
4.3267 3.4368 -0.3412
4.3210 3.4375 -0.3848
4.3239 3.4248 -0.4253
4.3179 3.4256 -0.4708
4.3242 3.4074 -0.5104
4.3229 3.4008 -0.5549
4.3634 3.3311 -0.5714
4.4686 3.1580 -0.5747
4.5562 3.0145 -0.5736
4.6390 2.8816 -0.5604
4.7211 2.7473 -0.5585
4.7419 2.7129 -0.5606
4.7880 2.6389 -0.5521
4.8050 2.6109 -0.5529
4.8198 2.5862 -0.5552
4.8325 2.5646 -0.5593
4.8474 2.5403 -0.5586
4.8719 2.4995 -0.5614
4.8972 2.4588 -0.5577
4.9075 2.4418 -0.5582
4.9154 2.4280 -0.5625
4.9273 2.4095 -0.5577
4.9367 2.3942 -0.5567
4.9456 2.3798 -0.5558
4.9522 2.3683 -0.5594
4.9618 2.3535 -0.5551
4.9712 2.3392 -0.5499
4.9762 2.3300 -0.5549
4.9820 2.3200 -0.5572
4.9889 2.3089 -0.5557
4.9958 2.2980 -0.5536
5.0005 2.2896 -0.5568
5.0072 2.2793 -0.5536
5.0127 2.2704 -0.5536
5.0184 2.2614 -0.5518
4.3402 3.4626 0.2413
4.3287 3.4745 0.2126
4.3206 3.4806 0.1820
4.3298 3.4588 0.1472
4.3384 3.4382 0.1127
4.3299 3.4445 0.0803
4.3323 3.4336 0.0461
4.3272 3.4342 0.0118
4.3086 3.4402 -0.0968
4.2956 3.4521 -0.1359
4.2859 3.4587 -0.1761
4.2842 3.4530 -0.2157
4.2902 3.4355 -0.2539
4.2881 3.4302 -0.2948
4.2825 3.4298 -0.3376
4.2841 3.4187 -0.3786
4.2863 3.4065 -0.4197
4.2759 3.4125 -0.4675
4.2738 3.4063 -0.5124
4.3153 3.3285 -0.5748
4.4312 3.1481 -0.5755
4.5409 2.9808 -0.5601
4.6453 2.8188 -0.5583
4.7237 2.6972 -0.5569
4.7438 2.6655 -0.5588
4.7662 2.6312 -0.5558
4.8016 2.5761 -0.5563
4.8376 2.5218 -0.5487
4.8478 2.5046 -0.5546
4.8589 2.4867 -0.5581
4.8826 2.4496 -0.5590
4.9028 2.4176 -0.5616
4.9136 2.4011 -0.5598
4.9257 2.3835 -0.5541
4.9331 2.3714 -0.5574
4.9440 2.3556 -0.5520
4.9507 2.3446 -0.5550
4.9568 2.3343 -0.5585
4.9651 2.3219 -0.5562
4.9737 2.3094 -0.5520
4.9796 2.2998 -0.5539
4.9850 2.2909 -0.5566
4.9916 2.2809 -0.5552
4.9981 2.2712 -0.5533
5.0041 2.2621 -0.5521
5.0087 2.2544 -0.5542
4.2770 3.4963 0.2608
4.2898 3.4693 0.2245
4.2953 3.4536 0.1903
4.3007 3.4379 0.1562
4.3061 3.4222 0.1221
4.3083 3.4114 0.0883
4.2996 3.4168 0.0550
4.2872 3.4274 0.0208
4.2579 3.4627 -0.0151
4.2398 3.4809 -0.0532
4.2414 3.4699 -0.0914
4.2437 3.4579 -0.1300
4.2454 3.4465 -0.1689
4.2349 3.4527 -0.2108
4.2411 3.4347 -0.2499
4.2382 3.4296 -0.2917
4.2318 3.4293 -0.3355
4.2292 3.4234 -0.3789
4.2284 3.4050 -0.4661
4.2026 3.4301 -0.5240
4.2781 3.3083 -0.5702
4.4549 3.0479 -0.5680
4.5113 2.9666 -0.5587
4.6544 2.7567 -0.5530
4.7032 2.6840 -0.5557
4.7267 2.6496 -0.5548
4.7509 2.6148 -0.5507
4.7810 2.5682 -0.5601
4.7966 2.5447 -0.5620
4.8156 2.5177 -0.5574
4.8323 2.4937 -0.5543
4.8443 2.4755 -0.5572
4.8601 2.4532 -0.5525
4.8717 2.4359 -0.5533
4.8851 2.4168 -0.5497
4.8930 2.4040 -0.5551
4.9017 2.3905 -0.5580
4.9128 2.3747 -0.5555
4.9227 2.3603 -0.5540
4.9297 2.3492 -0.5578
4.9380 2.3369 -0.5580
4.9472 2.3240 -0.5553
4.9557 2.3119 -0.5531
4.9693 2.2915 -0.5544
4.9771 2.2807 -0.5513
4.9830 2.2717 -0.5524
4.9888 2.2630 -0.5530
4.9946 2.2545 -0.5531
4.9994 2.2469 -0.5554
5.0063 2.2377 -0.5508
4.2505 3.4935 0.3663
4.2482 3.4893 0.3352
4.2667 3.4468 0.2648
4.2721 3.4313 0.2309
4.2516 3.4532 0.2028
4.2354 3.4438 0.0665
4.2207 3.4560 0.0310
4.2011 3.4747 -0.0060
4.1987 3.4690 -0.0444
4.2003 3.4577 -0.0831
4.2019 3.4462 -0.1222
4.2081 3.4284 -0.1609
4.2187 3.4046 -0.1987
4.2027 3.4165 -0.2426
4.1059 3.4919 -0.4980
4.1294 3.4503 -0.5345
4.2488 3.2769 -0.5605
4.2961 3.2074 -0.5740
4.4102 3.0473 -0.5750
4.5128 2.9057 -0.5658
4.5543 2.8483 -0.5629
4.5895 2.7991 -0.5621
4.6248 2.7505 -0.5581
4.6730 2.6814 -0.5647
4.6967 2.6481 -0.5652
4.7217 2.6138 -0.5620
4.7492 2.5774 -0.5534
4.7627 2.5568 -0.5602
4.7841 2.5279 -0.5551
4.7984 2.5073 -0.5582
4.8161 2.4832 -0.5547
4.8263 2.4674 -0.5611
4.8385 2.4498 -0.5634
4.8541 2.4290 -0.5588
4.8665 2.4118 -0.5583
4.8772 2.3965 -0.5596
4.8897 2.3797 -0.5563
4.9016 2.3638 -0.5529
4.9114 2.3502 -0.5525
4.9281 2.3263 -0.5547
