ply
format ascii 1.0
element vertex 2186
property float x
property float y
property float z
end_header
4.9190 2.2878 -0.5608
4.9309 2.2748 -0.5530
4.9370 2.2662 -0.5566
4.9445 2.2568 -0.5563
4.9593 2.2386 -0.5541
4.9651 2.2308 -0.5559
4.9728 2.2220 -0.5522
4.9775 2.2152 -0.5556
4.1441 3.4717 0.4684
4.1672 3.4242 0.3946
4.1726 3.4085 0.3605
4.0760 3.4951 0.2514
4.0830 3.4663 0.1758
4.0841 3.4549 0.1381
4.0902 3.4372 0.0996
4.0820 3.4369 0.0619
4.0776 3.4318 0.0232
4.0739 3.4255 -0.0164
4.0648 3.4256 -0.0568
3.9949 3.4732 -0.1917
3.9772 3.4815 -0.2401
3.9719 3.4751 -0.2874
3.9791 3.4544 -0.3324
3.9734 3.4481 -0.3813
3.9806 3.4272 -0.4267
3.9419 3.4567 -0.4900
3.9884 3.3926 -0.5204
4.0266 3.3384 -0.5516
4.0743 3.2748 -0.5753
4.1624 3.1696 -0.5733
4.3190 2.9851 -0.5609
4.3665 2.9266 -0.5663
4.4237 2.8594 -0.5610
4.5054 2.7608 -0.5630
4.5710 2.6811 -0.5663
4.6637 2.5725 -0.5570
4.6738 2.5565 -0.5715
4.7466 2.4727 -0.5578
4.7829 2.4301 -0.5545
4.7949 2.4144 -0.5590
4.8120 2.3950 -0.5552
4.8203 2.3829 -0.5630
4.8365 2.3648 -0.5579
4.8502 2.3491 -0.5553
4.8621 2.3350 -0.5544
4.8722 2.3226 -0.5556
4.8811 2.3112 -0.5581
4.9029 2.2865 -0.5529
4.9115 2.2761 -0.5533
4.9189 2.2666 -0.5554
4.9251 2.2581 -0.5591
4.9350 2.2475 -0.5545
4.9513 2.2291 -0.5501
4.9557 2.2224 -0.5555
4.9631 2.2141 -0.5532
4.9684 2.2072 -0.5555
4.1069 3.4500 0.4496
4.1134 3.4234 0.3811
4.0522 3.4594 0.2597
4.0442 3.4483 0.1870
4.0451 3.4366 0.1490
4.0358 3.4368 0.1117
4.0369 3.4247 0.0726
4.0381 3.4123 0.0332
4.0227 3.4188 -0.0066
4.0017 3.4312 -0.0481
3.9911 3.4314 -0.0908
3.9678 3.4453 -0.1361
3.8623 3.5355 -0.2438
3.8769 3.5061 -0.2897
3.7321 3.6005 -0.5428
3.8333 3.4808 -0.5587
3.9286 3.3692 -0.5697
4.1523 3.1189 -0.5532
4.2798 2.9715 -0.5610
4.3267 2.9160 -0.5686
4.4274 2.8014 -0.5681
4.5131 2.7048 -0.5641
4.5690 2.6385 -0.5736
4.6139 2.5915 -0.5589
4.6450 2.5574 -0.5541
4.6671 2.5315 -0.5564
4.7119 2.4810 -0.5548
4.7278 2.4617 -0.5590
4.7597 2.4241 -0.5635
4.7921 2.3877 -0.5619
4.8095 2.3691 -0.5573
4.8243 2.3529 -0.5550
4.8599 2.3124 -0.5550
4.8707 2.3001 -0.5546
4.8786 2.2900 -0.5586
4.8903 2.2777 -0.5548
4.8980 2.2682 -0.5576
4.9051 2.2592 -0.5609
4.9164 2.2479 -0.5550
4.9250 2.2385 -0.5538
4.9323 2.2300 -0.5543
4.9385 2.2223 -0.5568
4.9467 2.2137 -0.5539
4.9523 2.2066 -0.5567
4.0578 3.4499 0.4679
4.0492 3.4505 0.4376
4.0644 3.4226 0.3980
4.0317 3.4513 0.3747
4.0228 3.4515 0.3419
4.0179 3.4468 0.3071
4.0240 3.4293 0.2691
4.0200 3.4232 0.2331
4.0154 3.4177 0.1966
3.9783 3.4485 0.1639
3.9907 3.4233 0.1231
3.9858 3.4174 0.0840
3.9518 3.4430 0.0454
3.6833 3.5670 -0.5329
3.7625 3.4737 -0.5594
3.7957 3.4261 -0.6001
3.9421 3.2718 -0.5861
4.0883 3.1208 -0.5614
4.1385 3.0618 -0.5778
4.2812 2.9087 -0.5736
4.3639 2.8244 -0.5559
4.3948 2.7873 -0.5684
4.4908 2.6861 -0.5596
4.6217 2.5457 -0.5556
4.6675 2.4952 -0.5588
4.7105 2.4490 -0.5580
4.7216 2.4342 -0.5674
4.7432 2.4122 -0.5630
4.7640 2.3912 -0.5578
4.7808 2.3735 -0.5561
4.8085 2.3433 -0.5572
4.8224 2.3286 -0.5559
4.8355 2.3147 -0.5546
4.8415 2.3057 -0.5638
4.8561 2.2915 -0.5580
4.8672 2.2798 -0.5572
4.8775 2.2688 -0.5567
4.8883 2.2578 -0.5544
4.8961 2.2487 -0.5567
4.9148 2.2295 -0.5531
4.9212 2.2217 -0.5560
4.9292 2.2133 -0.5551
4.9372 2.2051 -0.5535
4.9450 2.1973 -0.5515
4.0068 3.4497 0.4869
4.0126 3.4329 0.4503
3.9829 3.4563 0.4265
3.9504 3.4823 0.4015
3.9565 3.4644 0.3626
3.9580 3.4518 0.3250
3.9800 3.4165 0.2822
3.9475 3.4408 0.2517
3.6230 3.5431 -0.5263
3.7330 3.4251 -0.5435
3.8878 3.2542 -0.5841
4.0690 3.0795 -0.5463
4.1196 3.0226 -0.5632
4.2596 2.8789 -0.5632
4.3064 2.8288 -0.5704
4.4622 2.6720 -0.5598
4.5325 2.5994 -0.5615
4.6039 2.5291 -0.5514
4.6548 2.4770 -0.5510
4.6705 2.4588 -0.5584
4.6898 2.4383 -0.5605
4.7090 2.4184 -0.5613
4.7317 2.3965 -0.5562
4.7467 2.3804 -0.5591
4.7620 2.3642 -0.5602
4.7779 2.3482 -0.5595
4.7955 2.3315 -0.5551
4.8060 2.3194 -0.5593
4.8220 2.3044 -0.5546
4.8468 2.2795 -0.5526
4.8563 2.2691 -0.5548
4.8639 2.2600 -0.5595
4.8762 2.2486 -0.5553
4.8865 2.2385 -0.5535
4.8933 2.2304 -0.5576
4.9052 2.2201 -0.5512
4.9117 2.2124 -0.5542
4.9194 2.2045 -0.5545
4.9281 2.1963 -0.5519
4.9396 2.1829 -0.5574
3.9042 3.4927 0.4908
2.1040 5.2051 0.3595
2.2846 4.9950 0.2470
2.5538 4.7003 0.1401
3.5825 3.4999 -0.5129
3.6502 3.4237 -0.5468
3.7033 3.3612 -0.5821
4.0717 3.0082 -0.5635
4.2154 2.8676 -0.5660
4.2691 2.8139 -0.5708
4.3321 2.7541 -0.5656
4.4255 2.6632 -0.5655
4.4604 2.6281 -0.5694
4.5080 2.5844 -0.5605
4.5998 2.4953 -0.5599
4.6221 2.4725 -0.5632
4.6542 2.4438 -0.5548
4.6681 2.4277 -0.5635
4.6917 2.4056 -0.5603
4.7052 2.3904 -0.5670
4.7481 2.3515 -0.5577
4.7631 2.3366 -0.5588
4.7779 2.3221 -0.5590
4.7945 2.3070 -0.5555
4.8065 2.2948 -0.5574
4.8300 2.2714 -0.5588
4.8398 2.2612 -0.5613
4.8525 2.2497 -0.5582
4.8651 2.2387 -0.5542
4.8715 2.2307 -0.5600
4.8808 2.2216 -0.5600
4.8895 2.2131 -0.5605
4.8992 2.2043 -0.5581
4.9059 2.1969 -0.5610
4.9155 2.1887 -0.5574
4.9232 2.1813 -0.5569
2.0469 5.0824 0.2855
2.2619 4.8493 0.1751
3.4888 3.5008 -0.5154
3.5719 3.4142 -0.5470
3.5902 3.3815 -0.5973
3.8336 3.1699 -0.5556
4.1027 2.9184 -0.5652
4.2375 2.7934 -0.5670
4.3036 2.7341 -0.5617
4.4429 2.6056 -0.5613
4.5019 2.5477 -0.5723
4.5661 2.4890 -0.5703
4.6036 2.4575 -0.5606
4.6263 2.4359 -0.5628
4.6487 2.4149 -0.5636
4.6729 2.3934 -0.5608
4.6956 2.3734 -0.5579
4.7166 2.3549 -0.5552
4.7361 2.3376 -0.5527
4.7468 2.3256 -0.5597
4.7653 2.3097 -0.5559
4.7810 2.2957 -0.5543
4.7939 2.2834 -0.5554
4.8060 2.2718 -0.5567
4.8174 2.2609 -0.5581
4.8319 2.2489 -0.5539
4.8411 2.2394 -0.5568
4.8534 2.2290 -0.5540
4.8624 2.2201 -0.5557
4.8695 2.2122 -0.5601
4.8796 2.2034 -0.5585
4.8902 2.1946 -0.5551
4.8982 2.1870 -0.5557
4.9068 2.1794 -0.5546
4.9135 2.1727 -0.5565
4.9213 2.1657 -0.5556
1.9943 5.0171 0.4031
1.6696 5.2468 0.2333
3.4236 3.4744 -0.5082
3.8566 3.0760 -0.5691
4.0140 2.9328 -0.5863
4.1900 2.7834 -0.5721
4.3196 2.6728 -0.5632
4.4065 2.5956 -0.5669
4.4413 2.5639 -0.5708
4.4931 2.5224 -0.5588
4.5494 2.4712 -0.5647
4.6039 2.4236 -0.5645
4.6601 2.3776 -0.5547
4.6743 2.3629 -0.5617
4.6945 2.3455 -0.5609
4.7173 2.3272 -0.5557
4.7296 2.3146 -0.5614
4.7459 2.3004 -0.5613
4.7667 2.2846 -0.5540
4.7772 2.2737 -0.5589
4.7937 2.2607 -0.5549
4.8053 2.2500 -0.5564
4.8182 2.2391 -0.5553
4.8263 2.2303 -0.5605
4.8370 2.2208 -0.5610
4.8501 2.2107 -0.5567
4.8574 2.2029 -0.5612
4.8677 2.1943 -0.5598
4.8786 2.1858 -0.5567
4.8913 2.1770 -0.5493
4.8963 2.1707 -0.5553
4.9044 2.1638 -0.5549
3.6593 3.5775 0.6614
3.2935 3.4941 -0.5178
3.3411 3.4388 -0.5662
3.4570 3.3352 -0.5891
3.7809 3.0711 -0.5757
3.9157 2.9629 -0.5651
4.0011 2.8908 -0.5690
4.0581 2.8394 -0.5818
4.1321 2.7781 -0.5817
4.2122 2.7145 -0.5731
4.2885 2.6550 -0.5615
4.3400 2.6125 -0.5609
4.3992 2.5665 -0.5515
4.4551 2.5148 -0.5682
4.4908 2.4854 -0.5676
4.5239 2.4582 -0.5666
4.5720 2.4237 -0.5502
4.5914 2.4056 -0.5567
4.6410 2.3650 -0.5550
4.6562 2.3502 -0.5616
4.6748 2.3342 -0.5634
4.7588 2.2766 -0.5268
4.7696 2.2660 -0.5318
4.7844 2.2540 -0.5309
4.8138 2.2257 -0.5431
4.8173 2.2188 -0.5550
4.8242 2.2109 -0.5618
4.8357 2.2017 -0.5608
4.8477 2.1926 -0.5580
4.8590 2.1841 -0.5556
4.8682 2.1764 -0.5559
4.8799 2.1683 -0.5510
4.8831 2.1625 -0.5606
4.8946 2.1549 -0.5545
4.9022 2.1485 -0.5550
3.6631 3.4700 0.5370
3.6152 3.4993 0.5123
3.5982 3.5003 0.4754
3.6213 3.4656 0.4260
3.6125 3.4590 0.3854
3.5941 3.4603 0.3461
3.5321 3.4981 0.3138
3.1046 3.5476 -0.5401
3.2034 3.4571 -0.5790
3.3813 3.3150 -0.5866
3.7625 3.0252 -0.5586
3.8054 2.9815 -0.5885
3.9621 2.8667 -0.5641
4.0156 2.8194 -0.5800
4.1843 2.6912 -0.5674
4.2500 2.6408 -0.5638
4.2958 2.6034 -0.5685
4.4343 2.4962 -0.5637
4.4731 2.4665 -0.5617
4.4942 2.4467 -0.5714
4.5263 2.4218 -0.5705
4.5656 2.3942 -0.5609
4.7779 2.2580 -0.4699
4.7909 2.2472 -0.4717
4.7996 2.2384 -0.4779
4.8074 2.2300 -0.4845
4.8173 2.2211 -0.4880
4.8250 2.2078 -0.5097
4.8299 2.2009 -0.5189
4.8319 2.1949 -0.5319
4.8374 2.1879 -0.5398
4.8408 2.1816 -0.5506
4.8490 2.1742 -0.5536
4.8564 2.1672 -0.5573
4.8657 2.1599 -0.5572
4.8743 2.1531 -0.5577
4.8841 2.1462 -0.5553
3.5873 3.4167 0.3945
3.5602 3.4241 0.3574
3.5764 3.3959 0.3099
3.4847 3.4541 0.2812
3.4028 3.5028 0.2456
3.3791 3.5043 0.1984
3.3433 3.5144 0.1504
3.2931 3.5347 0.1008
2.9742 3.5512 -0.5444
3.0671 3.4671 -0.5887
3.3866 3.2403 -0.5583
3.4817 3.1609 -0.5840
3.6653 3.0289 -0.5713
3.7656 2.9512 -0.5807
3.9773 2.7958 -0.5757
4.0716 2.7280 -0.5691
4.1203 2.6878 -0.5809
4.2584 2.5887 -0.5710
4.3735 2.5075 -0.5586
4.4018 2.4834 -0.5676
4.4539 2.4484 -0.5570
4.4677 2.4327 -0.5730
4.8079 2.2317 -0.4219
4.8092 2.2260 -0.4357
4.8171 2.2180 -0.4418
4.8221 2.2112 -0.4511
4.8226 2.2058 -0.4656
4.8311 2.1980 -0.4699
4.8317 2.1927 -0.4844
4.8385 2.1804 -0.5055
4.8405 2.1747 -0.5180
4.8425 2.1690 -0.5304
4.8459 2.1629 -0.5407
4.8520 2.1564 -0.5465
4.8560 2.1504 -0.5553
4.8641 2.1438 -0.5571
4.8727 2.1374 -0.5571
4.8793 2.1314 -0.5604
3.3921 3.4080 0.1555
3.3679 3.4081 0.1070
3.2978 3.4403 0.0583
3.2700 3.4413 0.0049
2.6250 3.7385 -0.4413
2.8708 3.5316 -0.5403
3.0032 3.4259 -0.5771
3.7546 2.9041 -0.5614
3.9434 2.7690 -0.5690
4.0358 2.7055 -0.5652
4.1125 2.6522 -0.5637
4.1536 2.6187 -0.5771
4.2331 2.5669 -0.5656
4.3228 2.5016 -0.5726
4.7773 2.2607 -0.3480
4.7864 2.2519 -0.3552
4.8102 2.2276 -0.3770
4.8130 2.2216 -0.3886
4.8202 2.2141 -0.3954
4.8252 2.2075 -0.4044
4.8294 2.2013 -0.4140
4.8328 2.1953 -0.4243
4.8325 2.1904 -0.4390
4.8381 2.1839 -0.4464
4.8448 2.1722 -0.4664
4.8460 2.1669 -0.4793
4.8490 2.1561 -0.5041
4.8528 2.1451 -0.5280
4.8526 2.1400 -0.5433
4.8531 2.1346 -0.5576
4.8606 2.1285 -0.5602
3.5019 3.5078 0.8377
3.0681 3.4421 -0.1591
2.9533 3.4925 -0.2316
2.9138 3.4939 -0.3015
2.8713 3.4961 -0.3748
2.7816 3.4999 -0.5319
2.9716 3.3651 -0.5570
3.1486 3.2415 -0.5749
3.3250 3.1218 -0.5828
3.4946 3.0094 -0.5826
3.6926 2.8856 -0.5619
3.8815 2.7560 -0.5744
4.0662 2.6365 -0.5664
4.7911 2.2463 -0.3117
4.7987 2.2385 -0.3196
4.8046 2.2314 -0.3285
4.8145 2.2230 -0.3337
4.8172 2.2173 -0.3449
4.8230 2.2106 -0.3530
4.8248 2.2052 -0.3648
4.8329 2.1979 -0.3701
4.8316 2.1935 -0.3850
4.8335 2.1882 -0.3966
4.8384 2.1820 -0.4047
4.8379 2.1773 -0.4190
4.8428 2.1713 -0.4269
4.8454 2.1658 -0.4375
4.8472 2.1605 -0.4489
4.8509 2.1500 -0.4719
4.8505 2.1450 -0.4865
4.8531 2.1396 -0.4970
4.8542 2.1344 -0.5097
4.8560 2.1291 -0.5212
4.8521 2.1243 -0.5420
4.8554 2.1188 -0.5514
3.3598 3.5618 0.9031
3.2346 3.4921 0.4921
2.7555 3.5066 -0.2988
2.8401 3.4332 -0.3558
2.8326 3.4130 -0.4249
2.8432 3.3825 -0.4913
2.8715 3.3424 -0.5535
3.1195 3.1864 -0.5563
3.2229 3.1104 -0.5875
3.4270 2.9855 -0.5803
3.6032 2.8787 -0.5712
4.7902 2.2480 -0.2622
4.7954 2.2413 -0.2719
4.8055 2.2327 -0.2780
4.8090 2.2268 -0.2884
4.8193 2.2140 -0.3063
4.8219 2.2085 -0.3170
4.8237 2.2032 -0.3284
4.8295 2.1968 -0.3361
4.8313 2.1916 -0.3473
4.8363 2.1856 -0.3554
4.8349 2.1813 -0.3699
4.8406 2.1752 -0.3769
4.8424 2.1701 -0.3880
4.8418 2.1654 -0.4019
4.8459 2.1598 -0.4103
4.8502 2.1495 -0.4316
4.8527 2.1442 -0.4417
4.8507 2.1397 -0.4579
4.8547 2.1343 -0.4660
4.8505 2.1298 -0.4856
4.8553 2.1243 -0.4926
4.8586 2.1190 -0.5016
4.8611 2.1138 -0.5116
4.8562 2.1091 -0.5333
4.8566 2.1039 -0.5471
1.9929 4.5512 1.5733
3.2923 3.5350 0.8874
3.3301 3.4905 0.8266
2.7245 3.4422 -0.2800
2.8407 3.2810 -0.5333
3.1272 3.0919 -0.5889
4.7920 2.2486 -0.2145
4.8051 2.2345 -0.2320
4.8034 2.2305 -0.2454
4.8112 2.2232 -0.2528
4.8113 2.2187 -0.2652
4.8232 2.2057 -0.2813
4.8241 2.2009 -0.2930
4.8334 2.1892 -0.3100
4.8351 2.1842 -0.3209
4.8418 2.1780 -0.3271
4.8418 2.1735 -0.3394
4.8443 2.1684 -0.3493
4.8404 2.1647 -0.3658
4.8453 2.1590 -0.3733
4.8471 2.1541 -0.3841
4.8488 2.1491 -0.3948
4.8505 2.1442 -0.4056
4.8545 2.1389 -0.4135
4.8547 2.1342 -0.4262
4.8533 2.1296 -0.4410
4.8544 2.1198 -0.4659
4.8574 2.1048 -0.5021
4.8591 2.0998 -0.5131
3.1965 3.5082 0.8367
3.2370 3.4627 0.7746
3.1887 3.4794 0.7475
3.1621 3.4802 0.7100
3.1581 3.4652 0.6635
2.9562 3.5821 0.6770
2.7507 3.3495 -0.2556
4.7851 2.2525 -0.1741
4.7967 2.2435 -0.1810
4.8046 2.2317 -0.2009
4.8073 2.2264 -0.2113
4.8160 2.2190 -0.2182
4.8194 2.2135 -0.2279
4.8203 2.2088 -0.2391
4.8271 2.1980 -0.2580
4.8331 2.1919 -0.2655
4.8347 2.1871 -0.2759
4.8338 2.1830 -0.2884
4.8406 2.1769 -0.2947
4.8397 2.1727 -0.3073
4.8430 2.1676 -0.3162
4.8472 2.1623 -0.3243
4.8472 2.1579 -0.3362
4.8496 2.1529 -0.3458
4.8488 2.1486 -0.3587
4.8505 2.1438 -0.3691
4.8497 2.1394 -0.3822
4.8522 2.1344 -0.3918
4.8514 2.1299 -0.4051
4.8555 2.1248 -0.4128
4.8556 2.1201 -0.4252
4.8565 2.1153 -0.4368
4.8574 2.1105 -0.4484
4.8582 2.1057 -0.4601
4.8599 2.1008 -0.4707
4.8601 2.0960 -0.4835
4.8594 2.0911 -0.4977
4.8573 2.0861 -0.5143
3.1247 3.4935 0.8637
3.0713 3.5117 0.8383
2.9748 3.5574 0.8263
2.9920 3.5078 0.7184
4.7806 2.2554 -0.1344
4.7979 2.2400 -0.1514
4.8067 2.2282 -0.1704
4.8166 2.2205 -0.1772
4.8209 2.2149 -0.1862
4.8235 2.2099 -0.1960
4.8179 2.2074 -0.2102
4.8328 2.1945 -0.2239
4.8344 2.1898 -0.2340
4.8342 2.1857 -0.2453
4.8376 2.1806 -0.2542
4.8392 2.1759 -0.2643
4.8425 2.1709 -0.2731
4.8450 2.1661 -0.2824
4.8457 2.1617 -0.2932
4.8464 2.1572 -0.3040
4.8480 2.1526 -0.3140
4.8488 2.1481 -0.3249
4.8479 2.1438 -0.3375
4.8520 2.1388 -0.3451
4.8528 2.1343 -0.3561
4.8536 2.1297 -0.3671
4.8543 2.1251 -0.3782
4.8543 2.1206 -0.3902
4.8535 2.1161 -0.4034
4.8567 2.1113 -0.4117
4.8576 2.1066 -0.4229
4.8552 2.1020 -0.4385
4.8544 2.0973 -0.4521
4.8553 2.0924 -0.4637
4.8569 2.0876 -0.4742
4.8570 2.0828 -0.4870
2.9201 3.5240 0.8451
4.7812 2.2519 -0.1064
4.7979 2.2371 -0.1239
4.8042 2.2306 -0.1328
4.8196 2.2171 -0.1486
4.8231 2.2119 -0.1578
4.8262 2.2028 -0.1776
4.8287 2.1980 -0.1870
4.8285 2.1940 -0.1979
4.8319 2.1889 -0.2067
4.8361 2.1837 -0.2150
4.8377 2.1792 -0.2248
4.8408 2.1702 -0.2444
4.8441 2.1653 -0.2529
4.8457 2.1608 -0.2626
4.8472 2.1563 -0.2724
4.8479 2.1520 -0.2828
4.8503 2.1474 -0.2919
4.8501 2.1432 -0.3031
4.8534 2.1384 -0.3114
4.8550 2.1339 -0.3211
4.8557 2.1296 -0.3317
4.8521 2.1256 -0.3466
4.8537 2.1210 -0.3566
4.8536 2.1166 -0.3683
4.8568 2.1119 -0.3764
4.8542 2.1075 -0.3912
4.8583 2.1028 -0.3982
4.8582 2.0983 -0.4102
4.8565 2.0937 -0.4244
4.8581 2.0891 -0.4346
4.8589 2.0844 -0.4458
4.8597 2.0797 -0.4570
4.8605 2.0750 -0.4684
4.8589 2.0701 -0.4832
2.7987 3.5094 0.8358
2.8534 3.4567 0.7642
2.8474 3.4398 0.7135
4.8037 2.2242 -0.1174
4.8197 2.2148 -0.1229
4.8212 2.2104 -0.1326
4.8256 2.2050 -0.1412
4.8290 2.2000 -0.1500
4.8315 2.1954 -0.1592
4.8339 2.1908 -0.1682
4.8379 2.1818 -0.1867
4.8375 2.1779 -0.1972
4.8409 2.1731 -0.2057
4.8424 2.1687 -0.2151
4.8412 2.1650 -0.2264
4.8445 2.1602 -0.2347
4.8469 2.1557 -0.2435
4.8484 2.1513 -0.2530
4.8481 2.1473 -0.2638
4.8496 2.1429 -0.2734
4.8511 2.1385 -0.2829
4.8527 2.1342 -0.2924
4.8524 2.1300 -0.3035
4.8539 2.1256 -0.3130
4.8519 2.1215 -0.3259
4.8570 2.1168 -0.3322
4.8567 2.1125 -0.3435
4.8565 2.1082 -0.3549
4.8564 2.1038 -0.3665
4.8570 2.0994 -0.3772
4.8560 2.0949 -0.3899
4.8576 2.0904 -0.3997
4.8566 2.0858 -0.4126
4.8574 2.0813 -0.4236
4.8573 2.0766 -0.4357
4.8597 2.0721 -0.4445
4.8555 2.0671 -0.4624
4.8571 2.0624 -0.4726
2.6141 3.5232 0.8433
4.8015 2.2186 -0.1032
4.8139 2.2107 -0.1101
4.8223 2.2041 -0.1176
4.8258 2.1992 -0.1263
4.8331 2.1933 -0.1336
4.8345 2.1890 -0.1428
4.8379 2.1843 -0.1512
4.8365 2.1808 -0.1617
4.8399 2.1761 -0.1700
4.8404 2.1721 -0.1797
4.8452 2.1632 -0.1970
4.8467 2.1590 -0.2062
4.8481 2.1548 -0.2154
4.8486 2.1508 -0.2251
4.8492 2.1467 -0.2349
4.8516 2.1423 -0.2435
4.8512 2.1384 -0.2540
4.8536 2.1340 -0.2626
4.8532 2.1300 -0.2733
4.8492 2.1263 -0.2870
4.8525 2.1218 -0.2949
4.8558 2.1173 -0.3026
4.8537 2.1133 -0.3153
4.8552 2.1090 -0.3247
4.8558 2.1047 -0.3350
4.8564 2.1004 -0.3453
4.8562 2.0960 -0.3567
4.8577 2.0917 -0.3662
4.8583 2.0873 -0.3767
4.8555 2.0828 -0.3912
4.8579 2.0784 -0.3999
4.8560 2.0737 -0.4137
4.8584 2.0693 -0.4224
4.8573 2.0600 -0.4475
4.8563 2.0552 -0.4608
2.2486 3.4639 0.5060
4.8158 2.2004 -0.1053
4.8243 2.1942 -0.1126
4.8317 2.1883 -0.1199
4.8351 2.1837 -0.1282
4.8405 2.1785 -0.1358
4.8400 2.1749 -0.1454
4.8424 2.1706 -0.1539
4.8438 2.1665 -0.1629
4.8471 2.1620 -0.1708
4.8456 2.1585 -0.1812
4.8461 2.1546 -0.1906
4.8466 2.1506 -0.2001
4.8509 2.1460 -0.2074
4.8523 2.1419 -0.2163
4.8509 2.1382 -0.2271
4.8495 2.1345 -0.2380
4.8528 2.1301 -0.2457
4.8561 2.1257 -0.2534
4.8538 2.1220 -0.2652
4.8534 2.1179 -0.2758
4.8548 2.1138 -0.2849
4.8553 2.1096 -0.2948
4.8568 2.1054 -0.3039
4.8573 2.1013 -0.3139
4.8570 2.0971 -0.3248
4.8557 2.0928 -0.3367
4.8554 2.0886 -0.3479
4.8551 2.0842 -0.3591
4.8566 2.0799 -0.3685
4.8563 2.0755 -0.3799
4.8569 2.0711 -0.3903
4.8584 2.0668 -0.3998
4.8573 2.0622 -0.4125
4.8571 2.0576 -0.4242
4.8543 2.0527 -0.4394
4.8541 2.0480 -0.4515
2.5254 3.3824 0.7583
2.5350 3.3546 0.6979
2.3026 3.4399 0.6965
2.3131 3.4097 0.6306
2.2336 3.4198 0.5826
2.2444 3.3886 0.5146
2.3227 3.3282 0.4362
4.8130 2.1919 -0.1020
4.8287 2.1840 -0.1072
4.8331 2.1792 -0.1152
4.8386 2.1742 -0.1227
4.8420 2.1697 -0.1307
4.8413 2.1661 -0.1401
4.8437 2.1619 -0.1485
4.8461 2.1577 -0.1567
4.8485 2.1536 -0.1650
4.8499 2.1496 -0.1736
4.8483 2.1461 -0.1838
4.8497 2.1421 -0.1925
4.8501 2.1382 -0.2018
4.8505 2.1343 -0.2112
4.8519 2.1302 -0.2200
4.8523 2.1263 -0.2294
4.8537 2.1223 -0.2382
4.8551 2.1182 -0.2470
4.8546 2.1143 -0.2573
4.8551 2.1103 -0.2669
4.8556 2.1062 -0.2765
4.8551 2.1022 -0.2870
4.8565 2.0981 -0.2960
4.8552 2.0940 -0.3074
4.8557 2.0898 -0.3173
4.8553 2.0856 -0.3282
4.8558 2.0814 -0.3382
4.8582 2.0772 -0.3464
4.8569 2.0729 -0.3584
4.8584 2.0687 -0.3676
4.8571 2.0642 -0.3799
4.8538 2.0550 -0.4059
4.8544 2.0506 -0.4164
4.8524 2.0457 -0.4303
4.8504 2.0408 -0.4445
2.4130 3.4366 0.9679
2.2574 3.4872 0.9613
2.2450 3.4680 0.9034
2.3833 3.3792 0.8012
2.5094 3.2982 0.7077
2.1959 3.3871 0.6621
2.1598 3.3759 0.6040
2.0043 3.3850 0.4949
4.8359 2.1701 -0.1103
4.8437 2.1612 -0.1257
4.8451 2.1573 -0.1342
4.8454 2.1536 -0.1431
4.8468 2.1497 -0.1516
4.8481 2.1457 -0.1601
4.8505 2.1417 -0.1681
4.8512 2.1341 -0.1861
4.8525 2.1302 -0.1947
4.8529 2.1264 -0.2038
4.8552 2.1224 -0.2117
4.8536 2.1187 -0.2222
4.8550 2.1147 -0.2308
4.8554 2.1108 -0.2401
4.8548 2.1070 -0.2501
4.8582 2.1029 -0.2573
4.8566 2.0990 -0.2682
4.8561 2.0950 -0.2785
4.8556 2.0910 -0.2889
4.8570 2.0869 -0.2977
4.8565 2.0828 -0.3082
4.8579 2.0788 -0.3171
4.8565 2.0746 -0.3287
4.8570 2.0704 -0.3386
4.8575 2.0662 -0.3485
4.8543 2.0617 -0.3624
4.8549 2.0574 -0.3725
4.8536 2.0529 -0.3848
4.8541 2.0485 -0.3950
4.8529 2.0439 -0.4075
4.8507 2.0390 -0.4213
4.8513 2.0345 -0.4319
2.0954 3.5392 1.1417
2.0572 3.5309 1.0919
2.0923 3.4886 1.0159
2.3270 3.3585 0.8791
2.2944 3.3482 0.8288
2.1245 3.3957 0.8135
2.1112 3.3747 0.7520
2.1220 3.3434 0.6840
1.9275 3.3942 0.6579
1.9119 3.3715 0.5903
1.8379 3.3706 0.5308
1.4974 3.4674 0.5045
3.1314 2.6664 -0.1906
4.8337 2.1625 -0.1070
4.8403 2.1576 -0.1138
4.8447 2.1532 -0.1212
4.8460 2.1493 -0.1295
4.8474 2.1455 -0.1378
4.8518 2.1413 -0.1448
4.8521 2.1376 -0.1535
4.8537 2.1301 -0.1705
4.8540 2.1264 -0.1793
4.8543 2.1227 -0.1882
4.8546 2.1190 -0.1971
4.8559 2.1151 -0.2054
4.8552 2.1114 -0.2150
4.8526 2.1077 -0.2260
4.8550 2.1038 -0.2339
4.8533 2.1000 -0.2445
4.8547 2.0960 -0.2530
4.8570 2.0921 -0.2608
4.8564 2.0882 -0.2709
4.8559 2.0842 -0.2811
4.8553 2.0801 -0.2914
4.8548 2.0761 -0.3018
4.8571 2.0721 -0.3096
4.8566 2.0680 -0.3202
4.8551 2.0637 -0.3317
4.8556 2.0595 -0.3415
4.8532 2.0551 -0.3543
4.8509 2.0505 -0.3673
4.8514 2.0462 -0.3774
4.8510 2.0417 -0.3886
4.8506 2.0372 -0.3999
4.8493 2.0325 -0.4124
4.8489 2.0279 -0.4239
2.0564 3.4555 1.0912
2.1377 3.3945 1.0010
2.1246 3.3743 0.9428
2.0392 3.3834 0.9047
1.9743 3.3825 0.8570
2.0364 3.3305 0.7747
1.9964 3.3186 0.7178
2.0824 3.2584 0.6328
1.8289 3.3241 0.6135
1.2716 3.4940 0.6326
1.2453 3.4683 0.5519
2.9857 2.6566 -0.1879
4.8370 2.1540 -0.1022
4.8404 2.1499 -0.1099
4.8439 2.1458 -0.1174
4.8494 2.1414 -0.1241
4.8517 2.1375 -0.1318
4.8520 2.1340 -0.1403
4.8533 2.1302 -0.1483
4.8545 2.1265 -0.1564
4.8527 2.1231 -0.1660
4.8530 2.1194 -0.1747
4.8543 2.1157 -0.1828
4.8535 2.1121 -0.1922
4.8558 2.1082 -0.1998
4.8551 2.1045 -0.2092
4.8554 2.1008 -0.2181
4.8577 2.0969 -0.2257
4.8570 2.0932 -0.2354
4.8574 2.0893 -0.2444
4.8567 2.0855 -0.2542
4.8550 2.0815 -0.2649
4.8554 2.0776 -0.2742
4.8567 2.0737 -0.2827
4.8542 2.0695 -0.2945
4.8546 2.0655 -0.3040
4.8530 2.0613 -0.3153
4.8558 2.0533 -0.3327
4.8514 2.0486 -0.3472
4.8499 2.0441 -0.3590
4.8504 2.0399 -0.3690
4.8509 2.0356 -0.3790
4.8476 2.0307 -0.3933
4.8452 2.0258 -0.4068
1.9312 3.4336 1.1341
1.9158 3.4128 1.0743
1.9005 3.3914 1.0134
1.8855 3.3695 0.9513
1.9227 3.3274 0.8741
1.7391 3.3675 0.8530
1.7508 3.3336 0.7792
1.5020 3.3270 0.6050
1.3744 3.3361 0.5453
2.7949 2.6526 -0.1871
4.8398 2.1426 -0.1063
4.8454 2.1383 -0.1130
4.8488 2.1343 -0.1203
4.8511 2.1305 -0.1279
4.8513 2.1270 -0.1362
4.8526 2.1233 -0.1442
4.8538 2.1197 -0.1521
4.8551 2.1160 -0.1601
4.8532 2.1126 -0.1696
4.8545 2.1089 -0.1776
4.8570 2.1015 -0.1936
4.8573 2.0978 -0.2023
4.8575 2.0942 -0.2110
4.8588 2.0904 -0.2191
4.8570 2.0867 -0.2292
4.8563 2.0829 -0.2388
4.8566 2.0791 -0.2477
4.8548 2.0751 -0.2583
4.8562 2.0713 -0.2666
4.8555 2.0674 -0.2765
4.8548 2.0633 -0.2865
4.8542 2.0593 -0.2967
4.8525 2.0551 -0.3078
4.8539 2.0512 -0.3163
4.8523 2.0468 -0.3277
4.8536 2.0429 -0.3363
4.8472 2.0377 -0.3529
4.8486 2.0336 -0.3617
4.8490 2.0294 -0.3715
4.8466 2.0246 -0.3846
4.8471 2.0203 -0.3947
4.8447 2.0153 -0.4081
4.3870 0.1167 0.3231
4.3563 0.1149 0.3301
4.3298 0.1215 0.3354
4.2651 0.0735 0.3540
3.4531 0.0540 0.5362
3.4243 0.0978 0.5388
3.3185 0.0853 0.5634
3.2512 0.1063 0.5765
-0.4530 3.4942 1.0994
4.4026 0.1322 0.2893
4.3976 0.1705 0.2872
4.3617 0.1609 0.2952
4.3268 0.1553 0.3026
3.4030 0.0062 0.4994
3.2918 -0.0120 0.5231
3.2963 0.0626 0.5162
3.2772 0.1188 0.5154
3.2084 0.1416 0.5273
0.1184 3.4014 0.8810
0.1972 3.4605 0.8604
4.4129 0.1391 0.2577
4.3946 0.1560 0.2597
4.3663 0.1584 0.2645
4.3285 0.1485 0.2719
4.2103 0.0254 0.3019
3.3280 -0.2108 0.4758
3.3905 -0.0822 0.4553
3.2635 -0.1155 0.4802
3.1911 -0.0978 0.4918
3.1141 -0.0797 0.5041
3.2096 0.1369 0.4713
-0.5780 3.4701 0.8986
-0.0357 3.4759 0.8019
0.2775 3.4459 0.7486
4.3991 0.1534 0.2295
4.3472 0.1189 0.2398
4.3003 0.0964 0.2485
4.2754 0.1096 0.2515
3.2675 -0.2743 0.4324
3.3462 -0.1283 0.4106
3.2779 -0.1113 0.4201
3.2320 -0.0731 0.4247
3.0705 -0.1195 0.4527
2.4168 1.9108 0.4205
2.0920 2.0239 0.4633
-0.4404 3.5447 0.7548
4.4276 0.1434 0.1963
4.4094 0.1603 0.1977
4.3668 0.1396 0.2045
4.3152 0.1089 0.2131
4.2904 0.1219 0.2156
4.0096 -0.1013 0.2654
3.3028 -0.3303 0.3714
3.3919 -0.1705 0.3505
3.4396 -0.0554 0.3376
3.3532 -0.0568 0.3490
3.1932 -0.1111 0.3732
3.1724 -0.0500 0.3724
3.1925 0.0403 0.3645
3.1721 0.1002 0.3638
3.1656 0.1690 0.3606
2.4725 1.8501 0.3547
2.3324 1.9299 0.3685
-0.4117 3.5529 0.6353
-0.0453 3.5148 0.5893
-0.0194 3.5981 0.5811
4.4371 0.1491 0.1653
4.4082 0.1482 0.1684
4.3811 0.1522 0.1711
4.3609 0.1687 0.1725
4.3285 0.1683 0.1760
4.2767 0.1426 0.1829
3.3787 -0.2678 0.3002
3.4059 -0.1665 0.2922
3.3632 -0.1300 0.2950
3.3191 -0.0928 0.2979
3.2745 -0.0542 0.3008
3.2276 -0.0153 0.3039
3.2343 0.0640 0.2993
3.1113 0.1286 0.3093
1.9680 1.5524 0.3619
2.2226 1.6187 0.3311
2.2891 1.6836 0.3207
2.6539 1.7194 0.2796
2.2192 1.8889 0.3181
2.5399 1.9058 0.2826
2.5874 2.0101 0.2723
4.4293 0.1728 0.1350
4.4083 0.1855 0.1363
4.3921 0.2070 0.1368
4.3675 0.2167 0.1384
4.3412 0.2254 0.1403
4.2841 0.1933 0.1464
3.4309 -0.1524 0.2326
3.3413 -0.1576 0.2404
3.3812 -0.0488 0.2325
3.3136 -0.0304 0.2374
3.2158 -0.0313 0.2457
3.1683 0.0100 0.2479
3.1119 0.1234 0.2480
2.5531 1.1492 0.2523
2.3840 1.2006 0.2644
2.6033 1.6696 0.2264
2.5640 1.7326 0.2271
2.2139 1.8966 0.2497
2.6870 1.9443 0.2079
2.6676 2.0015 0.2072
2.6481 2.0587 0.2064
2.6928 2.1008 0.2009
4.4700 0.1846 0.1020
4.4622 0.2173 0.1013
4.4294 0.2095 0.1036
4.3909 0.1956 0.1063
4.3752 0.2189 0.1065
4.3520 0.2319 0.1075
4.2961 0.2008 0.1119
4.1109 0.3709 0.1173
3.3993 -0.1904 0.1788
3.3915 -0.1219 0.1770
3.3952 -0.0448 0.1742
3.3758 0.0121 0.1735
3.2176 -0.0371 0.1846
3.0662 -0.0708 0.1948
2.9454 -0.0738 0.2022
1.4219 0.4815 0.2752
2.0257 0.9979 0.2216
2.3789 1.2032 0.1935
2.3083 1.2706 0.1955
2.4806 1.3535 0.1824
2.5731 1.8560 0.1600
2.5885 1.9115 0.1572
2.6363 1.9597 0.1528
2.6330 2.0151 0.1511
2.7854 2.0359 0.1412
2.6270 2.1237 0.1478
2.5564 2.1945 0.1497
2.4826 2.2682 0.1517
4.4820 0.1951 0.0717
4.4742 0.2276 0.0712
4.4495 0.2323 0.0719
4.4265 0.2416 0.0725
4.3858 0.2255 0.0744
4.3509 0.2213 0.0757
4.3207 0.2261 0.0767
4.2892 0.2313 0.0777
4.1329 0.3867 0.0793
3.4479 -0.1545 0.1174
3.4167 -0.1081 0.1173
3.4203 -0.0314 0.1153
3.3665 -0.0027 0.1165
3.2457 -0.0227 0.1213
3.0664 -0.0778 0.1291
2.1562 0.7664 0.1404
2.2072 1.1886 0.1279
2.2318 1.2683 0.1250
2.2551 1.3454 0.1223
2.7428 1.7841 0.0938
2.6054 1.8580 0.0969
2.6196 1.9132 0.0950
2.5641 1.9793 0.0953
1.8459 2.2500 0.1141
1.9819 2.2868 0.1084
2.1530 2.3079 0.1017
2.4608 2.2827 0.0914
4.5008 0.2175 0.0415
4.4668 0.2050 0.0421
4.4462 0.2172 0.0421
4.4204 0.2224 0.0423
4.3956 0.2310 0.0425
4.3559 0.2193 0.0431
4.3538 0.2638 0.0424
4.3109 0.2519 0.0430
4.2792 0.2581 0.0433
4.1247 0.3718 0.0431
3.5465 -0.0715 0.0569
3.4752 -0.0645 0.0575
3.4003 -0.0562 0.0582
3.3327 -0.0375 0.0587
3.2866 0.0016 0.0585
3.1997 0.0127 0.0593
3.1362 0.0451 0.0594
1.3350 0.8956 0.0650
1.7596 1.0547 0.0577
2.0390 1.1747 0.0526
1.5929 1.2232 0.0567
2.4908 1.4304 0.0433
1.3987 2.1146 0.0439
1.2918 2.2169 0.0434
1.5523 2.2480 0.0400
1.8646 2.2553 0.0364
2.0760 2.2733 0.0338
2.1925 2.3066 0.0320
4.4888 0.1860 0.0123
4.4637 0.1895 0.0119
4.4536 0.2193 0.0116
4.4222 0.2156 0.0111
4.3832 0.2026 0.0107
4.3601 0.2162 0.0103
4.3338 0.2266 0.0098
4.2811 0.2026 0.0093
4.0490 0.1795 0.0062
4.1111 0.3513 0.0057
3.6353 -0.0660 0.0024
3.5080 -0.1164 0.0010
3.4224 -0.1202 -0.0001
3.2289 0.0273 -0.0041
3.2343 0.1071 -0.0046
1.4957 0.5027 -0.0323
1.5822 0.6314 -0.0321
1.9354 0.8093 -0.0286
2.1150 1.2673 -0.0299
1.9751 1.3400 -0.0324
2.4030 1.4325 -0.0272
2.1924 1.5025 -0.0307
2.6639 1.6869 -0.0256
2.6946 1.7435 -0.0256
0.5383 2.1603 -0.0593
1.0102 2.1874 -0.0529
1.3139 2.2232 -0.0490
1.7643 2.2146 -0.0426
1.9644 2.2423 -0.0400
2.1171 2.2724 -0.0381
2.2091 2.3114 -0.0371
2.4353 2.3071 -0.0339
4.4584 0.1211 -0.0192
4.4636 0.1787 -0.0189
4.4402 0.1871 -0.0199
4.4137 0.1921 -0.0209
4.3641 0.1634 -0.0229
4.3329 0.1664 -0.0241
4.3048 0.1760 -0.0252
4.2374 0.1333 -0.0279
4.0603 0.0705 -0.0349
4.0571 0.1242 -0.0350
4.0542 0.1771 -0.0351
4.0808 0.2607 -0.0340
3.5512 -0.1579 -0.0550
3.5005 -0.1324 -0.0570
3.4705 -0.0856 -0.0582
3.4729 -0.0101 -0.0581
3.4428 0.0371 -0.0592
3.4781 0.1361 -0.0578
3.2569 0.0412 -0.0665
3.1081 0.0125 -0.0724
2.9558 -0.0089 -0.0784
1.2688 0.5579 -0.1446
2.0776 0.9294 -0.1126
2.0781 1.1020 -0.1125
2.0786 1.1861 -0.1125
2.3574 1.2893 -0.1014
2.2116 1.3562 -0.1072
2.4202 1.4375 -0.0989
2.4135 1.6442 -0.0991
2.5894 1.6979 -0.0921
2.6045 1.7579 -0.0915
0.0949 2.3490 -0.1901
2.0612 2.2956 -0.1127
2.3125 2.2927 -0.1028
2.4314 2.3171 -0.0981
0.7929 3.3849 -0.1622
4.4528 0.1493 -0.0513
4.4122 0.1300 -0.0541
4.3951 0.1520 -0.0550
4.3659 0.1559 -0.0569
4.3213 0.1390 -0.0600
4.2701 0.1163 -0.0635
4.0326 0.0270 -0.0798
4.1193 0.2948 -0.0717
4.1381 0.3656 -0.0698
3.5460 -0.0985 -0.1126
3.4280 -0.1328 -0.1206
3.4760 -0.0154 -0.1164
3.5413 0.1106 -0.1110
3.4916 0.1400 -0.1140
3.4516 0.1789 -0.1162
3.1967 0.0682 -0.1338
3.0863 0.0716 -0.1410
1.6407 0.8525 -0.2279
2.2847 1.0508 -0.1842
2.1536 1.1147 -0.1921
2.0425 1.1862 -0.1987
0.6522 1.1691 -0.2894
2.3024 1.4395 -0.1795
2.3922 1.5125 -0.1729
2.4331 1.5812 -0.1697
2.5318 1.6437 -0.1627
2.6050 1.7024 -0.1573
2.6899 1.7554 -0.1513
2.7361 1.8083 -0.1478
2.6314 1.8800 -0.1540
0.1864 2.8833 -0.3040
1.8146 2.5072 -0.2014
0.0071 3.7373 -0.3078
-0.0306 3.8483 -0.3092
4.4337 0.1049 -0.0862
4.4025 0.1026 -0.0891
4.2910 0.0832 -0.0996
4.2190 0.0321 -0.1071
4.1682 0.3406 -0.1061
4.1519 0.3731 -0.1070
3.4850 -0.1659 -0.1776
3.3954 -0.1715 -0.1858
3.4677 -0.0307 -0.1767
3.4374 0.0176 -0.1786
3.4514 0.1016 -0.1758
3.4321 0.1581 -0.1765
3.1401 0.0217 -0.2056
2.9013 -0.0583 -0.2288
1.0921 0.6384 -0.3812
1.3833 0.8086 -0.3516
1.7411 0.9706 -0.3160
1.7792 1.0712 -0.3107
1.3572 1.5230 -0.3410
1.9232 1.6018 -0.2880
2.4678 1.6527 -0.2375
2.6207 1.7069 -0.2226
2.7214 1.7580 -0.2124
2.7986 1.8065 -0.2045
4.2262 0.3485 -0.1377
4.2303 0.4015 -0.1358
3.3558 -0.2994 -0.2575
3.3344 -0.2366 -0.2584
3.4484 -0.0558 -0.2401
3.5060 0.0669 -0.2300
3.4761 0.1141 -0.2322
3.3021 0.0541 -0.2543
3.1851 0.0469 -0.2683
2.9895 -0.0059 -0.2927
1.0942 0.3974 -0.5046
1.0027 0.4986 -0.5126
1.1688 0.6565 -0.4888
1.4084 0.8158 -0.4563
1.9617 1.0071 -0.3861
0.9306 1.2010 -0.5021
0.8928 1.3119 -0.5035
1.1648 1.5314 -0.4656
1.6879 1.6158 -0.4018
2.4407 1.7271 -0.3103
4.3722 0.2838 -0.1565
4.3669 0.3240 -0.1558
4.3371 0.3315 -0.1598
4.2767 0.3515 -0.1678
4.2537 0.3727 -0.1703
3.0809 -0.6726 -0.3774
3.1563 -0.5024 -0.3604
3.3235 -0.2565 -0.3273
3.4401 -0.0716 -0.3038
3.4658 0.0257 -0.2966
3.3751 0.0269 -0.3097
3.2912 0.0389 -0.3213
3.1865 0.0411 -0.3364
3.0723 0.0434 -0.3528
1.7773 -0.3221 -0.5529
1.5531 0.0588 -0.5715
1.5728 0.4141 -0.5558
1.6189 0.5379 -0.5447
2.0104 0.7387 -0.4809
1.8136 0.7925 -0.5074
1.4336 0.8230 -0.5611
1.8542 0.9938 -0.4942
1.8265 1.1772 -0.4916
1.7961 1.2664 -0.4928
1.7657 1.3556 -0.4939
1.6746 1.6232 -0.4974
2.4391 1.6659 -0.3855
2.4781 1.7302 -0.3776
2.3918 1.8048 -0.3873
0.6714 2.5037 -0.6104
0.5240 2.6375 -0.6268
0.3703 2.7776 -0.6439
0.3913 2.8731 -0.6374
0.6345 2.8988 -0.6014
0.5990 3.0034 -0.6028
0.5634 3.1079 -0.6041
0.7830 3.1198 -0.5720
0.8905 3.1646 -0.5548
0.9041 3.2418 -0.5501
4.4085 0.2794 -0.1851
4.2991 0.3709 -0.1997
3.3238 -0.5283 -0.4077
3.3291 -0.4336 -0.4025
3.3209 -0.3544 -0.4003
3.3780 -0.2160 -0.3843
3.5421 0.0097 -0.3459
3.5229 0.0659 -0.3466
3.2666 0.0132 -0.3930
3.0068 -0.0075 -0.4385
2.5240 -0.2312 -0.5314
2.4174 -0.1938 -0.5480
2.3879 -0.1071 -0.5491
2.3310 -0.0350 -0.5556
2.3013 0.0525 -0.5567
2.3274 0.1657 -0.5471
2.2417 0.2274 -0.5590
2.2119 0.3149 -0.5601
2.0911 0.3696 -0.5784
1.9967 0.4387 -0.5914
2.0298 0.5497 -0.5807
1.7945 0.5853 -0.6194
2.1798 0.7799 -0.5445
1.9378 0.8200 -0.5842
1.8737 0.9041 -0.5914
1.8427 0.9951 -0.5926
1.9439 1.1022 -0.5703
2.0657 1.2039 -0.5448
1.8843 1.2771 -0.5726
2.2792 1.4588 -0.4967
2.3947 1.5331 -0.4735
2.4376 1.6029 -0.4630
2.4349 1.6721 -0.4603
2.5153 1.7333 -0.4437
2.4923 1.8007 -0.4446
2.2957 1.8910 -0.4742
1.7208 2.1280 -0.5620
1.3780 2.3600 -0.6103
1.3857 2.4415 -0.6053
1.3161 2.5419 -0.6127
1.2458 2.6442 -0.6201
1.1319 2.7614 -0.6343
1.1833 2.8280 -0.6224
1.1922 2.9059 -0.6174
1.2017 2.9820 -0.6123
1.0894 3.1036 -0.6260
1.0581 3.1955 -0.6272
1.0268 3.2874 -0.6284
0.9956 3.3793 -0.6296
1.0063 3.4518 -0.6245
3.5394 -1.3371 -0.4807
3.4767 -1.3323 -0.4929
3.5315 -1.1404 -0.4715
3.5535 -0.6332 -0.4394
3.6407 -0.4393 -0.4114
3.6410 -0.3580 -0.4069
3.5023 -0.4341 -0.4387
3.4449 -0.4116 -0.4488
3.4112 -0.3614 -0.4528
3.3229 -0.3635 -0.4705
3.4547 -0.1545 -0.4328
3.5455 0.0045 -0.4060
3.4250 -0.0245 -0.4316
3.3297 -0.0247 -0.4506
3.2682 0.0070 -0.4611
3.1592 0.0077 -0.4827
3.0240 -0.0026 -0.5102
2.8540 -0.0265 -0.5453
2.8080 0.0356 -0.5511
2.7416 0.0876 -0.5614
2.8366 0.2284 -0.5348
2.8499 0.3201 -0.5272
2.8255 0.3917 -0.5281
2.8012 0.4634 -0.5290
2.7768 0.5350 -0.5300
2.6924 0.5850 -0.5440
2.6460 0.6513 -0.5496
2.5108 0.6926 -0.5742
2.4124 0.7504 -0.5907
2.5705 0.8732 -0.5525
2.4785 0.9334 -0.5675
2.4059 1.0009 -0.5782
2.3550 1.0744 -0.5844
2.4240 1.1636 -0.5657
2.4225 1.2411 -0.5618
2.3971 1.3157 -0.5628
2.4841 1.3946 -0.5411
2.5443 1.4674 -0.5252
2.4572 1.5376 -0.5386
2.3879 1.6104 -0.5485
2.3178 1.6855 -0.5583
2.3622 1.7528 -0.5458
2.3604 1.8219 -0.5423
2.4860 1.8728 -0.5146
2.2649 1.9715 -0.5531
2.3772 2.0190 -0.5282
2.3537 2.0879 -0.5291
1.9579 2.2408 -0.5995
2.0399 2.2917 -0.5804
1.9608 2.3813 -0.5912
1.8497 2.4824 -0.6078
1.8230 2.5608 -0.6088
1.9402 2.6578 -0.5802
1.9942 2.7030 -0.5670
1.8607 2.8181 -0.5872
1.7196 2.9406 -0.6086
1.7235 3.0054 -0.6043
1.6667 3.0961 -0.6106
1.5775 3.2030 -0.6225
3.6064 -1.1444 -0.5274
3.6190 -1.0244 -0.5168
3.5458 -0.6581 -0.5099
3.6746 -0.4112 -0.4648
3.6353 -0.3772 -0.4715
3.5731 -0.3670 -0.4850
3.5747 -0.2840 -0.4793
3.4139 -0.3703 -0.5213
3.3113 -0.3861 -0.5456
3.4805 -0.1401 -0.4914
3.4948 -0.0492 -0.4823
3.4038 -0.0508 -0.5031
3.2781 -0.0743 -0.5331
3.1608 0.0016 -0.5548
3.0245 -0.0091 -0.5864
3.0511 0.0941 -0.5738
3.0277 0.1630 -0.5747
3.0206 0.2412 -0.5713
2.9807 0.3008 -0.5765
3.0241 0.4030 -0.5601
3.0173 0.4773 -0.5568
2.9274 0.5149 -0.5748
2.9386 0.5969 -0.5670
2.9156 0.6643 -0.5679
2.8927 0.7317 -0.5688
2.8165 0.7833 -0.5827
2.7930 0.8522 -0.5836
2.8057 0.9297 -0.5758
2.7595 1.0655 -0.5775
2.6992 1.1279 -0.5872
2.6164 1.1897 -0.6020
2.6712 1.2675 -0.5846
2.6479 1.3359 -0.5855
2.7373 1.4085 -0.5605
2.6208 1.4729 -0.5828
2.5170 1.5420 -0.6019
2.4724 1.6128 -0.6075
2.5314 1.6780 -0.5899
2.5283 1.7446 -0.5864
2.5052 1.8125 -0.5872
2.7927 1.8377 -0.5204
2.5199 1.9385 -0.5758
2.4972 2.0049 -0.5767
2.4547 2.0755 -0.5818
2.3896 2.1520 -0.5916
2.3665 2.2199 -0.5925
2.3433 2.2879 -0.5934
2.2768 2.3685 -0.6033
2.2303 2.4446 -0.6090
2.2067 2.5141 -0.6099
2.1830 2.5835 -0.6108
2.1358 2.6618 -0.6165
2.0883 2.7411 -0.6222
2.0882 2.8018 -0.6183
2.0885 2.8613 -0.6144
2.0648 2.9308 -0.6153
2.0167 3.0117 -0.6210
4.2769 0.1627 -0.3313
3.7541 -0.3263 -0.5008
3.6794 -0.3378 -0.5207
3.6792 -0.2593 -0.5150
3.6407 -0.2241 -0.5222
3.5798 -0.2102 -0.5367
3.5492 -0.1625 -0.5410
3.5401 -0.0936 -0.5382
3.5092 -0.0451 -0.5425
3.5644 0.0778 -0.5193
3.4581 0.0632 -0.5475
3.3522 0.0564 -0.5751
3.4743 0.2225 -0.5316
3.4325 0.2643 -0.5392
3.3408 0.2757 -0.5618
3.2861 0.3883 -0.5674
3.3043 0.4698 -0.5567
3.3094 0.5419 -0.5501
3.2894 0.6006 -0.5509
3.2436 0.6482 -0.5591
3.2495 0.7180 -0.5524
3.2422 0.7813 -0.5496
3.2223 0.8396 -0.5503
3.1626 0.8861 -0.5621
3.1826 0.9563 -0.5518
3.1628 1.0146 -0.5526
3.1563 1.0757 -0.5498
3.1096 1.1289 -0.5577
3.1032 1.1896 -0.5549
3.0127 1.2396 -0.5743
3.0209 1.3024 -0.5675
2.9857 1.3609 -0.5722
2.9804 1.4213 -0.5691
2.9897 1.4811 -0.5623
3.0128 1.5391 -0.5521
3.0616 1.5938 -0.5356
2.9444 1.6562 -0.5609
2.8792 1.7187 -0.5730
2.8898 1.7746 -0.5661
2.9148 1.8270 -0.5559
2.8347 1.8945 -0.5713
2.7818 1.9596 -0.5800
2.7285 2.0264 -0.5887
2.7577 2.0755 -0.5776
2.7542 2.1307 -0.5744
2.6665 2.2084 -0.5910
2.6118 2.2792 -0.5998
2.5909 2.3406 -0.6006
2.6045 2.3904 -0.5934
2.6188 2.4386 -0.5862
2.5820 2.5046 -0.5907
2.5249 2.5794 -0.5998
2.4672 2.6559 -0.6088
2.4794 2.8059 -0.5946
4.3330 0.1253 -0.3590
4.3242 0.1662 -0.3581
4.3051 0.1924 -0.3613
4.2776 0.2078 -0.3678
3.6834 -0.0393 -0.5572
3.6464 -0.0023 -0.5646
3.6176 0.0438 -0.5689
3.6183 0.1161 -0.5627
3.5274 0.1120 -0.5888
3.5296 0.1860 -0.5820
3.5526 0.2734 -0.5682
3.5535 0.3421 -0.5621
3.5250 0.3901 -0.5662
3.5063 0.4449 -0.5669
3.4253 0.5311 -0.5827
3.4399 0.6042 -0.5725
3.4641 0.6793 -0.5593
3.4130 0.7190 -0.5705
3.4051 0.7781 -0.5678
3.3531 0.8204 -0.5790
3.3461 0.8798 -0.5760
3.3034 0.9278 -0.5841
3.3086 0.9901 -0.5775
3.3123 1.0505 -0.5714
3.2877 1.1617 -0.5691
3.2209 1.2088 -0.5841
3.2020 1.2643 -0.5848
3.2078 1.3219 -0.5783
3.1514 1.3744 -0.5899
3.1454 1.4307 -0.5869
3.1639 1.4865 -0.5770
3.1209 1.5414 -0.5846
3.0887 1.5971 -0.5891
3.0958 1.6508 -0.5826
3.0897 1.7044 -0.5798
3.0458 1.7619 -0.5875
3.0398 1.8152 -0.5847
2.9943 1.8745 -0.5927
2.9331 1.9380 -0.6048
2.9707 1.9825 -0.5904
2.9376 2.0410 -0.5949
2.9465 2.0893 -0.5883
2.9144 2.1479 -0.5925
2.8810 2.2074 -0.5970
2.8621 2.2629 -0.5977
2.7984 2.3336 -0.6099
2.8243 2.3738 -0.5992
2.8054 2.4293 -0.5999
2.7560 2.4970 -0.6083
2.7676 2.5402 -0.6014
2.7643 2.5889 -0.5982
2.7743 2.6308 -0.5919
2.7412 2.6922 -0.5961
4.3558 0.1492 -0.3895
4.3404 0.1796 -0.3915
4.3140 0.1949 -0.3983
4.2900 0.2151 -0.4039
4.2852 0.2616 -0.4011
4.2616 0.2837 -0.4064
4.2370 0.3058 -0.4120
4.2164 0.3338 -0.4159
3.9602 0.1667 -0.5117
3.9108 0.1786 -0.5260
3.8226 0.1567 -0.5557
3.8058 0.2061 -0.5563
3.7968 0.2623 -0.5539
3.7950 0.3237 -0.5487
3.7466 0.3476 -0.5616
3.7385 0.4039 -0.5589
3.7844 0.4968 -0.5358
3.7452 0.5291 -0.5451
3.6963 0.5573 -0.5577
3.6956 0.6157 -0.5525
3.6705 0.6598 -0.5562
3.6960 0.7299 -0.5417
3.6548 0.8213 -0.5460
3.6305 0.8660 -0.5494
3.5962 0.9077 -0.5563
3.5706 0.9533 -0.5600
3.5813 1.0104 -0.5513
3.5991 1.0676 -0.5404
3.5299 1.1023 -0.5588
3.5133 1.1510 -0.5595
3.5063 1.2013 -0.5570
3.4802 1.2483 -0.5607
3.4080 1.3422 -0.5745
3.4239 1.4433 -0.5601
3.3873 1.4916 -0.5670
3.3909 1.5401 -0.5614
3.3847 1.5880 -0.5588
3.3477 1.6376 -0.5658
3.3311 1.6863 -0.5664
3.3355 1.7324 -0.5607
3.2556 1.7897 -0.5804
3.2707 1.8341 -0.5715
3.2541 1.8830 -0.5721
3.2276 1.9340 -0.5756
3.1999 1.9858 -0.5794
3.1941 2.0324 -0.5769
3.1195 2.0978 -0.5941
3.1371 2.1378 -0.5849
3.1326 2.1835 -0.5820
3.1272 2.2290 -0.5794
3.0990 2.2824 -0.5833
3.0694 2.3367 -0.5875
3.0067 2.4912 -0.5926
3.0148 2.5296 -0.5865
3.0100 2.5732 -0.5839
4.4261 0.1439 -0.4055
4.3697 0.2128 -0.4177
4.3296 0.2071 -0.4320
4.0430 -0.0667 -0.5585
4.0455 0.0021 -0.5505
4.0478 0.0688 -0.5428
4.0499 0.1333 -0.5355
4.2252 0.3875 -0.4491
4.2325 0.4455 -0.4406
4.1911 0.4525 -0.4540
3.9840 0.3033 -0.5404
3.9110 0.2946 -0.5663
3.8536 0.3046 -0.5849
3.8796 0.3869 -0.5675
3.8496 0.4220 -0.5741
3.8553 0.4846 -0.5657
3.7619 0.7061 -0.5747
3.7384 0.7487 -0.5784
3.7223 0.8488 -0.5735
3.7374 0.9072 -0.5623
3.6985 0.9951 -0.5665
3.6676 1.0360 -0.5729
3.6758 1.0883 -0.5646
3.6446 1.1298 -0.5710
3.6122 1.1721 -0.5777
3.6211 1.2226 -0.5695
3.5980 1.2670 -0.5728
3.5901 1.3136 -0.5707
3.5911 1.3605 -0.5654
3.5513 1.4041 -0.5746
3.5268 1.4495 -0.5782
3.5201 1.4955 -0.5758
3.5217 1.5408 -0.5705
3.5144 1.5857 -0.5684
3.4642 1.6333 -0.5806
3.4114 1.6829 -0.5936
3.4330 1.7252 -0.5818
3.4447 1.7671 -0.5735
3.4197 1.8140 -0.5772
3.4042 1.8595 -0.5777
3.3607 1.9111 -0.5873
3.3547 1.9549 -0.5848
3.3292 2.0035 -0.5885
3.3334 2.0440 -0.5829
3.2922 2.1387 -0.5872
3.2867 2.1811 -0.5847
3.2506 2.2344 -0.5915
3.2452 2.2766 -0.5890
3.2296 2.3225 -0.5896
3.2140 2.3685 -0.5902
3.1665 2.4287 -0.6002
3.1934 2.4554 -0.5882
3.1670 2.5063 -0.5920
4.4955 0.2000 -0.4113
4.4741 0.2135 -0.4178
4.4765 0.2675 -0.4107
4.4554 0.2829 -0.4168
4.2627 0.0415 -0.5161
4.2539 0.0876 -0.5141
4.2048 0.0773 -0.5335
4.1473 0.0599 -0.5570
4.1176 0.0828 -0.5654
4.1135 0.1386 -0.5606
4.1147 0.1993 -0.5532
4.0954 0.2356 -0.5563
4.1073 0.3056 -0.5439
4.1420 0.3961 -0.5207
4.1659 0.4715 -0.5032
4.0380 0.4041 -0.5585
4.0398 0.4602 -0.5515
4.0202 0.4973 -0.5545
4.0005 0.5347 -0.5576
4.0140 0.5972 -0.5455
4.0112 0.6461 -0.5409
3.9747 0.6717 -0.5516
3.9721 0.7202 -0.5471
3.9465 0.7544 -0.5527
3.9266 0.7926 -0.5558
3.9302 0.8432 -0.5487
3.9342 0.8926 -0.5415
3.8971 0.9229 -0.5519
3.8831 0.9641 -0.5525
3.8744 1.0072 -0.5508
3.8480 1.0440 -0.5564
3.8276 1.0835 -0.5595
3.8563 1.1800 -0.5379
3.8046 1.2121 -0.5535
3.7850 1.2522 -0.5562
3.7900 1.2960 -0.5494
3.7570 1.3345 -0.5573
3.7623 1.3773 -0.5504
3.7747 1.4194 -0.5410
3.7209 1.4581 -0.5567
3.7277 1.4992 -0.5494
3.6870 1.5403 -0.5599
3.6578 1.5822 -0.5660
3.6589 1.6226 -0.5610
3.6449 1.6637 -0.5615
3.6154 1.7068 -0.5676
3.6169 1.7460 -0.5626
3.5723 1.7925 -0.5739
3.5201 1.8816 -0.5832
3.5674 1.9091 -0.5625
3.5076 1.9623 -0.5787
3.4844 2.0069 -0.5823
3.4789 2.0465 -0.5798
3.4724 2.0860 -0.5777
3.4739 2.1224 -0.5730
3.4768 2.1576 -0.5680
3.4697 2.1960 -0.5662
3.4719 2.2304 -0.5615
3.3836 2.3032 -0.5861
3.3785 2.3413 -0.5836
3.3890 2.3717 -0.5763
3.3999 2.4010 -0.5689
3.4027 2.4335 -0.5641
4.5058 0.2066 -0.4423
4.5056 0.2563 -0.4362
4.4893 0.2781 -0.4400
4.2550 0.0779 -0.5593
4.2329 0.1054 -0.5648
4.2240 0.1516 -0.5626
4.2236 0.2080 -0.5558
4.2053 0.2413 -0.5590
4.1877 0.2757 -0.5618
4.1700 0.3105 -0.5647
4.1608 0.3548 -0.5629
4.1882 0.4361 -0.5417
4.2093 0.5073 -0.5244
4.1301 0.4825 -0.5594
4.1023 0.5091 -0.5673
4.1080 0.5648 -0.5581
4.0644 0.5799 -0.5737
4.0508 0.6200 -0.5743
4.0483 0.6679 -0.5693
4.0176 0.7928 -0.5662
4.0100 0.8354 -0.5640
3.9907 0.8716 -0.5672
3.9802 0.9575 -0.5608
3.9505 0.9898 -0.5687
3.9432 1.0315 -0.5665
3.9299 1.0707 -0.5670
3.9272 1.1131 -0.5628
3.9257 1.1551 -0.5582
3.8898 1.1883 -0.5685
3.8820 1.2287 -0.5667
3.8631 1.2667 -0.5696
3.8375 1.3042 -0.5752
3.8421 1.3458 -0.5682
3.8049 1.3829 -0.5786
3.8097 1.4236 -0.5716
3.7710 1.4621 -0.5824
3.7702 1.5020 -0.5778
3.7697 1.5412 -0.5731
3.7623 1.5801 -0.5712
3.7683 1.6177 -0.5642
3.7102 1.6609 -0.5822
3.6895 1.7015 -0.5855
3.6956 1.7384 -0.5785
3.6487 1.7838 -0.5918
3.6561 1.8198 -0.5843
3.6629 1.8549 -0.5772
3.6420 1.8960 -0.5805
3.6156 1.9389 -0.5858
3.5808 2.0208 -0.5897
3.5594 2.0633 -0.5930
3.5391 2.1058 -0.5959
3.5321 2.1435 -0.5940
3.5344 2.1772 -0.5889
3.5278 2.2141 -0.5870
3.5143 2.2536 -0.5875
3.5009 2.2932 -0.5880
3.4568 2.3473 -0.5991
3.4502 2.3840 -0.5972
4.5411 0.2085 -0.4628
4.4344 0.2288 -0.5063
4.3786 0.1946 -0.5351
4.3352 0.1840 -0.5554
4.3188 0.2151 -0.5583
4.3062 0.2520 -0.5588
4.3052 0.3037 -0.5522
4.2963 0.3444 -0.5507
4.2686 0.3625 -0.5602
4.2560 0.3994 -0.5607
4.2399 0.4323 -0.5632
4.2469 0.4894 -0.5525
4.2309 0.5221 -0.5551
4.2267 0.5661 -0.5510
4.2144 0.6022 -0.5515
4.1724 0.6134 -0.5681
4.2021 0.6841 -0.5457
4.1775 0.7105 -0.5529
4.1518 0.7371 -0.5604
4.1529 0.7827 -0.5538
4.1447 0.8213 -0.5522
4.1455 0.8649 -0.5460
4.1334 0.9004 -0.5464
4.0946 0.9224 -0.5603
4.0915 0.9631 -0.5561
4.1099 1.0126 -0.5415
4.0712 1.0371 -0.5550
4.0355 1.0644 -0.5668
4.0608 1.1136 -0.5492
4.0487 1.1492 -0.5497
4.0079 1.1771 -0.5636
4.0145 1.2179 -0.5552
4.0215 1.2577 -0.5468
4.0049 1.2921 -0.5494
3.9630 1.3233 -0.5634
3.9714 1.3619 -0.5545
3.9592 1.3976 -0.5550
3.9212 1.4318 -0.5669
3.9136 1.4684 -0.5653
3.8856 1.5046 -0.5725
3.8949 1.5407 -0.5636
3.8607 1.5780 -0.5735
3.8482 1.6147 -0.5739
3.8742 1.6473 -0.5582
3.8283 1.6874 -0.5728
3.8107 1.7247 -0.5754
3.8316 1.7554 -0.5622
3.7910 1.7970 -0.5742
3.7966 1.8295 -0.5674
3.7779 1.8672 -0.5704
3.7655 1.9034 -0.5709
3.7477 1.9413 -0.5735
3.7759 1.9648 -0.5581
3.7528 2.0040 -0.5629
3.7228 2.0461 -0.5702
3.7105 2.0822 -0.5707
3.7096 2.1137 -0.5668
3.6540 2.1678 -0.5837
3.6737 2.1905 -0.5721
3.6672 2.2239 -0.5704
3.6736 2.2509 -0.5640
3.6615 2.2864 -0.5644
4.5605 0.2329 -0.4857
4.4339 0.2171 -0.5469
4.3937 0.2069 -0.5670
4.3817 0.2420 -0.5675
4.3861 0.3004 -0.5570
4.3777 0.3393 -0.5552
4.3660 0.3737 -0.5557
4.3448 0.3961 -0.5623
4.3357 0.4341 -0.5610
4.3064 0.4489 -0.5724
4.3093 0.5003 -0.5636
4.2975 0.5350 -0.5641
4.2820 0.5661 -0.5667
4.2762 0.6517 -0.5570
4.2605 0.7262 -0.5535
4.2490 0.7602 -0.5539
4.2148 0.7780 -0.5672
4.1789 0.9231 -0.5628
4.1514 0.9898 -0.5659
4.1419 1.1402 -0.5485
4.1227 1.1711 -0.5529
4.0943 1.2002 -0.5619
4.0529 1.2647 -0.5717
4.0503 1.3009 -0.5677
4.0479 1.3365 -0.5637
4.0447 1.3715 -0.5600
4.0379 1.4057 -0.5582
4.0131 1.4387 -0.5650
4.0063 1.4729 -0.5632
4.0035 1.5068 -0.5595
3.9734 1.5411 -0.5686
3.9568 1.5756 -0.5713
3.9351 1.6108 -0.5762
3.9334 1.6443 -0.5722
3.9217 1.6786 -0.5726
3.9152 1.7122 -0.5708
3.8839 1.7500 -0.5799
3.8668 1.7858 -0.5826
3.8697 1.8172 -0.5767
3.8633 1.8503 -0.5748
3.8516 1.8847 -0.5753
3.8399 1.9190 -0.5757
3.8282 1.9534 -0.5762
3.8011 1.9930 -0.5830
3.7893 2.0277 -0.5835
3.7820 2.0607 -0.5821
3.7702 2.0953 -0.5825
3.7357 2.1395 -0.5921
3.7180 2.1772 -0.5949
3.7245 2.2039 -0.5880
3.7289 2.2309 -0.5820
3.7113 2.2683 -0.5848
4.5838 0.3132 -0.4967
4.5606 0.3190 -0.5073
4.5321 0.3178 -0.5216
4.4677 0.2608 -0.5626
4.4760 0.3240 -0.5485
4.4702 0.3636 -0.5452
4.4542 0.3880 -0.5494
4.4289 0.4002 -0.5601
4.4118 0.4250 -0.5647
4.4181 0.4799 -0.5530
4.4106 0.5161 -0.5510
4.3907 0.5378 -0.5575
4.3734 0.5633 -0.5622
4.3715 0.6055 -0.5565
4.3540 0.6314 -0.5611
4.3430 0.6639 -0.5616
4.3260 0.6911 -0.5657
4.3276 0.7346 -0.5582
4.3234 0.7723 -0.5544
4.3278 0.8159 -0.5454
4.3047 0.8386 -0.5533
4.2970 0.8726 -0.5518
4.3060 0.9169 -0.5404
4.2512 0.9220 -0.5668
4.2775 0.9752 -0.5455
4.2569 1.0015 -0.5516
4.2105 1.0163 -0.5724
4.2353 1.0649 -0.5524
4.2390 1.1024 -0.5448
4.2172 1.1296 -0.5513
4.2133 1.1635 -0.5480
4.1738 1.1863 -0.5640
4.1778 1.2225 -0.5564
4.1741 1.2560 -0.5530
4.1751 1.2900 -0.5472
4.1335 1.3160 -0.5638
4.1538 1.3525 -0.5480
4.1386 1.3832 -0.5508
4.1279 1.4146 -0.5512
4.0944 1.4448 -0.5631
4.0788 1.4768 -0.5659
4.0842 1.5088 -0.5582
4.0812 1.5403 -0.5548
4.0587 1.5725 -0.5609
4.0350 1.6054 -0.5676
4.0290 1.6370 -0.5656
4.0131 1.6697 -0.5684
4.0276 1.6977 -0.5568
4.0262 1.7275 -0.5529
4.0103 1.7598 -0.5557
3.9913 1.7932 -0.5600
3.9985 1.8202 -0.5522
3.9431 1.8638 -0.5728
3.9278 1.8974 -0.5752
3.9309 1.9252 -0.5693
3.9003 1.9640 -0.5785
3.9135 1.9876 -0.5682
3.8926 2.0234 -0.5730
3.8873 2.0533 -0.5710
3.8708 2.0878 -0.5738
3.8553 2.1220 -0.5762
3.8592 2.1472 -0.5703
3.8529 2.1769 -0.5688
3.8176 2.2211 -0.5794
4.6165 0.2683 -0.5209
4.6107 0.3050 -0.5178
4.6009 0.3337 -0.5182
4.5870 0.3550 -0.5220
4.5602 0.3550 -0.5362
4.5243 0.3424 -0.5573
4.4914 0.3380 -0.5754
4.4882 0.3811 -0.5699
4.4878 0.4273 -0.5624
4.4772 0.4582 -0.5628
4.4693 0.4927 -0.5613
4.4588 0.5235 -0.5617
4.4436 0.5486 -0.5655
4.4488 0.5979 -0.5545
4.4357 0.6253 -0.5569
4.4062 0.6359 -0.5707
4.4013 0.6728 -0.5671
4.3648 0.7211 -0.5784
4.3667 0.7634 -0.5703
4.3629 0.8390 -0.5597
4.3494 0.8673 -0.5621
4.3242 0.8880 -0.5720
4.3105 0.9171 -0.5744
4.3213 0.9611 -0.5613
4.3077 0.9899 -0.5637
4.2869 1.0512 -0.5645
4.2398 1.0657 -0.5869
4.2694 1.1138 -0.5633
4.2176 1.1646 -0.5821
4.2382 1.2054 -0.5644
4.2209 1.2673 -0.5632
4.2142 1.2984 -0.5616
4.2074 1.3294 -0.5600
4.1935 1.3591 -0.5624
4.1758 1.3886 -0.5668
4.1542 1.4183 -0.5733
4.1625 1.4500 -0.5636
4.1266 1.4798 -0.5776
4.1381 1.5107 -0.5664
4.1383 1.5408 -0.5612
4.1173 1.5716 -0.5672
4.1109 1.6016 -0.5655
4.0737 1.6350 -0.5796
4.0903 1.6623 -0.5663
4.0759 1.6933 -0.5688
4.0533 1.7260 -0.5753
4.0469 1.7559 -0.5736
4.0323 1.7875 -0.5761
4.0103 1.8213 -0.5821
4.0072 1.8502 -0.5789
3.9924 1.8824 -0.5813
3.9948 1.9091 -0.5756
3.9681 1.9454 -0.5837
3.9531 1.9781 -0.5861
3.9397 2.0372 -0.5833
3.9336 2.0662 -0.5817
3.9152 2.1006 -0.5857
3.9126 2.1279 -0.5825
3.9251 2.1474 -0.5726
4.6332 0.2896 -0.5417
4.6138 0.2992 -0.5509
4.6098 0.3389 -0.5461
4.5959 0.3602 -0.5501
4.5801 0.3787 -0.5556
4.5744 0.4148 -0.5524
4.5646 0.4436 -0.5528
4.5416 0.4526 -0.5641
4.5361 0.4885 -0.5608
4.5306 0.5240 -0.5575
4.5344 0.5714 -0.5470
4.5247 0.5999 -0.5473
4.5076 0.6194 -0.5534
4.4958 0.6458 -0.5554
4.4997 0.6900 -0.5453
4.4901 0.7183 -0.5457
4.4804 0.7467 -0.5460
4.4708 0.7750 -0.5464
4.4488 0.7922 -0.5557
4.4316 0.8147 -0.5613
4.4322 0.8522 -0.5543
4.4171 0.8769 -0.5584
4.4126 0.9096 -0.5551
4.4028 0.9383 -0.5555
4.3954 0.9685 -0.5542
4.3723 0.9891 -0.5636
4.3759 1.0257 -0.5550
4.3694 1.0560 -0.5533
4.3564 1.0830 -0.5557
4.3442 1.1105 -0.5577
4.3311 1.1379 -0.5602
4.3272 1.1688 -0.5569
4.2970 1.1906 -0.5699
4.3250 1.2312 -0.5470
4.3067 1.2570 -0.5527
4.3006 1.2862 -0.5509
4.2785 1.3119 -0.5587
4.2688 1.3405 -0.5591
4.2626 1.3697 -0.5573
4.2648 1.3994 -0.5508
4.2395 1.4264 -0.5602
4.2233 1.4547 -0.5643
4.2238 1.4837 -0.5588
4.1941 1.5124 -0.5704
4.2140 1.5404 -0.5542
4.1908 1.5695 -0.5621
4.1850 1.5977 -0.5603
4.1713 1.6267 -0.5628
4.1516 1.6568 -0.5685
4.1619 1.6823 -0.5582
4.1462 1.7118 -0.5618
4.1365 1.7403 -0.5621
4.1154 1.7715 -0.5684
4.1129 1.7984 -0.5650
4.1179 1.8228 -0.5579
4.0944 1.8807 -0.5608
4.0890 1.9075 -0.5590
4.0500 1.9468 -0.5739
4.0511 1.9714 -0.5689
4.0303 2.0047 -0.5746
4.0394 2.0254 -0.5658
4.0364 2.0508 -0.5630
4.0234 2.0808 -0.5650
4.0217 2.1053 -0.5616
3.9960 2.1418 -0.5695
4.6457 0.3030 -0.5654
4.6378 0.3345 -0.5641
4.6300 0.3658 -0.5628
4.6263 0.4043 -0.5577
4.6186 0.4352 -0.5564
4.5978 0.4438 -0.5672
4.5900 0.4749 -0.5659
4.5867 0.5125 -0.5608
4.5829 0.5486 -0.5562
4.5677 0.5681 -0.5615
4.5621 0.6011 -0.5586
4.5593 0.6372 -0.5535
4.5519 0.6670 -0.5522
4.5224 0.7095 -0.5617
4.5109 0.7350 -0.5637
4.5098 0.7713 -0.5575
4.4984 0.7968 -0.5595
4.4868 0.8224 -0.5615
4.4869 0.8582 -0.5547
4.4497 0.9675 -0.5561
4.4358 1.0249 -0.5535
4.4218 1.0494 -0.5571
4.4125 1.0767 -0.5575
4.4129 1.1087 -0.5512
4.4135 1.1400 -0.5449
4.3954 1.1934 -0.5456
4.3787 1.2175 -0.5509
4.3772 1.2467 -0.5463
4.3367 1.3241 -0.5557
4.3091 1.4053 -0.5567
4.3081 1.4330 -0.5520
4.2906 1.4595 -0.5574
4.2842 1.4866 -0.5561
4.2665 1.5137 -0.5615
4.2630 1.5407 -0.5585
4.2653 1.5670 -0.5521
4.2475 1.5946 -0.5575
4.2265 1.6230 -0.5646
4.2103 1.6513 -0.5689
4.2009 1.6788 -0.5692
4.1863 1.7329 -0.5677
4.1697 1.7620 -0.5720
