ply
format ascii 1.0
element vertex 2108
property float x
property float y
property float z
end_header
2.8320 -1.8519 -0.2603
2.8580 -1.8433 -0.2607
2.8850 -1.8268 -0.2657
2.9086 -1.8349 -0.2560
2.9340 -1.8283 -0.2552
2.9597 -1.8198 -0.2555
2.9931 -1.7779 -0.2753
3.0124 -1.7977 -0.2591
3.0409 -1.7799 -0.2648
3.0713 -1.7567 -0.2734
3.0937 -1.7605 -0.2666
3.1220 -1.7455 -0.2705
3.1471 -1.7400 -0.2691
3.1759 -1.7248 -0.2730
3.1960 -1.7312 -0.2650
3.2315 -1.7008 -0.2772
3.2520 -1.7052 -0.2704
3.2814 -1.6899 -0.2743
3.3044 -1.6878 -0.2711
3.3260 -1.6881 -0.2667
3.3520 -1.6795 -0.2670
3.3761 -1.6743 -0.2656
1.7953 -2.2274 -0.2570
1.8156 -2.2161 -0.2603
1.8362 -2.2046 -0.2636
1.8712 -2.2023 -0.2580
1.9037 -2.1989 -0.2535
1.9288 -2.1906 -0.2538
1.9453 -2.1759 -0.2601
1.9681 -2.1655 -0.2623
2.0000 -2.1624 -0.2578
2.0616 -2.1558 -0.2494
2.0937 -2.1545 -0.2436
2.1063 -2.1345 -0.2542
2.1226 -2.1171 -0.2624
2.1512 -2.1123 -0.2597
2.1813 -2.1097 -0.2552
2.1986 -2.0919 -0.2634
2.3901 -2.0608 -0.2444
2.4107 -2.0448 -0.2508
2.4594 -2.0268 -0.2526
2.5075 -2.0062 -0.2563
2.5296 -1.9887 -0.2634
2.5839 -1.9901 -0.2512
2.6334 -1.9756 -0.2506
2.6573 -1.9630 -0.2540
2.6814 -1.9486 -0.2586
2.7560 -1.9285 -0.2565
2.8063 -1.8951 -0.2681
2.8315 -1.8868 -0.2685
2.8538 -1.9053 -0.2516
2.9063 -1.8666 -0.2664
2.9319 -1.8553 -0.2685
2.9565 -1.8500 -0.2670
2.9827 -1.8367 -0.2704
3.0087 -1.8253 -0.2726
3.0369 -1.8067 -0.2791
3.0618 -1.8003 -0.2782
3.0828 -1.8053 -0.2705
3.1128 -1.7834 -0.2788
3.1331 -1.7887 -0.2711
3.2271 -1.7695 -0.2644
3.2519 -1.7613 -0.2647
3.2823 -1.7420 -0.2712
3.3103 -1.7281 -0.2746
3.3343 -1.7220 -0.2737
3.3607 -1.7114 -0.2753
1.7979 -2.2774 -0.2521
1.8292 -2.2735 -0.2480
1.8530 -2.2656 -0.2483
1.8768 -2.2577 -0.2486
1.9006 -2.2498 -0.2489
1.9179 -2.2377 -0.2536
1.9419 -2.2297 -0.2539
1.9694 -2.2243 -0.2517
1.9856 -2.2106 -0.2577
2.0039 -2.1981 -0.2624
2.0411 -2.2005 -0.2526
2.0688 -2.1959 -0.2498
2.0941 -2.1894 -0.2488
2.1178 -2.1815 -0.2491
2.1387 -2.1709 -0.2520
2.1605 -2.1609 -0.2542
2.1908 -2.1601 -0.2481
2.2126 -2.1501 -0.2503
2.2339 -2.1393 -0.2532
2.2578 -2.1315 -0.2535
2.2864 -2.1302 -0.2481
2.3089 -2.1209 -0.2497
2.3311 -2.1108 -0.2519
2.3571 -2.1068 -0.2490
2.3798 -2.0974 -0.2506
2.4059 -2.0943 -0.2471
2.4305 -2.0889 -0.2455
2.4514 -2.0755 -0.2502
2.4733 -2.0637 -0.2537
2.4965 -2.0542 -0.2553
2.5216 -2.0504 -0.2524
2.5466 -2.0476 -0.2489
2.5682 -2.0322 -0.2549
2.5936 -2.0321 -0.2495
2.6161 -2.0191 -0.2536
2.6412 -2.0209 -0.2469
2.6630 -2.0008 -0.2561
2.6873 -1.9992 -0.2520
2.7107 -1.9896 -0.2535
2.7343 -1.9854 -0.2513
2.7578 -1.9630 -0.2618
2.7815 -1.9615 -0.2577
2.8054 -1.9499 -0.2605
2.8287 -1.9487 -0.2563
2.8521 -1.9427 -0.2554
2.8775 -1.9215 -0.2647
2.9011 -1.9155 -0.2637
2.9263 -1.9007 -0.2685
2.9518 -1.8858 -0.2733
2.9695 -1.9057 -0.2556
2.9959 -1.8868 -0.2630
3.0185 -1.8830 -0.2607
3.0467 -1.8608 -0.2700
3.0683 -1.8600 -0.2658
3.0922 -1.8521 -0.2661
3.1189 -1.8368 -0.2710
3.1400 -1.8363 -0.2668
3.1626 -1.8316 -0.2651
3.1854 -1.8258 -0.2641
3.2092 -1.8179 -0.2644
3.2340 -1.8079 -0.2660
3.2617 -1.7923 -0.2709
3.2816 -1.7921 -0.2667
3.3042 -1.7865 -0.2657
3.3267 -1.7808 -0.2647
1.8358 -2.3023 -0.2543
1.8652 -2.2980 -0.2507
1.8840 -2.2881 -0.2536
1.9051 -2.2793 -0.2552
1.9215 -2.2675 -0.2601
1.9466 -2.2610 -0.2591
1.9680 -2.2521 -0.2607
1.9931 -2.2456 -0.2597
2.0257 -2.2448 -0.2528
2.0470 -2.2359 -0.2544
2.0579 -2.2186 -0.2645
2.0844 -2.2135 -0.2622
2.1092 -2.2071 -0.2612
2.1454 -2.2115 -0.2496
2.1949 -2.2006 -0.2463
2.2091 -2.1840 -0.2551
2.2321 -2.1764 -0.2554
2.2852 -2.1707 -0.2474
2.3110 -2.1676 -0.2437
2.3728 -2.1361 -0.2526
2.4425 -2.1167 -0.2508
2.5336 -2.0883 -0.2506
2.5572 -2.0842 -0.2482
2.5784 -2.0717 -0.2525
2.6471 -2.0544 -0.2494
2.6693 -2.0452 -0.2510
2.6917 -2.0359 -0.2526
2.7139 -2.0231 -0.2569
2.7594 -2.0189 -0.2495
2.7820 -2.0078 -0.2525
2.8046 -1.9985 -0.2541
2.8498 -1.9835 -0.2547
2.8713 -1.9837 -0.2496
2.8959 -1.9628 -0.2593
2.9199 -1.9484 -0.2643
2.9433 -1.9389 -0.2659
3.0096 -1.9251 -0.2607
3.0544 -1.9121 -0.2600
3.1208 -1.8937 -0.2582
3.1926 -1.8626 -0.2644
3.2143 -1.8572 -0.2634
3.2398 -1.8442 -0.2670
3.2639 -1.8344 -0.2687
3.2856 -1.8291 -0.2676
3.3097 -1.8192 -0.2693
1.8613 -2.3389 -0.2483
1.8812 -2.3305 -0.2500
1.8948 -2.3187 -0.2557
1.9130 -2.3091 -0.2587
1.9452 -2.3075 -0.2522
1.9711 -2.3025 -0.2497
1.9949 -2.2964 -0.2487
2.0095 -2.2844 -0.2544
2.0369 -2.2807 -0.2506
2.0537 -2.2697 -0.2550
2.0775 -2.2636 -0.2539
2.0995 -2.2563 -0.2542
2.1262 -2.2529 -0.2503
2.1466 -2.2443 -0.2520
2.1714 -2.2397 -0.2495
2.1974 -2.2365 -0.2457
2.2124 -2.2225 -0.2528
2.2356 -2.2166 -0.2518
2.2587 -2.2108 -0.2507
2.2771 -2.1993 -0.2551
2.3024 -2.1963 -0.2512
2.3200 -2.1833 -0.2570
2.3420 -2.1759 -0.2573
2.3679 -2.1746 -0.2521
2.3925 -2.1719 -0.2482
2.4090 -2.1556 -0.2568
2.4350 -2.1560 -0.2501
2.4515 -2.1378 -0.2601
2.4757 -2.1353 -0.2562
2.4983 -2.1296 -0.2551
2.5202 -2.1223 -0.2554
2.5458 -2.1265 -0.2460
2.5649 -2.1111 -0.2532
2.5867 -2.1039 -0.2535
2.6089 -2.0984 -0.2524
2.6303 -2.0895 -0.2540
2.6528 -2.0874 -0.2502
2.6959 -2.0713 -0.2521
2.7176 -2.0641 -0.2524
2.7391 -2.0516 -0.2568
2.7610 -2.0443 -0.2571
2.7830 -2.0316 -0.2616
2.8046 -2.0299 -0.2577
2.8268 -2.0189 -0.2608
2.8485 -2.0135 -0.2596
2.8704 -2.0063 -0.2599
2.8923 -1.9990 -0.2602
2.9149 -1.9879 -0.2633
2.9365 -1.9825 -0.2622
2.9831 -1.9581 -0.2697
3.0029 -1.9587 -0.2644
3.0255 -1.9494 -0.2661
3.0483 -1.9401 -0.2678
3.0674 -1.9410 -0.2625
3.0877 -1.9379 -0.2599
3.1086 -1.9327 -0.2588
3.1349 -1.9150 -0.2661
3.1607 -1.8992 -0.2720
3.1799 -1.8982 -0.2681
3.1966 -1.9018 -0.2613
3.2240 -1.8836 -0.2686
3.2437 -1.8807 -0.2661
3.2656 -1.8735 -0.2664
3.2824 -1.8751 -0.2610
1.9600 -2.3399 -0.2496
2.0252 -2.3201 -0.2490
2.0409 -2.3095 -0.2535
2.0638 -2.3037 -0.2524
2.0893 -2.2997 -0.2491
2.1004 -2.2853 -0.2579
2.1257 -2.2814 -0.2546
2.1354 -2.2647 -0.2656
2.1600 -2.2601 -0.2630
2.1858 -2.2570 -0.2590
2.2106 -2.2532 -0.2557
2.2914 -2.2202 -0.2618
2.3637 -2.2106 -0.2512
2.4115 -2.2064 -0.2424
2.4484 -2.1843 -0.2508
2.5090 -2.1579 -0.2567
2.5310 -2.1533 -0.2548
2.5531 -2.1496 -0.2522
2.5719 -2.1353 -0.2589
2.5945 -2.1341 -0.2541
2.6155 -2.1271 -0.2544
2.6362 -2.1185 -0.2561
2.6584 -2.1192 -0.2499
2.6786 -2.1080 -0.2538
2.6997 -2.1028 -0.2526
2.7204 -2.0923 -0.2558
2.7412 -2.0792 -0.2611
2.7624 -2.0757 -0.2585
2.7834 -2.0697 -0.2580
2.8042 -2.0664 -0.2554
2.8257 -2.0529 -0.2607
2.8897 -2.0281 -0.2645
2.9321 -2.0141 -0.2650
2.9543 -2.0031 -0.2682
2.9759 -1.9951 -0.2692
2.9985 -1.9840 -0.2724
3.0157 -1.9900 -0.2632
3.0587 -1.9739 -0.2652
3.1036 -1.9536 -0.2701
3.1222 -1.9529 -0.2660
3.1820 -1.9393 -0.2617
3.2046 -1.9291 -0.2642
3.2251 -1.9233 -0.2637
1.9188 -2.3761 -0.2564
1.9469 -2.3730 -0.2515
1.9714 -2.3684 -0.2488
1.9928 -2.3623 -0.2483
2.0170 -2.3578 -0.2456
2.0286 -2.3459 -0.2525
2.0490 -2.3392 -0.2528
2.0694 -2.3324 -0.2531
2.0933 -2.3280 -0.2504
2.1119 -2.3201 -0.2521
2.1364 -2.3164 -0.2487
2.1487 -2.3035 -0.2563
2.1661 -2.2941 -0.2596
2.1919 -2.2918 -0.2546
2.2174 -2.2896 -0.2497
2.2376 -2.2829 -0.2500
2.2512 -2.2695 -0.2577
2.2730 -2.2640 -0.2564
2.2965 -2.2607 -0.2530
2.3174 -2.2547 -0.2525
2.3376 -2.2480 -0.2528
2.3553 -2.2377 -0.2567
2.3792 -2.2360 -0.2518
2.3956 -2.2234 -0.2580
2.4206 -2.2240 -0.2508
2.4399 -2.2158 -0.2526
2.4602 -2.2091 -0.2528
2.4785 -2.1986 -0.2568
2.4996 -2.1934 -0.2556
2.5193 -2.1851 -0.2574
2.5431 -2.1879 -0.2487
2.5618 -2.1772 -0.2527
2.5832 -2.1746 -0.2492
2.6022 -2.1638 -0.2532
2.6224 -2.1571 -0.2534
2.6438 -2.1572 -0.2477
2.6627 -2.1438 -0.2539
2.6831 -2.1388 -0.2527
2.7035 -2.1347 -0.2507
2.7232 -2.1219 -0.2562
2.7435 -2.1170 -0.2550
2.7637 -2.0996 -0.2643
2.7839 -2.1018 -0.2570
2.8040 -2.0969 -0.2558
2.8245 -2.0866 -0.2590
2.8435 -2.0910 -0.2503
2.8643 -2.0787 -0.2550
2.8851 -2.0683 -0.2583
2.9049 -2.0635 -0.2571
2.9255 -2.0549 -0.2588
2.9499 -2.0317 -0.2719
2.9673 -2.0366 -0.2631
2.9886 -2.0269 -0.2656
3.0104 -2.0161 -0.2689
3.0274 -2.0193 -0.2616
3.0469 -2.0146 -0.2604
3.0663 -2.0100 -0.2591
3.0939 -1.9857 -0.2722
3.1145 -1.9789 -0.2725
3.1288 -1.9857 -0.2629
3.1491 -1.9790 -0.2632
3.1737 -1.9637 -0.2695
3.1914 -1.9623 -0.2660
3.2118 -1.9556 -0.2663
3.2309 -1.9510 -0.2650
3.2506 -1.9454 -0.2645
1.9627 -2.4015 -0.2477
1.9854 -2.3966 -0.2456
2.0194 -2.3810 -0.2500
2.0390 -2.3744 -0.2502
2.0978 -2.3549 -0.2510
2.1131 -2.3455 -0.2550
2.1422 -2.3455 -0.2469
2.1715 -2.3252 -0.2566
2.1944 -2.3212 -0.2538
2.2548 -2.3029 -0.2530
2.3149 -2.2848 -0.2522
2.3767 -2.2696 -0.2483
2.3936 -2.2595 -0.2524
2.4160 -2.2574 -0.2481
2.4376 -2.2547 -0.2445
2.4522 -2.2401 -0.2532
2.4773 -2.2442 -0.2426
2.4913 -2.2272 -0.2537
2.5136 -2.2269 -0.2478
2.5329 -2.2204 -0.2480
2.5508 -2.2101 -0.2521
2.5718 -2.2084 -0.2477
2.5918 -2.2045 -0.2457
2.6110 -2.1981 -0.2459
2.6285 -2.1835 -0.2539
2.6486 -2.1803 -0.2511
2.6686 -2.1781 -0.2474
2.6879 -2.1726 -0.2469
2.7071 -2.1662 -0.2471
2.7259 -2.1521 -0.2544
2.7455 -2.1500 -0.2507
2.7649 -2.1383 -0.2557
2.7839 -2.1425 -0.2466
2.8033 -2.1335 -0.2492
2.8233 -2.1189 -0.2564
2.8420 -2.1189 -0.2512
2.8826 -2.0948 -0.2611
2.9016 -2.0912 -0.2590
2.9218 -2.0818 -0.2616
2.9420 -2.0734 -0.2634
2.9586 -2.0776 -0.2550
2.9801 -2.0643 -0.2608
3.0221 -2.0433 -0.2675
3.0377 -2.0479 -0.2592
3.0571 -2.0414 -0.2594
3.0740 -2.0411 -0.2550
3.0915 -2.0388 -0.2521
3.1166 -2.0199 -0.2617
3.1557 -2.0070 -0.2622
3.2025 -1.9800 -0.2730
3.2223 -1.9734 -0.2732
2.5220 -3.7268 -0.2506
2.5602 -3.7160 -0.2526
2.5808 -3.7067 -0.2506
2.6011 -3.6974 -0.2485
2.6213 -3.6882 -0.2465
2.6406 -3.6819 -0.2467
2.6586 -3.6812 -0.2515
2.6975 -3.6684 -0.2520
2.7177 -3.6575 -0.2484
2.7371 -3.6502 -0.2479
2.7754 -3.6429 -0.2530
2.7950 -3.6313 -0.2486
2.8144 -3.6197 -0.2442
2.8336 -3.6160 -0.2468
2.8529 -3.6106 -0.2478
2.8914 -3.5980 -0.2483
2.9102 -3.5892 -0.2462
2.9289 -3.5805 -0.2441
2.9486 -3.5766 -0.2467
2.9874 -3.5656 -0.2487
3.0069 -3.5601 -0.2497
3.0261 -3.5538 -0.2499
3.0435 -3.5429 -0.2455
3.0643 -3.5404 -0.2496
3.0828 -3.5327 -0.2483
3.1027 -3.5278 -0.2501
3.1416 -3.5160 -0.2513
3.1590 -3.5068 -0.2485
3.1796 -3.5027 -0.2510
3.1989 -3.4964 -0.2513
3.2164 -3.4880 -0.2492
3.2362 -3.4824 -0.2502
3.2565 -3.4775 -0.2520
3.2764 -3.4718 -0.2530
3.2976 -3.4675 -0.2556
3.3149 -3.4592 -0.2535
3.3356 -3.4542 -0.2553
3.3549 -3.4478 -0.2555
3.3727 -3.4403 -0.2542
3.3919 -3.4340 -0.2544
3.4087 -3.4259 -0.2523
3.4270 -3.4190 -0.2518
3.4462 -3.4127 -0.2520
3.4662 -3.4070 -0.2530
3.4882 -3.4024 -0.2556
3.5046 -3.3944 -0.2535
3.5257 -3.3893 -0.2553
3.5449 -3.3830 -0.2555
3.5652 -3.3772 -0.2565
3.5834 -3.3704 -0.2560
3.6004 -3.3630 -0.2547
3.6185 -3.3563 -0.2541
3.6388 -3.3505 -0.2551
3.6603 -3.3452 -0.2569
2.4293 -3.7918 -0.2541
2.4473 -3.7903 -0.2580
2.4691 -3.7805 -0.2561
2.4887 -3.7759 -0.2578
2.5100 -3.7672 -0.2566
2.5311 -3.7585 -0.2554
2.5539 -3.7449 -0.2505
2.5750 -3.7353 -0.2485
2.6134 -3.7289 -0.2542
2.6332 -3.7242 -0.2559
2.6529 -3.7203 -0.2583
2.6738 -3.7108 -0.2564
2.6953 -3.6977 -0.2515
2.7157 -3.6892 -0.2502
2.7356 -3.6845 -0.2520
2.7555 -3.6806 -0.2544
2.7759 -3.6713 -0.2525
2.7962 -3.6611 -0.2497
2.8162 -3.6563 -0.2515
2.8563 -3.6406 -0.2497
2.8761 -3.6323 -0.2485
2.9373 -3.6193 -0.2552
2.9575 -3.6126 -0.2554
2.9764 -3.6012 -0.2512
2.9983 -3.6010 -0.2574
3.0172 -3.5904 -0.2539
3.0388 -3.5878 -0.2579
3.0568 -3.5757 -0.2529
3.0806 -3.5775 -0.2614
3.0965 -3.5618 -0.2527
3.1185 -3.5590 -0.2567
3.1391 -3.5531 -0.2577
3.1588 -3.5458 -0.2572
3.1946 -3.5262 -0.2509
3.2230 -3.5309 -0.2631
3.2411 -3.5215 -0.2604
3.2555 -3.5080 -0.2532
3.2743 -3.5001 -0.2519
3.3005 -3.5002 -0.2596
3.3207 -3.4936 -0.2599
3.3354 -3.4818 -0.2541
3.3625 -3.4817 -0.2619
3.3805 -3.4732 -0.2599
3.3968 -3.4634 -0.2564
3.4336 -3.4479 -0.2539
3.4535 -3.4414 -0.2541
3.5331 -3.4153 -0.2551
3.6316 -3.3821 -0.2556
2.7148 -3.7149 -0.2455
2.7769 -3.6946 -0.2463
2.7976 -3.6851 -0.2444
2.8387 -3.6655 -0.2399
2.9630 -3.6336 -0.2486
2.9835 -3.6260 -0.2481
3.0037 -3.6176 -0.2469
3.0261 -3.6164 -0.2522
3.0449 -3.6041 -0.2474
3.0664 -3.5997 -0.2498
3.1067 -3.5839 -0.2482
3.1281 -3.5786 -0.2499
3.1900 -3.5583 -0.2506
3.2097 -3.5501 -0.2494
3.2282 -3.5405 -0.2468
3.2520 -3.5380 -0.2514
3.2727 -3.5313 -0.2516
3.2939 -3.5252 -0.2526
3.3114 -3.5150 -0.2493
3.3366 -3.5129 -0.2546
3.3574 -3.5062 -0.2548
3.3745 -3.4961 -0.2515
3.4157 -3.4826 -0.2520
3.4379 -3.4771 -0.2537
3.4553 -3.4679 -0.2510
3.4792 -3.4636 -0.2542
3.4938 -3.4526 -0.2494
3.5169 -3.4477 -0.2518
3.5347 -3.4392 -0.2499
3.5580 -3.4342 -0.2523
3.5766 -3.4264 -0.2511
3.5971 -3.4197 -0.2514
3.6197 -3.4140 -0.2531
3.6423 -3.4084 -0.2548
3.6630 -3.4016 -0.2550
3.6836 -3.3949 -0.2553
3.7064 -3.3891 -0.2570
3.7248 -3.3814 -0.2558
2.3799 -3.8762 -0.2554
2.4029 -3.8669 -0.2543
2.4230 -3.8639 -0.2573
2.4469 -3.8525 -0.2548
2.4672 -3.8494 -0.2578
2.4892 -3.8422 -0.2581
2.5135 -3.8289 -0.2543
2.5348 -3.8237 -0.2559
2.5561 -3.8185 -0.2575
2.5776 -3.8132 -0.2592
2.5997 -3.8060 -0.2595
2.6236 -3.7910 -0.2543
2.6455 -3.7838 -0.2545
2.6677 -3.7748 -0.2534
2.6896 -3.7676 -0.2537
2.7111 -3.7623 -0.2553
2.7328 -3.7570 -0.2570
2.7546 -3.7517 -0.2586
2.7769 -3.7372 -0.2534
2.7987 -3.7283 -0.2523
2.8205 -3.7247 -0.2553
2.8424 -3.7211 -0.2583
2.8641 -3.7104 -0.2558
2.9296 -3.6890 -0.2566
2.9514 -3.6818 -0.2569
2.9950 -3.6675 -0.2575
3.0174 -3.6620 -0.2591
3.0581 -3.6397 -0.2527
3.0817 -3.6374 -0.2571
3.1014 -3.6256 -0.2533
3.1245 -3.6216 -0.2563
3.1446 -3.6114 -0.2538
3.1662 -3.6043 -0.2541
3.1896 -3.6002 -0.2571
3.2094 -3.5902 -0.2546
3.2285 -3.5795 -0.2514
3.2537 -3.5774 -0.2565
3.2776 -3.5732 -0.2596
3.3017 -3.5688 -0.2626
3.3199 -3.5575 -0.2587
3.3359 -3.5443 -0.2527
3.3607 -3.5406 -0.2565
3.3823 -3.5335 -0.2567
3.4039 -3.5265 -0.2570
3.4247 -3.5187 -0.2566
3.4486 -3.5136 -0.2589
3.4679 -3.5046 -0.2571
3.4895 -3.4975 -0.2574
3.5488 -3.4727 -0.2540
3.5702 -3.4657 -0.2542
3.5897 -3.4575 -0.2531
3.6190 -3.4551 -0.2589
3.6305 -3.4424 -0.2522
3.6601 -3.4398 -0.2581
3.6816 -3.4328 -0.2583
3.6988 -3.4236 -0.2558
3.7157 -3.4145 -0.2533
3.7439 -3.4106 -0.2577
3.7701 -3.4056 -0.2608
2.5228 -3.8719 -0.2611
2.6409 -3.8215 -0.2540
2.9552 -3.6961 -0.2414
3.0239 -3.6825 -0.2488
3.0457 -3.6736 -0.2478
3.1119 -3.6501 -0.2473
3.1327 -3.6397 -0.2449
3.1556 -3.6340 -0.2465
3.1761 -3.6237 -0.2441
3.2027 -3.6239 -0.2510
3.2265 -3.6188 -0.2533
3.2454 -3.6064 -0.2489
3.2655 -3.5962 -0.2465
3.2820 -3.5818 -0.2401
3.3086 -3.5803 -0.2457
3.3802 -3.5640 -0.2519
3.4025 -3.5567 -0.2522
3.4234 -3.5481 -0.2511
3.4471 -3.5421 -0.2527
3.4694 -3.5348 -0.2530
3.4837 -3.5211 -0.2466
3.5107 -3.5176 -0.2509
3.5772 -3.4958 -0.2517
3.5994 -3.4886 -0.2520
3.6178 -3.4790 -0.2495
3.6418 -3.4729 -0.2512
3.6640 -3.4656 -0.2514
3.6882 -3.4595 -0.2530
3.7083 -3.4511 -0.2520
3.7326 -3.4449 -0.2536
3.7548 -3.4377 -0.2539
3.7724 -3.4283 -0.2514
3.7921 -3.4200 -0.2504
2.3937 -3.9518 -0.2576
2.4177 -3.9440 -0.2579
2.4425 -3.9340 -0.2569
2.4665 -3.9262 -0.2572
2.4904 -3.9183 -0.2575
2.5150 -3.9085 -0.2566
2.5404 -3.8956 -0.2537
2.5648 -3.8858 -0.2528
2.5867 -3.8850 -0.2575
2.6101 -3.8791 -0.2590
2.6340 -3.8713 -0.2593
2.6592 -3.8567 -0.2552
2.6833 -3.8470 -0.2542
2.7065 -3.8430 -0.2570
2.7300 -3.8380 -0.2592
2.7783 -3.8113 -0.2522
2.8020 -3.7954 -0.2468
2.8254 -3.7941 -0.2515
2.8491 -3.7900 -0.2544
2.8727 -3.7822 -0.2546
2.8966 -3.7771 -0.2568
2.9203 -3.7693 -0.2571
2.9440 -3.7616 -0.2574
2.9684 -3.7572 -0.2602
2.9904 -3.7418 -0.2548
3.0131 -3.7308 -0.2526
3.0393 -3.7322 -0.2599
3.0630 -3.7244 -0.2601
3.0862 -3.7150 -0.2592
3.1099 -3.7072 -0.2595
3.1343 -3.7010 -0.2610
3.1615 -3.7003 -0.2670
3.1818 -3.6855 -0.2616
3.2047 -3.6762 -0.2606
3.2284 -3.6684 -0.2609
3.2497 -3.6569 -0.2580
3.2732 -3.6492 -0.2583
3.3345 -3.6146 -0.2489
3.3675 -3.6183 -0.2595
3.3924 -3.6119 -0.2610
3.4146 -3.6028 -0.2600
3.4382 -3.5951 -0.2603
3.4603 -3.5860 -0.2593
3.4786 -3.5737 -0.2551
3.5058 -3.5693 -0.2586
3.5397 -3.5700 -0.2673
3.5619 -3.5609 -0.2663
3.5839 -3.5519 -0.2653
3.6076 -3.5441 -0.2656
3.6249 -3.5321 -0.2614
3.6400 -3.5190 -0.2559
3.7196 -3.4812 -0.2486
3.7468 -3.4759 -0.2515
3.7775 -3.4722 -0.2563
3.8131 -3.4705 -0.2637
3.8285 -3.4591 -0.2594
3.8413 -3.4467 -0.2539
2.5318 -3.9384 -0.2513
2.7070 -3.8636 -0.2420
2.8039 -3.8319 -0.2431
2.8280 -3.8194 -0.2404
2.8521 -3.8133 -0.2419
2.8999 -3.7931 -0.2395
2.9733 -3.7764 -0.2452
3.2118 -3.6909 -0.2433
3.3078 -3.6595 -0.2445
3.3346 -3.6552 -0.2478
3.3588 -3.6473 -0.2481
3.3847 -3.6416 -0.2503
3.4090 -3.6336 -0.2506
3.4332 -3.6257 -0.2509
3.4553 -3.6157 -0.2493
3.4743 -3.6031 -0.2453
3.5035 -3.5999 -0.2499
3.5276 -3.5920 -0.2502
3.5558 -3.5873 -0.2536
3.5842 -3.5826 -0.2570
3.6043 -3.5715 -0.2542
3.6286 -3.5635 -0.2545
3.6510 -3.5543 -0.2536
3.6752 -3.5464 -0.2538
3.6965 -3.5367 -0.2523
3.7157 -3.5258 -0.2495
3.7427 -3.5197 -0.2517
3.7720 -3.5147 -0.2550
3.7962 -3.5067 -0.2553
3.8204 -3.4988 -0.2556
3.8446 -3.4909 -0.2559
3.8631 -3.4803 -0.2531
3.8871 -3.4724 -0.2534
2.3335 -4.0633 -0.2568
2.3587 -4.0568 -0.2582
2.3850 -4.0482 -0.2585
2.4121 -4.0375 -0.2577
2.4376 -4.0310 -0.2592
2.4645 -4.0203 -0.2584
2.4908 -4.0117 -0.2587
2.5188 -3.9970 -0.2556
2.5465 -3.9824 -0.2524
2.5724 -3.9739 -0.2528
2.5963 -3.9744 -0.2583
2.6242 -3.9570 -0.2534
2.6481 -3.9602 -0.2606
2.6751 -3.9458 -0.2575
2.7015 -3.9344 -0.2561
2.7278 -3.9230 -0.2547
2.7796 -3.9060 -0.2553
2.8055 -3.8976 -0.2556
2.8314 -3.8872 -0.2548
2.8573 -3.8806 -0.2563
2.8831 -3.8703 -0.2554
2.9089 -3.8618 -0.2557
2.9347 -3.8534 -0.2560
2.9618 -3.8519 -0.2610
2.9849 -3.8286 -0.2515
3.0111 -3.8228 -0.2535
3.0393 -3.8237 -0.2602
3.0660 -3.8177 -0.2623
3.0912 -3.8067 -0.2609
3.1172 -3.7982 -0.2612
3.1385 -3.7783 -0.2533
3.1641 -3.7699 -0.2537
3.1932 -3.7687 -0.2592
3.2145 -3.7515 -0.2531
3.2401 -3.7432 -0.2534
3.2707 -3.7433 -0.2602
3.2951 -3.7325 -0.2587
3.3209 -3.7241 -0.2591
3.3434 -3.7112 -0.2559
3.3741 -3.7094 -0.2614
3.4000 -3.7009 -0.2618
3.4289 -3.6960 -0.2650
3.4549 -3.6875 -0.2653
3.4775 -3.6755 -0.2627
3.5012 -3.6650 -0.2613
3.5292 -3.6586 -0.2634
3.5550 -3.6501 -0.2637
3.5785 -3.6396 -0.2622
3.6067 -3.6332 -0.2643
3.6326 -3.6247 -0.2646
3.6533 -3.6124 -0.2614
3.6674 -3.5958 -0.2541
3.7019 -3.5937 -0.2603
3.7331 -3.5890 -0.2641
3.7560 -3.5787 -0.2627
3.7817 -3.5703 -0.2630
3.7992 -3.5572 -0.2586
3.8163 -3.5442 -0.2542
3.8416 -3.5359 -0.2545
3.8613 -3.5249 -0.2518
3.8865 -3.5166 -0.2521
2.4219 -4.0886 -0.2588
2.4484 -4.0827 -0.2608
2.4780 -4.0674 -0.2578
2.5313 -4.0555 -0.2618
3.3380 -3.7522 -0.2486
3.3629 -3.7412 -0.2472
3.4091 -3.7158 -0.2417
3.4372 -3.7094 -0.2437
3.4705 -3.7087 -0.2502
3.4930 -3.6958 -0.2472
3.5236 -3.6914 -0.2508
3.5567 -3.6889 -0.2562
3.5811 -3.6781 -0.2549
3.6078 -3.6693 -0.2552
3.6418 -3.6666 -0.2606
3.6662 -3.6558 -0.2592
3.6930 -3.6470 -0.2595
3.7145 -3.6344 -0.2565
3.7384 -3.6238 -0.2551
3.7650 -3.6150 -0.2555
3.7828 -3.6008 -0.2507
3.8092 -3.5922 -0.2510
3.8324 -3.5818 -0.2497
3.8587 -3.5732 -0.2500
3.8828 -3.5634 -0.2492
3.9091 -3.5548 -0.2495
3.9375 -3.5473 -0.2510
3.9638 -3.5387 -0.2513
2.3192 -4.1773 -0.2558
2.3511 -4.1603 -0.2526
2.3769 -4.1584 -0.2565
2.4020 -4.1595 -0.2621
2.4336 -4.1426 -0.2588
2.4658 -4.1227 -0.2540
2.4936 -4.1164 -0.2559
2.5223 -4.1070 -0.2562
2.5501 -4.1016 -0.2587
2.5805 -4.0851 -0.2554
2.6092 -4.0757 -0.2557
2.6385 -4.0624 -0.2540
2.6675 -4.0500 -0.2528
2.6963 -4.0378 -0.2515
2.7236 -4.0410 -0.2587
2.7522 -4.0354 -0.2612
2.7809 -4.0288 -0.2631
2.8099 -4.0165 -0.2619
2.8386 -4.0005 -0.2585
2.8671 -3.9875 -0.2568
2.8960 -3.9818 -0.2592
2.9250 -3.9751 -0.2612
2.9820 -3.9536 -0.2603
3.0094 -3.9380 -0.2570
3.0379 -3.9287 -0.2573
3.0657 -3.9168 -0.2561
3.0942 -3.9074 -0.2564
3.1234 -3.9007 -0.2584
3.1519 -3.8913 -0.2587
3.2089 -3.8727 -0.2594
3.2386 -3.8657 -0.2614
3.2659 -3.8540 -0.2601
3.2944 -3.8446 -0.2605
3.3215 -3.8330 -0.2592
3.3479 -3.8205 -0.2575
3.3851 -3.8243 -0.2668
3.4100 -3.8096 -0.2635
3.4369 -3.7980 -0.2622
3.4593 -3.7812 -0.2573
3.4876 -3.7720 -0.2576
3.5177 -3.7649 -0.2595
3.5461 -3.7556 -0.2599
3.5772 -3.7492 -0.2624
3.6056 -3.7399 -0.2627
3.6363 -3.7326 -0.2647
3.6624 -3.7212 -0.2634
3.6876 -3.7092 -0.2616
3.7159 -3.7000 -0.2620
3.7529 -3.6972 -0.2677
3.7788 -3.6859 -0.2664
3.8100 -3.6785 -0.2684
3.8358 -3.6673 -0.2671
3.8672 -3.6598 -0.2691
3.8858 -3.6443 -0.2641
3.9038 -3.6290 -0.2590
3.9287 -3.6181 -0.2578
3.9534 -3.6071 -0.2565
3.9813 -3.5980 -0.2568
3.9979 -3.5832 -0.2518
4.0255 -3.5742 -0.2521
4.0685 -3.5722 -0.2595
2.3214 -4.2504 -0.2609
2.3569 -4.2274 -0.2554
2.3873 -4.2175 -0.2558
3.1030 -3.9347 -0.2392
3.3612 -3.8445 -0.2393
3.3932 -3.8396 -0.2427
3.4261 -3.8355 -0.2466
3.4553 -3.8259 -0.2470
3.4827 -3.8141 -0.2458
3.5137 -3.8068 -0.2477
3.5344 -3.7877 -0.2415
3.5653 -3.7804 -0.2433
3.5942 -3.7709 -0.2437
3.6306 -3.7685 -0.2491
3.6598 -3.7589 -0.2495
3.6890 -3.7494 -0.2498
3.7215 -3.7425 -0.2522
3.7567 -3.7376 -0.2561
3.7957 -3.7352 -0.2621
3.8255 -3.7254 -0.2625
3.8718 -3.6970 -0.2561
3.9156 -3.6685 -0.2491
3.9416 -3.6571 -0.2480
4.0317 -3.6304 -0.2506
4.0608 -3.6209 -0.2509
4.0898 -3.6114 -0.2513
2.2339 -4.3463 -0.2574
2.2680 -4.3314 -0.2560
2.2985 -4.3252 -0.2582
2.3356 -4.3016 -0.2530
2.3676 -4.2911 -0.2534
2.3996 -4.2806 -0.2538
2.4316 -4.2701 -0.2542
2.4624 -4.2638 -0.2565
2.4924 -4.2617 -0.2606
2.5266 -4.2428 -0.2572
2.5595 -4.2282 -0.2558
2.5900 -4.2258 -0.2599
2.6229 -4.2113 -0.2584
2.6555 -4.1968 -0.2569
2.6885 -4.1774 -0.2531
2.7209 -4.1591 -0.2497
2.7520 -4.1566 -0.2539
2.8155 -4.1358 -0.2547
2.8475 -4.1339 -0.2593
2.8788 -4.1112 -0.2536
2.9104 -4.1008 -0.2540
2.9425 -4.0942 -0.2562
2.9748 -4.0874 -0.2585
3.0074 -4.0815 -0.2613
3.0385 -4.0665 -0.2593
3.0714 -4.0605 -0.2621
3.1022 -4.0456 -0.2601
3.1309 -4.0248 -0.2548
3.1613 -4.0110 -0.2533
3.1940 -4.0041 -0.2556
3.2255 -3.9938 -0.2559
3.2600 -3.9901 -0.2601
3.2917 -3.9797 -0.2605
3.3218 -3.9660 -0.2590
3.3552 -3.9589 -0.2613
3.3870 -3.9485 -0.2617
3.4167 -3.9349 -0.2602
3.4442 -3.9183 -0.2567
3.4845 -3.9204 -0.2648
3.5117 -3.9038 -0.2613
3.5433 -3.8935 -0.2617
3.5750 -3.8831 -0.2621
3.6066 -3.8727 -0.2625
3.6410 -3.8653 -0.2648
3.6728 -3.8549 -0.2652
3.7045 -3.8445 -0.2656
3.7271 -3.8256 -0.2602
3.7680 -3.8237 -0.2664
3.8030 -3.8160 -0.2687
3.8349 -3.8056 -0.2691
3.8633 -3.7924 -0.2675
3.8950 -3.7820 -0.2679
3.9268 -3.7716 -0.2683
3.9623 -3.7638 -0.2706
4.0030 -3.7591 -0.2754
4.0351 -3.7485 -0.2758
4.0672 -3.7380 -0.2762
4.0898 -3.7220 -0.2722
4.1270 -3.7146 -0.2750
4.1535 -3.7012 -0.2730
4.1808 -3.6884 -0.2714
4.2032 -3.6734 -0.2680
2.1929 -4.4588 -0.2654
2.2232 -4.4585 -0.2702
2.2624 -4.4360 -0.2663
2.4418 -4.3590 -0.2600
2.4761 -4.3477 -0.2605
2.5094 -4.3407 -0.2626
2.5789 -4.3140 -0.2617
2.6147 -4.2927 -0.2577
2.7203 -4.2139 -0.2386
2.7531 -4.2031 -0.2390
3.3033 -4.0056 -0.2378
3.3356 -3.9950 -0.2382
3.3719 -3.9917 -0.2426
3.4045 -3.9810 -0.2430
3.4416 -3.9775 -0.2475
3.5697 -3.9308 -0.2468
3.6055 -3.9238 -0.2495
3.7463 -3.8902 -0.2570
3.7725 -3.8730 -0.2533
3.8022 -3.8594 -0.2519
3.8276 -3.8424 -0.2482
3.8601 -3.8318 -0.2486
3.9005 -3.8272 -0.2531
3.9451 -3.8251 -0.2594
3.9828 -3.8175 -0.2621
2.1718 -4.5264 -0.2516
2.2079 -4.5146 -0.2520
2.2529 -4.4795 -0.2438
2.3160 -4.3910 -0.2154
2.3563 -4.3603 -0.2084
2.3580 -4.4499 -0.2472
2.3852 -4.4672 -0.2588
2.4216 -4.4552 -0.2592
2.4594 -4.4380 -0.2576
2.4983 -4.4146 -0.2535
2.5320 -4.4142 -0.2585
2.5694 -4.3961 -0.2564
2.6072 -4.3731 -0.2523
2.6437 -4.3563 -0.2507
2.6800 -4.3396 -0.2490
2.7222 -4.2404 -0.2129
2.8224 -4.3084 -0.2575
2.8586 -4.3014 -0.2600
2.8944 -4.2848 -0.2584
2.9309 -4.2777 -0.2609
2.9658 -4.2556 -0.2567
3.0017 -4.2438 -0.2572
3.0385 -4.2376 -0.2601
3.0734 -4.2203 -0.2581
3.1071 -4.1996 -0.2543
3.1427 -4.1880 -0.2547
3.1809 -4.1851 -0.2594
3.2186 -4.1786 -0.2623
3.2546 -4.1668 -0.2628
3.2906 -4.1550 -0.2632
3.3225 -4.1339 -0.2590
3.3518 -4.1088 -0.2527
3.3897 -4.1022 -0.2557
3.4347 -4.1078 -0.2650
3.4707 -4.0960 -0.2654
3.5036 -4.0794 -0.2633
3.5368 -4.0636 -0.2617
3.5670 -4.0441 -0.2579
3.5989 -4.0278 -0.2557
3.6250 -4.0047 -0.2498
3.6733 -4.0092 -0.2592
3.7088 -3.9976 -0.2596
3.7442 -3.9860 -0.2600
3.7754 -3.9700 -0.2579
3.8152 -3.9628 -0.2609
3.8460 -3.9468 -0.2588
3.8861 -3.9395 -0.2618
3.9389 -3.9426 -0.2712
3.9698 -3.9266 -0.2691
4.0012 -3.9115 -0.2674
4.0324 -3.8964 -0.2657
4.0578 -3.8774 -0.2614
4.0988 -3.8698 -0.2644
4.1392 -3.8614 -0.2670
4.1748 -3.8498 -0.2674
4.2104 -3.8381 -0.2679
4.2513 -3.8295 -0.2704
4.2870 -3.8178 -0.2709
4.3227 -3.8061 -0.2713
4.3528 -3.7915 -0.2696
4.3755 -3.7733 -0.2653
4.3988 -3.7560 -0.2614
2.2314 -4.5557 -0.2308
2.3596 -4.5782 -0.2582
2.4022 -4.5516 -0.2536
2.4439 -4.5262 -0.2494
2.4780 -4.5326 -0.2569
2.5167 -4.5199 -0.2574
2.7874 -4.4566 -0.2708
3.0978 -4.3295 -0.2645
3.4771 -4.1876 -0.2621
3.8546 -4.0073 -0.2441
3.9045 -4.0075 -0.2514
3.9465 -3.9996 -0.2542
3.9788 -3.9832 -0.2523
4.0160 -3.9710 -0.2528
4.0479 -3.9547 -0.2508
4.0804 -3.9391 -0.2493
4.1173 -3.9271 -0.2497
4.1542 -3.9150 -0.2502
4.1911 -3.9029 -0.2506
4.2280 -3.8908 -0.2511
4.2586 -3.8749 -0.2491
4.2900 -3.8597 -0.2475
4.3266 -3.8477 -0.2480
4.4001 -3.8559 -0.2618
4.4513 -3.8508 -0.2671
4.4552 -3.8212 -0.2558
4.4790 -3.8027 -0.2518
2.3741 -4.6835 -0.2552
2.4139 -4.6774 -0.2582
2.4573 -4.6563 -0.2562
2.5031 -4.6206 -0.2491
2.6823 -4.4082 -0.1946
2.8314 -4.5268 -0.2583
2.8726 -4.5064 -0.2562
2.9954 -4.4593 -0.2552
3.0364 -4.4458 -0.2557
3.0762 -4.4259 -0.2536
3.1171 -4.4125 -0.2541
3.1594 -4.4055 -0.2572
3.2022 -4.3984 -0.2603
3.2396 -4.3724 -0.2556
3.2804 -4.3590 -0.2561
3.3212 -4.3456 -0.2566
3.3645 -4.3383 -0.2597
3.4109 -4.3369 -0.2654
3.4494 -4.3174 -0.2633
3.4846 -4.2921 -0.2586
3.5254 -4.2787 -0.2591
3.5628 -4.2595 -0.2571
3.6142 -4.2634 -0.2653
3.6630 -4.2612 -0.2710
3.6967 -4.2364 -0.2663
3.7296 -4.2118 -0.2617
3.7661 -4.1929 -0.2596
3.8067 -4.1796 -0.2601
3.8474 -4.1663 -0.2606
3.8880 -4.1530 -0.2611
3.9337 -4.1449 -0.2642
3.9798 -4.1367 -0.2673
4.0263 -4.1284 -0.2704
4.0506 -4.0997 -0.2631
4.1029 -4.0964 -0.2688
4.1439 -4.0829 -0.2693
4.1849 -4.0695 -0.2698
4.2196 -4.0512 -0.2677
4.2604 -4.0379 -0.2682
4.2945 -4.0198 -0.2661
4.3282 -4.0019 -0.2639
4.3291 -3.9632 -0.2498
4.3685 -3.9502 -0.2502
4.4796 -3.9798 -0.2760
4.5131 -3.9620 -0.2738
4.5306 -3.9356 -0.2664
4.5951 -3.9351 -0.2748
4.6362 -3.9216 -0.2753
4.6688 -3.9041 -0.2732
2.1646 -4.7784 -0.2151
2.2008 -4.7815 -0.2206
2.4912 -4.7161 -0.2343
2.5953 -4.5619 -0.1948
2.6839 -4.4405 -0.1646
2.9221 -4.5670 -0.2369
3.0173 -4.6152 -0.2650
3.4028 -4.4333 -0.2509
3.4464 -4.4190 -0.2514
3.5265 -4.3768 -0.2470
3.5733 -4.3694 -0.2503
3.6089 -4.3419 -0.2453
3.6405 -4.3097 -0.2383
3.6790 -4.2901 -0.2364
3.7166 -4.2699 -0.2342
3.7461 -4.2394 -0.2275
3.8055 -4.2487 -0.2380
3.8477 -4.2349 -0.2385
3.8797 -4.2095 -0.2338
4.0694 -4.1761 -0.2459
4.1119 -4.1622 -0.2464
4.1544 -4.1483 -0.2470
4.1909 -4.1294 -0.2451
4.2333 -4.1155 -0.2456
4.2692 -4.0967 -0.2437
4.3039 -4.0775 -0.2414
4.3603 -4.0739 -0.2471
4.5030 -4.0420 -0.2539
4.5458 -4.0280 -0.2545
4.5644 -4.0001 -0.2473
4.6391 -4.0043 -0.2580
4.6912 -3.9952 -0.2613
4.7532 -3.9908 -0.2675
2.1024 -5.0944 -0.2594
2.1590 -5.0559 -0.2539
2.2669 -4.8414 -0.1998
2.3614 -4.6444 -0.1496
2.4314 -4.5124 -0.1167
2.4818 -4.4418 -0.1006
2.5475 -4.6584 -0.1751
2.6030 -4.5452 -0.1464
2.6422 -4.5323 -0.1468
2.6989 -4.8500 -0.2516
2.7463 -4.8534 -0.2580
2.7952 -4.8184 -0.2528
2.8436 -4.8216 -0.2592
2.9301 -4.6331 -0.2108
2.9783 -4.6583 -0.2240
3.0370 -4.7482 -0.2585
3.0826 -4.7142 -0.2532
3.1304 -4.6985 -0.2538
3.1803 -4.6922 -0.2575
3.2284 -4.6764 -0.2581
3.2741 -4.6515 -0.2555
3.3219 -4.6358 -0.2561
3.3671 -4.6120 -0.2539
3.4117 -4.5884 -0.2517
3.4591 -4.5728 -0.2522
3.5100 -4.5652 -0.2557
3.5498 -4.5331 -0.2503
3.6053 -4.5340 -0.2568
3.6571 -4.5260 -0.2602
3.6912 -4.4868 -0.2520
3.7244 -4.4489 -0.2440
3.7909 -4.4641 -0.2563
3.8486 -4.4632 -0.2626
3.8911 -4.4403 -0.2603
3.8882 -4.3602 -0.2352
3.9396 -4.3524 -0.2386
4.0029 -4.3576 -0.2475
4.0753 -4.3709 -0.2598
4.1293 -4.3622 -0.2633
4.1558 -4.3256 -0.2549
4.2176 -4.3243 -0.2616
4.2722 -4.3154 -0.2650
4.3199 -4.2998 -0.2656
4.3279 -4.2512 -0.2515
4.3068 -4.1820 -0.2277
4.3292 -4.1507 -0.2205
4.5689 -4.1812 -0.2572
4.6534 -4.1905 -0.2697
4.7010 -4.1749 -0.2703
4.6810 -4.1184 -0.2505
4.8062 -4.1495 -0.2744
4.8338 -4.1224 -0.2691
4.8812 -4.1069 -0.2697
4.8849 -4.0686 -0.2583
2.0624 -5.2412 -0.2421
2.1069 -5.2498 -0.2492
2.1640 -5.2190 -0.2465
2.4841 -4.4567 -0.0660
2.5161 -4.4623 -0.0710
2.6532 -4.4789 -0.0899
2.6819 -4.5703 -0.1185
2.9356 -4.6607 -0.1703
3.0076 -4.9204 -0.2506
3.2189 -4.8623 -0.2563
3.3766 -4.8106 -0.2583
3.5104 -4.7002 -0.2412
3.5694 -4.7021 -0.2479
3.6299 -4.7044 -0.2549
3.7287 -4.6610 -0.2530
3.7803 -4.6440 -0.2536
3.8320 -4.6271 -0.2542
3.9353 -4.5933 -0.2555
3.9738 -4.5585 -0.2498
4.0386 -4.5594 -0.2568
4.0975 -4.5512 -0.2606
4.0849 -4.4595 -0.2336
4.1344 -4.4433 -0.2342
4.1765 -4.4194 -0.2319
4.3149 -4.4255 -0.2480
4.3914 -4.4327 -0.2580
4.6690 -4.3639 -0.2676
4.7540 -4.3704 -0.2783
4.8188 -4.3613 -0.2825
4.8599 -4.2369 -0.2519
4.8010 -4.1563 -0.2232
4.8069 -4.1171 -0.2128
4.9518 -4.1553 -0.2386
4.9546 -4.1151 -0.2276
5.0145 -4.1055 -0.2312
2.1193 -4.9760 -0.1234
2.0398 -5.4970 -0.2471
2.0985 -5.4778 -0.2478
2.2113 -5.2558 -0.2026
2.3959 -4.8762 -0.1245
2.5405 -4.5453 -0.0549
2.6124 -4.5532 -0.0637
2.6835 -4.6103 -0.0848
2.7211 -4.6559 -0.0999
2.8028 -5.1240 -0.2255
2.8598 -5.1856 -0.2464
2.9199 -5.2228 -0.2615
2.9759 -5.1618 -0.2514
3.0338 -5.1429 -0.2521
3.0899 -5.1102 -0.2492
3.1495 -5.1049 -0.2536
3.2001 -5.0467 -0.2437
3.2569 -5.0281 -0.2444
3.3200 -5.0348 -0.2521
3.3811 -5.0290 -0.2564
3.4350 -4.9972 -0.2535
3.4885 -4.9664 -0.2508
3.5456 -4.9477 -0.2515
3.5977 -4.9164 -0.2486
3.6393 -4.8631 -0.2391
3.7172 -4.8915 -0.2536
3.7566 -4.8379 -0.2439
3.8376 -4.8652 -0.2584
3.9090 -4.8703 -0.2665
3.9317 -4.7937 -0.2494
3.9811 -4.7644 -0.2466
4.0372 -4.7460 -0.2473
4.0704 -4.6965 -0.2380
4.1331 -4.6881 -0.2418
4.2140 -4.7012 -0.2528
4.3462 -4.7708 -0.2829
4.4102 -4.5973 -0.2453
4.4459 -4.5602 -0.2393
4.5113 -4.5520 -0.2434
4.6429 -4.6014 -0.2683
4.6432 -4.5342 -0.2514
4.6989 -4.5159 -0.2521
4.7197 -4.4705 -0.2427
4.8105 -4.4794 -0.2535
4.9042 -4.4883 -0.2646
4.9750 -4.4794 -0.2691
5.0455 -4.4695 -0.2733
4.7847 -4.1565 -0.1698
4.7911 -4.1178 -0.1606
4.8906 -4.1320 -0.1736
4.9486 -4.1221 -0.1766
2.1098 -5.0286 -0.0849
2.2096 -5.1239 -0.1148
2.2406 -5.1793 -0.1298
2.6676 -5.7204 -0.2874
2.8069 -5.5038 -0.2508
3.0699 -5.4544 -0.2623
3.1380 -5.4506 -0.2673
3.1933 -5.3597 -0.2517
3.2641 -5.3724 -0.2606
3.3018 -5.2238 -0.2306
3.3866 -5.2964 -0.2541
3.4465 -5.2594 -0.2509
3.5490 -5.1428 -0.2336
3.6108 -5.1226 -0.2344
3.7214 -5.2225 -0.2662
3.7596 -5.1394 -0.2509
3.8231 -5.1186 -0.2516
3.8942 -5.1127 -0.2564
3.9662 -5.1065 -0.2612
4.0306 -5.0854 -0.2620
4.0771 -5.0353 -0.2548
4.1230 -4.9875 -0.2480
4.1856 -4.9670 -0.2488
4.2676 -4.9729 -0.2571
4.3210 -4.9390 -0.2541
4.3931 -4.8345 -0.2369
4.3908 -4.7441 -0.2165
4.4598 -4.7358 -0.2205
4.4661 -4.6631 -0.2048
4.5778 -4.6972 -0.2220
4.7234 -4.7580 -0.2480
4.9322 -4.7900 -0.2731
4.9662 -4.7440 -0.2657
5.0149 -4.7117 -0.2626
5.0932 -4.7024 -0.2672
5.0786 -4.6252 -0.2487
5.3303 -4.6083 -0.2665
5.2906 -4.5240 -0.2443
5.1229 -4.3680 -0.1950
5.2041 -4.3158 -0.1903
5.2728 -4.3056 -0.1939
2.0899 -4.9953 -0.0268
2.0806 -5.1398 -0.0544
2.1027 -5.2068 -0.0692
2.0505 -6.2136 -0.2624
2.1380 -6.1365 -0.2540
2.2368 -5.9885 -0.2326
2.5793 -4.5996 0.0133
2.6029 -4.7127 -0.0107
2.6067 -5.7414 -0.2125
2.6700 -5.8249 -0.2337
2.7409 -5.8233 -0.2388
2.8129 -5.7781 -0.2354
2.8865 -5.8437 -0.2539
2.9591 -5.7972 -0.2504
3.0340 -5.7954 -0.2557
3.1078 -5.7712 -0.2566
3.1729 -5.6818 -0.2441
3.2449 -5.6582 -0.2450
3.3801 -5.5705 -0.2382
3.4273 -5.4519 -0.2185
3.5008 -5.4484 -0.2235
3.5696 -5.4259 -0.2243
3.6636 -5.4776 -0.2416
3.7136 -5.3983 -0.2299
3.7615 -5.3228 -0.2188
3.8146 -5.2672 -0.2120
3.9561 -5.4035 -0.2495
4.0975 -5.5181 -0.2827
4.1403 -5.4329 -0.2693
4.1809 -5.3515 -0.2565
4.2418 -5.3098 -0.2530
4.3133 -5.2864 -0.2539
4.3034 -5.1452 -0.2254
4.4064 -5.1713 -0.2384
4.2986 -4.8217 -0.1617
4.3188 -4.7562 -0.1504
4.3667 -4.7261 -0.1482
4.7354 -4.9469 -0.2196
4.9072 -5.0279 -0.2486
5.1356 -5.0614 -0.2727
5.2274 -5.0540 -0.2782
5.2807 -5.0138 -0.2744
5.2941 -4.9434 -0.2617
5.2517 -4.8345 -0.2371
5.4564 -4.9119 -0.2679
5.5490 -4.9032 -0.2733
5.3250 -4.6804 -0.2125
5.3239 -4.5002 -0.1771
5.4883 -4.5413 -0.1977
5.6710 -4.5320 -0.2099
5.8403 -4.5663 -0.2296
1.7587 -6.5461 -0.2176
2.9794 -6.0619 -0.2184
3.0871 -6.3906 -0.2811
3.3240 -6.1216 -0.2518
3.4025 -6.0657 -0.2476
3.4678 -5.9570 -0.2337
3.4838 -5.6699 -0.1864
3.6754 -6.0679 -0.2664
3.7346 -5.4546 -0.1671
3.7827 -5.3765 -0.1571
3.8435 -5.3358 -0.1544
3.9457 -5.3855 -0.1696
4.0441 -5.4177 -0.1817
4.1476 -5.4524 -0.1946
4.1992 -5.3898 -0.1875
4.2489 -5.3288 -0.1806
4.2530 -5.2016 -0.1594
4.3212 -5.1793 -0.1602
4.3894 -5.1569 -0.1611
4.5621 -5.2709 -0.1919
4.3638 -4.8180 -0.1022
4.4125 -4.7864 -0.1002
5.3291 -5.3471 -0.2566
5.5410 -5.0676 -0.2238
5.7372 -5.1313 -0.2477
5.5350 -4.9074 -0.1964
5.3862 -4.7346 -0.1572
5.3778 -4.6646 -0.1448
5.3700 -4.5985 -0.1332
5.6943 -4.6150 -0.1578
5.8240 -4.6286 -0.1689
5.8688 -4.5952 -0.1663
2.0955 -5.0288 0.0638
2.1375 -5.0245 0.0620
2.6149 -4.4238 0.1190
3.5255 -5.8270 -0.1331
3.6234 -5.8745 -0.1456
3.7030 -5.8485 -0.1466
3.7632 -5.5312 -0.1052
3.7749 -5.3586 -0.0815
3.8659 -5.3896 -0.0912
3.9271 -5.3497 -0.0891
4.3392 -5.6400 -0.1544
4.2342 -5.3119 -0.1018
4.2709 -5.2370 -0.0933
4.2951 -5.1494 -0.0824
4.5378 -5.3706 -0.1279
4.7540 -5.5324 -0.1635
4.3116 -4.7647 -0.0288
4.3688 -4.7460 -0.0295
5.3080 -5.5583 -0.1997
5.3001 -5.4383 -0.1823
5.8468 -5.8491 -0.2725
5.7279 -5.6219 -0.2334
5.7944 -5.2763 -0.1883
5.5345 -4.9969 -0.1335
5.3451 -4.7865 -0.0926
5.3554 -4.7266 -0.0847
5.7307 -4.9096 -0.1326
5.5244 -4.7089 -0.0921
5.4574 -4.6062 -0.0736
5.5760 -4.6187 -0.0824
5.7218 -4.6442 -0.0945
5.8091 -4.6345 -0.0983
2.5076 -4.2401 0.1818
2.5372 -4.2272 0.1818
2.5586 -4.2529 0.1777
2.6436 -4.5017 0.1448
2.6816 -4.4723 0.1463
2.7544 -4.4316 0.1474
3.8350 -6.2691 -0.1182
3.8433 -5.7459 -0.0584
4.0939 -6.1484 -0.1172
4.0725 -5.8650 -0.0836
3.9421 -5.3852 -0.0218
4.0301 -5.3997 -0.0279
4.2187 -5.5965 -0.0600
4.2956 -5.5713 -0.0609
4.3221 -5.4634 -0.0498
4.1849 -5.1114 -0.0024
4.2105 -5.0334 0.0053
4.6798 -5.4454 -0.0656
4.3360 -4.8022 0.0256
4.3643 -4.7497 0.0302
5.2310 -5.6090 -0.1120
5.6928 -5.9707 -0.1768
5.8232 -5.9702 -0.1832
5.8250 -5.8451 -0.1689
6.0730 -5.6086 -0.1541
6.1989 -5.6043 -0.1599
6.1100 -5.2587 -0.1156
5.4267 -4.7225 -0.0198
5.5309 -4.7264 -0.0254
5.4713 -4.5696 -0.0044
5.3944 -4.4702 0.0109
5.5761 -4.5194 -0.0038
2.6295 -4.3842 0.1938
3.8336 -5.9678 0.0030
3.8686 -5.8138 0.0152
3.9983 -5.9139 0.0010
4.0925 -5.9138 -0.0029
4.1281 -5.7852 0.0070
4.0182 -5.3809 0.0476
4.1074 -5.3953 0.0426
4.2095 -5.4278 0.0355
4.2050 -5.2782 0.0490
4.1094 -5.0011 0.0776
4.1019 -4.8812 0.0886
4.7867 -5.5970 -0.0035
5.6715 -5.9644 -0.0729
5.7077 -5.8717 -0.0661
6.4490 -5.9298 -0.1020
6.3910 -5.7712 -0.0855
5.9149 -4.9158 0.0103
5.4602 -4.5755 0.0595
5.2605 -4.4049 0.0829
5.2279 -4.3379 0.0903
2.3480 -4.9427 0.2020
2.5616 -4.6509 0.2134
2.5816 -4.7826 0.2045
2.7580 -4.5405 0.2139
2.7963 -4.4969 0.2154
2.8332 -4.4794 0.2153
3.6961 -5.8135 0.1024
3.7571 -5.7420 0.1050
3.8163 -5.6734 0.1073
4.0137 -5.7362 0.0969
4.0251 -5.3992 0.1178
4.0944 -5.3765 0.1169
4.1847 -5.3909 0.1130
4.2226 -5.3142 0.1166
4.2074 -5.1606 0.1269
4.2621 -5.1244 0.1273
4.3594 -5.1493 0.1226
4.5153 -5.1368 0.1182
4.3769 -4.8682 0.1398
4.5129 -4.9373 0.1309
5.6515 -5.9592 0.0287
5.6575 -5.8372 0.0362
6.5859 -6.0602 -0.0086
6.4394 -5.8274 0.0110
6.5568 -5.7033 0.0150
6.1570 -5.3243 0.0522
6.1420 -5.1492 0.0637
5.7131 -4.8043 0.0997
5.6549 -4.7056 0.1079
5.5448 -4.5820 0.1193
5.2765 -4.3763 0.1412
1.7136 -5.7898 0.2312
2.0526 -5.2578 0.2430
2.5858 -4.7938 0.2474
2.6199 -4.8571 0.2441
2.7200 -4.6311 0.2502
2.7597 -4.6106 0.2500
2.7992 -4.5706 0.2506
3.6201 -5.8353 0.1824
3.7198 -5.6310 0.1876
3.7620 -5.5276 0.1905
3.8399 -5.5248 0.1887
3.9103 -5.5017 0.1878
3.9986 -5.5170 0.1851
4.1607 -5.3549 0.1872
4.2958 -5.4423 0.1806
4.2982 -5.3098 0.1855
4.3216 -5.2201 0.1883
4.3884 -5.1983 0.1875
4.4502 -5.0636 0.1911
4.3343 -4.8253 0.2030
5.2791 -5.7018 0.1464
5.7534 -6.0818 0.1203
6.6583 -6.0184 0.1004
6.5487 -5.8212 0.1105
5.8296 -5.1912 0.1522
5.7882 -4.8001 0.1680
5.6653 -4.6655 0.1762
5.4363 -4.4782 0.1889
2.6279 -4.8339 0.2893
2.7231 -4.6560 0.2900
2.7628 -4.6429 0.2895
2.8027 -4.6157 0.2892
2.8411 -4.5357 0.2896
3.5655 -5.6356 0.2635
3.6753 -5.7388 0.2603
3.7269 -5.6501 0.2606
3.7913 -5.6062 0.2601
4.0057 -5.5359 0.2575
4.3391 -5.6757 0.2502
4.4439 -5.6957 0.2482
4.2203 -5.1949 0.2583
4.1526 -4.9768 0.2623
4.2298 -4.9831 0.2609
4.2733 -4.8471 0.2620
4.3301 -4.8285 0.2613
5.7005 -6.0417 0.2230
5.5373 -5.7462 0.2295
5.9172 -5.2706 0.2293
5.6269 -4.9819 0.2379
5.5902 -4.8852 0.2397
5.5246 -4.7121 0.2430
5.4598 -4.6127 0.2454
5.4506 -4.5515 0.2463
1.6476 -6.1765 0.3572
2.5951 -4.8083 0.3331
2.7282 -4.6442 0.3301
2.7672 -4.6391 0.3297
2.8070 -4.5779 0.3286
2.8444 -4.5207 0.3276
3.5652 -5.9249 0.3380
3.6219 -5.8286 0.3364
3.6826 -5.7583 0.3351
3.7415 -5.6908 0.3338
3.7984 -5.6251 0.3325
3.8617 -5.5814 0.3315
3.9072 -5.4997 0.3302
4.0925 -5.7258 0.3312
4.5139 -6.1813 0.3330
4.4380 -5.6937 0.3280
4.1881 -5.1514 0.3237
5.2734 -5.7222 0.3212
5.7731 -6.1344 0.3219
5.9759 -6.2071 0.3210
5.7786 -5.8808 0.3188
5.8707 -5.1695 0.3097
5.5366 -4.8618 0.3089
5.5376 -4.6731 0.3067
5.5631 -4.6308 0.3060
1.5711 -6.4236 0.4341
2.3115 -5.0439 0.3841
2.5844 -4.9445 0.3804
2.6934 -4.6607 0.3701
2.7317 -4.6625 0.3701
2.7710 -4.6562 0.3699
3.5729 -5.9453 0.4159
3.6787 -6.0220 0.4186
3.7582 -5.9959 0.4177
3.7275 -5.4347 0.3975
3.8294 -5.5027 0.3999
3.9757 -5.6600 0.4055
4.3676 -5.7400 0.4082
4.3294 -5.5198 0.4002
4.1753 -5.1379 0.3866
4.2000 -5.0615 0.3838
4.2145 -4.9762 0.3807
4.2547 -4.9321 0.3791
4.3318 -4.9378 0.3793
5.8833 -6.2680 0.4264
5.9510 -6.1984 0.4239
5.8823 -5.9981 0.4167
5.6769 -5.6827 0.4055
6.1059 -5.4417 0.3966
5.6254 -4.9363 0.3786
5.6941 -4.9138 0.3778
5.7402 -4.8766 0.3764
5.8085 -4.8543 0.3756
5.8542 -4.8184 0.3742
2.5953 -4.9010 0.4227
2.6495 -4.7755 0.4156
2.6968 -4.6779 0.4101
3.5497 -5.8457 0.4864
3.7787 -6.3661 0.5193
3.8372 -6.2436 0.5124
3.7753 -5.5630 0.4711
3.8441 -5.5404 0.4703
4.0213 -5.7678 0.4852
4.1758 -5.9127 0.4950
4.1084 -5.5894 0.4752
4.1199 -5.0569 0.4433
4.1447 -4.9854 0.4392
4.1766 -4.9294 0.4361
4.2426 -4.9233 0.4362
4.3087 -4.9161 0.4363
4.4169 -4.9595 0.4397
5.8253 -6.2220 0.5257
5.9258 -6.1891 0.5245
5.9917 -6.1219 0.5210
6.0562 -6.0564 0.5175
5.8014 -5.7033 0.4945
6.3081 -5.6095 0.4926
6.1070 -5.3699 0.4767
5.7644 -5.0467 0.4548
5.7443 -4.9611 0.4495
2.5070 -4.7383 0.4512
2.6247 -4.6919 0.4491
2.6514 -4.8107 0.4594
2.6996 -4.7031 0.4511
3.6080 -6.0633 0.5785
3.7892 -5.6001 0.5425
3.8430 -5.5389 0.5382
3.9363 -5.5743 0.5426
3.9971 -5.5320 0.5400
4.0759 -5.5286 0.5409
4.1064 -5.4313 0.5332
4.2712 -5.5820 0.5483
4.1258 -5.0726 0.5035
4.1504 -5.0007 0.4979
4.1994 -4.9690 0.4960
4.2304 -4.9141 0.4919
4.2689 -4.8724 0.4890
4.3433 -4.8771 0.4905
5.2758 -5.7641 0.5787
5.7709 -6.1791 0.6208
5.9337 -6.0810 0.6151
5.9977 -6.0175 0.6107
5.9615 -5.8649 0.5974
5.7840 -5.5976 0.5724
5.6958 -5.1645 0.5349
5.7716 -5.0658 0.5278
5.7746 -4.9955 0.5220
5.7116 -4.8852 0.5118
5.5760 -4.7350 0.4972
5.6768 -4.7378 0.4990
5.7013 -4.6939 0.4957
2.3797 -4.4773 0.4586
2.4556 -4.5256 0.4655
2.4381 -4.9347 0.5088
2.6031 -4.9324 0.5123
4.0588 -7.3304 0.8016
3.7048 -5.8140 0.6316
3.7703 -5.7677 0.6281
3.7815 -5.5793 0.6082
3.8818 -5.6366 0.6166
3.9697 -5.6540 0.6205
3.9953 -5.5318 0.6080
4.1227 -5.6275 0.6211
4.2784 -5.6013 0.6219
4.2279 -5.3700 0.5960
5.8460 -6.1387 0.7149
5.9774 -6.1407 0.7181
6.0757 -6.1085 0.7169
6.1741 -6.0762 0.7157
6.3478 -6.1106 0.7233
6.1220 -5.8004 0.6850
6.5456 -5.8238 0.6972
5.7787 -5.0849 0.6008
5.7581 -4.9981 0.5910
5.8279 -4.9752 0.5902
5.8066 -4.8944 0.5811
5.8309 -4.7839 0.5698
0.9681 -8.6213 0.9846
3.7698 -5.7645 0.6985
3.8260 -5.6985 0.6917
3.8723 -5.6141 0.6821
3.9592 -5.6322 0.6871
3.9930 -5.5303 0.6749
4.2471 -5.7091 0.7058
4.1779 -5.4278 0.6672
4.6114 -5.0339 0.6292
5.9205 -6.1001 0.8071
6.1838 -6.1023 0.8154
6.3195 -6.1032 0.8196
6.3805 -6.0378 0.8130
6.0599 -5.6608 0.7543
6.6109 -5.7888 0.7876
5.7922 -4.8988 0.6473
5.9488 -4.8679 0.6481
0.9380 -8.1954 1.0322
0.9561 -8.7252 1.1137
2.7918 -4.6306 0.5587
2.8295 -4.6045 0.5561
2.8628 -4.4599 0.5354
2.9010 -4.5182 0.5457
3.9338 -6.5329 0.8917
3.8331 -5.9468 0.7985
3.8740 -5.8272 0.7818
3.9124 -5.7152 0.7662
3.9484 -5.6098 0.7515
4.1953 -5.9709 0.8158
4.1453 -5.3751 0.7231
4.1536 -5.2570 0.7054
4.1015 -5.0524 0.6723
4.1343 -4.9960 0.6649
4.4264 -4.9151 0.6636
4.5701 -4.9960 0.6813
6.1834 -5.9992 0.8950
6.3518 -6.0308 0.9062
6.4886 -6.0317 0.9114
6.5870 -5.9994 0.9102
6.7410 -5.9033 0.9014
6.4519 -5.5948 0.8435
5.6644 -4.9607 0.7172
5.8659 -4.8318 0.7051
0.9909 -8.1050 1.1212
4.1973 -7.0038 1.0730
3.9356 -5.9923 0.8845
3.9833 -5.8927 0.8692
4.0001 -5.7319 0.8419
4.1420 -5.3748 0.7859
4.1240 -5.2128 0.7567
4.0995 -5.0552 0.7281
4.1399 -5.0109 0.7222
4.3948 -4.9734 0.7271
4.4523 -4.9546 0.7264
6.1669 -6.1203 1.0072
6.1929 -6.0244 0.9916
6.3615 -6.0566 1.0048
6.7369 -6.0256 1.0163
6.6296 -5.8387 0.9788
5.5014 -4.7972 0.7460
5.8945 -4.9260 0.7862
5.9856 -4.9180 0.7889
1.0613 -7.9623 1.1962
4.0169 -5.7733 0.9197
4.0929 -5.4311 0.8564
4.1207 -5.3421 0.8403
4.0959 -5.1707 0.8053
4.0968 -5.0569 0.7830
4.1293 -5.0011 0.7737
4.1448 -4.9242 0.7594
6.1327 -5.9868 1.0722
6.2618 -5.9873 1.0790
6.4306 -6.0188 1.0940
6.5657 -6.0186 1.1010
6.6630 -5.9867 1.0998
6.4694 -5.6414 1.0218
5.6071 -4.8180 0.8148
5.7493 -4.8478 0.8281
5.7114 -4.7641 0.8096
1.0317 -8.1021 1.3205
3.8622 -5.7954 0.9844
4.1183 -5.3431 0.9007
4.0852 -5.1581 0.8583
4.1108 -5.0855 0.8440
4.1430 -5.0284 0.8334
4.1580 -4.9500 0.8172
4.1263 -4.8123 0.7852
4.0920 -4.6825 0.7548
4.2445 -4.7992 0.7894
6.9464 -6.1140 1.2369
6.7019 -5.8280 1.1599
5.6793 -4.7570 0.8652
0.7184 -5.9986 0.9118
1.7200 -4.1192 0.5542
1.5365 -4.1320 0.5974
-0.1933 -5.0675 1.0591
-0.4245 -3.9243 1.0352
0.7858 -2.9698 0.6919
0.8279 -2.8928 0.6770
0.9613 -2.7974 0.6398
0.9316 -2.7594 0.6441
0.9445 -2.7279 0.6390
0.9145 -2.6892 0.6433
-0.3831 -1.8860 0.8881
-0.2561 -1.8846 0.8587
-0.3468 -1.7983 0.8738
-0.3293 -1.7561 0.8669
0.7969 -5.8909 0.8267
0.8913 -5.6470 0.7923
0.9252 -5.5074 0.7768
0.8230 -5.4868 0.7969
1.6193 -4.1717 0.5517
1.5440 -4.1738 0.5675
1.5724 -4.0983 0.5570
1.5314 -4.0149 0.5605
-0.5896 -4.0633 1.0053
-1.1850 -3.2784 1.0820
-1.1075 -3.1844 1.0602
0.8160 -3.0068 0.6488
0.7298 -2.9648 0.6642
0.8282 -2.9275 0.6415
0.8670 -2.8913 0.6312
0.9102 -2.8577 0.6202
0.9315 -2.8242 0.6137
0.9641 -2.7935 0.6051
0.9332 -2.7551 0.6092
0.9215 -2.7193 0.6095
0.9295 -2.6872 0.6059
0.8919 -2.6462 0.6112
0.1900 -2.3118 0.7373
0.1994 -2.2700 0.7328
-0.3499 -1.8878 0.8242
-0.3877 -1.8214 0.8281
-0.2605 -1.8232 0.8017
0.6978 -6.0740 0.7942
1.5870 -4.1306 0.5258
1.5558 -4.1226 0.5312
1.7060 -3.7797 0.4851
0.8112 -3.0032 0.6103
0.8359 -2.9632 0.6036
0.8961 -2.9266 0.5905
0.9316 -2.8916 0.5820
0.9265 -2.8550 0.5810
0.9275 -2.8195 0.5790
0.9155 -2.7827 0.5792
0.9554 -2.7540 0.5703
0.9183 -2.7140 0.5751
0.9505 -2.6864 0.5676
0.9575 -2.6552 0.5647
0.9214 -2.6146 0.5692
0.8837 -2.5726 0.5740
0.7844 -2.4785 0.5875
0.4970 -2.3164 0.6323
0.5115 -2.2834 0.6279
-0.3342 -1.9349 0.7667
-0.0818 -1.9336 0.7197
1.6249 -4.1784 0.4913
1.5536 -4.1756 0.5029
1.7322 -3.7926 0.4562
1.1788 -4.0022 0.5561
0.6169 -3.0452 0.6042
1.0568 -2.9304 0.5272
0.9978 -2.8923 0.5351
1.0107 -2.8587 0.5314
0.9815 -2.8213 0.5345
0.9450 -2.7478 0.5371
0.9349 -2.6785 0.5356
0.9417 -2.6468 0.5330
0.9302 -2.6115 0.5333
0.9311 -2.5794 0.5317
0.9196 -2.5443 0.5319
0.8768 -2.4999 0.5369
0.5166 -2.3156 0.5873
0.0583 -2.1157 0.6531
0.8819 -2.2576 0.5250
1.7619 -4.2120 0.4430
1.6422 -4.1635 0.4579
1.5543 -4.1813 0.4710
1.8078 -3.8192 0.4216
1.7238 -3.8387 0.4341
1.1514 -4.0258 0.5216
0.7292 -3.1738 0.5484
0.8008 -3.1232 0.5364
0.6044 -3.0888 0.5626
0.5678 -3.0423 0.5660
1.0253 -2.9253 0.4973
0.9501 -2.8850 0.5063
0.9578 -2.8497 0.5039
0.9963 -2.8188 0.4973
0.9657 -2.7806 0.5001
0.9278 -2.7404 0.5039
0.9027 -2.7015 0.5060
0.9245 -2.6714 0.5018
0.9383 -2.6409 0.4987
0.9132 -2.6021 0.5007
0.8892 -2.5630 0.5026
0.8973 -2.5324 0.5003
0.8518 -2.4866 0.5049
0.6408 -2.3864 0.5307
0.6440 -2.3513 0.5289
0.5236 -2.2727 0.5428
0.6924 -2.2988 0.5201
0.7782 -2.2988 0.5081
0.9088 -2.2629 0.4884
1.5943 -4.2311 0.4354
1.5588 -4.2289 0.4395
1.5698 -4.1698 0.4364
1.1163 -4.0551 0.4860
0.6697 -3.1289 0.5100
0.5950 -3.0855 0.5174
0.6007 -3.0377 0.5153
0.9720 -2.8826 0.4670
0.9727 -2.8470 0.4659
0.9923 -2.8141 0.4626
0.9180 -2.7341 0.4688
0.8570 -2.6881 0.4745
0.7801 -2.6002 0.4809
0.8490 -2.5809 0.4722
0.8638 -2.5506 0.4695
1.6024 -4.2282 0.4022
1.5289 -4.2728 0.4101
1.5634 -4.1840 0.4049
1.1061 -4.0664 0.4450
0.6997 -3.1236 0.4614
0.6178 -3.0808 0.4681
0.6024 -3.0337 0.4685
0.5658 -2.9864 0.4708
0.5604 -2.9391 0.4702
0.9686 -2.8784 0.4306
0.9438 -2.8399 0.4321
0.9374 -2.8032 0.4318
0.9053 -2.7630 0.4339
0.8647 -2.7205 0.4367
0.8154 -2.6752 0.4403
0.7871 -2.6327 0.4420
0.7742 -2.5931 0.4423
0.6949 -2.4626 0.4467
0.7151 -2.4324 0.4441
0.6685 -2.3816 0.4473
0.7131 -2.3611 0.4427
0.7703 -2.2496 0.4348
0.8414 -2.2489 0.4281
0.8495 -2.2225 0.4267
1.6136 -4.2213 0.3688
1.5896 -4.2055 0.3703
1.5821 -4.1688 0.3702
1.5786 -4.1277 0.3698
1.0963 -4.0776 0.4027
0.8163 -4.1559 0.4234
0.7895 -4.1112 0.4246
0.6087 -3.0775 0.4216
0.6031 -3.0297 0.4212
0.5877 -2.9823 0.4216
1.0403 -2.8801 0.3885
0.9531 -2.8366 0.3939
0.9536 -2.8007 0.3933
0.8729 -2.7534 0.3983
0.5479 -2.6190 0.4189
0.5129 -2.5692 0.4206
0.5086 -2.5258 0.4202
0.5034 -2.4825 0.4199
0.5189 -2.4452 0.4183
0.5545 -2.4151 0.4153
0.5686 -2.3801 0.4138
0.5545 -2.3370 0.4142
0.5404 -2.2939 0.4145
0.7675 -2.2093 0.3974
0.7840 -2.1854 0.3959
1.6391 -4.2417 0.3352
1.6217 -4.2185 0.3358
1.5579 -4.1579 0.3383
1.5122 -4.1627 0.3404
1.1001 -4.0789 0.3585
0.6108 -3.0736 0.3735
0.6051 -3.0256 0.3734
0.5895 -2.9779 0.3738
1.0492 -2.8769 0.3521
0.9875 -2.8359 0.3546
0.9881 -2.8006 0.3544
0.8305 -2.7422 0.3611
0.4450 -2.5041 0.3769
0.4524 -2.4625 0.3763
0.3694 -2.3970 0.3796
0.2604 -2.2312 0.3834
0.4083 -2.2395 0.3767
0.3494 -2.1770 0.3789
0.4222 -2.1643 0.3755
0.4494 -2.1362 0.3741
0.4553 -2.1005 0.3735
0.4513 -2.0612 0.3734
0.4370 -2.0174 0.3738
1.3155 -5.1650 0.3087
1.2731 -5.1623 0.3096
1.2286 -5.1598 0.3105
0.8249 -5.7138 0.3186
1.6366 -4.2066 0.3026
1.4759 -4.2094 0.3060
1.1323 -4.1136 0.3133
1.1040 -4.0802 0.3139
0.5962 -3.0216 0.3254
0.6014 -2.9737 0.3253
1.0637 -2.8742 0.3157
1.0159 -2.8347 0.3167
0.8990 -2.7476 0.3192
0.4011 -2.4866 0.3299
0.4533 -2.4556 0.3288
-0.5142 -2.0204 0.3495
0.1549 -2.1869 0.3353
0.3530 -2.2115 0.3311
0.0023 -1.9900 0.3386
0.1954 -2.0227 0.3345
1.3212 -5.1716 0.2601
1.2642 -5.1933 0.2596
1.1559 -5.2138 0.2590
1.1861 -5.0901 0.2603
1.6153 -4.2900 0.2690
1.6005 -4.2614 0.2692
1.5482 -4.2305 0.2692
1.4384 -4.3099 0.2681
1.5061 -4.1348 0.2699
0.6486 -4.6456 0.2621
1.1501 -4.1043 0.2688
1.1491 -4.0511 0.2693
0.6087 -3.1153 0.2755
1.0365 -2.9036 0.2790
1.0670 -2.8706 0.2794
0.9608 -2.8244 0.2794
0.9552 -2.7873 0.2797
0.9498 -2.7506 0.2800
0.9444 -2.7142 0.2803
0.8545 -2.6612 0.2805
0.5065 -2.4623 0.2809
-0.6381 -1.9691 0.2809
0.1679 -2.1823 0.2821
0.2935 -2.1815 0.2825
-0.3495 -1.8395 0.2831
-0.3898 -1.7689 0.2836
-0.3306 -1.7409 0.2840
-0.2385 -1.7307 0.2845
1.5908 -4.2821 0.2339
1.5368 -4.3017 0.2320
1.5252 -4.2659 0.2323
1.2098 -4.5212 0.2187
1.4300 -4.1722 0.2311
1.0205 -4.2710 0.2175
1.1052 -4.1441 0.2221
1.0973 -4.0936 0.2228
-1.0045 -3.2940 0.1754
1.0148 -2.8982 0.2408
1.0814 -2.8679 0.2432
0.9960 -2.8239 0.2415
0.9782 -2.7858 0.2416
0.9716 -2.7492 0.2420
0.9331 -2.7071 0.2416
0.8735 -2.6234 0.2413
0.8164 -2.5738 0.2405
0.7881 -2.5300 0.2405
0.2177 -2.1450 0.2305
-0.3340 -1.8339 0.2198
-0.3942 -1.7549 0.2194
-0.3154 -1.7355 0.2220
-0.2062 -1.7336 0.2252
1.6520 -4.2566 0.2023
1.5956 -4.2840 0.1985
1.5730 -4.2639 0.1978
1.5578 -4.2337 0.1978
1.5185 -4.2313 0.1957
1.0943 -4.1574 0.1744
1.0939 -4.1006 0.1758
-0.6598 -4.3861 0.0729
-0.8474 -3.2752 0.0908
0.8387 -3.0514 0.1885
0.8887 -3.0079 0.1924
0.8751 -2.9661 0.1927
0.9907 -2.9303 0.1999
1.0110 -2.8940 0.2019
1.0726 -2.8631 0.2061
1.0242 -2.8228 0.2044
0.9931 -2.7833 0.2037
0.9753 -2.7450 0.2037
0.9221 -2.7000 0.2020
