ply
format ascii 1.0
element vertex 2183
property float x
property float y
property float z
end_header
4.8514 2.1425 -0.2437
4.8492 2.1388 -0.2556
4.8525 2.1342 -0.2635
4.8530 2.1301 -0.2734
4.8508 2.1262 -0.2857
4.8523 2.1219 -0.2951
4.8547 2.1175 -0.3036
4.8535 2.1134 -0.3155
4.8550 2.1091 -0.3249
4.8547 2.1048 -0.3360
4.8571 2.1004 -0.3446
4.8577 2.0961 -0.3550
4.8583 2.0917 -0.3654
4.8572 2.0873 -0.3778
4.8562 2.0828 -0.3904
4.8577 2.0784 -0.4000
4.8566 2.0738 -0.4128
4.8573 2.0693 -0.4236
4.8589 2.0648 -0.4334
4.8579 2.0601 -0.4465
4.8561 2.0552 -0.4609
2.3403 3.4228 0.4895
4.8167 2.2004 -0.1053
4.8232 2.1947 -0.1131
4.8316 2.1886 -0.1201
4.8340 2.1842 -0.1288
4.8394 2.1790 -0.1364
4.8398 2.1752 -0.1457
4.8422 2.1708 -0.1542
4.8446 2.1665 -0.1626
4.8460 2.1624 -0.1715
4.8455 2.1587 -0.1814
4.8440 2.1551 -0.1919
4.8474 2.1506 -0.1998
4.8507 2.1462 -0.2076
4.8511 2.1422 -0.2171
4.8507 2.1384 -0.2273
4.8493 2.1346 -0.2382
4.8526 2.1302 -0.2459
4.8559 2.1259 -0.2535
4.8545 2.1220 -0.2647
4.8532 2.1181 -0.2759
4.8528 2.1140 -0.2866
4.8542 2.1098 -0.2958
4.8566 2.1055 -0.3041
4.8571 2.1014 -0.3141
4.8550 2.0972 -0.3267
4.8555 2.0929 -0.3369
4.8552 2.0886 -0.3480
4.8549 2.0843 -0.3592
4.8555 2.0799 -0.3696
4.8570 2.0756 -0.3790
4.8567 2.0712 -0.3905
4.8571 2.0622 -0.4126
4.8577 2.0577 -0.4233
4.8532 2.0526 -0.4407
4.8530 2.0479 -0.4527
2.3689 3.4601 0.8028
2.4600 3.3921 0.7174
2.1406 3.5175 0.7355
2.2915 3.4213 0.6349
2.2110 3.4317 0.5867
2.2677 3.3800 0.5100
4.8285 2.1843 -0.1074
4.8330 2.1794 -0.1154
4.8374 2.1746 -0.1232
4.8418 2.1699 -0.1309
4.8422 2.1662 -0.1400
4.8446 2.1619 -0.1483
4.8469 2.1578 -0.1565
4.8483 2.1538 -0.1652
4.8507 2.1496 -0.1733
4.8471 2.1464 -0.1845
4.8495 2.1422 -0.1927
4.8499 2.1384 -0.2020
4.8494 2.1346 -0.2120
4.8537 2.1302 -0.2189
4.8531 2.1264 -0.2289
4.8536 2.1224 -0.2384
4.8540 2.1184 -0.2479
4.8535 2.1145 -0.2581
4.8549 2.1104 -0.2670
4.8544 2.1064 -0.2774
4.8559 2.1023 -0.2864
4.8573 2.0982 -0.2953
4.8559 2.0941 -0.3068
4.8546 2.0899 -0.3184
4.8551 2.0857 -0.3283
4.8556 2.0815 -0.3384
4.8571 2.0773 -0.3475
4.8567 2.0730 -0.3586
4.8572 2.0687 -0.3688
4.8569 2.0643 -0.3800
4.8566 2.0598 -0.3913
4.8554 2.0553 -0.4039
4.8542 2.0506 -0.4165
4.8530 2.0459 -0.4294
4.8519 2.0411 -0.4423
2.3334 3.4773 0.9954
2.2579 3.4890 0.9607
2.2455 3.4698 0.9028
2.2785 3.4293 0.8309
2.4523 3.3257 0.7225
2.2092 3.4093 0.7232
2.2198 3.3785 0.6563
2.1602 3.3776 0.6035
1.8939 3.4316 0.5119
4.8422 2.1653 -0.1174
4.8436 2.1614 -0.1259
4.8449 2.1575 -0.1344
4.8452 2.1538 -0.1433
4.8466 2.1499 -0.1518
4.8489 2.1458 -0.1598
4.8503 2.1419 -0.1683
4.8530 2.1341 -0.1853
4.8514 2.1305 -0.1954
4.8527 2.1266 -0.2040
4.8550 2.1226 -0.2119
4.8544 2.1188 -0.2217
4.8558 2.1148 -0.2303
4.8552 2.1110 -0.2402
4.8556 2.1071 -0.2496
4.8570 2.1031 -0.2582
4.8555 2.0992 -0.2692
4.8559 2.0951 -0.2787
4.8554 2.0911 -0.2891
4.8568 2.0871 -0.2979
4.8582 2.0830 -0.3067
4.8577 2.0789 -0.3172
4.8572 2.0747 -0.3279
4.8540 2.0703 -0.3415
4.8554 2.0661 -0.3505
4.8541 2.0617 -0.3625
4.8546 2.0574 -0.3727
4.8542 2.0530 -0.3839
4.8530 2.0484 -0.3962
4.8526 2.0439 -0.4077
4.8505 2.0390 -0.4214
4.8511 2.0346 -0.4320
2.1659 3.5084 1.1151
2.3175 3.3890 0.9411
2.1384 3.4180 0.8735
2.1008 3.4077 0.8195
2.1116 3.3764 0.7515
2.0735 3.3651 0.6946
1.9007 3.4068 0.6629
1.9394 3.3626 0.5849
1.7482 3.4067 0.5448
1.5674 3.4432 0.4945
4.8346 2.1625 -0.1069
4.8391 2.1580 -0.1144
4.8446 2.1534 -0.1214
4.8469 2.1494 -0.1293
4.8526 2.1413 -0.1446
4.8509 2.1380 -0.1541
4.8535 2.1303 -0.1707
4.8538 2.1266 -0.1795
4.8551 2.1228 -0.1878
4.8534 2.1192 -0.1978
4.8567 2.1152 -0.2050
4.8561 2.1115 -0.2146
4.8524 2.1079 -0.2262
4.8538 2.1040 -0.2347
4.8541 2.1001 -0.2439
4.8565 2.0962 -0.2517
4.8559 2.0922 -0.2617
4.8562 2.0883 -0.2711
4.8557 2.0843 -0.2813
4.8561 2.0803 -0.2907
4.8545 2.0762 -0.3019
4.8569 2.0722 -0.3098
4.8554 2.0680 -0.3212
4.8540 2.0637 -0.3328
4.8554 2.0596 -0.3416
4.8539 2.0552 -0.3534
4.8516 2.0507 -0.3664
4.8521 2.0464 -0.3764
4.8507 2.0418 -0.3887
4.8494 2.0371 -0.4011
4.8500 2.0327 -0.4114
4.8468 2.0276 -0.4263
2.0073 3.4791 1.1080
2.0911 3.4166 1.0160
2.1251 3.3762 0.9423
2.0151 3.3953 0.9113
2.0260 3.3638 0.8428
1.9602 3.3624 0.7933
1.9968 3.3203 0.7174
1.8741 3.3386 0.6753
1.8006 3.3364 0.6184
1.3621 3.4295 0.5351
3.0485 2.6413 -0.1829
4.8403 2.1501 -0.1101
4.8448 2.1458 -0.1173
4.8492 2.1416 -0.1243
4.8516 2.1378 -0.1320
4.8518 2.1342 -0.1405
4.8531 2.1305 -0.1485
4.8533 2.1268 -0.1571
4.8525 2.1233 -0.1662
4.8538 2.1196 -0.1743
4.8531 2.1160 -0.1836
4.8544 2.1122 -0.1918
4.8557 2.1084 -0.2000
4.8549 2.1047 -0.2094
4.8552 2.1009 -0.2183
4.8565 2.0971 -0.2266
4.8579 2.0933 -0.2349
4.8572 2.0895 -0.2446
4.8555 2.0856 -0.2551
4.8548 2.0817 -0.2651
4.8552 2.0777 -0.2743
4.8546 2.0737 -0.2845
4.8549 2.0697 -0.2938
4.8553 2.0657 -0.3033
4.8547 2.0616 -0.3136
4.8542 2.0574 -0.3241
4.8565 2.0535 -0.3319
4.8531 2.0489 -0.3454
4.8506 2.0443 -0.3582
4.8511 2.0401 -0.3681
4.8506 2.0357 -0.3791
4.8473 2.0307 -0.3934
4.8469 2.0261 -0.4047
1.9821 3.4149 1.1160
1.9426 3.4042 1.0651
1.9535 3.3726 0.9967
1.8586 3.3821 0.9588
1.6982 3.4146 0.9344
1.6793 3.3917 0.8676
1.6912 3.3571 0.7926
1.6411 3.3445 0.7304
1.5236 3.3540 0.6783
1.5024 3.3288 0.6047
1.3376 3.3500 0.5504
2.9617 2.6143 -0.1746
4.8407 2.1427 -0.1062
4.8452 2.1385 -0.1132
4.8486 2.1345 -0.1205
4.8520 2.1306 -0.1277
4.8512 2.1272 -0.1364
4.8535 2.1235 -0.1439
4.8526 2.1200 -0.1528
4.8549 2.1163 -0.1603
4.8530 2.1128 -0.1697
4.8533 2.1091 -0.1783
4.8569 2.1017 -0.1938
4.8581 2.0980 -0.2018
4.8573 2.0943 -0.2111
4.8586 2.0906 -0.2192
4.8548 2.0868 -0.2307
4.8551 2.0830 -0.2397
4.8554 2.0792 -0.2486
4.8546 2.0753 -0.2584
4.8560 2.0715 -0.2667
4.8543 2.0674 -0.2775
4.8556 2.0636 -0.2858
4.8539 2.0594 -0.2968
4.8533 2.0553 -0.3071
4.8536 2.0513 -0.3165
4.8521 2.0469 -0.3278
4.8524 2.0428 -0.3374
4.8480 2.0379 -0.3520
4.8484 2.0337 -0.3618
4.8488 2.0295 -0.3716
4.8473 2.0248 -0.3837
4.8468 2.0203 -0.3948
4.8463 2.0158 -0.4060
4.3632 0.0797 0.3330
4.3557 0.1156 0.3315
4.3321 0.1269 0.3357
4.2860 0.1061 0.3478
3.1040 -0.1490 0.6336
3.1329 0.0247 0.6117
3.1125 0.0846 0.6109
-0.6772 3.5759 1.1424
-0.0004 3.5227 0.9965
0.0821 3.5797 0.9731
4.3967 0.1244 0.2924
4.3864 0.1546 0.2920
4.3610 0.1616 0.2965
4.3292 0.1606 0.3030
3.2886 0.1285 0.5140
3.3614 0.2460 0.4898
4.4093 0.1350 0.2599
4.3850 0.1425 0.2637
4.3626 0.1544 0.2667
4.3278 0.1492 0.2733
4.2518 0.0870 0.2914
3.2519 -0.2773 0.4960
3.3783 -0.0909 0.4598
3.3477 -0.0446 0.4618
3.2428 -0.0556 0.4812
3.2611 0.0317 0.4715
3.3531 0.2352 0.4401
3.2766 0.2519 0.4525
3.2454 0.2999 0.4544
-0.5026 3.4474 0.8872
0.3120 3.3482 0.7498
0.4363 3.3860 0.7249
4.4377 0.1722 0.2235
4.4035 0.1623 0.2295
4.3584 0.1381 0.2381
4.3161 0.1220 0.2457
4.2564 0.0838 0.2575
4.2101 0.0695 0.2656
4.0464 0.3337 0.2734
3.4440 -0.1130 0.3962
3.3217 -0.1477 0.4175
3.3020 -0.0897 0.4167
3.2626 0.0262 0.4151
3.2224 0.2815 0.4044
3.2030 0.3383 0.4036
2.4167 1.9122 0.4210
-0.3674 3.5211 0.7453
0.2271 3.3966 0.6615
0.4089 3.4130 0.6323
4.4269 0.1440 0.1977
4.4087 0.1609 0.1991
4.3602 0.1310 0.2072
4.3308 0.1344 0.2109
4.2791 0.1071 0.2193
4.2387 0.1000 0.2250
4.1481 0.0277 0.2412
4.0573 -0.0371 0.2569
4.1105 0.3907 0.2249
3.3790 -0.1805 0.3545
3.4123 0.0637 0.3359
3.2122 -0.0185 0.3670
3.1017 0.0539 0.3773
2.4724 1.8514 0.3552
2.3525 1.9283 0.3665
-0.3082 3.6176 0.6180
-0.2776 3.7037 0.6090
4.4442 0.1630 0.1651
4.4263 0.1795 0.1662
4.4030 0.1886 0.1683
4.3668 0.1795 0.1726
4.3248 0.1645 0.1779
4.2828 0.1529 0.1831
4.2354 0.1371 0.1890
3.4244 -0.2224 0.2948
3.4273 -0.1452 0.2906
3.4195 -0.0792 0.2881
3.4005 -0.0234 0.2874
3.2985 -0.0335 0.2989
3.1734 -0.0548 0.3135
3.1236 -0.0140 0.3168
2.9727 0.0405 0.3304
2.9987 0.1355 0.3228
2.0479 1.5527 0.3542
2.1985 1.6210 0.3344
2.2442 1.6878 0.3261
2.6710 1.7192 0.2784
2.3282 1.8763 0.3075
2.5043 1.9124 0.2867
2.5345 2.0215 0.2779
4.4257 0.1686 0.1368
4.4018 0.1769 0.1385
4.3884 0.2030 0.1385
4.3639 0.2129 0.1402
4.3180 0.1938 0.1448
4.2940 0.2085 0.1462
3.3112 -0.2605 0.2490
3.3405 -0.1566 0.2422
3.4142 -0.0195 0.2301
3.3128 -0.0294 0.2391
3.2151 -0.0303 0.2474
3.1810 0.0207 0.2481
3.1177 0.0527 0.2521
3.1531 0.1517 0.2449
3.1049 0.1954 0.2471
2.1160 0.7565 0.3068
2.4528 1.0641 0.2654
2.5324 1.1477 0.2551
2.3836 1.2019 0.2654
2.2359 1.8950 0.2485
2.5195 1.9167 0.2237
2.6549 1.9510 0.2108
2.5851 2.0187 0.2138
2.3777 2.1763 0.2246
4.4665 0.1803 0.1036
4.4593 0.2143 0.1029
4.4308 0.2135 0.1046
4.3989 0.2097 0.1067
4.3797 0.2272 0.1072
4.3543 0.2367 0.1084
4.3022 0.2108 0.1125
4.0970 0.3582 0.1198
3.4213 -0.1685 0.1785
3.3788 -0.1315 0.1798
3.3823 -0.0540 0.1770
3.2506 -0.0867 0.1860
3.1614 -0.0784 0.1911
3.1401 -0.0156 0.1903
3.0891 0.0267 0.1919
3.0974 0.1099 0.1886
3.0147 0.1348 0.1927
1.5431 0.5157 0.2685
2.3325 1.1996 0.1975
2.2131 1.2644 0.2025
2.2606 1.3429 0.1969
2.5555 1.8595 0.1615
2.6047 1.9101 0.1568
2.6527 1.9579 0.1523
2.6661 2.0097 0.1497
2.7254 2.0500 0.1447
2.6100 2.1289 0.1490
2.5211 2.2048 0.1518
2.4654 2.2741 0.1528
4.4833 0.1992 0.0728
4.4714 0.2245 0.0726
4.4438 0.2248 0.0736
4.4201 0.2331 0.0742
4.3989 0.2468 0.0746
4.3620 0.2389 0.0762
4.3170 0.2225 0.0782
4.2817 0.2227 0.0795
4.1101 0.3649 0.0819
3.5014 -0.1032 0.1159
3.4159 -0.1073 0.1191
3.4417 -0.0117 0.1157
3.3657 -0.0018 0.1182
3.2048 -0.0526 0.1253
3.1555 -0.0113 0.1260
2.1282 0.7611 0.1429
2.3808 0.9015 0.1302
2.3557 0.9754 0.1292
2.2802 1.1974 0.1262
2.2797 1.2733 0.1242
2.3012 1.3491 0.1215
2.7265 1.7870 0.0949
2.5846 1.9198 0.0965
2.5827 1.9771 0.0951
2.3922 2.0713 0.0995
1.9814 2.2214 0.1104
1.9818 2.2881 0.1087
2.4608 2.2838 0.0916
4.5000 0.2180 0.0428
4.4660 0.2054 0.0434
4.4455 0.2177 0.0434
4.4225 0.2274 0.0435
4.3870 0.2194 0.0441
4.3551 0.2198 0.0444
4.3443 0.2518 0.0440
4.3072 0.2484 0.0444
4.1280 0.3766 0.0442
3.4417 -0.0928 0.0601
3.3876 -0.0655 0.0602
3.3319 -0.0366 0.0604
3.2061 -0.0590 0.0622
3.1569 -0.0171 0.0620
3.1204 0.0356 0.0615
1.5379 0.9287 0.0637
2.0671 1.1789 0.0533
1.6287 1.2273 0.0574
1.8022 1.3278 0.0537
2.5111 1.4320 0.0439
1.4714 2.1044 0.0439
1.5130 2.1782 0.0421
1.7142 2.2165 0.0392
1.8917 2.2505 0.0366
1.9996 2.2931 0.0346
2.1240 2.3259 0.0327
2.4200 2.3039 0.0297
4.4908 0.1912 0.0136
4.4657 0.1946 0.0132
4.4556 0.2244 0.0128
4.4300 0.2295 0.0124
4.3882 0.2118 0.0120
4.3659 0.2263 0.0116
4.3331 0.2271 0.0111
4.2663 0.1839 0.0106
3.5571 -0.1411 0.0037
3.4750 -0.1457 0.0026
3.3983 -0.1403 0.0015
3.2077 -0.0653 -0.0018
3.0978 -0.0676 -0.0033
3.0115 -0.0469 -0.0047
1.5424 0.6234 -0.0310
1.9348 0.8106 -0.0272
0.7133 0.8042 -0.0440
1.6414 1.0444 -0.0334
2.1411 1.2704 -0.0285
2.0324 1.3441 -0.0306
2.4242 1.4341 -0.0260
2.1908 1.5777 -0.0305
2.6280 1.6905 -0.0255
2.7268 1.7414 -0.0246
0.7024 2.1389 -0.0561
1.1847 2.1605 -0.0496
1.3903 2.2105 -0.0473
1.7642 2.2159 -0.0421
1.9384 2.2494 -0.0400
2.1170 2.2735 -0.0378
2.2317 2.3064 -0.0365
2.4160 2.3137 -0.0340
4.4711 0.1454 -0.0173
4.4683 0.1885 -0.0174
4.4367 0.1830 -0.0187
4.4095 0.1870 -0.0197
4.3846 0.1966 -0.0207
4.3458 0.1870 -0.0222
4.3077 0.1817 -0.0237
4.2035 0.0884 -0.0278
4.0787 0.0368 -0.0326
4.0648 0.0776 -0.0332
4.0564 0.1247 -0.0335
4.0535 0.1776 -0.0337
3.5609 -0.1468 -0.0529
3.4997 -0.1317 -0.0553
3.4581 -0.0953 -0.0569
3.4161 -0.0574 -0.0586
3.2432 0.0324 -0.0654
3.1517 0.0445 -0.0689
2.1329 0.9406 -0.1091
2.0776 1.1032 -0.1114
2.1063 1.1900 -0.1103
2.3570 1.2904 -0.1005
2.1858 1.3561 -0.1072
2.3075 1.4359 -0.1025
2.2562 1.6531 -0.1045
2.5327 1.7030 -0.0937
2.6043 1.7589 -0.0909
0.1611 2.3397 -0.1868
2.0859 2.2905 -0.1114
2.2910 2.2995 -0.1034
0.7612 3.4801 -0.1637
4.4601 0.1637 -0.0493
4.4169 0.1395 -0.0523
4.3916 0.1479 -0.0539
4.3806 0.1803 -0.0543
4.2614 0.1054 -0.0627
4.0265 0.0211 -0.0787
4.1280 0.3055 -0.0697
3.5557 -0.0879 -0.1101
3.4157 -0.1424 -0.1197
3.4420 -0.0433 -0.1171
3.5195 0.0941 -0.1109
3.4908 0.1406 -0.1124
3.4175 0.1548 -0.1170
3.1821 0.0593 -0.1331
3.0855 0.0724 -0.1393
1.2687 0.7866 -0.2511
1.8243 1.0745 -0.2127
0.7102 1.1747 -0.2841
2.3020 1.4405 -0.1786
2.4347 1.5133 -0.1694
2.3895 1.5834 -0.1717
2.4715 1.6478 -0.1658
2.6234 1.7019 -0.1555
2.6896 1.7563 -0.1508
2.7683 1.8052 -0.1453
2.6131 1.8835 -0.1547
2.3122 2.0564 -0.1727
2.0300 2.4450 -0.1878
0.0074 3.7389 -0.3081
0.1553 3.7671 -0.2983
4.4383 0.1146 -0.0842
4.4045 0.1076 -0.0874
4.3783 0.1157 -0.0896
4.3043 0.1048 -0.0965
4.2225 0.0388 -0.1051
4.0491 -0.0835 -0.1230
4.1551 0.3276 -0.1062
3.4728 -0.1760 -0.1770
3.3693 -0.1938 -0.1867
3.4783 -0.0201 -0.1738
3.4914 0.0636 -0.1712
3.4833 0.1280 -0.1708
3.4203 0.1505 -0.1761
3.1976 0.0637 -0.1979
1.2375 0.6701 -0.3656
1.0537 0.7506 -0.3810
1.7749 0.9769 -0.3115
1.7440 1.0679 -0.3127
1.3568 1.5242 -0.3400
1.9228 1.6029 -0.2872
2.3829 1.6582 -0.2444
2.5253 1.7152 -0.2305
2.7183 1.8173 -0.2111
4.2376 0.3628 -0.1347
4.2096 0.3800 -0.1375
3.3206 -0.2478 -0.2583
3.4589 -0.0453 -0.2368
3.5051 0.0674 -0.2284
3.4753 0.1147 -0.2306
3.3518 0.0926 -0.2457
3.2677 0.1068 -0.2552
3.1771 0.1214 -0.2655
0.9161 0.2207 -0.5282
1.0411 0.3846 -0.5092
1.1066 0.5246 -0.4978
1.0161 0.6260 -0.5058
1.4496 0.8244 -0.4497
1.8315 0.9884 -0.4006
1.1178 1.5329 -0.4700
1.6875 1.6168 -0.4010
2.4404 1.7279 -0.3097
4.2618 0.3349 -0.1692
4.2500 0.3696 -0.1697
3.0798 -0.6720 -0.3752
3.3362 -0.2434 -0.3231
3.4271 -0.0817 -0.3042
3.4976 0.0536 -0.2893
3.3866 0.0373 -0.3059
3.3288 0.0685 -0.3131
3.2144 0.0622 -0.3298
3.0057 -0.0003 -0.3621
1.6521 0.4389 -0.5416
1.6181 0.5389 -0.5430
1.9456 0.7244 -0.4892
1.8482 0.8007 -0.5006
1.8170 0.8926 -0.5018
1.9196 1.0046 -0.4831
1.7578 1.1716 -0.5005
1.7956 1.2673 -0.4916
1.7311 1.3551 -0.4978
1.5167 1.4422 -0.5257
2.4602 1.6655 -0.3818
2.4573 1.7327 -0.3798
2.3697 1.8080 -0.3898
0.5045 2.5415 -0.6326
0.4866 2.7483 -0.6279
0.6166 2.8106 -0.6070
0.6345 2.9000 -0.6012
0.5447 3.0222 -0.6098
0.5087 3.1280 -0.6113
0.6333 3.1754 -0.5917
0.6492 3.2582 -0.5864
4.4050 0.2756 -0.1845
4.2984 0.3713 -0.1985
3.3552 -0.4055 -0.3947
3.4108 -0.2657 -0.3789
3.3898 -0.2038 -0.3797
3.4762 -0.0471 -0.3579
3.5326 0.0752 -0.3428
3.2658 0.0137 -0.3913
2.9711 -0.0305 -0.4437
2.5230 -0.2305 -0.5294
2.3048 -0.2603 -0.5681
2.3319 -0.1376 -0.5579
2.2727 -0.0647 -0.5648
2.3003 0.0532 -0.5548
2.2706 0.1407 -0.5560
2.2117 0.2158 -0.5628
2.0584 0.2557 -0.5872
1.9937 0.3355 -0.5948
1.9959 0.4395 -0.5897
2.1218 0.5781 -0.5620
1.9659 0.6320 -0.5863
2.2071 0.7873 -0.5381
2.0014 0.8341 -0.5712
1.9065 0.9109 -0.5840
1.8758 1.0010 -0.5853
1.9433 1.1030 -0.5692
2.0358 1.2020 -0.5489
1.8512 1.2758 -0.5772
2.0381 1.3729 -0.5409
2.2030 1.4585 -0.5088
2.3492 1.5343 -0.4804
2.4151 1.6044 -0.4660
2.4345 1.6729 -0.4596
2.5149 1.7340 -0.4431
2.4920 1.8014 -0.4440
2.3631 1.8829 -0.4625
2.4252 1.9395 -0.4493
1.6884 2.1346 -0.5668
1.3395 2.3695 -0.6161
1.3856 2.4425 -0.6049
1.2770 2.5533 -0.6186
1.2457 2.6452 -0.6198
1.1726 2.7500 -0.6277
1.1832 2.8290 -0.6223
1.1922 2.9069 -0.6173
1.2017 2.9830 -0.6123
1.1711 3.0731 -0.6135
1.1804 3.1470 -0.6086
1.1098 3.2533 -0.6160
1.0792 3.3434 -0.6172
1.0485 3.4335 -0.6184
3.5148 -1.2683 -0.4790
3.4516 -1.2619 -0.4912
4.2823 0.1380 -0.2506
3.6499 -0.4264 -0.4067
3.6400 -0.3575 -0.4050
3.5462 -0.3833 -0.4250
3.4560 -0.3982 -0.4438
3.4225 -0.3484 -0.4477
3.3887 -0.2978 -0.4517
3.4176 -0.1877 -0.4400
3.5550 0.0141 -0.4018
3.4128 -0.0336 -0.4327
3.3549 -0.0033 -0.4426
3.2945 0.0281 -0.4529
3.2033 0.0405 -0.4703
2.9709 -0.0376 -0.5207
2.9466 0.0341 -0.5217
2.8664 0.0720 -0.5356
2.8605 0.1562 -0.5322
2.8358 0.2290 -0.5332
2.8110 0.3018 -0.5342
2.8247 0.3923 -0.5266
2.7805 0.4555 -0.5320
2.7559 0.5277 -0.5329
2.7314 0.5999 -0.5339
2.6872 0.6657 -0.5392
2.6202 0.7259 -0.5492
2.5295 0.7825 -0.5642
2.5487 0.8689 -0.5557
2.4547 0.9293 -0.5712
2.3808 0.9973 -0.5822
2.3297 1.0714 -0.5883
2.3767 1.1587 -0.5743
2.3978 1.2395 -0.5657
2.3723 1.3147 -0.5667
2.5265 1.3970 -0.5316
2.5644 1.4683 -0.5203
2.4994 1.5378 -0.5294
2.4105 1.6102 -0.5432
2.3407 1.6847 -0.5531
2.3383 1.7556 -0.5497
2.3138 1.8278 -0.5507
2.5453 1.8655 -0.5026
2.2646 1.9723 -0.5527
2.3327 2.0277 -0.5361
2.3089 2.0977 -0.5371
2.0653 2.2173 -0.5790
1.9866 2.3056 -0.5899
1.9048 2.3971 -0.6013
1.8783 2.4749 -0.6023
1.8808 2.5436 -0.5981
1.8546 2.6207 -0.5992
1.9118 2.6685 -0.5852
1.9408 2.7235 -0.5765
1.9693 2.7766 -0.5679
1.8074 2.9055 -0.5932
1.7235 3.0062 -0.6044
1.7266 3.0702 -0.6004
1.7005 3.1467 -0.6014
3.6283 -1.1064 -0.5173
3.6514 -0.9715 -0.5035
3.5915 -0.5114 -0.4878
3.6239 -0.3890 -0.4727
3.5721 -0.3666 -0.4831
3.5519 -0.3071 -0.4839
3.4258 -0.3566 -0.5156
3.3781 -0.3191 -0.5240
3.4795 -0.1396 -0.4897
3.5270 -0.0193 -0.4713
3.4148 -0.0402 -0.4980
3.2199 -0.1200 -0.5473
3.2267 -0.0311 -0.5401
3.1747 0.0128 -0.5491
3.0570 0.0142 -0.5757
3.0502 0.0946 -0.5721
3.0033 0.2324 -0.5740
2.9964 0.3102 -0.5706
3.0066 0.3952 -0.5629
3.0006 0.4704 -0.5595
2.9437 0.5227 -0.5691
2.9206 0.5906 -0.5700
2.9149 0.6648 -0.5666
2.9095 0.7380 -0.5632
2.8335 0.7891 -0.5771
2.7924 0.8528 -0.5824
2.7870 0.9260 -0.5790
2.8358 1.0092 -0.5627
2.7773 1.0693 -0.5721
2.7172 1.1312 -0.5818
2.7127 1.2019 -0.5783
2.6517 1.2663 -0.5881
2.6474 1.3365 -0.5846
2.7368 1.4091 -0.5597
2.6203 1.4735 -0.5820
2.5373 1.5423 -0.5965
2.5136 1.6118 -0.5975
2.5310 1.6786 -0.5893
2.5873 1.7399 -0.5726
2.6032 1.8019 -0.5651
2.4793 1.9456 -0.5841
2.4355 2.0169 -0.5895
2.3704 2.0935 -0.5994
2.3470 2.1624 -0.6003
2.3662 2.2206 -0.5922
2.3431 2.2885 -0.5932
2.3200 2.3565 -0.5941
2.2751 2.4312 -0.5995
2.2518 2.4997 -0.6005
2.2285 2.5681 -0.6014
2.1829 2.6449 -0.6069
2.1357 2.7232 -0.6126
2.1120 2.7926 -0.6136
2.1354 2.8418 -0.6051
2.1352 2.8998 -0.6015
2.0657 2.9895 -0.6116
4.2643 0.1465 -0.3341
3.7444 -0.3366 -0.5019
3.7614 -0.2393 -0.4905
3.6782 -0.2589 -0.5131
3.6494 -0.2133 -0.5172
3.5894 -0.1989 -0.5314
3.5482 -0.1621 -0.5392
3.5283 -0.1034 -0.5400
3.4974 -0.0545 -0.5443
3.5635 0.0781 -0.5177
3.3971 0.0150 -0.5648
3.3513 0.0568 -0.5734
3.4514 0.2068 -0.5369
3.4317 0.2647 -0.5377
3.3643 0.2918 -0.5529
3.3567 0.3590 -0.5500
3.3110 0.4034 -0.5584
3.3286 0.4836 -0.5480
3.3567 0.5663 -0.5348
3.2887 0.6010 -0.5496
3.2028 0.6314 -0.5693
3.1966 0.6978 -0.5660
3.2288 0.7771 -0.5520
3.2345 0.8443 -0.5456
3.2018 0.8984 -0.5500
3.1558 0.9498 -0.5580
3.1886 1.0213 -0.5444
3.1423 1.0734 -0.5524
3.1495 1.1365 -0.5460
3.1163 1.1921 -0.5504
2.9852 1.3614 -0.5714
2.9507 1.4208 -0.5759
3.0594 1.4823 -0.5437
3.0257 1.5394 -0.5481
3.0208 1.5960 -0.5452
2.8520 1.6629 -0.5834
2.8313 1.7236 -0.5842
2.9043 1.7734 -0.5620
2.9145 1.8275 -0.5554
2.8019 1.9003 -0.5788
2.6812 1.9789 -0.6038
2.6600 2.0412 -0.6047
2.7574 2.0761 -0.5773
2.7852 2.1234 -0.5667
2.7001 2.1997 -0.5829
2.6456 2.2697 -0.5916
2.5540 2.3528 -0.6089
2.5697 2.4027 -0.6013
2.6023 2.4450 -0.5899
2.5818 2.5053 -0.5907
4.3274 0.1724 -0.3551
4.3111 0.2023 -0.3572
4.2844 0.2184 -0.3635
4.2446 0.2192 -0.3747
4.2147 0.2353 -0.3818
3.9009 0.1147 -0.4809
3.6347 -0.0865 -0.5730
3.6355 -0.0114 -0.5666
3.6166 0.0441 -0.5673
3.5978 0.0995 -0.5681
3.5583 0.1382 -0.5761
3.5392 0.1944 -0.5769
3.5306 0.2583 -0.5740
3.5428 0.3356 -0.5641
3.5034 0.3770 -0.5719
3.5055 0.4453 -0.5656
3.4357 0.5374 -0.5778
3.4279 0.5989 -0.5749
3.4415 0.6694 -0.5652
3.3557 0.6950 -0.5874
3.3937 0.7742 -0.5701
3.3642 0.8251 -0.5742
3.3099 0.8685 -0.5860
3.3028 0.9282 -0.5831
3.3079 0.9905 -0.5765
3.2770 1.0428 -0.5809
3.2268 1.1515 -0.5862
3.2445 1.2127 -0.5761
3.1762 1.2617 -0.5914
3.1826 1.3202 -0.5847
3.2134 1.3787 -0.5712
3.1449 1.4311 -0.5862
3.1513 1.4868 -0.5798
3.0939 1.5423 -0.5915
3.1017 1.5970 -0.5848
3.0954 1.6513 -0.5821
3.0642 1.7073 -0.5863
3.0454 1.7624 -0.5870
3.0395 1.8157 -0.5843
3.0208 1.8705 -0.5850
2.9751 1.9305 -0.5931
2.9704 1.9830 -0.5900
2.9517 2.0381 -0.5908
2.9329 2.0932 -0.5915
2.9142 2.1484 -0.5923
2.8807 2.2079 -0.5968
2.7833 2.3392 -0.6136
2.8391 2.3689 -0.5953
2.8052 2.4298 -0.5999
2.8016 2.4792 -0.5968
2.7829 2.5343 -0.5976
2.7331 2.6031 -0.6060
2.7141 2.6589 -0.6067
2.7109 2.7072 -0.6037
4.3582 0.1545 -0.3867
4.3462 0.1897 -0.3871
4.3240 0.2105 -0.3921
4.2968 0.2256 -0.3993
4.2691 0.2418 -0.4064
4.2410 0.2592 -0.4136
4.2283 0.2966 -0.4141
4.2156 0.3341 -0.4146
4.0350 0.1872 -0.4847
3.9526 0.1600 -0.5130
3.9167 0.1856 -0.5218
3.8058 0.1417 -0.5606
3.7888 0.1917 -0.5613
3.7640 0.2350 -0.5650
3.7627 0.2982 -0.5596
3.7378 0.3417 -0.5633
3.7288 0.3976 -0.5609
3.7608 0.4813 -0.5432
3.7279 0.5186 -0.5500
3.6872 0.5525 -0.5596
3.6703 0.7176 -0.5496
3.6541 0.8216 -0.5450
3.6121 0.8593 -0.5547
3.5507 0.8917 -0.5708
3.5527 0.9480 -0.5650
3.5807 1.0108 -0.5504
3.5643 1.0589 -0.5511
3.5200 1.1005 -0.5611
3.5128 1.1513 -0.5586
3.4687 1.1952 -0.5684
3.4518 1.2446 -0.5690
3.4368 1.3451 -0.5644
3.4014 1.3929 -0.5711
3.4135 1.4433 -0.5626
3.3567 1.4918 -0.5759
3.3611 1.5410 -0.5699
3.3935 1.5879 -0.5555
3.3369 1.6387 -0.5684
3.3203 1.6877 -0.5691
3.2942 1.7377 -0.5726
3.2976 1.7840 -0.5673
3.3024 1.8290 -0.5616
3.2537 1.8834 -0.5718
3.2164 1.9368 -0.5785
3.2314 1.9787 -0.5699
3.2038 2.0302 -0.5738
3.1771 2.0820 -0.5773
3.1817 2.1247 -0.5719
3.1324 2.1840 -0.5819
3.0802 2.2456 -0.5925
3.0819 2.3323 -0.5839
3.0289 2.3964 -0.5945
3.0601 2.4262 -0.5820
3.0540 2.4706 -0.5798
3.0613 2.5085 -0.5740
3.0328 2.5627 -0.5779
4.4712 0.1705 -0.3857
4.3715 0.2169 -0.4151
4.3073 0.1765 -0.4412
4.0483 -0.0584 -0.5540
4.0558 0.0164 -0.5437
4.0802 0.1092 -0.5258
4.0877 0.1783 -0.5162
4.1545 0.3642 -0.4742
4.1598 0.4220 -0.4665
3.9711 0.2920 -0.5444
3.9102 0.2948 -0.5650
3.8945 0.3410 -0.5656
3.8928 0.3987 -0.5602
3.8836 0.4494 -0.5582
3.8664 0.5499 -0.5537
3.7688 0.7105 -0.5706
3.7356 0.9580 -0.5566
3.6664 0.9850 -0.5775
3.6425 1.0290 -0.5811
3.6899 1.0925 -0.5584
3.6033 1.1707 -0.5800
3.6045 1.2201 -0.5745
3.5631 1.2623 -0.5843
3.5646 1.3110 -0.5788
3.5984 1.3615 -0.5621
3.5508 1.4044 -0.5739
3.5263 1.4498 -0.5776
3.5367 1.4959 -0.5694
3.4951 1.5417 -0.5789
3.5059 1.5864 -0.5706
3.4361 1.6357 -0.5894
3.4203 1.6824 -0.5901
3.4232 1.7267 -0.5845
3.4443 1.7675 -0.5731
3.4109 1.8158 -0.5796
3.3953 1.8615 -0.5802
3.3798 1.9072 -0.5808
3.3729 1.9508 -0.5787
3.3190 2.0065 -0.5914
3.3519 2.0390 -0.5768
3.2875 2.0993 -0.5927
3.3110 2.1328 -0.5811
3.2865 2.1815 -0.5845
3.2504 2.2348 -0.5914
3.2450 2.2770 -0.5889
3.2398 2.3186 -0.5864
3.2138 2.3689 -0.5902
3.1875 2.4196 -0.5940
3.1825 2.4608 -0.5914
3.1561 2.5120 -0.5952
4.4972 0.2045 -0.4086
4.4839 0.2318 -0.4105
4.4808 0.2760 -0.4066
4.4624 0.2952 -0.4113
4.2703 0.0545 -0.5100
4.2357 0.0628 -0.5219
4.1992 0.0709 -0.5346
4.1614 0.0800 -0.5476
4.1167 0.0830 -0.5639
4.1232 0.1515 -0.5538
4.1387 0.2284 -0.5393
4.1298 0.2750 -0.5374
4.1211 0.3212 -0.5354
4.1220 0.3768 -0.5288
4.1741 0.4804 -0.4977
4.0425 0.4091 -0.5547
4.0390 0.4604 -0.5503
4.0465 0.5199 -0.5407
4.0162 0.5478 -0.5489
4.0085 0.5939 -0.5465
3.9993 0.6384 -0.5449
3.9683 0.6682 -0.5531
3.9714 0.7204 -0.5460
3.9385 0.7997 -0.5493
3.9296 0.8434 -0.5477
3.9156 0.8844 -0.5483
3.8877 0.9664 -0.5494
3.8923 1.0141 -0.5423
3.8599 1.0484 -0.5505
3.8270 1.0838 -0.5588
3.8629 1.1386 -0.5392
3.8373 1.1759 -0.5445
3.8106 1.2137 -0.5502
3.7845 1.2524 -0.5555
3.7961 1.2972 -0.5462
3.7756 1.3369 -0.5493
3.7280 1.3747 -0.5627
3.7285 1.4171 -0.5578
3.7145 1.4582 -0.5583
3.7065 1.4994 -0.5567
3.6865 1.5405 -0.5594
3.6725 1.5817 -0.5600
3.6860 1.6208 -0.5506
3.6579 1.6627 -0.5563
3.6305 1.7052 -0.5617
3.6228 1.7454 -0.5600
3.5867 1.7903 -0.5684
3.5577 1.8348 -0.5742
3.5434 1.8767 -0.5747
3.5605 1.9110 -0.5645
3.5149 1.9606 -0.5759
3.4929 2.0047 -0.5791
3.4786 2.0468 -0.5796
3.4721 2.0864 -0.5776
3.5052 2.1116 -0.5624
3.4595 2.1643 -0.5735
3.4213 2.2153 -0.5819
3.4312 2.2474 -0.5746
3.3752 2.3071 -0.5887
3.3607 2.3496 -0.5893
3.3640 2.3838 -0.5842
3.3497 2.4259 -0.5848
4.5129 0.2209 -0.4360
4.5048 0.2564 -0.4349
4.4917 0.2834 -0.4369
4.2541 0.0780 -0.5578
4.2233 0.0934 -0.5684
4.2184 0.1454 -0.5639
4.2179 0.2020 -0.5572
4.2094 0.2474 -0.5550
4.1826 0.2709 -0.5629
4.1691 0.3106 -0.5634
4.1556 0.3503 -0.5639
4.1831 0.4318 -0.5428
4.2086 0.5074 -0.5232
4.1001 0.4556 -0.5733
4.1061 0.5132 -0.5638
4.0973 0.5566 -0.5620
4.0427 0.5635 -0.5831
4.0500 0.6202 -0.5732
4.0571 0.6748 -0.5636
3.9733 0.7676 -0.5859
3.9819 0.8207 -0.5759
3.9960 0.8748 -0.5636
3.9376 0.8928 -0.5848
3.9744 0.9555 -0.5623
3.9499 0.9900 -0.5679
3.9365 1.0294 -0.5684
3.9399 1.0744 -0.5615
3.9437 1.1184 -0.5546
3.9360 1.1582 -0.5527
3.9066 1.1926 -0.5604
3.8870 1.2300 -0.5636
3.8505 1.2649 -0.5740
3.8549 1.3070 -0.5671
3.8359 1.3454 -0.5700
3.8226 1.3846 -0.5705
3.8025 1.4235 -0.5738
3.7832 1.4627 -0.5767
3.7826 1.5023 -0.5721
3.7692 1.5415 -0.5726
3.7619 1.5804 -0.5708
3.7486 1.6194 -0.5713
3.7159 1.6605 -0.5794
3.7025 1.7001 -0.5800
3.6953 1.7387 -0.5781
3.6546 1.7829 -0.5890
3.6759 1.8160 -0.5764
3.6625 1.8552 -0.5769
3.6352 1.8979 -0.5827
3.6217 1.9375 -0.5832
3.6083 1.9770 -0.5837
3.6092 2.0121 -0.5791
3.5669 2.0610 -0.5900
3.5455 2.1037 -0.5934
3.5477 2.1378 -0.5883
3.5342 2.1775 -0.5889
3.5276 2.2144 -0.5870
3.5141 2.2539 -0.5875
3.5076 2.2903 -0.5856
3.4719 2.3403 -0.5939
3.4501 2.3843 -0.5972
4.5395 0.2568 -0.4554
4.4862 0.2638 -0.4775
4.4272 0.2188 -0.5091
4.3809 0.1996 -0.5318
4.3376 0.1889 -0.5520
4.3146 0.2106 -0.5590
4.2980 0.2421 -0.5620
4.2969 0.2942 -0.5555
4.2879 0.3351 -0.5540
4.2524 0.3445 -0.5681
4.2475 0.3907 -0.5640
4.2427 0.4363 -0.5600
4.2621 0.5059 -0.5423
4.2338 0.5258 -0.5519
4.2334 0.5731 -0.5458
4.2091 0.5983 -0.5529
4.1763 0.6174 -0.5646
4.1845 0.6708 -0.5539
4.1846 0.7164 -0.5477
4.1425 0.7311 -0.5640
4.1475 0.7796 -0.5554
4.1400 0.8189 -0.5533
4.1530 0.8698 -0.5409
4.1327 0.9006 -0.5456
4.1032 0.9272 -0.5548
4.0858 0.9609 -0.5578
4.0965 1.0072 -0.5470
4.0663 1.0355 -0.5563
4.0445 1.0681 -0.5614
4.0602 1.1138 -0.5485
4.0481 1.1494 -0.5490
4.0262 1.1823 -0.5541
4.0049 1.2160 -0.5588
4.0119 1.2560 -0.5504
3.9896 1.2898 -0.5555
3.9681 1.3243 -0.5602
3.9652 1.3615 -0.5565
3.9683 1.3986 -0.5502
3.9361 1.4329 -0.5596
3.9083 1.4684 -0.5669
3.8959 1.5048 -0.5674
3.9043 1.5406 -0.5590
3.8652 1.5780 -0.5709
3.8477 1.6149 -0.5735
3.8627 1.6487 -0.5625
3.8054 1.6906 -0.5818
3.8041 1.7259 -0.5776
3.8208 1.7575 -0.5662
3.7906 1.7973 -0.5739
3.7962 1.8297 -0.5671
3.7657 1.8704 -0.5749
3.7652 1.9037 -0.5707
3.7409 1.9435 -0.5759
3.7701 1.9668 -0.5601
3.7459 2.0065 -0.5653
3.7225 2.0463 -0.5701
3.6912 2.0897 -0.5779
3.6980 2.1185 -0.5711
3.6480 2.1705 -0.5858
3.6608 2.1963 -0.5768
3.6611 2.2268 -0.5726
3.6606 2.2573 -0.5687
3.6613 2.2867 -0.5645
4.4299 0.2121 -0.5477
4.3998 0.2177 -0.5609
4.3841 0.2469 -0.5640
4.3794 0.2921 -0.5597
4.3643 0.3223 -0.5623
4.3652 0.3738 -0.5545
4.3501 0.4039 -0.5571
4.3349 0.4342 -0.5598
4.3126 0.4569 -0.5669
4.3085 0.5004 -0.5625
4.2967 0.5351 -0.5630
4.2813 0.5662 -0.5657
4.2871 0.6176 -0.5555
4.2172 0.7803 -0.5645
4.2017 0.8546 -0.5610
4.1981 0.8937 -0.5570
4.1391 0.9844 -0.5714
4.1527 1.1070 -0.5473
4.1292 1.1363 -0.5540
4.1054 1.1663 -0.5608
4.1018 1.2025 -0.5572
4.0903 1.2363 -0.5577
4.0915 1.2727 -0.5518
4.0498 1.3010 -0.5671
4.0381 1.3354 -0.5676
4.0265 1.3697 -0.5681
4.0327 1.4055 -0.5600
4.0031 1.4384 -0.5690
4.0059 1.4731 -0.5627
3.9846 1.5071 -0.5677
3.9543 1.5419 -0.5767
3.9514 1.5761 -0.5731
3.9397 1.6106 -0.5736
3.9280 1.6450 -0.5741
3.9213 1.6788 -0.5723
3.9148 1.7124 -0.5705
3.9083 1.7456 -0.5687
3.8759 1.7840 -0.5782
3.8641 1.8186 -0.5787
3.8629 1.8506 -0.5746
3.8513 1.8849 -0.5751
3.8342 1.9209 -0.5778
3.8224 1.9553 -0.5783
3.8008 1.9932 -0.5829
3.7935 2.0263 -0.5815
3.7817 2.0609 -0.5820
3.7699 2.0955 -0.5825
3.7354 2.1398 -0.5921
3.7361 2.1693 -0.5875
3.7300 2.2015 -0.5857
3.7182 2.2362 -0.5862
3.7064 2.2709 -0.5867
4.5889 0.3241 -0.4909
4.5264 0.3095 -0.5242
4.4700 0.2658 -0.5590
4.4670 0.3113 -0.5534
4.4528 0.3389 -0.5561
4.4392 0.3677 -0.5585
4.4222 0.3922 -0.5631
4.4230 0.4408 -0.5551
4.4174 0.4799 -0.5518
4.4126 0.5195 -0.5481
4.3865 0.5339 -0.5588
4.3635 0.5534 -0.5672
4.3708 0.6056 -0.5555
4.3663 0.6443 -0.5517
4.3282 0.6938 -0.5629
4.3269 0.7347 -0.5572
4.3241 0.8137 -0.5464
4.3009 0.8365 -0.5543
4.2900 0.8685 -0.5548
4.3022 0.9150 -0.5415
4.2474 0.9202 -0.5679
4.2874 0.9811 -0.5386
4.2563 1.0017 -0.5508
4.2206 1.0215 -0.5655
4.2348 1.0651 -0.5517
4.2384 1.1026 -0.5441
4.2372 1.1373 -0.5393
4.1955 1.1579 -0.5568
4.1811 1.1888 -0.5591
4.1844 1.2245 -0.5520
4.1736 1.2562 -0.5524
4.1665 1.2885 -0.5509
4.1375 1.3169 -0.5609
4.1451 1.3515 -0.5518
4.1195 1.3813 -0.5598
4.1161 1.4139 -0.5565
4.0817 1.4444 -0.5688
4.0783 1.4769 -0.5654
4.0876 1.5090 -0.5558
4.0730 1.5407 -0.5582
4.0543 1.5729 -0.5625
4.0554 1.6038 -0.5571
4.0326 1.6367 -0.5633
4.0127 1.6699 -0.5681
4.0232 1.6986 -0.5584
4.0165 1.7294 -0.5569
4.0058 1.7609 -0.5574
3.9951 1.7924 -0.5578
3.9844 1.8239 -0.5582
3.9566 1.8602 -0.5664
3.9458 1.8921 -0.5668
3.9436 1.9212 -0.5634
3.9197 1.9574 -0.5696
3.8945 1.9947 -0.5763
3.8879 2.0254 -0.5748
3.8814 2.0558 -0.5733
3.8942 2.0778 -0.5636
3.8789 2.1114 -0.5660
3.8727 2.1410 -0.5645
3.8481 2.1794 -0.5707
3.8174 2.2213 -0.5794
4.6174 0.2717 -0.5182
4.6116 0.3083 -0.5152
4.6042 0.3413 -0.5136
4.5945 0.3698 -0.5140
4.5612 0.3581 -0.5336
4.5260 0.3465 -0.5541
4.4956 0.3458 -0.5703
4.4906 0.3859 -0.5663
4.4921 0.4347 -0.5574
4.4719 0.4520 -0.5652
4.4712 0.4962 -0.5582
4.4581 0.5236 -0.5606
4.4340 0.5381 -0.5709
4.4398 0.5884 -0.5595
4.4238 0.6131 -0.5638
4.4112 0.6418 -0.5657
4.4006 0.6729 -0.5662
4.3843 0.6984 -0.5706
4.3700 0.7264 -0.5735
4.3712 0.7679 -0.5660
4.3531 0.8321 -0.5648
4.3519 0.8696 -0.5592
4.3236 0.8881 -0.5711
4.3059 0.9147 -0.5760
4.3207 0.9612 -0.5605
4.3103 0.9918 -0.5609
4.2896 1.0528 -0.5617
4.2459 1.0687 -0.5822
4.2721 1.1153 -0.5606
4.2516 1.1419 -0.5670
4.2282 1.1684 -0.5750
4.2342 1.2045 -0.5658
4.2169 1.2666 -0.5647
4.2136 1.2986 -0.5611
4.2033 1.3289 -0.5615
4.1864 1.3899 -0.5603
4.1826 1.4207 -0.5572
4.1518 1.4805 -0.5635
4.1414 1.5108 -0.5639
4.1273 1.5413 -0.5664
4.1169 1.5717 -0.5668
4.1174 1.6012 -0.5616
4.0803 1.6344 -0.5757
4.0859 1.6630 -0.5680
4.0715 1.6941 -0.5705
4.0488 1.7270 -0.5770
4.0507 1.7552 -0.5713
4.0320 1.7877 -0.5758
4.0131 1.8206 -0.5803
4.0153 1.8480 -0.5746
3.9963 1.8812 -0.5791
3.9815 1.9135 -0.5816
3.9591 1.9487 -0.5876
3.9649 1.9738 -0.5804
3.9544 2.0047 -0.5808
3.9361 2.0387 -0.5848
3.9334 2.0664 -0.5816
3.9183 2.0993 -0.5841
3.9044 2.1319 -0.5861
3.9295 2.1454 -0.5706
4.6284 0.2817 -0.5441
4.6089 0.2915 -0.5533
4.6031 0.3281 -0.5501
4.5951 0.3602 -0.5489
4.5793 0.3787 -0.5545
4.5676 0.4047 -0.5565
4.5577 0.4339 -0.5569
4.5496 0.4659 -0.5557
4.5397 0.4950 -0.5561
4.5408 0.5393 -0.5476
4.5376 0.5766 -0.5428
4.5280 0.6050 -0.5432
4.5029 0.6145 -0.5556
4.4951 0.6459 -0.5544
4.4970 0.6877 -0.5459
4.4873 0.7162 -0.5463
4.4755 0.7425 -0.5483
4.4751 0.7799 -0.5419
4.4438 0.7883 -0.5580
4.4383 0.8211 -0.5552
4.4211 0.8438 -0.5609
4.4165 0.8770 -0.5576
4.4249 0.9190 -0.5454
4.4076 0.9421 -0.5510
4.3847 0.9621 -0.5603
4.3930 1.0019 -0.5486
4.3785 1.0276 -0.5522
4.3575 1.0503 -0.5599
4.3640 1.0870 -0.5498
4.3651 1.1201 -0.5433
4.3364 1.1403 -0.5558
4.3208 1.1668 -0.5599
4.2965 1.1907 -0.5693
4.3244 1.2313 -0.5464
4.3009 1.2557 -0.5553
4.2912 1.2842 -0.5557
4.2718 1.3108 -0.5619
4.2745 1.3417 -0.5549
4.2585 1.3693 -0.5590
4.2580 1.3989 -0.5540
4.2548 1.4277 -0.5507
4.2228 1.4548 -0.5639
4.2234 1.4838 -0.5584
4.1975 1.5125 -0.5678
4.2040 1.5408 -0.5592
4.1972 1.5692 -0.5580
4.1807 1.5982 -0.5621
4.1610 1.6280 -0.5678
4.1542 1.6565 -0.5666
4.1444 1.6853 -0.5670
4.1387 1.7133 -0.5653
4.1361 1.7404 -0.5619
4.1295 1.7682 -0.5607
4.1094 1.7994 -0.5664
4.1238 1.8211 -0.5545
4.0824 1.8591 -0.5710
4.0801 1.8855 -0.5676
4.0919 1.9066 -0.5572
4.0497 1.9470 -0.5738
4.0508 1.9716 -0.5688
4.0223 2.0081 -0.5783
4.0202 2.0339 -0.5750
4.0170 2.0597 -0.5721
4.0197 2.0826 -0.5666
4.0169 2.1077 -0.5637
3.9877 2.1462 -0.5733
4.6449 0.3030 -0.5642
4.6387 0.3378 -0.5613
4.6292 0.3658 -0.5617
4.6255 0.4043 -0.5566
4.6214 0.4413 -0.5521
4.6030 0.4538 -0.5607
4.5911 0.4778 -0.5632
4.5878 0.5153 -0.5581
4.5783 0.5431 -0.5585
4.5587 0.5565 -0.5677
4.5614 0.6011 -0.5576
4.5586 0.6372 -0.5525
4.5446 0.6589 -0.5567
4.5271 0.6770 -0.5637
4.5128 0.6996 -0.5679
4.5054 0.7299 -0.5667
4.5092 0.7714 -0.5566
4.5027 0.8016 -0.5548
4.4861 0.8224 -0.5606
4.4789 0.8520 -0.5594
4.4536 0.9706 -0.5520
4.4320 0.9899 -0.5612
4.4188 1.0481 -0.5581
4.4095 1.0755 -0.5585
4.4123 1.1088 -0.5505
4.4080 1.1379 -0.5476
4.3873 1.1907 -0.5500
4.3715 1.2453 -0.5490
4.3389 1.3247 -0.5535
4.3113 1.4057 -0.5546
4.3077 1.4331 -0.5516
4.2846 1.4593 -0.5604
4.2838 1.4867 -0.5557
4.2661 1.5138 -0.5611
4.2597 1.5409 -0.5598
4.2533 1.5679 -0.5585
4.2383 1.5955 -0.5622
4.2163 1.6243 -0.5699
4.2099 1.6514 -0.5686
4.2045 1.6782 -0.5667
4.1859 1.7330 -0.5675
4.1724 1.7614 -0.5701
4.1538 1.7914 -0.5755
4.1537 1.8164 -0.5708
4.1349 1.8469 -0.5763
4.1223 1.8757 -0.5784
4.1131 1.9277 -0.5740
4.0830 1.9635 -0.5852
4.0811 1.9884 -0.5816
4.0849 2.0104 -0.5752
4.0655 2.0426 -0.5806
4.0594 2.0688 -0.5793
4.0568 2.0932 -0.5763
4.6875 0.4227 -0.5471
4.6758 0.4433 -0.5503
4.6618 0.4599 -0.5558
4.6510 0.4832 -0.5579
4.6391 0.5047 -0.5611
4.6240 0.5626 -0.5590
4.6063 0.5762 -0.5674
4.6028 0.6498 -0.5549
4.5958 0.6786 -0.5535
4.5810 0.6974 -0.5591
4.5814 0.7348 -0.5513
4.5746 0.7631 -0.5500
4.5603 0.7831 -0.5549
4.5514 0.8093 -0.5553
4.5404 0.8334 -0.5574
4.5250 0.8537 -0.5630
4.5305 0.8927 -0.5517
4.5092 0.9085 -0.5619
4.5195 0.9497 -0.5472
4.4914 0.9939 -0.5561
4.4971 1.0293 -0.5454
4.4776 1.0483 -0.5539
4.4648 1.0720 -0.5571
4.4559 1.0981 -0.5575
4.4471 1.1242 -0.5578
4.4398 1.1510 -0.5570
4.4293 1.1763 -0.5585
4.4155 1.2005 -0.5624
4.4183 1.2307 -0.5546
4.4002 1.2537 -0.5614
4.4059 1.2837 -0.5518
4.3850 1.3066 -0.5603
4.3762 1.3327 -0.5607
4.3691 1.3590 -0.5599
4.3683 1.3861 -0.5549
4.3667 1.4127 -0.5506
4.3453 1.4373 -0.5592
4.3263 1.4628 -0.5660
4.3202 1.4890 -0.5646
4.3141 1.5151 -0.5632
4.3233 1.5405 -0.5523
4.3040 1.5667 -0.5592
4.2895 1.5931 -0.5631
4.2669 1.6208 -0.5717
4.2747 1.6447 -0.5620
4.2689 1.6701 -0.5606
4.2631 1.6954 -0.5592
4.2452 1.7232 -0.5648
4.2343 1.7497 -0.5664
4.2368 1.7727 -0.5602
4.2218 1.8003 -0.5641
4.2224 1.8233 -0.5591
4.1921 1.8793 -0.5670
4.1747 1.9086 -0.5721
4.1723 1.9322 -0.5689
4.1634 1.9582 -0.5692
4.1601 1.9818 -0.5666
4.1357 2.0150 -0.5753
4.1424 2.0337 -0.5673
4.1212 2.0659 -0.5742
4.7250 0.4014 -0.5581
4.7191 0.4324 -0.5554
4.6715 0.5504 -0.5619
4.6617 0.5739 -0.5635
4.6621 0.6136 -0.5548
4.6536 0.6386 -0.5551
4.6419 0.6593 -0.5585
4.6352 0.6871 -0.5570
4.6235 0.7080 -0.5604
4.6194 0.7390 -0.5565
4.6182 0.7727 -0.5502
4.6044 0.7914 -0.5554
4.5925 0.8127 -0.5588
4.5805 0.8343 -0.5621
4.5754 0.8630 -0.5594
4.5612 0.8829 -0.5646
4.5597 0.9145 -0.5589
4.5232 1.0438 -0.5558
4.5109 1.0664 -0.5591
4.4961 1.0879 -0.5644
4.5017 1.1205 -0.5537
4.4878 1.1425 -0.5583
4.4728 1.1646 -0.5636
4.4659 1.1904 -0.5627
4.4599 1.2164 -0.5612
4.4580 1.2436 -0.5566
4.4496 1.2684 -0.5570
4.4386 1.2925 -0.5592
4.4284 1.3170 -0.5607
4.4132 1.3671 -0.5602
4.3959 1.3908 -0.5666
4.3918 1.4164 -0.5639
4.3951 1.4422 -0.5563
4.3721 1.4663 -0.5664
4.3636 1.4913 -0.5668
4.3625 1.5163 -0.5622
4.3569 1.5410 -0.5607
4.3238 1.6164 -0.5666
4.3183 1.6409 -0.5651
4.3019 1.6672 -0.5704
4.2848 1.7175 -0.5711
4.2813 1.7414 -0.5683
4.2677 1.7678 -0.5718
4.2643 1.7914 -0.5690
4.2506 1.8180 -0.5725
4.2389 1.8442 -0.5747
4.2420 1.8652 -0.5682
4.2303 1.8914 -0.5704
4.1938 1.9713 -0.5776
4.1908 1.9940 -0.5749
4.1844 2.0180 -0.5740
4.1591 2.0517 -0.5836
4.7532 0.4928 -0.5487
4.7467 0.5199 -0.5471
4.7398 0.5458 -0.5462
4.7249 0.5569 -0.5540
4.7168 0.5810 -0.5544
4.7104 0.6080 -0.5528
4.7046 0.6358 -0.5506
4.6953 0.6577 -0.5522
4.6902 0.6862 -0.5494
4.6747 0.6992 -0.5573
4.6697 0.7276 -0.5544
4.6507 0.7374 -0.5655
4.6534 0.7755 -0.5551
4.6465 0.8010 -0.5542
4.6477 0.8355 -0.5456
4.6290 0.8473 -0.5561
4.6188 0.8691 -0.5583
4.6092 0.8918 -0.5599
4.6094 0.9236 -0.5526
4.5992 0.9455 -0.5548
4.5861 0.9652 -0.5596
4.5765 0.9881 -0.5612
4.5720 1.0148 -0.5584
4.5691 1.0424 -0.5542
4.5587 1.0647 -0.5565
4.5506 1.0885 -0.5568
4.5448 1.1136 -0.5552
4.5250 1.1312 -0.5651
4.5287 1.1611 -0.5559
4.5150 1.1824 -0.5606
4.5044 1.2053 -0.5629
4.5102 1.2345 -0.5524
4.5021 1.2581 -0.5527
4.4916 1.2809 -0.5549
4.4760 1.3025 -0.5610
4.4738 1.3278 -0.5568
4.4580 1.3499 -0.5629
4.4577 1.3751 -0.5575
4.4373 1.3972 -0.5668
4.4461 1.4230 -0.5549
4.4255 1.4457 -0.5642
4.4273 1.4700 -0.5575
4.4128 1.4936 -0.5623
4.4140 1.5172 -0.5562
4.3966 1.5412 -0.5630
4.3951 1.5646 -0.5588
4.3871 1.5882 -0.5591
4.3771 1.6121 -0.5607
4.3623 1.6368 -0.5656
4.3522 1.6611 -0.5672
4.3460 1.6846 -0.5662
4.3429 1.7073 -0.5633
4.3298 1.7324 -0.5669
4.3217 1.7562 -0.5672
4.3187 1.7786 -0.5643
4.3127 1.8016 -0.5633
4.2921 1.8297 -0.5714
4.2786 1.8557 -0.5750
4.2959 1.8698 -0.5597
4.2804 1.8964 -0.5646
4.2540 1.9281 -0.5759
4.2665 1.9428 -0.5640
4.2431 1.9738 -0.5734
4.2349 1.9978 -0.5737
4.2301 2.0201 -0.5721
4.7626 0.5807 -0.5502
4.7476 0.5900 -0.5590
4.7425 0.6183 -0.5560
4.7381 0.6474 -0.5524
4.7344 0.6771 -0.5481
4.7249 0.6970 -0.5504
4.7004 0.7637 -0.5527
4.6757 0.8308 -0.5549
4.6653 0.8507 -0.5579
4.6615 0.8781 -0.5542
4.6473 0.9251 -0.5535
4.6248 0.9646 -0.5608
4.6121 1.0419 -0.5518
4.5978 1.0600 -0.5580
4.5875 1.1091 -0.5540
4.5844 1.1344 -0.5504
4.5677 1.2050 -0.5460
4.5460 1.2473 -0.5519
4.5416 1.2710 -0.5495
4.5306 1.2924 -0.5525
4.5213 1.3146 -0.5542
4.5254 1.3399 -0.5451
4.4964 1.3822 -0.5564
4.4887 1.4049 -0.5567
4.4898 1.4284 -0.5504
4.4769 1.4505 -0.5547
4.4692 1.4730 -0.5550
4.4579 1.4956 -0.5580
4.4538 1.5182 -0.5556
4.4443 1.5409 -0.5572
4.4289 1.5861 -0.5579
4.4193 1.6090 -0.5595
4.4135 1.6314 -0.5585
4.4039 1.6544 -0.5601
4.3677 1.7258 -0.5698
4.3619 1.7482 -0.5688
4.3520 1.7718 -0.5704
4.3442 1.7949 -0.5707
4.3218 1.8230 -0.5805
4.3170 1.8452 -0.5788
4.3129 1.8870 -0.5720
4.3050 1.9100 -0.5723
4.3037 1.9300 -0.5686
4.2959 1.9529 -0.5689
4.2793 1.9802 -0.5746
4.8011 0.5737 -0.5505
4.7957 0.6001 -0.5481
4.7818 0.6091 -0.5566
4.7830 0.6481 -0.5459
4.7768 0.6719 -0.5449
4.7591 0.6757 -0.5575
4.7550 0.7037 -0.5537
4.7452 0.7220 -0.5567
4.7341 0.7387 -0.5611
4.7325 0.7699 -0.5546
4.7189 0.7833 -0.5617
4.7151 0.8106 -0.5579
4.7050 0.8296 -0.5610
4.7000 0.8549 -0.5585
4.6977 0.8831 -0.5533
4.6928 0.9079 -0.5509
4.6881 0.9326 -0.5484
4.6780 0.9516 -0.5515
4.6637 0.9670 -0.5587
4.6604 0.9928 -0.5548
4.6557 1.0171 -0.5524
4.6497 1.0401 -0.5513
4.6365 1.0575 -0.5571
4.6232 1.0754 -0.5629
4.6186 1.1262 -0.5539
4.6022 1.1691 -0.5558
4.5979 1.1925 -0.5534
4.5857 1.2122 -0.5578
4.5846 1.2367 -0.5526
4.5740 1.2572 -0.5557
4.5650 1.2785 -0.5573
4.5608 1.3014 -0.5549
4.5568 1.3240 -0.5524
4.5460 1.3449 -0.5555
4.5301 1.3651 -0.5627
4.5278 1.3879 -0.5588
4.5111 1.4315 -0.5608
4.5108 1.4540 -0.5555
4.5070 1.4758 -0.5531
4.4869 1.4973 -0.5631
4.4849 1.5192 -0.5592
4.4775 1.5410 -0.5595
4.4738 1.5626 -0.5570
4.4589 1.5851 -0.5629
4.4571 1.6063 -0.5590
4.4325 1.6308 -0.5719
4.4385 1.6506 -0.5624
4.4330 1.6720 -0.5613
4.4118 1.6971 -0.5714
4.4042 1.7193 -0.5717
4.3987 1.7410 -0.5706
4.4053 1.7587 -0.5611
4.3979 1.7805 -0.5614
4.3843 1.8045 -0.5659
4.3789 1.8256 -0.5648
4.3715 1.8475 -0.5651
4.3513 1.8747 -0.5738
4.3481 1.8951 -0.5713
4.3470 1.9142 -0.5674
4.3395 1.9361 -0.5677
4.3211 1.9636 -0.5750
4.7959 0.6988 -0.5494
4.7876 0.7179 -0.5511
4.7827 0.7428 -0.5486
4.7762 0.7648 -0.5481
4.7626 0.7757 -0.5562
4.7317 0.8584 -0.5595
4.7245 0.8798 -0.5598
4.7172 0.9011 -0.5601
4.7100 0.9225 -0.5604
4.7027 0.9438 -0.5607
4.6895 0.9878 -0.5599
4.6830 1.0097 -0.5594
4.6446 1.1146 -0.5630
4.6266 1.1807 -0.5603
4.6081 1.2457 -0.5583
4.5881 1.2860 -0.5639
4.5899 1.3100 -0.5563
4.5827 1.3310 -0.5566
4.5739 1.3516 -0.5583
4.5651 1.3723 -0.5600
4.5328 1.4566 -0.5641
4.5327 1.4780 -0.5586
4.5256 1.4990 -0.5589
4.5148 1.5201 -0.5621
4.5076 1.5412 -0.5623
4.5041 1.5621 -0.5597
4.4933 1.5835 -0.5629
4.4808 1.6254 -0.5620
4.4500 1.6710 -0.5750
4.4505 1.6907 -0.5694
4.4354 1.7141 -0.5756
4.4410 1.7318 -0.5664
4.4247 1.7558 -0.5732
4.4255 1.7931 -0.5629
4.4050 1.8377 -0.5678
4.4041 1.8561 -0.5637
4.3948 1.8781 -0.5655
4.3909 1.8976 -0.5636
4.3859 1.9176 -0.5624
4.3755 1.9402 -0.5649
4.3717 1.9594 -0.5630
4.8425 0.6440 -0.5514
4.8361 0.6655 -0.5510
4.8292 0.6859 -0.5513
4.8298 0.7208 -0.5412
4.8192 0.7337 -0.5467
4.8095 0.7490 -0.5506
4.7987 0.7626 -0.5561
4.7957 0.7896 -0.5512
4.7859 0.8054 -0.5551
4.7837 0.8329 -0.5495
4.7690 0.8420 -0.5594
4.7681 0.8709 -0.5523
4.7556 0.8840 -0.5592
4.7542 0.9115 -0.5528
4.7429 0.9266 -0.5583
4.7391 0.9507 -0.5549
4.7414 0.9808 -0.5448
4.7220 0.9881 -0.5591
4.7184 1.0118 -0.5557
4.7114 1.0321 -0.5560
4.7059 1.0537 -0.5548
4.7053 1.0790 -0.5484
4.6921 1.0943 -0.5553
4.6873 1.1161 -0.5534
4.6783 1.1349 -0.5559
4.6662 1.1521 -0.5614
4.6644 1.1756 -0.5564
4.6590 1.1967 -0.5552
4.6491 1.2154 -0.5585
4.6422 1.2358 -0.5588
4.6391 1.2578 -0.5553
4.6275 1.2762 -0.5601
4.6230 1.2974 -0.5581
4.6234 1.3199 -0.5516
4.6165 1.3400 -0.5519
4.6064 1.3593 -0.5552
4.6037 1.3803 -0.5517
4.5910 1.3994 -0.5572
4.5892 1.4203 -0.5530
4.5833 1.4405 -0.5525
4.5677 1.4599 -0.5603
4.5608 1.4803 -0.5606
4.5477 1.5006 -0.5661
4.5452 1.5209 -0.5626
4.5383 1.5413 -0.5629
4.5350 1.5614 -0.5602
4.5346 1.5809 -0.5552
4.5212 1.6019 -0.5607
4.5210 1.6210 -0.5558
4.4989 1.6441 -0.5681
4.4851 1.6660 -0.5736
4.4830 1.6855 -0.5702
4.4936 1.7013 -0.5568
4.4878 1.7211 -0.5564
4.4710 1.7443 -0.5642
4.4621 1.7653 -0.5660
4.4592 1.7842 -0.5632
4.4533 1.8041 -0.5628
4.4330 1.8298 -0.5729
4.4459 1.8419 -0.5588
4.4274 1.8672 -0.5674
4.4248 1.8855 -0.5646
4.4082 1.9106 -0.5717
4.4067 1.9283 -0.5682
4.4161 1.9399 -0.5571
4.8540 0.6943 -0.5528
4.8363 0.7254 -0.5594
4.8322 0.7503 -0.5559
4.8271 0.7731 -0.5538
4.8013 0.8231 -0.5623
4.8033 0.8563 -0.5511
4.7948 0.8733 -0.5537
4.7815 0.9126 -0.5542
4.7717 0.9284 -0.5583
4.7650 0.9481 -0.5586
4.7646 0.9751 -0.5512
4.7534 0.9898 -0.5568
4.7467 1.0095 -0.5571
4.7454 1.0343 -0.5512
4.7401 1.0550 -0.5499
4.7376 1.0780 -0.5456
4.7182 1.1117 -0.5530
4.7122 1.1317 -0.5525
4.7056 1.1512 -0.5528
4.7026 1.1730 -0.5492
4.6850 1.2093 -0.5543
4.6783 1.2288 -0.5546
4.6658 1.2682 -0.5544
4.6608 1.2882 -0.5531
4.6460 1.3266 -0.5552
4.6393 1.3461 -0.5554
4.6352 1.3662 -0.5534
4.6252 1.3849 -0.5567
4.6220 1.4050 -0.5539
4.6171 1.4246 -0.5526
4.6105 1.4440 -0.5529
4.5970 1.4629 -0.5594
4.5903 1.4825 -0.5596
4.5854 1.5020 -0.5583
4.5815 1.5215 -0.5563
4.5685 1.5413 -0.5620
4.5619 1.5609 -0.5623
4.5598 1.5800 -0.5586
4.5504 1.5999 -0.5612
4.5371 1.6390 -0.5618
4.5209 1.6788 -0.5646
4.5200 1.6969 -0.5602
4.5026 1.7196 -0.5691
4.4991 1.7557 -0.5618
4.4838 1.7955 -0.5639
4.4823 1.8130 -0.5602
4.4736 1.8333 -0.5621
4.4660 1.8533 -0.5631
4.4635 1.8708 -0.5603
4.4527 1.8923 -0.5637
4.4407 1.9146 -0.5679
4.4502 1.9255 -0.5563
6.0329 1.6579 -0.5409
6.0281 1.6772 -0.5427
6.0242 1.6968 -0.5453
6.0177 1.7159 -0.5455
6.0089 1.7342 -0.5435
6.0025 1.7532 -0.5437
6.0008 1.7740 -0.5486
5.9905 1.7916 -0.5450
5.9856 1.8113 -0.5468
5.9747 1.8282 -0.5424
5.9757 1.8511 -0.5503
5.9500 1.9044 -0.5441
5.9450 1.9244 -0.5459
5.9363 1.9658 -0.5511
5.9258 1.9815 -0.5467
5.9240 2.0047 -0.5524
5.9169 2.0233 -0.5518
5.9073 2.0392 -0.5482
5.9040 2.0617 -0.5523
5.8963 2.0794 -0.5510
5.8899 2.0985 -0.5513
5.8835 2.1176 -0.5515
5.8746 2.1336 -0.5487
5.8665 2.1501 -0.5466
5.8589 2.1674 -0.5453
5.8526 2.1863 -0.5455
5.8473 2.2070 -0.5473
5.8426 2.2287 -0.5499
5.8368 2.2486 -0.5509
5.8315 2.2696 -0.5527
5.8251 2.2887 -0.5530
5.8176 2.3058 -0.5517
5.8096 2.3216 -0.5496
5.8058 2.3460 -0.5537
5.7979 2.3618 -0.5517
5.7915 2.3808 -0.5519
5.7851 2.3998 -0.5522
6.0364 1.6798 -0.5263
6.0233 1.7606 -0.5392
6.0186 1.8032 -0.5479
6.0127 1.8234 -0.5489
5.9896 1.9051 -0.5537
5.9652 1.9619 -0.5500
5.9539 2.0033 -0.5527
5.9459 2.0220 -0.5515
5.9306 2.0597 -0.5498
5.9239 2.0795 -0.5500
5.9100 2.1184 -0.5498
5.9021 2.1366 -0.5486
5.8991 2.1611 -0.5533
5.8937 2.1826 -0.5551
5.8858 2.2008 -0.5538
5.8768 2.2171 -0.5511
5.8707 2.2378 -0.5521
5.8574 2.2774 -0.5526
5.8308 2.3565 -0.5537
5.8108 2.4158 -0.5544
5.8037 2.4345 -0.5539
6.0394 1.8353 -0.5488
6.0325 1.8559 -0.5491
6.0241 1.8757 -0.5479
6.0142 1.8945 -0.5453
6.0051 1.9136 -0.5434
6.0019 1.9363 -0.5473
5.9950 1.9568 -0.5475
5.9825 1.9730 -0.5420
5.9798 1.9967 -0.5466
5.9695 2.0142 -0.5433
5.9674 2.0388 -0.5486
5.9605 2.0593 -0.5489
5.9516 2.0778 -0.5470
5.9454 2.0989 -0.5480
5.9398 2.1208 -0.5497
5.9329 2.1413 -0.5499
5.9261 2.1618 -0.5502
5.9192 2.1823 -0.5505
5.9111 2.2011 -0.5493
5.9036 2.2207 -0.5488
5.8985 2.2438 -0.5513
5.8898 2.2616 -0.5494
5.8836 2.2829 -0.5504
5.8761 2.3024 -0.5499
5.8698 2.3238 -0.5509
5.8629 2.3442 -0.5512
5.8560 2.3647 -0.5514
5.8486 2.3841 -0.5510
5.8418 2.4045 -0.5512
5.8349 2.4249 -0.5515
5.8280 2.4453 -0.5518
5.8202 2.4634 -0.5506
6.0438 1.3759 -0.4019
6.0394 1.3916 -0.4028
6.0190 1.9462 -0.5375
6.0161 2.0237 -0.5563
6.0116 2.0476 -0.5594
5.9995 2.0650 -0.5548
5.9693 2.1497 -0.5545
5.9621 2.1712 -0.5548
5.9548 2.1926 -0.5551
5.9236 2.2750 -0.5534
5.9152 2.2945 -0.5523
5.8875 2.3476 -0.5455
5.8821 2.3717 -0.5478
5.8761 2.3949 -0.5495
5.8711 2.4203 -0.5526
5.8650 2.4437 -0.5543
5.8579 2.4651 -0.5545
5.8487 2.4818 -0.5520
6.0489 1.4525 -0.4057
6.0332 2.0350 -0.5450
6.0258 2.0570 -0.5453
6.0198 2.0803 -0.5469
6.0151 2.1049 -0.5499
6.0049 2.1244 -0.5475
5.9975 2.1465 -0.5478
5.9901 2.1686 -0.5481
5.9865 2.1952 -0.5524
5.9765 2.2143 -0.5500
5.9640 2.2300 -0.5449
5.9603 2.2569 -0.5492
5.9541 2.2807 -0.5509
5.9431 2.2975 -0.5471
5.9381 2.3231 -0.5501
5.9318 2.3471 -0.5517
5.9221 2.3654 -0.5493
5.9181 2.3934 -0.5536
5.9106 2.4155 -0.5539
5.9009 2.4336 -0.5515
5.8935 2.4556 -0.5518
5.8850 2.4755 -0.5508
5.8787 2.4998 -0.5524
5.8723 2.5242 -0.5540
5.8648 2.5463 -0.5543
6.0238 2.2337 -0.5605
6.0146 2.2557 -0.5596
6.0067 2.2791 -0.5599
5.9932 2.2951 -0.5544
5.9698 2.3647 -0.5553
5.9590 2.3832 -0.5524
5.9530 2.4092 -0.5546
5.9279 2.4756 -0.5536
5.9202 2.4986 -0.5539
5.9113 2.5195 -0.5529
5.9046 2.5448 -0.5545
5.8927 2.5587 -0.5496
5.8804 2.5710 -0.5441
6.0427 1.4135 -0.3518
6.0393 2.2467 -0.5453
6.0326 2.2722 -0.5468
6.0245 2.2961 -0.5471
6.0152 2.3184 -0.5462
6.0059 2.3405 -0.5453
5.9991 2.3661 -0.5468
5.9699 2.4666 -0.5511
5.9618 2.4906 -0.5515
5.9509 2.5094 -0.5487
5.9457 2.5386 -0.5521
5.9360 2.5593 -0.5505
5.9220 2.5709 -0.5440
5.8950 2.5529 -0.5220
5.8822 2.5638 -0.5161
6.0512 1.3995 -0.3349
6.0362 1.4469 -0.3361
6.0197 2.4636 -0.5527
6.0160 2.4966 -0.5577
6.0045 2.5170 -0.5551
5.9914 2.5341 -0.5507
5.9801 2.5539 -0.5481
5.9362 2.5496 -0.5197
5.8946 2.5414 -0.4919
6.0472 1.4032 -0.3143
6.0440 1.4184 -0.3156
6.0394 1.4487 -0.3193
6.0378 2.5236 -0.5460
6.0273 2.5466 -0.5446
6.0038 2.5469 -0.5309
6.0480 1.3507 -0.2857
6.0459 1.4351 -0.3014
6.0406 1.4509 -0.3016
6.0382 1.4662 -0.3034
6.0341 2.5493 -0.5182
5.9987 2.5289 -0.4944
5.9589 2.5352 -0.4735
5.9498 2.5567 -0.4727
5.9318 2.5599 -0.4633
5.9191 2.5727 -0.4588
6.0437 1.3683 -0.2691
6.0450 1.3814 -0.2722
6.0461 1.3948 -0.2754
6.0460 1.4376 -0.2834
6.0407 1.4532 -0.2836
6.0384 1.4685 -0.2853
6.0421 1.4831 -0.2900
6.0386 1.4989 -0.2912
6.0324 2.5378 -0.4846
6.0190 2.5552 -0.4809
5.9549 2.5569 -0.4476
5.9134 2.5506 -0.4247
5.9021 2.5646 -0.4214
6.0520 1.2914 -0.2420
6.0550 1.3025 -0.2455
6.0578 1.3139 -0.2489
6.0595 1.3261 -0.2519
6.0534 1.3414 -0.2516
6.0530 1.3681 -0.2562
6.0479 1.3832 -0.2564
6.0407 1.3989 -0.2556
6.0440 1.4119 -0.2596
6.0481 1.4396 -0.2665
6.0479 1.4543 -0.2691
6.0436 1.4699 -0.2697
6.0433 1.4851 -0.2723
6.0439 1.5004 -0.2753
6.0360 1.5324 -0.2771
6.0432 1.5649 -0.2865
6.0433 1.5817 -0.2895
6.0178 2.5443 -0.4488
5.9786 2.5531 -0.4310
5.9664 2.5693 -0.4280
5.9441 2.5647 -0.4161
6.0513 1.2948 -0.2257
6.0510 1.3072 -0.2276
6.0517 1.3194 -0.2300
6.0524 1.3318 -0.2324
6.0496 1.3457 -0.2334
6.0523 1.3578 -0.2367
6.0451 1.3734 -0.2360
6.0476 1.3860 -0.2393
6.0436 1.4007 -0.2399
6.0491 1.4132 -0.2445
6.0502 1.4271 -0.2473
6.0481 1.4420 -0.2489
6.0521 1.4559 -0.2530
6.0447 1.4720 -0.2524
6.0435 1.4872 -0.2543
6.0411 1.5027 -0.2559
6.0378 1.5185 -0.2570
6.0392 1.5341 -0.2603
6.0428 1.5665 -0.2673
6.0439 1.5833 -0.2707
6.0392 1.6001 -0.2713
6.0373 1.6172 -0.2733
6.0354 1.6345 -0.2753
6.0389 1.6898 -0.2862
6.0357 1.7081 -0.2878
6.0324 1.7264 -0.2894
6.0317 1.7458 -0.2923
6.0329 2.5218 -0.4230
6.0245 2.5469 -0.4233
6.0021 2.5474 -0.4131
5.9736 2.5348 -0.3979
5.9592 2.5461 -0.3932
5.9473 2.5613 -0.3903
5.9116 2.5644 -0.3743
6.0505 1.2982 -0.2095
6.0480 1.3115 -0.2105
6.0499 1.3230 -0.2132
6.0473 1.3366 -0.2142
6.0491 1.3487 -0.2169
