ply
format ascii 1.0
element vertex 2195
property float x
property float y
property float z
end_header
4.2246 3.4618 0.0673
4.2258 3.4514 0.0307
4.2114 3.4629 -0.0062
4.1952 3.4763 -0.0447
4.1968 3.4649 -0.0836
4.2118 3.4347 -0.1213
4.2090 3.4292 -0.1610
4.2068 3.4226 -0.2014
4.2035 3.4173 -0.2427
4.1408 3.4369 -0.5292
4.2491 3.2774 -0.5605
4.2886 3.2175 -0.5789
4.4167 3.0397 -0.5704
4.5151 2.9031 -0.5639
4.5559 2.8464 -0.5614
4.5894 2.7992 -0.5622
4.6281 2.7466 -0.5548
4.6756 2.6783 -0.5617
4.6965 2.6482 -0.5653
4.7500 2.5762 -0.5521
4.7613 2.5580 -0.5617
4.7849 2.5268 -0.5537
4.7970 2.5084 -0.5597
4.8158 2.4832 -0.5547
4.8275 2.4658 -0.5587
4.8407 2.4471 -0.5593
4.8542 2.4284 -0.5580
4.8661 2.4117 -0.5584
4.8783 2.3950 -0.5569
4.8883 2.3806 -0.5582
4.9012 2.3637 -0.5529
4.9114 2.3497 -0.5516
4.9281 2.3258 -0.5537
4.9356 2.3149 -0.5554
4.9468 2.3009 -0.5478
4.9507 2.2935 -0.5560
4.9574 2.2838 -0.5571
4.9655 2.2731 -0.5543
4.9716 2.2643 -0.5555
4.9790 2.2546 -0.5527
4.9858 2.2455 -0.5504
4.9898 2.2387 -0.5552
4.9943 2.2317 -0.5585
4.2315 3.4770 0.4351
4.2288 3.4731 0.4052
4.2298 3.4478 0.3093
4.1752 3.4901 0.1874
4.1810 3.4732 0.1505
4.1827 3.4618 0.1141
4.1715 3.4677 0.0785
4.1545 3.4813 0.0419
4.1605 3.4636 0.0034
4.1713 3.4396 -0.0351
4.1820 3.4159 -0.0731
4.1788 3.4104 -0.1123
4.1757 3.4046 -0.1521
4.1779 3.3917 -0.1917
4.1555 3.4102 -0.2372
4.1425 3.4162 -0.2824
4.0977 3.4618 -0.3390
4.0764 3.4769 -0.3916
4.0777 3.4637 -0.4379
4.0846 3.4433 -0.4821
4.0860 3.4298 -0.5291
4.0930 3.4093 -0.5736
4.2560 3.1924 -0.5721
4.2974 3.1334 -0.5874
4.4957 2.8772 -0.5547
4.5639 2.7849 -0.5609
4.6281 2.6997 -0.5592
4.6614 2.6569 -0.5530
4.6799 2.6305 -0.5597
4.7022 2.6005 -0.5607
4.7220 2.5737 -0.5626
4.7592 2.5237 -0.5643
4.7800 2.4971 -0.5597
4.7972 2.4746 -0.5581
4.8294 2.4328 -0.5535
4.8427 2.4151 -0.5532
4.8538 2.3997 -0.5553
4.8643 2.3853 -0.5576
4.8783 2.3679 -0.5526
4.8874 2.3551 -0.5551
4.8985 2.3408 -0.5530
4.9079 2.3283 -0.5531
4.9340 2.2937 -0.5523
4.9400 2.2848 -0.5562
4.9479 2.2745 -0.5552
4.9557 2.2645 -0.5536
4.9643 2.2540 -0.5491
4.9700 2.2459 -0.5510
4.9757 2.2381 -0.5526
4.9817 2.2301 -0.5525
4.1847 3.4730 0.4217
4.1937 3.4522 0.3860
4.1991 3.4365 0.3519
4.1824 3.4420 0.2918
4.1435 3.4666 0.1974
4.1402 3.4615 0.1618
4.1088 3.4927 0.1291
4.1058 3.4866 0.0912
4.1259 3.4509 0.0514
4.1271 3.4393 0.0130
4.1284 3.4275 -0.0258
4.1250 3.4216 -0.0653
4.1312 3.4035 -0.1045
4.1326 3.3913 -0.1444
4.1247 3.3903 -0.1862
4.0809 3.4213 -0.2800
4.0368 3.4624 -0.3367
4.0260 3.4630 -0.3865
4.0331 3.4424 -0.4312
4.0460 3.4151 -0.4736
4.0485 3.3872 -0.5682
4.1966 3.1966 -0.5806
4.4488 2.8810 -0.5667
4.5062 2.8115 -0.5546
4.5362 2.7720 -0.5610
4.6035 2.6872 -0.5595
4.6312 2.6519 -0.5603
4.6491 2.6269 -0.5691
4.7077 2.5561 -0.5561
4.7255 2.5327 -0.5595
4.7500 2.5034 -0.5530
4.7805 2.4635 -0.5583
4.7980 2.4420 -0.5557
4.8257 2.4066 -0.5568
4.8349 2.3934 -0.5628
4.8512 2.3745 -0.5565
4.8645 2.3584 -0.5536
4.8717 2.3475 -0.5600
4.8837 2.3331 -0.5573
4.8956 2.3190 -0.5537
4.9041 2.3078 -0.5553
4.9125 2.2969 -0.5562
4.9188 2.2878 -0.5609
4.9311 2.2744 -0.5520
4.9367 2.2662 -0.5567
4.9448 2.2564 -0.5553
4.9664 2.2298 -0.5523
4.9726 2.2220 -0.5523
4.9763 2.2157 -0.5582
4.1493 3.4677 0.4665
4.1547 3.4519 0.4321
4.0919 3.4775 0.2478
4.0801 3.4621 0.1387
4.0862 3.4443 0.1000
4.0873 3.4326 0.0616
4.0735 3.4387 0.0232
4.0593 3.4450 -0.0166
4.0601 3.4331 -0.0572
4.0680 3.4015 -0.1388
4.0689 3.3891 -0.1804
4.0431 3.4074 -0.2275
4.0095 3.4338 -0.2789
3.9919 3.4413 -0.3291
3.9929 3.4276 -0.3755
3.9872 3.4211 -0.4246
3.9690 3.4281 -0.4797
4.0015 3.3795 -0.5150
4.0270 3.3389 -0.5516
4.1672 3.1652 -0.5708
4.2510 3.0663 -0.5642
4.3089 2.9960 -0.5675
4.3698 2.9236 -0.5642
4.4213 2.8622 -0.5629
4.5054 2.7610 -0.5630
4.5747 2.6778 -0.5629
4.6370 2.6042 -0.5585
4.6600 2.5759 -0.5608
4.6749 2.5555 -0.5702
4.7233 2.4992 -0.5633
4.7488 2.4708 -0.5549
4.7670 2.4492 -0.5538
4.7804 2.4321 -0.5577
4.7959 2.4135 -0.5574
4.8112 2.3955 -0.5561
4.8201 2.3829 -0.5631
4.8374 2.3640 -0.5562
4.8500 2.3491 -0.5553
4.8630 2.3342 -0.5526
4.8703 2.3238 -0.5586
4.8798 2.3120 -0.5601
4.9043 2.2853 -0.5498
4.9107 2.2764 -0.5545
4.9197 2.2659 -0.5533
4.9259 2.2574 -0.5570
4.9358 2.2468 -0.5523
4.9435 2.2378 -0.5515
4.9500 2.2297 -0.5526
4.9554 2.2224 -0.5556
4.9628 2.2141 -0.5533
4.9671 2.2076 -0.5581
4.1036 3.4570 0.4514
4.0981 3.4356 0.3530
4.0809 3.4470 0.3239
4.0782 3.4305 0.2538
4.0594 3.4429 0.2216
4.0453 3.4493 0.1870
4.0462 3.4376 0.1489
4.0523 3.4197 0.1101
4.0482 3.4137 0.0719
4.0602 3.3889 0.0324
4.0345 3.4073 -0.0066
4.0084 3.4255 -0.0479
3.9740 3.4523 -0.0921
3.9751 3.4390 -0.1354
3.8483 3.5524 -0.2464
3.8559 3.5303 -0.2944
3.7142 3.6204 -0.5496
3.8794 3.4346 -0.5400
4.1526 3.1193 -0.5532
4.2026 3.0583 -0.5673
4.2866 2.9655 -0.5570
4.3334 2.9100 -0.5643
4.4249 2.8040 -0.5700
4.5170 2.7016 -0.5609
4.5760 2.6325 -0.5672
4.6125 2.5928 -0.5601
4.6437 2.5586 -0.5554
4.6658 2.5327 -0.5577
4.6883 2.5071 -0.5578
4.7087 2.4836 -0.5584
4.7288 2.4608 -0.5576
4.7607 2.4233 -0.5620
4.7889 2.3899 -0.5661
4.8081 2.3700 -0.5591
4.8510 2.3234 -0.5509
4.8602 2.3120 -0.5541
4.8710 2.2997 -0.5537
4.8806 2.2886 -0.5546
4.8900 2.2777 -0.5549
4.8988 2.2675 -0.5555
4.9037 2.2598 -0.5632
4.9145 2.2488 -0.5583
4.9258 2.2379 -0.5516
4.9393 2.2217 -0.5544
4.9448 2.2144 -0.5576
4.9541 2.2055 -0.5518
4.0592 3.4511 0.4678
4.0553 3.4460 0.4357
4.0516 3.4406 0.4030
4.0030 3.4772 0.3481
3.9928 3.4785 0.3141
3.9989 3.4605 0.2752
4.0158 3.4304 0.2341
4.0219 3.4126 0.1956
3.9626 3.4683 0.1663
3.9917 3.4243 0.1231
3.9808 3.4250 0.0845
3.9348 3.4636 0.0461
3.7021 3.5498 -0.5263
3.7881 3.4499 -0.5494
3.9680 3.2480 -0.5741
4.0934 3.1168 -0.5588
4.1387 3.0622 -0.5778
4.2847 2.9060 -0.5714
4.4029 2.7806 -0.5627
4.4888 2.6880 -0.5612
4.5663 2.6062 -0.5538
4.6216 2.5458 -0.5556
4.6699 2.4934 -0.5561
4.7116 2.4481 -0.5565
4.7258 2.4311 -0.5621
4.7462 2.4100 -0.5591
4.7644 2.3908 -0.5570
4.7806 2.3735 -0.5562
4.8064 2.3445 -0.5599
4.8204 2.3298 -0.5587
4.8365 2.3140 -0.5528
4.8394 2.3068 -0.5667
4.8559 2.2915 -0.5581
4.8669 2.2798 -0.5572
4.8772 2.2688 -0.5567
4.8874 2.2581 -0.5554
4.8975 2.2478 -0.5535
4.9145 2.2294 -0.5531
4.9209 2.2216 -0.5561
4.9301 2.2127 -0.5527
4.9369 2.2051 -0.5536
4.9442 2.1975 -0.5527
4.0326 3.4228 0.4767
4.0237 3.4230 0.4465
3.9286 3.5206 0.4465
3.9292 3.5088 0.4089
3.9530 3.4709 0.3641
3.9639 3.4477 0.3237
3.9701 3.4298 0.2848
3.8296 3.4803 -0.0295
3.6337 3.5345 -0.5227
3.7248 3.4337 -0.5465
3.8952 3.2484 -0.5808
4.0692 3.0800 -0.5462
4.1149 3.0273 -0.5656
4.2667 2.8734 -0.5589
4.3065 2.8291 -0.5703
4.3637 2.7713 -0.5670
4.4669 2.6685 -0.5561
4.5304 2.6012 -0.5632
4.6018 2.5308 -0.5532
4.6534 2.4781 -0.5524
4.6703 2.4589 -0.5584
4.6896 2.4384 -0.5604
4.7088 2.4185 -0.5613
4.7316 2.3966 -0.5562
4.7452 2.3813 -0.5607
4.7631 2.3635 -0.5586
4.7777 2.3482 -0.5595
4.7977 2.3300 -0.5516
4.8230 2.3037 -0.5528
4.8447 2.2806 -0.5555
4.8572 2.2685 -0.5528
4.8648 2.2594 -0.5575
4.8753 2.2489 -0.5564
4.8868 2.2382 -0.5525
4.8918 2.2309 -0.5598
4.9037 2.2206 -0.5535
4.9109 2.2126 -0.5554
4.9185 2.2047 -0.5557
4.9267 2.1967 -0.5544
4.9399 2.1826 -0.5562
3.9056 3.4940 0.4908
1.7378 5.6128 0.5110
2.2078 5.1047 0.3479
2.2867 4.9971 0.2474
2.4481 4.8088 0.1465
3.5526 3.5273 -0.5222
3.6506 3.4244 -0.5465
3.6860 3.3769 -0.5886
3.8612 3.2121 -0.5694
4.0610 3.0176 -0.5687
4.2119 2.8708 -0.5679
4.2691 2.8142 -0.5706
4.3321 2.7544 -0.5655
4.4282 2.6614 -0.5633
4.4603 2.6283 -0.5693
4.5079 2.5846 -0.5604
4.5420 2.5517 -0.5595
4.5983 2.4964 -0.5611
4.6206 2.4736 -0.5645
4.6659 2.4291 -0.5656
4.6935 2.4045 -0.5581
4.7070 2.3893 -0.5647
4.7466 2.3524 -0.5593
4.7642 2.3359 -0.5571
4.7758 2.3233 -0.5615
4.7936 2.3074 -0.5564
4.8050 2.2955 -0.5592
4.8218 2.2810 -0.5528
4.8310 2.2708 -0.5568
4.8408 2.2606 -0.5593
4.8523 2.2498 -0.5582
4.8636 2.2393 -0.5562
4.8700 2.2313 -0.5621
4.8775 2.2229 -0.5654
4.8892 2.2131 -0.5605
4.8971 2.2050 -0.5616
4.9062 2.1967 -0.5598
4.9152 2.1887 -0.5575
4.9229 2.1813 -0.5569
1.8188 5.3041 0.3076
2.0991 5.0069 0.1859
3.5113 3.4833 -0.5084
3.5919 3.3989 -0.5401
3.5808 3.3901 -0.6006
4.0318 2.9864 -0.5590
4.0932 2.9262 -0.5700
4.2267 2.8018 -0.5733
4.3445 2.6945 -0.5684
4.4449 2.6044 -0.5596
4.5660 2.4892 -0.5702
4.6014 2.4589 -0.5625
4.6302 2.4335 -0.5587
4.6471 2.4159 -0.5650
4.6727 2.3935 -0.5607
4.7332 2.3392 -0.5558
4.7446 2.3267 -0.5622
4.7631 2.3108 -0.5584
4.7834 2.2944 -0.5508
4.7936 2.2835 -0.5554
4.8045 2.2725 -0.5585
4.8171 2.2609 -0.5581
4.8322 2.2486 -0.5529
4.8408 2.2395 -0.5568
4.8531 2.2290 -0.5540
4.8584 2.2216 -0.5620
4.8673 2.2129 -0.5633
4.8780 2.2038 -0.5607
4.8887 2.1951 -0.5574
4.8961 2.1876 -0.5592
4.9047 2.1800 -0.5581
4.9144 2.1723 -0.5541
4.9192 2.1662 -0.5593
2.0322 4.9867 0.3992
1.5168 5.4241 0.3557
1.6718 5.2492 0.2342
3.4358 3.4661 -0.5044
3.4099 3.4670 -0.5723
3.6094 3.2952 -0.5631
3.8766 3.0620 -0.5604
4.0201 2.9290 -0.5830
4.1863 2.7864 -0.5739
4.2466 2.7333 -0.5746
4.3255 2.6691 -0.5592
4.3772 2.6247 -0.5567
4.4020 2.5987 -0.5699
4.4390 2.5655 -0.5723
4.4894 2.5249 -0.5615
4.5528 2.4693 -0.5615
4.5813 2.4445 -0.5611
4.6080 2.4213 -0.5604
4.6530 2.3815 -0.5618
4.6755 2.3623 -0.5601
4.6915 2.3470 -0.5639
4.7157 2.3280 -0.5572
4.7266 2.3160 -0.5646
4.7443 2.3012 -0.5629
4.7637 2.2859 -0.5575
4.7770 2.2738 -0.5589
4.7914 2.2616 -0.5576
4.8064 2.2495 -0.5545
4.8172 2.2394 -0.5563
4.8260 2.2303 -0.5604
4.8367 2.2208 -0.5610
4.8505 2.2105 -0.5556
4.8571 2.2029 -0.5612
4.8674 2.1943 -0.5598
4.8783 2.1858 -0.5566
4.8954 2.1709 -0.5564
4.9035 2.1639 -0.5561
3.2804 3.5051 -0.5209
3.3415 3.4397 -0.5657
3.4787 3.3207 -0.5814
3.7811 3.0717 -0.5753
4.0221 2.8772 -0.5587
4.0773 2.8271 -0.5717
4.1489 2.7676 -0.5722
4.2122 2.7148 -0.5729
4.2847 2.6577 -0.5636
4.3430 2.6110 -0.5587
4.3864 2.5745 -0.5601
4.4242 2.5423 -0.5626
4.4483 2.5188 -0.5731
4.4929 2.4844 -0.5656
4.5223 2.4592 -0.5677
4.5762 2.4216 -0.5462
4.5955 2.4034 -0.5526
4.6053 2.3906 -0.5669
4.6386 2.3662 -0.5571
4.6574 2.3497 -0.5600
4.6745 2.3343 -0.5633
4.7544 2.2785 -0.5318
4.7700 2.2658 -0.5309
4.7855 2.2536 -0.5290
4.7968 2.2433 -0.5318
4.8135 2.2257 -0.5430
4.8177 2.2186 -0.5540
4.8266 2.2101 -0.5576
4.8381 2.2009 -0.5565
4.8474 2.1926 -0.5580
4.8580 2.1843 -0.5567
4.8672 2.1765 -0.5570
4.8783 2.1686 -0.5532
4.8828 2.1625 -0.5606
4.8936 2.1551 -0.5557
4.8999 2.1489 -0.5587
3.7021 3.4506 0.5630
3.6871 3.4511 0.5292
3.6561 3.4654 0.4996
3.6076 3.4946 0.4732
3.6306 3.4600 0.4241
3.6138 3.4604 0.3857
3.5610 3.4911 0.3540
3.0569 3.5824 -0.5517
3.2176 3.4486 -0.5743
3.3816 3.3158 -0.5860
3.6510 3.1162 -0.5502
3.7546 3.0311 -0.5613
3.8263 2.9687 -0.5793
4.0354 2.8076 -0.5700
4.1882 2.6893 -0.5649
4.2562 2.6376 -0.5599
4.2980 2.6024 -0.5668
4.3982 2.5256 -0.5610
4.4297 2.4989 -0.5669
4.4730 2.4667 -0.5615
4.5030 2.4423 -0.5639
4.5299 2.4201 -0.5671
4.5669 2.3937 -0.5594
4.5946 2.3724 -0.5578
4.7922 2.2468 -0.4699
4.7972 2.2393 -0.4804
4.8058 2.2306 -0.4862
4.8129 2.2226 -0.4934
4.8206 2.2146 -0.4993
4.8234 2.2083 -0.5116
4.8289 2.2011 -0.5198
4.8303 2.1953 -0.5339
4.8337 2.1889 -0.5449
4.8405 2.1817 -0.5505
4.8480 2.1744 -0.5546
4.8554 2.1674 -0.5584
4.8660 2.1598 -0.5560
4.8726 2.1533 -0.5600
4.8824 2.1464 -0.5576
4.8908 2.1400 -0.5571
3.5714 3.4323 0.3991
3.5704 3.4181 0.3557
3.5427 3.4255 0.3172
3.4859 3.4555 0.2816
3.4253 3.4873 0.2430
3.4014 3.4891 0.1965
3.3559 3.5070 0.1500
3.3064 3.5268 0.1006
2.9747 3.5523 -0.5436
3.0675 3.4681 -0.5879
3.3513 3.2638 -0.5685
3.4614 3.1745 -0.5903
3.6818 3.0195 -0.5647
3.7731 2.9474 -0.5772
3.9773 2.7963 -0.5753
4.1371 2.6789 -0.5715
4.2614 2.5874 -0.5687
4.3663 2.5114 -0.5631
4.3970 2.4860 -0.5707
4.4553 2.4479 -0.5556
4.4691 2.4321 -0.5716
4.7997 2.2401 -0.4151
4.8055 2.2326 -0.4243
4.8083 2.2264 -0.4365
4.8155 2.2186 -0.4435
4.8226 2.2111 -0.4502
4.8232 2.2057 -0.4647
4.8302 2.1983 -0.4708
4.8315 2.1928 -0.4843
4.8356 2.1864 -0.4939
4.8383 2.1805 -0.5054
4.8409 2.1746 -0.5169
4.8422 2.1690 -0.5304
4.8469 2.1627 -0.5385
4.8496 2.1569 -0.5497
4.8536 2.1508 -0.5587
4.8637 2.1439 -0.5570
4.8738 2.1372 -0.5547
4.8803 2.1312 -0.5579
3.4158 3.4098 0.2029
3.4039 3.4015 0.1551
3.3582 3.4172 0.1083
3.2988 3.4417 0.0589
3.2833 3.4339 0.0055
3.2046 3.4695 -0.0508
2.8463 3.6468 -0.2634
2.6257 3.7399 -0.4403
2.9933 3.4569 -0.5113
3.0197 3.4172 -0.5720
3.2852 3.2342 -0.5618
3.4221 3.1327 -0.5773
3.6055 3.0071 -0.5681
3.7406 2.9128 -0.5664
3.9270 2.7785 -0.5760
4.0119 2.7187 -0.5763
4.0994 2.6594 -0.5701
4.1568 2.6174 -0.5750
4.2363 2.5656 -0.5633
4.3282 2.4992 -0.5686
4.7788 2.2603 -0.3467
4.7871 2.2517 -0.3545
4.8074 2.2337 -0.3652
4.8078 2.2286 -0.3792
4.8106 2.2225 -0.3909
4.8178 2.2150 -0.3978
4.8243 2.2079 -0.4051
4.8285 2.2016 -0.4148
4.8319 2.1956 -0.4251
4.8338 2.1901 -0.4371
4.8446 2.1723 -0.4664
4.8443 2.1673 -0.4813
4.8473 2.1564 -0.5062
4.8499 2.1508 -0.5171
4.8525 2.1452 -0.5279
4.8516 2.1401 -0.5443
4.8520 2.1347 -0.5587
4.8595 2.1286 -0.5613
4.8697 2.1223 -0.5587
3.4605 3.5458 0.8597
3.0983 3.4246 -0.1562
2.9380 3.5039 -0.2323
2.9145 3.4952 -0.3006
2.9071 3.4760 -0.3683
2.9174 3.4459 -0.4337
2.7019 3.5481 -0.5483
2.9554 3.3757 -0.5602
3.1636 3.2342 -0.5699
3.3828 3.0908 -0.5642
3.6851 2.8903 -0.5641
3.8865 2.7540 -0.5716
4.0527 2.6434 -0.5726
4.7895 2.2472 -0.3129
4.7986 2.2387 -0.3196
4.8069 2.2307 -0.3265
4.8144 2.2232 -0.3337
4.8171 2.2175 -0.3448
4.8213 2.2113 -0.3545
4.8247 2.2053 -0.3647
4.8328 2.1981 -0.3701
4.8323 2.1934 -0.3841
4.8341 2.1881 -0.3957
4.8362 2.1778 -0.4207
4.8426 2.1714 -0.4268
4.8459 2.1657 -0.4364
4.8470 2.1606 -0.4489
4.8488 2.1553 -0.4604
4.8506 2.1500 -0.4718
4.8502 2.1451 -0.4865
4.8520 2.1398 -0.4980
4.8561 2.1342 -0.5063
4.8557 2.1291 -0.5211
4.8525 2.1243 -0.5407
4.8558 2.1188 -0.5501
3.3216 3.5959 0.9234
3.2005 3.5192 0.5017
2.8227 3.4448 -0.3575
2.8153 3.4243 -0.4270
2.7884 3.4141 -0.5017
2.8541 3.3531 -0.5567
3.1047 3.1954 -0.5593
3.2486 3.0982 -0.5791
3.4167 2.9916 -0.5830
3.7128 2.8085 -0.5768
4.7819 2.2660 -0.2274
4.7813 2.2615 -0.2410
4.7927 2.2473 -0.2605
4.7995 2.2399 -0.2691
4.8047 2.2333 -0.2785
4.8082 2.2273 -0.2889
4.8192 2.2142 -0.3062
4.8210 2.2089 -0.3177
4.8228 2.2037 -0.3291
4.8278 2.1975 -0.3375
4.8272 2.1929 -0.3511
4.8354 2.1860 -0.3562
4.8363 2.1810 -0.3682
4.8412 2.1751 -0.3760
4.8430 2.1700 -0.3871
4.8455 2.1647 -0.3973
4.8515 2.1493 -0.4296
4.8548 2.1440 -0.4387
4.8527 2.1395 -0.4548
4.8545 2.1343 -0.4659
4.8502 2.1299 -0.4856
4.8528 2.1246 -0.4958
4.8575 2.1191 -0.5026
4.8578 2.1141 -0.5161
4.8559 2.1091 -0.5332
4.8555 2.1039 -0.5482
2.0813 4.4884 1.5320
3.2627 3.5608 0.9027
3.3116 3.5075 0.8362
3.2096 3.4451 0.5024
3.1456 3.4702 0.4680
2.8411 3.2822 -0.5321
3.1678 3.0733 -0.5765
4.7824 2.2574 -0.2068
4.7937 2.2482 -0.2135
4.7981 2.2419 -0.2236
4.8034 2.2354 -0.2330
4.8043 2.2305 -0.2448
4.8103 2.2238 -0.2533
4.8240 2.2057 -0.2806
4.8257 2.2006 -0.2916
4.8333 2.1939 -0.2978
4.8325 2.1896 -0.3107
4.8359 2.1842 -0.3201
4.8417 2.1782 -0.3271
4.8417 2.1737 -0.3393
4.8434 2.1688 -0.3500
4.8403 2.1648 -0.3658
4.8436 2.1595 -0.3749
4.8486 2.1493 -0.3948
4.8503 2.1443 -0.4055
4.8528 2.1392 -0.4154
4.8537 2.1344 -0.4271
4.8554 2.1294 -0.4379
4.8549 2.1198 -0.4647
4.8599 2.1097 -0.4843
4.8563 2.1049 -0.5031
4.8588 2.0998 -0.5130
3.2284 3.4718 0.7793
3.1558 3.5053 0.7612
3.1759 3.4737 0.7064
3.1838 3.4506 0.6562
2.9869 3.5645 0.6689
2.9258 3.5442 0.5234
4.7852 2.2528 -0.1740
4.7950 2.2445 -0.1818
4.8003 2.2380 -0.1912
4.8056 2.2317 -0.2004
4.8055 2.2273 -0.2122
4.8151 2.2195 -0.2187
4.8203 2.2134 -0.2273
4.8203 2.2091 -0.2390
4.8330 2.1922 -0.2654
4.8338 2.1876 -0.2765
4.8346 2.1830 -0.2877
4.8414 2.1769 -0.2940
4.8396 2.1729 -0.3072
4.8429 2.1678 -0.3162
4.8463 2.1626 -0.3250
4.8462 2.1582 -0.3370
4.8495 2.1531 -0.3457
4.8495 2.1486 -0.3578
4.8503 2.1439 -0.3690
4.8495 2.1395 -0.3822
4.8512 2.1347 -0.3927
4.8512 2.1300 -0.4051
4.8561 2.1248 -0.4117
4.8546 2.1203 -0.4262
4.8562 2.1154 -0.4367
4.8571 2.1106 -0.4483
4.8572 2.1058 -0.4611
4.8597 2.1009 -0.4706
4.8582 2.0961 -0.4857
4.8591 2.0911 -0.4975
4.8578 2.0861 -0.5130
1.0734 4.9283 1.8244
3.0899 3.5203 0.8799
3.0605 3.5221 0.8440
3.0428 3.5155 0.8021
3.1263 3.4421 0.7232
2.9936 3.5098 0.7192
4.7980 2.2403 -0.1513
4.8068 2.2285 -0.1704
4.8157 2.2211 -0.1776
4.8165 2.2167 -0.1884
4.8208 2.2110 -0.1973
4.8188 2.2074 -0.2096
4.8319 2.1950 -0.2244
4.8344 2.1901 -0.2340
4.8324 2.1864 -0.2465
4.8367 2.1810 -0.2548
4.8383 2.1764 -0.2649
4.8416 2.1713 -0.2737
4.8432 2.1667 -0.2838
4.8448 2.1620 -0.2938
4.8455 2.1576 -0.3046
4.8479 2.1528 -0.3140
4.8495 2.1481 -0.3240
4.8486 2.1439 -0.3366
4.8510 2.1391 -0.3459
4.8526 2.1344 -0.3560
4.8526 2.1300 -0.3679
4.8542 2.1253 -0.3781
4.8541 2.1207 -0.3901
4.8541 2.1162 -0.4023
4.8565 2.1114 -0.4116
4.8573 2.1067 -0.4228
4.8581 2.1020 -0.4342
4.8549 2.0973 -0.4509
4.8566 2.0925 -0.4614
4.8574 2.0877 -0.4729
4.8575 2.0828 -0.4857
3.0040 3.4741 0.8150
4.7980 2.2375 -0.1239
4.8034 2.2313 -0.1330
4.8188 2.2177 -0.1489
4.8241 2.2119 -0.1573
4.8272 2.2028 -0.1771
4.8297 2.1980 -0.1865
4.8303 2.1937 -0.1968
4.8337 2.1887 -0.2057
4.8343 2.1844 -0.2160
4.8401 2.1747 -0.2339
4.8399 2.1706 -0.2449
4.8450 2.1653 -0.2522
4.8465 2.1608 -0.2619
4.8472 2.1565 -0.2723
4.8470 2.1524 -0.2835
4.8503 2.1476 -0.2918
4.8500 2.1433 -0.3031
4.8516 2.1388 -0.3129
4.8557 2.1340 -0.3202
4.8547 2.1298 -0.3324
4.8520 2.1257 -0.3466
4.8527 2.1212 -0.3574
4.8542 2.1167 -0.3673
4.8575 2.1120 -0.3754
4.8549 2.1076 -0.3901
4.8573 2.1030 -0.3991
4.8564 2.0984 -0.4122
4.8563 2.0938 -0.4243
4.8587 2.0892 -0.4334
4.8587 2.0845 -0.4457
4.8578 2.0797 -0.4592
4.8594 2.0750 -0.4694
4.8594 2.0702 -0.4819
2.7754 3.5472 0.8992
2.8004 3.5115 0.8368
2.8700 3.4500 0.7603
2.8490 3.4418 0.7145
4.8204 2.2110 -0.1329
4.8257 2.2053 -0.1411
4.8282 2.2006 -0.1503
4.8316 2.1957 -0.1591
4.8340 2.1910 -0.1682
4.8346 2.1869 -0.1781
4.8379 2.1821 -0.1867
4.8376 2.1782 -0.1972
4.8400 2.1736 -0.2061
4.8415 2.1692 -0.2156
4.8402 2.1654 -0.2269
4.8445 2.1605 -0.2346
4.8469 2.1559 -0.2435
4.8493 2.1514 -0.2523
4.8481 2.1475 -0.2638
4.8487 2.1433 -0.2740
4.8511 2.1387 -0.2828
4.8517 2.1345 -0.2931
4.8523 2.1302 -0.3034
4.8538 2.1258 -0.3130
4.8527 2.1216 -0.3250
4.8559 2.1170 -0.3329
4.8566 2.1127 -0.3434
4.8555 2.1084 -0.3558
4.8562 2.1040 -0.3664
4.8569 2.0995 -0.3771
4.8567 2.0950 -0.3888
4.8582 2.0905 -0.3986
4.8580 2.0814 -0.4224
4.8562 2.0767 -0.4366
4.8594 2.0722 -0.4444
4.8560 2.0672 -0.4612
4.8576 2.0626 -0.4713
4.8027 2.2187 -0.1029
4.8131 2.2113 -0.1103
4.8214 2.2048 -0.1178
4.8258 2.1996 -0.1263
4.8341 2.1933 -0.1332
4.8356 2.1891 -0.1424
4.8370 2.1848 -0.1516
4.8356 2.1813 -0.1620
4.8399 2.1764 -0.1699
4.8395 2.1726 -0.1801
4.8452 2.1635 -0.1970
4.8462 2.1554 -0.2164
4.8477 2.1512 -0.2257
4.8491 2.1469 -0.2349
4.8506 2.1427 -0.2441
4.8493 2.1388 -0.2553
4.8526 2.1343 -0.2632
4.8531 2.1302 -0.2732
4.8510 2.1263 -0.2854
4.8533 2.1219 -0.2940
4.8557 2.1175 -0.3026
4.8536 2.1135 -0.3152
4.8551 2.1091 -0.3246
4.8557 2.1048 -0.3349
4.8563 2.1005 -0.3452
4.8578 2.0962 -0.3547
4.8584 2.0918 -0.3651
4.8573 2.0874 -0.3775
4.8553 2.0829 -0.3911
4.8577 2.0785 -0.3998
4.8558 2.0739 -0.4136
4.8582 2.0694 -0.4223
4.8561 2.0600 -0.4485
4.8569 2.0554 -0.4595
4.8159 2.2008 -0.1052
4.8234 2.1948 -0.1128
4.8308 2.1889 -0.1202
4.8342 2.1842 -0.1285
4.8386 2.1793 -0.1364
4.8400 2.1752 -0.1454
4.8434 2.1707 -0.1535
4.8448 2.1666 -0.1624
4.8466 2.1586 -0.1806
4.8452 2.1550 -0.1911
4.8466 2.1509 -0.2001
4.8499 2.1464 -0.2079
4.8513 2.1423 -0.2168
4.8518 2.1383 -0.2264
4.8494 2.1347 -0.2379
4.8508 2.1305 -0.2470
4.8560 2.1260 -0.2533
4.8546 2.1221 -0.2644
4.8533 2.1182 -0.2757
4.8538 2.1140 -0.2855
4.8552 2.1098 -0.2947
4.8567 2.1056 -0.3038
4.8581 2.1014 -0.3130
4.8568 2.0972 -0.3247
4.8556 2.0930 -0.3366
4.8561 2.0887 -0.3468
4.8549 2.0844 -0.3590
4.8555 2.0800 -0.3693
4.8570 2.0757 -0.3788
4.8576 2.0713 -0.3892
4.8580 2.0624 -0.4113
4.8560 2.0576 -0.4252
4.8558 2.0530 -0.4371
2.5188 3.3653 0.7040
2.2600 3.4630 0.7088
2.3145 3.4120 0.6321
2.1879 3.4434 0.5936
2.1256 3.4439 0.5376
4.8288 2.1844 -0.1071
4.8342 2.1793 -0.1148
4.8387 2.1745 -0.1226
4.8410 2.1702 -0.1310
4.8404 2.1667 -0.1405
4.8448 2.1620 -0.1480
4.8462 2.1580 -0.1567
4.8485 2.1538 -0.1649
4.8509 2.1497 -0.1730
4.8493 2.1462 -0.1832
4.8507 2.1422 -0.1919
4.8501 2.1384 -0.2018
4.8495 2.1346 -0.2117
4.8548 2.1302 -0.2180
4.8523 2.1265 -0.2293
4.8537 2.1225 -0.2381
4.8541 2.1185 -0.2476
4.8546 2.1145 -0.2572
4.8550 2.1105 -0.2668
4.8545 2.1065 -0.2772
4.8560 2.1024 -0.2861
4.8574 2.0982 -0.2950
4.8569 2.0941 -0.3057
4.8556 2.0900 -0.3172
4.8561 2.0858 -0.3272
4.8575 2.0816 -0.3363
4.8571 2.0774 -0.3472
4.8567 2.0730 -0.3583
4.8591 2.0689 -0.3665
4.8569 2.0644 -0.3797
4.8575 2.0600 -0.3900
4.8554 2.0553 -0.4036
4.8542 2.0507 -0.4163
4.8530 2.0460 -0.4291
4.8510 2.0410 -0.4432
2.2490 3.5196 1.0277
2.2809 3.4794 0.9556
2.2468 3.4705 0.9049
2.3012 3.4201 0.8268
2.1739 3.3997 0.6690
2.2080 3.3584 0.5963
2.0057 3.3874 0.4967
4.8232 2.1771 -0.1047
4.8438 2.1615 -0.1256
4.8451 2.1576 -0.1341
4.8455 2.1539 -0.1430
4.8478 2.1498 -0.1511
4.8491 2.1459 -0.1595
4.8505 2.1420 -0.1680
4.8522 2.1343 -0.1855
4.8515 2.1306 -0.1951
4.8519 2.1268 -0.2043
4.8542 2.1227 -0.2122
4.8559 2.1149 -0.2300
4.8553 2.1111 -0.2400
4.8557 2.1071 -0.2493
4.8571 2.1032 -0.2580
4.8556 2.0992 -0.2689
4.8551 2.0952 -0.2792
4.8564 2.0912 -0.2880
4.8569 2.0871 -0.2976
4.8573 2.0831 -0.3073
4.8568 2.0789 -0.3179
4.8564 2.0747 -0.3286
4.8550 2.0704 -0.3403
4.8564 2.0663 -0.3493
4.8541 2.0618 -0.3623
4.8546 2.0575 -0.3724
4.8533 2.0530 -0.3846
4.8539 2.0486 -0.3949
4.8526 2.0440 -0.4074
4.8505 2.0391 -0.4212
4.8519 2.0348 -0.4306
2.0974 3.5419 1.1433
2.1880 3.4489 0.9865
2.1048 3.4603 0.9501
2.1155 3.4293 0.8827
2.2189 3.3586 0.7903
2.0637 3.3977 0.7658
2.0495 3.3762 0.7025
1.9290 3.3968 0.6597
1.9404 3.3634 0.5872
1.4259 3.4974 0.5169
4.8348 2.1626 -0.1066
4.8393 2.1581 -0.1141
4.8448 2.1535 -0.1211
4.8461 2.1497 -0.1294
4.8474 2.1458 -0.1377
4.8528 2.1414 -0.1443
4.8521 2.1379 -0.1534
4.8547 2.1303 -0.1699
4.8550 2.1266 -0.1787
4.8553 2.1229 -0.1875
4.8536 2.1193 -0.1975
4.8569 2.1153 -0.2047
4.8572 2.1115 -0.2137
4.8526 2.1080 -0.2259
4.8549 2.1040 -0.2338
4.8533 2.1002 -0.2444
4.8556 2.0962 -0.2522
4.8560 2.0923 -0.2615
4.8563 2.0884 -0.2708
4.8567 2.0844 -0.2802
4.8571 2.0804 -0.2896
4.8546 2.0762 -0.3017
4.8570 2.0723 -0.3095
4.8555 2.0681 -0.3209
4.8550 2.0639 -0.3316
4.8554 2.0597 -0.3414
4.8540 2.0553 -0.3532
4.8516 2.0507 -0.3661
4.8521 2.0465 -0.3762
4.8508 2.0419 -0.3884
4.8503 2.0374 -0.3997
4.8499 2.0328 -0.4111
4.8468 2.0277 -0.4260
1.6145 3.6520 1.2488
2.0195 3.4486 1.0424
2.0548 3.4070 0.9668
1.9907 3.4067 0.9210
1.9503 3.3955 0.8658
1.9080 3.3842 0.8089
1.9725 3.3309 0.7254
1.8475 3.3498 0.6834
1.7718 3.3483 0.6264
1.3631 3.4304 0.5378
3.0114 2.6515 -0.1845
4.8395 2.1504 -0.1101
4.8439 2.1461 -0.1173
4.8495 2.1417 -0.1240
4.8518 2.1378 -0.1317
4.8510 2.1344 -0.1406
4.8522 2.1307 -0.1487
4.8535 2.1269 -0.1568
4.8538 2.1233 -0.1654
4.8540 2.1196 -0.1740
4.8532 2.1160 -0.1833
4.8545 2.1123 -0.1915
4.8558 2.1085 -0.1997
4.8551 2.1048 -0.2091
4.8554 2.1010 -0.2180
4.8577 2.0972 -0.2256
4.8580 2.0934 -0.2346
4.8573 2.0896 -0.2443
4.8566 2.0857 -0.2541
4.8559 2.0818 -0.2641
4.8553 2.0778 -0.2741
4.8537 2.0737 -0.2850
4.8540 2.0697 -0.2944
4.8544 2.0657 -0.3039
4.8538 2.0616 -0.3143
4.8566 2.0536 -0.3316
4.8531 2.0490 -0.3451
4.8507 2.0444 -0.3579
4.8511 2.0402 -0.3678
4.8516 2.0359 -0.3778
4.8492 2.0311 -0.3910
4.8469 2.0262 -0.4044
2.0463 3.4158 1.1585
1.9332 3.4365 1.1360
1.9942 3.3847 1.0508
1.9286 3.3838 1.0071
1.8326 3.3935 0.9691
1.6995 3.4154 0.9369
1.6499 3.4039 0.8778
1.6619 3.3691 0.8021
1.4570 3.3782 0.6936
1.5034 3.3298 0.6073
1.3004 3.3635 0.5587
2.8949 2.6307 -0.1781
4.8409 2.1427 -0.1059
4.8454 2.1386 -0.1130
4.8489 2.1346 -0.1202
4.8522 2.1307 -0.1274
4.8503 2.1274 -0.1365
4.8526 2.1236 -0.1441
4.8528 2.1201 -0.1525
4.8551 2.1163 -0.1600
4.8532 2.1129 -0.1695
4.8545 2.1092 -0.1775
4.8570 2.1018 -0.1935
4.8572 2.0981 -0.2022
4.8585 2.0944 -0.2102
4.8588 2.0907 -0.2190
4.8570 2.0869 -0.2291
4.8552 2.0831 -0.2394
4.8555 2.0793 -0.2484
4.8547 2.0754 -0.2581
4.8571 2.0716 -0.2657
4.8544 2.0675 -0.2772
4.8567 2.0637 -0.2847
4.8550 2.0596 -0.2957
4.8534 2.0554 -0.3068
4.8537 2.0513 -0.3162
4.8521 2.0470 -0.3276
4.8535 2.0431 -0.3362
4.8490 2.0382 -0.3507
4.8484 2.0338 -0.3615
4.8488 2.0296 -0.3714
4.8473 2.0249 -0.3834
4.8468 2.0204 -0.3945
4.8463 2.0159 -0.4057
4.3684 0.0884 0.3316
4.3526 0.1110 0.3331
4.3291 0.1224 0.3373
4.2921 0.1154 0.3462
3.7558 -0.1794 0.4923
3.7398 -0.1323 0.4916
3.7237 -0.0851 0.4910
3.6586 -0.0876 0.5058
3.6595 -0.0220 0.4997
3.6167 0.0016 0.5072
3.6267 0.0742 0.4985
3.5924 0.1071 0.5032
3.2580 0.5088 0.5420
3.2519 0.5677 0.5381
3.1101 0.5660 0.5699
3.1174 0.6330 0.5623
3.0853 0.6834 0.5650
3.0932 0.7487 0.5574
3.0744 0.8039 0.5567
2.9589 0.8304 0.5801
2.9097 0.8801 0.5867
2.8898 0.9384 0.5859
2.7923 0.9801 0.6039
-0.5995 3.5506 1.1319
0.1182 3.4787 0.9781
4.4048 0.1379 0.2902
4.3916 0.1631 0.2908
4.3610 0.1618 0.2970
4.3230 0.1517 0.3055
3.7284 -0.2207 0.4554
3.6952 -0.1907 0.4596
3.7201 -0.0980 0.4471
3.6876 -0.0668 0.4510
3.6540 -0.0355 0.4552
3.6287 0.0050 0.4570
3.6041 0.0469 0.4585
3.5598 0.0724 0.4654
3.5617 0.1379 0.4596
3.5895 0.2220 0.4472
3.0489 0.4692 0.5356
3.1499 0.5814 0.5062
3.1311 0.6369 0.5054
3.1122 0.6924 0.5047
3.0934 0.7479 0.5039
3.0341 0.7903 0.5124
2.9584 0.8301 0.5243
3.0094 0.9070 0.5078
2.7617 0.9082 0.5575
0.1085 3.5881 0.8719
4.3982 0.1169 0.2637
4.3820 0.1379 0.2651
4.3716 0.1685 0.2646
4.3308 0.1539 0.2730
4.2694 0.1126 0.2870
3.6823 -0.2149 0.4160
3.6570 -0.1741 0.4174
3.7385 -0.0236 0.3918
3.6745 -0.0237 0.4032
3.6147 -0.0160 0.4133
3.6241 0.0574 0.4062
3.6252 0.1215 0.4013
3.5998 0.1626 0.4028
3.5923 0.2183 0.4000
3.5403 0.2402 0.4076
3.0347 0.4597 0.4816
3.0572 0.5382 0.4717
3.1447 0.6408 0.4486
3.1127 0.6912 0.4505
3.0672 0.7377 0.4552
3.0202 0.7852 0.4601
2.9872 0.8384 0.4620
2.8304 0.8593 0.4885
2.5496 1.8873 0.4625
-0.4277 3.4239 0.8799
0.2031 3.3907 0.7698
0.2791 3.4494 0.7519
4.4245 0.1505 0.2275
4.4012 0.1590 0.2306
4.3583 0.1383 0.2386
4.3446 0.1651 0.2390
4.2563 0.0840 0.2581
3.6776 -0.1617 0.3643
3.6535 0.0765 0.3523
3.6458 0.1324 0.3498
3.6375 0.1872 0.3475
3.5593 0.1864 0.3597
3.5334 0.2294 0.3608
3.5164 0.2794 0.3602
2.9447 0.4141 0.4402
2.9699 0.4971 0.4307
3.1324 0.6339 0.3964
3.1646 0.7097 0.3864
3.1074 0.7509 0.3926
3.0618 0.7981 0.3965
3.0147 0.8464 0.4006
2.1166 2.0222 0.4625
-0.5125 3.5753 0.7685
4.4448 0.1744 0.1940
4.4188 0.1776 0.1973
4.3601 0.1312 0.2078
4.3143 0.1098 0.2151
4.2685 0.0919 0.2222
4.1989 0.0443 0.2342
4.1055 -0.0298 0.2508
4.0927 0.3734 0.2290
3.7219 0.0695 0.2958
3.6654 0.0798 0.3027
3.6236 0.1063 0.3067
3.6149 0.1621 0.3046
3.5715 0.1899 0.3087
3.5906 0.2667 0.3017
3.0437 0.5275 0.3588
3.1333 0.6325 0.3408
3.1141 0.6890 0.3401
3.0677 0.7359 0.3435
3.0889 0.8064 0.3366
2.9129 0.8161 0.3593
2.5106 1.8473 0.3524
4.4261 0.1797 0.1667
4.3970 0.1796 0.1699
4.3483 0.1515 0.1766
4.3112 0.1449 0.1809
4.2721 0.1380 0.1855
4.2315 0.1321 0.1903
4.0973 0.3717 0.1928
3.6601 0.0676 0.2557
3.6357 0.1097 0.2563
3.6269 0.1655 0.2544
3.5749 0.1864 0.2590
3.5302 0.2155 0.2624
2.9697 0.4921 0.3095
3.0941 0.6144 0.2898
3.1012 0.6827 0.2856
3.0958 0.7449 0.2830
3.0764 0.8017 0.2823
2.9725 0.8336 0.2920
2.1500 1.6237 0.3417
2.2675 1.6871 0.3258
2.2870 1.8179 0.3171
2.3497 1.8743 0.3074
2.5757 1.9024 0.2814
2.5182 2.0254 0.2814
2.4784 2.0898 0.2825
2.4017 2.1635 0.2872
4.4392 0.1912 0.1352
4.4154 0.1990 0.1369
4.3971 0.2167 0.1377
4.3638 0.2131 0.1407
4.3119 0.1854 0.1463
4.2658 0.1701 0.1508
4.0738 0.3418 0.1599
3.6721 0.0710 0.2056
3.6641 0.1275 0.2039
3.6311 0.1623 0.2052
3.6056 0.2045 0.2056
3.5330 0.2116 0.2115
3.5058 0.2556 0.2119
3.3952 0.2433 0.2218
3.3539 0.2826 0.2237
3.0448 0.5233 0.2398
3.1737 0.6457 0.2237
3.1418 0.6969 0.2242
3.0829 0.7393 0.2274
3.0492 0.7923 0.2281
2.9870 0.8377 0.2314
2.8587 0.8679 0.2411
2.4821 0.8447 0.2741
2.6698 1.0990 0.2474
2.6479 1.1635 0.2465
2.3839 1.2026 0.2673
2.4016 1.3472 0.2597
2.5825 1.7329 0.2280
2.4876 1.8025 0.2331
2.2142 1.8987 0.2523
2.6387 1.9545 0.2139
2.5855 2.0194 0.2156
2.5474 2.0823 0.2162
2.5090 2.1461 0.2168
4.4831 0.2094 0.1020
4.4641 0.2227 0.1027
4.4256 0.2057 0.1057
4.4104 0.2278 0.1059
4.4001 0.2581 0.1054
4.3638 0.2508 0.1079
4.2952 0.2016 0.1138
4.0878 0.3494 0.1214
3.7170 0.1047 0.1524
3.7093 0.1601 0.1509
3.6595 0.1795 0.1533
3.6264 0.2149 0.1541
3.6097 0.2641 0.1535
3.5281 0.2663 0.1584
3.4399 0.2686 0.1637
3.3674 0.2864 0.1675
3.1557 0.5705 0.1707
3.1623 0.6391 0.1680
3.1166 0.6857 0.1692
3.0832 0.7384 0.1694
3.0635 0.7964 0.1686
2.9412 0.8240 0.1752
2.5089 1.1479 0.1905
2.4653 1.2142 0.1909
2.2618 1.2689 0.2014
2.3076 1.3461 0.1960
2.5373 1.8626 0.1644
2.6051 1.9108 0.1586
2.6365 1.9615 0.1550
2.7139 2.0009 0.1489
2.7713 2.0407 0.1440
2.5936 2.1336 0.1517
2.5567 2.1963 0.1518
2.5197 2.2598 0.1519
4.4832 0.1993 0.0733
4.4853 0.2482 0.0719
4.4458 0.2284 0.0739
4.4386 0.2625 0.0733
4.3988 0.2470 0.0751
4.3648 0.2434 0.0765
4.3362 0.2498 0.0774
4.3019 0.2503 0.0786
4.1149 0.3702 0.0823
3.7682 0.0826 0.1025
3.7288 0.1081 0.1033
3.7049 0.1492 0.1031
3.6629 0.1757 0.1039
3.6549 0.2316 0.1028
3.5764 0.2328 0.1056
3.5213 0.2557 0.1070
3.4102 0.2428 0.1114
3.3583 0.2755 0.1125
3.0591 0.5248 0.1170
3.1368 0.6265 0.1116
3.1307 0.6897 0.1101
3.0699 0.7327 0.1113
3.1440 0.8220 0.1062
2.8941 0.8098 0.1157
2.2096 0.7814 0.1415
2.4712 0.9212 0.1283
2.4469 0.9929 0.1274
2.2585 1.0389 0.1331
2.2569 1.1957 0.1291
2.2059 1.2683 0.1291
2.2062 1.3449 0.1271
2.7108 1.7894 0.0971
2.6055 1.8597 0.0992
2.6546 1.9094 0.0961
2.5830 1.9777 0.0970
2.3926 2.0721 0.1015
1.9818 2.2222 0.1127
1.9307 2.3014 0.1125
2.1763 2.3039 0.1034
4.4971 0.2133 0.0434
4.4784 0.2267 0.0434
4.4453 0.2179 0.0439
4.4166 0.2186 0.0442
4.4063 0.2491 0.0438
4.3513 0.2146 0.0451
4.3441 0.2520 0.0445
4.3070 0.2486 0.0450
4.1238 0.3727 0.0450
3.8914 0.1947 0.0509
3.7936 0.1609 0.0527
3.7083 0.1451 0.0540
3.6673 0.1726 0.0540
3.6840 0.2488 0.0524
3.6252 0.2643 0.0529
3.5147 0.2452 0.0545
3.3210 0.1754 0.0580
3.3720 0.2794 0.0556
3.2042 0.2424 0.0583
3.0892 0.5359 0.0545
3.0965 0.6077 0.0532
3.1448 0.6938 0.0511
3.0980 0.7416 0.0508
3.0644 0.7955 0.0503
3.0156 0.8456 0.0500
1.7389 0.5697 0.0700
2.0386 1.1768 0.0559
1.5926 1.2255 0.0604
2.4289 1.4306 0.0468
2.7730 1.7880 0.0365
1.5422 2.0941 0.0458
1.3689 2.2054 0.0460
1.5525 2.2503 0.0430
1.8081 2.2702 0.0396
2.0262 2.2875 0.0367
2.1472 2.3207 0.0347
4.5021 0.2117 0.0140
4.4731 0.2077 0.0137
4.4477 0.2119 0.0133
4.4128 0.2029 0.0129
4.3909 0.2164 0.0125
4.3628 0.2222 0.0121
4.3292 0.2221 0.0117
4.2802 0.2034 0.0112
4.0552 0.2426 0.0079
4.1014 0.3431 0.0076
3.9143 0.2097 0.0063
3.7679 0.1294 0.0051
3.7119 0.1410 0.0043
3.6953 0.1897 0.0036
3.7034 0.2584 0.0031
3.5467 0.2629 0.0010
3.4790 0.2798 0.0000
3.3971 0.2909 -0.0012
3.1253 0.6178 -0.0076
3.0765 0.6658 -0.0087
2.9670 0.6939 -0.0104
3.0651 0.7951 -0.0100
3.0302 0.8498 -0.0110
1.6197 0.6428 -0.0276
1.8071 0.8802 -0.0273
1.4828 0.9241 -0.0319
1.7465 1.0587 -0.0297
2.1413 1.1908 -0.0257
2.0310 1.2630 -0.0277
1.8542 1.3361 -0.0307
2.5276 1.4374 -0.0228
2.5190 1.6352 -0.0247
2.6281 1.6912 -0.0237
2.6765 1.7468 -0.0236
0.6491 2.1476 -0.0538
1.2252 2.1550 -0.0463
1.3906 2.2115 -0.0446
1.6711 2.2360 -0.0411
1.8834 2.2628 -0.0386
2.0936 2.2802 -0.0360
2.2966 2.2899 -0.0334
2.4356 2.3089 -0.0318
4.4755 0.1540 -0.0167
4.4606 0.1758 -0.0172
4.4503 0.2060 -0.0176
4.4155 0.1972 -0.0190
4.3872 0.2011 -0.0201
4.3520 0.1968 -0.0214
4.3002 0.1715 -0.0234
4.2077 0.0947 -0.0270
4.0507 0.1187 -0.0330
4.0532 0.1779 -0.0329
4.0751 0.2564 -0.0321
4.1010 0.3358 -0.0311
3.8732 0.1617 -0.0398
3.7322 0.0880 -0.0452
3.6742 0.0998 -0.0475
3.7240 0.2074 -0.0456
3.6907 0.2418 -0.0469
3.6742 0.2904 -0.0475
3.5783 0.2805 -0.0512
3.5322 0.3115 -0.0530
3.3763 0.2720 -0.0590
3.3456 0.3209 -0.0602
3.0690 0.5922 -0.0709
2.7986 0.6326 -0.0813
3.0213 0.7802 -0.0728
2.9860 0.8365 -0.0742
1.9560 0.8174 -0.1138
1.9581 0.9098 -0.1138
1.9289 0.9957 -0.1149
2.0207 1.0968 -0.1114
2.0781 1.1880 -0.1092
2.3338 1.2894 -0.0994
2.2845 1.3616 -0.1013
2.3985 1.4387 -0.0970
1.7204 1.5108 -0.1231
1.6910 1.5974 -0.1242
1.8547 1.6743 -0.1180
2.6080 1.6981 -0.0890
2.6044 1.7596 -0.0891
0.2661 2.2136 -0.1793
0.3135 2.4233 -0.1775
0.4536 2.4997 -0.1721
2.0107 2.3102 -0.1121
2.2912 2.3003 -0.1013
2.3526 2.3418 -0.0990
4.4626 0.1686 -0.0486
4.4112 0.1306 -0.0523
4.3941 0.1526 -0.0532
4.3768 0.1751 -0.0541
4.3302 0.1545 -0.0573
4.2913 0.1491 -0.0598
4.1913 0.0620 -0.0670
4.1997 0.1286 -0.0659
4.0799 0.0872 -0.0739
4.0661 0.1279 -0.0744
4.1459 0.3754 -0.0672
3.6234 -0.0229 -0.1041
3.6866 0.1033 -0.0990
3.6952 0.1758 -0.0978
3.7806 0.3091 -0.0912
3.6776 0.2872 -0.0980
3.6012 0.3547 -0.1024
3.4014 0.2834 -0.1158
3.3595 0.3248 -0.1181
3.0840 0.5965 -0.1335
2.8677 0.6561 -0.1469
2.9128 0.7441 -0.1433
1.4835 0.8264 -0.2343
2.0976 1.0242 -0.1932
2.0112 1.0988 -0.1981
1.9828 1.1823 -0.1993
2.3935 1.4432 -0.1707
2.3918 1.5142 -0.1702
2.2521 1.5880 -0.1785
2.6411 1.7012 -0.1526
2.6375 1.7622 -0.1523
2.6857 1.8160 -0.1488
2.0303 2.4458 -0.1855
0.1923 3.6614 -0.2933
0.4905 3.6191 -0.2745
4.4380 0.1148 -0.0837
4.4157 0.1271 -0.0855
4.3780 0.1159 -0.0891
4.2857 0.0775 -0.0981
4.2221 0.0390 -0.1045
4.1634 0.3371 -0.1046
3.6903 0.0321 -0.1526
3.6184 0.0336 -0.1591
3.6900 0.1642 -0.1503
3.6905 0.2286 -0.1492
3.7686 0.3526 -0.1400
3.7452 0.3933 -0.1414
3.5860 0.3388 -0.1567
3.4264 0.2949 -0.1719
3.3848 0.3360 -0.1749
3.0255 0.5696 -0.2033
2.9721 0.6204 -0.2072
2.8317 0.6420 -0.2195
2.7542 0.6915 -0.2257
1.1895 0.6612 -0.3674
1.4666 0.8259 -0.3395
1.7747 0.9778 -0.3091
1.7438 1.0688 -0.3103
1.3972 1.5250 -0.3337
1.9228 1.6037 -0.2849
2.4046 1.6578 -0.2405
2.6204 1.7084 -0.2202
2.6881 1.7629 -0.2131
2.7339 1.8160 -0.2080
4.3636 0.1846 -0.1240
4.2778 0.3623 -0.1293
4.2557 0.3840 -0.1314
4.2294 0.4021 -0.1339
3.3926 -0.2616 -0.2490
3.4443 -0.1338 -0.2396
3.6591 0.1300 -0.2076
3.7265 0.2519 -0.1966
3.7500 0.3322 -0.1917
3.7019 0.3556 -0.1967
3.4288 0.2912 -0.2302
3.3759 0.3256 -0.2355
3.2837 0.3389 -0.2459
2.9782 0.5474 -0.2761
2.9057 0.5927 -0.2834
2.6984 0.5929 -0.3075
2.5695 0.6303 -0.3216
0.9712 0.2383 -0.5183
1.2422 0.4394 -0.4814
1.1560 0.5375 -0.4889
1.1183 0.6484 -0.4904
1.5718 0.8473 -0.4323
1.7628 0.9790 -0.4065
1.0710 1.5343 -0.4726
1.6521 1.6189 -0.4026
2.0303 1.6849 -0.3568
2.3545 1.7356 -0.3176
4.3508 0.3041 -0.1569
4.3266 0.3198 -0.1598
4.2873 0.3179 -0.1655
4.2794 0.3566 -0.1653
4.2497 0.3698 -0.1691
3.0072 -0.7440 -0.3867
2.9624 -0.6865 -0.3911
3.2668 -0.3062 -0.3339
3.6806 0.1414 -0.2588
3.7467 0.2621 -0.2450
3.7302 0.3106 -0.2457
3.4057 0.1995 -0.2961
3.4092 0.2726 -0.2930
3.4011 0.3367 -0.2919
3.2598 0.3200 -0.3128
1.9260 -0.2410 -0.5239
1.9284 -0.1243 -0.5195
2.2485 0.1354 -0.4644
2.9280 0.5239 -0.3532
2.8525 0.5702 -0.3624
2.7740 0.6187 -0.3719
2.4744 0.5983 -0.4156
1.8063 0.5901 -0.5117
1.8441 0.7014 -0.5024
1.7046 0.7719 -0.5199
1.7463 0.8810 -0.5100
1.9822 1.0149 -0.4715
2.0142 1.1091 -0.4635
1.7921 1.1758 -0.4930
1.6547 1.2586 -0.5098
1.6604 1.3531 -0.5056
2.1829 1.6076 -0.4217
2.4172 1.6687 -0.3859
2.3934 1.7387 -0.3869
2.4339 1.8019 -0.3788
0.6168 2.5181 -0.6141
0.5800 2.6264 -0.6156
0.3091 2.7962 -0.6484
0.3913 2.8757 -0.6338
0.4122 2.9689 -0.6275
0.5448 3.0234 -0.6066
0.6159 3.0924 -0.5939
0.5807 3.1958 -0.5953
0.5292 3.4833 -0.5925
4.4019 0.2717 -0.1846
4.2944 0.3670 -0.1987
3.1220 -0.7397 -0.4480
2.8676 -0.8993 -0.4985
3.3977 -0.2774 -0.3804
3.5066 -0.0947 -0.3537
3.6578 0.1139 -0.3186
3.6668 0.1886 -0.3137
3.6756 0.2610 -0.3090
3.3308 0.0638 -0.3766
3.4081 0.1951 -0.3575
3.4673 0.3065 -0.3425
3.3567 0.3034 -0.3615
3.2867 0.3315 -0.3722
2.2128 -0.0952 -0.5744
2.0211 -0.0836 -0.6065
2.3791 0.1916 -0.5332
2.9098 0.5139 -0.4283
2.8868 0.5818 -0.4292
2.7336 0.6029 -0.4544
2.4935 0.6038 -0.4953
2.1507 0.5876 -0.5545
2.0916 0.6664 -0.5611
1.9366 0.8217 -0.5806
1.9709 0.9233 -0.5702
2.0342 1.0256 -0.5548
2.0351 1.1150 -0.5507
1.8835 1.2789 -0.5693
2.2292 1.3815 -0.5057
2.4414 1.4627 -0.4659
2.4820 1.5336 -0.4558
2.4793 1.6028 -0.4532
2.4344 1.6736 -0.4577
2.4536 1.7399 -0.4515
2.4302 1.8089 -0.4524
2.4275 1.8751 -0.4499
2.0717 1.9953 -0.5052
1.7527 2.1241 -0.5539
1.2988 2.3795 -0.6199
1.2673 2.4724 -0.6211
1.2357 2.5653 -0.6224
1.2041 2.6582 -0.6236
1.1318 2.7636 -0.6312
1.1410 2.8439 -0.6261
1.1922 2.9080 -0.6145
1.2411 2.9697 -0.6034
1.2108 3.0589 -0.6046
1.1406 3.1643 -0.6119
1.1100 3.2544 -0.6131
1.0376 3.3630 -0.6206
0.9646 3.4734 -0.6281
3.5393 -1.2269 -0.4707
3.4370 -1.2825 -0.4940
3.7950 -0.2485 -0.3673
3.7343 -0.2464 -0.3792
3.6101 -0.3108 -0.4073
3.4432 -0.4107 -0.4457
3.5279 -0.2396 -0.4197
3.5825 -0.1077 -0.4018
3.6609 0.0396 -0.3783
3.7057 0.1485 -0.3636
3.7302 0.2350 -0.3541
3.6254 0.2143 -0.3759
3.2099 -0.0352 -0.4717
3.2027 0.0411 -0.4690
3.3673 0.2331 -0.4260
3.4289 0.3445 -0.4078
3.2894 0.3284 -0.4363
2.9337 0.1987 -0.5138
2.8352 0.2296 -0.5316
2.7910 0.2927 -0.5370
2.7660 0.3661 -0.5379
2.8740 0.4962 -0.5095
2.8322 0.5585 -0.5145
2.7706 0.6149 -0.5236
2.6663 0.6596 -0.5419
2.6620 0.7392 -0.5384
2.5062 0.7771 -0.5672
2.5253 0.8642 -0.5588
2.4998 0.9394 -0.5598
2.4048 1.0024 -0.5752
2.4486 1.0898 -0.5618
2.5773 1.1836 -0.5312
2.3975 1.2403 -0.5638
2.3243 1.3124 -0.5744
2.4834 1.3960 -0.5384
2.5436 1.4687 -0.5225
2.4784 1.5388 -0.5317
2.3872 1.6119 -0.5458
2.3405 1.6855 -0.5511
2.3616 1.7543 -0.5432
2.3599 1.8234 -0.5398
2.5257 1.8688 -0.5045
2.2174 1.9805 -0.5595
2.3106 2.0325 -0.5383
2.3089 2.0985 -0.5350
1.9295 2.2488 -0.6021
1.8735 2.3345 -0.6086
1.8762 2.4056 -0.6042
1.8197 2.4927 -0.6107
1.7627 2.5812 -0.6172
1.7356 2.6610 -0.6183
1.7990 2.7091 -0.6031
1.8863 2.7446 -0.5839
1.8608 2.8199 -0.5849
1.7498 2.9301 -0.6009
1.7236 3.0072 -0.6020
1.6363 3.1116 -0.6136
3.6042 -1.1436 -0.5239
3.6283 -1.0058 -0.5097
4.2973 0.2033 -0.2819
3.6728 -0.4104 -0.4619
3.6732 -0.3298 -0.4567
3.6540 -0.2733 -0.4575
3.6047 -0.2492 -0.4671
3.6552 -0.1195 -0.4474
3.5108 -0.1877 -0.4844
3.6653 0.1050 -0.4309
3.5914 0.1802 -0.4428
3.4334 0.1278 -0.4819
3.2467 0.0659 -0.5280
3.3067 0.1859 -0.5068
3.2723 0.2387 -0.5112
3.0910 0.2034 -0.5544
3.0027 0.2330 -0.5725
3.0768 0.3539 -0.5481
3.0386 0.4120 -0.5531
3.0000 0.4710 -0.5580
2.9773 0.5379 -0.5589
2.9373 0.5980 -0.5641
2.9144 0.6654 -0.5650
2.9257 0.7441 -0.5575
2.9200 0.8155 -0.5543
2.8636 0.8725 -0.5634
2.8580 0.9434 -0.5602
2.8181 1.0063 -0.5652
2.8129 1.0763 -0.5619
2.6982 1.1291 -0.5845
2.6550 1.1957 -0.5900
2.6893 1.2705 -0.5775
2.6662 1.3384 -0.5784
2.7000 1.4084 -0.5664
2.6200 1.4742 -0.5803
2.5163 1.5434 -0.5993
2.4717 1.6142 -0.6049
2.5108 1.6806 -0.5919
2.5076 1.7477 -0.5883
2.5453 1.8092 -0.5759
2.3736 1.9634 -0.6049
2.3937 2.0253 -0.5965
2.4333 2.0812 -0.5840
2.3892 2.1535 -0.5893
2.3875 2.2160 -0.5858
2.3646 2.2834 -0.5867
2.3634 2.3445 -0.5831
2.2969 2.4251 -0.5930
2.2518 2.5004 -0.5984
2.1829 2.5851 -0.6086
2.1593 2.6545 -0.6095
2.1120 2.7333 -0.6152
2.1121 2.7935 -0.6114
2.1126 2.8525 -0.6075
2.1123 2.9110 -0.6039
2.0413 3.0019 -0.6142
4.2874 0.1797 -0.3251
3.7774 -0.2191 -0.4839
3.6967 -0.2368 -0.5057
3.6487 -0.2128 -0.5161
3.5992 -0.1876 -0.5269
3.5690 -0.1406 -0.5311
3.6112 -0.0243 -0.5119
3.6783 0.1087 -0.4851
3.5526 0.0698 -0.5199
3.5334 0.1263 -0.5207
3.4705 0.1493 -0.5350
3.4950 0.2394 -0.5222
3.3599 0.2163 -0.5582
3.3762 0.3004 -0.5479
3.3308 0.3440 -0.5563
3.2985 0.3971 -0.5606
3.3523 0.4970 -0.5397
3.3684 0.5729 -0.5300
3.3253 0.6187 -0.5376
3.2807 0.6656 -0.5455
3.2861 0.7339 -0.5392
3.2411 0.7823 -0.5471
3.2470 0.8491 -0.5407
3.2274 0.9067 -0.5415
3.1685 0.9538 -0.5530
3.1486 1.0125 -0.5538
3.1687 1.0794 -0.5438
3.1221 1.1323 -0.5518
3.1023 1.1906 -0.5526
3.0403 1.2440 -0.5644
3.0201 1.3035 -0.5652
3.0429 1.3656 -0.5549
3.0089 1.4235 -0.5593
3.0449 1.4827 -0.5458
3.0255 1.5399 -0.5466
3.0060 1.5972 -0.5473
2.8988 1.6604 -0.5700
2.8480 1.7227 -0.5784
2.8424 1.7812 -0.5755
2.8382 1.8388 -0.5724
2.7693 1.9063 -0.5850
2.7323 1.9700 -0.5897
2.7407 2.0806 -0.5795
2.7539 2.1320 -0.5724
2.7169 2.1957 -0.5772
2.6796 2.2602 -0.5819
2.6078 2.3365 -0.5946
2.6735 2.3683 -0.5756
2.6535 2.4274 -0.5764
2.6158 2.4931 -0.5811
2.5070 2.5878 -0.6019
2.4832 2.7029 -0.5995
2.5148 2.7905 -0.5851
4.3303 0.1776 -0.3532
4.3107 0.2025 -0.3567
4.2839 0.2186 -0.3629
4.1922 0.2081 -0.3897
3.8501 0.0628 -0.4985
3.6916 0.0427 -0.5450
3.7262 0.1438 -0.5269
3.7424 0.2245 -0.5156
3.6736 0.2330 -0.5344
3.5490 0.2029 -0.5721
3.5089 0.2433 -0.5801
3.4897 0.2998 -0.5809
3.4813 0.3634 -0.5780
3.4622 0.4196 -0.5788
3.4541 0.4821 -0.5759
3.4463 0.5439 -0.5730
3.4305 0.6650 -0.5674
3.3782 0.7054 -0.5788
3.3593 0.7612 -0.5796
3.3403 0.8171 -0.5803
3.3450 0.8807 -0.5737
3.3143 0.9323 -0.5781
3.3187 0.9940 -0.5718
3.3001 1.0488 -0.5725
3.2331 1.0937 -0.5878
3.2513 1.1564 -0.5774
3.2326 1.2116 -0.5782
3.2012 1.2652 -0.5826
3.1951 1.3218 -0.5796
3.1764 1.3770 -0.5804
3.1576 1.4321 -0.5811
3.1632 1.4874 -0.5750
3.1324 1.5422 -0.5791
3.0880 1.5981 -0.5870
3.0952 1.6518 -0.5806
3.0765 1.7066 -0.5813
3.0579 1.7615 -0.5821
3.0393 1.8163 -0.5828
3.0206 1.8711 -0.5835
2.9890 1.9284 -0.5877
2.9834 1.9808 -0.5850
2.9648 2.0356 -0.5857
2.9461 2.0904 -0.5865
2.8995 2.1530 -0.5945
2.8806 2.2085 -0.5952
2.7982 2.3348 -0.6081
2.8090 2.3804 -0.6012
2.8204 2.4247 -0.5944
2.8157 2.4742 -0.5916
2.7675 2.5414 -0.5997
2.7331 2.6038 -0.6042
2.7142 2.6596 -0.6050
2.7267 2.7004 -0.5981
4.3643 0.1648 -0.3831
4.3491 0.1949 -0.3851
4.3127 0.1953 -0.3964
4.2853 0.2108 -0.4035
4.2533 0.2220 -0.4125
4.2526 0.2745 -0.4078
4.2515 0.3252 -0.4035
4.2151 0.3343 -0.4140
3.9647 0.1735 -0.5070
3.9364 0.2063 -0.5128
3.8128 0.1493 -0.5566
3.8344 0.2340 -0.5421
3.8179 0.2824 -0.5427
3.7621 0.2986 -0.5586
3.7771 0.3730 -0.5471
3.7766 0.4335 -0.5416
3.7603 0.4817 -0.5422
3.7513 0.5346 -0.5401
3.7276 0.5779 -0.5435
3.6859 0.6115 -0.5534
3.6699 0.7180 -0.5485
3.6621 0.7705 -0.5461
3.6704 0.8292 -0.5381
3.6205 0.8633 -0.5505
3.6131 0.9149 -0.5480
3.5786 0.9571 -0.5549
3.5977 1.0164 -0.5434
3.5815 1.0640 -0.5441
3.5112 1.0989 -0.5627
3.5576 1.1610 -0.5425
3.5330 1.2069 -0.5460
3.4611 1.2465 -0.5647
3.3940 1.2898 -0.5816
3.4365 1.3456 -0.5632
3.4199 1.3945 -0.5639
3.4331 1.4444 -0.5551
3.3776 1.4924 -0.5680
3.3700 1.5413 -0.5658
3.3636 1.5898 -0.5633
3.3274 1.6399 -0.5700
3.3107 1.6891 -0.5706
3.3035 1.7371 -0.5684
3.2868 1.7860 -0.5691
3.2809 1.8332 -0.5666
3.2439 1.8858 -0.5733
3.2043 1.9399 -0.5806
3.1995 1.9867 -0.5777
3.1827 2.0362 -0.5784
3.1425 2.0922 -0.5858
3.1816 2.1252 -0.5705
3.1323 2.1845 -0.5804
3.1029 2.2383 -0.5846
3.1102 2.2792 -0.5785
3.0935 2.3284 -0.5792
3.0160 2.4022 -0.5965
3.0540 2.4712 -0.5783
3.0266 2.5251 -0.5818
3.0099 2.5743 -0.5825
4.4279 0.1496 -0.4020
4.3610 0.2023 -0.4195
4.3067 0.1767 -0.4406
4.0822 -0.0126 -0.5368
4.0552 0.0168 -0.5430
4.1941 0.3551 -0.4608
4.1812 0.3932 -0.4613
4.1861 0.4492 -0.4538
3.9766 0.2981 -0.5409
3.8959 0.2826 -0.5701
3.8869 0.3353 -0.5677
3.8923 0.3991 -0.5594
3.8483 0.4226 -0.5720
3.8252 0.4640 -0.5756
3.8521 0.5407 -0.5585
3.7759 0.7150 -0.5667
3.7135 0.8988 -0.5691
3.7210 0.9532 -0.5610
3.6975 0.9958 -0.5646
3.6666 1.0367 -0.5710
3.6594 1.1342 -0.5634
3.5945 1.1694 -0.5819
3.5956 1.2190 -0.5765
3.5799 1.2652 -0.5771
3.5729 1.3124 -0.5746
3.5825 1.3605 -0.5664
3.5505 1.4048 -0.5728
3.5082 1.4497 -0.5826
3.5104 1.4962 -0.5771
3.5039 1.5420 -0.5746
3.4965 1.5873 -0.5725
3.4451 1.6355 -0.5851
3.4200 1.6828 -0.5888
3.4230 1.7272 -0.5833
3.4167 1.7720 -0.5808
3.3820 1.8212 -0.5876
3.4037 1.8603 -0.5762
3.3796 1.9077 -0.5795
3.3641 1.9534 -0.5801
3.3090 2.0096 -0.5932
3.3230 2.0477 -0.5845
3.3074 2.0937 -0.5851
3.2716 2.1463 -0.5919
3.2456 2.1963 -0.5957
3.2606 2.2315 -0.5869
3.2450 2.2775 -0.5875
3.2293 2.3234 -0.5882
3.1927 2.3784 -0.5950
3.1663 2.4296 -0.5988
3.1718 2.4663 -0.5931
3.1453 2.5177 -0.5969
4.4992 0.2090 -0.4067
4.4727 0.2139 -0.4160
4.4727 0.2637 -0.4104
4.4457 0.2701 -0.4197
4.2697 0.0547 -0.5094
4.2398 0.0698 -0.5188
4.2081 0.0843 -0.5290
4.1560 0.0739 -0.5495
4.1314 0.1026 -0.5554
4.1324 0.1638 -0.5481
4.1382 0.2287 -0.5386
4.1091 0.2529 -0.5467
4.1001 0.2998 -0.5448
4.1170 0.3726 -0.5302
4.1691 0.4763 -0.4992
4.0639 0.4295 -0.5435
4.0653 0.4840 -0.5369
4.0515 0.5247 -0.5374
4.0157 0.5481 -0.5481
4.0017 0.5895 -0.5486
3.9988 0.6387 -0.5441
3.9565 0.6610 -0.5573
3.9292 0.8437 -0.5469
3.8690 0.9594 -0.5561
3.8858 1.0122 -0.5440
3.8541 1.0470 -0.5518
3.8266 1.0841 -0.5578
3.8444 1.1341 -0.5456
3.8306 1.1748 -0.5461
3.8103 1.2141 -0.5492
3.7701 1.2504 -0.5600
3.7626 1.2929 -0.5580
3.7686 1.3365 -0.5509
3.7210 1.3745 -0.5643
3.7409 1.4182 -0.5520
3.7143 1.4586 -0.5573
3.7003 1.4998 -0.5578
3.6863 1.5409 -0.5584
3.6642 1.5825 -0.5619
3.6787 1.6217 -0.5521
3.6505 1.6638 -0.5578
3.6075 1.7085 -0.5687
3.6006 1.7491 -0.5667
3.5939 1.7894 -0.5647
3.5649 1.8337 -0.5704
3.5432 1.8771 -0.5736
3.5517 1.9135 -0.5663
3.5147 1.9610 -0.5747
3.4840 2.0077 -0.5809
3.4862 2.0449 -0.5758
3.4474 2.0950 -0.5846
3.4735 2.1232 -0.5717
3.4594 2.1648 -0.5723
3.4453 2.2063 -0.5728
3.4485 2.2407 -0.5677
3.3577 2.3151 -0.5931
3.3607 2.3501 -0.5880
3.3722 2.3804 -0.5803
3.3401 2.4311 -0.5865
4.5020 0.2025 -0.4421
4.5018 0.2523 -0.4360
4.4880 0.2784 -0.4383
4.2575 0.0840 -0.5549
4.2180 0.0871 -0.5704
4.2225 0.1520 -0.5606
4.2173 0.2022 -0.5565
4.1997 0.2365 -0.5594
4.1863 0.2761 -0.5599
4.1771 0.3205 -0.5581
4.1637 0.3599 -0.5586
4.1825 0.4321 -0.5422
4.1784 0.4789 -0.5380
4.1093 0.4649 -0.5676
4.1056 0.5135 -0.5631
4.1022 0.5614 -0.5585
4.0476 0.5681 -0.5796
4.0551 0.6246 -0.5697
4.0622 0.6790 -0.5601
4.0164 0.7933 -0.5644
4.0030 0.8327 -0.5649
3.9897 0.8722 -0.5655
3.9491 0.8988 -0.5785
3.9629 0.9510 -0.5665
3.9443 0.9883 -0.5694
3.9256 1.0259 -0.5723
3.9395 1.0747 -0.5607
3.9209 1.1120 -0.5635
3.9248 1.1557 -0.5566
3.8889 1.1889 -0.5669
3.8756 1.2281 -0.5675
3.8502 1.2653 -0.5731
3.8367 1.3048 -0.5736
3.8413 1.3464 -0.5667
3.8156 1.3844 -0.5723
3.7838 1.4228 -0.5804
3.7771 1.4629 -0.5781
3.7695 1.5026 -0.5763
3.7690 1.5419 -0.5717
3.7556 1.5811 -0.5722
3.7423 1.6203 -0.5727
3.7218 1.6603 -0.5760
3.6961 1.7013 -0.5813
3.7023 1.7380 -0.5743
3.6691 1.7807 -0.5824
3.6619 1.8192 -0.5805
3.6688 1.8542 -0.5734
3.6286 1.8999 -0.5840
3.6216 1.9379 -0.5821
3.5881 2.0191 -0.5856
3.5523 2.0663 -0.5941
3.5454 2.1041 -0.5922
3.5476 2.1383 -0.5871
3.5261 2.1812 -0.5905
3.5424 2.2086 -0.5806
3.5291 2.2478 -0.5811
3.5158 2.2870 -0.5816
3.4719 2.3408 -0.5926
3.4583 2.3807 -0.5932
4.5277 0.1864 -0.4693
4.5292 0.2396 -0.4615
4.5237 0.2789 -0.4587
4.4932 0.2764 -0.4722
4.4330 0.2291 -0.5045
4.3836 0.2047 -0.5292
4.3338 0.1844 -0.5535
4.3100 0.2052 -0.5609
4.2900 0.2324 -0.5660
4.2963 0.2944 -0.5549
4.2915 0.3405 -0.5509
4.2595 0.3538 -0.5629
4.2469 0.3910 -0.5634
4.2386 0.4327 -0.5614
4.2456 0.4898 -0.5508
4.2296 0.5225 -0.5533
4.2411 0.5809 -0.5406
4.2327 0.6198 -0.5390
4.1758 0.6176 -0.5639
4.1886 0.6748 -0.5507
4.1842 0.7167 -0.5470
4.1420 0.7314 -0.5633
4.1396 0.8192 -0.5526
4.1485 0.8677 -0.5423
4.1191 0.8936 -0.5515
4.0886 0.9203 -0.5612
4.0854 0.9612 -0.5571
4.0918 1.0056 -0.5484
4.0702 1.0375 -0.5534
4.0441 1.0684 -0.5606
4.0555 1.1127 -0.5498
4.0434 1.1484 -0.5503
4.0115 1.1788 -0.5600
3.9992 1.2151 -0.5605
4.0161 1.2572 -0.5475
3.9745 1.2876 -0.5614
3.9622 1.3239 -0.5619
3.9602 1.3613 -0.5578
3.9585 1.3981 -0.5536
3.9204 1.4324 -0.5655
3.9081 1.4688 -0.5660
3.8957 1.5052 -0.5665
3.8833 1.5416 -0.5669
3.8650 1.5783 -0.5700
3.8415 1.6158 -0.5751
3.8625 1.6490 -0.5616
3.8277 1.6880 -0.5714
3.8101 1.7253 -0.5741
3.8310 1.7560 -0.5609
3.7904 1.7977 -0.5729
3.7663 1.8369 -0.5781
3.7538 1.8737 -0.5786
3.7532 1.9073 -0.5744
3.7407 1.9439 -0.5749
3.7700 1.9672 -0.5591
3.7579 2.0028 -0.5596
3.7280 2.0447 -0.5669
3.6854 2.0923 -0.5790
3.6854 2.1239 -0.5747
3.6479 2.1709 -0.5847
3.6733 2.1912 -0.5710
3.6796 2.2187 -0.5646
3.6547 2.2606 -0.5698
3.6554 2.2901 -0.5655
4.4830 0.2486 -0.5171
4.4437 0.2355 -0.5372
4.4050 0.2268 -0.5565
4.3803 0.2423 -0.5657
4.3814 0.2960 -0.5574
4.3697 0.3306 -0.5579
4.3613 0.3696 -0.5561
4.3530 0.4083 -0.5544
4.3517 0.4550 -0.5483
4.3198 0.4659 -0.5615
4.3109 0.5037 -0.5602
4.2847 0.5235 -0.5694
4.2873 0.5729 -0.5611
4.2825 0.6587 -0.5510
4.2731 0.7375 -0.5439
4.2394 0.7967 -0.5510
4.1820 0.9258 -0.5590
4.1295 0.9804 -0.5755
4.1410 1.1406 -0.5471
