ply
format ascii 1.0
element vertex 2178
property float x
property float y
property float z
end_header
2.5118 -0.6517 -0.0758
2.4973 -0.6553 -0.0724
2.4826 -0.6595 -0.0671
2.4716 -0.6612 -0.0678
2.4620 -0.6621 -0.0704
2.4531 -0.6626 -0.0737
3.3379 -0.6874 0.5991
3.9630 -0.5583 0.5919
4.8062 -0.3869 0.5905
5.6144 -0.1023 0.2170
5.1491 -0.1834 0.1763
4.3286 -0.3400 0.1460
4.8244 -0.1682 -0.0745
4.6238 -0.2000 -0.1018
3.9128 -0.3490 -0.0869
3.7982 -0.3682 -0.0994
3.6339 -0.4057 -0.0866
3.5252 -0.4273 -0.0876
3.3822 -0.4630 -0.0670
3.3240 -0.4709 -0.0790
3.2512 -0.4852 -0.0804
3.0677 -0.5224 -0.0804
3.0095 -0.5360 -0.0749
2.9680 -0.5435 -0.0777
2.9177 -0.5558 -0.0712
2.8883 -0.5596 -0.0780
2.8492 -0.5685 -0.0750
2.8118 -0.5774 -0.0707
2.7805 -0.5842 -0.0695
2.7286 -0.5940 -0.0718
2.7041 -0.5989 -0.0718
2.6830 -0.6025 -0.0740
2.6567 -0.6096 -0.0685
2.6386 -0.6124 -0.0711
2.6216 -0.6150 -0.0738
2.6015 -0.6199 -0.0712
2.5851 -0.6229 -0.0722
2.5691 -0.6261 -0.0725
2.5482 -0.6330 -0.0642
2.5386 -0.6325 -0.0719
2.5260 -0.6343 -0.0740
2.5124 -0.6372 -0.0735
2.4979 -0.6412 -0.0702
2.4872 -0.6426 -0.0728
2.4762 -0.6445 -0.0738
2.4654 -0.6465 -0.0743
3.3210 -0.6627 0.6038
4.7701 -0.3288 0.6044
5.1800 -0.1216 0.2683
5.0063 -0.1416 0.2085
4.8286 -0.1652 0.1567
4.2397 -0.3064 0.1729
4.3053 -0.2689 0.1060
4.6506 -0.1464 -0.0220
4.7160 -0.1029 -0.1067
4.2009 -0.2219 -0.1060
3.8486 -0.3032 -0.1058
3.4449 -0.4167 -0.0448
3.3776 -0.4284 -0.0563
3.3151 -0.4394 -0.0665
3.2398 -0.4566 -0.0667
3.1294 -0.4785 -0.0773
3.0750 -0.4907 -0.0783
3.0135 -0.5073 -0.0713
2.9719 -0.5158 -0.0744
2.9409 -0.5202 -0.0827
2.8898 -0.5351 -0.0735
2.8429 -0.5489 -0.0643
2.8194 -0.5517 -0.0723
2.7978 -0.5539 -0.0807
2.7646 -0.5629 -0.0766
2.7344 -0.5710 -0.0731
2.7113 -0.5757 -0.0751
2.6894 -0.5801 -0.0768
2.6637 -0.5875 -0.0726
2.6469 -0.5898 -0.0772
2.6235 -0.5968 -0.0724
2.6068 -0.6000 -0.0745
2.5870 -0.6056 -0.0712
2.5742 -0.6068 -0.0765
2.5410 -0.6159 -0.0724
2.5259 -0.6199 -0.0706
2.5135 -0.6222 -0.0723
2.4883 -0.6282 -0.0718
2.4750 -0.6324 -0.0684
2.4664 -0.6326 -0.0736
3.3242 -0.6345 0.6108
5.0583 -0.0765 0.2946
4.8970 -0.0978 0.2360
4.2513 -0.2469 0.1846
4.1818 -0.2495 0.1405
4.7157 -0.0316 -0.0897
4.4941 -0.0829 -0.1068
4.2129 -0.1595 -0.0956
3.9403 -0.2383 -0.0716
3.7977 -0.2734 -0.0768
3.3819 -0.3903 -0.0496
3.3237 -0.4010 -0.0623
3.1856 -0.4351 -0.0667
3.0724 -0.4633 -0.0699
3.0306 -0.4719 -0.0762
2.9743 -0.4887 -0.0699
2.9327 -0.4991 -0.0708
2.8991 -0.5062 -0.0753
2.8607 -0.5167 -0.0738
2.8262 -0.5258 -0.0731
2.7947 -0.5341 -0.0728
2.7623 -0.5436 -0.0695
2.7185 -0.5519 -0.0782
2.6900 -0.5610 -0.0731
2.6699 -0.5653 -0.0757
2.6461 -0.5727 -0.0722
2.6269 -0.5775 -0.0727
2.6100 -0.5810 -0.0751
2.5902 -0.5872 -0.0720
2.5728 -0.5921 -0.0708
2.5577 -0.5957 -0.0717
2.5422 -0.6000 -0.0708
2.5258 -0.6055 -0.0672
2.5147 -0.6071 -0.0710
2.5031 -0.6093 -0.0734
2.4912 -0.6121 -0.0741
2.4783 -0.6161 -0.0720
2.4664 -0.6198 -0.0705
3.3215 -0.6161 0.6408
3.3208 -0.6078 0.6169
4.3018 -0.1736 0.1912
4.2791 -0.1610 0.1380
4.7741 0.0611 -0.0854
3.6036 -0.2726 -0.0904
3.2989 -0.3772 -0.0425
3.2975 -0.3640 -0.0802
3.2120 -0.3909 -0.0735
3.1503 -0.4081 -0.0751
3.1139 -0.4136 -0.0887
3.0026 -0.4474 -0.0833
2.9101 -0.4758 -0.0781
2.8669 -0.4899 -0.0733
2.8261 -0.5036 -0.0677
2.7644 -0.5217 -0.0667
2.7227 -0.5295 -0.0781
2.6863 -0.5448 -0.0647
2.6684 -0.5481 -0.0697
2.6247 -0.5619 -0.0661
2.6106 -0.5639 -0.0720
2.5961 -0.5664 -0.0764
2.5614 -0.5773 -0.0738
2.5295 -0.5879 -0.0698
2.5164 -0.5913 -0.0708
2.5024 -0.5959 -0.0690
2.4905 -0.5991 -0.0698
2.4783 -0.6029 -0.0689
2.4674 -0.6057 -0.0697
6.1548 0.0201 1.4103
3.3826 -0.5544 0.6064
4.7111 -0.0401 0.3479
4.2488 -0.1552 0.2658
4.8863 0.1501 -0.0158
4.5367 0.0410 -0.0183
4.1172 -0.0823 -0.0423
3.8386 -0.1605 -0.0678
3.7867 -0.1646 -0.1009
3.2944 -0.3451 -0.0323
3.2653 -0.3454 -0.0561
3.2298 -0.3495 -0.0753
3.1255 -0.3774 -0.0886
3.0501 -0.4059 -0.0758
3.0049 -0.4191 -0.0785
2.9210 -0.4447 -0.0807
2.8714 -0.4637 -0.0715
2.8414 -0.4717 -0.0756
2.7666 -0.4996 -0.0639
2.7503 -0.5006 -0.0750
2.7161 -0.5145 -0.0666
2.6934 -0.5210 -0.0681
2.6782 -0.5227 -0.0766
2.6501 -0.5344 -0.0688
2.6308 -0.5402 -0.0697
2.6186 -0.5407 -0.0786
2.5967 -0.5495 -0.0734
2.5779 -0.5564 -0.0708
2.5614 -0.5619 -0.0701
2.5471 -0.5658 -0.0716
2.5300 -0.5728 -0.0674
2.5157 -0.5776 -0.0663
2.5066 -0.5780 -0.0731
2.4905 -0.5855 -0.0665
2.4817 -0.5861 -0.0724
2.4685 -0.5916 -0.0689
2.4611 -0.5912 -0.0762
3.3714 -0.5285 0.6121
4.5783 -0.1085 0.5977
4.9397 0.0575 0.4881
4.7921 0.0313 0.4245
4.4970 -0.0503 0.3730
4.2705 -0.1118 0.3304
4.2727 -0.0904 0.2768
4.4204 0.0344 0.0835
4.2330 -0.0206 0.0590
4.1056 -0.0317 -0.0260
3.2968 -0.3378 0.0481
3.2801 -0.3323 0.0188
3.2705 -0.3233 -0.0135
3.2730 -0.3077 -0.0519
3.2228 -0.3203 -0.0639
3.1170 -0.3518 -0.0764
3.0582 -0.3728 -0.0743
3.0120 -0.3876 -0.0770
2.9700 -0.4010 -0.0799
2.8869 -0.4301 -0.0784
2.8459 -0.4458 -0.0740
2.8027 -0.4642 -0.0648
2.7784 -0.4705 -0.0702
2.7524 -0.4786 -0.0723
2.7312 -0.4838 -0.0777
2.7019 -0.4957 -0.0729
2.6739 -0.5074 -0.0674
2.6542 -0.5134 -0.0695
2.6321 -0.5218 -0.0673
2.6152 -0.5265 -0.0701
2.5999 -0.5303 -0.0740
2.5791 -0.5394 -0.0689
2.5645 -0.5435 -0.0712
2.5464 -0.5514 -0.0670
2.5355 -0.5528 -0.0729
2.5199 -0.5592 -0.0701
2.4933 -0.5689 -0.0687
2.4833 -0.5709 -0.0725
2.4701 -0.5767 -0.0691
4.4881 -0.0793 0.6068
4.7004 0.0177 0.5614
4.7264 0.0506 0.5025
4.3920 -0.0512 0.4455
4.2675 -0.0779 0.3959
4.2702 -0.0562 0.3437
4.2000 -0.0637 0.2966
4.2024 -0.0418 0.2437
3.3333 -0.3412 0.1833
3.3045 -0.3417 0.1575
3.3313 -0.3150 0.1151
3.2944 -0.3197 0.0922
3.2850 -0.3106 0.0605
3.2613 -0.3091 0.0344
3.2554 -0.2981 0.0011
3.2355 -0.2948 -0.0259
3.2329 -0.2817 -0.0613
3.1726 -0.3025 -0.0657
3.1227 -0.3183 -0.0726
3.0877 -0.3260 -0.0861
2.9763 -0.3706 -0.0781
2.9342 -0.3859 -0.0789
2.8891 -0.4044 -0.0745
2.8527 -0.4180 -0.0743
2.8200 -0.4299 -0.0750
2.7597 -0.4525 -0.0746
2.7111 -0.4691 -0.0783
2.6548 -0.4949 -0.0661
2.6388 -0.4987 -0.0716
2.6218 -0.5037 -0.0748
2.5894 -0.5138 -0.0798
2.5695 -0.5231 -0.0751
2.5532 -0.5295 -0.0741
2.5253 -0.5392 -0.0759
2.4956 -0.5527 -0.0697
2.4723 -0.5610 -0.0705
4.5082 0.0085 0.5687
4.2526 -0.0496 0.4600
3.3939 -0.3589 0.3747
3.3861 -0.3496 0.3443
3.3772 -0.3407 0.3137
3.3360 -0.3467 0.2881
3.3158 -0.3434 0.2601
3.3147 -0.3309 0.2284
3.3021 -0.3239 0.1988
3.2932 -0.3150 0.1683
3.2879 -0.3041 0.1364
3.2715 -0.2990 0.1078
3.2516 -0.2960 0.0807
3.2425 -0.2870 0.0498
3.2264 -0.2820 0.0217
3.2423 -0.2580 -0.0214
3.2148 -0.2597 -0.0443
3.2096 -0.2479 -0.0784
3.0958 -0.2911 -0.0842
3.0410 -0.3135 -0.0833
2.9826 -0.3397 -0.0763
2.9483 -0.3505 -0.0834
2.9015 -0.3713 -0.0785
2.8702 -0.3818 -0.0834
2.8275 -0.4018 -0.0763
2.7684 -0.4248 -0.0782
2.7124 -0.4484 -0.0752
2.6892 -0.4574 -0.0760
2.6651 -0.4679 -0.0740
2.6456 -0.4749 -0.0758
2.6244 -0.4841 -0.0742
2.6050 -0.4922 -0.0732
2.5900 -0.4968 -0.0768
2.5707 -0.5060 -0.0732
2.5557 -0.5116 -0.0743
2.5271 -0.5226 -0.0754
2.5129 -0.5286 -0.0745
2.5008 -0.5329 -0.0760
2.4866 -0.5399 -0.0726
2.4739 -0.5458 -0.0707
2.4643 -0.5484 -0.0738
4.5549 0.0420 0.6927
4.2832 -0.0240 0.5720
4.2977 0.0027 0.5233
4.2409 -0.0005 0.4729
3.4238 -0.3258 0.4116
3.3897 -0.3283 0.3828
3.3461 -0.3358 0.3560
3.3406 -0.3256 0.3261
3.3242 -0.3206 0.2975
3.3156 -0.3118 0.2677
3.3031 -0.3049 0.2384
3.2765 -0.3054 0.2126
3.2967 -0.2809 0.1749
3.2997 -0.2652 0.1405
3.2750 -0.2648 0.1143
3.2739 -0.2509 0.0802
3.2645 -0.2417 0.0486
3.2367 -0.2436 0.0248
3.2569 -0.2160 -0.0204
3.2369 -0.2131 -0.0477
3.2094 -0.2152 -0.0706
3.1532 -0.2372 -0.0759
3.0595 -0.2720 -0.0887
2.9896 -0.3078 -0.0749
2.9529 -0.3212 -0.0807
2.8998 -0.3479 -0.0715
2.8701 -0.3580 -0.0777
2.8289 -0.3780 -0.0722
2.8013 -0.3883 -0.0761
2.7749 -0.3982 -0.0795
2.7368 -0.4189 -0.0693
2.7181 -0.4238 -0.0766
2.6940 -0.4340 -0.0769
2.6685 -0.4464 -0.0736
2.6468 -0.4558 -0.0732
2.6230 -0.4681 -0.0683
2.6063 -0.4742 -0.0710
2.5925 -0.4778 -0.0765
2.5726 -0.4882 -0.0722
2.5581 -0.4934 -0.0744
2.5402 -0.5029 -0.0701
2.5300 -0.5044 -0.0770
2.5158 -0.5109 -0.0762
2.5002 -0.5195 -0.0716
2.4877 -0.5249 -0.0715
2.4789 -0.5262 -0.0775
2.4670 -0.5318 -0.0764
4.9664 0.0976 1.1523
4.7386 0.1064 0.8905
4.6894 0.1336 0.7755
4.5546 0.1014 0.7069
4.3534 0.0389 0.6382
4.2946 0.0347 0.5855
4.2492 0.0358 0.5349
3.3586 -0.3240 0.4222
3.3543 -0.3132 0.3929
3.3489 -0.3029 0.3633
3.3257 -0.3015 0.3354
3.3279 -0.2871 0.3044
3.3049 -0.2858 0.2771
3.2925 -0.2790 0.2481
3.3018 -0.2600 0.2141
3.3040 -0.2445 0.1807
3.3473 -0.2045 0.1343
3.3716 -0.1583 0.0530
3.4285 -0.1059 -0.0075
3.3750 -0.1224 -0.0261
3.3701 -0.1082 -0.0643
3.3196 -0.1242 -0.0807
3.0872 -0.2523 -0.0312
3.0420 -0.2702 -0.0377
3.0440 -0.2545 -0.0718
2.9528 -0.2952 -0.0745
2.8739 -0.3311 -0.0752
2.8333 -0.3516 -0.0707
2.8064 -0.3618 -0.0756
2.7770 -0.3749 -0.0765
2.7425 -0.3935 -0.0702
2.6911 -0.4175 -0.0692
2.6711 -0.4253 -0.0724
2.6556 -0.4292 -0.0797
2.6323 -0.4415 -0.0761
2.6128 -0.4506 -0.0757
2.5944 -0.4592 -0.0753
2.5744 -0.4702 -0.0712
2.5605 -0.4751 -0.0745
2.5445 -0.4830 -0.0734
2.5318 -0.4875 -0.0764
2.5134 -0.4993 -0.0687
2.4905 -0.5076 -0.0737
2.4783 -0.5134 -0.0732
2.4686 -0.5164 -0.0766
6.4992 0.4943 2.1038
4.9034 0.0933 1.2554
4.7421 0.0569 1.1605
4.7845 0.0946 1.1222
4.7272 0.0952 1.0581
4.7363 0.1213 1.0095
4.7291 0.1415 0.9564
4.7383 0.1686 0.9053
4.7820 0.2110 0.8581
4.5635 0.1418 0.7742
4.4678 0.1228 0.7120
4.3531 0.0938 0.6514
4.2944 0.0887 0.5984
3.3249 -0.3097 0.4308
3.3270 -0.2959 0.4020
3.3120 -0.2908 0.3740
3.3216 -0.2724 0.3434
3.3171 -0.2613 0.3135
3.5549 -0.0426 0.0828
3.5563 -0.0229 0.0402
3.4088 -0.0810 0.0090
3.5256 0.0156 -0.0801
3.4487 -0.0170 -0.0910
3.0986 -0.2295 0.0026
3.0575 -0.2305 -0.0403
3.0722 -0.2042 -0.0831
3.0078 -0.2395 -0.0745
2.9677 -0.2570 -0.0790
2.9159 -0.2854 -0.0722
2.8737 -0.3072 -0.0694
2.8476 -0.3163 -0.0774
2.7996 -0.3456 -0.0643
2.7769 -0.3535 -0.0714
2.7561 -0.3603 -0.0790
2.7221 -0.3802 -0.0716
2.6932 -0.3964 -0.0670
2.6738 -0.4039 -0.0712
2.6528 -0.4138 -0.0721
2.6349 -0.4211 -0.0753
2.6160 -0.4300 -0.0760
2.5956 -0.4412 -0.0731
2.5788 -0.4491 -0.0738
2.5611 -0.4587 -0.0717
2.5475 -0.4641 -0.0746
2.5311 -0.4733 -0.0719
2.5145 -0.4834 -0.0673
2.5041 -0.4863 -0.0722
2.4916 -0.4922 -0.0725
2.4805 -0.4968 -0.0744
6.2893 0.5181 2.0459
4.7334 0.0912 1.2203
4.7581 0.1227 1.1793
4.6871 0.1169 1.1118
4.6799 0.1362 1.0613
4.6248 0.1359 0.9998
4.7119 0.1957 0.9677
4.6723 0.2022 0.9086
4.6483 0.2155 0.8526
4.5927 0.2143 0.7923
4.4816 0.1866 0.7272
4.4588 0.1992 0.6740
4.3693 0.1793 0.6163
4.2843 0.1602 0.5619
3.2993 -0.2930 0.4388
3.2706 -0.2958 0.4124
3.2631 -0.2873 0.3853
3.2850 -0.2619 0.3547
3.3013 -0.2390 0.3231
3.6264 0.0241 0.1157
3.5906 0.0208 0.0824
3.5625 0.0221 0.0479
3.4431 -0.0386 0.0455
3.3847 -0.0603 0.0268
3.5026 0.0409 -0.0609
3.0984 -0.2005 0.0096
3.1852 -0.1185 -0.0714
3.1437 -0.1341 -0.0843
3.0835 -0.1657 -0.0832
3.0221 -0.2001 -0.0776
2.9676 -0.2305 -0.0727
2.9275 -0.2502 -0.0750
2.8951 -0.2643 -0.0808
2.8520 -0.2889 -0.0757
2.8211 -0.3037 -0.0782
2.7812 -0.3279 -0.0704
2.7575 -0.3379 -0.0754
2.7320 -0.3503 -0.0771
2.7085 -0.3615 -0.0792
2.6779 -0.3809 -0.0714
2.6534 -0.3949 -0.0685
2.6153 -0.4135 -0.0710
2.5974 -0.4224 -0.0718
2.5857 -0.4247 -0.0799
2.5660 -0.4370 -0.0755
2.5456 -0.4510 -0.0680
2.5316 -0.4576 -0.0693
2.5192 -0.4628 -0.0719
2.5052 -0.4705 -0.0709
2.4956 -0.4729 -0.0766
4.7331 0.1499 1.2343
4.6633 0.1434 1.1669
4.7342 0.1956 1.1383
4.7266 0.2156 1.0869
4.6633 0.2349 0.9724
4.5940 0.2269 0.9088
4.5709 0.2398 0.8546
4.5182 0.2384 0.7962
4.4724 0.2638 0.6891
4.4633 0.2835 0.6365
3.2657 -0.2822 0.4466
3.2574 -0.2742 0.4200
3.2460 -0.2679 0.3935
3.2475 -0.2540 0.3657
3.2175 -0.2589 0.3412
3.6757 0.0781 0.1574
3.6132 0.0574 0.1288
3.5720 0.0497 0.0973
3.6122 0.0975 0.0425
3.3944 -0.0349 0.0707
3.3526 -0.0468 0.0473
3.1183 -0.1712 0.0394
3.1582 -0.1244 -0.0138
3.1992 -0.0748 -0.0714
3.1403 -0.1054 -0.0749
3.0979 -0.1238 -0.0852
3.0420 -0.1549 -0.0841
2.9943 -0.1804 -0.0851
2.9297 -0.2226 -0.0706
2.8989 -0.2360 -0.0779
2.8270 -0.2753 -0.0780
2.7907 -0.2970 -0.0741
2.7646 -0.3097 -0.0774
2.7369 -0.3248 -0.0774
2.7084 -0.3418 -0.0745
2.6826 -0.3569 -0.0724
2.6608 -0.3685 -0.0731
2.6381 -0.3819 -0.0710
2.6244 -0.3857 -0.0789
2.6013 -0.4011 -0.0731
2.5844 -0.4098 -0.0742
2.5660 -0.4210 -0.0717
2.5523 -0.4270 -0.0749
2.5209 -0.4458 -0.0715
2.5069 -0.4539 -0.0706
2.4972 -0.4564 -0.0764
2.4821 -0.4672 -0.0711
0.9272 3.7650 1.3777
2.3019 3.6337 1.4920
3.6813 3.2515 1.5494
5.2881 2.5118 1.5487
3.0787 0.3429 0.8194
2.9817 0.2199 0.7810
2.9824 0.1911 0.7745
2.9632 0.1530 0.7638
2.9743 0.1323 0.7602
2.9605 0.1001 0.7513
2.9787 0.0843 0.7496
2.9776 0.0602 0.7440
2.9988 0.0465 0.7431
3.0080 0.0280 0.7398
3.0288 0.0146 0.7389
3.0549 0.0032 0.7391
0.9462 3.6010 1.2656
1.8113 2.0374 1.0213
1.8654 2.0727 1.0338
2.2844 3.5714 1.3852
3.0297 0.3081 0.7758
3.0026 0.2278 0.7565
2.9742 0.1827 0.7444
2.9597 0.1473 0.7357
2.9566 0.1195 0.7296
2.9340 0.0835 0.7200
2.9642 0.0737 0.7208
2.9718 0.0537 0.7173
3.0020 0.0439 0.7181
3.0219 0.0297 0.7170
3.0430 0.0161 0.7162
2.2768 0.8459 0.7831
3.0033 0.2877 0.7388
2.9637 0.2317 0.7251
2.9744 0.2078 0.7215
2.9558 0.1687 0.7126
2.9528 0.1398 0.7070
2.9575 0.0909 0.6982
2.9894 0.0814 0.6991
2.9787 0.0528 0.6929
2.9756 0.0289 0.6881
3.0056 0.0191 0.6888
3.0425 0.0118 0.6905
3.0554 -0.0047 0.6884
1.5646 0.4731 0.6361
1.5846 0.4505 0.6338
1.6045 0.4254 0.6311
2.2845 0.8699 0.7533
2.9208 0.2329 0.6933
2.9219 0.2032 0.6885
2.9162 0.1710 0.6827
2.9637 0.1690 0.6858
2.9493 0.1341 0.6790
2.9427 0.1048 0.6737
2.9542 0.0854 0.6713
2.9577 0.0629 0.6678
2.9679 0.0442 0.6654
2.9750 0.0247 0.6627
3.0050 0.0149 0.6632
3.0192 -0.0011 0.6616
3.0427 -0.0135 0.6612
1.8281 0.3929 0.6219
3.7335 3.6325 1.2024
3.8932 3.6809 1.2190
4.2847 3.6129 1.2327
2.9129 0.2243 0.6628
2.8934 0.1827 0.6556
2.9194 0.1690 0.6552
2.9533 0.1595 0.6559
2.9679 0.1397 0.6539
2.9713 0.1150 0.6506
2.9642 0.0862 0.6460
2.9655 0.0626 0.6427
2.9785 0.0449 0.6409
2.9962 0.0295 0.6398
3.0057 0.0112 0.6377
3.0334 0.0002 0.6378
3.0463 -0.0163 0.6362
1.7931 0.5761 0.6226
1.8144 0.5456 0.6199
2.2367 0.8575 0.6784
3.8253 3.5527 1.0838
4.0459 3.7060 1.1132
2.9708 0.2888 0.6446
2.8882 0.2054 0.6304
2.8899 0.1769 0.6271
2.9452 0.1513 0.6266
2.9540 0.1286 0.6243
2.9608 0.1059 0.6218
2.9644 0.0824 0.6191
2.9684 0.0599 0.6166
2.9790 0.0411 0.6148
2.9827 0.0200 0.6124
3.0090 0.0085 0.6123
3.0222 -0.0081 0.6109
3.0431 -0.0215 0.6103
1.5674 1.0081 0.6335
1.6545 0.9573 0.6316
1.7948 0.7438 0.6155
2.1845 0.8217 0.6375
2.2415 0.8762 0.6451
2.3630 1.0874 0.6706
3.8911 3.6857 0.9855
3.9444 3.5228 0.9712
2.9042 0.2427 0.6062
2.9098 0.2147 0.6037
2.9004 0.1792 0.5998
2.9201 0.1616 0.5988
2.9417 0.1454 0.5979
2.9678 0.1317 0.5975
2.9644 0.1036 0.5946
2.9719 0.0818 0.5927
2.9822 0.0621 0.5911
2.9857 0.0400 0.5890
2.9897 0.0188 0.5871
3.0032 0.0021 0.5859
3.0164 -0.0143 0.5848
3.0399 -0.0268 0.5844
1.4156 1.0927 0.6050
1.4459 1.0720 0.6042
1.4689 1.0895 0.6061
1.4948 1.0959 0.6072
1.5275 1.0633 0.6055
1.5858 1.0431 0.6054
1.6459 1.0114 0.6044
1.6748 1.0163 0.6055
1.7076 0.9386 0.6004
1.7656 0.7907 0.5904
1.7932 0.8128 0.5928
2.0062 1.6515 0.6627
1.9785 1.0846 0.6183
2.0201 1.1052 0.6210
2.0628 1.1206 0.6232
2.2034 0.8865 0.6086
2.2426 0.8847 0.6095
2.8105 1.8783 0.7002
2.8902 0.2301 0.5750
2.8841 0.1954 0.5722
2.8861 0.1671 0.5701
2.9165 0.1558 0.5700
2.9427 0.1420 0.5695
2.9574 0.1224 0.5684
2.9727 0.1036 0.5673
2.9792 0.0812 0.5658
2.9862 0.0598 0.5643
2.9725 0.0303 0.5617
2.9890 0.0145 0.5609
3.0026 -0.0022 0.5599
3.0132 -0.0196 0.5588
3.0367 -0.0320 0.5585
1.8354 1.2144 0.5852
1.9494 1.1931 0.5855
1.9920 1.2107 0.5870
2.0327 1.2056 0.5873
2.0741 1.2002 0.5875
2.4320 2.3332 0.6536
2.1425 0.8192 0.5677
2.1972 0.8739 0.5714
2.8880 0.2573 0.5467
2.8712 0.2144 0.5441
2.8847 0.1920 0.5431
2.8900 0.1656 0.5417
2.9053 0.1458 0.5409
2.9459 0.1397 0.5410
2.9573 0.1183 0.5400
2.9833 0.1046 0.5396
2.9722 0.0739 0.5378
2.9828 0.0542 0.5369
2.9866 0.0322 0.5357
3.0073 0.0178 0.5352
3.0097 -0.0035 0.5341
3.0205 -0.0210 0.5333
3.0402 -0.0350 0.5328
1.2059 2.1642 0.5745
1.2586 2.1235 0.5732
1.3135 2.0676 0.5715
1.5857 1.6209 0.5577
1.7247 1.0890 0.5412
1.9341 2.2441 0.5774
2.0025 2.3110 0.5795
2.0559 2.1997 0.5761
2.0573 1.7287 0.5614
2.2507 2.1800 0.5755
2.3209 2.1862 0.5758
2.4178 2.2965 0.5793
2.1196 0.7483 0.5308
2.1908 0.8605 0.5343
2.9019 0.1984 0.5141
2.8929 0.1634 0.5130
2.9018 0.1400 0.5123
2.9435 0.1074 0.5113
2.9693 0.0938 0.5109
2.9795 0.0732 0.5102
2.9697 0.0444 0.5093
2.9870 0.0283 0.5088
2.9977 0.0098 0.5083
3.0065 -0.0089 0.5077
3.0134 -0.0277 0.5071
3.0411 -0.0389 0.5068
1.2302 2.2227 0.5197
1.2761 2.2287 0.5192
1.3285 2.2010 0.5183
1.3689 2.2575 0.5183
1.4187 2.2638 0.5178
1.4843 2.1339 0.5160
1.6317 1.4539 0.5089
1.6790 1.2754 0.5070
1.7202 1.0816 0.5050
1.8073 2.3539 0.5139
1.8700 2.3627 0.5132
1.9346 2.3716 0.5125
2.0029 2.4018 0.5119
2.0628 2.3260 0.5106
2.0830 1.9642 0.5076
2.1465 1.9830 0.5070
2.2801 2.3740 0.5085
2.3611 2.4068 0.5078
2.4406 2.4171 0.5069
2.8695 0.2377 0.4848
2.8982 0.1923 0.4841
2.8797 0.1521 0.4840
2.8950 0.1324 0.4837
2.9276 0.1222 0.4832
2.9468 0.1050 0.4829
2.9762 0.0930 0.4824
2.9915 0.0744 0.4821
2.9906 0.0494 0.4819
2.9911 0.0259 0.4817
3.0158 0.0128 0.4813
3.0148 -0.0099 0.4812
3.0246 -0.0279 0.4809
3.0378 -0.0442 0.4806
1.2131 2.2614 0.4621
1.2566 2.2847 0.4607
1.3214 2.1893 0.4606
1.3739 2.1616 0.4598
1.4135 2.2342 0.4576
1.4643 2.2398 0.4563
1.5225 2.1767 0.4559
1.6717 1.3135 0.4660
1.8616 2.3488 0.4449
1.9273 2.3788 0.4429
1.9942 2.3874 0.4411
2.0608 2.3753 0.4397
2.0838 2.0166 0.4448
2.1412 1.9863 0.4439
2.2833 2.4277 0.4334
2.3471 2.3685 0.4328
2.4424 2.4499 0.4292
4.4939 2.5127 0.3783
4.6218 2.4960 0.3755
4.6771 2.0094 0.3819
2.8765 0.2385 0.4538
2.8987 0.1887 0.4540
2.8900 0.1540 0.4548
2.9024 0.1324 0.4548
2.9174 0.1129 0.4548
2.9467 0.1009 0.4542
3.0023 0.0751 0.4533
3.0017 0.0499 0.4537
2.9976 0.0244 0.4542
3.0125 0.0073 0.4541
3.0077 -0.0167 0.4546
3.0213 -0.0332 0.4546
3.0306 -0.0508 0.4546
1.7103 1.0973 0.4313
1.7434 1.1234 0.4290
1.7818 1.4705 0.4138
1.9697 2.1724 0.3788
2.0353 2.1975 0.3754
2.0658 1.9231 0.3852
2.2970 1.2179 0.4048
2.4812 1.4341 0.3894
2.7507 1.9472 0.3589
4.4810 2.4914 0.2733
4.4269 2.2858 0.2835
4.4886 2.2096 0.2842
5.0317 2.3017 0.2605
2.8666 0.2618 0.4218
2.8898 0.2105 0.4230
2.8599 0.1620 0.4261
2.8790 0.1439 0.4261
2.9237 0.1399 0.4246
2.9139 0.1071 0.4263
2.9364 0.0918 0.4260
2.9692 0.0814 0.4252
2.9846 0.0629 0.4254
3.0368 0.0606 0.4236
3.0127 0.0263 0.4258
3.0229 0.0071 0.4262
3.0146 -0.0184 0.4275
3.0207 -0.0376 0.4281
3.0487 -0.0490 0.4275
1.7411 0.9479 0.4017
2.0765 0.8998 0.3880
2.1146 0.8990 0.3862
2.1425 0.8592 0.3874
2.7066 1.8456 0.2960
4.4991 2.5039 0.1645
4.5023 2.3562 0.1738
4.4764 2.1897 0.1858
4.5074 2.0878 0.1908
4.5669 2.0164 0.1924
2.8589 0.2529 0.3906
2.8650 0.2234 0.3922
2.8750 0.1976 0.3933
2.8913 0.1765 0.3939
2.8860 0.1439 0.3962
2.9157 0.1316 0.3955
2.9214 0.1069 0.3968
2.9476 0.0931 0.3964
2.9518 0.0692 0.3977
2.9881 0.0603 0.3965
3.0068 0.0436 0.3966
3.0289 0.0285 0.3965
3.0346 0.0073 0.3976
3.0267 -0.0182 0.3996
3.0396 -0.0353 0.4001
3.0415 -0.0557 0.4013
1.6634 0.7487 0.3893
1.7360 0.9948 0.3629
1.8709 1.0176 0.3524
1.9062 1.0114 0.3508
2.0427 0.9326 0.3492
2.0696 0.8821 0.3520
2.1071 0.8804 0.3498
2.4857 1.6358 0.2590
2.5886 1.7356 0.2436
4.3962 2.3847 0.0725
4.4308 2.2746 0.0801
4.4929 2.1977 0.0830
4.5243 2.0950 0.0902
4.7370 2.1583 0.0712
5.0053 2.2580 0.0455
2.8550 0.2465 0.3591
2.8875 0.2338 0.3582
2.8852 0.1999 0.3613
2.8701 0.1603 0.3658
2.8855 0.1397 0.3667
2.8917 0.1149 0.3685
2.9036 0.0939 0.3696
2.9261 0.0786 0.3695
2.9553 0.0666 0.3688
2.9741 0.0499 0.3691
2.9997 0.0363 0.3687
3.0401 0.0286 0.3668
3.0586 0.0121 0.3671
3.0661 -0.0305 0.3704
3.0607 -0.0536 0.3728
1.7297 1.0821 0.3170
1.9981 0.9100 0.3162
2.0336 0.9025 0.3144
2.0673 0.8847 0.3138
2.5725 1.9003 0.1600
3.2008 3.0828 -0.0222
3.3499 3.1550 -0.0417
3.4487 3.1028 -0.0433
3.5071 2.9707 -0.0327
4.2733 2.2442 -0.0083
4.3353 2.1687 -0.0044
4.4522 2.1497 -0.0111
4.5710 2.1297 -0.0179
4.6615 2.0820 -0.0193
4.9197 2.1754 -0.0496
2.8549 0.2426 0.3270
2.8720 0.2201 0.3283
2.8665 0.1543 0.3362
2.8652 0.1246 0.3397
2.8882 0.1091 0.3397
2.9176 0.0969 0.3388
2.9226 0.0729 0.3412
2.9449 0.0577 0.3412
2.9624 0.0406 0.3418
3.0329 0.0214 0.3387
3.0663 0.0105 0.3374
3.0683 -0.0119 0.3398
3.0666 -0.0347 0.3425
1.5644 0.6012 0.3596
1.5771 0.6448 0.3524
1.5898 0.7030 0.3432
1.6099 0.7237 0.3385
1.6893 1.1303 0.2749
1.7250 1.0801 0.2787
2.0163 3.2864 -0.0539
2.0808 1.7703 0.1510
2.1114 1.0964 0.2419
2.6199 1.8368 0.0936
2.8952 2.3347 -0.0001
3.1577 2.7229 -0.0775
3.2154 2.6130 -0.0674
3.3173 2.5995 -0.0746
3.3871 2.5223 -0.0701
3.4561 2.4479 -0.0659
3.5411 2.4030 -0.0673
3.6446 2.3864 -0.0742
3.7305 2.3411 -0.0756
3.7961 2.2684 -0.0714
3.8811 2.2235 -0.0727
3.9661 2.1786 -0.0741
4.0739 2.1598 -0.0811
4.1847 2.1415 -0.0884
4.2211 2.0440 -0.0781
4.3061 1.9991 -0.0795
4.3395 1.9065 -0.0696
4.4761 1.9094 -0.0822
4.6471 1.9366 -0.1012
4.7347 1.8903 -0.1026
4.8223 1.8440 -0.1040
2.8759 0.2186 0.2956
2.8730 0.1541 0.3049
2.9033 0.1414 0.3039
2.8985 0.1104 0.3087
2.9108 0.0894 0.3105
2.9224 0.0687 0.3123
2.9517 0.0566 0.3114
2.9706 0.0399 0.3120
2.9844 0.0214 0.3133
3.0382 -0.0271 0.3153
3.0374 -0.0490 0.3184
3.0436 -0.0679 0.3205
1.5326 0.6426 0.3310
1.5567 0.6222 0.3319
1.7200 1.0848 0.2390
1.8277 3.1715 -0.1154
1.9131 3.1997 -0.1289
1.9997 3.1918 -0.1365
2.0846 3.1469 -0.1378
2.0659 1.7034 0.1016
2.1574 1.9118 0.0580
2.4365 1.9555 0.0221
2.4391 1.7275 0.0593
2.5016 1.7123 0.0554
2.6054 1.8063 0.0292
2.6290 1.6805 0.0475
2.9418 2.0354 -0.0430
3.2142 2.2050 -0.0989
3.2378 2.0714 -0.0794
3.4467 1.9322 -0.0780
3.6438 1.9170 -0.0957
3.7370 1.8978 -0.1021
3.8323 1.8787 -0.1088
3.8528 1.7767 -0.0941
3.8901 1.6981 -0.0850
4.0033 1.6973 -0.0965
4.0992 1.6766 -0.1030
4.3042 1.5384 -0.1013
4.3335 1.4640 -0.0921
2.8681 0.2098 0.2649
2.8927 0.1924 0.2653
2.8724 0.1497 0.2744
2.8892 0.1297 0.2759
2.8811 0.0974 0.2821
2.8964 0.0782 0.2837
2.9334 0.0697 0.2813
2.9414 0.0478 0.2841
2.9671 0.0342 0.2837
3.0000 0.0235 0.2820
3.0150 0.0056 0.2834
3.0407 -0.0080 0.2830
3.0664 -0.0216 0.2826
3.0921 -0.0351 0.2822
1.5411 0.5819 0.3156
1.7157 1.0648 0.2033
1.8552 1.9680 0.0150
1.9106 1.9234 0.0170
1.9665 1.8938 0.0162
2.0207 1.8487 0.0184
2.0606 1.7051 0.0411
2.1293 1.7748 0.0199
2.1138 1.1383 0.1429
2.3773 1.5378 0.0361
2.6481 1.9314 -0.0704
2.7203 1.9153 -0.0758
2.7627 1.8278 -0.0640
2.8030 1.7436 -0.0527
2.8496 1.6793 -0.0459
2.9725 1.7601 -0.0756
3.0276 1.7089 -0.0722
3.1023 1.6916 -0.0776
3.1564 1.6409 -0.0743
3.2320 1.6231 -0.0797
3.2851 1.5730 -0.0763
3.3741 1.5702 -0.0862
3.4267 1.5203 -0.0828
3.4657 1.4567 -0.0752
3.5564 1.4518 -0.0849
3.6071 1.4030 -0.0815
3.6714 1.3690 -0.0825
3.7358 1.3350 -0.0835
3.7703 1.2749 -0.0761
3.8646 1.2670 -0.0856
3.9457 1.2463 -0.0911
4.0278 1.2250 -0.0966
2.8720 0.2082 0.2318
2.8809 0.1814 0.2358
2.8657 0.1419 0.2451
2.8825 0.1220 0.2469
2.8776 0.0915 0.2533
2.8896 0.0708 0.2559
2.9154 0.0572 0.2555
2.9197 0.0340 0.2594
2.9485 0.0220 0.2583
3.1047 0.0356 0.2375
3.0767 0.0007 0.2474
3.0868 -0.0190 0.2500
3.0963 -0.0383 0.2526
1.4643 1.7017 0.0580
1.5102 1.6774 0.0573
1.5583 1.6312 0.0611
1.6021 1.6289 0.0558
1.6560 1.4579 0.0859
1.8465 1.9243 -0.0400
1.9020 1.8949 -0.0409
1.9526 1.8057 -0.0282
2.0199 1.8985 -0.0571
2.0308 1.1964 0.0937
2.0633 1.1278 0.1043
2.0955 1.0702 0.1126
2.1399 1.0709 0.1067
2.1796 1.0499 0.1061
2.2443 1.1112 0.0844
2.6251 1.6843 -0.0895
2.6911 1.6681 -0.0946
2.6917 1.5098 -0.0604
2.7480 1.4801 -0.0613
2.8402 1.5169 -0.0813
2.9403 1.4290 -0.0753
2.9977 1.3987 -0.0762
3.1982 1.2424 -0.0685
3.2254 1.1798 -0.0584
3.3320 1.2058 -0.0779
3.4224 1.2096 -0.0906
3.4917 1.1050 -0.0769
3.5358 1.0641 -0.0738
3.6051 1.0451 -0.0787
3.6868 1.0349 -0.0872
3.7717 1.0252 -0.0961
2.8824 0.2106 0.1964
2.8702 0.1710 0.2065
2.8691 0.1398 0.2134
2.8540 0.1028 0.2234
2.8835 0.0905 0.2222
2.9034 0.0734 0.2234
2.9330 0.0611 0.2222
2.9344 0.0363 0.2274
3.1987 0.0667 0.1863
3.2234 0.0492 0.1869
3.2316 0.0263 0.1908
1.3813 1.9095 -0.0345
1.4293 1.8972 -0.0384
1.4674 1.9730 -0.0624
1.5153 1.9913 -0.0737
1.5711 1.9324 -0.0675
1.6580 1.3136 0.0706
1.7043 1.1072 0.1141
1.8360 1.8219 -0.0788
1.8856 1.7239 -0.0621
1.9445 1.2473 0.0453
1.9851 1.2171 0.0468
2.0523 1.0891 0.0683
2.0934 1.0761 0.0655
2.1418 1.0919 0.0547
2.1802 1.0629 0.0562
2.2120 1.0135 0.0636
2.2537 0.9991 0.0611
2.4645 1.2875 -0.0395
2.5543 1.3566 -0.0693
2.6111 1.3408 -0.0737
2.6573 1.3023 -0.0710
2.7207 1.2971 -0.0789
2.7666 1.2587 -0.0762
2.8184 1.2314 -0.0770
2.8771 1.2145 -0.0814
2.9293 1.1870 -0.0822
2.9739 1.1493 -0.0795
3.0257 1.1219 -0.0803
3.0939 1.1142 -0.0883
3.1129 1.0486 -0.0751
3.1723 1.0304 -0.0792
3.2605 1.0404 -0.0944
3.2943 0.9943 -0.0880
3.3563 0.9757 -0.0925
3.4088 0.9480 -0.0933
3.4612 0.9203 -0.0941
3.5137 0.8926 -0.0950
3.5551 0.8566 -0.0922
2.8642 0.1954 0.1685
2.8834 0.1438 0.1783
2.8711 0.1078 0.1888
2.8947 0.0921 0.1893
2.8826 0.0593 0.1990
2.9051 0.0441 0.1994
2.9309 0.0305 0.1990
3.2356 0.0755 0.1441
3.2391 0.0497 0.1498
3.2966 0.0433 0.1431
3.6683 0.1379 0.0664
3.6728 0.1082 0.0730
1.3699 1.9267 -0.0964
1.4205 1.9000 -0.0972
1.4693 1.8884 -0.1018
1.5217 1.8466 -0.0989
1.5766 1.7668 -0.0860
1.6335 1.6188 -0.0550
1.6985 1.1258 0.0680
1.7351 1.0805 0.0744
1.8126 1.2613 0.0132
1.8542 1.2567 0.0079
1.9006 1.3036 -0.0122
1.9561 1.4052 -0.0484
1.9967 1.3416 -0.0377
2.0512 1.1030 0.0182
2.0864 1.0595 0.0244
2.2304 1.2604 -0.0528
2.2761 1.2363 -0.0535
2.3041 1.1587 -0.0370
2.3111 1.0328 -0.0041
2.3224 0.9349 0.0206
2.5333 1.1773 -0.0784
2.5718 1.1343 -0.0729
2.6187 1.1095 -0.0736
2.6810 1.1112 -0.0840
2.7654 1.0439 -0.0792
2.8010 1.0024 -0.0736
2.8598 0.9941 -0.0807
2.8944 0.9531 -0.0751
2.9474 0.9360 -0.0789
2.9813 0.8964 -0.0735
3.0413 0.8864 -0.0804
3.0960 0.8694 -0.0844
3.2062 0.8339 -0.0923
3.2540 0.8087 -0.0931
3.2929 0.7763 -0.0905
3.3321 0.7448 -0.0882
3.3699 0.7129 -0.0856
2.8455 0.2130 0.1328
2.8907 0.2075 0.1271
2.8587 0.1562 0.1460
2.8657 0.1298 0.1521
2.8644 0.1002 0.1603
2.8806 0.0809 0.1629
2.8791 0.0535 0.1706
2.9082 0.0414 0.1692
3.1855 0.1070 0.1075
3.1963 0.0829 0.1123
3.2051 0.0588 0.1174
3.2350 0.0430 0.1169
3.2712 0.0293 0.1149
1.4034 1.6728 -0.0868
1.4523 1.6255 -0.0812
1.4929 1.6363 -0.0915
1.5410 1.5894 -0.0858
1.5881 1.5442 -0.0805
1.6361 1.4694 -0.0665
1.6966 1.0463 0.0489
1.7316 1.0042 0.0554
1.7658 1.0409 0.0386
1.8559 1.3920 -0.0816
1.9004 1.3685 -0.0823
1.9431 1.3266 -0.0772
1.9871 1.3034 -0.0779
2.1192 1.2336 -0.0800
2.1612 1.2018 -0.0778
2.2073 1.1871 -0.0814
2.2464 1.1472 -0.0763
2.2845 1.1077 -0.0711
2.3306 1.0930 -0.0747
2.3511 0.8931 -0.0187
2.4431 0.9864 -0.0624
2.5118 1.0167 -0.0834
2.5475 0.9785 -0.0782
2.5823 0.9408 -0.0730
2.6432 0.9473 -0.0855
2.6870 0.9242 -0.0862
2.7209 0.8869 -0.0809
2.7643 0.8640 -0.0816
2.8077 0.8411 -0.0823
2.8567 0.8249 -0.0860
2.9003 0.8019 -0.0867
2.9560 0.7918 -0.0933
2.9937 0.7623 -0.0910
3.0180 0.7204 -0.0828
3.0679 0.7038 -0.0865
3.1043 0.6749 -0.0842
3.1546 0.6580 -0.0878
3.1757 0.6178 -0.0795
3.2337 0.6065 -0.0862
3.2542 0.5678 -0.0782
2.8535 0.2141 0.0964
2.8668 0.1888 0.1017
2.8580 0.1215 0.1232
2.8781 0.1034 0.1251
2.8770 0.0749 0.1338
2.8788 0.0493 0.1411
2.9442 0.0534 0.1286
3.0934 0.0918 0.0913
3.1275 0.0781 0.0895
3.1618 0.0643 0.0877
3.2011 0.0521 0.0845
3.2261 0.0346 0.0854
3.2360 0.0122 0.0903
1.5975 1.3595 -0.0758
1.6401 1.3125 -0.0685
1.7290 0.9134 0.0447
1.7610 0.9167 0.0376
1.7969 1.0397 -0.0091
1.8419 1.2144 -0.0745
1.8841 1.2167 -0.0831
1.9229 1.1717 -0.0758
1.9708 0.9095 0.0006
2.0404 1.0851 -0.0696
2.0862 1.0929 -0.0808
2.1269 1.0715 -0.0814
2.2773 0.9515 -0.0706
2.3170 0.9306 -0.0713
2.3354 0.8600 -0.0518
2.3904 0.8758 -0.0672
2.4458 0.8871 -0.0813
2.4794 0.8533 -0.0766
2.5193 0.8323 -0.0773
2.6028 0.7957 -0.0810
2.6265 0.7511 -0.0710
2.6744 0.7419 -0.0770
2.7189 0.7269 -0.0804
2.7631 0.7110 -0.0836
2.8181 0.7065 -0.0924
2.8386 0.6637 -0.0824
2.8890 0.6531 -0.0884
2.9184 0.6215 -0.0836
2.9583 0.6005 -0.0843
3.0037 0.5840 -0.0874
3.0318 0.5531 -0.0826
3.0781 0.5373 -0.0862
3.1180 0.5162 -0.0868
3.1379 0.4811 -0.0791
2.9562 0.3135 0.0096
2.8965 0.2372 0.0456
2.9489 0.2341 0.0368
2.8405 0.1376 0.0885
2.8582 0.1176 0.0917
2.8530 0.0862 0.1029
2.8630 0.0639 0.1083
2.8817 0.0465 0.1104
2.9909 0.0699 0.0823
3.0703 0.0771 0.0651
3.1235 0.0715 0.0569
3.1671 0.0612 0.0520
3.2077 0.0494 0.0483
3.2379 0.0335 0.0478
3.2519 0.0122 0.0521
3.2449 -0.0151 0.0623
1.5928 0.7776 0.0816
1.6800 1.1799 -0.0783
1.7569 0.8394 0.0265
1.8302 1.0646 -0.0679
1.8692 1.0726 -0.0787
1.9070 1.0526 -0.0793
1.9392 0.9869 -0.0626
1.9620 0.8742 -0.0273
2.0555 0.9604 -0.0768
2.0930 0.9407 -0.0774
2.1287 0.9144 -0.0753
2.1641 0.8883 -0.0733
2.2012 0.8687 -0.0739
2.2405 0.8553 -0.0771
2.2847 0.8532 -0.0853
2.3125 0.8099 -0.0756
2.3496 0.7903 -0.0762
2.3817 0.7607 -0.0722
2.4269 0.7569 -0.0801
2.4609 0.7316 -0.0780
2.5015 0.7176 -0.0813
2.5320 0.6877 -0.0769
2.5722 0.6728 -0.0798
2.6059 0.6486 -0.0781
2.6464 0.6336 -0.0809
2.6835 0.6140 -0.0815
2.7296 0.6045 -0.0875
2.7537 0.5706 -0.0804
2.7907 0.5511 -0.0810
2.8276 0.5316 -0.0816
2.8601 0.5081 -0.0799
2.8916 0.4841 -0.0777
2.9337 0.4692 -0.0810
2.9967 0.4699 -0.0940
3.0520 0.4630 -0.1028
3.0901 0.4428 -0.1034
3.1157 0.4145 -0.0985
3.0829 0.3502 -0.0692
2.8773 0.1545 0.0417
2.8793 0.1249 0.0518
2.8667 0.0891 0.0669
2.8698 0.0631 0.0755
2.9443 0.0715 0.0575
3.0929 0.1107 0.0135
3.1679 0.1135 -0.0027
3.2513 0.0599 -0.0006
3.2933 0.0472 -0.0047
1.6645 0.8201 0.0164
1.6940 0.8045 0.0160
1.7236 0.7889 0.0155
1.7532 0.7596 0.0203
1.7824 0.7494 0.0178
1.8573 0.9614 -0.0795
1.8925 0.9428 -0.0801
1.9231 0.8846 -0.0645
1.9512 0.8245 -0.0476
1.9863 0.8176 -0.0526
2.1041 0.8311 -0.0835
2.1378 0.8070 -0.0816
2.1647 0.7633 -0.0707
2.1972 0.7399 -0.0689
2.2373 0.7366 -0.0763
2.2720 0.7183 -0.0769
2.2981 0.6814 -0.0684
2.3389 0.6767 -0.0755
2.3637 0.6404 -0.0671
2.4107 0.6450 -0.0791
2.4346 0.6092 -0.0706
2.4714 0.5951 -0.0732
2.5029 0.5732 -0.0717
2.5461 0.5672 -0.0788
2.5677 0.5327 -0.0703
2.6084 0.5228 -0.0754
2.6465 0.5090 -0.0784
2.6770 0.4866 -0.0765
2.7078 0.4650 -0.0750
2.7376 0.4430 -0.0730
2.7798 0.4323 -0.0781
2.8186 0.4181 -0.0812
2.8530 0.3999 -0.0817
2.8964 0.3886 -0.0868
2.9403 0.3770 -0.0919
2.9753 0.3585 -0.0925
2.9951 0.3302 -0.0860
3.0151 0.3028 -0.0799
2.9310 0.2146 -0.0279
2.8879 0.1563 0.0038
2.8795 0.1207 0.0192
2.8813 0.0924 0.0296
2.9088 0.0779 0.0292
3.1466 0.1607 -0.0542
3.2247 0.1637 -0.0723
3.2815 0.1558 -0.0817
3.3030 0.1329 -0.0776
3.3437 0.1177 -0.0807
3.3645 0.0951 -0.0766
3.3787 0.0708 -0.0704
3.4515 0.0661 -0.0844
3.4792 0.0462 -0.0828
3.4719 0.0163 -0.0698
1.5225 0.9992 -0.0602
1.5539 0.9879 -0.0629
1.5863 0.9708 -0.0634
1.6191 0.9482 -0.0618
1.6492 0.9585 -0.0730
1.6818 0.9465 -0.0757
1.7166 0.8717 -0.0530
1.7491 0.7667 -0.0174
1.7783 0.7335 -0.0106
1.8112 0.8165 -0.0524
1.8462 0.8545 -0.0761
1.8786 0.8322 -0.0745
1.9113 0.8149 -0.0750
1.9431 0.7918 -0.0729
1.9775 0.7852 -0.0782
2.0094 0.7631 -0.0766
2.0431 0.7505 -0.0793
2.0748 0.7286 -0.0776
2.1127 0.7294 -0.0868
2.1445 0.7074 -0.0852
2.1710 0.6715 -0.0766
2.2035 0.6543 -0.0771
2.2328 0.6294 -0.0737
2.2667 0.6157 -0.0759
2.2934 0.5870 -0.0704
2.3276 0.5742 -0.0731
2.3988 0.5512 -0.0802
2.4314 0.5340 -0.0807
2.4672 0.5214 -0.0839
2.4914 0.4929 -0.0778
2.5150 0.4648 -0.0717
2.5530 0.4551 -0.0766
2.5821 0.4346 -0.0750
2.6267 0.4309 -0.0838
2.6558 0.4103 -0.0821
2.6883 0.3932 -0.0827
2.7361 0.3898 -0.0924
2.7425 0.3499 -0.0775
2.7785 0.3361 -0.0802
2.8180 0.3247 -0.0847
2.8504 0.3076 -0.0852
2.8828 0.2904 -0.0858
2.9029 0.2652 -0.0801
2.9477 0.2562 -0.0868
2.9362 0.2131 -0.0664
2.8840 0.1498 -0.0282
2.8678 0.1103 -0.0082
2.8886 0.0919 -0.0055
3.1592 0.1613 -0.0970
3.1649 0.1321 -0.0864
3.2027 0.1174 -0.0891
3.2395 0.1021 -0.0914
3.2777 0.0872 -0.0942
3.3292 0.0767 -0.1019
3.3368 0.0508 -0.0930
3.3692 0.0336 -0.0935
3.3966 0.0150 -0.0922
3.4225 -0.0039 -0.0905
1.5272 0.9374 -0.0739
1.5597 0.9110 -0.0703
1.5910 0.8903 -0.0689
1.6202 0.8883 -0.0754
1.6825 0.8513 -0.0745
1.7143 0.8117 -0.0650
1.7450 0.7685 -0.0536
1.7745 0.7311 -0.0444
1.8022 0.6760 -0.0271
1.9916 0.6881 -0.0794
2.0244 0.6801 -0.0841
2.0522 0.6509 -0.0781
2.0807 0.6265 -0.0745
2.1090 0.6033 -0.0713
2.1434 0.5986 -0.0777
2.1801 0.5979 -0.0866
2.2001 0.5552 -0.0727
2.2254 0.5283 -0.0672
2.2608 0.5231 -0.0737
2.2833 0.4926 -0.0658
2.3233 0.4943 -0.0765
2.3495 0.4711 -0.0728
2.3777 0.4521 -0.0714
2.4030 0.4294 -0.0677
2.4379 0.4203 -0.0724
2.4628 0.3978 -0.0687
2.4982 0.3885 -0.0733
2.5391 0.3845 -0.0818
2.5815 0.3808 -0.0907
2.6064 0.3583 -0.0869
2.6280 0.3334 -0.0813
2.6584 0.3174 -0.0818
2.6821 0.2955 -0.0781
2.7334 0.2964 -0.0913
2.7603 0.2771 -0.0894
2.7836 0.2554 -0.0857
2.8262 0.2475 -0.0927
2.8527 0.2283 -0.0909
2.8798 0.2098 -0.0895
2.9226 0.2007 -0.0961
2.9326 0.1726 -0.0862
2.9130 0.1300 -0.0626
2.9382 0.1126 -0.0612
2.9931 0.1095 -0.0735
3.0449 0.1039 -0.0839
3.0892 0.0941 -0.0905
3.1010 0.0702 -0.0829
3.1266 0.0525 -0.0815
3.1613 0.0384 -0.0839
3.2020 0.0262 -0.0887
3.2107 0.0029 -0.0806
3.2898 0.0027 -0.1001
3.2981 -0.0204 -0.0920
3.3171 -0.0397 -0.0882
1.5095 0.8542 -0.0685
1.5385 0.8389 -0.0690
1.5680 0.8202 -0.0680
1.5946 0.8226 -0.0762
1.6225 0.8202 -0.0825
1.6529 0.7960 -0.0791
1.6826 0.7762 -0.0776
1.7121 0.7554 -0.0756
1.7413 0.7400 -0.0761
1.7703 0.7051 -0.0674
1.7981 0.6585 -0.0528
1.8271 0.6628 -0.0625
1.8572 0.6675 -0.0726
1.8864 0.6552 -0.0745
1.9165 0.6475 -0.0789
1.9439 0.6217 -0.0740
1.9721 0.6027 -0.0725
2.0024 0.5939 -0.0764
2.0314 0.5786 -0.0769
2.0596 0.5606 -0.0758
2.0863 0.5383 -0.0724
2.1175 0.5301 -0.0768
2.1437 0.5080 -0.0733
2.1725 0.4928 -0.0738
2.2027 0.4810 -0.0762
2.2360 0.4747 -0.0820
2.2668 0.4626 -0.0845
2.2960 0.4472 -0.0849
2.3161 0.4170 -0.0761
2.3428 0.3988 -0.0745
2.3714 0.3837 -0.0750
2.4000 0.3686 -0.0755
2.4356 0.3621 -0.0818
2.4645 0.3469 -0.0823
2.4808 0.3176 -0.0729
2.5145 0.3081 -0.0773
2.5513 0.3011 -0.0837
2.5746 0.2805 -0.0802
2.6033 0.2654 -0.0806
2.6380 0.2553 -0.0851
2.6576 0.2325 -0.0796
2.6894 0.2199 -0.0820
2.7182 0.2047 -0.0825
2.7537 0.1942 -0.0869
2.7888 0.1829 -0.0909
2.8179 0.1675 -0.0913
2.8433 0.1500 -0.0898
2.8694 0.1331 -0.0887
2.8944 0.1158 -0.0872
2.9192 0.0986 -0.0857
2.9479 0.0834 -0.0861
2.9809 0.0701 -0.0886
3.0011 0.0512 -0.0850
3.0385 0.0397 -0.0895
3.0718 0.0262 -0.0920
3.1008 0.0109 -0.0924
3.1156 -0.0092 -0.0869
3.1490 -0.0228 -0.0893
3.1630 -0.0425 -0.0837
3.2114 -0.0516 -0.0923
3.2250 -0.0711 -0.0867
1.5187 0.7794 -0.0699
1.5441 0.7772 -0.0760
1.5707 0.7704 -0.0800
1.5986 0.7556 -0.0804
1.6279 0.7289 -0.0753
1.6558 0.7111 -0.0742
1.6825 0.7113 -0.0818
1.7106 0.6934 -0.0807
1.7387 0.6632 -0.0734
1.7937 0.6311 -0.0728
1.8211 0.6167 -0.0732
1.8488 0.6051 -0.0752
1.8759 0.5877 -0.0741
1.9052 0.5866 -0.0817
1.9323 0.5681 -0.0801
1.9588 0.5470 -0.0770
1.9840 0.5224 -0.0717
2.0097 0.5017 -0.0686
2.0413 0.5035 -0.0783
2.0668 0.4828 -0.0751
2.0848 0.4416 -0.0595
2.1179 0.4446 -0.0703
2.1404 0.4194 -0.0640
2.1746 0.4218 -0.0748
2.2007 0.4050 -0.0736
2.2338 0.4018 -0.0813
2.2563 0.3787 -0.0761
2.2802 0.3589 -0.0729
2.3008 0.3348 -0.0665
2.3364 0.3333 -0.0758
2.3597 0.3138 -0.0726
2.3867 0.2996 -0.0730
2.4095 0.2804 -0.0698
2.4300 0.2593 -0.0650
2.4677 0.2569 -0.0743
2.4946 0.2426 -0.0747
2.5314 0.2375 -0.0825
2.5559 0.2205 -0.0808
2.5808 0.2043 -0.0797
2.6026 0.1856 -0.0765
2.6407 0.1798 -0.0842
2.6681 0.1654 -0.0847
2.7107 0.1613 -0.0946
2.7324 0.1427 -0.0913
2.7465 0.1199 -0.0839
2.7737 0.1055 -0.0843
2.8085 0.0953 -0.0890
2.8428 0.0844 -0.0931
2.8884 0.0788 -0.1030
2.8980 0.0553 -0.0940
2.8994 0.0289 -0.0812
2.9339 0.0179 -0.0853
2.9423 -0.0040 -0.0767
3.0118 -0.0017 -0.0973
3.0234 -0.0222 -0.0903
3.0307 -0.0435 -0.0817
3.0445 -0.0620 -0.0763
3.0846 -0.0719 -0.0826
3.1277 -0.0814 -0.0899
3.1295 -0.1028 -0.0797
1.5001 0.7293 -0.0725
1.5257 0.7188 -0.0745
1.5532 0.6982 -0.0717
1.5800 0.6800 -0.0700
1.6061 0.6662 -0.0704
1.6325 0.6492 -0.0692
1.6588 0.6323 -0.0680
1.6843 0.6249 -0.0716
1.7103 0.6112 -0.0720
1.7361 0.6108 -0.0795
1.7625 0.5908 -0.0766
1.7889 0.5829 -0.0803
1.8144 0.5532 -0.0721
1.8406 0.5424 -0.0741
1.8674 0.5354 -0.0783
1.8933 0.5187 -0.0771
1.9188 0.5011 -0.0754
1.9456 0.4910 -0.0779
1.9697 0.4681 -0.0729
1.9950 0.4517 -0.0717
2.0201 0.4354 -0.0705
2.0502 0.4358 -0.0796
2.0752 0.4185 -0.0779
2.0993 0.3997 -0.0750
2.1273 0.3910 -0.0787
2.1463 0.3617 -0.0687
2.1718 0.3482 -0.0691
2.1974 0.3347 -0.0696
2.2262 0.3266 -0.0738
2.2807 0.3039 -0.0779
2.3019 0.2836 -0.0734
2.3309 0.2744 -0.0771
2.3550 0.2586 -0.0758
2.3807 0.2450 -0.0762
2.4065 0.2314 -0.0767
2.4303 0.2158 -0.0754
2.4580 0.2042 -0.0775
2.4901 0.1964 -0.0828
2.5096 0.1770 -0.0783
2.5398 0.1671 -0.0820
2.5634 0.1516 -0.0808
2.5940 0.1416 -0.0845
2.6225 0.1296 -0.0866
2.6545 0.1198 -0.0909
2.6833 0.1076 -0.0929
2.7069 0.0921 -0.0917
2.7212 0.0714 -0.0849
2.7528 0.0608 -0.0886
2.7759 0.0455 -0.0874
2.7959 0.0289 -0.0845
2.8218 0.0152 -0.0849
2.8539 0.0044 -0.0886
2.8702 -0.0134 -0.0840
2.9059 -0.0231 -0.0895
2.9251 -0.0393 -0.0865
2.9475 -0.0542 -0.0853
2.9698 -0.0690 -0.0840
2.9955 -0.0826 -0.0844
3.0321 -0.0928 -0.0899
3.0468 -0.1097 -0.0852
1.4841 0.6796 -0.0728
1.5091 0.6664 -0.0732
1.5341 0.6532 -0.0736
1.5609 0.6299 -0.0689
1.5841 0.6268 -0.0744
1.6086 0.6168 -0.0765
1.6352 0.5907 -0.0701
1.6600 0.5776 -0.0705
1.6845 0.5677 -0.0726
1.7087 0.5670 -0.0798
1.7338 0.5568 -0.0819
1.7590 0.5344 -0.0772
1.7838 0.5122 -0.0725
1.8090 0.5080 -0.0780
1.8336 0.4890 -0.0750
1.8587 0.4788 -0.0771
1.8832 0.4628 -0.0758
1.9099 0.4608 -0.0830
1.9300 0.4209 -0.0669
1.9584 0.4261 -0.0787
1.9815 0.4058 -0.0745
2.0040 0.3849 -0.0698
2.0301 0.3772 -0.0736
2.0539 0.3616 -0.0722
2.0785 0.3486 -0.0726
2.0992 0.3266 -0.0667
2.1254 0.3178 -0.0700
2.1466 0.2985 -0.0658
2.1721 0.2881 -0.0679
2.1973 0.2768 -0.0694
2.2231 0.2662 -0.0715
2.2435 0.2474 -0.0673
2.2719 0.2404 -0.0723
2.2903 0.2196 -0.0664
2.3162 0.2090 -0.0685
2.3434 0.1997 -0.0718
2.3646 0.1834 -0.0693
2.3921 0.1740 -0.0725
2.4131 0.1578 -0.0700
2.4352 0.1431 -0.0687
2.4550 0.1266 -0.0656
2.4984 0.1299 -0.0810
2.5268 0.1199 -0.0843
2.5500 0.1057 -0.0835
2.5698 0.0892 -0.0805
2.6012 0.0807 -0.0855
2.6311 0.0709 -0.0894
2.6507 0.0546 -0.0863
2.6755 0.0415 -0.0867
2.7337 0.0198 -0.0927
2.7478 0.0013 -0.0867
2.7633 -0.0160 -0.0818
2.7847 -0.0303 -0.0805
2.8187 -0.0392 -0.0861
2.8368 -0.0548 -0.0830
2.8680 -0.0652 -0.0869
2.8664 -0.0876 -0.0739
2.9010 -0.0967 -0.0795
2.9253 -0.1096 -0.0799
2.9702 -0.1162 -0.0902
2.9763 -0.1345 -0.0818
2.9804 -0.1528 -0.0728
1.4933 0.6223 -0.0738
1.5172 0.6097 -0.0742
1.5410 0.5971 -0.0745
1.5672 0.5723 -0.0684
1.5897 0.5664 -0.0723
1.6139 0.5506 -0.0709
1.6369 0.5434 -0.0743
1.6612 0.5256 -0.0717
1.6849 0.5131 -0.0721
1.7090 0.4924 -0.0677
1.7324 0.4830 -0.0699
1.7560 0.4706 -0.0702
1.7795 0.4582 -0.0706
1.8033 0.4506 -0.0740
1.8275 0.4458 -0.0791
1.8502 0.4209 -0.0717
1.8740 0.4103 -0.0733
1.8968 0.3932 -0.0707
1.9186 0.3717 -0.0651
1.9438 0.3684 -0.0714
1.9701 0.3675 -0.0796
1.9934 0.3532 -0.0788
2.0163 0.3381 -0.0773
2.0371 0.3172 -0.0717
2.0596 0.3023 -0.0703
2.0829 0.2900 -0.0707
2.1052 0.2752 -0.0693
2.1308 0.2677 -0.0732
2.1551 0.2569 -0.0748
2.1821 0.2506 -0.0800
2.1997 0.2283 -0.0725
2.2230 0.2160 -0.0729
2.2515 0.2109 -0.0793
2.2670 0.1878 -0.0706
2.2931 0.1790 -0.0740
2.3135 0.1632 -0.0714
2.3447 0.1598 -0.0796
2.3663 0.1453 -0.0782
2.3898 0.1329 -0.0785
2.4153 0.1225 -0.0807
2.4389 0.1100 -0.0811
2.4565 0.0927 -0.0766
2.4837 0.0834 -0.0800
2.5135 0.0756 -0.0853
2.5478 0.0706 -0.0935
2.5634 0.0523 -0.0878
2.5845 0.0381 -0.0864
2.6055 0.0241 -0.0849
2.6291 0.0116 -0.0853
2.6555 0.0006 -0.0875
2.6763 -0.0133 -0.0861
2.6979 -0.0267 -0.0852
2.7235 -0.0382 -0.0868
2.7367 -0.0552 -0.0811
2.8335 -0.1033 -0.0844
2.8651 -0.1130 -0.0891
2.8804 -0.1281 -0.0852
2.9038 -0.1404 -0.0855
2.9136 -0.1566 -0.0792
2.9368 -0.1689 -0.0795
1.5062 0.4793 -0.0195
1.5245 0.5580 -0.0751
1.5474 0.5460 -0.0755
1.5702 0.5339 -0.0758
1.5940 0.5164 -0.0731
1.6175 0.4990 -0.0704
1.6388 0.4977 -0.0769
1.6616 0.4856 -0.0773
1.6849 0.4684 -0.0746
1.7078 0.4533 -0.0731
1.7308 0.4322 -0.0678
1.7531 0.4254 -0.0713
1.7756 0.4105 -0.0698
1.7980 0.3967 -0.0689
1.8200 0.3781 -0.0649
1.8420 0.3636 -0.0634
1.8650 0.3584 -0.0681
1.8885 0.3539 -0.0734
1.9082 0.3266 -0.0632
1.9307 0.3167 -0.0648
1.9536 0.3076 -0.0670
1.9780 0.3037 -0.0730
2.0012 0.2944 -0.0752
2.0250 0.2858 -0.0781
2.0448 0.2664 -0.0728
2.0679 0.2562 -0.0744
2.0878 0.2387 -0.0704
2.1093 0.2254 -0.0695
2.1316 0.2136 -0.0699
2.1556 0.2049 -0.0727
2.1780 0.1931 -0.0731
2.1969 0.1762 -0.0690
2.2155 0.1594 -0.0650
2.2391 0.1499 -0.0672
2.2663 0.1445 -0.0732
2.2833 0.1266 -0.0679
2.3078 0.1176 -0.0708
2.3274 0.1033 -0.0686
2.3522 0.0942 -0.0715
2.3764 0.0844 -0.0738
2.4015 0.0751 -0.0766
2.4173 0.0579 -0.0713
2.4485 0.0533 -0.0793
2.4686 0.0397 -0.0777
2.4950 0.0307 -0.0812
2.5275 0.0255 -0.0892
2.5546 0.0161 -0.0928
2.5624 -0.0049 -0.0823
2.5877 -0.0152 -0.0846
2.6168 -0.0236 -0.0894
2.6280 -0.0415 -0.0821
2.6553 -0.0509 -0.0857
2.6698 -0.0665 -0.0809
2.6901 -0.0792 -0.0800
2.7103 -0.0919 -0.0791
2.7249 -0.1066 -0.0750
2.7437 -0.1195 -0.0734
2.7691 -0.1299 -0.0757
2.8039 -0.1374 -0.0831
2.8298 -0.1481 -0.0853
2.8269 -0.1674 -0.0722
2.8488 -0.1789 -0.0726
2.8732 -0.1898 -0.0742
1.5083 0.4562 -0.0319
1.5263 0.4546 -0.0374
1.5360 0.4900 -0.0641
1.5528 0.5008 -0.0774
1.5756 0.4849 -0.0752
1.5974 0.4733 -0.0755
1.6198 0.4586 -0.0739
1.6433 0.4333 -0.0659
1.6640 0.4293 -0.0707
1.6851 0.4241 -0.0750
1.7069 0.4126 -0.0753
1.7291 0.3900 -0.0685
1.7506 0.3806 -0.0702
1.7722 0.3761 -0.0750
1.7940 0.3666 -0.0767
1.8371 0.3379 -0.0735
1.8594 0.3321 -0.0777
1.8809 0.3187 -0.0768
1.9002 0.2937 -0.0674
1.9236 0.2922 -0.0749
1.9461 0.2843 -0.0778
1.9652 0.2633 -0.0710
2.0056 0.2332 -0.0658
2.0290 0.2277 -0.0707
2.0524 0.2213 -0.0750
2.0725 0.2067 -0.0727
2.0948 0.1969 -0.0743
2.1118 0.1771 -0.0675
2.1378 0.1742 -0.0750
2.1584 0.1614 -0.0741
2.1798 0.1500 -0.0744
2.2003 0.1373 -0.0734
2.2206 0.1246 -0.0725
2.2392 0.1098 -0.0695
2.2645 0.1034 -0.0745
2.2859 0.0921 -0.0748
2.3287 0.0694 -0.0755
2.3488 0.0569 -0.0745
2.3716 0.0468 -0.0762
2.3959 0.0379 -0.0791
2.4159 0.0254 -0.0782
2.4444 0.0192 -0.0845
2.4718 0.0117 -0.0894
2.4895 -0.0026 -0.0865
2.5206 -0.0082 -0.0941
2.5515 -0.0146 -0.1011
2.5483 -0.0405 -0.0829
2.5643 -0.0549 -0.0792
2.5914 -0.0633 -0.0835
2.6091 -0.0766 -0.0812
2.6458 -0.1019 -0.0779
2.6906 -0.1236 -0.0799
2.7020 -0.1385 -0.0743
2.7231 -0.1496 -0.0746
2.7489 -0.1593 -0.0776
2.7677 -0.1712 -0.0766
2.8101 -0.1936 -0.0773
1.5247 0.4456 -0.0572
1.5397 0.4572 -0.0710
1.5620 0.4396 -0.0673
1.5823 0.4308 -0.0689
1.6030 0.4199 -0.0693
1.6231 0.4132 -0.0723
1.6439 0.4022 -0.0726
1.6655 0.3849 -0.0689
1.6860 0.3761 -0.0706
1.7070 0.3611 -0.0682
1.7274 0.3562 -0.0726
1.7481 0.3491 -0.0756
1.7688 0.3225 -0.0651
1.7895 0.3175 -0.0695
1.8105 0.3123 -0.0739
1.8306 0.2938 -0.0688
1.8508 0.2792 -0.0664
1.8729 0.2793 -0.0749
1.8934 0.2666 -0.0739
1.9126 0.2486 -0.0688
1.9328 0.2360 -0.0677
1.9542 0.2286 -0.0708
1.9758 0.2211 -0.0738
1.9925 0.1985 -0.0646
2.0153 0.1943 -0.0704
2.0365 0.1851 -0.0721
2.0528 0.1647 -0.0642
2.0754 0.1587 -0.0687
2.0959 0.1479 -0.0690
2.1146 0.1341 -0.0666
2.1367 0.1263 -0.0696
2.1572 0.1155 -0.0700
2.1817 0.1104 -0.0758
2.1970 0.0925 -0.0693
2.2141 0.0777 -0.0655
2.2413 0.0750 -0.0740
2.2618 0.0642 -0.0743
2.2798 0.0508 -0.0719
2.2990 0.0387 -0.0709
2.3302 0.0379 -0.0822
2.3369 0.0148 -0.0688
2.3631 0.0088 -0.0746
2.3851 -0.0009 -0.0763
2.4056 -0.0117 -0.0766
2.4245 -0.0237 -0.0756
2.4533 -0.0291 -0.0828
2.4758 -0.0390 -0.0845
2.4895 -0.0541 -0.0793
2.5318 -0.0529 -0.0962
2.5456 -0.0680 -0.0910
2.5513 -0.0867 -0.0803
2.5680 -0.0994 -0.0779
2.5844 -0.1120 -0.0754
2.6048 -0.1228 -0.0757
2.6421 -0.1268 -0.0872
2.6672 -0.1361 -0.0903
2.6726 -0.1527 -0.0809
2.6999 -0.1612 -0.0854
2.6953 -0.1803 -0.0704
2.7201 -0.1895 -0.0735
2.7428 -0.1995 -0.0752
2.7704 -0.2082 -0.0797
1.5254 0.4275 -0.0712
1.5444 0.4214 -0.0743
1.5645 0.4107 -0.0746
1.5851 0.3979 -0.0735
1.6033 0.3981 -0.0809
1.6263 0.3703 -0.0700
1.6460 0.3619 -0.0717
1.6657 0.3534 -0.0734
1.6860 0.3408 -0.0723
1.7058 0.3323 -0.0741
1.7262 0.3147 -0.0695
1.7460 0.3052 -0.0705
1.7659 0.2937 -0.0701
1.7859 0.2861 -0.0725
1.8058 0.2756 -0.0728
1.8258 0.2650 -0.0732
1.8457 0.2545 -0.0735
1.8662 0.2476 -0.0766
1.8851 0.2308 -0.0720
1.9043 0.2168 -0.0695
1.9245 0.2081 -0.0712
1.9822 0.1717 -0.0679
2.0412 0.1406 -0.0688
2.0602 0.1287 -0.0677
2.0822 0.1228 -0.0723
2.1003 0.1094 -0.0698
2.1186 0.0968 -0.0680
2.1406 0.0901 -0.0718
2.1623 0.0825 -0.0750
2.1800 0.0693 -0.0725
2.1975 0.0561 -0.0699
2.2183 0.0471 -0.0717
2.2379 0.0367 -0.0720
2.2564 0.0251 -0.0709
2.2786 0.0172 -0.0740
2.3024 0.0105 -0.0786
2.3208 -0.0012 -0.0775
2.3392 -0.0128 -0.0764
2.3627 -0.0204 -0.0803
2.3842 -0.0298 -0.0820
2.4017 -0.0420 -0.0802
2.4257 -0.0498 -0.0841
2.4457 -0.0603 -0.0844
2.4596 -0.0744 -0.0797
2.4776 -0.0859 -0.0786
2.4955 -0.0973 -0.0775
2.5114 -0.1096 -0.0749
2.5281 -0.1213 -0.0731
2.5507 -0.1303 -0.0755
2.6095 -0.1614 -0.0765
2.6291 -0.1718 -0.0768
2.6454 -0.1832 -0.0749
2.6684 -0.1925 -0.0774
2.6880 -0.2028 -0.0777
2.7016 -0.2149 -0.0744
2.7346 -0.2216 -0.0827
1.5325 0.3860 -0.0693
1.5531 0.3703 -0.0659
1.5709 0.3657 -0.0699
1.5913 0.3502 -0.0665
1.6104 0.3401 -0.0669
1.6307 0.3226 -0.0621
1.6480 0.3241 -0.0704
1.6677 0.3098 -0.0678
1.6863 0.3048 -0.0717
1.7062 0.2847 -0.0647
1.7247 0.2845 -0.0723
1.7441 0.2666 -0.0668
1.7631 0.2546 -0.0656
1.7822 0.2465 -0.0674
1.8016 0.2439 -0.0736
1.8201 0.2246 -0.0665
1.8390 0.2145 -0.0668
1.8580 0.2045 -0.0671
1.8770 0.1945 -0.0674
1.8954 0.1819 -0.0655
1.9155 0.1770 -0.0702
1.9346 0.1670 -0.0706
1.9529 0.1544 -0.0686
1.9718 0.1444 -0.0690
1.9902 0.1328 -0.0678
2.0091 0.1228 -0.0681
2.0246 0.1050 -0.0610
2.0485 0.1059 -0.0716
2.0679 0.0966 -0.0727
2.0827 0.0791 -0.0656
2.1033 0.0721 -0.0689
2.1222 0.0621 -0.0692
2.1366 0.0459 -0.0628
2.1600 0.0422 -0.0698
2.1789 0.0322 -0.0701
2.1967 0.0209 -0.0689
2.2203 0.0161 -0.0751
2.2375 0.0042 -0.0732
2.2655 0.0029 -0.0839
2.2741 -0.0171 -0.0723
2.2944 -0.0259 -0.0741
2.3112 -0.0376 -0.0722
2.3309 -0.0471 -0.0732
2.3591 -0.0504 -0.0824
2.3759 -0.0621 -0.0805
2.3893 -0.0760 -0.0756
2.4099 -0.0850 -0.0774
2.4412 -0.0879 -0.0881
2.4525 -0.1026 -0.0817
2.4624 -0.1175 -0.0746
2.4822 -0.1270 -0.0756
2.4944 -0.1401 -0.0707
2.5131 -0.1500 -0.0710
2.5308 -0.1604 -0.0705
2.5579 -0.1669 -0.0768
2.5844 -0.1741 -0.0824
2.5947 -0.1873 -0.0767
2.6069 -0.1995 -0.0725
2.6417 -0.2044 -0.0833
2.6526 -0.2169 -0.0783
2.6715 -0.2269 -0.0786
2.6904 -0.2369 -0.0789
1.5178 0.3671 -0.0735
1.5374 0.3539 -0.0716
1.5565 0.3418 -0.0704
1.5741 0.3364 -0.0737
1.5950 0.3158 -0.0664
1.6134 0.3061 -0.0667
1.6312 0.2995 -0.0693
1.6867 0.2702 -0.0702
1.7055 0.2555 -0.0667
1.7237 0.2488 -0.0692
1.7422 0.2381 -0.0688
1.7606 0.2312 -0.0713
1.7973 0.2071 -0.0681
1.8156 0.1964 -0.0677
1.8340 0.1877 -0.0687
1.8703 0.1657 -0.0670
1.8889 0.1577 -0.0688
1.9064 0.1447 -0.0661
1.9255 0.1384 -0.0694
1.9446 0.1312 -0.0720
1.9611 0.1158 -0.0669
1.9799 0.1078 -0.0688
1.9982 0.0981 -0.0690
2.0165 0.0885 -0.0693
2.0348 0.0788 -0.0696
2.0713 0.0595 -0.0702
2.0905 0.0513 -0.0720
2.1079 0.0402 -0.0708
2.1247 0.0285 -0.0688
2.1429 0.0189 -0.0691
2.1583 0.0059 -0.0655
2.1758 -0.0043 -0.0651
2.1981 -0.0093 -0.0707
2.2175 -0.0177 -0.0725
2.2345 -0.0286 -0.0713
2.2906 -0.0563 -0.0737
2.3479 -0.0836 -0.0769
2.3637 -0.0949 -0.0749
2.3795 -0.1061 -0.0728
2.3986 -0.1152 -0.0739
2.4532 -0.1441 -0.0748
2.4715 -0.1537 -0.0751
2.4887 -0.1637 -0.0746
2.5069 -0.1733 -0.0749
2.5487 -0.1906 -0.0793
2.5648 -0.2010 -0.0781
2.5775 -0.2125 -0.0745
2.5979 -0.2214 -0.0763
2.6196 -0.2300 -0.0789
2.6379 -0.2396 -0.0792
0.8703 -0.9231 -0.0720
0.8966 -0.9297 -0.0662
0.9144 -0.9392 -0.0664
0.9331 -0.9482 -0.0659
0.9479 -0.9589 -0.0685
0.9676 -0.9675 -0.0673
0.9945 -0.9726 -0.0598
1.0243 -0.9940 -0.0650
1.0444 -1.0020 -0.0630
1.0595 -1.0128 -0.0655
1.0772 -1.0222 -0.0658
1.0917 -1.0336 -0.0692
1.1072 -1.0446 -0.0718
1.1315 -1.0492 -0.0651
1.1491 -1.0586 -0.0654
1.1613 -1.0725 -0.0718
1.1810 -1.0802 -0.0698
1.2019 -1.0867 -0.0662
