ply
format ascii 1.0
element vertex 2179
property float x
property float y
property float z
end_header
3.3794 0.0377 0.3423
3.1853 -0.0387 0.3723
3.1646 0.0220 0.3715
3.1302 0.0733 0.3730
3.0511 0.0968 0.3821
3.0448 0.1687 0.3787
2.5279 1.8445 0.3490
2.3324 1.9313 0.3697
-0.4904 3.7888 0.6335
4.4162 0.1630 0.1683
4.3943 0.1748 0.1701
4.3602 0.1694 0.1741
4.3308 0.1734 0.1771
4.2798 0.1486 0.1839
4.2117 0.1047 0.1935
4.0924 0.3665 0.1932
3.4274 -0.1452 0.2911
3.4083 -0.0890 0.2903
3.4119 -0.0139 0.2861
3.2862 -0.0433 0.3013
3.2403 -0.0041 0.3043
3.1940 0.0366 0.3072
3.1170 0.0583 0.3145
3.0206 0.0714 0.3243
2.0497 1.6269 0.3511
2.1985 1.6907 0.3317
2.6711 1.7193 0.2791
2.1500 1.8992 0.3265
2.5044 1.9125 0.2874
2.5178 2.0248 0.2803
2.4598 2.0930 0.2831
4.4286 0.1734 0.1366
4.4133 0.1954 0.1370
4.3943 0.2121 0.1379
4.3639 0.2129 0.1404
4.3180 0.1938 0.1451
4.2834 0.1939 0.1480
3.3724 -0.2044 0.2420
3.2770 -0.2123 0.2504
3.3449 -0.0775 0.2390
3.3006 -0.0392 0.2411
3.2018 -0.0403 0.2495
3.1390 -0.0096 0.2535
3.0581 0.0118 0.2595
3.0901 0.1864 0.2494
2.1161 0.7565 0.3077
2.6136 1.0896 0.2514
2.6477 1.1629 0.2454
2.4052 1.2042 0.2642
2.5822 1.7323 0.2269
2.1672 1.9041 0.2547
2.5341 1.9720 0.2208
2.5851 2.0188 0.2145
2.5650 2.0778 0.2137
2.5619 2.1329 0.2116
4.4741 0.1936 0.1029
4.4537 0.2049 0.1037
4.4258 0.2055 0.1054
4.3902 0.1962 0.1079
4.3775 0.2239 0.1077
4.3513 0.2325 0.1090
4.2984 0.2056 0.1131
4.1011 0.3624 0.1197
3.3749 -0.2112 0.1833
3.3788 -0.1315 0.1803
3.4056 -0.0344 0.1754
3.3029 -0.0448 0.1820
3.2036 -0.0461 0.1880
3.1543 -0.0053 0.1896
3.0434 -0.0047 0.1963
3.0213 0.0603 0.1955
1.5817 0.5261 0.2667
2.0254 0.9993 0.2237
2.4010 1.2068 0.1939
2.2131 1.2644 0.2033
2.2117 1.3403 0.2008
2.5555 1.8595 0.1622
2.5884 1.9127 0.1584
2.6197 1.9638 0.1547
2.7136 2.0004 0.1478
2.7255 2.0501 0.1454
2.6426 2.1212 0.1480
2.6232 2.1784 0.1472
2.4826 2.2694 0.1526
4.4813 0.1956 0.0732
4.4714 0.2246 0.0728
4.4381 0.2156 0.0742
4.4151 0.2253 0.0748
4.3960 0.2425 0.0751
4.3591 0.2347 0.0766
4.3267 0.2361 0.0777
4.3021 0.2502 0.0783
4.1240 0.3790 0.0814
3.4471 -0.1536 0.1197
3.4277 -0.0967 0.1189
3.3964 -0.0500 0.1188
3.3536 -0.0115 0.1194
3.2973 0.0184 0.1206
3.1414 -0.0215 0.1273
2.1282 0.7612 0.1437
2.2568 1.1951 0.1278
2.2057 1.2676 0.1278
2.1802 1.3428 0.1268
2.5143 1.4279 0.1125
2.8384 1.7204 0.0932
2.7586 1.7834 0.0945
2.6195 1.9143 0.0961
1.9279 2.2333 0.1129
1.9567 2.2942 0.1103
2.1530 2.3092 0.1028
4.4925 0.2048 0.0433
4.4612 0.1973 0.0438
4.4406 0.2097 0.0438
4.4054 0.2005 0.0444
4.3833 0.2140 0.0444
4.3581 0.2241 0.0445
4.3443 0.2518 0.0442
4.3034 0.2433 0.0448
4.2710 0.2488 0.0451
4.1370 0.3857 0.0443
3.4826 -0.1295 0.0608
3.4300 -0.1032 0.0609
3.3876 -0.0654 0.0607
3.3799 0.0022 0.0597
3.2988 0.0125 0.0604
3.1569 -0.0171 0.0626
2.9781 -0.0632 0.0654
2.0867 -0.5660 0.0844
1.5379 0.9287 0.0646
2.0100 1.1731 0.0549
1.4412 1.2131 0.0608
1.4714 2.1045 0.0448
1.5468 2.1721 0.0428
1.7447 2.2104 0.0399
1.8361 2.2631 0.0379
1.9996 2.2932 0.0355
2.0760 2.3387 0.0338
2.3002 2.3381 0.0312
4.4853 0.1817 0.0138
4.4609 0.1864 0.0135
4.4403 0.1992 0.0131
4.4158 0.2072 0.0127
4.3882 0.2118 0.0123
4.3630 0.2220 0.0118
4.3294 0.2219 0.0114
4.2396 0.1475 0.0108
3.6247 -0.0748 0.0045
3.5285 -0.0955 0.0034
3.1940 -0.0759 -0.0013
3.0179 -0.1263 -0.0033
2.9781 -0.0701 -0.0043
2.8094 -0.0976 -0.0064
1.5424 0.6235 -0.0300
1.9662 0.8172 -0.0260
1.9738 1.2579 -0.0298
1.8231 1.3338 -0.0325
2.3122 1.4315 -0.0268
1.8597 1.5038 -0.0336
1.8316 1.5866 -0.0347
2.6970 1.6856 -0.0239
2.7100 1.7430 -0.0242
0.7024 2.1390 -0.0549
1.0549 2.1817 -0.0506
1.3903 2.2106 -0.0463
1.7338 2.2222 -0.0417
1.9384 2.2495 -0.0392
2.1407 2.2677 -0.0366
2.1863 2.3186 -0.0364
0.3127 3.5722 -0.0731
4.4526 0.1616 -0.0178
4.4263 0.1659 -0.0188
4.4094 0.1870 -0.0195
4.3818 0.1922 -0.0206
4.3487 0.1913 -0.0219
4.3142 0.1910 -0.0232
4.2035 0.0885 -0.0275
4.0549 0.0656 -0.0332
4.0455 0.1121 -0.0336
4.0425 0.1654 -0.0338
4.0342 0.2120 -0.0341
3.5503 -0.1572 -0.0528
3.4996 -0.1317 -0.0548
3.4697 -0.0848 -0.0560
3.4503 -0.0280 -0.0567
3.2294 0.0223 -0.0654
3.1369 0.0342 -0.0690
2.0181 0.9199 -0.1128
2.0497 1.0997 -0.1116
2.0500 1.1845 -0.1116
2.2370 1.2816 -0.1044
2.2112 1.3574 -0.1054
2.3535 1.4370 -0.0999
2.0539 1.5093 -0.1116
2.3923 1.6463 -0.0985
2.5127 1.7046 -0.0938
2.6221 1.7572 -0.0896
0.4506 2.1860 -0.1742
0.1610 2.3398 -0.1855
0.3132 2.4221 -0.1796
0.2118 2.5489 -0.1836
2.0858 2.2906 -0.1106
2.2482 2.3111 -0.1043
2.3320 2.3471 -0.1011
0.3182 3.4984 -0.1798
0.6507 3.4468 -0.1668
4.4169 0.1396 -0.0521
4.3881 0.1424 -0.0539
4.3651 0.1564 -0.0553
4.3340 0.1597 -0.0573
4.2873 0.1427 -0.0604
4.1507 0.0054 -0.0704
4.1786 0.0999 -0.0678
4.1233 0.3004 -0.0697
3.5240 -0.1178 -0.1120
3.5156 -0.0520 -0.1119
3.4527 -0.0340 -0.1159
3.4667 0.0508 -0.1142
3.4696 0.1241 -0.1134
3.4174 0.1549 -0.1166
3.1820 0.0593 -0.1326
3.1308 0.1027 -0.1355
1.4422 0.8180 -0.2386
2.0692 1.0191 -0.1964
1.7903 1.0703 -0.2140
0.5920 1.1662 -0.2906
2.3253 1.4411 -0.1763
2.3918 1.5135 -0.1714
2.3894 1.5834 -0.1710
2.6762 1.6979 -0.1515
2.7394 1.7514 -0.1469
2.7683 1.8052 -0.1446
2.6131 1.8836 -0.1540
2.0800 2.4303 -0.1838
0.3083 3.6102 -0.2884
0.5923 3.5723 -0.2704
4.4382 0.1146 -0.0840
4.3983 0.0974 -0.0879
4.3748 0.1102 -0.0898
4.2937 0.0890 -0.0975
4.2224 0.0388 -0.1048
4.1879 0.0464 -0.1078
4.1457 0.3175 -0.1070
3.4840 -0.1652 -0.1753
3.3814 -0.1827 -0.1849
3.4783 -0.0200 -0.1733
3.4589 0.0368 -0.1741
3.4614 0.1108 -0.1726
3.4313 0.1588 -0.1745
3.2113 0.0734 -0.1959
2.8440 -0.0952 -0.2321
1.1897 0.6602 -0.3691
1.4247 0.8174 -0.3451
1.6686 0.9608 -0.3205
1.6367 1.0546 -0.3217
1.3972 1.5240 -0.3353
2.1195 1.5970 -0.2686
2.4674 1.6537 -0.2361
2.5646 1.7122 -0.2263
2.7182 1.8174 -0.2105
4.3412 0.2509 -0.1252
4.3263 0.2792 -0.1262
4.2521 0.3794 -0.1323
4.2296 0.4019 -0.1343
3.3548 -0.2987 -0.2551
3.2931 -0.2729 -0.2617
3.4588 -0.0452 -0.2363
3.4836 0.0497 -0.2309
3.4536 0.0977 -0.2331
3.2750 0.0352 -0.2557
3.1399 0.0161 -0.2720
3.0221 0.0174 -0.2858
0.9314 0.3555 -0.5217
1.0159 0.6261 -0.5047
1.3638 0.8091 -0.4591
1.9611 1.0081 -0.3840
1.6952 1.0656 -0.4136
0.7838 1.3085 -0.5139
0.9585 1.4261 -0.4904
1.0710 1.5333 -0.4744
1.6522 1.6180 -0.4041
2.1122 1.6795 -0.3487
2.4610 1.7263 -0.3066
4.3632 0.3205 -0.1549
4.3399 0.3366 -0.1576
4.2647 0.3385 -0.1684
4.2462 0.3653 -0.1701
3.0258 -0.7264 -0.3843
3.2611 -0.3996 -0.3389
3.3872 -0.1963 -0.3135
3.5062 -0.0121 -0.2899
3.4534 0.0168 -0.2965
3.3865 0.0373 -0.3054
3.3161 0.0591 -0.3147
3.1407 0.0098 -0.3417
2.9714 -0.0233 -0.3672
1.6541 -0.3855 -0.5695
1.5719 0.4152 -0.5530
1.4947 0.5061 -0.5609
1.8794 0.7089 -0.4984
1.7422 0.7788 -0.5157
1.8842 0.9047 -0.4908
1.9824 1.0141 -0.4728
2.0144 1.1083 -0.4649
1.7231 1.1684 -0.5047
1.7267 1.2627 -0.5008
1.7993 1.3580 -0.4870
1.6293 1.4441 -0.5084
2.3958 1.6693 -0.3902
2.4366 1.7345 -0.3820
2.3696 1.8080 -0.3890
0.8266 2.4708 -0.5876
0.6347 2.6120 -0.6102
0.5061 2.8419 -0.6205
0.6344 2.9001 -0.6000
0.6507 2.9878 -0.5946
0.6679 3.0732 -0.5891
0.7338 3.1389 -0.5773
0.8905 3.1658 -0.5538
4.4049 0.2757 -0.1843
4.2843 0.3543 -0.2014
4.2689 0.3842 -0.2027
3.3088 -0.5424 -0.4081
3.2713 -0.4905 -0.4122
3.2915 -0.3812 -0.4039
3.3516 -0.2390 -0.3873
3.4986 -0.0272 -0.3527
3.5114 0.0576 -0.3468
3.2233 -0.0183 -0.3994
2.9710 -0.0304 -0.4431
2.5228 -0.2304 -0.5286
2.3617 -0.2259 -0.5560
2.3597 -0.1217 -0.5517
2.2133 -0.0960 -0.5756
2.2422 0.0246 -0.5652
2.3263 0.1664 -0.5445
2.2407 0.2282 -0.5564
2.1815 0.3041 -0.5632
2.0270 0.3476 -0.5876
1.9957 0.4395 -0.5889
2.0601 0.5599 -0.5725
1.9657 0.6320 -0.5854
2.1789 0.7807 -0.5423
1.9691 0.8275 -0.5761
1.7696 0.8866 -0.6076
1.8757 1.0011 -0.5844
1.9742 1.1068 -0.5628
2.1771 1.2153 -0.5233
2.0947 1.2922 -0.5339
2.1501 1.3775 -0.5207
2.2029 1.4585 -0.5080
2.4582 1.6029 -0.4579
2.4131 1.6742 -0.4625
2.4740 1.7375 -0.4492
2.4713 1.8037 -0.4468
2.4274 1.8744 -0.4511
2.4042 1.9428 -0.4520
1.3777 2.3610 -0.6089
1.4229 2.4334 -0.5979
1.3926 2.5226 -0.5991
1.2849 2.6340 -0.6126
1.2143 2.7371 -0.6201
1.1408 2.8429 -0.6279
1.1518 2.9210 -0.6225
1.1611 2.9980 -0.6175
1.0893 3.1048 -0.6250
1.0580 3.1967 -0.6263
1.1097 3.2534 -0.6149
1.1195 3.3255 -0.6100
1.0892 3.4147 -0.6112
3.6112 -1.2141 -0.4564
3.4618 -1.3535 -0.4936
3.4514 -1.2619 -0.4907
3.6593 -0.4147 -0.4038
3.6198 -0.3809 -0.4098
3.4771 -0.4604 -0.4424
3.4187 -0.4379 -0.4528
3.3578 -0.4143 -0.4636
3.2797 -0.4040 -0.4785
3.4049 -0.1994 -0.4427
3.5127 -0.0232 -0.4118
3.4593 0.0058 -0.4208
3.4158 0.0456 -0.4273
3.2943 0.0282 -0.4523
3.2031 0.0406 -0.4698
3.0566 0.0209 -0.4999
2.8912 -0.0013 -0.5339
2.8276 0.0487 -0.5439
2.7614 0.1001 -0.5542
2.8163 0.2188 -0.5369
2.8109 0.3018 -0.5335
2.8049 0.3833 -0.5303
2.7803 0.4555 -0.5313
2.7558 0.5277 -0.5323
2.6067 0.5550 -0.5604
2.5585 0.6235 -0.5663
2.4865 0.6863 -0.5772
2.4116 0.7511 -0.5886
2.4575 0.8475 -0.5742
2.3578 0.9094 -0.5907
2.3807 0.9973 -0.5814
2.3039 1.0676 -0.5929
2.5138 1.1753 -0.5454
2.4439 1.2439 -0.5556
2.4420 1.3194 -0.5519
2.4835 1.3954 -0.5395
2.5024 1.4676 -0.5319
2.4119 1.5389 -0.5460
2.3653 1.6120 -0.5513
2.2929 1.6878 -0.5616
2.3158 1.7576 -0.5533
2.3599 1.8227 -0.5410
2.5061 1.8708 -0.5094
2.2886 1.9685 -0.5473
2.3326 2.0278 -0.5354
2.3088 2.0978 -0.5363
1.9003 2.2545 -0.6090
1.9311 2.3194 -0.5994
1.8761 2.4048 -0.6056
1.8494 2.4832 -0.6067
1.8517 2.5527 -0.6025
1.8824 2.6115 -0.5932
1.7988 2.7082 -0.6046
1.8589 2.7539 -0.5902
1.7758 2.8521 -0.6014
1.7784 2.9174 -0.5974
1.8385 2.9570 -0.5833
1.8400 3.0195 -0.5797
1.6094 3.1891 -0.6163
3.6169 -1.1247 -0.5205
3.6291 -1.0061 -0.5102
3.5897 -0.6000 -0.4934
3.6538 -0.4348 -0.4684
3.6135 -0.4010 -0.4754
3.5831 -0.3540 -0.4793
3.5179 -0.3435 -0.4934
3.3738 -0.4098 -0.5302
3.3101 -0.3857 -0.5431
3.5028 -0.1177 -0.4825
3.5687 0.0181 -0.4590
3.4027 -0.0503 -0.5009
3.2197 -0.1200 -0.5467
3.1894 0.0236 -0.5445
3.0401 0.0028 -0.5796
2.9817 0.0505 -0.5898
3.0096 0.1532 -0.5770
3.0195 0.2418 -0.5691
2.9623 0.2921 -0.5788
2.9563 0.3703 -0.5752
2.9835 0.4627 -0.5632
2.9094 0.5082 -0.5771
2.9032 0.5839 -0.5737
2.9147 0.6649 -0.5660
2.9260 0.7436 -0.5584
2.8334 0.7892 -0.5765
2.8101 0.8576 -0.5774
2.7688 0.9217 -0.5827
2.7636 0.9944 -0.5793
2.7403 1.0628 -0.5802
2.6789 1.1256 -0.5902
2.6750 1.1974 -0.5865
2.6705 1.2681 -0.5830
2.6664 1.3378 -0.5795
2.7184 1.4085 -0.5633
2.6396 1.4738 -0.5770
2.5371 1.5424 -0.5958
2.5135 1.6118 -0.5967
2.5309 1.6786 -0.5886
2.5681 1.7416 -0.5762
2.5453 1.8085 -0.5771
2.7254 1.8476 -0.5338
2.3290 1.9698 -0.6158
2.3048 2.0409 -0.6168
2.3913 2.0892 -0.5941
2.3468 2.1624 -0.5996
2.3661 2.2207 -0.5915
2.3860 2.2769 -0.5834
2.3199 2.3565 -0.5933
2.2300 2.4454 -0.6081
2.2296 2.5071 -0.6042
2.1828 2.5843 -0.6099
2.2051 2.6366 -0.6016
2.2044 2.6961 -0.5980
2.1586 2.7734 -0.6034
2.1582 2.8319 -0.5998
2.1351 2.8998 -0.6007
2.0410 3.0011 -0.6156
4.2725 0.1582 -0.3309
3.8142 -0.3259 -0.4829
3.7443 -0.3366 -0.5015
3.7525 -0.2496 -0.4931
3.6684 -0.2697 -0.5160
3.6291 -0.2350 -0.5234
3.5348 -0.2552 -0.5489
3.5374 -0.1727 -0.5422
3.5389 -0.0932 -0.5360
3.5410 -0.0152 -0.5298
3.5634 0.0782 -0.5173
3.4570 0.0636 -0.5454
3.4369 0.1227 -0.5462
3.4627 0.2151 -0.5329
3.4315 0.2648 -0.5372
3.3398 0.2761 -0.5598
3.3802 0.3735 -0.5424
3.3108 0.4034 -0.5579
3.3132 0.6125 -0.5420
3.2294 0.6429 -0.5611
3.2612 0.7235 -0.5471
3.2668 0.7910 -0.5407
3.2344 0.8444 -0.5451
3.1757 0.8907 -0.5567
3.1950 0.9603 -0.5467
3.1885 1.0213 -0.5439
3.1555 1.0762 -0.5483
3.1223 1.1318 -0.5527
3.1161 1.1921 -0.5498
3.0120 1.2401 -0.5728
2.9756 1.2989 -0.5778
2.9710 1.3606 -0.5745
2.9646 1.4213 -0.5717
3.0176 1.4819 -0.5538
3.0122 1.5396 -0.5509
3.0341 1.5955 -0.5413
2.8989 1.6598 -0.5710
2.8628 1.7207 -0.5757
2.8744 1.7769 -0.5687
2.8843 1.8318 -0.5622
2.7531 1.9083 -0.5900
2.6811 1.9789 -0.6032
2.6950 2.0339 -0.5956
2.7406 2.0800 -0.5806
2.7538 2.1314 -0.5735
2.7337 2.1904 -0.5743
2.6637 2.2643 -0.5867
2.5905 2.3413 -0.5998
2.5869 2.3969 -0.5966
2.6359 2.4330 -0.5815
2.6825 2.4672 -0.5671
2.5612 2.5656 -0.5908
2.4831 2.7023 -0.6007
2.4997 2.7463 -0.5933
2.5145 2.7898 -0.5863
4.3354 0.1306 -0.3560
4.3374 0.1873 -0.3507
4.3152 0.2081 -0.3553
4.2766 0.2081 -0.3662
4.2061 0.2247 -0.3849
4.1468 0.2081 -0.4030
3.6823 -0.0390 -0.5551
3.6453 -0.0019 -0.5625
3.6359 0.0616 -0.5599
3.5976 0.0996 -0.5676
3.5478 0.1298 -0.5793
3.5494 0.2025 -0.5728
3.5410 0.2660 -0.5699
3.5221 0.3215 -0.5706
3.5033 0.3770 -0.5714
3.4953 0.4392 -0.5685
3.4467 0.5434 -0.5737
3.3940 0.5820 -0.5854
3.4089 0.6544 -0.5752
3.3900 0.7099 -0.5759
3.3935 0.7742 -0.5696
3.3640 0.8251 -0.5737
3.3453 0.8803 -0.5745
3.3026 0.9283 -0.5826
3.3189 0.9935 -0.5726
3.2890 1.0457 -0.5767
3.2210 1.0907 -0.5923
3.2515 1.1559 -0.5782
3.2202 1.2092 -0.5827
3.2014 1.2647 -0.5834
3.1953 1.3213 -0.5805
3.2133 1.3787 -0.5706
3.1949 1.4329 -0.5714
3.1512 1.4869 -0.5793
3.1070 1.5421 -0.5872
3.0881 1.5976 -0.5880
3.0828 1.6522 -0.5850
3.1028 1.7037 -0.5750
3.0579 1.7609 -0.5830
3.0127 1.8196 -0.5910
2.9938 1.8750 -0.5917
2.9749 1.9305 -0.5925
2.9834 1.9802 -0.5860
2.9647 2.0350 -0.5867
2.9328 2.0933 -0.5910
2.9140 2.1484 -0.5917
2.8659 2.2123 -0.6000
2.8469 2.2682 -0.6008
2.7832 2.3393 -0.6130
2.8240 2.3744 -0.5985
2.8203 2.4241 -0.5954
2.8015 2.4792 -0.5962
2.7674 2.5408 -0.6008
2.7330 2.6031 -0.6053
2.7452 2.6446 -0.5984
2.7555 2.6859 -0.5921
4.3581 0.1545 -0.3864
4.3428 0.1848 -0.3884
4.3131 0.1951 -0.3967
4.2781 0.2003 -0.4072
4.2732 0.2473 -0.4043
4.2798 0.3079 -0.3967
4.2482 0.3207 -0.4053
4.2111 0.3291 -0.4162
3.9591 0.1670 -0.5099
3.9166 0.1857 -0.5215
3.8056 0.1418 -0.5602
3.7886 0.1918 -0.5609
3.7794 0.2485 -0.5585
3.8097 0.3369 -0.5408
3.7854 0.3789 -0.5446
3.7770 0.4332 -0.5421
3.7680 0.4864 -0.5400
3.7196 0.5133 -0.5527
3.7029 0.5622 -0.5533
3.6787 0.6068 -0.5568
3.6781 0.6647 -0.5516
3.6951 0.7302 -0.5402
3.6539 0.8217 -0.5446
3.6208 0.8629 -0.5511
3.5864 0.9048 -0.5580
3.5879 0.9597 -0.5524
3.5888 1.0132 -0.5472
3.5725 1.0611 -0.5478
3.5385 1.1049 -0.5544
3.5032 1.1494 -0.5613
3.4780 1.1969 -0.5648
3.4613 1.2460 -0.5654
3.4242 1.2929 -0.5727
3.4073 1.3426 -0.5734
3.4332 1.4440 -0.5559
3.3867 1.4920 -0.5660
3.3701 1.5409 -0.5666
3.3534 1.5898 -0.5673
3.3172 1.6402 -0.5739
3.3201 1.6877 -0.5686
3.3140 1.7354 -0.5661
3.2773 1.7870 -0.5728
3.2809 1.8327 -0.5674
3.2644 1.8814 -0.5681
3.2369 1.9324 -0.5719
3.2313 1.9787 -0.5694
3.2257 2.0245 -0.5669
3.1536 2.0886 -0.5835
3.1367 2.1383 -0.5842
3.0801 2.2456 -0.5919
3.0986 2.2829 -0.5827
3.1038 2.3238 -0.5772
3.0650 2.3818 -0.5840
3.0705 2.4217 -0.5786
3.0776 2.4601 -0.5728
3.0492 2.5140 -0.5767
3.0567 2.5511 -0.5709
3.0513 2.5938 -0.5686
4.4655 0.1607 -0.3884
4.4046 0.1634 -0.4090
4.3548 0.1922 -0.4230
4.3071 0.1765 -0.4410
4.0170 -0.0993 -0.5685
4.0382 -0.0056 -0.5516
4.0638 0.0896 -0.5331
4.0711 0.1592 -0.5235
4.2243 0.3878 -0.4476
4.2360 0.4504 -0.4371
4.1865 0.4490 -0.4542
3.9830 0.3035 -0.5387
3.9489 0.3303 -0.5477
3.8943 0.3410 -0.5652
3.8926 0.3988 -0.5599
3.8487 0.4223 -0.5725
3.8472 0.4796 -0.5671
3.8525 0.5404 -0.5591
3.8444 0.5907 -0.5567
3.8075 0.6227 -0.5660
3.7762 0.7146 -0.5672
3.7437 0.9104 -0.5583
3.7212 0.9528 -0.5616
3.6825 0.9904 -0.5710
3.6750 1.0387 -0.5685
3.6430 1.0801 -0.5753
3.6513 1.1319 -0.5671
3.6284 1.1759 -0.5704
3.6204 1.2229 -0.5683
3.5973 1.2673 -0.5716
3.5731 1.3120 -0.5753
3.5739 1.3594 -0.5702
3.5585 1.4049 -0.5708
3.5173 1.4496 -0.5803
3.5275 1.4959 -0.5720
3.4949 1.5418 -0.5784
3.4884 1.5873 -0.5760
3.4544 1.6344 -0.5828
3.4201 1.6824 -0.5896
3.4136 1.7279 -0.5871
3.4442 1.7675 -0.5726
3.4107 1.8158 -0.5791
3.4037 1.8599 -0.5770
3.3699 1.9094 -0.5834
3.3728 1.9509 -0.5782
3.3189 2.0065 -0.5909
3.3330 2.0444 -0.5822
3.2873 2.0994 -0.5922
3.2816 2.1425 -0.5897
3.2659 2.1887 -0.5903
3.2502 2.2349 -0.5909
3.2449 2.2770 -0.5884
3.2293 2.3230 -0.5890
3.1926 2.3779 -0.5959
3.1874 2.4196 -0.5934
3.1824 2.4608 -0.5909
3.1775 2.5015 -0.5884
4.4971 0.2045 -0.4084
4.4788 0.2233 -0.4131
4.4781 0.2719 -0.4078
4.4486 0.2740 -0.4186
4.2577 0.0357 -0.5165
4.2356 0.0628 -0.5216
4.2038 0.0775 -0.5318
4.1414 0.0537 -0.5577
4.1214 0.0892 -0.5611
4.1329 0.1635 -0.5485
4.1436 0.2342 -0.5365
4.1045 0.2470 -0.5496
4.1005 0.2996 -0.5452
4.1366 0.3918 -0.5213
4.1785 0.4847 -0.4953
4.0689 0.4334 -0.5418
4.0442 0.4651 -0.5474
4.0363 0.5116 -0.5451
4.0051 0.5392 -0.5536
4.0186 0.6015 -0.5415
4.0320 0.6614 -0.5298
3.9511 0.6570 -0.5603
3.9426 0.7026 -0.5584
3.9294 0.8434 -0.5474
3.9370 0.9408 -0.5336
3.8823 0.9643 -0.5512
3.9037 1.0184 -0.5372
3.8543 1.0467 -0.5523
3.8205 1.0819 -0.5609
3.8628 1.1386 -0.5388
3.8307 1.1744 -0.5467
3.8104 1.2137 -0.5498
3.7637 1.2489 -0.5632
3.7893 1.2963 -0.5483
3.7822 1.3377 -0.5463
3.7279 1.3747 -0.5623
3.7342 1.4174 -0.5552
3.7340 1.4588 -0.5506
3.7133 1.4994 -0.5537
3.6994 1.5403 -0.5542
3.6724 1.5817 -0.5596
3.6584 1.6229 -0.5602
3.6505 1.6634 -0.5585
3.6304 1.7052 -0.5613
3.6227 1.7454 -0.5596
3.6024 1.7875 -0.5624
3.5799 1.8304 -0.5659
3.5583 1.8734 -0.5691
3.5669 1.9094 -0.5618
3.5300 1.9565 -0.5702
3.5082 2.0003 -0.5734
3.5018 2.0396 -0.5714
3.4720 2.0864 -0.5772
3.4735 2.1228 -0.5725
3.4594 2.1643 -0.5730
3.4452 2.2059 -0.5736
3.4311 2.2474 -0.5742
3.3657 2.3112 -0.5913
3.3606 2.3497 -0.5888
3.3970 2.3682 -0.5732
3.3746 2.4137 -0.5764
4.5048 0.2067 -0.4408
4.5047 0.2564 -0.4347
4.4859 0.2741 -0.4401
4.2579 0.0838 -0.5553
4.2272 0.0990 -0.5658
4.2271 0.1572 -0.5586
4.2177 0.2020 -0.5569
4.2002 0.2363 -0.5597
4.1684 0.2544 -0.5703
4.1868 0.3306 -0.5535
4.1735 0.3697 -0.5540
4.1873 0.4363 -0.5402
4.1958 0.4952 -0.5295
4.1239 0.4778 -0.5606
4.1014 0.5092 -0.5658
4.0971 0.5566 -0.5617
4.0371 0.5593 -0.5855
4.0554 0.6243 -0.5701
4.0522 0.6715 -0.5656
4.0225 0.7964 -0.5622
3.9631 0.9507 -0.5670
3.9445 0.9880 -0.5699
3.9477 1.0336 -0.5630
3.9459 1.0765 -0.5584
3.9381 1.1168 -0.5566
3.9305 1.1568 -0.5548
3.8946 1.1899 -0.5651
3.8693 1.2265 -0.5708
3.8547 1.3070 -0.5667
3.8291 1.3447 -0.5724
3.8100 1.3836 -0.5753
3.7907 1.4229 -0.5782
3.7889 1.4629 -0.5740
3.7824 1.5023 -0.5717
3.7750 1.5414 -0.5699
3.7618 1.5804 -0.5704
3.7485 1.6195 -0.5709
3.7158 1.6605 -0.5790
3.6961 1.7009 -0.5820
3.6889 1.7397 -0.5801
3.6618 1.7817 -0.5858
3.6556 1.8201 -0.5836
3.6688 1.8538 -0.5741
3.6351 1.8979 -0.5823
3.6151 1.9392 -0.5852
3.6016 1.9790 -0.5857
3.5804 2.0211 -0.5891
3.5590 2.0636 -0.5924
3.5611 2.0981 -0.5874
3.5690 2.1298 -0.5803
3.5477 2.1721 -0.5836
3.5343 2.2115 -0.5841
3.5140 2.2540 -0.5871
3.5075 2.2904 -0.5852
3.4635 2.3443 -0.5962
3.4428 2.3879 -0.5992
4.5377 0.2041 -0.4629
4.5320 0.2438 -0.4601
4.4302 0.2239 -0.5069
4.3808 0.1996 -0.5315
4.3375 0.1889 -0.5517
4.3144 0.2106 -0.5588
4.2938 0.2367 -0.5642
4.3042 0.3039 -0.5507
4.2953 0.3445 -0.5492
4.2599 0.3536 -0.5633
4.2671 0.4130 -0.5522
4.2469 0.4410 -0.5572
4.2460 0.4896 -0.5511
4.2256 0.5179 -0.5562
4.2258 0.5662 -0.5496
4.2135 0.6023 -0.5501
4.1715 0.6136 -0.5668
4.2051 0.6873 -0.5424
4.1845 0.7165 -0.5474
4.1557 0.7406 -0.5567
4.1473 0.7796 -0.5551
4.1439 0.8214 -0.5510
4.1569 0.8722 -0.5385
4.1153 0.8911 -0.5540
4.0980 0.9247 -0.5570
4.0815 0.9590 -0.5596
4.1091 1.0128 -0.5404
4.0842 1.0428 -0.5472
4.0443 1.0681 -0.5611
4.0504 1.1107 -0.5528
4.0382 1.1465 -0.5533
4.0117 1.1785 -0.5605
3.9993 1.2148 -0.5610
4.0117 1.2560 -0.5501
3.9895 1.2898 -0.5552
3.9577 1.3229 -0.5646
3.9707 1.3621 -0.5536
3.9634 1.3982 -0.5520
3.9311 1.4326 -0.5614
3.9237 1.4689 -0.5598
3.8958 1.5049 -0.5670
3.9042 1.5407 -0.5586
3.8820 1.5771 -0.5633
3.8526 1.6145 -0.5711
3.8676 1.6482 -0.5601
3.8114 1.6898 -0.5789
3.8040 1.7260 -0.5772
3.8258 1.7566 -0.5637
3.8020 1.7950 -0.5688
3.7961 1.8298 -0.5668
3.7656 1.8704 -0.5745
3.7532 1.9070 -0.5750
3.7288 1.9471 -0.5802
3.7645 1.9686 -0.5619
3.7457 2.0065 -0.5649
3.7224 2.0464 -0.5697
3.6910 2.0897 -0.5775
3.6910 2.1213 -0.5733
3.6342 2.1763 -0.5905
3.6664 2.1938 -0.5743
3.6796 2.2183 -0.5653
3.6674 2.2540 -0.5657
3.6612 2.2867 -0.5641
4.4754 0.2350 -0.5230
4.4329 0.2172 -0.5453
4.3926 0.2070 -0.5655
4.3807 0.2421 -0.5660
4.3759 0.2875 -0.5616
4.3674 0.3268 -0.5599
4.3684 0.3782 -0.5520
4.3499 0.4039 -0.5569
4.3348 0.4343 -0.5596
4.3125 0.4569 -0.5666
4.3048 0.4966 -0.5645
4.2731 0.5584 -0.5703
4.2833 0.6142 -0.5575
4.2679 0.6452 -0.5602
4.2597 0.7264 -0.5522
4.2366 0.7942 -0.5532
4.1577 0.9121 -0.5728
4.1297 0.9801 -0.5760
4.1369 1.1389 -0.5497
4.1131 1.1687 -0.5564
4.1016 1.2025 -0.5569
4.0820 1.2345 -0.5614
4.0750 1.2695 -0.5596
4.0543 1.3019 -0.5646
4.0519 1.3374 -0.5605
4.0441 1.3717 -0.5592
4.0288 1.4053 -0.5615
4.0125 1.4390 -0.5642
4.0057 1.4731 -0.5624
3.9796 1.5071 -0.5696
3.9542 1.5419 -0.5764
3.9424 1.5766 -0.5769
3.9346 1.6110 -0.5755
3.9278 1.6451 -0.5737
3.9212 1.6789 -0.5719
3.9249 1.7108 -0.5656
3.9030 1.7466 -0.5706
3.8715 1.7849 -0.5797
3.8639 1.8187 -0.5783
3.8787 1.8465 -0.5674
3.8458 1.8864 -0.5770
3.8394 1.9193 -0.5752
3.8169 1.9571 -0.5802
3.7952 1.9951 -0.5848
3.7933 2.0263 -0.5812
3.7771 2.0627 -0.5835
3.7754 2.0933 -0.5798
3.7353 2.1398 -0.5917
3.7233 2.1750 -0.5922
3.7172 2.2074 -0.5904
3.7180 2.2362 -0.5858
3.7004 2.2739 -0.5886
4.5870 0.3209 -0.4921
4.5596 0.3191 -0.5059
4.5287 0.3137 -0.5221
4.4611 0.2518 -0.5653
4.4637 0.3064 -0.5555
4.4559 0.3437 -0.5536
4.4474 0.3798 -0.5522
4.4220 0.3922 -0.5629
4.4255 0.4443 -0.5531
4.4118 0.4732 -0.5554
4.4097 0.5162 -0.5497
4.3863 0.5340 -0.5586
4.3696 0.5603 -0.5628
4.3770 0.6123 -0.5510
4.3596 0.6379 -0.5557
4.3458 0.6674 -0.5580
4.3310 0.6965 -0.5608
4.3297 0.7372 -0.5551
4.3256 0.7749 -0.5513
4.3239 0.8137 -0.5461
4.3070 0.8409 -0.5503
4.2962 0.8727 -0.5507
4.2980 0.9126 -0.5436
4.2609 0.9283 -0.5596
4.2872 0.9812 -0.5383
4.2357 0.9912 -0.5624
4.2205 1.0216 -0.5652
4.2380 1.0666 -0.5495
4.2370 1.1373 -0.5390
4.2092 1.1625 -0.5489
4.1845 1.1898 -0.5570
4.1771 1.2227 -0.5555
4.1770 1.2570 -0.5502
4.1483 1.2849 -0.5602
4.1410 1.3175 -0.5587
4.1486 1.3520 -0.5496
4.1528 1.3850 -0.5424
4.1319 1.4152 -0.5481
4.1014 1.4454 -0.5585
4.0782 1.4769 -0.5652
4.0672 1.5091 -0.5656
4.0689 1.5408 -0.5598
4.0581 1.5727 -0.5602
4.0553 1.6038 -0.5568
4.0325 1.6367 -0.5630
4.0085 1.6705 -0.5697
4.0189 1.6993 -0.5600
4.0205 1.7287 -0.5547
3.9974 1.7627 -0.5609
3.9740 1.7973 -0.5671
3.9800 1.8250 -0.5598
3.9469 1.8629 -0.5704
3.9317 1.8963 -0.5728
3.9304 1.9254 -0.5688
3.9054 1.9624 -0.5756
3.9131 1.9879 -0.5678
3.8878 2.0254 -0.5745
3.8869 2.0536 -0.5706
3.8895 2.0798 -0.5652
3.8594 2.1202 -0.5739
3.8485 2.1523 -0.5743
3.8479 2.1794 -0.5704
4.6138 0.2649 -0.5210
4.6115 0.3083 -0.5150
4.6041 0.3413 -0.5134
4.5962 0.3730 -0.5123
4.5702 0.3736 -0.5260
4.5209 0.3384 -0.5579
4.5035 0.3585 -0.5637
4.4955 0.3935 -0.5622
4.4920 0.4347 -0.5572
4.4743 0.4556 -0.5630
4.4658 0.4892 -0.5619
4.4552 0.5202 -0.5624
4.4373 0.5422 -0.5682
4.4479 0.5980 -0.5533
4.4320 0.6223 -0.5577
4.4131 0.6441 -0.5640
4.3976 0.6700 -0.5679
4.3698 0.7264 -0.5732
4.3591 0.7578 -0.5737
4.3560 0.8345 -0.5626
4.3486 0.8674 -0.5610
4.3234 0.8881 -0.5709
4.3097 0.9172 -0.5733
4.3070 0.9900 -0.5627
4.2998 1.0223 -0.5611
4.2762 1.0466 -0.5695
4.2632 1.0764 -0.5714
4.2585 1.1099 -0.5683
4.2446 1.1395 -0.5708
4.2444 1.1739 -0.5652
4.2410 1.2066 -0.5616
4.2167 1.2666 -0.5644
4.2027 1.2964 -0.5668
4.1996 1.3283 -0.5632
4.1746 1.3567 -0.5717
4.1789 1.3892 -0.5640
4.1722 1.4199 -0.5624
4.1657 1.4504 -0.5608
4.1440 1.4804 -0.5673
4.1413 1.5109 -0.5637
4.1271 1.5413 -0.5661
4.1207 1.5715 -0.5645
4.1143 1.6015 -0.5629
4.0881 1.6335 -0.5714
4.0857 1.6630 -0.5678
4.0632 1.6955 -0.5743
4.0568 1.7254 -0.5726
4.0464 1.7561 -0.5731
4.0402 1.7857 -0.5714
4.0130 1.8207 -0.5800
4.0109 1.8492 -0.5763
3.9919 1.8826 -0.5808
3.9900 1.9107 -0.5772
3.9589 1.9487 -0.5873
3.9603 1.9755 -0.5821
3.9437 2.0356 -0.5809
3.9287 2.0684 -0.5834
3.9001 2.1075 -0.5920
3.9122 2.1281 -0.5822
4.6128 0.2993 -0.5495
4.6030 0.3281 -0.5499
4.5973 0.3644 -0.5467
4.5875 0.3931 -0.5471
4.5717 0.4118 -0.5526
4.5655 0.4466 -0.5499
4.5451 0.4593 -0.5591
4.5377 0.4922 -0.5575
4.5323 0.5277 -0.5542
4.5401 0.5801 -0.5405
4.5258 0.6024 -0.5446
4.5094 0.6227 -0.5502
4.5017 0.6538 -0.5490
4.4989 0.6900 -0.5442
4.4850 0.7140 -0.5477
4.4753 0.7425 -0.5481
4.4699 0.7751 -0.5453
4.4458 0.7903 -0.5562
4.4286 0.8129 -0.5618
4.4261 0.8481 -0.5570
4.4110 0.8729 -0.5610
4.4194 0.9152 -0.5488
4.4075 0.9421 -0.5508
4.3868 0.9636 -0.5585
4.3825 0.9958 -0.5552
4.3784 1.0276 -0.5519
4.3630 1.0532 -0.5560
4.3720 1.0909 -0.5443
4.3542 1.1153 -0.5499
4.3362 1.1403 -0.5556
4.3350 1.1721 -0.5507
4.2929 1.1896 -0.5712
4.3269 1.2321 -0.5446
4.3034 1.2564 -0.5534
4.2999 1.2863 -0.5501
4.2690 1.3103 -0.5632
4.2654 1.3402 -0.5599
4.2620 1.3698 -0.5566
4.2578 1.3989 -0.5538
4.2482 1.4272 -0.5542
4.2292 1.4552 -0.5599
4.2194 1.4838 -0.5603
4.2002 1.5125 -0.5660
4.2163 1.5404 -0.5520
4.1970 1.5692 -0.5577
4.1805 1.5983 -0.5618
4.1639 1.6277 -0.5659
4.1511 1.6569 -0.5679
4.1412 1.6858 -0.5683
4.1345 1.7141 -0.5671
4.1247 1.7429 -0.5675
4.1221 1.7700 -0.5641
4.1051 1.8005 -0.5683
4.1237 1.8212 -0.5542
4.1035 1.8525 -0.5599
4.0907 1.8820 -0.5619
4.0886 1.9077 -0.5586
4.0496 1.9470 -0.5735
4.0463 1.9734 -0.5706
4.0254 2.0068 -0.5764
4.0155 2.0359 -0.5768
4.0214 2.0577 -0.5696
4.0264 2.0794 -0.5630
4.0099 2.1111 -0.5666
4.0117 2.1337 -0.5616
4.6447 0.3030 -0.5640
4.6386 0.3378 -0.5611
4.6313 0.3701 -0.5593
4.6218 0.3980 -0.5597
4.6029 0.4538 -0.5605
4.5909 0.4778 -0.5630
4.5895 0.5182 -0.5563
4.5838 0.5514 -0.5534
4.5624 0.5619 -0.5642
4.5651 0.6064 -0.5541
4.5663 0.6473 -0.5457
4.5491 0.6646 -0.5527
4.5350 0.6865 -0.5569
4.5195 0.7072 -0.5622
4.5069 0.7693 -0.5580
4.5025 0.8016 -0.5546
4.4838 0.8205 -0.5621
4.4766 0.8501 -0.5608
4.4581 0.9738 -0.5485
4.4421 1.0292 -0.5476
4.4234 1.0508 -0.5546
4.4117 1.0768 -0.5566
4.4079 1.1379 -0.5474
4.3888 1.1608 -0.5544
4.3871 1.1907 -0.5498
4.3805 1.2185 -0.5485
4.3361 1.3242 -0.5549
4.3057 1.4052 -0.5577
4.3048 1.4329 -0.5530
4.2900 1.4596 -0.5568
4.2893 1.4868 -0.5521
4.2773 1.5137 -0.5541
4.2567 1.5411 -0.5612
4.2503 1.5681 -0.5599
4.2381 1.5955 -0.5620
4.2132 1.6246 -0.5713
4.2097 1.6514 -0.5683
4.2044 1.6783 -0.5664
4.1661 1.7630 -0.5732
4.1474 1.7931 -0.5786
4.1536 1.8165 -0.5706
4.1210 1.8512 -0.5834
4.1189 1.8768 -0.5798
4.1159 1.9024 -0.5768
4.1097 1.9289 -0.5754
4.0763 1.9662 -0.5883
4.0766 1.9903 -0.5836
4.0715 2.0163 -0.5817
4.0754 2.0380 -0.5752
4.0739 2.0618 -0.5717
4.0714 2.0858 -0.5686
4.6885 0.3808 -0.5546
4.6757 0.4433 -0.5501
4.6587 0.4547 -0.5585
4.6479 0.4781 -0.5606
4.6371 0.5017 -0.5627
4.6190 0.5551 -0.5634
4.6099 0.5818 -0.5638
4.5989 0.6058 -0.5659
4.6026 0.6498 -0.5547
4.5918 0.6735 -0.5568
4.5776 0.6934 -0.5618
4.5779 0.7309 -0.5540
4.5724 0.7608 -0.5515
4.5676 0.7912 -0.5484
4.5547 0.8128 -0.5522
4.5339 0.8273 -0.5624
4.5313 0.8596 -0.5576
4.5383 0.8996 -0.5452
4.5178 0.9157 -0.5548
4.5149 0.9463 -0.5505
4.5144 0.9782 -0.5445
4.4867 0.9908 -0.5593
4.4947 1.0278 -0.5469
4.4712 1.0446 -0.5583
4.4733 1.0769 -0.5505
4.4621 1.1014 -0.5526
4.4445 1.1230 -0.5594
4.4308 1.1470 -0.5632
4.4308 1.1770 -0.5572
4.4154 1.2005 -0.5622
4.4157 1.2299 -0.5561
4.4094 1.2565 -0.5547
4.4006 1.2824 -0.5551
4.3823 1.3060 -0.5619
4.3734 1.3322 -0.5622
4.3672 1.3588 -0.5608
4.3601 1.3851 -0.5600
4.3594 1.4119 -0.5551
4.3552 1.4380 -0.5525
4.3234 1.4627 -0.5675
4.3145 1.4890 -0.5679
4.3187 1.5151 -0.5600
4.3260 1.5404 -0.5504
4.2962 1.5673 -0.5636
4.2874 1.5934 -0.5640
4.2785 1.6194 -0.5643
4.2775 1.6443 -0.5600
4.2628 1.6712 -0.5639
4.2629 1.6954 -0.5589
4.2431 1.7237 -0.5658
4.2311 1.7505 -0.5679
4.2305 1.7744 -0.5635
4.2217 1.8003 -0.5639
4.2191 1.8243 -0.5607
4.1920 1.8793 -0.5667
4.1681 1.9111 -0.5753
4.1689 1.9335 -0.5704
4.1534 1.9624 -0.5743
4.1599 1.9819 -0.5663
4.1355 2.0150 -0.5750
4.1524 2.0288 -0.5617
4.1210 2.0659 -0.5739
4.7146 0.4233 -0.5601
4.7119 0.5022 -0.5452
4.6702 0.5485 -0.5630
4.6615 0.5739 -0.5633
4.6540 0.6013 -0.5625
4.6522 0.6368 -0.5562
4.6436 0.6620 -0.5565
4.6364 0.6888 -0.5557
4.6246 0.7097 -0.5590
4.6193 0.7390 -0.5564
4.6094 0.7625 -0.5579
4.5975 0.7838 -0.5613
4.5869 0.8069 -0.5634
4.5749 0.8287 -0.5668
4.5662 0.8542 -0.5671
4.5611 0.8829 -0.5644
4.5596 0.9145 -0.5587
4.5532 0.9414 -0.5573
4.5240 1.0138 -0.5613
4.5230 1.0439 -0.5556
4.5107 1.0664 -0.5590
4.4999 1.0901 -0.5611
4.5040 1.1218 -0.5517
4.4892 1.1433 -0.5569
4.4641 1.1897 -0.5637
4.4597 1.2164 -0.5610
4.4620 1.2450 -0.5534
4.4427 1.2937 -0.5559
4.4300 1.3174 -0.5593
4.3913 1.3902 -0.5695
4.4007 1.4173 -0.5576
4.3968 1.4424 -0.5548
4.3793 1.4666 -0.5613
4.3708 1.4915 -0.5616
4.3614 1.5409 -0.5574
4.3266 1.6160 -0.5646
4.3181 1.6409 -0.5649
4.2982 1.6914 -0.5674
4.2846 1.7175 -0.5709
4.2781 1.7422 -0.5700
4.2645 1.7686 -0.5734
4.2673 1.7905 -0.5669
4.2505 1.8181 -0.5722
4.2388 1.8443 -0.5744
4.2302 1.8695 -0.5748
4.1904 1.9728 -0.5792
4.1851 1.9966 -0.5777
4.1821 2.0191 -0.5749
4.1612 2.0506 -0.5821
4.7407 0.5480 -0.5448
4.7304 0.5674 -0.5476
4.7183 0.5840 -0.5523
4.7125 0.6120 -0.5501
4.7003 0.6290 -0.5549
4.6939 0.6558 -0.5533
4.6870 0.6816 -0.5524
4.6745 0.6993 -0.5571
4.6632 0.7190 -0.5606
4.6505 0.7374 -0.5653
4.6500 0.7715 -0.5581
4.6464 0.8010 -0.5540
4.6462 0.8340 -0.5467
4.6301 0.8488 -0.5546
4.6138 0.8642 -0.5626
4.6091 0.8918 -0.5597
4.6142 0.9282 -0.5480
4.5977 0.9443 -0.5559
4.5881 0.9670 -0.5575
4.5741 0.9864 -0.5629
4.5733 1.0159 -0.5569
4.5704 1.0434 -0.5528
4.5623 1.0671 -0.5531
4.5489 1.0876 -0.5579
4.5408 1.1115 -0.5582
4.5327 1.1353 -0.5585
4.5285 1.1611 -0.5557
4.5148 1.1824 -0.5605
4.5124 1.2086 -0.5563
4.5116 1.2351 -0.5509
4.5020 1.2581 -0.5525
4.4940 1.2816 -0.5528
4.4758 1.3025 -0.5608
4.4754 1.3282 -0.5554
4.4596 1.3503 -0.5614
4.4532 1.3744 -0.5605
4.4433 1.3980 -0.5621
4.4432 1.4227 -0.5567
4.4253 1.4457 -0.5640
4.4317 1.4702 -0.5541
4.4109 1.4936 -0.5634
4.4157 1.5172 -0.5547
4.4012 1.5410 -0.5595
4.3912 1.5649 -0.5612
4.3850 1.5884 -0.5602
4.3751 1.6124 -0.5618
4.3670 1.6361 -0.5621
4.3491 1.6616 -0.5689
4.3459 1.6846 -0.5660
4.3428 1.7074 -0.5631
4.3387 1.7301 -0.5608
4.3236 1.7557 -0.5657
4.3185 1.7786 -0.5640
4.3105 1.8023 -0.5644
4.2919 1.8297 -0.5712
4.2838 1.8537 -0.5715
4.2862 1.8736 -0.5653
4.2781 1.8973 -0.5657
4.2647 1.9234 -0.5692
4.2642 1.9438 -0.5650
4.2484 1.9712 -0.5699
4.2425 1.9940 -0.5689
4.2400 2.0149 -0.5660
4.7624 0.5808 -0.5500
4.7452 0.5858 -0.5615
4.7424 0.6183 -0.5559
4.7345 0.6414 -0.5562
4.7302 0.6703 -0.5526
4.7212 0.6914 -0.5542
4.6990 0.7620 -0.5538
4.6652 0.8507 -0.5577
4.6587 0.8752 -0.5567
4.6471 0.9252 -0.5534
4.6288 0.9683 -0.5566
4.6135 1.0430 -0.5503
4.5966 1.0873 -0.5522
4.5851 1.1077 -0.5559
4.5888 1.1370 -0.5462
4.5845 1.1872 -0.5375
4.5691 1.2057 -0.5445
4.5458 1.2473 -0.5517
4.5398 1.2704 -0.5507
4.5305 1.2925 -0.5523
4.5194 1.3141 -0.5553
4.5219 1.3392 -0.5476
4.4997 1.3587 -0.5593
4.4946 1.3819 -0.5576
4.4842 1.4043 -0.5599
4.4708 1.4731 -0.5534
4.4559 1.4956 -0.5591
4.4537 1.5182 -0.5554
4.4404 1.5411 -0.5597
4.4269 1.5863 -0.5590
4.4144 1.6096 -0.5627
4.4134 1.6314 -0.5583
4.4037 1.6544 -0.5599
4.3940 1.6775 -0.5616
4.3638 1.7477 -0.5672
4.3427 1.7746 -0.5763
4.3389 1.7966 -0.5739
4.3269 1.8212 -0.5769
4.3169 1.8452 -0.5786
4.3127 1.8870 -0.5718
4.3092 1.9081 -0.5694
4.3036 1.9301 -0.5683
4.2892 1.9561 -0.5727
4.2737 1.9830 -0.5778
4.8009 0.5737 -0.5504
4.7988 0.6067 -0.5439
4.7838 0.6134 -0.5537
4.7807 0.6439 -0.5486
4.7688 0.6576 -0.5543
4.7578 0.6738 -0.5587
4.7549 0.7038 -0.5535
4.7462 0.7239 -0.5552
4.7351 0.7405 -0.5596
4.7360 0.7752 -0.5503
4.7224 0.7885 -0.5575
4.7161 0.8123 -0.5564
4.7061 0.8312 -0.5594
4.7024 0.8581 -0.5556
4.6949 0.8801 -0.5559
4.6953 0.9109 -0.5480
4.6866 0.9312 -0.5497
4.6751 0.9489 -0.5541
4.6635 0.9670 -0.5585
4.6588 0.9916 -0.5561
4.6527 1.0147 -0.5550
4.6481 1.0389 -0.5525
4.6349 1.0565 -0.5583
4.6245 1.0765 -0.5614
4.6244 1.1035 -0.5548
4.6184 1.1263 -0.5537
4.5959 1.1659 -0.5612
4.5977 1.1925 -0.5532
4.5825 1.2108 -0.5604
4.5877 1.2380 -0.5497
4.5787 1.2590 -0.5513
4.5681 1.2796 -0.5544
4.5541 1.2994 -0.5602
4.5533 1.3232 -0.5550
4.5442 1.3446 -0.5567
4.5368 1.3664 -0.5570
4.5397 1.3899 -0.5489
4.5092 1.4314 -0.5620
4.4964 1.4530 -0.5665
4.4996 1.4756 -0.5584
4.4904 1.4974 -0.5601
4.4885 1.5191 -0.5562
4.4755 1.5412 -0.5607
4.4700 1.5629 -0.5596
4.4606 1.5849 -0.5613
4.4570 1.6063 -0.5588
4.4323 1.6308 -0.5717
4.4364 1.6509 -0.5636
4.4231 1.6741 -0.5681
4.4096 1.6976 -0.5726
4.4100 1.7178 -0.5673
4.4025 1.7398 -0.5676
4.3971 1.7612 -0.5665
4.3916 1.7826 -0.5654
4.3862 1.8038 -0.5643
4.3788 1.8256 -0.5646
4.3671 1.8492 -0.5677
4.3491 1.8757 -0.5750
4.3500 1.8941 -0.5697
4.3404 1.9172 -0.5714
4.3372 1.9372 -0.5689
4.3254 1.9614 -0.5720
4.3179 1.9835 -0.5723
4.8141 0.6291 -0.5527
4.8069 0.6503 -0.5530
4.7958 0.6988 -0.5493
4.7897 0.7218 -0.5481
4.7843 0.7457 -0.5463
4.7595 0.7712 -0.5597
4.7316 0.8584 -0.5594
4.7231 0.8782 -0.5611
4.7184 0.9026 -0.5586
4.7118 0.9247 -0.5581
4.6926 0.9625 -0.5637
4.6867 0.9853 -0.5626
4.6842 1.0110 -0.5579
4.6459 1.1156 -0.5614
4.6420 1.1643 -0.5520
4.6265 1.1807 -0.5602
4.6064 1.2450 -0.5596
4.6080 1.2695 -0.5520
4.5881 1.3095 -0.5576
4.5809 1.3306 -0.5578
4.5754 1.3520 -0.5567
4.5725 1.3738 -0.5534
4.5637 1.3944 -0.5551
4.5505 1.4146 -0.5604
4.5381 1.4352 -0.5651
4.5327 1.4566 -0.5639
4.5290 1.4779 -0.5613
4.5254 1.4991 -0.5587
4.5146 1.5202 -0.5619
4.5111 1.5411 -0.5593
4.5049 1.5620 -0.5588
4.4912 1.5837 -0.5642
4.4774 1.6058 -0.5695
4.4768 1.6260 -0.5648
4.4518 1.6707 -0.5733
4.4464 1.6916 -0.5722
4.4372 1.7136 -0.5739
4.4409 1.7319 -0.5662
4.4296 1.7543 -0.5694
4.4254 1.7931 -0.5627
4.3966 1.8224 -0.5783
4.3955 1.8415 -0.5742
4.4040 1.8562 -0.5635
4.3905 1.8800 -0.5682
4.3875 1.8992 -0.5656
4.3825 1.9192 -0.5644
4.3732 1.9413 -0.5661
4.3639 1.9635 -0.5679
4.8370 0.6677 -0.5494
4.8274 0.6827 -0.5534
4.8248 0.7115 -0.5477
4.8190 0.7338 -0.5465
4.8105 0.7510 -0.5490
4.8013 0.7674 -0.5523
4.7973 0.7924 -0.5488
4.7875 0.8081 -0.5528
4.7835 0.8329 -0.5494
4.7706 0.8446 -0.5571
4.7667 0.8692 -0.5536
4.7536 0.8816 -0.5613
4.7528 0.9100 -0.5542
4.7453 0.9296 -0.5552
4.7416 0.9536 -0.5518
4.7399 0.9794 -0.5461
4.7265 0.9928 -0.5538
4.7182 1.0118 -0.5556
4.7126 1.0334 -0.5544
4.7071 1.0549 -0.5531
4.7023 1.0768 -0.5512
4.6884 1.0916 -0.5589
4.6850 1.1146 -0.5555
4.6817 1.1374 -0.5520
4.6697 1.1544 -0.5575
4.6658 1.1764 -0.5548
4.6596 1.1971 -0.5543
4.6482 1.2151 -0.5591
4.6397 1.2348 -0.5608
4.6382 1.2575 -0.5559
4.6282 1.2766 -0.5592
4.6268 1.2988 -0.5542
4.6232 1.3200 -0.5515
4.6107 1.3385 -0.5570
4.6062 1.3593 -0.5550
4.6052 1.3807 -0.5501
4.5968 1.4004 -0.5518
4.5891 1.4203 -0.5529
4.5831 1.4405 -0.5524
4.5719 1.4603 -0.5564
4.5607 1.4803 -0.5604
4.5493 1.5006 -0.5645
4.5441 1.5210 -0.5632
4.5381 1.5413 -0.5628
4.5349 1.5614 -0.5600
4.5326 1.5811 -0.5565
4.5173 1.6024 -0.5636
4.5142 1.6222 -0.5608
4.5025 1.6433 -0.5649
4.4917 1.6646 -0.5682
4.4828 1.6856 -0.5700
4.4945 1.7011 -0.5559
4.4877 1.7211 -0.5562
4.4678 1.7453 -0.5663
4.4670 1.7636 -0.5620
4.4662 1.7817 -0.5578
4.4594 1.8017 -0.5580
4.4360 1.8286 -0.5704
4.4436 1.8428 -0.5601
4.4315 1.8653 -0.5641
4.4299 1.8830 -0.5606
4.4059 1.9116 -0.5730
4.4065 1.9283 -0.5680
4.4159 1.9399 -0.5569
4.8538 0.6943 -0.5527
4.8399 0.7326 -0.5540
4.8332 0.7524 -0.5542
4.8286 0.7760 -0.5514
4.8130 0.8116 -0.5550
4.8023 0.8249 -0.5607
4.7935 0.8716 -0.5551
4.7838 0.8872 -0.5592
4.7783 0.9086 -0.5579
4.7715 0.9284 -0.5582
4.7648 0.9482 -0.5584
4.7466 1.0095 -0.5569
4.7432 1.0324 -0.5534
4.7354 1.0762 -0.5477
4.7187 1.1123 -0.5521
4.7121 1.1318 -0.5524
4.7055 1.1513 -0.5526
4.7010 1.1721 -0.5506
4.6848 1.2093 -0.5542
4.6657 1.2682 -0.5542
4.6591 1.2877 -0.5545
4.6450 1.3264 -0.5558
4.6408 1.3466 -0.5537
4.6342 1.3660 -0.5540
4.6251 1.3850 -0.5566
4.6210 1.4049 -0.5545
4.6178 1.4247 -0.5517
4.6112 1.4441 -0.5519
4.5951 1.4628 -0.5608
4.5902 1.4825 -0.5595
4.5862 1.5020 -0.5574
4.5786 1.5216 -0.5584
4.5702 1.5412 -0.5603
4.5635 1.5607 -0.5605
4.5350 1.6394 -0.5632
4.5331 1.6579 -0.5595
4.5236 1.6782 -0.5621
4.5199 1.6969 -0.5600
4.5054 1.7188 -0.5666
4.4970 1.7564 -0.5632
4.4867 1.7944 -0.5614
4.4832 1.8126 -0.5593
4.4735 1.8333 -0.5619
4.4637 1.8543 -0.5645
4.4592 1.8728 -0.5632
4.4504 1.8934 -0.5650
4.4405 1.9146 -0.5677
4.4404 1.9308 -0.5632
4.5825 1.8798 -0.4528
6.0358 1.6385 -0.5378
6.0327 1.6579 -0.5411
6.0239 1.6764 -0.5391
6.0224 1.6964 -0.5439
6.0160 1.7154 -0.5442
6.0096 1.7345 -0.5444
6.0008 1.7527 -0.5424
6.0006 1.7740 -0.5488
5.9904 1.7916 -0.5452
5.9832 1.8103 -0.5447
5.9746 1.8282 -0.5426
5.9734 1.8499 -0.5482
5.9662 1.8686 -0.5477
5.9562 1.8855 -0.5441
5.9519 1.9059 -0.5467
5.9448 1.9244 -0.5461
5.9405 1.9450 -0.5487
5.9341 1.9641 -0.5490
5.9257 1.9815 -0.5469
5.9232 2.0041 -0.5518
5.9175 2.0239 -0.5528
5.9052 2.0372 -0.5461
5.9001 2.0575 -0.5479
5.8956 2.0787 -0.5504
5.8879 2.0963 -0.5491
5.8827 2.1169 -0.5509
5.8745 2.1336 -0.5489
5.8663 2.1501 -0.5468
5.8599 2.1691 -0.5470
5.8559 2.1915 -0.5504
5.8495 2.2106 -0.5506
5.8425 2.2287 -0.5501
5.8361 2.2477 -0.5503
5.8303 2.2677 -0.5514
5.8249 2.2888 -0.5532
5.8169 2.3048 -0.5511
5.8105 2.3238 -0.5513
5.8062 2.3471 -0.5547
5.7992 2.3651 -0.5542
5.7918 2.3820 -0.5528
5.7850 2.3998 -0.5523
6.0266 1.7401 -0.5362
6.0232 1.7606 -0.5394
6.0192 1.8035 -0.5489
5.9895 1.9051 -0.5539
5.9630 1.9603 -0.5479
5.9497 1.9998 -0.5485
5.9471 2.0233 -0.5532
5.9437 2.0464 -0.5572
5.9350 2.0644 -0.5552
5.9055 2.1131 -0.5448
5.9007 2.1350 -0.5473
5.8972 2.1587 -0.5513
5.8923 2.1809 -0.5538
5.8688 2.2351 -0.5500
5.8291 2.3533 -0.5516
5.8225 2.3730 -0.5518
5.8102 2.4147 -0.5539
6.0377 1.8346 -0.5476
6.0323 1.8559 -0.5493
6.0209 1.8740 -0.5452
6.0103 1.8923 -0.5419
6.0050 1.9136 -0.5436
5.9996 1.9349 -0.5453
5.9934 1.9558 -0.5463
5.9858 1.9757 -0.5458
5.9811 1.9978 -0.5483
5.9707 2.0154 -0.5449
5.9659 2.0376 -0.5474
5.9617 2.0606 -0.5505
5.9515 2.0778 -0.5472
5.9453 2.0989 -0.5482
5.9384 2.1194 -0.5484
5.9328 2.1413 -0.5501
5.9247 2.1603 -0.5490
5.9178 2.1807 -0.5492
5.9103 2.2003 -0.5488
5.8993 2.2148 -0.5440
5.8972 2.2420 -0.5500
5.8886 2.2598 -0.5481
5.8846 2.2848 -0.5520
5.8765 2.3034 -0.5508
5.8697 2.3238 -0.5511
5.8639 2.3463 -0.5528
5.8570 2.3668 -0.5531
5.8485 2.3841 -0.5512
5.8422 2.4056 -0.5521
5.8348 2.4249 -0.5517
5.8279 2.4453 -0.5519
5.8201 2.4634 -0.5508
6.0416 1.4671 -0.4253
6.0387 1.4835 -0.4275
6.0363 1.8572 -0.5270
6.0066 2.0435 -0.5547
5.9994 2.0650 -0.5550
5.9854 2.0801 -0.5484
5.9737 2.1548 -0.5596
5.9651 2.1749 -0.5585
5.9591 2.1981 -0.5602
5.9475 2.2141 -0.5556
5.9067 2.3140 -0.5514
5.8875 2.3818 -0.5550
5.8803 2.4032 -0.5553
5.8753 2.4288 -0.5584
5.8680 2.4503 -0.5587
5.8557 2.4606 -0.5519
5.8475 2.4795 -0.5508
6.0405 2.0129 -0.5449
6.0302 2.0327 -0.5426
6.0271 2.0582 -0.5469
6.0196 2.0803 -0.5471
6.0136 2.1036 -0.5488
6.0048 2.1244 -0.5477
5.9973 2.1465 -0.5480
5.9886 2.1671 -0.5469
5.9838 2.1922 -0.5499
5.9763 2.2143 -0.5502
5.9613 2.2268 -0.5425
5.9615 2.2586 -0.5508
5.9466 2.3028 -0.5513
5.9379 2.3232 -0.5503
5.9168 2.3914 -0.5525
5.9094 2.4135 -0.5528
5.9008 2.4336 -0.5517
5.8934 2.4556 -0.5520
5.8860 2.4777 -0.5523
5.8785 2.4998 -0.5526
5.8721 2.5242 -0.5542
5.8647 2.5463 -0.5545
6.0414 1.4111 -0.3701
6.0428 1.4716 -0.3860
6.0382 1.4881 -0.3869
6.0544 1.6670 -0.4422
6.0250 2.2352 -0.5621
6.0132 2.2541 -0.5585
6.0066 2.2791 -0.5601
5.9887 2.2892 -0.5501
5.9708 2.3665 -0.5568
5.9606 2.3861 -0.5545
5.9528 2.4092 -0.5548
5.9422 2.4274 -0.5519
5.9123 2.5217 -0.5544
5.9072 2.5505 -0.5579
5.8967 2.5679 -0.5550
5.8880 2.5886 -0.5540
6.0378 2.2452 -0.5443
6.0298 2.2691 -0.5446
6.0244 2.2961 -0.5473
6.0151 2.3184 -0.5464
6.0070 2.3423 -0.5467
6.0021 2.3706 -0.5501
5.9680 2.4636 -0.5495
5.9617 2.4906 -0.5517
5.9508 2.5094 -0.5489
5.9439 2.5354 -0.5504
5.9348 2.5571 -0.5495
5.9171 2.5607 -0.5387
5.8928 2.5483 -0.5198
5.8795 2.5579 -0.5132
6.0424 1.4308 -0.3366
6.0274 2.4759 -0.5606
6.0242 2.5102 -0.5662
6.0091 2.5250 -0.5600
5.9924 2.5361 -0.5521
5.9754 2.5455 -0.5436
5.9626 2.5616 -0.5391
5.9372 2.5519 -0.5211
5.8956 2.5437 -0.4933
5.8791 2.5460 -0.4835
6.0492 1.4027 -0.3157
6.0469 1.4177 -0.3175
6.0244 2.5021 -0.5338
6.0289 2.5496 -0.5465
6.0119 2.5613 -0.5390
5.9184 2.5428 -0.4798
5.9004 2.5437 -0.4693
6.0458 1.4351 -0.3017
6.0435 1.4504 -0.3034
6.0352 1.4667 -0.3021
6.0342 2.5096 -0.5106
6.0358 2.5523 -0.5201
6.0140 2.5557 -0.5086
5.9217 2.5395 -0.4538
5.9036 2.5401 -0.4439
6.0404 1.3693 -0.2678
6.0428 1.3820 -0.2715
6.0450 1.3951 -0.2751
6.0471 1.4085 -0.2788
6.0469 1.4374 -0.2841
6.0416 1.4531 -0.2843
6.0404 1.4682 -0.2865
6.0409 2.5122 -0.4845
6.0409 2.5519 -0.4920
6.0219 2.5604 -0.4837
5.9749 2.5170 -0.4508
5.9639 2.5354 -0.4485
5.9520 2.5513 -0.4453
5.9106 2.5447 -0.4223
5.8987 2.5575 -0.4185
6.0508 1.2919 -0.2418
6.0494 1.3048 -0.2434
6.0550 1.3278 -0.2502
6.0500 1.3426 -0.2504
6.0518 1.3685 -0.2559
6.0510 1.3823 -0.2580
6.0491 1.3967 -0.2596
6.0449 1.4402 -0.2653
6.0458 1.4547 -0.2684
6.0466 1.4695 -0.2714
6.0432 1.4851 -0.2725
6.0379 1.5010 -0.2727
6.0431 1.5649 -0.2867
6.0432 1.5818 -0.2898
6.0375 1.5986 -0.2900
6.0375 1.6159 -0.2930
6.0410 2.5435 -0.4603
6.0189 2.5464 -0.4500
5.9955 2.5450 -0.4382
5.9802 2.5563 -0.4327
5.9570 2.5515 -0.4204
5.9226 2.5599 -0.4050
6.0490 1.2958 -0.2250
6.0509 1.3072 -0.2278
6.0539 1.3185 -0.2311
6.0523 1.3318 -0.2326
6.0485 1.3461 -0.2332
6.0511 1.3582 -0.2365
6.0461 1.3730 -0.2367
6.0508 1.3851 -0.2408
6.0457 1.4002 -0.2410
6.0490 1.4132 -0.2447
6.0491 1.4274 -0.2471
6.0459 1.4424 -0.2482
6.0469 1.4568 -0.2511
6.0477 1.4715 -0.2539
6.0444 1.4871 -0.2550
6.0431 1.5026 -0.2570
6.0426 1.5182 -0.2594
6.0425 1.5501 -0.2647
6.0456 1.5666 -0.2689
6.0448 1.5834 -0.2713
6.0391 1.6174 -0.2744
6.0380 1.6896 -0.2860
6.0347 1.7078 -0.2876
6.0341 1.7269 -0.2905
6.0377 1.7477 -0.2956
6.0372 1.8093 -0.3057
6.0368 1.8306 -0.3091
6.0391 2.5718 -0.4345
6.0002 2.5443 -0.4120
5.9765 2.5403 -0.4004
5.9567 2.5416 -0.3915
5.9449 2.5567 -0.3886
5.9126 2.5668 -0.3755
6.0516 1.2978 -0.2102
6.0491 1.3110 -0.2112
6.0510 1.3226 -0.2138
6.0528 1.3345 -0.2165
6.0512 1.3479 -0.2179
6.0518 1.3608 -0.2201
6.0511 1.3742 -0.2220
6.0515 1.3876 -0.2242
6.0475 1.4023 -0.2249
6.0467 1.4163 -0.2267
6.0479 1.4301 -0.2294
6.0448 1.4450 -0.2304
6.0448 1.4594 -0.2327
6.0437 1.4743 -0.2345
6.0496 1.4886 -0.2393
6.0403 1.5048 -0.2378
6.0425 1.5358 -0.2437
6.0429 1.5519 -0.2464
6.0461 1.5682 -0.2503
6.0492 1.5851 -0.2543
6.0455 1.6020 -0.2554
6.0408 1.6188 -0.2560
6.0361 1.6358 -0.2566
6.0322 1.6529 -0.2577
6.0408 1.6910 -0.2673
6.0403 1.7099 -0.2701
6.0388 1.7288 -0.2724
6.0390 1.7485 -0.2756
6.0373 1.7679 -0.2779
6.0364 1.7880 -0.2807
6.0333 1.8723 -0.2926
6.0248 2.5390 -0.3938
6.0085 2.5499 -0.3885
5.9882 2.5525 -0.3802
5.9664 2.5507 -0.3706
5.9334 2.5621 -0.3582
5.9207 2.5739 -0.3546
6.0496 1.3016 -0.1938
6.0483 1.3143 -0.1952
6.0469 1.3271 -0.1965
6.0433 1.3409 -0.1971
6.0496 1.3513 -0.2011
6.0524 1.3634 -0.2040
6.0540 1.3761 -0.2065
6.0501 1.3906 -0.2071
6.0483 1.4046 -0.2084
6.0475 1.4186 -0.2102
6.0467 1.4328 -0.2119
6.0468 1.4469 -0.2140
6.0479 1.4612 -0.2166
6.0509 1.4755 -0.2199
6.0497 1.4907 -0.2216
6.0464 1.5063 -0.2226
6.0461 1.5218 -0.2247
6.0447 1.5376 -0.2265
6.0433 1.5536 -0.2283
6.0437 1.5698 -0.2308
6.0450 1.5864 -0.2338
6.0471 1.6035 -0.2371
6.0414 1.6202 -0.2373
6.0405 1.6375 -0.2395
6.0395 1.6551 -0.2417
6.0421 1.6736 -0.2454
6.0390 1.6914 -0.2468
6.0404 1.7105 -0.2502
6.0399 1.7296 -0.2528
6.0411 1.7495 -0.2562
6.0403 1.7692 -0.2588
6.0421 1.7902 -0.2625
6.0417 1.8321 -0.2685
6.0447 1.8553 -0.2731
6.0369 2.0416 -0.2974
6.0269 2.0594 -0.2960
6.0087 2.5417 -0.3596
5.9847 2.5374 -0.3494
5.9702 2.5486 -0.3453
5.9295 2.5444 -0.3284
6.0556 1.3021 -0.1803
6.0475 1.3176 -0.1794
6.0473 1.3299 -0.1810
6.0448 1.3432 -0.1819
6.0445 1.3559 -0.1835
6.0529 1.3659 -0.1880
6.0557 1.3782 -0.1907
6.0529 1.3924 -0.1916
6.0501 1.4067 -0.1925
6.0461 1.4214 -0.1931
6.0464 1.4352 -0.1951
6.0424 1.4500 -0.1956
6.0467 1.4636 -0.1991
6.0478 1.4781 -0.2014
6.0447 1.4933 -0.2023
6.0496 1.5080 -0.2062
6.0473 1.5236 -0.2074
6.0430 1.5394 -0.2080
6.0425 1.5878 -0.2145
6.0399 1.6043 -0.2158
6.0439 1.6217 -0.2196
6.0431 1.6390 -0.2216
6.0430 1.6567 -0.2241
6.0429 1.6747 -0.2265
6.0414 1.7114 -0.2309
6.0410 1.7303 -0.2334
6.0386 1.7490 -0.2350
6.0380 1.7685 -0.2375
6.0425 1.7904 -0.2421
6.0468 1.8128 -0.2468
6.0440 1.8329 -0.2485
6.0369 1.8510 -0.2483
6.0408 1.8748 -0.2530
6.0353 1.8941 -0.2536
6.0380 1.9184 -0.2579
6.0492 1.9731 -0.2695
6.0488 1.9977 -0.2727
6.0475 2.0220 -0.2756
6.0295 2.5689 -0.3437
5.9400 2.5561 -0.3090
5.9197 2.5519 -0.3010
6.0546 1.3176 -0.1661
6.0465 1.3330 -0.1653
6.0542 1.3426 -0.1691
6.0471 1.3577 -0.1686
6.0535 1.3685 -0.1721
6.0475 1.3833 -0.1720
6.0470 1.3966 -0.1735
6.0486 1.4096 -0.1757
6.0479 1.4234 -0.1772
6.0451 1.4378 -0.1781
6.0496 1.4510 -0.1813
6.0466 1.4658 -0.1821
6.0467 1.4804 -0.1840
6.0488 1.4949 -0.1866
6.0456 1.5103 -0.1874
6.0515 1.5252 -0.1913
6.0512 1.5409 -0.1932
6.0523 1.5731 -0.1976
6.0468 1.5895 -0.1979
6.0510 1.6065 -0.2014
6.0455 1.6231 -0.2017
6.0370 1.6393 -0.2009
6.0419 1.6575 -0.2048
6.0418 1.6754 -0.2070
6.0435 1.6939 -0.2100
6.0405 1.7118 -0.2112
6.0411 1.7309 -0.2138
6.0397 1.7497 -0.2157
6.0463 1.7716 -0.2207
6.0367 1.7882 -0.2196
6.0430 1.8111 -0.2246
6.0455 1.8332 -0.2282
6.0444 1.8541 -0.2305
6.0432 1.8754 -0.2328
6.0444 1.8984 -0.2361
6.0414 1.9194 -0.2378
6.0448 1.9448 -0.2421
6.0439 1.9681 -0.2448
6.0477 1.9951 -0.2495
6.0394 2.0139 -0.2491
6.0461 2.0445 -0.2552
6.0408 2.0662 -0.2561
6.0313 2.4881 -0.3063
6.0252 2.5151 -0.3076
6.0234 2.5499 -0.3115
5.9959 2.5400 -0.3009
5.9769 2.5431 -0.2949
5.9625 2.5534 -0.2913
5.9423 2.5513 -0.2843
6.0467 1.3358 -0.1501
6.0455 1.3485 -0.1512
6.0509 1.3592 -0.1541
6.0472 1.3731 -0.1546
6.0458 1.3864 -0.1557
6.0508 1.3981 -0.1587
6.0503 1.4116 -0.1601
6.0475 1.4259 -0.1609
6.0469 1.4398 -0.1623
6.0472 1.4537 -0.1640
6.0421 1.4687 -0.1642
6.0465 1.4825 -0.1672
6.0477 1.4971 -0.1692
6.0466 1.5121 -0.1707
6.0445 1.5274 -0.1718
6.0423 1.5429 -0.1729
6.0430 1.5586 -0.1750
6.0437 1.5745 -0.1770
6.0452 1.5908 -0.1794
6.0398 1.6070 -0.1796
6.0440 1.6242 -0.1829
6.0395 1.6407 -0.1835
6.0406 1.6583 -0.1859
6.0454 1.6769 -0.1895
6.0387 1.6936 -0.1894
6.0404 1.7124 -0.1921
6.0429 1.7319 -0.1952
6.0425 1.7509 -0.1973
6.0555 1.7750 -0.2041
6.0459 1.7917 -0.2030
6.0398 1.8097 -0.2033
6.0477 1.8339 -0.2085
6.0441 1.8535 -0.2097
6.0396 1.8729 -0.2106
6.0368 1.8933 -0.2121
6.0389 1.9169 -0.2155
6.0375 1.9389 -0.2176
6.0426 1.9657 -0.2223
6.0433 1.9903 -0.2254
6.0447 2.0159 -0.2288
6.0404 2.0378 -0.2300
6.0446 2.0669 -0.2347
6.0401 2.0893 -0.2360
6.0416 2.1176 -0.2397
6.0456 2.1773 -0.2479
6.0429 2.2034 -0.2501
6.0327 2.2217 -0.2491
6.0183 2.2347 -0.2462
6.0523 2.5513 -0.2936
6.0375 2.5653 -0.2907
6.0033 2.5446 -0.2777
5.9898 2.5579 -0.2751
5.9648 2.5488 -0.2663
5.9433 2.5441 -0.2592
5.9336 2.5612 -0.2582
6.0480 1.3503 -0.1367
6.0501 1.3621 -0.1385
6.0555 1.3731 -0.1412
6.0451 1.3891 -0.1400
6.0458 1.4019 -0.1416
6.0476 1.4147 -0.1435
6.0503 1.4276 -0.1456
6.0530 1.4409 -0.1478
6.0490 1.4556 -0.1482
6.0450 1.4704 -0.1487
6.0442 1.4848 -0.1500
6.0475 1.4991 -0.1525
6.0455 1.5141 -0.1535
6.0476 1.5291 -0.1557
6.0464 1.5445 -0.1570
6.0432 1.5602 -0.1578
6.0459 1.5761 -0.1602
6.0435 1.5922 -0.1613
6.0431 1.6086 -0.1629
6.0409 1.6420 -0.1659
6.0440 1.6598 -0.1687
6.0441 1.6775 -0.1706
6.0432 1.6954 -0.1722
6.0403 1.7130 -0.1733
6.0448 1.7328 -0.1767
6.0470 1.7922 -0.1836
6.0410 1.8100 -0.1839
6.0394 1.8299 -0.1855
6.0282 1.8453 -0.1840
6.0540 1.9248 -0.1998
6.0475 1.9440 -0.2000
6.0485 1.9682 -0.2029
6.0485 1.9923 -0.2054
6.0393 2.0347 -0.2074
6.0405 2.0611 -0.2106
6.0322 2.0798 -0.2102
6.0440 2.1169 -0.2175
6.0439 2.1441 -0.2204
6.0485 2.2056 -0.2282
6.0450 2.2312 -0.2300
6.0435 2.2596 -0.2326
6.0423 2.3204 -0.2388
6.0443 2.4226 -0.2502
6.0702 2.4961 -0.2653
6.0845 2.5557 -0.2757
6.0693 2.5707 -0.2730
6.0172 2.5603 -0.2574
5.9935 2.5558 -0.2503
5.9720 2.5534 -0.2440
5.9516 2.5511 -0.2381
6.0506 1.3522 -0.1222
6.0527 1.3639 -0.1239
6.0514 1.3770 -0.1248
6.0488 1.3906 -0.1255
6.0519 1.4028 -0.1275
6.0492 1.4167 -0.1282
6.0487 1.4303 -0.1294
6.0482 1.4441 -0.1306
6.0432 1.4588 -0.1308
6.0447 1.4725 -0.1325
6.0450 1.4868 -0.1339
6.0495 1.5008 -0.1364
6.0475 1.5158 -0.1374
6.0454 1.5310 -0.1383
6.0454 1.5463 -0.1398
6.0473 1.5618 -0.1418
6.0481 1.5777 -0.1435
6.0407 1.5934 -0.1432
6.0394 1.6096 -0.1445
6.0468 1.6269 -0.1480
6.0433 1.6434 -0.1487
6.0465 1.6612 -0.1513
6.0467 1.6789 -0.1530
6.0363 1.6945 -0.1519
6.0439 1.7145 -0.1558
6.0475 1.7341 -0.1586
6.0423 1.7707 -0.1608
6.0472 1.7923 -0.1642
6.0431 1.8107 -0.1649
6.0442 1.8317 -0.1673
