ply
format ascii 1.0
element vertex 2095
property float x
property float y
property float z
end_header
2.8846 -1.0948 0.3850
2.9061 -1.0442 0.3030
2.9599 -0.0231 0.0210
2.9784 -0.0697 -0.0417
2.9793 -1.0230 0.0364
3.0177 -0.8119 -0.1204
3.0272 -0.9035 -0.1467
3.0308 -1.0582 -0.1467
3.0361 -1.3125 -0.1442
3.0402 -1.3966 -0.1515
3.0382 -1.5246 -0.1334
3.0397 -1.6051 -0.1319
3.0429 -1.6619 -0.1387
3.0436 -1.7309 -0.1353
3.0422 -1.8064 -0.1239
3.0437 -1.8555 -0.1249
3.0453 -1.8986 -0.1271
3.0468 -1.9384 -0.1292
3.0455 -1.9899 -0.1200
3.0477 -2.0190 -0.1254
3.0476 -2.0566 -0.1219
3.0488 -2.0855 -0.1238
3.0498 -2.1130 -0.1251
3.0499 -2.1697 -0.1207
3.0504 -2.1934 -0.1205
3.0523 -2.2107 -0.1259
3.0532 -2.2307 -0.1271
3.0531 -2.2724 -0.1232
3.0523 -2.2934 -0.1189
3.0526 -2.3104 -0.1182
3.0523 -2.3279 -0.1158
3.0535 -2.3557 -0.1177
3.0548 -2.3669 -0.1214
3.0534 -2.3838 -0.1149
3.0547 -2.3939 -0.1186
3.0550 -2.4174 -0.1178
3.0552 -2.4282 -0.1178
3.0547 -2.4400 -0.1148
2.7883 -1.0092 0.5668
2.7993 -1.0245 0.5284
2.8094 -1.0256 0.4907
2.8179 -0.9943 0.4527
2.8345 -1.1199 0.4139
2.8611 -0.9782 0.2873
2.8723 -0.1813 0.0940
2.8893 -0.1125 0.0172
2.9078 -0.2489 -0.0267
2.9331 -1.0375 0.0277
2.9450 -1.0711 -0.0105
2.9741 -0.9682 -0.1397
2.9820 -1.1056 -0.1430
2.9887 -1.2256 -0.1458
2.9943 -1.3369 -0.1457
2.9969 -1.4690 -0.1302
3.0058 -1.6171 -0.1358
3.0090 -1.6877 -0.1342
3.0131 -1.7387 -0.1401
3.0125 -1.8243 -0.1217
3.0161 -1.8645 -0.1277
3.0180 -1.9133 -0.1254
3.0191 -1.9620 -0.1202
3.0206 -2.0023 -0.1184
3.0224 -2.0370 -0.1186
3.0254 -2.1004 -0.1179
3.0270 -2.1277 -0.1186
3.0308 -2.1421 -0.1304
3.0317 -2.1976 -0.1231
3.0325 -2.2207 -0.1216
3.0335 -2.2413 -0.1216
3.0345 -2.2607 -0.1215
3.0356 -2.2783 -0.1224
3.0363 -2.2964 -0.1215
3.0367 -2.3140 -0.1198
3.0374 -2.3300 -0.1192
3.0387 -2.3430 -0.1219
3.0385 -2.3597 -0.1178
3.0408 -2.3689 -0.1246
3.0404 -2.3844 -0.1202
3.0408 -2.3971 -0.1194
3.0408 -2.4101 -0.1169
3.0425 -2.4186 -0.1219
3.0425 -2.4306 -0.1194
3.0431 -2.4405 -0.1200
2.4259 2.0353 0.8925
2.7258 1.7199 -0.1868
2.7972 0.5294 -0.1064
2.8211 0.4672 -0.1812
2.8860 -0.9577 -0.0042
2.8995 -1.0776 -0.0209
2.9117 -0.9281 -0.1139
2.9245 -1.0200 -0.1360
2.9357 -1.1358 -0.1449
2.9444 -1.2905 -0.1324
2.9524 -1.3989 -0.1309
2.9594 -1.4943 -0.1294
2.9724 -1.6298 -0.1391
2.9817 -1.7613 -0.1361
2.9849 -1.8282 -0.1280
2.9889 -1.8734 -0.1304
2.9916 -1.9253 -0.1253
2.9955 -1.9596 -0.1301
3.0010 -2.0337 -0.1291
3.0025 -2.0733 -0.1229
3.0053 -2.0994 -0.1262
3.0078 -2.1259 -0.1277
3.0091 -2.1558 -0.1241
3.0103 -2.1843 -0.1198
3.0128 -2.2032 -0.1240
3.0136 -2.2285 -0.1197
3.0148 -2.2503 -0.1177
3.0172 -2.2653 -0.1227
3.0184 -2.2842 -0.1215
3.0197 -2.3014 -0.1214
3.0210 -2.3176 -0.1214
3.0222 -2.3328 -0.1216
3.0232 -2.3478 -0.1212
3.0252 -2.3755 -0.1203
3.0258 -2.3889 -0.1189
3.0258 -2.4034 -0.1146
3.0274 -2.4132 -0.1175
3.0288 -2.4229 -0.1201
3.0293 -2.4341 -0.1187
3.0301 -2.4440 -0.1191
2.4205 1.3288 0.7141
2.4094 1.6141 0.6380
2.4150 1.7815 0.5442
2.4465 1.9807 0.3306
2.4941 1.7640 0.2278
2.5729 1.8042 -0.1115
2.6330 1.3446 -0.1615
2.7028 0.6421 -0.1477
2.8328 -0.8482 -0.0449
2.8774 -1.0771 -0.1298
2.9032 -1.2964 -0.1418
2.9140 -1.4044 -0.1397
2.9234 -1.4895 -0.1423
2.9314 -1.5945 -0.1301
2.9387 -1.6674 -0.1290
2.9456 -1.7230 -0.1335
2.9514 -1.7855 -0.1307
2.9568 -1.8399 -0.1294
2.9614 -1.8933 -0.1255
2.9670 -1.9206 -0.1370
2.9702 -1.9747 -0.1269
2.9741 -2.0106 -0.1277
2.9772 -2.0498 -0.1234
2.9832 -2.1134 -0.1208
2.9861 -2.1397 -0.1218
2.9891 -2.1631 -0.1238
2.9933 -2.2133 -0.1199
2.9980 -2.2520 -0.1224
2.9999 -2.2712 -0.1220
3.0012 -2.2915 -0.1187
3.0033 -2.3065 -0.1212
3.0036 -2.3281 -0.1131
3.0066 -2.3377 -0.1210
3.0087 -2.3498 -0.1245
3.0090 -2.3677 -0.1180
3.0101 -2.3813 -0.1170
3.0121 -2.3915 -0.1209
3.0138 -2.4021 -0.1232
3.0145 -2.4150 -0.1205
3.0150 -2.4277 -0.1171
3.0164 -2.4371 -0.1191
3.0178 -2.4464 -0.1207
2.1695 2.1842 0.8560
2.3710 1.1160 0.5928
2.3628 1.3271 0.5098
2.3465 1.6197 0.4151
2.6867 -0.0069 -0.1279
2.7777 -0.8029 -0.0704
2.8066 -1.0579 -0.0513
2.8229 -1.1457 -0.0718
2.8372 -1.2122 -0.0955
2.8468 -1.1861 -0.1514
2.8650 -1.3901 -0.1150
2.8774 -1.4812 -0.1168
2.8880 -1.5408 -0.1286
2.8982 -1.6342 -0.1200
2.9070 -1.6719 -0.1363
2.9152 -1.7335 -0.1369
2.9226 -1.7957 -0.1336
2.9292 -1.8532 -0.1295
2.9351 -1.9055 -0.1256
2.9407 -1.9475 -0.1259
2.9460 -1.9814 -0.1298
2.9505 -2.0220 -0.1264
2.9547 -2.0594 -0.1230
2.9587 -2.0905 -0.1228
2.9624 -2.1203 -0.1218
2.9667 -2.1387 -0.1301
2.9691 -2.1728 -0.1212
2.9725 -2.1934 -0.1243
2.9751 -2.2181 -0.1215
2.9783 -2.2357 -0.1252
2.9804 -2.2581 -0.1219
2.9833 -2.2743 -0.1248
2.9851 -2.2945 -0.1214
2.9876 -2.3094 -0.1238
2.9901 -2.3234 -0.1264
2.9907 -2.3445 -0.1174
2.9929 -2.3572 -0.1196
2.9949 -2.3697 -0.1212
2.9966 -2.3826 -0.1212
2.9978 -2.3966 -0.1184
2.9995 -2.4078 -0.1194
3.0012 -2.4181 -0.1211
3.0025 -2.4295 -0.1200
3.0039 -2.4395 -0.1207
3.0044 -2.4516 -0.1160
2.2891 1.0260 0.5683
2.3079 1.0284 0.4827
2.3084 1.1500 0.3942
2.3156 1.2379 0.2994
2.3027 1.4737 0.1901
2.6155 -0.0392 -0.1401
2.6532 -0.2408 -0.1659
2.6980 -0.5378 -0.1560
2.7397 -0.8408 -0.1287
2.7653 -0.9962 -0.1331
2.7903 -1.1685 -0.1231
2.8057 -1.2343 -0.1452
2.8257 -1.3846 -0.1285
2.8396 -1.4618 -0.1363
2.8532 -1.5503 -0.1344
2.8647 -1.6166 -0.1390
2.8761 -1.7037 -0.1284
2.8856 -1.7630 -0.1289
2.8943 -1.8187 -0.1283
2.9021 -1.8648 -0.1307
2.9093 -1.9159 -0.1268
2.9160 -1.9445 -0.1364
2.9219 -1.9980 -0.1251
2.9275 -2.0318 -0.1263
2.9375 -2.0967 -0.1248
2.9418 -2.1279 -0.1220
2.9464 -2.1477 -0.1285
2.9495 -2.1831 -0.1176
2.9532 -2.2050 -0.1187
2.9569 -2.2243 -0.1213
2.9603 -2.2433 -0.1231
2.9634 -2.2619 -0.1240
2.9662 -2.2809 -0.1231
2.9684 -2.3024 -0.1176
2.9710 -2.3185 -0.1177
2.9734 -2.3337 -0.1180
2.9755 -2.3499 -0.1156
2.9778 -2.3632 -0.1166
2.9803 -2.3743 -0.1202
2.9841 -2.3997 -0.1192
2.9861 -2.4109 -0.1201
2.9883 -2.4206 -0.1229
2.9889 -2.4349 -0.1157
2.9913 -2.4424 -0.1211
2.9925 -2.4533 -0.1187
1.9795 1.9132 0.7834
2.1743 1.1280 0.5508
2.1925 1.1313 0.4622
2.2108 1.1360 0.3719
2.1993 1.3112 0.2729
2.1432 1.9004 0.0227
2.2029 1.6842 -0.0698
2.2337 1.6412 -0.1775
2.3298 1.1633 -0.2132
2.4863 0.2326 -0.1381
2.5454 -0.0704 -0.1522
2.6355 -0.5320 -0.1739
2.6832 -0.8158 -0.1507
2.7091 -0.9379 -0.1662
2.7668 -1.2803 -0.1392
2.7852 -1.3736 -0.1445
2.8038 -1.4816 -0.1381
2.8200 -1.5759 -0.1322
2.8320 -1.6285 -0.1429
2.8455 -1.7117 -0.1335
2.8562 -1.7673 -0.1357
2.8664 -1.8253 -0.1331
2.8756 -1.8762 -0.1317
2.8840 -1.9262 -0.1279
2.8918 -1.9761 -0.1210
2.8987 -2.0136 -0.1208
2.9051 -2.0511 -0.1181
2.9164 -2.1091 -0.1209
2.9216 -2.1346 -0.1229
2.9265 -2.1566 -0.1269
2.9307 -2.1880 -0.1195
2.9349 -2.2113 -0.1188
2.9429 -2.2472 -0.1253
2.9461 -2.2708 -0.1198
2.9500 -2.2826 -0.1278
2.9530 -2.3018 -0.1249
2.9558 -2.3193 -0.1231
2.9581 -2.3392 -0.1164
2.9614 -2.3487 -0.1241
2.9635 -2.3659 -0.1188
2.9655 -2.3815 -0.1148
2.9682 -2.3923 -0.1176
2.9705 -2.4035 -0.1189
2.9725 -2.4158 -0.1174
2.9749 -2.4248 -0.1211
2.9766 -2.4366 -0.1185
2.9783 -2.4471 -0.1177
1.8404 2.0117 0.7657
2.0039 1.4577 0.5379
2.1391 1.0858 0.2588
2.1059 1.3479 0.1473
2.1249 1.3553 0.0450
2.1533 1.3157 -0.0541
2.4351 0.0543 -0.1231
2.4763 -0.1004 -0.1643
2.5913 -0.6486 -0.1572
2.6739 -1.0535 -0.1405
2.7250 -1.2862 -0.1487
2.7471 -1.3902 -0.1488
2.7695 -1.5067 -0.1371
2.7858 -1.5808 -0.1400
2.8018 -1.6597 -0.1362
2.8286 -1.7913 -0.1303
2.8398 -1.8455 -0.1290
2.8492 -1.8843 -0.1349
2.8673 -1.9713 -0.1328
2.8755 -2.0152 -0.1273
2.8831 -2.0575 -0.1204
2.8896 -2.0862 -0.1226
2.8958 -2.1137 -0.1242
2.9016 -2.1414 -0.1238
2.9070 -2.1663 -0.1244
2.9168 -2.2154 -0.1213
2.9212 -2.2389 -0.1184
2.9256 -2.2533 -0.1248
2.9296 -2.2724 -0.1244
2.9330 -2.2961 -0.1166
2.9369 -2.3082 -0.1228
2.9398 -2.3297 -0.1149
2.9432 -2.3420 -0.1188
2.9461 -2.3581 -0.1161
2.9520 -2.3822 -0.1201
2.9545 -2.3955 -0.1185
2.9568 -2.4085 -0.1163
2.9596 -2.4176 -0.1203
2.9612 -2.4320 -0.1134
2.9640 -2.4396 -0.1189
2.9656 -2.4517 -0.1143
2.9677 -2.4607 -0.1154
1.9831 1.1006 0.5070
2.0229 1.1526 0.2323
2.0263 1.3952 -0.0905
2.0751 1.2609 -0.1776
2.3641 0.0218 -0.1358
2.4122 -0.1509 -0.1714
2.5555 -0.7777 -0.1352
2.5907 -0.9137 -0.1487
2.6249 -1.0519 -0.1543
2.6560 -1.1802 -0.1565
2.6862 -1.3106 -0.1507
2.7113 -1.4177 -0.1480
2.7348 -1.5209 -0.1411
2.7551 -1.6106 -0.1351
2.7743 -1.6994 -0.1243
2.7880 -1.7526 -0.1289
2.8008 -1.8040 -0.1316
2.8124 -1.8494 -0.1353
2.8252 -1.9107 -0.1252
2.8342 -1.9418 -0.1334
2.8434 -1.9789 -0.1352
2.8527 -2.0218 -0.1300
2.8613 -2.0622 -0.1241
2.8681 -2.0853 -0.1310
2.8758 -2.1267 -0.1194
2.8817 -2.1450 -0.1275
2.8880 -2.1743 -0.1233
2.8936 -2.1971 -0.1240
2.8989 -2.2195 -0.1237
2.9038 -2.2392 -0.1249
2.9086 -2.2643 -0.1181
2.9130 -2.2826 -0.1182
2.9171 -2.2991 -0.1194
2.9211 -2.3125 -0.1236
2.9248 -2.3319 -0.1183
2.9283 -2.3481 -0.1161
2.9317 -2.3614 -0.1173
2.9349 -2.3745 -0.1178
2.9379 -2.3880 -0.1167
2.9410 -2.3980 -0.1204
2.9436 -2.4122 -0.1158
2.9463 -2.4225 -0.1174
2.9515 -2.4425 -0.1193
2.9536 -2.4540 -0.1158
2.9562 -2.4613 -0.1206
1.4116 2.2178 1.4540
1.5589 1.7869 1.2745
1.8401 1.2027 0.5770
1.8550 1.2074 0.4869
1.7721 1.5820 0.3917
1.8628 1.3051 0.2980
1.9619 1.1958 -0.0910
2.0198 1.0305 -0.1676
2.2945 -0.0116 -0.1481
2.4542 -0.6176 -0.1369
2.5059 -0.8084 -0.1408
2.5475 -0.9598 -0.1476
2.5888 -1.1167 -0.1444
2.6186 -1.2226 -0.1525
2.6541 -1.3641 -0.1400
2.6796 -1.4594 -0.1403
2.7022 -1.5439 -0.1405
2.7250 -1.6348 -0.1326
2.7454 -1.7170 -0.1241
2.7605 -1.7716 -0.1270
2.7752 -1.8269 -0.1263
2.7882 -1.8753 -0.1269
2.8003 -1.9210 -0.1264
2.8107 -1.9577 -0.1299
2.8211 -1.9970 -0.1292
2.8297 -2.0251 -0.1353
2.8400 -2.0717 -0.1236
2.8482 -2.1025 -0.1230
2.8560 -2.1343 -0.1195
2.8621 -2.1501 -0.1298
2.8689 -2.1771 -0.1276
2.8753 -2.2035 -0.1242
2.8813 -2.2279 -0.1211
2.8867 -2.2475 -0.1220
2.8920 -2.2710 -0.1166
2.8968 -2.2891 -0.1165
2.9013 -2.3048 -0.1183
2.9057 -2.3216 -0.1175
2.9098 -2.3381 -0.1158
2.9137 -2.3489 -0.1215
2.9173 -2.3654 -0.1174
2.9210 -2.3752 -0.1232
2.9244 -2.3880 -0.1231
2.9275 -2.4024 -0.1190
2.9305 -2.4153 -0.1165
2.9333 -2.4280 -0.1134
2.9361 -2.4386 -0.1131
2.9390 -2.4466 -0.1172
2.9414 -2.4574 -0.1148
2.9442 -2.4646 -0.1195
1.6217 1.5372 0.6627
1.8437 0.8512 0.5438
1.7805 1.1118 0.4636
1.6776 1.5165 0.3674
1.6616 1.8314 -0.0875
1.8577 1.1809 -0.1148
2.2256 -0.0428 -0.1605
2.3989 -0.6395 -0.1466
2.5063 -1.0046 -0.1464
2.5872 -1.2823 -0.1412
2.6193 -1.3925 -0.1393
2.6750 -1.5873 -0.1295
2.6974 -1.6651 -0.1265
2.7154 -1.7249 -0.1291
2.7328 -1.7844 -0.1285
2.7477 -1.8335 -0.1310
2.7601 -1.8715 -0.1381
2.7764 -1.9338 -0.1257
2.7899 -1.9842 -0.1182
2.7975 -2.0004 -0.1346
2.8084 -2.0396 -0.1312
2.8186 -2.0764 -0.1271
2.8274 -2.1063 -0.1271
2.8445 -2.1704 -0.1166
2.8568 -2.2046 -0.1300
2.8639 -2.2341 -0.1209
2.8698 -2.2536 -0.1216
2.8806 -2.2901 -0.1220
2.8857 -2.3092 -0.1190
2.8904 -2.3258 -0.1180
2.8992 -2.3569 -0.1157
2.9032 -2.3688 -0.1186
2.9070 -2.3811 -0.1199
2.9107 -2.3969 -0.1141
2.9142 -2.4080 -0.1153
2.9176 -2.4178 -0.1183
2.9208 -2.4280 -0.1198
2.9239 -2.4386 -0.1195
2.9268 -2.4489 -0.1188
2.9324 -2.4669 -0.1209
1.7317 0.9085 0.5252
1.4639 1.8885 0.2234
1.7125 1.2484 -0.0471
1.8035 0.9987 -0.1142
1.9055 0.7054 -0.1625
2.1973 -0.2117 -0.1412
2.4233 -0.9167 -0.1362
2.4710 -1.0632 -0.1398
2.5144 -1.1976 -0.1400
2.5469 -1.2947 -0.1481
2.6223 -1.5409 -0.1239
2.6439 -1.6045 -0.1310
2.6686 -1.6837 -0.1262
2.6876 -1.7414 -0.1291
2.7076 -1.8057 -0.1247
2.7212 -1.8434 -0.1336
2.7373 -1.8946 -0.1311
2.7528 -1.9457 -0.1255
2.7646 -1.9803 -0.1293
2.7761 -2.0159 -0.1303
2.7867 -2.0476 -0.1323
2.7973 -2.0819 -0.1300
2.8071 -2.1132 -0.1282
2.8168 -2.1454 -0.1235
2.8246 -2.1686 -0.1256
2.8312 -2.1855 -0.1332
2.8408 -2.2242 -0.1152
2.8468 -2.2402 -0.1207
2.8530 -2.2589 -0.1220
2.8591 -2.2779 -0.1215
2.8650 -2.2979 -0.1183
2.8703 -2.3141 -0.1188
2.8752 -2.3280 -0.1215
2.8801 -2.3430 -0.1216
2.8847 -2.3577 -0.1210
2.8933 -2.3862 -0.1177
2.8974 -2.4001 -0.1150
2.9011 -2.4112 -0.1161
2.9047 -2.4215 -0.1178
2.9082 -2.4316 -0.1191
2.9115 -2.4444 -0.1139
2.9147 -2.4535 -0.1154
2.9178 -2.4608 -0.1203
2.9206 -2.4730 -0.1133
1.3868 1.6161 0.5196
1.3450 1.8715 0.1962
1.4399 1.7391 -0.1353
1.6352 1.1942 -0.1691
1.7787 0.7974 -0.2027
2.1618 -0.3287 -0.1318
2.2545 -0.5951 -0.1295
2.3809 -0.9533 -0.1385
2.4210 -1.0616 -0.1537
2.5156 -1.3372 -0.1425
2.5531 -1.4462 -0.1381
2.5883 -1.5504 -0.1298
2.6351 -1.6812 -0.1373
2.6583 -1.7492 -0.1340
2.6784 -1.8072 -0.1328
2.6967 -1.8600 -0.1316
2.7132 -1.9076 -0.1307
2.7292 -1.9551 -0.1270
2.7442 -2.0000 -0.1222
2.7535 -2.0216 -0.1336
2.7663 -2.0603 -0.1292
2.7780 -2.0951 -0.1257
2.7887 -2.1270 -0.1227
2.7986 -2.1566 -0.1197
2.8060 -2.1752 -0.1261
2.8145 -2.2001 -0.1246
2.8304 -2.2485 -0.1178
2.8372 -2.2684 -0.1170
2.8485 -2.2968 -0.1266
2.8546 -2.3150 -0.1243
2.8605 -2.3342 -0.1191
2.8653 -2.3458 -0.1240
2.8709 -2.3656 -0.1150
2.8754 -2.3773 -0.1176
2.8801 -2.3926 -0.1132
2.8839 -2.4001 -0.1214
2.8881 -2.4136 -0.1179
2.8921 -2.4263 -0.1149
2.8957 -2.4351 -0.1184
2.8992 -2.4438 -0.1216
2.9027 -2.4564 -0.1157
2.9091 -2.4719 -0.1224
1.5653 0.8125 0.5642
1.3154 1.5010 0.4931
1.4518 1.3576 -0.1139
1.5451 1.1361 -0.1864
2.2039 -0.6295 -0.1361
2.2760 -0.8193 -0.1401
2.3337 -0.9699 -0.1469
2.3866 -1.1093 -0.1498
2.4395 -1.2516 -0.1440
2.4880 -1.3839 -0.1344
2.5294 -1.4966 -0.1262
2.5518 -1.5510 -0.1400
2.5870 -1.6485 -0.1284
2.6145 -1.7232 -0.1237
2.6318 -1.7655 -0.1338
2.6498 -1.8113 -0.1393
2.6687 -1.8614 -0.1395
2.6871 -1.9113 -0.1367
2.7033 -1.9545 -0.1357
2.7230 -2.0123 -0.1206
2.7353 -2.0441 -0.1230
2.7481 -2.0785 -0.1212
2.7572 -2.0997 -0.1292
2.7683 -2.1299 -0.1274
2.7781 -2.1556 -0.1280
2.7893 -2.1884 -0.1195
2.7968 -2.2065 -0.1247
2.8130 -2.2503 -0.1226
2.8276 -2.2903 -0.1190
2.8340 -2.3073 -0.1190
2.8393 -2.3193 -0.1250
2.8457 -2.3377 -0.1206
2.8515 -2.3538 -0.1183
2.8570 -2.3696 -0.1151
2.8615 -2.3800 -0.1198
2.8664 -2.3933 -0.1185
2.8709 -2.4051 -0.1188
2.8754 -2.4185 -0.1152
2.8794 -2.4281 -0.1178
2.8834 -2.4393 -0.1165
2.8871 -2.4479 -0.1195
2.8909 -2.4598 -0.1147
2.8942 -2.4664 -0.1206
1.1723 1.5159 0.6641
1.3587 1.0894 0.5535
1.2656 1.4066 0.2706
1.3983 1.1039 0.1881
1.3324 1.3347 -0.0320
1.4300 1.1166 -0.1073
1.4734 1.0366 -0.1961
1.9712 -0.2158 -0.1244
2.0769 -0.4751 -0.1303
2.1689 -0.7019 -0.1316
2.2338 -0.8592 -0.1425
2.2937 -1.0051 -0.1489
2.4011 -1.2706 -0.1487
2.4944 -1.5063 -0.1324
2.5238 -1.5773 -0.1374
2.5531 -1.6497 -0.1378
2.5838 -1.7276 -0.1307
2.6040 -1.7757 -0.1369
2.6264 -1.8315 -0.1356
2.6483 -1.8870 -0.1309
2.6679 -1.9365 -0.1272
2.6827 -1.9719 -0.1309
2.6992 -2.0140 -0.1272
2.7157 -2.0569 -0.1201
2.7264 -2.0816 -0.1262
2.7371 -2.1066 -0.1304
2.7507 -2.1427 -0.1224
2.7602 -2.1653 -0.1256
2.7711 -2.1933 -0.1214
2.7790 -2.2113 -0.1265
2.7880 -2.2340 -0.1249
2.7970 -2.2577 -0.1205
2.8048 -2.2775 -0.1193
2.8119 -2.2947 -0.1199
2.8186 -2.3110 -0.1207
2.8244 -2.3242 -0.1246
2.8310 -2.3412 -0.1220
2.8376 -2.3592 -0.1165
2.8483 -2.3858 -0.1165
2.8576 -2.4070 -0.1219
2.8625 -2.4204 -0.1181
2.8673 -2.4335 -0.1137
2.8712 -2.4422 -0.1170
2.8755 -2.4537 -0.1137
2.8791 -2.4615 -0.1174
2.8826 -2.4687 -0.1220
1.0456 1.5495 0.6425
1.2456 1.1636 0.3506
1.2721 1.1266 0.2579
1.2811 1.1309 0.1624
1.2157 1.3122 0.0480
1.4309 0.8264 0.0027
1.4561 0.7912 -0.0853
1.8550 -0.1100 -0.1668
2.0201 -0.4985 -0.1409
2.1264 -0.7462 -0.1343
2.2583 -1.0476 -0.1479
2.3146 -1.1770 -0.1506
2.3828 -1.3396 -0.1326
2.4257 -1.4385 -0.1333
2.4668 -1.5347 -0.1297
2.4984 -1.6070 -0.1328
2.5258 -1.6692 -0.1372
2.5531 -1.7320 -0.1377
2.5819 -1.8004 -0.1311
2.6001 -1.8406 -0.1387
2.6190 -1.8833 -0.1422
2.6448 -1.9467 -0.1282
2.6666 -1.9998 -0.1177
2.6783 -2.0246 -0.1267
2.6914 -2.0537 -0.1306
2.7209 -2.1243 -0.1214
2.7319 -2.1494 -0.1232
2.7445 -2.1801 -0.1176
2.7539 -2.2012 -0.1201
2.7649 -2.2278 -0.1150
2.7718 -2.2416 -0.1230
2.7804 -2.2616 -0.1226
2.7893 -2.2833 -0.1186
2.7975 -2.3032 -0.1153
2.8040 -2.3173 -0.1186
2.8099 -2.3298 -0.1233
2.8228 -2.3600 -0.1218
2.8287 -2.3737 -0.1216
2.8352 -2.3902 -0.1153
2.8402 -2.4015 -0.1170
2.8454 -2.4138 -0.1159
2.8496 -2.4222 -0.1211
2.8548 -2.4353 -0.1166
2.8591 -2.4451 -0.1174
2.8639 -2.4577 -0.1116
2.8674 -2.4643 -0.1176
2.8713 -2.4731 -0.1183
2.8751 -2.4817 -0.1186
0.9927 1.3783 0.7951
1.3390 0.7090 0.4215
1.2692 0.8799 0.3348
1.2608 0.9181 0.2450
1.1417 1.2018 0.1329
1.2340 1.0416 -0.0480
1.2049 1.1300 -0.1611
1.4883 0.5123 -0.1533
1.9769 -0.5515 -0.1434
2.0804 -0.7770 -0.1404
2.1579 -0.9447 -0.1439
2.2379 -1.1204 -0.1355
2.2877 -1.2266 -0.1442
2.3471 -1.3572 -0.1370
2.3938 -1.4592 -0.1351
2.4348 -1.5487 -0.1336
2.4710 -1.6276 -0.1323
2.5019 -1.6946 -0.1330
2.5275 -1.7492 -0.1372
2.5540 -1.8071 -0.1361
2.5765 -1.8554 -0.1378
2.6021 -1.9128 -0.1303
2.6219 -1.9560 -0.1297
2.6417 -1.9999 -0.1257
2.6594 -2.0390 -0.1228
2.6766 -2.0774 -0.1180
2.6863 -2.0963 -0.1283
2.7037 -2.1364 -0.1173
2.7139 -2.1576 -0.1224
2.7281 -2.1903 -0.1141
2.7359 -2.2053 -0.1227
2.7473 -2.2311 -0.1182
2.7559 -2.2491 -0.1210
2.7636 -2.2648 -0.1256
2.7742 -2.2899 -0.1169
2.7825 -2.3083 -0.1152
2.7973 -2.3406 -0.1140
2.8040 -2.3553 -0.1137
2.8100 -2.3678 -0.1159
2.8153 -2.3782 -0.1206
2.8220 -2.3941 -0.1152
2.8270 -2.4040 -0.1190
2.8322 -2.4151 -0.1200
2.8375 -2.4271 -0.1182
2.8431 -2.4406 -0.1123
2.8476 -2.4498 -0.1141
2.8521 -2.4599 -0.1130
2.8559 -2.4671 -0.1178
2.8600 -2.4758 -0.1184
0.8167 1.5886 0.3943
0.9175 1.4003 0.2964
0.8754 1.5066 0.1891
0.9284 1.4165 0.0905
1.0244 1.2360 0.0041
1.1332 1.0272 -0.0711
1.1209 1.0723 -0.1781
1.5987 0.0929 -0.1750
1.9473 -0.6280 -0.1389
2.0508 -0.8406 -0.1362
2.1408 -1.0258 -0.1310
2.2770 -1.3060 -0.1253
2.3197 -1.3919 -0.1338
2.3629 -1.4798 -0.1368
2.4034 -1.5626 -0.1373
2.4377 -1.6324 -0.1400
2.4748 -1.7095 -0.1344
2.4998 -1.7595 -0.1405
2.5357 -1.8357 -0.1271
2.5581 -1.8811 -0.1295
2.5823 -1.9314 -0.1257
2.5997 -1.9661 -0.1305
2.6230 -2.0154 -0.1215
2.6360 -2.0407 -0.1293
2.6542 -2.0789 -0.1243
2.6700 -2.1117 -0.1217
2.6844 -2.1416 -0.1197
2.6963 -2.1656 -0.1216
2.7191 -2.2124 -0.1220
2.7304 -2.2358 -0.1198
2.7391 -2.2530 -0.1232
2.7577 -2.2915 -0.1215
2.7675 -2.3126 -0.1160
2.7750 -2.3278 -0.1170
2.7826 -2.3434 -0.1164
2.7890 -2.3561 -0.1191
2.7956 -2.3692 -0.1202
2.8021 -2.3828 -0.1196
2.8076 -2.3935 -0.1227
2.8142 -2.4078 -0.1187
2.8206 -2.4218 -0.1139
2.8308 -2.4424 -0.1151
2.8359 -2.4532 -0.1132
2.8396 -2.4594 -0.1207
2.8442 -2.4688 -0.1204
2.8489 -2.4791 -0.1171
0.6251 1.7304 0.3669
1.1289 0.8217 -0.0673
1.1364 0.8219 -0.1622
1.8168 -0.5022 -0.1258
1.9201 -0.7011 -0.1343
2.0023 -0.8586 -0.1452
2.1006 -1.0504 -0.1361
2.2355 -1.3119 -0.1348
2.2803 -1.3976 -0.1429
2.3440 -1.5234 -0.1273
2.4150 -1.6598 -0.1354
2.4796 -1.7851 -0.1344
2.5101 -1.8447 -0.1303
2.5366 -1.8965 -0.1277
2.5609 -1.9440 -0.1250
2.5820 -1.9850 -0.1244
2.5996 -2.0187 -0.1269
2.6154 -2.0487 -0.1305
2.6349 -2.0875 -0.1245
2.6528 -2.1232 -0.1186
2.6646 -2.1453 -0.1236
2.6761 -2.1669 -0.1276
2.6925 -2.2001 -0.1180
2.7049 -2.2245 -0.1156
2.7127 -2.2383 -0.1238
2.7239 -2.2605 -0.1211
2.7331 -2.2780 -0.1226
2.7428 -2.2973 -0.1206
2.7518 -2.3148 -0.1195
2.7611 -2.3333 -0.1157
2.7677 -2.3455 -0.1198
2.7742 -2.3576 -0.1234
2.7818 -2.3726 -0.1213
2.7903 -2.3904 -0.1131
2.7958 -2.4004 -0.1170
2.8012 -2.4103 -0.1206
2.8075 -2.4230 -0.1180
2.8130 -2.4337 -0.1182
2.8184 -2.4441 -0.1180
2.8239 -2.4550 -0.1160
2.8288 -2.4645 -0.1160
2.8326 -2.4710 -0.1219
2.8373 -2.4802 -0.1210
2.8420 -2.4898 -0.1185
0.6983 1.3559 0.4454
0.5107 1.7140 0.3407
0.8178 1.2116 -0.1487
1.8565 -0.6970 -0.1510
2.0697 -1.0907 -0.1356
2.1340 -1.2081 -0.1416
2.2000 -1.3297 -0.1395
2.2574 -1.4355 -0.1375
2.3125 -1.5374 -0.1314
2.3523 -1.6103 -0.1341
2.3933 -1.6861 -0.1310
2.4204 -1.7348 -0.1393
2.4472 -1.7834 -0.1448
2.4926 -1.8696 -0.1229
2.5146 -1.9094 -0.1275
2.5344 -1.9452 -0.1326
2.5578 -1.9885 -0.1299
2.5778 -2.0253 -0.1296
2.5935 -2.0535 -0.1343
2.6301 -2.1216 -0.1277
2.6460 -2.1512 -0.1252
2.6643 -2.1861 -0.1150
2.6756 -2.2064 -0.1182
2.6856 -2.2241 -0.1230
2.6956 -2.2423 -0.1261
2.7091 -2.2679 -0.1189
2.7183 -2.2846 -0.1210
2.7289 -2.3044 -0.1178
2.7379 -2.3211 -0.1174
2.7474 -2.3388 -0.1143
2.7537 -2.3496 -0.1202
2.7624 -2.3661 -0.1165
2.7694 -2.3791 -0.1172
2.7774 -2.3943 -0.1130
2.7823 -2.4024 -0.1201
2.7877 -2.4116 -0.1247
2.7958 -2.4278 -0.1151
2.8014 -2.4378 -0.1164
2.8065 -2.4471 -0.1184
2.8111 -2.4550 -0.1225
2.8220 -2.4754 -0.1181
0.6855 1.2420 -0.1801
1.3035 0.1612 -0.1713
1.5478 -0.2679 -0.1508
1.6923 -0.5200 -0.1543
1.8057 -0.7175 -0.1605
2.0315 -1.1141 -0.1405
2.1087 -1.2491 -0.1383
2.1785 -1.3717 -0.1337
2.2301 -1.4615 -0.1370
2.2911 -1.5690 -0.1266
2.3287 -1.6343 -0.1319
2.3688 -1.7045 -0.1307
2.4415 -1.8323 -0.1235
2.4628 -1.8685 -0.1325
2.4910 -1.9181 -0.1300
2.5125 -1.9553 -0.1336
2.5403 -2.0047 -0.1253
2.5599 -2.0389 -0.1264
2.5807 -2.0755 -0.1231
2.5954 -2.1006 -0.1280
2.6160 -2.1375 -0.1200
2.6314 -2.1645 -0.1191
2.6465 -2.1911 -0.1170
2.6567 -2.2083 -0.1232
2.6697 -2.2311 -0.1221
2.6844 -2.2576 -0.1147
2.6943 -2.2745 -0.1174
2.7021 -2.2876 -0.1239
2.7156 -2.3121 -0.1140
2.7244 -2.3274 -0.1152
2.7317 -2.3397 -0.1197
2.7407 -2.3557 -0.1175
2.7465 -2.3650 -0.1250
2.7554 -2.3811 -0.1204
2.7653 -2.3993 -0.1107
2.7769 -2.4189 -0.1176
2.7831 -2.4296 -0.1181
2.7891 -2.4402 -0.1181
2.7945 -2.4494 -0.1200
2.8002 -2.4595 -0.1191
2.8051 -2.4678 -0.1214
2.8116 -2.4798 -0.1144
2.8199 -2.4935 -0.1222
0.3068 1.6740 -0.1592
0.5220 1.3205 -0.2199
0.9486 0.6081 -0.1961
1.5000 -0.3132 -0.1578
1.6217 -0.5147 -0.1724
1.7765 -0.7735 -0.1591
1.8723 -0.9326 -0.1648
2.0029 -1.1520 -0.1398
2.0690 -1.2617 -0.1457
2.2067 -1.4918 -0.1342
2.2607 -1.5820 -0.1307
2.2979 -1.6435 -0.1372
2.3767 -1.7750 -0.1345
2.4162 -1.8413 -0.1267
2.4463 -1.8915 -0.1258
2.4761 -1.9414 -0.1218
2.4998 -1.9808 -0.1228
2.5441 -2.0548 -0.1210
2.5623 -2.0849 -0.1227
2.5847 -2.1229 -0.1150
2.5978 -2.1442 -0.1209
2.6102 -2.1644 -0.1267
2.6300 -2.1982 -0.1166
2.6450 -2.2233 -0.1136
2.6553 -2.2401 -0.1187
2.6890 -2.2962 -0.1194
2.6991 -2.3130 -0.1195
2.7079 -2.3276 -0.1216
2.7190 -2.3464 -0.1162
2.7267 -2.3591 -0.1189
2.7360 -2.3747 -0.1158
2.7420 -2.3843 -0.1215
2.7585 -2.4123 -0.1151
2.7645 -2.4220 -0.1183
2.7706 -2.4321 -0.1198
2.7778 -2.4443 -0.1162
2.7833 -2.4534 -0.1179
2.7891 -2.4629 -0.1181
2.7955 -2.4739 -0.1139
2.8004 -2.4820 -0.1157
2.8042 -2.4878 -0.1223
0.2891 1.4948 -0.1636
0.4981 1.1658 -0.2219
0.8768 0.5628 -0.2108
1.4537 -0.3572 -0.1646
1.5948 -0.5813 -0.1705
1.7623 -0.8488 -0.1509
1.8558 -0.9973 -0.1570
1.9711 -1.1815 -0.1417
2.0542 -1.3140 -0.1368
2.1087 -1.4002 -0.1447
2.1755 -1.5068 -0.1381
2.2805 -1.6741 -0.1308
2.3218 -1.7400 -0.1298
2.3520 -1.7877 -0.1361
2.4335 -1.9184 -0.1160
2.4517 -1.9467 -0.1265
2.4865 -2.0027 -0.1141
2.5245 -2.0627 -0.1222
2.5600 -2.1190 -0.1262
2.5799 -2.1508 -0.1218
2.6113 -2.2009 -0.1209
2.6265 -2.2252 -0.1186
2.6543 -2.2696 -0.1139
2.6624 -2.2821 -0.1215
2.6779 -2.3074 -0.1112
2.6857 -2.3193 -0.1174
2.6959 -2.3357 -0.1164
2.7068 -2.3531 -0.1126
2.7140 -2.3644 -0.1171
2.7222 -2.3773 -0.1180
2.7305 -2.3907 -0.1172
2.7384 -2.4032 -0.1169
2.7470 -2.4172 -0.1125
2.7522 -2.4250 -0.1189
2.7602 -2.4380 -0.1145
2.7657 -2.4466 -0.1178
2.7718 -2.4563 -0.1183
2.7775 -2.4652 -0.1196
2.7824 -2.4729 -0.1230
2.7875 -2.4809 -0.1248
2.7951 -2.4936 -0.1143
2.7992 -2.4998 -0.1193
0.2077 1.4279 -0.1823
0.5286 0.9406 -0.2095
0.9582 0.2857 -0.1781
1.1970 -0.0778 -0.1789
1.5858 -0.6700 -0.1613
1.8350 -1.0496 -0.1527
2.0166 -1.3263 -0.1438
2.1626 -1.5491 -0.1287
2.2018 -1.6084 -0.1381
2.2569 -1.6926 -0.1306
2.2807 -1.7282 -0.1463
2.3425 -1.8230 -0.1235
2.4086 -1.9237 -0.1208
2.5052 -2.0706 -0.1232
2.5473 -2.1349 -0.1187
2.5787 -2.1826 -0.1225
2.5949 -2.2072 -0.1212
2.6134 -2.2357 -0.1136
2.6374 -2.2720 -0.1177
2.6488 -2.2893 -0.1190
2.6570 -2.3015 -0.1260
2.6717 -2.3242 -0.1172
2.6840 -2.3432 -0.1121
2.7003 -2.3677 -0.1184
2.7115 -2.3850 -0.1117
2.7183 -2.3951 -0.1160
2.7245 -2.4045 -0.1210
2.7336 -2.4185 -0.1166
2.7400 -2.4280 -0.1196
2.7466 -2.4380 -0.1209
2.7537 -2.4490 -0.1194
2.7610 -2.4602 -0.1161
2.7729 -2.4783 -0.1167
2.7779 -2.4858 -0.1196
2.7822 -2.4921 -0.1249
2.7873 -2.4998 -0.1258
0.3450 1.0455 -0.1516
0.6708 0.5705 -0.1679
1.2672 -0.2999 -0.1455
1.5941 -0.7768 -0.1455
1.8318 -1.1235 -0.1398
1.9096 -1.2370 -0.1458
1.9994 -1.3681 -0.1381
2.1418 -1.5761 -0.1262
2.1841 -1.6376 -0.1332
2.2366 -1.7143 -0.1283
2.2834 -1.7826 -0.1237
2.3281 -1.8480 -0.1167
2.3573 -1.8905 -0.1210
2.3888 -1.9364 -0.1203
2.4185 -1.9798 -0.1187
2.4519 -2.0287 -0.1099
2.4676 -2.0514 -0.1195
2.4914 -2.0862 -0.1174
2.5111 -2.1149 -0.1185
2.5238 -2.1333 -0.1277
2.5610 -2.1875 -0.1246
2.5933 -2.2347 -0.1219
2.6070 -2.2547 -0.1222
2.6219 -2.2765 -0.1190
2.6575 -2.3285 -0.1179
2.6690 -2.3453 -0.1155
2.6782 -2.3586 -0.1173
2.6863 -2.3704 -0.1206
2.6968 -2.3858 -0.1170
2.7038 -2.3959 -0.1213
2.7150 -2.4125 -0.1130
2.7217 -2.4221 -0.1162
2.7279 -2.4311 -0.1202
2.7366 -2.4439 -0.1155
2.7425 -2.4524 -0.1186
2.7501 -2.4636 -0.1152
2.7540 -2.4691 -0.1237
2.7617 -2.4805 -0.1181
2.7672 -2.4884 -0.1196
2.7726 -2.4963 -0.1208
2.7772 -2.5029 -0.1243
1.4613 -0.8788 -0.1308
1.6923 -1.1563 -0.1452
2.1851 -1.7458 -0.1240
2.2773 -1.8563 -0.1231
2.3212 -1.9087 -0.1191
2.3637 -1.9593 -0.1128
2.3946 -1.9964 -0.1139
2.4199 -2.0270 -0.1181
2.4736 -2.0912 -0.1173
2.4958 -2.1179 -0.1189
2.5223 -2.1494 -0.1133
2.5413 -2.1723 -0.1149
2.5599 -2.1946 -0.1154
2.5760 -2.2139 -0.1179
2.5945 -2.2361 -0.1154
2.6273 -2.2752 -0.1119
2.6394 -2.2898 -0.1148
2.6540 -2.3072 -0.1125
2.6652 -2.3207 -0.1148
2.6793 -2.3374 -0.1107
2.6879 -2.3480 -0.1156
2.7010 -2.3635 -0.1108
2.7104 -2.3747 -0.1125
2.7190 -2.3853 -0.1147
2.7281 -2.3961 -0.1153
2.7393 -2.4093 -0.1097
2.7451 -2.4166 -0.1160
2.7616 -2.4363 -0.1145
2.7708 -2.4470 -0.1099
2.7757 -2.4532 -0.1160
2.7841 -2.4631 -0.1116
2.7906 -2.4709 -0.1118
2.7957 -2.4772 -0.1156
1.6372 -1.1617 -0.1486
2.0290 -1.6116 -0.1323
2.1520 -1.7530 -0.1299
2.2680 -1.8854 -0.1142
2.3373 -1.9656 -0.1203
2.4087 -2.0473 -0.1137
2.4569 -2.1032 -0.1200
2.5108 -2.1647 -0.1120
2.5490 -2.2089 -0.1147
2.5824 -2.2475 -0.1177
2.5981 -2.2656 -0.1185
2.6124 -2.2822 -0.1200
2.6281 -2.3001 -0.1181
2.6452 -2.3194 -0.1124
2.6614 -2.3377 -0.1064
2.6703 -2.3483 -0.1120
2.6823 -2.3620 -0.1111
2.6919 -2.3733 -0.1136
2.7019 -2.3849 -0.1144
2.7108 -2.3952 -0.1168
2.7219 -2.4078 -0.1132
2.7319 -2.4192 -0.1111
2.7398 -2.4283 -0.1129
2.7480 -2.4378 -0.1131
2.7560 -2.4470 -0.1128
2.7644 -2.4565 -0.1108
2.7703 -2.4636 -0.1144
2.7775 -2.4718 -0.1139
2.7846 -2.4799 -0.1130
2.7915 -2.4878 -0.1116
1.8476 -1.4622 -0.1280
2.0100 -1.6414 -0.1256
2.2472 -1.9023 -0.1140
2.2763 -1.9353 -0.1237
2.3097 -1.9724 -0.1280
2.3490 -2.0156 -0.1244
2.3863 -2.0564 -0.1196
2.4399 -2.1158 -0.1226
2.4716 -2.1503 -0.1156
2.4966 -2.1777 -0.1135
2.5391 -2.2246 -0.1124
2.5724 -2.2617 -0.1166
2.6046 -2.2972 -0.1168
2.6373 -2.3329 -0.1104
2.6483 -2.3453 -0.1140
2.6612 -2.3595 -0.1132
2.6745 -2.3739 -0.1105
2.6837 -2.3844 -0.1142
2.6950 -2.3967 -0.1131
2.7055 -2.4083 -0.1124
2.7163 -2.4201 -0.1100
2.7239 -2.4287 -0.1135
2.7412 -2.4479 -0.1136
2.7499 -2.4573 -0.1122
2.7565 -2.4649 -0.1152
2.7644 -2.4735 -0.1141
2.7731 -2.4828 -0.1099
2.7780 -2.4886 -0.1155
2.7837 -2.4951 -0.1182
2.7915 -2.5035 -0.1139
1.8810 -1.5566 -0.1364
2.0513 -1.7356 -0.1229
2.1424 -1.8335 -0.1384
2.2963 -1.9951 -0.1232
2.3415 -2.0423 -0.1154
2.3655 -2.0684 -0.1234
2.4035 -2.1079 -0.1163
2.4220 -2.1284 -0.1257
2.4562 -2.1639 -0.1172
2.4803 -2.1894 -0.1171
2.5230 -2.2346 -0.1176
2.5471 -2.2596 -0.1117
2.5618 -2.2755 -0.1163
2.5827 -2.2972 -0.1109
2.5980 -2.3135 -0.1119
2.6255 -2.3428 -0.1147
2.6520 -2.3709 -0.1143
2.6660 -2.3855 -0.1109
2.6755 -2.3958 -0.1147
2.6890 -2.4097 -0.1097
2.6970 -2.4186 -0.1144
2.7086 -2.4305 -0.1111
2.7158 -2.4386 -0.1159
2.7265 -2.4496 -0.1125
2.7334 -2.4573 -0.1164
2.7427 -2.4669 -0.1140
2.7519 -2.4764 -0.1111
2.7599 -2.4848 -0.1100
2.7668 -2.4922 -0.1109
2.7732 -2.4991 -0.1127
2.7790 -2.5054 -0.1155
2.7860 -2.5128 -0.1139
1.6236 -1.3519 -0.1440
1.8735 -1.6030 -0.1219
2.0156 -1.7477 -0.1267
2.1373 -1.8710 -0.1251
2.2368 -1.9716 -0.1223
2.3295 -2.0644 -0.1104
2.3564 -2.0923 -0.1163
2.3836 -2.1203 -0.1200
2.4183 -2.1548 -0.1144
2.4432 -2.1802 -0.1161
2.4904 -2.2282 -0.1164
2.5318 -2.2702 -0.1165
2.5510 -2.2896 -0.1159
2.5692 -2.3080 -0.1149
2.5878 -2.3265 -0.1120
2.6030 -2.3420 -0.1123
2.6204 -2.3592 -0.1081
2.6305 -2.3700 -0.1139
2.6444 -2.3840 -0.1125
2.6581 -2.3977 -0.1103
2.6781 -2.4185 -0.1156
2.6874 -2.4282 -0.1185
2.7008 -2.4411 -0.1122
2.7102 -2.4508 -0.1128
2.7210 -2.4614 -0.1094
2.7291 -2.4697 -0.1110
2.7355 -2.4767 -0.1158
2.7453 -2.4863 -0.1118
2.7530 -2.4941 -0.1121
2.7605 -2.5017 -0.1119
2.7679 -2.5092 -0.1113
2.7752 -2.5164 -0.1102
2.7805 -2.5222 -0.1140
0.8012 -0.6116 -0.0788
0.9024 -0.7151 -0.1254
1.6032 -1.3963 -0.1324
1.8004 -1.5886 -0.1395
1.9690 -1.7518 -0.1360
2.1059 -1.8840 -0.1291
2.2184 -1.9922 -0.1201
2.3111 -2.0811 -0.1106
2.3474 -2.1161 -0.1092
2.3736 -2.1421 -0.1143
2.4267 -2.1941 -0.1181
2.4561 -2.2222 -0.1139
2.4793 -2.2447 -0.1144
2.5212 -2.2855 -0.1150
2.5457 -2.3085 -0.1083
2.5611 -2.3239 -0.1115
2.5900 -2.3525 -0.1170
2.6220 -2.3832 -0.1129
2.6368 -2.3972 -0.1107
2.6501 -2.4100 -0.1096
2.6586 -2.4190 -0.1157
2.6727 -2.4321 -0.1111
2.6826 -2.4420 -0.1130
2.6929 -2.4520 -0.1132
2.7140 -2.4721 -0.1096
2.7308 -2.4886 -0.1116
2.7392 -2.4967 -0.1113
2.7475 -2.5047 -0.1105
2.7546 -2.5117 -0.1116
2.7621 -2.5190 -0.1111
2.7690 -2.5257 -0.1114
2.7758 -2.5323 -0.1113
0.6982 -0.6140 -0.0773
0.7546 -0.6742 -0.1387
1.0116 -0.9129 -0.1396
1.1950 -1.0842 -0.1479
1.5302 -1.3945 -0.1416
1.6647 -1.5188 -0.1361
1.8646 -1.7039 -0.1329
1.9460 -1.7793 -0.1312
2.0828 -1.9057 -0.1272
2.1472 -1.9647 -0.1207
2.1891 -2.0042 -0.1254
2.2409 -2.0516 -0.1198
2.2736 -2.0827 -0.1256
2.3491 -2.1522 -0.1214
2.3862 -2.1859 -0.1156
2.4079 -2.2069 -0.1221
2.4419 -2.2374 -0.1143
2.4687 -2.2620 -0.1116
2.4904 -2.2823 -0.1124
2.5086 -2.2996 -0.1157
2.5454 -2.3340 -0.1177
2.5797 -2.3658 -0.1172
2.5953 -2.3802 -0.1172
2.6117 -2.3951 -0.1145
2.6373 -2.4192 -0.1166
2.6524 -2.4326 -0.1122
2.6865 -2.4641 -0.1110
2.6963 -2.4733 -0.1118
2.7042 -2.4811 -0.1154
2.7152 -2.4909 -0.1118
2.7234 -2.4986 -0.1133
2.7309 -2.5059 -0.1155
2.7419 -2.5153 -0.1088
2.7477 -2.5212 -0.1138
2.7543 -2.5277 -0.1159
2.7683 -2.5407 -0.1166
-0.5690 0.4949 0.5410
-0.8088 0.6470 0.1044
0.7212 -0.7308 -0.0474
0.6482 -0.6788 -0.1392
0.9836 -0.9740 -0.1236
1.7425 -1.6477 -0.1294
1.8135 -1.7122 -0.1403
1.9950 -1.8711 -0.1259
2.0526 -1.9227 -0.1293
2.1174 -1.9794 -0.1243
2.1716 -2.0272 -0.1219
2.2580 -2.1039 -0.1225
2.3332 -2.1703 -0.1204
2.4011 -2.2296 -0.1140
2.4281 -2.2536 -0.1140
2.4972 -2.3149 -0.1149
2.5186 -2.3337 -0.1135
2.5725 -2.3815 -0.1131
2.5864 -2.3942 -0.1159
2.6013 -2.4074 -0.1161
2.6171 -2.4211 -0.1136
2.6267 -2.4304 -0.1197
2.6426 -2.4438 -0.1145
2.6536 -2.4538 -0.1164
2.6650 -2.4640 -0.1166
2.6745 -2.4728 -0.1194
2.6981 -2.4929 -0.1134
2.7082 -2.5016 -0.1121
2.7165 -2.5092 -0.1137
2.7343 -2.5248 -0.1120
2.7427 -2.5321 -0.1109
2.7479 -2.5375 -0.1169
2.7560 -2.5445 -0.1150
2.7641 -2.5513 -0.1126
0.0160 -0.1301 0.6247
0.3861 -0.4686 0.4554
0.8875 -0.9026 0.3903
-0.8595 0.5368 0.1332
0.5951 -0.7212 -0.0488
0.6157 -0.7495 -0.1207
0.8156 -0.9222 -0.1449
1.7909 -1.7456 -0.1331
1.9528 -1.8825 -0.1325
2.0287 -1.9459 -0.1271
2.0922 -1.9992 -0.1243
2.1406 -2.0406 -0.1272
2.2036 -2.0923 -0.1164
2.2445 -2.1271 -0.1177
2.2876 -2.1630 -0.1144
2.3143 -2.1868 -0.1216
2.3463 -2.2139 -0.1225
2.4135 -2.2695 -0.1142
2.4404 -2.2921 -0.1129
2.4622 -2.3109 -0.1151
2.4837 -2.3292 -0.1162
2.5061 -2.3479 -0.1145
2.5255 -2.3644 -0.1146
2.5420 -2.3787 -0.1169
2.5793 -2.4095 -0.1119
2.5913 -2.4203 -0.1167
2.6111 -2.4359 -0.1089
2.6207 -2.4450 -0.1150
2.6363 -2.4576 -0.1109
2.6468 -2.4669 -0.1139
2.6596 -2.4774 -0.1122
2.6669 -2.4847 -0.1192
2.6798 -2.4950 -0.1151
2.6914 -2.5044 -0.1124
2.7005 -2.5123 -0.1135
2.7084 -2.5194 -0.1165
2.7194 -2.5280 -0.1119
2.7254 -2.5339 -0.1175
2.7345 -2.5413 -0.1155
2.7429 -2.5483 -0.1141
0.2839 -0.4854 0.4755
0.5781 -0.7344 0.4027
0.6403 -0.8522 -0.0155
0.6226 -0.8505 -0.0935
0.8512 -1.0376 -0.1112
1.2583 -1.3675 -0.1211
1.5193 -1.5805 -0.1371
1.7523 -1.7677 -0.1330
1.8445 -1.8419 -0.1317
1.9167 -1.9006 -0.1350
2.0107 -1.9742 -0.1212
2.0629 -2.0171 -0.1264
2.1776 -2.1084 -0.1194
2.2593 -2.1747 -0.1218
2.3002 -2.2072 -0.1186
2.3398 -2.2383 -0.1137
2.3631 -2.2582 -0.1206
2.3952 -2.2836 -0.1176
2.4233 -2.3060 -0.1162
2.4516 -2.3283 -0.1124
2.4713 -2.3447 -0.1159
2.4947 -2.3632 -0.1137
2.5312 -2.3931 -0.1167
2.5509 -2.4087 -0.1142
2.5691 -2.4230 -0.1122
2.5969 -2.4460 -0.1161
2.6117 -2.4578 -0.1151
2.6288 -2.4706 -0.1093
2.6542 -2.4908 -0.1077
2.6633 -2.4988 -0.1116
2.6746 -2.5078 -0.1108
2.6829 -2.5151 -0.1147
2.6944 -2.5239 -0.1116
2.7030 -2.5311 -0.1134
2.7125 -2.5386 -0.1125
2.7202 -2.5452 -0.1146
2.7305 -2.5528 -0.1102
2.7385 -2.5592 -0.1101
2.7438 -2.5644 -0.1159
0.4063 -0.6930 0.4197
0.3809 -0.7255 0.1191
0.6078 -0.9073 0.0748
0.6465 -0.9483 0.0091
0.9022 -1.1707 -0.1420
1.1211 -1.3387 -0.1425
1.5786 -1.6899 -0.1435
1.6940 -1.7781 -0.1411
1.8328 -1.8809 -0.1200
1.9059 -1.9377 -0.1238
1.9638 -1.9834 -0.1312
2.0232 -2.0295 -0.1342
2.1036 -2.0887 -0.1199
2.1473 -2.1231 -0.1247
2.1993 -2.1623 -0.1207
2.2334 -2.1895 -0.1266
2.2845 -2.2270 -0.1167
2.3109 -2.2484 -0.1238
2.3440 -2.2738 -0.1233
2.3716 -2.2953 -0.1255
2.4052 -2.3201 -0.1200
2.4346 -2.3421 -0.1160
2.4554 -2.3585 -0.1192
2.4744 -2.3737 -0.1228
2.5053 -2.3954 -0.1113
2.5229 -2.4093 -0.1132
2.5561 -2.4352 -0.1159
2.5902 -2.4607 -0.1123
2.6175 -2.4819 -0.1134
2.6308 -2.4920 -0.1128
2.6409 -2.5004 -0.1165
2.6550 -2.5105 -0.1124
2.6653 -2.5187 -0.1139
2.6826 -2.5331 -0.1207
2.6970 -2.5426 -0.1115
2.7055 -2.5494 -0.1130
2.7162 -2.5569 -0.1092
2.7250 -2.5635 -0.1085
2.7314 -2.5691 -0.1122
2.7383 -2.5748 -0.1144
0.3993 -0.7195 0.7802
0.8625 -1.1098 0.4942
0.5167 -0.8681 0.4376
0.5172 -0.8810 0.3692
0.4980 -0.9618 -0.1468
0.8427 -1.2109 -0.1342
1.2671 -1.5202 -0.1332
1.5442 -1.7231 -0.1382
1.7964 -1.9037 -0.1201
1.8682 -1.9572 -0.1262
1.9451 -2.0131 -0.1250
2.0021 -2.0556 -0.1303
2.0729 -2.1060 -0.1235
2.1295 -2.1468 -0.1211
2.1655 -2.1746 -0.1293
2.2130 -2.2088 -0.1268
2.2538 -2.2384 -0.1262
2.2969 -2.2688 -0.1210
2.3290 -2.2924 -0.1220
2.3592 -2.3146 -0.1226
2.3903 -2.3368 -0.1202
2.4174 -2.3564 -0.1195
2.4469 -2.3770 -0.1144
2.4675 -2.3925 -0.1166
2.4947 -2.4111 -0.1100
2.5065 -2.4214 -0.1193
2.5282 -2.4366 -0.1158
2.5462 -2.4496 -0.1153
2.5788 -2.4733 -0.1148
2.6079 -2.4944 -0.1145
2.6233 -2.5050 -0.1112
2.6322 -2.5126 -0.1170
2.6484 -2.5232 -0.1101
2.6595 -2.5313 -0.1106
2.6692 -2.5388 -0.1126
2.6781 -2.5458 -0.1153
2.6858 -2.5522 -0.1197
2.6985 -2.5603 -0.1134
2.7076 -2.5669 -0.1134
2.7160 -2.5732 -0.1141
2.7242 -2.5792 -0.1143
2.7318 -2.5850 -0.1154
2.7393 -2.5905 -0.1160
0.3846 -0.8645 0.4562
0.4259 -0.9068 0.3858
0.4858 -1.0324 -0.0468
0.4433 -1.0197 -0.1328
0.6795 -1.1869 -0.1520
1.1107 -1.4872 -0.1622
1.3271 -1.6340 -0.1476
1.7325 -1.9115 -0.1320
1.8387 -1.9834 -0.1239
1.9343 -2.0477 -0.1144
1.9840 -2.0840 -0.1245
2.0503 -2.1293 -0.1216
2.1000 -2.1643 -0.1249
2.1558 -2.2022 -0.1209
2.2038 -2.2350 -0.1186
2.2391 -2.2602 -0.1228
2.3108 -2.3099 -0.1232
2.3429 -2.3321 -0.1230
2.3629 -2.3476 -0.1317
2.4291 -2.3909 -0.1190
2.4536 -2.4077 -0.1179
2.4770 -2.4235 -0.1163
2.5187 -2.4519 -0.1140
2.5390 -2.4654 -0.1111
2.5563 -2.4773 -0.1106
2.5700 -2.4873 -0.1136
2.5848 -2.4977 -0.1140
2.6157 -2.5182 -0.1096
2.6267 -2.5263 -0.1125
2.6394 -2.5350 -0.1118
2.6487 -2.5422 -0.1157
2.6610 -2.5503 -0.1137
2.6820 -2.5648 -0.1132
2.6908 -2.5712 -0.1150
2.7024 -2.5783 -0.1104
2.7109 -2.5843 -0.1112
2.7192 -2.5902 -0.1115
2.7258 -2.5954 -0.1151
1.3565 -1.5780 0.5421
0.3088 -0.9052 0.4751
0.4146 -0.9891 0.4040
-0.8835 -0.2533 -0.1561
0.6308 -1.2421 -0.1391
1.4122 -1.7458 -0.0984
1.4968 -1.8053 -0.1184
1.7094 -1.9460 -0.1247
1.7990 -2.0049 -0.1261
1.8644 -2.0495 -0.1341
1.9482 -2.1031 -0.1282
2.0035 -2.1405 -0.1334
2.1234 -2.2178 -0.1274
2.2196 -2.2799 -0.1228
2.2593 -2.3058 -0.1221
2.2902 -2.3268 -0.1260
2.3317 -2.3525 -0.1187
2.3608 -2.3718 -0.1197
2.3901 -2.3907 -0.1184
2.4103 -2.4051 -0.1241
2.4711 -2.4420 -0.1094
2.4867 -2.4534 -0.1153
2.5042 -2.4654 -0.1179
2.5445 -2.4907 -0.1127
2.5748 -2.5110 -0.1148
2.5903 -2.5209 -0.1137
2.6068 -2.5310 -0.1099
2.6186 -2.5391 -0.1120
2.6321 -2.5476 -0.1104
2.6409 -2.5545 -0.1154
2.6522 -2.5619 -0.1157
2.6638 -2.5693 -0.1144
2.6747 -2.5762 -0.1135
2.6842 -2.5826 -0.1142
2.6936 -2.5888 -0.1145
2.7136 -2.6009 -0.1099
2.7197 -2.6059 -0.1148
2.7279 -2.6112 -0.1143
0.2833 -0.9208 0.7699
1.3764 -1.6452 0.5501
0.5021 -1.1169 0.4881
0.4441 -1.0953 0.4220
-0.9956 -0.2748 0.0905
-1.0151 -0.2875 -0.0246
-0.0888 -0.8770 -0.0975
0.5623 -1.2874 -0.1305
1.3740 -1.7820 -0.0921
1.4539 -1.8364 -0.1152
1.6686 -1.9715 -0.1248
1.7677 -2.0327 -0.1236
1.8448 -2.0812 -0.1273
1.9255 -2.1305 -0.1243
1.9792 -2.1653 -0.1315
2.0633 -2.2143 -0.1172
2.1079 -2.2431 -0.1224
2.1551 -2.2725 -0.1232
2.1859 -2.2936 -0.1326
2.2852 -2.3516 -0.1159
2.3190 -2.3724 -0.1157
2.3364 -2.3858 -0.1275
2.4037 -2.4252 -0.1169
2.4326 -2.4422 -0.1129
2.4566 -2.4568 -0.1117
2.4753 -2.4691 -0.1147
2.4916 -2.4801 -0.1192
2.5147 -2.4934 -0.1146
2.5298 -2.5035 -0.1181
2.5481 -2.5145 -0.1164
2.5600 -2.5230 -0.1219
2.5791 -2.5337 -0.1166
2.5959 -2.5433 -0.1130
2.6111 -2.5522 -0.1104
2.6209 -2.5593 -0.1151
2.6324 -2.5667 -0.1162
2.6445 -2.5740 -0.1156
2.6576 -2.5814 -0.1122
2.6692 -2.5882 -0.1103
2.6782 -2.5942 -0.1123
2.6865 -2.5999 -0.1150
2.7062 -2.6115 -0.1118
1.3808 -1.7005 0.5589
-0.6342 -0.6151 0.1502
0.2014 -1.1605 -0.1032
0.6791 -1.4500 -0.1495
1.1843 -1.7289 -0.0771
1.2094 -1.7545 -0.1252
1.3836 -1.8553 -0.1210
1.4994 -1.9247 -0.1286
1.6857 -2.0369 -0.1434
1.8828 -2.1492 -0.1304
2.0285 -2.2325 -0.1227
2.0843 -2.2651 -0.1224
2.1273 -2.2913 -0.1270
2.2169 -2.3433 -0.1256
2.3450 -2.4138 -0.1064
2.3593 -2.4251 -0.1196
2.3860 -2.4409 -0.1204
2.4161 -2.4575 -0.1161
2.4376 -2.4706 -0.1184
2.4559 -2.4823 -0.1227
2.4811 -2.4960 -0.1181
2.5045 -2.5086 -0.1137
2.5190 -2.5182 -0.1182
2.5404 -2.5295 -0.1133
2.5558 -2.5388 -0.1144
2.5717 -2.5480 -0.1137
2.5854 -2.5562 -0.1151
2.6128 -2.5721 -0.1146
2.6264 -2.5797 -0.1128
2.6341 -2.5858 -0.1197
2.6697 -2.6055 -0.1149
2.6900 -2.6169 -0.1131
2.6970 -2.6220 -0.1174
2.7152 -2.6321 -0.1151
1.3769 -1.7495 0.5682
1.3740 -1.7573 0.5282
1.2427 -1.7368 0.3086
1.3268 -1.7923 0.2690
1.3229 -1.8011 0.2225
0.8429 -1.6097 -0.0859
1.1504 -1.7743 -0.0668
1.1652 -1.7946 -0.1185
1.3189 -1.8804 -0.1237
1.4010 -1.9308 -0.1463
1.5361 -2.0044 -0.1433
1.6802 -2.0801 -0.1284
1.7705 -2.1301 -0.1296
1.8545 -2.1760 -0.1286
1.9255 -2.2153 -0.1294
2.0021 -2.2558 -0.1227
2.0603 -2.2877 -0.1222
2.1128 -2.3165 -0.1217
2.1534 -2.3398 -0.1261
2.2020 -2.3656 -0.1222
2.2318 -2.3837 -0.1293
2.2822 -2.4088 -0.1182
2.3148 -2.4268 -0.1185
2.3462 -2.4439 -0.1177
2.4075 -2.4761 -0.1112
2.4233 -2.4868 -0.1197
2.4463 -2.4994 -0.1197
2.4711 -2.5122 -0.1161
2.4898 -2.5228 -0.1177
2.5124 -2.5343 -0.1133
2.5319 -2.5444 -0.1111
2.5455 -2.5528 -0.1150
2.5623 -2.5618 -0.1136
2.5741 -2.5693 -0.1180
2.5946 -2.5785 -0.1092
2.6053 -2.5853 -0.1131
2.6185 -2.5924 -0.1125
2.6275 -2.5985 -0.1174
2.6410 -2.6052 -0.1144
2.6518 -2.6113 -0.1150
2.6655 -2.6175 -0.1095
2.6715 -2.6226 -0.1170
2.6829 -2.6281 -0.1137
2.6918 -2.6332 -0.1145
2.6999 -2.6380 -0.1161
1.5161 -1.8489 0.6694
1.4319 -1.8293 0.5719
1.4490 -1.8478 0.5324
1.3447 -1.8659 0.2389
0.1279 -1.3320 -0.1462
1.0625 -1.8101 -0.1284
1.3971 -1.9829 -0.1287
1.5023 -2.0396 -0.1382
1.6629 -2.1177 -0.1186
1.7646 -2.1695 -0.1158
1.8215 -2.2020 -0.1286
1.8826 -2.2353 -0.1361
1.9570 -2.2729 -0.1326
2.0418 -2.3132 -0.1184
2.0926 -2.3398 -0.1200
2.1417 -2.3651 -0.1195
2.1821 -2.3865 -0.1221
2.2611 -2.4271 -0.1211
2.3354 -2.4636 -0.1138
2.3590 -2.4770 -0.1185
2.3899 -2.4920 -0.1150
2.4142 -2.5048 -0.1156
2.4352 -2.5162 -0.1181
2.4815 -2.5391 -0.1142
2.5198 -2.5587 -0.1131
2.5556 -2.5763 -0.1098
2.5821 -2.5911 -0.1143
2.5963 -2.5983 -0.1136
2.6057 -2.6045 -0.1192
2.6209 -2.6113 -0.1151
2.6340 -2.6176 -0.1133
2.6435 -2.6233 -0.1162
2.6562 -2.6290 -0.1131
2.6660 -2.6343 -0.1139
2.6771 -2.6395 -0.1118
2.6854 -2.6443 -0.1139
2.6949 -2.6490 -0.1132
1.5295 -1.9001 0.6736
1.4524 -1.8966 0.5409
1.3931 -1.8768 0.5060
1.3375 -1.9262 0.2064
0.2645 -1.4839 -0.0929
1.2193 -1.9244 -0.0112
1.0733 -1.8777 -0.1046
1.1764 -1.9339 -0.1302
1.4335 -2.0499 -0.0976
1.5659 -2.1135 -0.0963
1.6509 -2.1572 -0.1067
1.7923 -2.2305 -0.1264
1.8679 -2.2674 -0.1277
1.9474 -2.3045 -0.1225
2.0006 -2.3314 -0.1275
2.0488 -2.3560 -0.1323
2.1620 -2.4080 -0.1219
2.2453 -2.4476 -0.1196
2.2717 -2.4622 -0.1265
2.3072 -2.4788 -0.1243
2.3453 -2.4954 -0.1175
2.3704 -2.5082 -0.1200
2.3967 -2.5208 -0.1197
2.4203 -2.5324 -0.1203
2.4694 -2.5547 -0.1147
2.5047 -2.5727 -0.1185
2.5411 -2.5897 -0.1160
2.5722 -2.6045 -0.1155
2.6003 -2.6179 -0.1147
2.6143 -2.6242 -0.1127
2.6228 -2.6298 -0.1185
2.6372 -2.6356 -0.1141
2.6460 -2.6408 -0.1178
2.6587 -2.6460 -0.1142
2.6699 -2.6509 -0.1123
2.6777 -2.6556 -0.1158
2.6866 -2.6601 -0.1164
1.5197 -1.9379 0.6816
1.3927 -1.9143 0.5541
1.4040 -1.9298 0.5147
1.4362 -1.9549 0.4746
1.4335 -1.9639 0.4358
1.4153 -1.9988 0.2725
1.3748 -1.9930 0.2249
1.2605 -1.9578 0.1630
1.2915 -2.0085 0.0239
1.2955 -2.0231 -0.0245
1.3605 -2.0604 -0.0551
1.3481 -2.0688 -0.1081
1.4719 -2.1260 -0.1135
1.5593 -2.1688 -0.1262
1.6736 -2.2194 -0.1226
1.7427 -2.2533 -0.1331
1.8229 -2.2897 -0.1342
1.9070 -2.3261 -0.1286
1.9874 -2.3601 -0.1200
2.0396 -2.3844 -0.1231
2.0976 -2.4096 -0.1195
2.1408 -2.4298 -0.1221
2.1801 -2.4482 -0.1249
2.2252 -2.4675 -0.1209
2.3056 -2.5015 -0.1123
2.3282 -2.5135 -0.1191
2.3576 -2.5265 -0.1184
2.4363 -2.5610 -0.1144
2.4542 -2.5701 -0.1184
2.4749 -2.5793 -0.1182
2.4930 -2.5878 -0.1195
2.5123 -2.5962 -0.1181
2.5292 -2.6039 -0.1185
2.5508 -2.6118 -0.1115
2.5614 -2.6182 -0.1175
2.5790 -2.6250 -0.1134
2.5913 -2.6310 -0.1153
2.6063 -2.6370 -0.1124
2.6176 -2.6426 -0.1141
2.6288 -2.6479 -0.1152
2.6384 -2.6530 -0.1179
2.6513 -2.6579 -0.1145
2.6613 -2.6625 -0.1151
2.6705 -2.6670 -0.1163
2.6802 -2.6713 -0.1159
2.6873 -2.6755 -0.1199
1.5448 -1.9917 0.6833
1.4841 -2.0013 0.5549
1.4622 -2.0017 0.5202
1.4669 -2.0138 0.4828
1.4707 -2.0257 0.4452
1.4701 -2.0570 0.3295
1.3439 -2.0422 0.1900
1.2975 -2.0373 0.1368
1.2839 -2.0452 0.0869
1.2521 -2.0470 0.0314
1.1987 -2.0420 -0.0324
1.0526 -2.0066 -0.1269
1.1872 -2.0669 -0.1414
1.3985 -2.1501 -0.1216
1.5143 -2.1998 -0.1261
1.5972 -2.2377 -0.1376
1.7161 -2.2850 -0.1287
1.8218 -2.3266 -0.1189
1.8886 -2.3557 -0.1228
1.9570 -2.3841 -0.1219
2.0142 -2.4084 -0.1234
2.0637 -2.4300 -0.1262
2.1093 -2.4497 -0.1287
2.1649 -2.4711 -0.1215
2.2517 -2.5057 -0.1151
2.2848 -2.5198 -0.1160
2.3182 -2.5334 -0.1145
2.3511 -2.5463 -0.1113
2.3773 -2.5575 -0.1122
2.3967 -2.5671 -0.1177
2.4229 -2.5775 -0.1153
2.4449 -2.5868 -0.1156
2.4643 -2.5953 -0.1172
2.4842 -2.6036 -0.1170
2.5030 -2.6114 -0.1167
2.5186 -2.6186 -0.1190
2.5427 -2.6261 -0.1095
2.5535 -2.6323 -0.1157
2.5705 -2.6386 -0.1127
2.5809 -2.6443 -0.1177
2.5940 -2.6499 -0.1182
2.6069 -2.6553 -0.1181
2.6189 -2.6604 -0.1184
2.6321 -2.6652 -0.1158
2.6424 -2.6699 -0.1171
2.6566 -2.6742 -0.1109
2.6672 -2.6783 -0.1098
2.6732 -2.6826 -0.1166
2.6822 -2.6866 -0.1170
1.5718 -2.0530 0.6527
1.5702 -2.0706 0.5881
1.5345 -2.0652 0.5582
1.4647 -2.0465 0.5285
1.4428 -2.0480 0.4928
1.4466 -2.0601 0.4551
1.4515 -2.0727 0.4170
1.4555 -2.0851 0.3786
1.4595 -2.0976 0.3398
1.4510 -2.1056 0.2996
1.3487 -2.0928 0.2043
1.2122 -2.0865 0.0391
1.0200 -2.0718 -0.1735
1.3201 -2.1760 -0.1302
1.4676 -2.2320 -0.1260
1.5607 -2.2707 -0.1352
1.7598 -2.3471 -0.1322
1.8418 -2.3785 -0.1309
1.9183 -2.4072 -0.1276
1.9954 -2.4348 -0.1195
2.0404 -2.4541 -0.1259
2.1446 -2.4932 -0.1215
2.1877 -2.5097 -0.1208
2.2168 -2.5230 -0.1278
2.2878 -2.5501 -0.1265
2.3607 -2.5750 -0.1144
2.4078 -2.5942 -0.1176
2.4513 -2.6113 -0.1186
2.4730 -2.6193 -0.1171
2.4959 -2.6269 -0.1127
2.5301 -2.6403 -0.1131
2.5569 -2.6523 -0.1188
2.5732 -2.6579 -0.1162
2.5858 -2.6632 -0.1178
2.5981 -2.6683 -0.1189
2.6138 -2.6730 -0.1140
2.6258 -2.6776 -0.1137
2.6362 -2.6820 -0.1150
2.6472 -2.6861 -0.1147
2.6553 -2.6904 -0.1185
2.6673 -2.6940 -0.1148
2.6772 -2.6976 -0.1141
1.5630 -2.0885 0.6602
1.5548 -2.1040 0.5968
1.5469 -2.1105 0.5646
1.4271 -2.1078 0.4268
1.4240 -2.1179 0.3881
1.4229 -2.1523 0.2684
1.3374 -2.1369 0.2162
0.9959 -2.1242 -0.1598
1.2263 -2.2015 -0.1426
1.4414 -2.2712 -0.1179
1.5493 -2.3110 -0.1226
1.6167 -2.3397 -0.1383
1.7245 -2.3764 -0.1323
1.8103 -2.4066 -0.1307
1.8851 -2.4330 -0.1298
1.9729 -2.4608 -0.1175
2.0124 -2.4780 -0.1280
2.0781 -2.4992 -0.1202
2.1215 -2.5154 -0.1229
2.1770 -2.5329 -0.1148
2.2107 -2.5461 -0.1189
2.2783 -2.5709 -0.1211
2.3439 -2.5930 -0.1166
2.3672 -2.6023 -0.1199
2.3973 -2.6117 -0.1153
2.4390 -2.6277 -0.1191
2.4648 -2.6354 -0.1137
2.4864 -2.6423 -0.1112
2.5174 -2.6549 -0.1165
2.5351 -2.6608 -0.1148
2.5475 -2.6664 -0.1189
2.5768 -2.6767 -0.1184
2.5929 -2.6813 -0.1144
2.6073 -2.6857 -0.1118
2.6166 -2.6902 -0.1159
2.6279 -2.6943 -0.1163
2.6418 -2.6979 -0.1116
2.6500 -2.7020 -0.1155
2.6601 -2.7056 -0.1154
2.6681 -2.7093 -0.1185
1.5641 -2.1273 0.6660
1.5554 -2.1432 0.6036
1.5492 -2.1507 0.5716
1.5412 -2.1578 0.5390
1.4391 -2.1439 0.4738
1.4170 -2.1478 0.4366
1.4006 -2.1778 0.3186
1.3681 -2.1802 0.2750
1.3263 -2.1806 0.2280
1.2530 -2.2296 -0.0161
1.0428 -2.1937 -0.1257
1.1026 -2.2244 -0.1628
1.3517 -2.2965 -0.1317
1.4706 -2.3365 -0.1355
1.5997 -2.3767 -0.1287
1.7720 -2.4345 -0.1333
1.8514 -2.4600 -0.1318
1.9324 -2.4844 -0.1249
1.9840 -2.5028 -0.1299
2.0410 -2.5211 -0.1287
2.0920 -2.5375 -0.1280
2.1526 -2.5543 -0.1179
2.1876 -2.5670 -0.1221
2.2340 -2.5803 -0.1158
2.2637 -2.5911 -0.1196
2.2964 -2.6017 -0.1192
2.3220 -2.6112 -0.1228
2.3513 -2.6204 -0.1216
2.3819 -2.6291 -0.1174
2.4103 -2.6372 -0.1132
2.4289 -2.6444 -0.1171
2.4535 -2.6514 -0.1136
2.4699 -2.6579 -0.1174
2.4892 -2.6641 -0.1168
2.5067 -2.6699 -0.1172
2.5278 -2.6752 -0.1120
2.5387 -2.6806 -0.1181
2.5577 -2.6853 -0.1130
2.5691 -2.6902 -0.1169
2.5825 -2.6947 -0.1172
2.5979 -2.6987 -0.1137
2.6123 -2.7024 -0.1105
2.6195 -2.7069 -0.1176
2.6315 -2.7105 -0.1165
2.6419 -2.7141 -0.1171
2.6556 -2.7168 -0.1113
2.6616 -2.7208 -0.1180
1.4927 -2.1399 0.6843
1.5177 -2.1686 0.6151
1.5339 -2.1841 0.5803
1.5204 -2.1899 0.5483
1.3890 -2.1940 0.4080
1.3500 -2.1949 0.3674
1.3148 -2.1976 0.3245
1.3941 -2.2321 0.2893
1.3544 -2.2342 0.2441
0.4701 -2.0635 -0.0563
1.1659 -2.2596 -0.0210
1.1296 -2.2676 -0.0820
1.0799 -2.2737 -0.1499
1.3064 -2.3347 -0.1290
1.4521 -2.3768 -0.1250
1.5696 -2.4115 -0.1241
1.7386 -2.4645 -0.1331
1.8966 -2.5103 -0.1290
2.0139 -2.5456 -0.1306
2.0858 -2.5632 -0.1182
2.1322 -2.5770 -0.1180
2.1728 -2.5894 -0.1191
2.2086 -2.6007 -0.1213
2.2414 -2.6112 -0.1238
2.2821 -2.6215 -0.1180
2.3427 -2.6392 -0.1167
2.3711 -2.6471 -0.1149
2.3959 -2.6545 -0.1148
2.4171 -2.6613 -0.1167
2.4364 -2.6679 -0.1192
2.4579 -2.6740 -0.1183
2.4806 -2.6796 -0.1146
2.4960 -2.6851 -0.1177
2.5127 -2.6903 -0.1184
2.5299 -2.6951 -0.1172
2.5462 -2.6996 -0.1162
2.5607 -2.7040 -0.1164
2.5772 -2.7078 -0.1128
2.5869 -2.7122 -0.1177
2.6045 -2.7152 -0.1105
2.6138 -2.7192 -0.1144
2.6260 -2.7224 -0.1134
2.6344 -2.7262 -0.1175
2.6448 -2.7294 -0.1177
1.5251 -2.2092 0.6208
1.5239 -2.2192 0.5884
1.5165 -2.2274 0.5561
1.4605 -2.2218 0.5261
1.4053 -2.2174 0.4930
1.3961 -2.2267 0.4560
1.4069 -2.2415 0.4181
1.4044 -2.2529 0.3799
1.4010 -2.2643 0.3409
1.3763 -2.2708 0.2995
1.3431 -2.2758 0.2553
0.3628 -2.1104 -0.0543
1.2250 -2.3368 -0.0382
1.2467 -2.3562 -0.0810
1.2778 -2.3770 -0.1203
1.4194 -2.4148 -0.1195
1.5074 -2.4422 -0.1316
1.6231 -2.4721 -0.1277
1.6983 -2.4947 -0.1354
1.8019 -2.5194 -0.1256
1.8721 -2.5386 -0.1268
1.9350 -2.5559 -0.1280
2.0052 -2.5727 -0.1216
2.1045 -2.5997 -0.1225
2.1466 -2.6114 -0.1237
2.2002 -2.6228 -0.1144
2.2256 -2.6323 -0.1227
2.2591 -2.6415 -0.1233
2.2981 -2.6501 -0.1174
2.3198 -2.6580 -0.1239
2.3661 -2.6652 -0.1072
2.3854 -2.6720 -0.1126
2.4272 -2.6845 -0.1165
2.4719 -2.6951 -0.1123
2.4890 -2.7002 -0.1138
2.5036 -2.7052 -0.1173
2.5336 -2.7143 -0.1203
2.5514 -2.7179 -0.1168
2.5629 -2.7222 -0.1205
2.5906 -2.7292 -0.1190
2.6046 -2.7322 -0.1166
2.6169 -2.7352 -0.1158
2.6275 -2.7383 -0.1167
2.6374 -2.7415 -0.1182
2.6478 -2.7442 -0.1181
1.4892 -2.2258 0.6648
1.4321 -2.2201 0.6402
1.4368 -2.2325 0.6054
1.4145 -2.2377 0.5729
