ply
format ascii 1.0
element vertex 2134
property float x
property float y
property float z
end_header
1.1010 -2.9071 -0.1680
1.1230 -2.9267 -0.1464
1.1116 -2.9456 -0.1455
1.1003 -2.9643 -0.1445
1.0447 -2.9858 -0.1694
1.0105 -3.0438 -0.1658
0.9907 -3.0641 -0.1694
0.9719 -3.0845 -0.1723
0.9554 -3.1046 -0.1739
0.9241 -3.1275 -0.1833
0.9135 -3.1469 -0.1817
0.8954 -3.1677 -0.1840
1.7188 -1.9126 -0.1782
1.6744 -1.9821 -0.1763
1.6554 -1.9937 -0.1826
1.6337 -2.0583 -0.1695
1.6087 -2.1112 -0.1630
1.5973 -2.1389 -0.1585
1.5826 -2.1595 -0.1588
1.5678 -2.1802 -0.1592
1.4894 -2.2777 -0.1658
1.4820 -2.3074 -0.1582
1.4673 -2.3279 -0.1586
1.4611 -2.3574 -0.1504
1.4435 -2.3745 -0.1538
1.3940 -2.3975 -0.1733
1.3315 -2.4802 -0.1766
1.3276 -2.5081 -0.1678
1.3165 -2.5310 -0.1651
1.3017 -2.5517 -0.1654
1.2846 -2.5711 -0.1676
1.2697 -2.5918 -0.1679
1.2532 -2.6119 -0.1695
1.2342 -2.6310 -0.1729
1.2278 -2.6548 -0.1671
1.2104 -2.6747 -0.1693
1.1894 -2.6936 -0.1740
1.1898 -2.7184 -0.1639
1.1659 -2.7368 -0.1704
1.1539 -2.7580 -0.1689
1.1391 -2.7787 -0.1692
1.1214 -2.7989 -0.1714
1.1095 -2.8200 -0.1699
1.0868 -2.8398 -0.1752
1.0820 -2.8614 -0.1694
1.0776 -2.8824 -0.1636
1.0378 -2.9022 -0.1787
1.1017 -2.9233 -0.1333
1.1020 -2.9423 -0.1256
1.0742 -2.9618 -0.1340
1.0047 -2.9843 -0.1653
0.9617 -3.0263 -0.1734
0.9493 -3.0467 -0.1725
0.9381 -3.0668 -0.1710
0.9258 -3.0870 -0.1701
0.9196 -3.1061 -0.1661
0.8903 -3.1291 -0.1739
0.8755 -3.1497 -0.1742
0.8784 -3.1665 -0.1658
1.7639 -1.7727 -0.1759
1.7471 -1.7918 -0.1780
1.7180 -1.8489 -0.1724
1.7029 -1.8744 -0.1711
1.6835 -1.8851 -0.1777
1.6691 -1.9127 -0.1753
1.6563 -1.9441 -0.1705
1.6382 -1.9604 -0.1743
1.6234 -1.9856 -0.1729
1.6087 -2.0106 -0.1716
1.5936 -2.0346 -0.1708
1.5998 -2.1012 -0.1423
1.5939 -2.1395 -0.1312
1.5721 -2.1474 -0.1402
1.5396 -2.1386 -0.1613
1.5175 -2.1499 -0.1692
1.5033 -2.1742 -0.1678
1.4844 -2.1916 -0.1717
1.4686 -2.2136 -0.1720
1.4562 -2.2399 -0.1689
1.4353 -2.2557 -0.1745
1.4231 -2.2818 -0.1714
1.4055 -2.3018 -0.1735
1.3966 -2.3307 -0.1675
1.3830 -2.3542 -0.1661
1.3688 -2.3771 -0.1653
1.3369 -2.3856 -0.1796
1.3265 -2.4120 -0.1754
1.3107 -2.4341 -0.1757
1.2949 -2.4561 -0.1761
1.2792 -2.4782 -0.1765
1.2657 -2.5015 -0.1751
1.2476 -2.5223 -0.1772
1.2382 -2.5474 -0.1729
1.2290 -2.5722 -0.1686
1.2052 -2.5905 -0.1748
1.1870 -2.6114 -0.1769
1.1686 -2.6325 -0.1791
1.1581 -2.6562 -0.1759
1.1398 -2.6773 -0.1780
1.1267 -2.7000 -0.1766
1.1157 -2.7230 -0.1741
1.1076 -2.7463 -0.1697
1.0797 -2.7657 -0.1777
1.0767 -2.7895 -0.1705
1.0374 -2.8082 -0.1850
1.0235 -2.8306 -0.1842
1.0138 -2.8531 -0.1810
0.9867 -2.8745 -0.1878
1.0024 -2.8976 -0.1705
1.0878 -2.9198 -0.1153
1.0826 -2.9391 -0.1109
0.9583 -2.9622 -0.1704
0.9162 -3.0060 -0.1770
0.9003 -3.0478 -0.1701
0.8873 -3.0689 -0.1692
0.8696 -3.0907 -0.1708
0.7942 -3.1793 -0.1788
1.7090 -1.7487 -0.1816
1.6920 -1.7724 -0.1820
1.6750 -1.7962 -0.1824
1.6622 -1.8337 -0.1757
1.6106 -1.9012 -0.1786
1.6009 -1.9421 -0.1691
1.5613 -1.9747 -0.1781
1.5850 -2.0795 -0.1285
1.5553 -2.1241 -0.1281
1.5042 -2.1347 -0.1509
1.4761 -2.1390 -0.1639
1.4133 -2.1904 -0.1783
1.2985 -2.3916 -0.1665
1.2171 -2.5053 -0.1684
1.2032 -2.5292 -0.1671
1.1894 -2.5530 -0.1658
1.1732 -2.5757 -0.1662
1.1621 -2.6002 -0.1632
1.1330 -2.6181 -0.1720
1.1193 -2.6418 -0.1707
1.0950 -2.6894 -0.1664
1.0816 -2.7126 -0.1651
1.0598 -2.7339 -0.1688
1.0350 -2.7550 -0.1743
1.0157 -2.7774 -0.1763
1.0143 -2.8021 -0.1683
1.0032 -2.8252 -0.1658
0.9820 -2.8472 -0.1690
0.9596 -2.8694 -0.1728
0.9550 -2.8925 -0.1670
1.0564 -2.9358 -0.0988
0.8913 -2.9602 -0.1760
0.8424 -3.0285 -0.1772
0.8261 -3.0512 -0.1775
0.8241 -3.0722 -0.1711
0.8140 -3.0938 -0.1687
0.7980 -3.1162 -0.1690
0.7857 -3.1379 -0.1677
0.7874 -3.1568 -0.1601
0.7818 -3.1767 -0.1559
1.7104 -1.6827 -0.1702
1.6920 -1.7039 -0.1722
1.6744 -1.7285 -0.1726
1.6577 -1.7563 -0.1714
1.6425 -1.7883 -0.1682
1.6201 -1.7982 -0.1759
1.6002 -1.8168 -0.1794
1.5890 -1.8584 -0.1710
1.5670 -1.8722 -0.1771
1.5552 -1.9101 -0.1702
1.5347 -1.9281 -0.1743
1.5013 -2.0358 -0.1546
1.4779 -2.0486 -0.1618
1.4468 -2.0508 -0.1764
1.4346 -2.0831 -0.1715
1.4249 -2.1181 -0.1646
1.4020 -2.1347 -0.1702
1.3789 -2.1518 -0.1759
1.3691 -2.1852 -0.1695
1.3475 -2.2047 -0.1736
1.3238 -2.2225 -0.1792
1.3088 -2.2495 -0.1775
1.2980 -2.2800 -0.1727
1.2894 -2.3118 -0.1662
1.2744 -2.3374 -0.1650
1.2594 -2.3629 -0.1639
1.2257 -2.3748 -0.1764
1.2135 -2.4026 -0.1731
1.1939 -2.4253 -0.1751
1.1789 -2.4509 -0.1739
1.1592 -2.4738 -0.1759
1.1443 -2.4992 -0.1747
1.1212 -2.5207 -0.1789
1.0929 -2.5404 -0.1862
1.0838 -2.5683 -0.1813
1.0690 -2.5936 -0.1801
1.0516 -2.6179 -0.1805
1.0342 -2.6422 -0.1809
1.0324 -2.6706 -0.1722
0.9965 -2.6902 -0.1833
0.9886 -2.7165 -0.1784
0.9742 -2.7412 -0.1772
0.9639 -2.7663 -0.1739
0.9367 -2.7890 -0.1796
0.9327 -2.8145 -0.1730
0.9156 -2.8384 -0.1734
0.8848 -2.8614 -0.1808
0.8536 -2.8851 -0.1882
1.0259 -2.9121 -0.0946
0.8190 -2.9579 -0.1808
0.7983 -2.9822 -0.1829
0.7730 -3.0069 -0.1870
0.7521 -3.0315 -0.1891
0.7500 -3.0543 -0.1824
0.7447 -3.0769 -0.1775
0.7204 -3.1018 -0.1811
0.7303 -3.1216 -0.1696
0.7097 -3.1457 -0.1716
0.7636 -3.1562 -0.1417
0.7693 -3.1741 -0.1328
1.6937 -1.5317 -0.1918
1.6745 -1.5586 -0.1923
1.6529 -1.5764 -0.1966
1.6347 -1.6079 -0.1951
1.6193 -1.6479 -0.1897
1.6043 -1.6873 -0.1842
1.5442 -1.8300 -0.1672
1.5719 -2.1196 -0.0632
1.4342 -1.9834 -0.1698
1.3017 -2.2024 -0.1622
1.2792 -2.2231 -0.1661
1.2584 -2.2459 -0.1685
1.2554 -2.2841 -0.1579
1.2528 -2.3586 -0.1357
1.2042 -2.3601 -0.1577
1.1730 -2.3760 -0.1671
1.1687 -2.4096 -0.1585
1.1432 -2.4299 -0.1640
1.1221 -2.4532 -0.1664
1.1074 -2.4799 -0.1648
1.0920 -2.5060 -0.1637
1.0716 -2.5299 -0.1656
1.0537 -2.5549 -0.1661
1.0261 -2.5764 -0.1720
1.0107 -2.6025 -0.1709
0.9747 -2.6529 -0.1718
0.9566 -2.6780 -0.1722
0.9492 -2.7054 -0.1670
0.9353 -2.7310 -0.1654
0.8956 -2.7802 -0.1683
0.8850 -2.8058 -0.1652
0.8454 -2.8288 -0.1763
0.8347 -2.8545 -0.1731
0.8500 -2.8808 -0.1577
0.9908 -2.9079 -0.0841
0.7673 -2.9547 -0.1728
0.7494 -2.9797 -0.1732
0.7350 -3.0044 -0.1721
0.7172 -3.0294 -0.1725
0.7076 -3.0535 -0.1693
0.6863 -3.0786 -0.1713
0.6758 -3.1025 -0.1686
0.6367 -3.1525 -0.1710
0.7632 -3.1701 -0.1069
1.6377 -1.5432 -0.1762
1.6192 -1.5753 -0.1748
1.5982 -1.5985 -0.1771
1.5812 -1.6347 -0.1739
1.5567 -1.6486 -0.1804
1.5418 -1.6896 -0.1748
1.5206 -1.7130 -0.1771
1.5025 -1.7445 -0.1757
1.4902 -1.7881 -0.1682
1.4650 -1.8031 -0.1748
1.4570 -1.8531 -0.1635
1.5299 -2.0996 -0.0592
1.3781 -1.9571 -0.1672
1.3501 -1.9713 -0.1752
1.3278 -1.9947 -0.1780
1.3249 -2.0437 -0.1648
1.2963 -2.0588 -0.1728
1.2818 -2.0915 -0.1694
1.2550 -2.1103 -0.1756
1.2433 -2.1453 -0.1703
1.2214 -2.1697 -0.1727
1.1993 -2.1942 -0.1750
1.1882 -2.2284 -0.1698
1.2703 -2.3362 -0.1024
1.1307 -2.3088 -0.1711
1.1024 -2.3296 -0.1773
1.0954 -2.3643 -0.1701
1.0636 -2.3837 -0.1782
1.0442 -2.4108 -0.1787
1.0380 -2.4444 -0.1715
1.0155 -2.4696 -0.1738
0.9963 -2.4964 -0.1743
0.9701 -2.5204 -0.1786
0.9792 -2.5576 -0.1637
0.9640 -2.5850 -0.1622
0.9085 -2.6003 -0.1818
0.8891 -2.6274 -0.1823
0.8773 -2.6563 -0.1789
0.8697 -2.6856 -0.1736
0.8545 -2.7129 -0.1721
0.8315 -2.7388 -0.1745
0.8125 -2.7655 -0.1749
0.7975 -2.7925 -0.1735
0.7660 -2.8180 -0.1797
0.7595 -2.8456 -0.1743
0.6700 -2.9520 -0.1819
0.6508 -2.9788 -0.1824
0.6130 -3.0067 -0.1906
0.6030 -3.0331 -0.1872
0.6028 -3.0583 -0.1798
0.5934 -3.0838 -0.1764
0.5745 -3.1102 -0.1768
0.7332 -3.1513 -0.0957
0.7636 -3.1649 -0.0785
1.6601 -1.3192 -0.1915
1.6326 -1.3245 -0.2012
1.6183 -1.3854 -0.1903
1.5862 -1.4834 -0.1764
1.5638 -1.5084 -0.1787
1.5269 -1.5818 -0.1735
1.4755 -1.6160 -0.1850
1.4522 -1.6407 -0.1877
1.4734 -1.7632 -0.1454
1.4632 -1.8103 -0.1366
1.4175 -1.7864 -0.1618
1.5072 -2.0672 -0.0480
1.4994 -2.1031 -0.0413
1.2170 -2.0726 -0.1648
1.1799 -2.1323 -0.1635
1.1918 -2.1893 -0.1430
1.2624 -2.2929 -0.0857
1.2637 -2.3319 -0.0744
1.0322 -2.3651 -0.1596
1.0058 -2.3894 -0.1637
0.9709 -2.4099 -0.1723
0.9464 -2.4363 -0.1750
0.9258 -2.5011 -0.1656
0.9611 -2.5490 -0.1380
0.9458 -2.5767 -0.1367
0.8695 -2.5860 -0.1652
0.8373 -2.6106 -0.1715
0.8085 -2.6367 -0.1761
0.8009 -2.6677 -0.1707
0.7607 -2.7238 -0.1716
0.7406 -2.7518 -0.1721
0.7341 -2.7814 -0.1666
0.7194 -2.8096 -0.1648
0.7125 -2.8381 -0.1598
0.6302 -2.9202 -0.1708
0.5955 -2.9482 -0.1772
0.5903 -2.9758 -0.1717
0.5657 -3.0039 -0.1740
0.5504 -3.0315 -0.1727
0.5461 -3.0580 -0.1672
0.7768 -3.0995 -0.0617
0.7355 -3.1258 -0.0713
1.6193 -1.2989 -0.1718
1.6036 -1.3555 -0.1633
1.5748 -1.3610 -0.1729
1.5562 -1.4043 -0.1689
1.5285 -1.4176 -0.1760
1.5120 -1.4660 -0.1699
1.4900 -1.4968 -0.1704
1.4659 -1.5224 -0.1730
1.4359 -1.7652 -0.1224
1.3513 -1.7410 -0.1607
1.4722 -2.0653 -0.0318
1.4541 -2.0858 -0.0334
1.2407 -1.8875 -0.1654
1.2450 -1.9510 -0.1475
1.2065 -1.9589 -0.1601
1.1627 -1.9632 -0.1757
1.1471 -2.0007 -0.1720
1.1522 -2.0585 -0.1553
1.2789 -2.2294 -0.0634
1.2682 -2.2601 -0.0596
1.2416 -2.2766 -0.0655
1.0532 -2.1651 -0.1657
1.0200 -2.1862 -0.1730
0.9787 -2.2028 -0.1844
0.9688 -2.2418 -0.1782
0.9509 -2.2748 -0.1766
0.9379 -2.3103 -0.1725
0.9113 -2.3379 -0.1755
0.8854 -2.3661 -0.1781
0.8679 -2.3985 -0.1765
0.8418 -2.4270 -0.1791
0.8297 -2.4613 -0.1750
0.7881 -2.5589 -0.1659
0.7480 -2.5834 -0.1749
0.7000 -2.6425 -0.1780
0.6674 -2.6706 -0.1832
0.6506 -2.7019 -0.1816
0.6454 -2.7345 -0.1753
0.6396 -2.7663 -0.1693
0.8690 -2.8696 -0.0556
0.5222 -2.9144 -0.1761
0.5008 -2.9443 -0.1766
0.4794 -2.9741 -0.1771
0.7781 -3.0535 -0.0432
0.3019 -3.2141 -0.1833
0.2870 -3.2429 -0.1816
1.5785 -1.1611 -0.1777
1.5466 -1.1643 -0.1882
1.5199 -1.1905 -0.1915
1.4932 -1.2181 -0.1944
1.4778 -1.2811 -0.1849
1.4557 -1.3215 -0.1832
1.4102 -1.3961 -0.1816
1.4540 -1.7446 -0.0836
1.4063 -2.0693 -0.0237
1.2650 -1.9814 -0.0945
1.2607 -2.0287 -0.0848
1.2810 -2.1917 -0.0390
1.2747 -2.2275 -0.0328
1.2475 -2.2432 -0.0387
0.9550 -2.1385 -0.1670
0.8316 -2.3380 -0.1635
0.8037 -2.3672 -0.1664
0.7906 -2.4032 -0.1626
0.7831 -2.4407 -0.1563
0.7090 -2.6748 -0.1271
0.6636 -2.7000 -0.1373
0.5821 -2.7213 -0.1610
0.5535 -2.7517 -0.1640
0.7083 -2.8001 -0.0977
0.8067 -2.8364 -0.0543
0.8261 -2.8634 -0.0410
0.7394 -2.9367 -0.0544
0.7612 -2.9606 -0.0410
0.7474 -2.9846 -0.0402
0.7492 -3.0075 -0.0342
0.2919 -3.1265 -0.1678
0.2557 -3.1596 -0.1728
0.2255 -3.1921 -0.1758
0.2249 -3.2201 -0.1694
1.4644 -1.1488 -0.1736
1.4388 -1.1845 -0.1742
1.4158 -1.2278 -0.1723
1.3904 -1.2634 -0.1729
1.3649 -1.2989 -0.1735
1.4192 -1.8191 -0.0423
1.4018 -1.8499 -0.0413
1.3866 -1.8839 -0.0389
1.3096 -2.0428 -0.0295
1.2661 -2.0394 -0.0445
1.2594 -2.0808 -0.0376
1.2560 -2.1241 -0.0293
1.2473 -2.1603 -0.0243
0.9009 -2.0464 -0.1627
0.9416 -2.1293 -0.1313
0.8764 -2.1320 -0.1520
0.7814 -2.1698 -0.1749
0.7451 -2.1980 -0.1807
0.7258 -2.2362 -0.1787
0.7347 -2.2881 -0.1645
0.6991 -2.3169 -0.1699
0.6692 -2.3490 -0.1727
0.6965 -2.4041 -0.1517
0.8356 -2.6340 -0.0560
0.8678 -2.6726 -0.0370
0.8411 -2.6970 -0.0404
0.8141 -2.7218 -0.0439
0.8151 -2.7510 -0.0372
0.8092 -2.7785 -0.0331
0.8026 -2.8053 -0.0294
0.8117 -2.8328 -0.0205
0.8194 -2.8591 -0.0122
0.7986 -2.8833 -0.0138
0.7811 -2.9076 -0.0142
0.7637 -2.9320 -0.0146
0.7380 -2.9566 -0.0176
0.1510 -3.0726 -0.1848
0.0917 -3.1104 -0.1960
0.0928 -3.1425 -0.1886
0.0769 -3.1760 -0.1865
0.0163 -3.2157 -0.1978
0.0002 -3.2493 -0.1957
-0.0248 -3.2843 -0.1963
1.4089 -0.8610 -0.2012
1.3798 -0.9015 -0.2019
1.3545 -0.9532 -0.1993
1.3424 -1.0412 -0.1853
1.3142 -1.0806 -0.1860
1.2861 -1.1199 -0.1867
1.2378 -1.2165 -0.1820
1.2058 -1.2466 -0.1856
1.3511 -1.8923 -0.0128
1.3288 -1.9153 -0.0150
1.3144 -1.9500 -0.0124
1.3388 -2.0357 0.0121
1.2785 -2.0583 -0.0016
1.2699 -2.0963 0.0034
1.2303 -2.0998 -0.0079
0.9326 -2.1235 -0.0931
0.7552 -2.0474 -0.1619
0.6961 -2.1169 -0.1659
0.6926 -2.2173 -0.1469
0.6672 -2.2529 -0.1475
0.6599 -2.2970 -0.1409
0.6711 -2.3478 -0.1274
0.6638 -2.3888 -0.1214
0.5398 -2.4307 -0.1505
0.5343 -2.4724 -0.1438
0.5739 -2.5256 -0.1212
0.5617 -2.5621 -0.1177
0.8109 -2.7178 -0.0113
0.8235 -2.7487 -0.0013
0.8052 -2.7743 -0.0017
0.7837 -2.7995 -0.0032
0.8190 -2.8295 0.0135
0.8170 -2.8550 0.0180
0.7918 -2.8789 0.0151
0.7778 -2.9033 0.0157
0.7255 -2.9277 0.0048
0.1406 -2.9995 -0.1576
0.0898 -3.0364 -0.1656
0.0371 -3.0743 -0.1739
0.0284 -3.1091 -0.1696
-0.0062 -3.1461 -0.1727
-0.0411 -3.1834 -0.1757
-0.0581 -3.2185 -0.1739
-0.0840 -3.2548 -0.1745
1.3518 -0.8409 -0.1682
1.3291 -0.9037 -0.1631
1.2961 -0.9350 -0.1665
1.2583 -0.9551 -0.1734
1.2326 -1.0074 -0.1710
1.2027 -1.0490 -0.1717
1.1816 -1.1096 -0.1666
1.1521 -1.1508 -0.1673
1.1182 -1.1834 -0.1707
1.0885 -1.2248 -0.1714
1.0537 -1.2571 -0.1752
1.3137 -2.0073 0.0330
1.2975 -2.0365 0.0338
1.2535 -2.0326 0.0209
1.2205 -2.0443 0.0139
1.1896 -2.0598 0.0081
0.6924 -1.8840 -0.1614
0.6142 -1.8870 -0.1825
0.5994 -1.9388 -0.1772
0.5621 -1.9745 -0.1811
0.5480 -2.0252 -0.1758
0.5345 -2.0750 -0.1705
0.5284 -2.1276 -0.1626
0.6256 -2.2792 -0.1082
0.6901 -2.3540 -0.0768
0.7107 -2.4053 -0.0618
0.6764 -2.4335 -0.0661
0.5430 -2.4288 -0.1039
0.5111 -2.4620 -0.1067
0.5266 -2.5089 -0.0939
0.6230 -2.6109 -0.0487
0.6548 -2.6530 -0.0323
0.7015 -2.7266 -0.0060
0.7617 -2.7650 0.0177
0.8080 -2.7983 0.0365
0.8044 -2.8244 0.0403
0.7834 -2.8489 0.0389
-0.0275 -2.9609 -0.1653
-0.0457 -2.9995 -0.1633
-0.1367 -3.0417 -0.1809
-0.1998 -3.0841 -0.1906
-0.2164 -3.1235 -0.1881
-0.2579 -3.1652 -0.1920
-0.2985 -3.2071 -0.1956
-0.3030 -3.2445 -0.1901
-0.3201 -3.2830 -0.1878
-0.3488 -3.3231 -0.1885
1.2187 -0.4519 -0.2120
1.1936 -0.5313 -0.2053
1.1743 -0.6225 -0.1952
1.1454 -0.6841 -0.1924
1.1115 -0.7316 -0.1932
1.0886 -0.8046 -0.1870
1.0771 -0.8996 -0.1744
1.0272 -0.9101 -0.1852
0.9879 -0.9452 -0.1894
0.9727 -1.0257 -0.1800
0.9068 -1.1177 -0.1816
1.2653 -2.0008 0.0533
0.4662 -1.6325 -0.2083
0.4691 -1.7091 -0.1951
0.4990 -1.8023 -0.1723
0.4353 -1.8912 -0.1738
0.3433 -1.9637 -0.1851
0.3763 -2.0443 -0.1636
0.3547 -2.0926 -0.1611
0.3687 -2.1569 -0.1471
0.6754 -2.3456 -0.0389
0.7227 -2.4080 -0.0168
0.7306 -2.4512 -0.0077
0.6714 -2.4696 -0.0196
0.5147 -2.4598 -0.0607
0.5483 -2.5116 -0.0438
0.4983 -2.5387 -0.0519
0.3664 -2.5483 -0.0836
0.3998 -2.5972 -0.0672
0.7743 -2.8180 0.0633
0.7923 -2.8455 0.0724
-0.1301 -2.9949 -0.1356
-0.3521 -3.0448 -0.1833
-0.3313 -3.0850 -0.1715
-0.3758 -3.1289 -0.1756
-0.3926 -3.1705 -0.1730
-0.4103 -3.2117 -0.1707
-0.4538 -3.2560 -0.1744
-0.4712 -3.2967 -0.1721
-0.4883 -3.3371 -0.1698
1.1843 -0.3791 -0.1677
1.1481 -0.4295 -0.1686
1.1059 -0.4636 -0.1732
1.0817 -0.5455 -0.1668
1.0397 -0.5810 -0.1711
1.0161 -0.6603 -0.1649
0.9739 -0.6960 -0.1693
0.9713 -0.8141 -0.1526
0.9160 -0.8233 -0.1639
0.8805 -0.8728 -0.1647
0.9205 -1.0524 -0.1293
0.8534 -1.0433 -0.1459
0.7894 -1.0449 -0.1603
0.7224 -1.0471 -0.1752
1.2628 -2.0022 0.0873
0.9234 -1.7862 -0.0214
0.8496 -1.7748 -0.0399
0.4089 -1.8066 -0.1355
0.2752 -1.7860 -0.1689
0.2289 -1.8275 -0.1734
0.1594 -1.8565 -0.1850
0.1477 -1.9193 -0.1785
0.1473 -1.9861 -0.1688
0.1802 -2.0662 -0.1496
0.7520 -2.3771 0.0259
0.7442 -2.4145 0.0296
0.7425 -2.4533 0.0349
0.7102 -2.4803 0.0315
0.4845 -2.4471 -0.0247
0.4729 -2.4866 -0.0216
0.4887 -2.5325 -0.0113
0.5038 -2.5760 -0.0015
0.4468 -2.6026 -0.0106
0.7717 -2.8138 0.0942
0.7730 -2.8402 0.0984
-0.4300 -2.8568 -0.1729
-0.4203 -2.9046 -0.1637
-0.3017 -2.9496 -0.1301
-0.1753 -2.9887 -0.0957
-0.6297 -3.0495 -0.1901
-0.7156 -3.1014 -0.2021
-0.7170 -3.1481 -0.1956
-0.7341 -3.1952 -0.1926
-0.7521 -3.2419 -0.1899
-0.8037 -3.2924 -0.1942
-0.8213 -3.3385 -0.1915
-0.8384 -3.3840 -0.1887
1.0300 0.2548 -0.2170
1.0016 0.1450 -0.2086
0.9821 0.0158 -0.1959
0.9315 -0.0215 -0.2014
0.8798 -0.0585 -0.2071
0.8548 -0.1620 -0.1989
0.8210 -0.2409 -0.1956
0.8233 -0.3948 -0.1753
0.8580 -0.6037 -0.1413
0.7602 -0.5430 -0.1690
0.7385 -0.6319 -0.1620
0.8458 -0.9382 -0.1007
0.7880 -0.9503 -0.1109
0.6486 -0.8409 -0.1533
0.4455 -1.8982 -0.0584
0.4060 -1.9366 -0.0615
0.2978 -1.9357 -0.0836
0.2546 -1.9758 -0.0872
0.2006 -2.0112 -0.0936
0.7457 -2.4131 0.0690
0.7435 -2.4513 0.0735
0.5790 -2.4737 0.0429
0.4204 -2.4680 0.0099
0.5315 -2.5400 0.0418
0.5201 -2.5760 0.0441
0.9796 -2.7600 0.1613
-0.6926 -2.9943 -0.1486
-0.7816 -3.0467 -0.1599
-0.8183 -3.0979 -0.1608
-0.9108 -3.2020 -0.1662
-0.9099 -3.2492 -0.1599
0.8709 0.2950 -0.1728
0.8341 0.2049 -0.1693
0.7679 0.1916 -0.1797
0.7319 0.1010 -0.1760
0.6963 0.0125 -0.1725
0.6934 -0.1430 -0.1556
0.7668 -0.4413 -0.1091
0.7881 -0.6154 -0.0858
0.7046 -0.5888 -0.1038
0.8749 -1.1037 -0.0156
1.3860 -2.2408 0.2034
1.3236 -2.2505 0.1933
1.2913 -2.2568 0.1882
0.0216 -1.4515 -0.1299
-0.1784 -1.3973 -0.1719
-0.1225 -1.5247 -0.1476
0.1785 -1.8657 -0.0554
-0.0066 -1.8327 -0.0924
0.0478 -1.9319 -0.0715
0.7716 -2.4216 0.1133
0.7644 -2.4570 0.1159
0.6817 -2.5034 0.1063
0.9875 -2.7584 0.1897
1.0138 -2.7856 0.1975
1.0269 -2.8095 0.2025
1.0126 -2.8294 0.2022
-1.3209 -3.3866 -0.1546
0.8143 1.0996 -0.1776
0.6102 0.7602 -0.1772
0.4982 0.8296 -0.2013
0.4104 0.8258 -0.2147
0.3359 0.7845 -0.2224
0.3631 0.5255 -0.1935
1.4128 -2.1168 0.2218
1.4092 -2.1541 0.2247
1.4133 -2.1993 0.2297
1.4110 -2.2347 0.2327
1.3965 -2.2550 0.2324
1.3603 -2.2529 0.2265
1.3303 -2.2592 0.2224
1.2770 -2.2453 0.2128
-0.2134 -1.3738 -0.1029
-0.2316 -1.5417 -0.0898
-0.3657 -1.5491 -0.1100
-0.5540 -1.5337 -0.1409
-0.4553 -1.6743 -0.1121
0.7905 -2.4274 0.1541
0.7839 -2.4621 0.1564
0.7252 -2.4779 0.1487
0.7325 -2.5169 0.1535
0.9723 -2.7285 0.2111
0.9848 -2.7551 0.2156
1.0026 -2.7812 0.2209
1.0214 -2.8059 0.2261
1.0196 -2.8271 0.2279
1.0158 -2.8476 0.2292
0.9913 -2.8665 0.2272
0.9583 -2.8855 0.2239
0.9283 -2.9053 0.2211
0.9101 -2.9256 0.2202
0.9016 -2.9459 0.2208
0.8846 -2.9664 0.2200
0.8548 -2.9875 0.2174
0.8298 -3.0089 0.2155
0.7695 -3.0337 0.2085
0.7884 1.3990 -0.1107
0.6480 1.5962 -0.1449
0.4703 1.8764 -0.1906
1.3883 -1.8325 0.2232
1.3926 -1.8967 0.2288
1.4050 -1.9699 0.2362
1.3939 -2.0025 0.2373
1.4000 -2.1462 0.2494
1.4055 -2.1932 0.2538
1.4114 -2.2380 0.2581
1.3956 -2.2566 0.2575
1.3509 -2.2454 0.2507
1.2788 -2.2488 0.2413
1.2499 -2.2600 0.2383
-0.4563 -1.4023 -0.0563
-0.5466 -1.4429 -0.0651
-0.5082 -1.5568 -0.0511
-0.6446 -1.6653 -0.0607
0.7845 -2.4602 0.1921
0.7912 -2.4986 0.1960
0.8139 -2.5405 0.2023
0.8653 -2.6191 0.2154
0.9204 -2.6893 0.2282
0.9328 -2.7181 0.2321
0.9505 -2.7464 0.2367
0.9747 -2.7742 0.2421
1.0158 -2.8023 0.2498
1.0334 -2.8255 0.2540
1.0393 -2.8464 0.2564
0.9905 -2.8632 0.2512
0.9479 -2.8817 0.2470
0.9359 -2.9019 0.2470
0.9349 -2.9220 0.2484
0.9269 -2.9418 0.2489
0.8927 -2.9622 0.2460
0.8757 -2.9825 0.2453
0.8304 -3.0047 0.2410
0.7908 -3.0275 0.2375
1.4363 -1.9247 0.2660
1.4586 -2.0607 0.2770
1.4492 -2.0910 0.2778
1.4463 -2.1296 0.2799
1.4239 -2.1402 0.2781
1.3921 -2.1398 0.2745
1.4175 -2.2111 0.2818
1.4118 -2.2414 0.2831
1.3671 -2.2281 0.2773
1.2862 -2.1808 0.2654
1.2710 -2.2434 0.2676
-0.3815 -1.5377 0.0411
-0.2228 -1.7882 0.0742
0.7813 -2.4569 0.2268
0.8051 -2.5012 0.2322
0.8653 -2.5548 0.2422
0.8845 -2.5918 0.2466
0.8841 -2.6216 0.2485
0.8844 -2.6506 0.2503
0.9011 -2.6823 0.2541
0.9070 -2.7102 0.2565
0.9290 -2.7399 0.2608
0.9632 -2.7696 0.2664
0.9707 -2.7937 0.2687
1.0258 -2.8218 0.2766
1.0293 -2.8426 0.2783
1.0075 -2.8611 0.2770
0.9662 -2.8791 0.2736
0.9606 -2.8990 0.2742
0.9539 -2.9186 0.2747
0.9375 -2.9381 0.2741
0.9123 -2.9579 0.2725
0.8931 -2.9778 0.2717
1.4640 -1.9802 0.2998
1.4638 -2.1176 0.3061
1.4565 -2.1485 0.3069
1.4377 -2.1628 0.3059
1.4120 -2.1690 0.3040
1.3319 -2.1924 0.2980
1.2690 -2.1656 0.2912
1.2765 -2.2126 0.2940
1.2580 -2.2331 0.2934
0.2743 -1.9180 0.1921
-0.3682 -1.6296 0.1221
-0.5487 -1.6196 0.1057
0.8229 -2.5387 0.2692
0.8877 -2.6200 0.2786
0.9114 -2.6546 0.2823
0.9171 -2.6831 0.2842
0.9202 -2.7100 0.2857
0.9637 -2.7430 0.2910
0.9573 -2.7658 0.2915
0.9569 -2.7889 0.2926
1.0204 -2.8183 0.2995
1.0357 -2.8402 0.3019
1.0246 -2.8592 0.3018
0.9944 -2.8772 0.3000
0.9783 -2.8962 0.2994
0.9695 -2.9153 0.2995
0.9534 -2.9344 0.2990
0.9171 -2.9729 0.2976
0.8981 -2.9925 0.2968
0.8816 -3.0120 0.2963
1.4623 -1.9840 0.3266
1.4568 -2.1122 0.3302
1.4422 -2.1326 0.3299
1.4307 -2.1574 0.3299
1.4233 -2.1869 0.3303
1.3180 -2.1801 0.3231
1.2777 -2.1770 0.3203
1.2760 -2.2142 0.3214
-0.3631 -1.0724 0.1781
-0.5887 -1.0080 0.1612
0.2938 -1.8652 0.2458
-0.3056 -1.5797 0.1974
-0.3850 -1.6188 0.1934
0.7896 -2.4912 0.2977
0.8114 -2.5325 0.3004
0.8662 -2.6116 0.3064
0.8985 -2.6487 0.3097
0.9380 -2.7107 0.3142
0.9610 -2.7397 0.3166
0.9604 -2.7633 0.3173
0.9534 -2.7854 0.3175
0.9767 -2.8106 0.3198
1.0234 -2.8362 0.3237
1.0313 -2.8567 0.3248
1.0180 -2.8752 0.3245
0.9852 -2.8931 0.3229
0.9716 -2.9120 0.3226
0.9395 -2.9499 0.3216
0.9285 -2.9688 0.3215
0.9149 -2.9877 0.3211
0.6288 1.6928 0.2609
1.4400 -1.9003 0.3508
1.4533 -1.9751 0.3526
1.4730 -2.0991 0.3553
1.4524 -2.1103 0.3545
1.4453 -2.1413 0.3547
1.4356 -2.2058 0.3552
1.4298 -2.2351 0.3554
1.3005 -2.1638 0.3486
1.2735 -2.1751 0.3476
0.7174 -1.8014 0.3173
0.0784 -1.3338 0.2819
-0.1431 -1.2468 0.2707
-0.1862 -1.3070 0.2697
-0.2117 -1.3795 0.2697
0.3574 -1.9042 0.3028
-0.2376 -1.6183 0.2721
-0.4199 -1.5980 0.2637
-0.4633 -1.6587 0.2627
-0.3603 -1.7896 0.2692
0.7548 -2.4766 0.3291
0.8121 -2.5304 0.3324
0.8294 -2.5680 0.3338
0.8488 -2.6042 0.3352
0.8951 -2.6453 0.3378
0.9205 -2.6785 0.3395
0.9164 -2.7036 0.3397
0.9406 -2.7333 0.3412
0.9398 -2.7572 0.3415
0.9533 -2.7824 0.3425
0.9769 -2.8076 0.3439
1.0087 -2.8319 0.3457
1.0165 -2.8721 0.3466
0.9971 -2.8903 0.3461
0.9689 -2.9086 0.3451
0.9604 -2.9275 0.3450
0.9393 -2.9464 0.3443
0.9206 -2.9655 0.3438
0.9175 -2.9839 0.3439
0.9319 -3.0007 0.3448
1.4385 -1.9051 0.3786
1.4631 -2.0890 0.3791
1.4442 -2.1030 0.3787
1.4384 -2.1359 0.3786
1.4220 -2.1535 0.3782
1.4416 -2.2166 0.3786
1.4361 -2.2455 0.3785
1.3847 -2.2215 0.3773
1.3136 -2.1806 0.3757
0.7374 -1.8212 0.3625
-0.0792 -1.2989 0.3439
-0.1365 -1.3452 0.3425
-0.1469 -1.4254 0.3423
-0.1738 -1.6545 0.3416
-0.4368 -1.5871 0.3356
-0.4617 -1.6573 0.3350
0.2404 -2.1319 0.3510
-0.5035 -2.0209 0.3339
0.8853 -2.6402 0.3657
0.8716 -2.6646 0.3654
0.9199 -2.7267 0.3664
0.9339 -2.7534 0.3668
0.9336 -2.7768 0.3667
0.9549 -2.8021 0.3672
0.9617 -2.8245 0.3674
1.0294 -2.8506 0.3689
1.0187 -2.8692 0.3687
0.9981 -2.8872 0.3682
0.9761 -2.9055 0.3677
0.9450 -2.9241 0.3670
0.9418 -2.9429 0.3669
0.5972 1.6730 0.4594
1.4551 -1.9420 0.4055
1.4720 -2.0649 0.4036
1.4531 -2.0788 0.4034
1.4541 -2.1221 0.4027
1.4453 -2.1880 0.4017
1.4430 -2.2216 0.4011
1.4281 -2.2389 0.4008
1.3855 -2.2251 0.4010
0.7208 -1.8091 0.4061
-0.2552 -1.0649 0.4156
0.0543 -1.6425 0.4074
0.2839 -1.9205 0.4035
-0.2938 -1.6639 0.4064
0.2743 -2.1449 0.4000
-0.5339 -1.9330 0.4017
-0.5751 -1.9905 0.4008
0.3818 -2.4254 0.3959
0.4994 -2.5007 0.3950
0.8716 -2.6888 0.3928
0.9104 -2.7222 0.3924
0.9164 -2.7477 0.3920
0.9551 -2.7991 0.3913
0.9777 -2.8230 0.3910
0.9710 -2.8431 0.3907
1.0430 -2.8676 0.3904
1.0216 -2.8850 0.3901
0.8801 -2.9968 0.3881
0.8461 -3.0174 0.3877
1.0709 1.2226 0.5346
0.6036 1.5925 0.5546
1.4671 -1.9702 0.4305
1.4526 -2.2011 0.4238
1.4418 -2.2233 0.4233
1.4137 -2.2247 0.4238
1.3914 -2.2343 0.4239
0.7400 -1.8280 0.4485
0.4472 -1.7777 0.4555
0.4663 -1.8537 0.4528
0.5004 -1.9357 0.4497
0.4412 -1.9553 0.4502
0.4282 -2.0040 0.4490
0.4547 -2.0733 0.4464
0.4576 -2.1269 0.4447
0.4309 -2.1641 0.4441
0.2727 -2.1420 0.4478
-0.4070 -1.9787 0.4655
-0.6096 -1.9734 0.4695
0.3647 -2.4168 0.4377
0.4390 -2.4804 0.4344
0.8725 -2.7122 0.4192
0.8943 -2.7411 0.4179
0.9242 -2.7696 0.4165
0.9436 -2.7948 0.4154
0.9506 -2.8173 0.4146
0.9680 -2.8398 0.4135
1.0381 -2.8644 0.4115
1.0366 -2.8827 0.4110
0.9961 -2.8996 0.4112
0.9716 -2.9176 0.4111
0.9560 -2.9359 0.4109
0.9336 -2.9544 0.4107
0.9151 -2.9732 0.4105
0.8937 -2.9922 0.4103
0.8721 -3.0116 0.4102
1.0842 1.0935 0.6083
0.9940 1.2014 0.6167
0.6940 1.5041 0.6421
0.6102 1.5140 0.6458
1.4679 -2.1508 0.4474
1.4543 -2.1698 0.4471
1.4500 -2.2012 0.4458
1.4379 -2.2216 0.4454
1.4189 -2.2337 0.4456
1.3888 -2.2340 0.4467
1.2736 -2.1846 0.4535
0.7950 -1.8212 0.4886
0.8077 -1.8888 0.4851
0.7883 -1.9266 0.4842
0.7375 -1.9396 0.4856
0.7032 -2.0691 0.4811
0.7056 -2.1654 0.4767
0.6652 -2.2327 0.4753
0.3137 -2.3065 0.4858
0.3728 -2.3727 0.4805
0.4196 -2.4307 0.4760
0.4751 -2.4873 0.4713
0.4892 -2.5292 0.4688
0.5275 -2.6099 0.4637
0.7999 -2.6955 0.4492
0.8465 -2.7302 0.4458
0.9101 -2.7646 0.4417
0.9272 -2.7898 0.4399
0.9366 -2.8128 0.4385
0.9467 -2.8350 0.4371
1.0380 -2.8798 0.4315
1.0191 -2.8971 0.4315
0.9923 -2.9145 0.4318
0.9246 -2.9692 0.4320
0.9020 -2.9881 0.4320
0.8750 -3.0076 0.4322
1.0657 1.1054 0.6868
0.8744 1.6161 0.7285
1.4934 -2.0294 0.4751
1.4652 -2.1510 0.4696
1.4569 -2.1772 0.4685
1.4434 -2.1960 0.4682
1.4445 -2.2328 0.4660
1.3987 -2.2128 0.4699
1.3834 -2.2306 0.4697
1.2937 -2.1696 0.4787
0.9957 -1.9575 0.5090
0.8581 -1.9854 0.5156
0.8590 -2.0352 0.5126
0.8034 -2.0415 0.5155
0.8039 -2.1796 0.5072
0.7824 -2.2097 0.5067
0.7561 -2.2372 0.5067
0.6546 -2.2694 0.5108
0.5924 -2.3253 0.5112
0.5461 -2.3479 0.5126
0.4648 -2.3591 0.5168
0.4933 -2.4107 0.5120
0.8798 -2.7329 0.4699
0.9007 -2.7602 0.4670
0.9095 -2.7845 0.4650
0.9310 -2.8092 0.4623
0.9253 -2.8300 0.4614
0.9621 -2.8535 0.4578
1.0331 -2.8767 0.4522
1.0270 -2.8944 0.4515
1.0081 -2.9116 0.4516
0.9916 -2.9291 0.4516
0.9791 -2.9466 0.4513
0.9571 -2.9645 0.4515
1.5060 -1.9656 0.5018
1.4982 -1.9985 0.5000
1.4878 -2.0258 0.4988
1.4786 -2.1362 0.4914
1.4677 -2.1588 0.4906
1.4556 -2.1793 0.4901
1.4484 -2.2059 0.4887
1.4366 -2.2261 0.4882
1.4098 -2.2286 0.4901
1.3108 -2.1902 0.5008
0.7205 -2.6449 0.5142
0.7900 -2.6876 0.5055
0.8631 -2.7271 0.4968
0.9037 -2.7808 0.4896
0.9059 -2.8034 0.4878
0.9308 -2.8275 0.4840
0.9280 -2.8480 0.4827
0.9965 -2.8719 0.4755
1.0285 -2.8915 0.4715
1.0071 -2.9085 0.4720
0.9946 -2.9259 0.4717
0.9822 -2.9433 0.4714
0.9657 -2.9609 0.4714
0.6227 -3.0590 0.4914
0.5783 -3.0844 0.4931
1.5031 -1.9673 0.5253
1.4949 -1.9991 0.5233
1.4943 -2.1258 0.5123
1.4772 -2.1386 0.5128
1.4558 -2.1832 0.5110
1.4592 -2.2230 0.5072
1.4414 -2.2349 0.5079
1.4197 -2.2429 0.5094
1.3352 -2.2183 0.5199
0.8241 -2.5190 0.5441
0.7903 -2.6847 0.5330
0.8028 -2.7136 0.5292
0.8638 -2.7487 0.5201
0.8894 -2.7759 0.5151
0.9149 -2.8014 0.5104
0.9228 -2.8237 0.5076
0.9251 -2.8447 0.5056
0.9557 -2.8666 0.5006
1.0199 -2.8882 0.4924
0.9924 -2.9228 0.4920
0.9773 -2.9402 0.4920
0.9608 -2.9577 0.4921
0.6322 -3.0536 0.5163
0.6122 -3.0760 0.5163
1.5097 -2.0751 0.5366
1.4975 -2.0959 0.5359
1.4604 -2.2278 0.5269
0.7104 -2.0743 0.6313
0.8703 -2.2202 0.5975
0.7935 -2.4056 0.5878
0.8500 -2.4628 0.5753
0.8573 -2.4975 0.5709
0.8514 -2.5263 0.5687
0.8686 -2.5618 0.5630
0.8693 -2.5907 0.5600
0.8425 -2.6114 0.5611
0.7837 -2.6804 0.5610
0.8342 -2.7162 0.5514
0.8649 -2.7460 0.5448
0.8738 -2.7708 0.5412
0.8982 -2.7965 0.5357
0.9198 -2.8204 0.5307
0.9196 -2.8412 0.5286
0.9211 -2.8615 0.5264
1.0009 -2.9198 0.5110
0.9819 -2.9370 0.5115
1.5143 -2.0467 0.5603
1.5057 -2.0738 0.5584
1.5003 -2.1056 0.5555
1.4910 -2.1299 0.5539
1.4897 -2.1656 0.5500
1.4869 -2.1975 0.5467
1.4730 -2.2132 0.5468
1.4618 -2.2326 0.5461
-0.4100 -1.6675 0.8686
0.8388 -2.4566 0.6060
0.8652 -2.4986 0.5975
0.8790 -2.5338 0.5915
0.8697 -2.5600 0.5898
0.8794 -2.5915 0.5848
0.8697 -2.6163 0.5833
0.8601 -2.6409 0.5818
0.8300 -2.6605 0.5837
0.8276 -2.6864 0.5810
0.8674 -2.7434 0.5690
0.8741 -2.7679 0.5652
0.8975 -2.7934 0.5591
0.9093 -2.8163 0.5548
0.9117 -2.8375 0.5520
0.9196 -2.8583 0.5486
1.0506 -2.9006 0.5257
1.0282 -2.9170 0.5269
1.5214 -2.0222 0.5835
1.5174 -2.0581 0.5795
1.5133 -2.0922 0.5758
1.5033 -2.1534 0.5694
1.4979 -2.1817 0.5666
1.4780 -2.1887 0.5688
1.4555 -2.2277 0.5673
0.8244 -2.4491 0.6375
0.8830 -2.5034 0.6213
0.8724 -2.5296 0.6196
0.8763 -2.5600 0.6151
0.8663 -2.5853 0.6134
0.8837 -2.6178 0.6065
0.8733 -2.6417 0.6050
0.8543 -2.6891 0.6019
0.8492 -2.7132 0.5996
0.8711 -2.7412 0.5926
0.9039 -2.7692 0.5839
0.8868 -2.7892 0.5839
0.9000 -2.8124 0.5789
0.9142 -2.8549 0.5712
0.9268 -2.8752 0.5666
1.0356 -2.9141 0.5446
0.6167 -3.0207 0.5964
0.6167 -3.0415 0.5937
1.5350 -1.9640 0.6104
1.5320 -2.0043 0.6052
1.5232 -2.0318 0.6028
1.5213 -2.0706 0.5977
1.5206 -2.1097 0.5922
1.5104 -2.1315 0.5909
1.4997 -2.1522 0.5899
1.4870 -2.1698 0.5896
1.4813 -2.1969 0.5867
1.4772 -2.2254 0.5834
0.5514 -2.2962 0.7352
0.8560 -2.5219 0.6499
0.8698 -2.5558 0.6427
0.8699 -2.5842 0.6386
0.8933 -2.6181 0.6297
0.8705 -2.6385 0.6308
0.8932 -2.6697 0.6224
0.8920 -2.6942 0.6191
0.8768 -2.7155 0.6188
0.8920 -2.7646 0.6091
0.9087 -2.7889 0.6028
0.9122 -2.8107 0.5991
0.9033 -2.8307 0.5978
0.8998 -2.8508 0.5955
0.9334 -2.8724 0.5866
1.0419 -2.9113 0.5621
1.0193 -2.9275 0.5637
2.3928 0.0078 0.9263
2.4704 -0.2514 0.8881
2.5159 -0.2840 0.8886
2.5787 -0.1976 0.9144
2.6342 -0.1846 0.9251
2.6712 -0.2804 0.9123
2.7663 -0.0870 0.9634
4.4367 -0.7611 1.0814
5.7434 -0.0173 1.4174
5.9168 -0.0185 1.4428
6.0523 -0.0522 1.4564
6.1442 -0.1182 1.4574
6.1415 -0.4782 1.3879
6.1836 -0.5641 1.3777
4.4422 -1.8986 0.8641
4.2942 -1.9983 0.8231
4.2605 -2.0893 0.8007
1.6115 3.2345 1.3241
1.7056 3.1669 1.3250
1.7897 3.2439 1.3496
2.3833 -0.0227 0.8648
2.4250 -0.1389 0.8503
2.4753 -0.1413 0.8567
2.5269 -0.1433 0.8633
2.5618 -0.2708 0.8459
2.6035 -0.3331 0.8408
2.6686 -0.2627 0.8617
2.7431 -0.1694 0.8878
4.5308 0.5375 1.2504
4.4457 0.2496 1.1892
4.4973 -0.7130 1.0297
5.5387 -0.1867 1.2607
5.8847 -0.6401 1.2288
6.1691 -0.5857 1.2765
4.4415 -1.8599 0.8240
4.3777 -1.9313 0.8031
4.2777 -2.0116 0.7757
4.2929 -2.0859 0.7649
1.7074 2.9373 1.1833
1.7566 3.4508 1.2682
2.4131 -0.1976 0.7866
2.4608 -0.2159 0.7895
2.5167 -0.1717 0.8031
2.5668 -0.1903 0.8063
2.6051 -0.2861 0.7962
2.6576 -0.2903 0.8018
2.7486 -0.1134 0.8400
4.5066 0.6878 1.1754
4.5164 0.5161 1.1502
4.3889 0.1713 1.0818
6.0710 -0.6531 1.1581
4.4342 -1.8707 0.7733
4.3258 -1.9588 0.7467
4.2712 -2.0213 0.7305
4.3407 -2.0378 0.7364
4.1401 -2.1426 0.6960
4.1927 -2.1617 0.6994
2.5542 -0.2340 0.7441
2.6068 -0.2372 0.7493
2.6522 -0.2872 0.7474
2.7226 -0.2113 0.7651
5.6900 0.6627 1.1995
5.4924 0.3099 1.1310
4.4941 -0.7287 0.8848
6.3243 -0.4143 1.1225
4.3845 -1.8510 0.7223
4.3913 -1.8958 0.7170
4.2875 -1.9808 0.6944
4.2746 -2.0274 0.6868
4.2624 -2.0718 0.6795
4.2227 -2.1231 0.6684
4.2872 -2.1402 0.6730
4.4773 -2.1610 0.6905
4.4703 -2.1999 0.6845
4.6250 -2.1994 0.7011
4.6517 -2.2305 0.6998
1.6130 2.7012 0.9391
1.7568 2.9587 0.9819
1.8733 2.5142 0.9417
1.9628 2.3944 0.9363
2.2231 3.0399 1.0345
2.4095 -0.0608 0.6959
2.4494 -0.1926 0.6845
2.5021 -0.1802 0.6908
2.5844 -0.3398 0.6801
2.6581 -0.2209 0.7006
2.7274 -0.1571 0.7143
5.7285 0.5213 1.0704
4.5796 -0.6593 0.8284
4.5463 -0.7900 0.8103
6.2255 0.0176 1.0587
6.1274 -0.1816 1.0267
5.8764 -0.5760 0.9582
6.0407 -0.5897 0.9718
6.2579 -0.5792 0.9932
4.6805 -1.5603 0.7343
4.4569 -1.7776 0.6887
4.3424 -1.8764 0.6667
4.3165 -1.9331 0.6578
4.1732 -2.0310 0.6333
4.1905 -2.0646 0.6310
4.2083 -2.0973 0.6289
4.3136 -2.1016 0.6382
4.3408 -2.1317 0.6373
4.4205 -2.1466 0.6429
4.4815 -2.1680 0.6461
4.4639 -2.2095 0.6397
1.8833 2.1132 0.8042
1.9614 2.1057 0.8096
2.0393 2.1494 0.8199
2.1241 1.9887 0.8113
2.2058 2.4763 0.8640
2.3736 1.9605 0.8282
2.3999 -0.0896 0.6357
2.4413 -0.2046 0.6280
2.4887 -0.2387 0.6285
2.5380 -0.2583 0.6305
2.5952 -0.2299 0.6377
2.6467 -0.2498 0.6398
2.7398 -0.0633 0.6648
3.0026 -1.3379 0.5645
4.0135 0.1087 0.7811
3.4597 -0.9862 0.6337
3.6754 -0.8970 0.6591
3.8319 -0.8059 0.6800
3.9856 -0.7312 0.6992
4.0430 -0.7725 0.6997
4.7368 -0.4110 0.7885
4.4365 -0.7927 0.7287
4.4632 -0.8669 0.7237
4.9798 -0.5462 0.7947
5.1069 -0.5574 0.8036
4.1458 -1.6157 0.6278
4.2135 -1.6342 0.6313
4.4935 -1.5400 0.6622
4.7026 -1.4945 0.6830
4.7208 -1.5496 0.6792
4.3664 -1.7743 0.6300
4.2388 -1.8808 0.6099
4.1867 -1.9484 0.5994
4.0932 -2.0282 0.5845
4.0777 -2.0736 0.5790
4.2039 -2.0671 0.5895
4.2497 -2.0908 0.5908
4.3378 -2.1016 0.5967
4.3448 -2.1381 0.5938
4.4470 -2.1472 0.6010
4.4749 -2.1778 0.6003
4.5366 -2.1998 0.6030
4.6476 -2.2113 0.6106
4.6256 -2.2532 0.6049
1.6562 2.0190 0.6890
1.7234 2.0580 0.6962
1.8764 1.9938 0.7012
1.9672 1.7107 0.6859
2.0232 2.1805 0.7246
2.1112 1.9190 0.7107
2.1917 1.8612 0.7115
2.2709 1.7104 0.7053
2.4099 1.2335 0.6785
2.4277 -0.2780 0.5666
2.4822 -0.2362 0.5732
3.6995 1.2500 0.7622
4.0181 0.1172 0.6979
3.7264 -0.8341 0.6081
3.8009 -0.8459 0.6120
3.8888 -0.8451 0.6177
3.9810 -0.8436 0.6237
4.0107 -0.9105 0.6206
4.0026 -1.0117 0.6125
4.1762 -0.9381 0.6291
4.1955 -1.5324 0.5859
4.0755 -1.6640 0.5684
4.0091 -1.7559 0.5573
4.1504 -1.7309 0.5682
4.1716 -1.7722 0.5664
4.1603 -1.8280 0.5615
4.1503 -1.9265 0.5535
4.1223 -1.9820 0.5476
4.1046 -2.0306 0.5428
4.0884 -2.0764 0.5384
4.1975 -2.0765 0.5453
4.1959 -2.1158 0.5423
4.2716 -2.1297 0.5461
4.2880 -2.1624 0.5447
4.4456 -2.1934 0.5525
4.4837 -2.2208 0.5529
4.5342 -2.2454 0.5543
4.4825 -2.2917 0.5475
1.8116 1.7138 0.5905
1.8696 1.8794 0.6023
2.0295 1.6376 0.5971
2.0985 1.8511 0.6121
2.1787 1.7014 0.6079
2.2591 1.8303 0.6189
2.3434 1.8682 0.6251
2.4130 1.5331 0.6103
2.4335 -0.1337 0.5207
2.4693 -0.2929 0.5138
2.5761 -0.2712 0.5202
2.6382 -0.2264 0.5257
3.6199 1.0534 0.6437
3.7048 0.9924 0.6446
3.5421 -0.6387 0.5479
3.4895 -0.8381 0.5344
3.4668 -0.9772 0.5258
3.5897 -0.9100 0.5355
3.6874 -0.8856 0.5416
3.7917 -0.8595 0.5482
3.8794 -0.8590 0.5525
3.8609 -1.0686 0.5402
3.7424 -1.2698 0.5234
4.0341 -1.0751 0.5484
3.9964 -1.6622 0.5146
4.0682 -1.6749 0.5175
4.0804 -1.7226 0.5155
4.0238 -1.8050 0.5082
4.0827 -1.8240 0.5101
4.1132 -1.8576 0.5098
4.1333 -1.8954 0.5087
4.1730 -1.9239 0.5091
4.1251 -1.9879 0.5033
4.1254 -2.0296 0.5010
4.1542 -2.0594 0.5008
4.1632 -2.0956 0.4993
4.1450 -2.1396 0.4960
4.2362 -2.1481 0.5000
4.2070 -2.1932 0.4961
4.2895 -2.2058 0.4995
4.3457 -2.2268 0.5011
4.3822 -2.2530 0.5015
4.3677 -2.2905 0.4988
1.7550 1.4679 0.4934
1.8101 1.5725 0.4988
2.0873 1.7376 0.5140
2.1654 1.6815 0.5148
2.2443 1.7162 0.5187
2.3904 1.3101 0.5100
2.4420 0.9061 0.4982
2.4432 0.0686 0.4700
2.4725 -0.1971 0.4620
2.5193 -0.2487 0.4619
2.5702 -0.2672 0.4630
2.6558 -0.0842 0.4721
3.4972 -0.8264 0.4761
3.6268 -0.8616 0.4794
3.6688 -0.9111 0.4792
3.8397 -1.1793 0.4760
3.9704 -1.2205 0.4791
4.0202 -1.2563 0.4796
4.0700 -1.2920 0.4802
4.1320 -1.3186 0.4814
4.2207 -1.3269 0.4842
4.2855 -1.3542 0.4855
4.3086 -1.4094 0.4844
4.0182 -1.6551 0.4661
4.0213 -1.7089 0.4644
4.0054 -1.7708 0.4618
4.0356 -1.8053 0.4617
4.0663 -1.8390 0.4616
4.1064 -1.8678 0.4620
4.1773 -1.8827 0.4639
4.1178 -1.9545 0.4595
4.1186 -1.9976 0.4580
4.1565 -2.0248 0.4584
4.1204 -2.0787 0.4554
4.1204 -2.1173 0.4541
4.1562 -2.1430 0.4544
4.1656 -2.1768 0.4536
4.1739 -2.2098 0.4528
4.2742 -2.2175 0.4560
4.3195 -2.2410 0.4568
4.3651 -2.2648 0.4575
4.4125 -2.2885 0.4584
1.9802 2.1162 0.4241
2.0671 1.9540 0.4237
2.2301 1.6055 0.4224
2.3104 1.6386 0.4244
2.3901 1.5813 0.4252
2.4841 1.7542 0.4293
2.4709 -0.1440 0.4047
2.5149 -0.2293 0.4045
2.5807 -0.1488 0.4068
2.6590 -0.0235 0.4099
2.7400 0.0769 0.4128
3.4102 -0.9570 0.4126
3.5057 -0.9233 0.4149
4.2118 -0.4883 0.4342
3.9340 -1.0021 0.4222
3.8412 -1.1823 0.4181
4.1331 -0.9943 0.4262
4.3435 -0.9001 0.4315
4.6503 -0.7394 0.4395
4.5368 -0.9302 0.4348
4.7632 -0.8525 0.4402
4.2522 -1.3113 0.4244
4.0810 -1.5630 0.4179
4.0407 -1.6478 0.4160
3.9669 -1.7469 0.4133
3.9794 -1.7917 0.4130
4.0194 -1.8205 0.4134
4.0984 -1.8299 0.4148
4.0995 -1.8780 0.4142
4.1297 -1.9112 0.4144
4.0742 -1.9800 0.4124
4.1316 -1.9995 0.4133
4.1220 -2.0450 0.4125
4.1320 -2.0816 0.4123
4.1410 -2.1175 0.4120
4.1773 -2.1436 0.4123
4.2325 -2.1641 0.4132
4.2499 -2.1958 0.4131
4.3058 -2.2167 0.4139
4.4260 -2.2226 0.4162
4.4979 -2.2422 0.4173
2.0464 2.1398 0.3239
2.1366 1.7790 0.3273
2.2164 1.4589 0.3304
2.2940 1.4869 0.3304
2.3713 1.4314 0.3312
2.5104 -0.2091 0.3457
2.5871 -0.0546 0.3447
2.6497 -0.0374 0.3448
2.7339 0.0824 0.3441
3.4799 -0.8523 0.3552
3.4497 -1.0033 0.3563
4.0887 -0.6319 0.3558
3.8940 -0.9530 0.3577
3.8042 -1.1386 0.3589
3.8434 -1.1846 0.3595
4.7490 -0.6656 0.3589
5.0702 -0.6322 0.3599
4.0388 -1.5345 0.3633
4.0517 -1.5883 0.3638
3.9748 -1.6943 0.3643
3.9511 -1.7624 0.3648
3.9815 -1.7970 0.3652
4.0321 -1.8206 0.3656
4.0526 -1.8594 0.3661
4.1849 -1.8453 0.3665
4.1535 -1.9078 0.3669
4.1527 -1.9542 0.3673
4.1250 -2.0092 0.3676
4.0621 -2.0745 0.3679
4.1435 -2.0848 0.3683
4.1626 -2.1175 0.3687
4.1809 -2.1498 0.3690
4.2074 -2.1789 0.3694
4.3025 -2.1888 0.3699
4.4035 -2.1992 0.3704
4.4420 -2.2268 0.3708
4.4469 -2.2621 0.3711
1.8062 1.1901 0.2519
2.1290 1.4135 0.2415
2.2034 1.3601 0.2423
2.2823 1.5531 0.2356
2.3629 1.5407 0.2351
2.4426 1.4834 0.2359
2.4475 0.4430 0.2670
2.4727 0.0275 0.2792
2.5158 -0.1031 0.2826
2.5754 -0.0866 0.2815
2.6404 -0.0513 0.2797
2.7019 -0.0527 0.2790
2.8283 0.2501 0.2685
2.9785 -0.0168 0.2748
2.8301 -0.9003 0.3030
2.8409 -1.0153 0.3063
2.8742 -1.0607 0.3073
3.1063 -1.2388 0.3100
3.5219 -0.9017 0.2952
4.2062 -0.5028 0.2755
3.8396 -1.0151 0.2950
3.8924 -1.0531 0.2956
4.8860 -0.3176 0.2623
4.5806 -0.7074 0.2774
4.7369 -0.6835 0.2750
4.8552 -0.6966 0.2740
4.8302 -0.8199 0.2780
4.0519 -1.5322 0.3081
4.0338 -1.6062 0.3105
3.9390 -1.7223 0.3151
3.9344 -1.7783 0.3168
3.9747 -1.8072 0.3172
4.0252 -1.8309 0.3174
4.0845 -1.8508 0.3173
4.1456 -1.8708 0.3172
4.1466 -1.9181 0.3186
4.1370 -1.9680 0.3202
4.0991 -2.0266 0.3224
4.0826 -2.0740 0.3240
4.0414 -2.1276 0.3261
4.0767 -2.1530 0.3264
4.1379 -2.1705 0.3263
4.1299 -2.2089 0.3275
4.2197 -2.2192 0.3268
4.3866 -2.2116 0.3247
4.4684 -2.2288 0.3243
4.4511 -2.2694 0.3257
4.4346 -2.3080 0.3270
7.0163 -1.8482 0.2841
1.7995 1.8263 0.1390
1.8414 2.2748 0.1147
2.1071 1.8321 0.1304
2.4069 0.0144 0.2164
2.4549 -0.0790 0.2200
2.5010 -0.1685 0.2234
2.5688 -0.0819 0.2171
2.6465 0.0326 0.2090
2.7220 0.0962 0.2037
3.0902 0.4041 0.1778
2.7689 -0.9210 0.2551
2.8067 -0.9595 0.2561
2.8442 -0.9977 0.2571
2.8954 -0.9994 0.2558
2.9483 -1.0010 0.2544
3.0029 -1.0027 0.2530
3.0960 -1.1561 0.2585
3.1276 -1.2013 0.2600
3.2732 -1.0628 0.2489
3.3717 -1.0146 0.2437
3.4410 -1.0168 0.2420
4.1291 -0.5941 0.2015
3.9609 -0.8892 0.2213
3.8074 -1.1435 0.2386
4.9279 -0.2873 0.1641
4.8192 -0.5086 0.1785
4.8438 -0.6040 0.1828
4.8430 -0.7149 0.1885
4.7728 -0.8712 0.1985
4.4338 -1.2052 0.2250
4.0331 -1.5512 0.2537
3.8730 -1.7143 0.2664
3.8968 -1.7539 0.2678
3.9733 -1.7625 0.2662
4.0056 -1.7971 0.2671
4.0865 -1.8063 0.2654
4.1598 -1.8214 0.2642
4.1184 -1.8906 0.2689
4.0712 -1.9582 0.2737
4.0914 -1.9940 0.2750
4.0927 -2.0362 0.2772
4.0589 -2.0897 0.2809
4.0354 -2.1366 0.2839
4.0623 -2.1648 0.2847
4.0718 -2.1979 0.2861
4.1065 -2.2228 0.2865
4.1412 -2.2478 0.2868
4.1940 -2.2682 0.2865
4.3342 -2.2687 0.2827
7.0028 -1.8683 0.1901
2.4509 -0.0374 0.1536
2.5000 -0.1124 0.1571
2.5621 -0.0774 0.1518
2.6246 -0.0601 0.1479
2.7119 0.0812 0.1337
3.0942 0.4436 0.0905
2.8373 -1.0080 0.2088
2.8846 -1.0196 0.2076
2.9451 -1.0021 0.2037
2.9914 -1.0229 0.2033
3.0336 -1.0532 0.2037
3.0665 -1.1017 0.2059
3.0984 -1.1496 0.2080
3.1449 -1.1705 0.2076
3.2655 -1.0743 0.1953
3.4146 -0.9500 0.1798
3.4801 -0.9622 0.1779
3.5383 -0.9866 0.1772
3.6437 -0.9529 0.1702
3.7160 -0.9662 0.1680
3.7378 -1.0391 0.1725
3.7895 -1.0763 0.1730
5.0304 -0.2023 0.0553
4.8836 -0.4613 0.0807
5.0168 -0.4712 0.0758
4.2166 -1.3644 0.1760
4.1397 -1.4872 0.1884
3.9438 -1.7321 0.2149
3.9575 -1.7780 0.2177
3.9887 -1.8129 0.2189
4.1523 -1.9304 0.2206
4.1135 -1.9921 0.2268
4.0952 -2.0424 0.2313
4.0792 -2.0894 0.2355
4.1068 -2.1192 0.2365
4.0814 -2.1657 0.2410
4.1439 -2.1832 0.2396
4.3137 -2.2094 0.2343
4.4392 -2.2149 0.2293
4.5612 -2.2242 0.2248
4.4607 -2.2839 0.2335
6.9893 -1.8884 0.0960
2.0828 1.6515 -0.0526
2.1634 1.5059 -0.0433
2.2431 1.6266 -0.0596
2.3283 1.7074 -0.0724
2.4123 1.6471 -0.0715
2.4930 -0.1074 0.0927
2.5458 -0.1454 0.0932
2.6212 -0.0352 0.0781
2.7094 0.1090 0.0591
3.2538 1.9211 -0.1475
3.2348 1.3712 -0.0935
3.1324 0.6082 -0.0140
3.1789 0.4624 -0.0026
3.2417 0.3814 0.0014
3.2644 0.1934 0.0182
3.2591 -0.0462 0.0416
3.2874 -0.1777 0.0526
3.0632 -0.9879 0.1438
3.2657 -0.8443 0.1181
3.3080 -0.8919 0.1202
3.3721 -0.9034 0.1175
3.4702 -0.8664 0.1082
4.6877 -0.2646 -0.0216
4.8745 -0.2183 -0.0370
4.9567 -0.2774 -0.0362
4.6524 -0.6680 0.0194
4.7468 -0.6999 0.0169
4.1160 -1.2933 0.1112
4.0107 -1.4463 0.1321
3.9618 -1.5483 0.1448
4.2598 -1.4151 0.1145
3.9367 -1.7428 0.1651
3.9881 -1.7674 0.1644
4.1122 -1.7539 0.1558
4.2532 -1.8948 0.1610
4.2291 -1.9529 0.1681
4.1652 -2.0231 0.1786
4.1750 -2.0623 0.1818
4.1839 -2.1403 0.1888
4.3423 -2.1714 0.1824
4.5891 -2.1868 0.1694
6.9943 -1.8328 -0.0065
6.9758 -1.9085 0.0019
1.7455 1.2588 -0.0789
1.7884 1.4709 -0.1074
1.8300 1.8030 -0.1501
1.9067 1.7921 -0.1545
1.9873 1.7342 -0.1537
2.0678 1.6764 -0.1529
2.1478 1.6643 -0.1575
2.2289 1.5606 -0.1512
2.3073 1.4160 -0.1399
2.3825 1.2772 -0.1291
2.4705 1.3870 -0.1488
2.4859 -0.1026 0.0274
2.5484 -0.0678 0.0185
2.6236 0.0303 0.0012
2.6954 0.0720 -0.0092
2.9776 1.1613 -0.1601
3.0699 1.1429 -0.1648
3.0963 0.8491 -0.1318
3.1558 0.7216 -0.1211
3.2132 0.5994 -0.1109
3.2786 0.5132 -0.1056
3.2834 0.0287 -0.0483
3.2442 -0.8806 0.0629
3.2930 -0.9157 0.0634
3.3710 -0.9042 0.0562
3.4531 -0.8921 0.0486
4.0012 -0.2269 -0.0719
3.9647 -0.7909 -0.0020
4.2990 -0.5427 -0.0567
4.4685 -0.4915 -0.0756
4.3609 -0.7148 -0.0409
4.0271 -1.2100 0.0432
3.8258 -1.4543 0.0874
3.8915 -1.4721 0.0846
4.0135 -1.4505 0.0729
4.0855 -1.4692 0.0696
4.1597 -1.4881 0.0663
3.9765 -1.7258 0.1084
3.9906 -1.7727 0.1129
4.1254 -1.7542 0.1006
5.5430 -1.1898 -0.0733
4.2110 -1.9679 0.1196
4.1584 -2.0332 0.1313
4.1683 -2.0722 0.1352
4.1980 -2.1034 0.1367
4.1965 -2.1440 0.1416
6.9981 -1.7752 -0.1132
6.9320 -1.8627 -0.0978
6.8677 -1.9453 -0.0831
1.7799 1.4129 -0.1892
1.8388 1.5193 -0.2098
1.9139 1.4653 -0.2090
1.9848 1.4936 -0.2195
2.2929 1.3539 -0.2280
2.3710 1.2978 -0.2272
2.4330 0.9802 -0.1877
2.4282 -0.0228 -0.0448
2.4806 -0.0799 -0.0415
2.5414 -0.0627 -0.0495
2.6262 0.0994 -0.0803
2.6853 0.0569 -0.0797
2.9305 0.5509 -0.1724
3.0283 0.2796 -0.1429
3.1040 0.2569 -0.1466
3.0342 -1.0394 0.0440
3.1027 -1.0216 0.0352
3.1926 -0.9716 0.0198
3.2711 -0.9513 0.0097
3.3850 -0.8808 -0.0107
3.4866 -0.8417 -0.0256
3.5672 -0.8411 -0.0331
3.6119 -0.8927 -0.0299
3.5800 -1.0392 -0.0061
3.6038 -1.1075 0.0014
3.6085 -1.1937 0.0132
3.7321 -1.1485 -0.0046
4.4452 -0.6410 -0.1422
4.2584 -1.3572 -0.0233
4.3416 -1.3768 -0.0281
4.4756 -1.3671 -0.0418
4.0187 -1.7078 0.0486
4.0734 -1.7337 0.0472
4.4061 -1.6145 -0.0003
4.7392 -1.5114 -0.0455
5.0942 -1.4131 -0.0921
4.2816 -1.9478 0.0585
4.2902 -1.9917 0.0640
4.3751 -2.0528 0.0649
6.6667 -1.7887 -0.1831
6.6562 -1.8628 -0.1716
2.3308 0.5760 -0.2013
2.3923 0.4762 -0.1914
2.4317 0.1248 -0.1376
2.4810 0.0023 -0.1226
2.5320 -0.0767 -0.1151
2.6040 0.0010 -0.1358
2.6580 -0.0608 -0.1314
2.7226 -0.0624 -0.1382
2.8217 0.0866 -0.1736
2.8892 0.0647 -0.1773
2.9399 -0.0238 -0.1682
2.9770 -0.1508 -0.1512
3.0046 -0.4961 -0.0971
2.9361 -0.9974 -0.0067
2.9666 -1.0568 -0.0001
3.0267 -1.0504 -0.0077
3.0424 -1.1355 0.0046
3.0701 -1.1917 0.0109
3.1569 -1.1440 -0.0064
3.2651 -1.0716 -0.0301
3.5129 -0.8021 -0.1017
3.7640 -0.5638 -0.1684
3.7521 -0.7077 -0.1432
3.7206 -0.9718 -0.0961
3.8203 -0.9600 -0.1089
3.8522 -1.0253 -0.1016
3.9319 -1.0402 -0.1078
3.8685 -1.1930 -0.0756
4.0697 -1.0969 -0.1134
4.2769 -1.0098 -0.1503
4.3547 -1.0402 -0.1537
4.4162 -1.0844 -0.1531
4.4424 -1.1541 -0.1444
4.4848 -1.2100 -0.1397
4.3783 -1.3609 -0.1032
4.1552 -1.5720 -0.0440
4.1546 -1.6358 -0.0334
4.0983 -1.7271 -0.0122
4.2255 -1.7169 -0.0277
4.6263 -1.6419 -0.0836
4.7324 -1.6577 -0.0926
4.9412 -1.6334 -0.1192
4.3764 -1.9681 -0.0025
4.3969 -2.0083 0.0019
4.3910 -2.0560 0.0104
5.3259 -1.8143 -0.1311
5.4619 -1.8358 -0.1423
5.4976 -1.8868 -0.1378
5.6386 -1.9107 -0.1491
5.7291 -1.9491 -0.1526
5.8517 -1.9815 -0.1606
5.9157 -2.0275 -0.1599
5.9181 -2.0849 -0.1507
5.9811 -2.1301 -0.1500
2.1331 0.3861 -0.2220
2.1921 0.2753 -0.2084
2.2502 0.2780 -0.2162
2.3085 0.2361 -0.2156
2.3656 0.1723 -0.2107
2.4219 0.1102 -0.2061
2.4569 -0.1613 -0.1591
2.5097 -0.1992 -0.1586
2.5776 -0.1303 -0.1801
2.6451 -0.0946 -0.1954
2.7053 -0.1163 -0.1988
2.7583 -0.1760 -0.1942
2.8104 -0.2351 -0.1896
2.8481 -0.3450 -0.1735
2.9541 -0.6278 -0.1333
3.0156 -0.6359 -0.1395
3.0574 -0.9819 -0.0793
3.6229 -1.0903 -0.1299
3.6837 -1.1160 -0.1327
3.8090 -1.0750 -0.1562
3.8596 -1.2063 -0.1377
3.9005 -1.2537 -0.1339
4.1729 -1.2765 -0.1638
4.2829 -1.3555 -0.1627
4.0627 -1.5721 -0.0940
3.9595 -1.6986 -0.0571
3.9359 -1.7693 -0.0408
4.0801 -1.7444 -0.0636
4.3468 -1.6621 -0.1127
4.5213 -1.6998 -0.1275
4.6088 -1.7807 -0.1232
4.2615 -2.0633 -0.0261
4.3606 -2.0744 -0.0364
4.3677 -2.1156 -0.0295
5.1631 -1.9879 -0.1536
5.3847 -2.0414 -0.1714
5.4417 -2.0824 -0.1708
5.4751 -2.1280 -0.1664
5.5317 -2.1686 -0.1658
2.1336 -0.0395 -0.2059
2.1850 -0.1277 -0.1945
2.2352 -0.1472 -0.1975
2.2873 -0.1321 -0.2082
2.3387 -0.1690 -0.2077
2.3876 -0.2399 -0.1995
2.4324 -0.3389 -0.1848
2.4854 -0.3436 -0.1914
2.5465 -0.3004 -0.2093
2.5930 -0.3697 -0.2012
2.6412 -0.4221 -0.1969
2.6951 -0.4430 -0.2002
2.7257 -0.5663 -0.1783
2.7713 -0.6147 -0.1745
2.8606 -0.7110 -0.1667
2.9221 -0.7075 -0.1762
2.9347 -0.8393 -0.1499
3.0431 -0.8731 -0.1582
3.0907 -0.9073 -0.1577
3.1383 -0.9415 -0.1572
3.1742 -0.9971 -0.1505
3.2090 -1.0519 -0.1438
3.4212 -1.0494 -0.1747
3.4468 -1.1166 -0.1640
3.4717 -1.1810 -0.1538
3.5526 -1.1760 -0.1665
3.6281 -1.1813 -0.1761
3.6684 -1.2270 -0.1722
3.7178 -1.2625 -0.1717
3.7378 -1.3257 -0.1610
3.7863 -1.3606 -0.1605
3.8149 -1.4122 -0.1536
3.8526 -1.4548 -0.1499
3.9002 -1.4890 -0.1494
3.7930 -1.6337 -0.1032
3.8458 -1.6586 -0.1055
3.9281 -1.6652 -0.1158
3.9430 -1.7153 -0.1073
4.0063 -1.7357 -0.1120
4.1055 -1.7378 -0.1257
4.1851 -1.7533 -0.1338
4.1850 -1.8093 -0.1218
4.2183 -1.8475 -0.1185
4.3765 -1.8311 -0.1446
4.4241 -1.8653 -0.1441
4.5291 -1.8776 -0.1565
4.5337 -1.9286 -0.1462
4.3571 -2.0391 -0.0974
4.2209 -2.1273 -0.0592
4.4075 -2.1122 -0.0890
4.4263 -2.1496 -0.0838
4.4197 -2.1926 -0.0737
4.4263 -2.2307 -0.0665
4.4088 -2.2730 -0.0550
5.0174 -2.2284 -0.1515
5.0835 -2.2604 -0.1541
5.1326 -2.2957 -0.1536
1.9911 -0.1790 -0.2153
2.0358 -0.1816 -0.2219
2.0846 -0.2463 -0.2143
2.1301 -0.2351 -0.2243
2.1782 -0.3135 -0.2134
2.2247 -0.3765 -0.2059
2.2717 -0.3807 -0.2124
2.3606 -0.5156 -0.1946
2.7503 -0.8750 -0.1718
2.7844 -0.9374 -0.1624
2.8258 -1.1186 -0.1260
3.1503 -1.1505 -0.1705
3.1729 -1.2165 -0.1584
3.1996 -1.2723 -0.1494
3.2648 -1.2707 -0.1603
3.5321 -1.5231 -0.1432
3.6120 -1.5201 -0.1568
3.7172 -1.6324 -0.1470
3.7267 -1.6866 -0.1356
3.7114 -1.7550 -0.1169
3.8103 -1.7466 -0.1347
3.9214 -1.7910 -0.1420
4.0327 -1.7845 -0.1614
4.0794 -1.8678 -0.1492
4.1226 -1.8988 -0.1487
4.1648 -2.1529 -0.0951
4.2236 -2.1750 -0.0993
4.3380 -2.1826 -0.1158
4.4370 -2.1969 -0.1283
4.5159 -2.2181 -0.1360
4.5584 -2.2486 -0.1355
4.4648 -2.3069 -0.1066
4.3925 -2.3568 -0.0832
4.7974 -2.3209 -0.1567
2.0931 -0.5851 -0.1873
2.1338 -0.6143 -0.1869
2.1745 -0.6436 -0.1865
2.2151 -0.6833 -0.1833
2.2553 -0.7240 -0.1798
2.2975 -0.7096 -0.1911
2.3379 -0.7504 -0.1876
2.3779 -0.7897 -0.1844
2.4186 -0.8190 -0.1840
2.4620 -0.8278 -0.1894
2.5000 -0.8774 -0.1831
2.5337 -0.9452 -0.1714
2.5755 -0.9646 -0.1737
2.6113 -1.0115 -0.1678
2.6931 -1.0597 -0.1697
2.7414 -1.0615 -0.1779
2.7877 -1.0736 -0.1829
2.7918 -1.2011 -0.1502
2.8366 -1.2133 -0.1550
2.8994 -1.1867 -0.1732
2.9397 -1.2157 -0.1727
2.9760 -1.2523 -0.1696
3.0077 -1.2963 -0.1637
3.0517 -1.3173 -0.1660
3.1362 -1.3674 -0.1680
3.1663 -1.4102 -0.1621
3.2163 -1.4250 -0.1671
3.2677 -1.4396 -0.1725
3.2964 -1.4826 -0.1663
3.3249 -1.5242 -0.1605
3.3705 -1.5464 -0.1628
3.4630 -1.5917 -0.1674
3.5106 -1.6141 -0.1700
3.5367 -1.6552 -0.1639
3.5768 -1.6840 -0.1634
3.6617 -1.6792 -0.1798
3.6874 -1.7200 -0.1737
3.6969 -1.7703 -0.1622
3.7448 -1.7942 -0.1645
3.8020 -1.8129 -0.1698
3.8253 -1.8520 -0.1637
3.8327 -1.8985 -0.1528
3.8972 -1.9142 -0.1602
3.9372 -1.9430 -0.1597
4.0869 -2.0176 -0.1669
4.0695 -2.0686 -0.1504
4.0892 -2.1039 -0.1446
4.1092 -2.1383 -0.1392
4.0827 -2.1862 -0.1219
4.1574 -2.2023 -0.1310
4.2977 -2.2020 -0.1561
4.3378 -2.2308 -0.1556
4.3889 -2.2569 -0.1579
4.3852 -2.2954 -0.1471
4.3914 -2.3304 -0.1391
4.4745 -2.3502 -0.1487
4.5261 -2.3767 -0.1509
2.1711 -0.8630 -0.1755
2.2078 -0.8707 -0.1805
2.2811 -0.9421 -0.1744
2.3920 -1.0124 -0.1760
2.5097 -1.0515 -0.1878
2.5744 -1.1528 -0.1714
2.6111 -1.1791 -0.1710
2.7188 -1.2647 -0.1676
2.8918 -1.4147 -0.1584
2.9532 -1.4845 -0.1504
3.1569 -1.5795 -0.1631
3.2710 -1.6533 -0.1643
3.2878 -1.6993 -0.1544
3.3132 -1.7350 -0.1491
3.3898 -1.7819 -0.1506
3.5331 -1.8848 -0.1492
3.5568 -1.9182 -0.1442
3.6854 -2.0269 -0.1382
3.7696 -2.0291 -0.1541
3.9272 -2.1680 -0.1451
3.9720 -2.1908 -0.1474
4.0159 -2.2142 -0.1493
4.1333 -2.2542 -0.1608
4.2243 -2.3383 -0.1545
4.2419 -2.3684 -0.1493
4.3184 -2.3872 -0.1589
4.3449 -2.4156 -0.1560
