ply
format ascii 1.0
element vertex 2202
property float x
property float y
property float z
end_header
5.9516 2.5618 -0.2621
5.9346 2.5647 -0.2572
6.0501 1.3514 -0.1376
6.0568 1.3617 -0.1405
6.0553 1.3749 -0.1415
6.0482 1.3899 -0.1411
6.0512 1.4021 -0.1432
6.0485 1.4161 -0.1439
6.0534 1.4285 -0.1466
6.0538 1.4422 -0.1482
6.0531 1.4563 -0.1494
6.0523 1.4707 -0.1507
6.0461 1.4859 -0.1506
6.0473 1.5003 -0.1525
6.0442 1.5154 -0.1532
6.0421 1.5305 -0.1542
6.0430 1.5458 -0.1561
6.0469 1.5613 -0.1588
6.0486 1.5772 -0.1609
6.0491 1.5935 -0.1628
6.0506 1.6102 -0.1649
6.0460 1.6266 -0.1654
6.0444 1.6434 -0.1667
6.0417 1.6603 -0.1678
6.0456 1.6787 -0.1708
6.0475 1.6971 -0.1732
6.0361 1.7127 -0.1717
6.0369 1.7313 -0.1739
6.0420 1.7909 -0.1816
6.0387 1.8097 -0.1826
6.0371 1.8294 -0.1843
6.0293 1.8464 -0.1839
6.0319 1.8687 -0.1870
6.0424 1.9185 -0.1951
6.0427 1.9415 -0.1976
6.0387 1.9622 -0.1987
6.0347 1.9830 -0.1998
6.0395 2.0107 -0.2040
6.0417 2.0372 -0.2074
6.0413 2.0623 -0.2099
6.0415 2.0885 -0.2128
6.0462 2.1195 -0.2173
6.0445 2.1453 -0.2196
6.0420 2.1708 -0.2216
6.0461 2.2037 -0.2262
6.0417 2.2284 -0.2276
6.0425 2.2592 -0.2310
6.0351 2.2810 -0.2312
6.0468 2.3271 -0.2393
6.0461 2.3921 -0.2460
6.0430 2.4220 -0.2483
6.0385 2.4502 -0.2500
6.0443 2.5319 -0.2602
6.0341 2.5529 -0.2596
6.0183 2.5638 -0.2563
5.9958 2.5615 -0.2498
5.9731 2.5569 -0.2430
5.9526 2.5545 -0.2371
6.0562 1.3396 -0.1227
6.0550 1.3524 -0.1236
6.0502 1.3664 -0.1238
6.0523 1.3784 -0.1254
6.0497 1.3919 -0.1261
6.0427 1.4067 -0.1257
6.0512 1.4178 -0.1289
6.0507 1.4313 -0.1301
6.0523 1.4447 -0.1318
6.0484 1.4593 -0.1322
6.0477 1.4734 -0.1333
6.0426 1.4883 -0.1335
6.0492 1.5021 -0.1365
6.0472 1.5170 -0.1374
6.0430 1.5322 -0.1378
6.0492 1.5473 -0.1408
6.0510 1.5629 -0.1427
6.0497 1.5787 -0.1439
6.0474 1.5948 -0.1449
6.0420 1.6107 -0.1451
6.0454 1.6277 -0.1475
6.0487 1.6451 -0.1500
6.0480 1.6623 -0.1515
6.0462 1.6796 -0.1527
6.0406 1.6962 -0.1529
6.0406 1.7143 -0.1546
6.0340 1.7309 -0.1545
6.0375 1.7506 -0.1573
6.0372 1.7696 -0.1590
6.0413 1.7906 -0.1621
6.0362 1.8085 -0.1625
6.0445 1.8324 -0.1669
6.0349 1.8487 -0.1660
6.0297 1.8669 -0.1665
6.0417 1.8949 -0.1721
6.0439 1.9183 -0.1750
6.0401 1.9386 -0.1759
6.0438 1.9641 -0.1793
6.0357 1.9820 -0.1790
6.0317 2.0029 -0.1800
6.0389 2.0328 -0.1846
6.0386 2.0577 -0.1869
6.0374 2.0823 -0.1890
6.0400 2.1108 -0.1924
6.0462 2.1437 -0.1971
6.0541 2.2379 -0.2080
6.0453 2.2580 -0.2078
6.0408 2.2832 -0.2091
6.0417 2.3801 -0.2185
6.0352 2.4385 -0.2225
6.0348 2.4729 -0.2257
6.0374 2.5131 -0.2302
6.0340 2.5445 -0.2323
6.0343 2.5828 -0.2361
5.9994 2.5593 -0.2251
5.9790 2.5591 -0.2200
5.9560 2.5520 -0.2136
6.0564 1.3423 -0.1078
6.0529 1.3558 -0.1082
6.0539 1.3678 -0.1095
6.0480 1.3822 -0.1094
6.0490 1.3946 -0.1107
6.0475 1.4079 -0.1115
6.0472 1.4210 -0.1126
6.0545 1.4328 -0.1152
6.0507 1.4472 -0.1156
6.0523 1.4608 -0.1171
6.0483 1.4754 -0.1175
6.0508 1.4893 -0.1193
6.0489 1.5040 -0.1201
6.0396 1.5194 -0.1194
6.0460 1.5338 -0.1220
6.0502 1.5489 -0.1243
6.0470 1.5644 -0.1249
6.0438 1.5800 -0.1255
6.0486 1.5962 -0.1280
6.0482 1.6125 -0.1293
6.0457 1.6288 -0.1302
6.0481 1.6460 -0.1322
6.0475 1.6631 -0.1335
6.0448 1.6801 -0.1344
6.0431 1.6975 -0.1355
6.0431 1.7155 -0.1370
6.0337 1.7312 -0.1363
6.0373 1.7508 -0.1388
6.0463 1.7729 -0.1427
6.0495 1.7938 -0.1452
6.0472 1.8129 -0.1463
6.0352 1.8483 -0.1467
6.0432 1.8733 -0.1506
6.0414 1.8938 -0.1520
6.0459 1.9410 -0.1571
6.0521 1.9682 -0.1608
6.0423 1.9851 -0.1601
6.0383 2.0060 -0.1610
6.0456 2.0361 -0.1652
6.0366 2.0537 -0.1647
6.0363 2.0787 -0.1668
6.0359 2.1042 -0.1689
6.0393 2.1339 -0.1722
6.0393 2.1611 -0.1746
6.0475 2.1976 -0.1795
6.0628 2.2434 -0.1869
6.0539 2.2636 -0.1866
6.0435 2.3126 -0.1885
6.0375 2.3364 -0.1893
6.0315 2.3604 -0.1900
6.0372 2.4011 -0.1948
6.0371 2.4348 -0.1976
6.0382 2.4711 -0.2010
6.0390 2.5081 -0.2044
6.0390 2.5447 -0.2075
6.0296 2.5663 -0.2073
5.9705 2.5346 -0.1915
5.9568 2.5446 -0.1893
6.0530 1.3462 -0.0926
6.0565 1.3571 -0.0941
6.0530 1.3707 -0.0944
6.0517 1.3836 -0.0952
6.0572 1.3948 -0.0971
6.0569 1.4079 -0.0981
6.0510 1.4225 -0.0980
6.0495 1.4361 -0.0988
6.0435 1.4507 -0.0988
6.0468 1.4776 -0.1015
6.0462 1.4918 -0.1024
6.0518 1.5056 -0.1046
6.0510 1.5204 -0.1056
6.0480 1.5354 -0.1061
6.0449 1.5506 -0.1067
6.0428 1.5659 -0.1075
6.0468 1.5816 -0.1094
6.0467 1.5974 -0.1106
6.0413 1.6131 -0.1108
6.0460 1.6300 -0.1130
6.0416 1.6461 -0.1134
6.0430 1.6633 -0.1150
6.0492 1.6818 -0.1176
6.0474 1.6991 -0.1186
6.0390 1.7150 -0.1182
6.0381 1.7329 -0.1194
6.0437 1.7531 -0.1220
6.0462 1.7730 -0.1240
6.0446 1.8116 -0.1267
6.0396 1.8295 -0.1271
6.0443 1.8522 -0.1297
6.0480 1.8751 -0.1322
6.0453 1.8952 -0.1332
6.0460 1.9175 -0.1351
6.0535 1.9445 -0.1386
6.0538 1.9679 -0.1404
6.0407 1.9823 -0.1390
6.0442 2.0086 -0.1417
6.0443 2.0329 -0.1436
6.0361 2.0509 -0.1434
6.0475 2.1120 -0.1503
6.0438 2.1352 -0.1513
6.0354 2.1539 -0.1511
6.0416 2.1877 -0.1549
6.0429 2.2175 -0.1575
6.0425 2.2461 -0.1596
6.0383 2.2708 -0.1607
6.0435 2.3076 -0.1645
6.0376 2.3312 -0.1652
6.0387 2.3645 -0.1679
6.0509 2.4142 -0.1741
6.0409 2.4682 -0.1763
6.0412 2.5041 -0.1791
6.0419 2.5416 -0.1822
6.0280 2.5553 -0.1805
6.0084 2.5582 -0.1769
5.9871 2.5567 -0.1727
5.9688 2.5588 -0.1693
6.0519 1.3492 -0.0780
6.0543 1.3605 -0.0791
6.0531 1.3731 -0.0798
6.0531 1.3856 -0.0806
6.0564 1.3974 -0.0820
6.0550 1.4107 -0.0826
6.0480 1.4254 -0.0825
6.0454 1.4391 -0.0830
6.0495 1.4517 -0.0845
6.0468 1.4658 -0.0850
6.0474 1.4795 -0.0860
6.0490 1.4934 -0.0872
6.0569 1.5070 -0.0894
6.0454 1.5225 -0.0886
6.0498 1.5371 -0.0903
6.0479 1.5522 -0.0910
6.0427 1.5828 -0.0922
6.0436 1.5986 -0.0934
6.0404 1.6143 -0.0939
6.0482 1.6314 -0.0964
6.0438 1.6474 -0.0967
6.0443 1.6644 -0.0980
6.0477 1.6823 -0.0997
6.0450 1.6993 -0.1005
6.0424 1.7164 -0.1012
6.0406 1.7340 -0.1021
6.0406 1.7524 -0.1033
6.0415 1.7715 -0.1047
6.0538 1.8153 -0.1097
6.0397 1.8293 -0.1083
6.0454 1.8523 -0.1109
6.0456 1.8733 -0.1123
6.0431 1.8931 -0.1132
6.0448 1.9158 -0.1150
6.0421 1.9362 -0.1160
6.0376 1.9557 -0.1165
6.0372 1.9783 -0.1180
6.0384 2.0024 -0.1198
6.0453 2.0316 -0.1229
6.0453 2.0563 -0.1246
6.0425 2.1046 -0.1274
6.0444 2.1327 -0.1296
6.0486 2.1637 -0.1324
6.0401 2.1826 -0.1323
6.0332 2.2030 -0.1325
6.0409 2.2695 -0.1383
6.0411 2.2997 -0.1404
6.0360 2.3240 -0.1411
6.0388 2.3590 -0.1440
6.0434 2.3977 -0.1474
6.0429 2.4302 -0.1495
6.0473 2.5064 -0.1553
6.0455 2.5397 -0.1573
6.0295 2.5498 -0.1553
6.0118 2.5559 -0.1528
5.9733 2.5586 -0.1465
5.9659 2.5806 -0.1468
6.0495 1.3526 -0.0634
6.0509 1.3641 -0.0643
6.0486 1.3770 -0.0647
6.0509 1.4013 -0.0665
6.0553 1.4130 -0.0678
6.0551 1.4261 -0.0685
6.0503 1.4403 -0.0687
6.0477 1.4542 -0.0691
6.0484 1.4676 -0.0700
6.0501 1.4811 -0.0710
6.0474 1.4955 -0.0715
6.0500 1.5095 -0.0727
6.0472 1.5241 -0.0731
6.0528 1.5386 -0.0747
6.0477 1.5537 -0.0749
6.0488 1.5690 -0.0760
6.0436 1.5999 -0.0770
6.0394 1.6154 -0.0774
6.0433 1.6319 -0.0789
6.0470 1.6489 -0.0804
6.0506 1.6663 -0.0819
6.0480 1.6831 -0.0825
6.0419 1.7168 -0.0836
6.0430 1.7351 -0.0849
6.0441 1.7538 -0.0861
6.0384 1.7706 -0.0863
6.0411 1.7905 -0.0878
6.0483 1.8128 -0.0901
6.0470 1.8322 -0.0911
6.0365 1.8475 -0.0905
6.0441 1.8718 -0.0930
6.0443 1.8930 -0.0943
6.0400 1.9119 -0.0948
6.0391 1.9332 -0.0959
6.0424 1.9575 -0.0978
6.0404 1.9789 -0.0988
6.0434 2.0043 -0.1007
6.0520 2.0348 -0.1036
6.0389 2.0488 -0.1026
6.0397 2.0742 -0.1042
6.0412 2.1008 -0.1060
6.0418 2.1272 -0.1076
6.0366 2.1486 -0.1081
6.0361 2.1750 -0.1096
6.0347 2.2009 -0.1109
6.0453 2.3001 -0.1182
6.0476 2.3337 -0.1205
6.0384 2.4509 -0.1261
6.0439 2.4938 -0.1293
6.0422 2.5267 -0.1310
6.0437 2.5657 -0.1335
6.0178 2.5582 -0.1295
5.9964 2.5565 -0.1263
5.9765 2.5560 -0.1235
6.0540 1.3418 -0.0492
6.0495 1.3552 -0.0494
6.0473 1.3678 -0.0497
6.0498 1.3791 -0.0506
6.0499 1.3914 -0.0512
6.0511 1.4036 -0.0519
6.0510 1.4163 -0.0526
6.0497 1.4295 -0.0531
6.0472 1.4431 -0.0535
6.0481 1.4562 -0.0542
6.0478 1.4697 -0.0548
6.0473 1.4835 -0.0555
6.0469 1.4974 -0.0561
6.0452 1.5117 -0.0566
6.0457 1.5259 -0.0574
6.0471 1.5405 -0.0583
6.0485 1.5553 -0.0592
6.0444 1.5704 -0.0594
6.0487 1.5858 -0.0607
6.0466 1.6013 -0.0612
6.0527 1.6178 -0.0627
6.0423 1.6328 -0.0623
6.0431 1.6493 -0.0632
6.0448 1.6662 -0.0642
6.0404 1.6823 -0.0645
6.0439 1.7003 -0.0658
6.0511 1.7197 -0.0676
6.0513 1.7379 -0.0685
6.0408 1.7530 -0.0681
6.0419 1.7719 -0.0691
6.0409 1.7904 -0.0699
6.0426 1.8103 -0.0711
6.0451 1.8311 -0.0724
6.0411 1.8493 -0.0729
6.0425 1.8703 -0.0741
6.0437 1.8918 -0.0753
6.0438 1.9132 -0.0764
6.0369 1.9306 -0.0764
6.0438 1.9571 -0.0785
6.0419 1.9784 -0.0794
6.0416 2.0012 -0.0805
6.0445 2.0270 -0.0821
6.0414 2.0487 -0.0828
6.0366 2.0691 -0.0833
6.0350 2.0926 -0.0842
6.0269 2.1103 -0.0842
6.0355 2.1443 -0.0869
6.0432 2.2063 -0.0908
6.0386 2.2293 -0.0914
6.0415 2.2613 -0.0933
6.0419 2.2913 -0.0949
6.0474 2.3283 -0.0973
6.0562 2.3712 -0.1004
6.0458 2.3893 -0.1002
6.0369 2.4093 -0.1001
6.0253 2.4250 -0.0996
6.0353 2.4736 -0.1031
6.0380 2.5125 -0.1054
6.0357 2.5444 -0.1067
6.0279 2.5675 -0.1069
6.0003 2.5552 -0.1032
5.9784 2.5510 -0.1005
6.0527 1.3448 -0.0352
6.0530 1.3565 -0.0358
6.0509 1.3691 -0.0361
6.0475 1.3822 -0.0363
6.0488 1.3941 -0.0369
6.0489 1.4065 -0.0374
6.0477 1.4194 -0.0378
6.0488 1.4319 -0.0385
6.0521 1.4443 -0.0392
6.0485 1.4582 -0.0395
6.0482 1.4717 -0.0400
6.0456 1.4856 -0.0404
6.0485 1.4991 -0.0412
6.0491 1.5131 -0.0418
6.0485 1.5275 -0.0423
6.0478 1.5421 -0.0429
6.0460 1.5568 -0.0433
6.0442 1.5718 -0.0437
6.0485 1.5872 -0.0448
6.0465 1.6026 -0.0452
6.0445 1.6182 -0.0457
6.0473 1.6509 -0.0472
6.0440 1.6669 -0.0476
6.0456 1.6841 -0.0484
6.0462 1.7014 -0.0492
6.0479 1.7373 -0.0508
6.0471 1.7553 -0.0515
6.0415 1.7719 -0.0517
6.0425 1.7910 -0.0525
6.0425 1.8101 -0.0533
6.0451 1.8308 -0.0544
6.0498 1.8735 -0.0565
6.0402 1.8892 -0.0563
6.0450 1.9129 -0.0577
6.0434 1.9335 -0.0584
6.0442 1.9785 -0.0603
6.0422 2.0000 -0.0610
6.0343 2.0172 -0.0610
6.0431 2.0479 -0.0630
6.0417 2.0710 -0.0638
6.0377 2.0923 -0.0644
6.0447 2.1503 -0.0673
6.0356 2.1676 -0.0672
6.0415 2.2008 -0.0691
6.0440 2.2313 -0.0706
6.0370 2.2518 -0.0708
6.0384 2.2824 -0.0722
6.0421 2.3472 -0.0751
6.0384 2.4053 -0.0772
6.0339 2.4313 -0.0778
6.0469 2.4844 -0.0811
6.0378 2.5049 -0.0812
6.0377 2.5399 -0.0826
6.0387 2.5779 -0.0842
6.0035 2.5527 -0.0801
5.9841 2.5531 -0.0784
6.0537 1.3470 -0.0216
6.0541 1.3586 -0.0220
6.0484 1.3723 -0.0221
6.0487 1.3843 -0.0225
6.0477 1.3967 -0.0228
6.0466 1.4093 -0.0232
6.0514 1.4207 -0.0238
6.0513 1.4335 -0.0242
6.0489 1.4470 -0.0245
6.0488 1.4602 -0.0249
6.0542 1.4728 -0.0257
6.0449 1.4876 -0.0256
6.0490 1.5009 -0.0262
6.0496 1.5148 -0.0267
6.0469 1.5293 -0.0270
6.0441 1.5438 -0.0273
6.0521 1.5583 -0.0283
6.0470 1.5733 -0.0284
6.0536 1.5887 -0.0293
6.0390 1.6033 -0.0289
6.0433 1.6192 -0.0297
6.0454 1.6353 -0.0303
6.0494 1.6521 -0.0311
6.0461 1.6681 -0.0314
6.0488 1.6855 -0.0322
6.0434 1.7014 -0.0323
6.0479 1.7199 -0.0332
6.0467 1.7554 -0.0343
6.0440 1.7729 -0.0346
6.0450 1.7920 -0.0353
6.0375 1.8079 -0.0354
6.0403 1.8283 -0.0362
6.0364 1.8461 -0.0365
6.0394 1.8879 -0.0381
6.0398 1.9090 -0.0388
6.0446 1.9331 -0.0398
6.0411 1.9527 -0.0402
6.0481 1.9797 -0.0415
6.0531 2.0062 -0.0427
6.0417 2.0210 -0.0425
6.0481 2.0498 -0.0438
6.0452 2.0964 -0.0451
6.0508 2.1530 -0.0472
6.0472 2.1761 -0.0478
6.0413 2.1969 -0.0481
6.0415 2.2247 -0.0490
6.0347 2.2449 -0.0492
6.0332 2.2716 -0.0500
6.0421 2.3119 -0.0518
6.0433 2.3435 -0.0529
6.0456 2.3777 -0.0541
6.0442 2.4075 -0.0550
6.0339 2.4251 -0.0549
6.0308 2.4533 -0.0556
6.0332 2.4906 -0.0570
6.0389 2.5343 -0.0587
6.0360 2.5652 -0.0595
6.0107 2.5573 -0.0577
5.9898 2.5553 -0.0564
6.0518 1.3387 -0.0077
6.0474 1.3517 -0.0079
6.0503 1.3624 -0.0082
6.0495 1.3744 -0.0085
6.0534 1.3853 -0.0089
6.0512 1.3981 -0.0091
6.0514 1.4104 -0.0094
6.0491 1.4234 -0.0096
6.0468 1.4366 -0.0099
6.0503 1.4488 -0.0103
6.0456 1.4627 -0.0104
6.0443 1.4761 -0.0107
6.0430 1.4897 -0.0110
6.0472 1.5029 -0.0114
6.0457 1.5169 -0.0117
6.0496 1.5308 -0.0122
6.0491 1.5452 -0.0125
6.0528 1.5598 -0.0130
6.0456 1.5747 -0.0130
6.0448 1.5897 -0.0134
6.0451 1.6050 -0.0137
6.0494 1.6209 -0.0143
6.0442 1.6362 -0.0144
6.0461 1.6690 -0.0153
6.0429 1.6850 -0.0155
6.0466 1.7028 -0.0161
6.0472 1.7203 -0.0165
6.0457 1.7375 -0.0169
6.0481 1.7561 -0.0174
6.0425 1.7725 -0.0176
6.0456 1.7922 -0.0182
6.0419 1.8096 -0.0184
6.0447 1.8300 -0.0190
6.0464 1.8505 -0.0196
6.0425 1.8685 -0.0198
6.0394 1.8872 -0.0202
6.0448 1.9322 -0.0214
6.0423 1.9522 -0.0218
6.0407 1.9731 -0.0222
6.0371 2.0156 -0.0231
6.0403 2.0414 -0.0238
6.0475 2.0713 -0.0248
6.0428 2.0917 -0.0251
6.0396 2.1138 -0.0255
6.0420 2.1675 -0.0268
6.0327 2.2111 -0.0275
6.0478 2.2559 -0.0291
6.0386 2.2736 -0.0292
6.0461 2.3121 -0.0304
6.0421 2.3369 -0.0308
6.0461 2.3729 -0.0318
6.0455 2.4036 -0.0325
6.0396 2.4273 -0.0328
6.0394 2.4598 -0.0336
6.0348 2.4862 -0.0340
6.0302 2.5128 -0.0345
6.0385 2.5617 -0.0360
6.0165 2.5595 -0.0351
5.9956 2.5575 -0.0343
6.0590 1.3387 0.0055
6.0533 1.3522 0.0053
6.0464 1.3661 0.0052
6.0505 1.3765 0.0050
6.0509 1.3883 0.0048
6.0524 1.4001 0.0046
6.0550 1.4118 0.0044
6.0504 1.4253 0.0043
6.0458 1.4389 0.0041
6.0435 1.4521 0.0040
6.0492 1.4641 0.0037
6.0455 1.4912 0.0033
6.0453 1.5048 0.0031
6.0461 1.5185 0.0029
6.0479 1.5325 0.0027
6.0485 1.5468 0.0025
6.0469 1.5613 0.0023
6.0452 1.5760 0.0021
6.0466 1.5911 0.0018
6.0459 1.6062 0.0016
6.0450 1.6216 0.0014
6.0420 1.6370 0.0012
6.0545 1.6548 0.0008
6.0533 1.6711 0.0005
6.0491 1.6870 0.0004
6.0478 1.7037 0.0001
6.0444 1.7200 -0.0001
6.0391 1.7359 -0.0003
6.0455 1.7556 -0.0006
6.0478 1.7745 -0.0009
6.0461 1.7924 -0.0012
6.0434 1.8101 -0.0014
6.0463 1.8304 -0.0018
6.0406 1.8473 -0.0020
6.0349 1.8641 -0.0021
6.0412 1.8874 -0.0026
6.0427 1.9088 -0.0029
6.0449 1.9312 -0.0033
6.0461 1.9534 -0.0036
6.0315 1.9872 -0.0040
6.0449 2.0668 -0.0053
6.0427 2.0892 -0.0056
6.0413 2.1126 -0.0060
6.0407 2.1372 -0.0063
6.0366 2.1588 -0.0066
6.0381 2.1866 -0.0070
6.0387 2.2140 -0.0074
6.0398 2.2427 -0.0079
6.0401 2.2711 -0.0083
6.0370 2.2961 -0.0087
6.0339 2.3214 -0.0090
6.0373 2.4179 -0.0105
6.0409 2.4555 -0.0111
6.0349 2.4796 -0.0114
6.0318 2.5082 -0.0118
6.0446 2.5639 -0.0128
6.0313 2.5772 -0.0128
6.0026 2.5621 -0.0123
5.9866 2.5677 -0.0122
6.0505 1.3330 0.0187
6.0474 1.3454 0.0186
6.0518 1.3552 0.0186
6.0495 1.3910 0.0183
6.0487 1.4033 0.0182
6.0502 1.4151 0.0181
6.0539 1.4267 0.0181
6.0482 1.4405 0.0179
6.0459 1.4537 0.0178
6.0448 1.4668 0.0177
6.0471 1.4795 0.0177
6.0481 1.4928 0.0176
6.0490 1.5062 0.0175
6.0487 1.5201 0.0174
6.0450 1.5342 0.0173
6.0424 1.5484 0.0171
6.0496 1.5628 0.0171
6.0473 1.5924 0.0169
6.0466 1.6075 0.0168
6.0458 1.6228 0.0167
6.0502 1.6390 0.0166
6.0430 1.6539 0.0164
6.0461 1.6706 0.0164
6.0440 1.6867 0.0162
6.0499 1.7048 0.0162
6.0446 1.7205 0.0160
6.0452 1.7381 0.0159
6.0448 1.7556 0.0158
6.0394 1.7716 0.0156
6.0391 1.8081 0.0154
6.0403 1.8274 0.0152
6.0441 1.8485 0.0151
6.0422 1.8672 0.0150
6.0374 1.8846 0.0148
6.0418 1.9074 0.0147
6.0423 1.9285 0.0146
6.0400 1.9482 0.0144
6.0430 1.9718 0.0143
6.0432 1.9940 0.0142
6.0362 2.0113 0.0139
6.0432 2.0396 0.0138
6.0460 2.0896 0.0135
6.0472 2.1153 0.0134
6.0335 2.1526 0.0130
6.0375 2.2089 0.0126
6.0372 2.2357 0.0125
6.0344 2.2601 0.0123
6.0385 2.2934 0.0121
6.0363 2.3195 0.0119
6.0407 2.3551 0.0117
6.0359 2.3790 0.0115
6.0386 2.4458 0.0111
6.0393 2.4795 0.0108
6.0305 2.4991 0.0106
6.0287 2.5301 0.0104
6.0317 2.5700 0.0101
6.0152 2.5765 0.0099
5.9949 2.5749 0.0096
6.0551 1.3339 0.0317
6.0533 1.3458 0.0317
6.0515 1.3577 0.0316
6.0483 1.3702 0.0315
6.0477 1.3821 0.0315
6.0494 1.3934 0.0316
6.0525 1.4168 0.0317
6.0575 1.4281 0.0319
6.0494 1.4424 0.0317
6.0460 1.4557 0.0315
6.0531 1.4674 0.0318
6.0519 1.4808 0.0318
6.0472 1.4947 0.0316
6.0516 1.5078 0.0318
6.0479 1.5218 0.0317
6.0454 1.5358 0.0316
6.0462 1.5499 0.0317
6.0491 1.5642 0.0318
6.0485 1.5789 0.0318
6.0419 1.6083 0.0316
6.0551 1.6249 0.0321
6.0468 1.6396 0.0318
6.0438 1.6550 0.0318
6.0418 1.6706 0.0317
6.0510 1.7056 0.0321
6.0426 1.7205 0.0318
6.0434 1.7379 0.0319
6.0431 1.7553 0.0319
6.0436 1.7732 0.0319
6.0415 1.8090 0.0319
6.0379 1.8261 0.0318
6.0400 1.8461 0.0319
6.0419 1.8665 0.0320
6.0409 1.8858 0.0320
6.0417 1.9064 0.0321
6.0392 1.9464 0.0320
6.0423 1.9699 0.0322
6.0417 1.9914 0.0322
6.0348 2.0085 0.0319
6.0393 2.0345 0.0322
6.0392 2.0576 0.0322
6.0501 2.0907 0.0326
6.0412 2.1072 0.0323
6.0407 2.1315 0.0323
6.0410 2.1569 0.0324
6.0378 2.1794 0.0323
6.0448 2.2404 0.0327
6.0420 2.2649 0.0326
6.0408 2.2916 0.0326
6.0394 2.3186 0.0326
6.0362 2.3738 0.0325
6.0411 2.4116 0.0328
6.0480 2.4534 0.0331
6.0450 2.4817 0.0330
6.0391 2.5058 0.0328
6.0345 2.5323 0.0327
6.0313 2.5615 0.0326
6.0086 2.5567 0.0318
6.0491 1.3497 0.0443
6.0511 1.3603 0.0445
6.0493 1.3723 0.0445
6.0498 1.3837 0.0446
6.0528 1.3947 0.0449
6.0508 1.4072 0.0449
6.0488 1.4198 0.0449
6.0539 1.4310 0.0453
6.0506 1.4442 0.0453
6.0448 1.4578 0.0450
6.0485 1.4701 0.0454
6.0474 1.4832 0.0454
6.0474 1.4964 0.0456
6.0461 1.5099 0.0456
6.0483 1.5234 0.0459
6.0525 1.5371 0.0463
6.0432 1.5514 0.0458
6.0473 1.5656 0.0462
6.0436 1.5800 0.0461
6.0431 1.5947 0.0462
6.0447 1.6097 0.0465
6.0483 1.6253 0.0469
6.0497 1.6410 0.0471
6.0393 1.6551 0.0466
6.0437 1.6718 0.0470
6.0469 1.6887 0.0474
6.0459 1.7050 0.0475
6.0478 1.7223 0.0478
6.0486 1.7398 0.0480
6.0442 1.7559 0.0479
6.0399 1.7720 0.0477
6.0414 1.7905 0.0480
6.0438 1.8098 0.0483
6.0441 1.8286 0.0485
6.0376 1.8445 0.0483
6.0397 1.8648 0.0486
6.0407 1.8849 0.0489
6.0425 1.9060 0.0492
6.0413 1.9258 0.0493
6.0488 1.9729 0.0502
6.0410 1.9893 0.0499
6.0359 2.0076 0.0498
6.0361 2.0301 0.0500
6.0440 2.0594 0.0507
6.0419 2.1052 0.0510
6.0381 2.1262 0.0510
6.0410 2.1539 0.0515
6.0445 2.1831 0.0519
6.0363 2.2006 0.0516
6.0452 2.2370 0.0525
6.0401 2.2585 0.0524
6.0358 2.2811 0.0524
6.0338 2.3069 0.0525
6.0340 2.3360 0.0528
6.0378 2.3707 0.0533
6.0414 2.4062 0.0539
6.0427 2.4716 0.0546
6.0361 2.4943 0.0544
6.0374 2.5299 0.0548
6.0300 2.5517 0.0546
6.0142 2.5589 0.0537
6.0516 1.3401 0.0569
6.0525 1.3510 0.0572
6.0482 1.3636 0.0570
6.0514 1.3740 0.0575
6.0508 1.3857 0.0576
6.0513 1.3973 0.0579
6.0469 1.4103 0.0577
6.0486 1.4220 0.0581
6.0478 1.4343 0.0582
6.0469 1.4469 0.0584
6.0507 1.4588 0.0589
6.0497 1.4718 0.0590
6.0451 1.4853 0.0589
6.0510 1.4978 0.0596
6.0486 1.5114 0.0597
6.0485 1.5250 0.0599
6.0472 1.5389 0.0600
6.0458 1.5529 0.0601
6.0466 1.5670 0.0605
6.0440 1.5814 0.0605
6.0513 1.5964 0.0614
6.0475 1.6111 0.0613
6.0501 1.6265 0.0618
6.0472 1.6416 0.0618
6.0464 1.6572 0.0620
6.0435 1.6725 0.0620
6.0457 1.6891 0.0625
6.0478 1.7060 0.0630
6.0478 1.7228 0.0633
6.0497 1.7404 0.0637
6.0444 1.7561 0.0636
6.0440 1.7736 0.0639
6.0486 1.7933 0.0646
6.0442 1.8098 0.0645
6.0406 1.8268 0.0645
6.0468 1.8485 0.0654
6.0488 1.8689 0.0659
6.0337 1.8805 0.0649
6.0394 1.9034 0.0657
6.0384 1.9230 0.0660
6.0364 1.9422 0.0662
6.0429 1.9891 0.0675
6.0379 2.0073 0.0674
6.0408 2.0319 0.0681
6.0453 2.0584 0.0689
6.0435 2.0803 0.0692
6.0425 2.1032 0.0695
6.0447 2.1296 0.0701
6.0485 2.1583 0.0710
6.0471 2.1824 0.0713
6.0340 2.1945 0.0704
6.0421 2.2568 0.0722
6.0391 2.3089 0.0728
6.0362 2.3339 0.0730
6.0378 2.3655 0.0737
6.0347 2.3913 0.0739
6.0398 2.4293 0.0750
6.0394 2.4603 0.0755
6.0411 2.4953 0.0762
6.0374 2.5227 0.0764
6.0372 2.5563 0.0770
6.0199 2.5611 0.0756
6.0524 1.3423 0.0694
6.0481 1.3548 0.0693
6.0515 1.3649 0.0699
6.0523 1.3760 0.0703
6.0504 1.3881 0.0704
6.0473 1.4006 0.0704
6.0454 1.4129 0.0705
6.0472 1.4244 0.0710
6.0513 1.4357 0.0717
6.0468 1.4489 0.0715
6.0459 1.4615 0.0718
6.0474 1.4740 0.0722
6.0475 1.4868 0.0726
6.0429 1.5004 0.0724
6.0523 1.5128 0.0738
6.0498 1.5403 0.0742
6.0473 1.5543 0.0743
6.0489 1.5829 0.0752
6.0496 1.5975 0.0756
6.0453 1.6270 0.0759
6.0446 1.6422 0.0762
6.0504 1.6587 0.0772
6.0464 1.6738 0.0772
6.0466 1.6899 0.0776
6.0425 1.7053 0.0776
6.0457 1.7227 0.0784
6.0456 1.7396 0.0788
6.0414 1.7554 0.0787
6.0402 1.7724 0.0790
6.0439 1.7914 0.0799
6.0415 1.8085 0.0801
6.0439 1.8280 0.0808
6.0494 1.8686 0.0825
6.0428 1.8847 0.0822
6.0438 1.9051 0.0828
6.0391 1.9224 0.0827
6.0408 1.9439 0.0835
6.0434 1.9665 0.0843
6.0394 1.9851 0.0843
6.0425 2.0091 0.0853
6.0384 2.0280 0.0853
6.0404 2.0753 0.0867
6.0445 2.1267 0.0885
6.0442 2.1510 0.0891
6.0496 2.1818 0.0904
6.0340 2.1911 0.0890
6.0424 2.2263 0.0908
6.0400 2.2503 0.0911
6.0372 2.3020 0.0921
6.0336 2.3258 0.0924
6.0393 2.3623 0.0939
6.0348 2.3858 0.0940
6.0370 2.4193 0.0951
6.0420 2.4580 0.0966
6.0393 2.4860 0.0970
6.0365 2.5143 0.0975
6.0401 2.5537 0.0988
6.0270 2.5657 0.0977
6.0531 1.3445 0.0819
6.0489 1.3570 0.0817
6.0523 1.3670 0.0825
6.0518 1.3785 0.0828
6.0563 1.3887 0.0837
6.0532 1.4012 0.0838
6.0513 1.4136 0.0839
6.0494 1.4260 0.0841
6.0535 1.4372 0.0850
6.0479 1.4507 0.0847
6.0482 1.4631 0.0851
6.0473 1.4758 0.0855
6.0463 1.4888 0.0858
6.0465 1.5017 0.0862
6.0431 1.5152 0.0862
6.0478 1.5283 0.0872
6.0466 1.5419 0.0875
6.0476 1.5557 0.0881
6.0496 1.5698 0.0889
6.0471 1.5841 0.0890
6.0445 1.5984 0.0891
6.0408 1.6128 0.0891
6.0458 1.6281 0.0903
6.0485 1.6437 0.0912
6.0414 1.6581 0.0907
6.0418 1.6737 0.0913
6.0484 1.6910 0.0927
6.0454 1.7066 0.0928
6.0435 1.7226 0.0931
6.0414 1.7387 0.0934
6.0465 1.7573 0.0947
6.0433 1.7736 0.0948
6.0420 1.7907 0.0952
6.0507 1.8122 0.0970
6.0373 1.8248 0.0957
6.0427 1.8458 0.0971
6.0441 1.8653 0.0979
6.0453 1.8853 0.0987
6.0463 1.9057 0.0996
6.0388 1.9212 0.0991
6.0444 1.9450 0.1006
6.0470 1.9676 0.1017
6.0490 2.0122 0.1034
6.0466 2.0326 0.1038
6.0379 2.0482 0.1032
6.0390 2.0718 0.1041
6.0380 2.1421 0.1063
6.0482 2.2028 0.1096
6.0435 2.2504 0.1106
6.0426 2.2765 0.1113
6.0424 2.3040 0.1122
6.0381 2.3268 0.1124
6.0431 2.3623 0.1143
6.0401 2.3879 0.1147
6.0455 2.4258 0.1167
6.0352 2.4731 0.1169
6.0333 2.5023 0.1176
6.0378 2.5426 0.1195
6.0342 2.5703 0.1200
6.0486 1.3485 0.0934
6.0457 1.3604 0.0935
6.0466 1.3711 0.0941
6.0488 1.3816 0.0948
6.0496 1.3928 0.0954
6.0491 1.4045 0.0958
6.0510 1.4157 0.0966
6.0479 1.4284 0.0966
6.0484 1.4403 0.0972
6.0477 1.4526 0.0976
6.0481 1.4650 0.0981
6.0484 1.4775 0.0987
6.0465 1.5034 0.0995
6.0467 1.5166 0.1000
6.0479 1.5298 0.1007
6.0421 1.5436 0.1004
6.0421 1.5572 0.1010
6.0442 1.5711 0.1019
6.0441 1.5852 0.1024
6.0449 1.5996 0.1031
6.0412 1.6139 0.1031
6.0452 1.6291 0.1044
6.0469 1.6444 0.1053
6.0500 1.6760 0.1070
6.0481 1.6916 0.1074
6.0431 1.7066 0.1072
6.0443 1.7232 0.1081
6.0444 1.7399 0.1088
6.0516 1.7592 0.1107
6.0453 1.7744 0.1103
6.0421 1.7907 0.1105
6.0408 1.8080 0.1110
6.0435 1.8272 0.1122
6.0381 1.8432 0.1120
6.0484 1.8670 0.1145
6.0457 1.8849 0.1149
6.0440 1.9035 0.1154
6.0403 1.9212 0.1155
6.0423 1.9426 0.1167
6.0440 1.9644 0.1179
6.0438 1.9853 0.1187
6.0449 2.0295 0.1206
6.0462 2.0529 0.1218
6.0464 2.0759 0.1228
6.0421 2.0954 0.1229
6.0430 2.1199 0.1240
6.0446 2.1456 0.1253
6.0418 2.1675 0.1258
6.0389 2.1896 0.1262
6.0426 2.2192 0.1280
6.0337 2.2353 0.1273
6.0477 2.2784 0.1312
6.0441 2.3298 0.1328
6.0413 2.3549 0.1334
6.0385 2.3802 0.1339
6.0386 2.4103 0.1352
6.0317 2.4306 0.1350
6.0354 2.4671 0.1370
6.0351 2.4985 0.1383
6.0376 2.5351 0.1401
6.0384 2.5700 0.1417
6.0515 1.3607 0.1064
6.0499 1.3723 0.1067
6.0483 1.3840 0.1070
6.0504 1.3948 0.1079
6.0499 1.4064 0.1084
6.0557 1.4167 0.1099
6.0513 1.4297 0.1097
6.0519 1.4416 0.1104
6.0462 1.4548 0.1101
6.0479 1.4669 0.1109
6.0483 1.4793 0.1116
6.0486 1.4920 0.1123
6.0453 1.5052 0.1123
6.0514 1.5178 0.1140
6.0492 1.5313 0.1143
6.0434 1.5450 0.1139
6.0434 1.5586 0.1146
6.0456 1.5725 0.1156
6.0466 1.5866 0.1165
6.0475 1.6010 0.1173
6.0461 1.6154 0.1178
6.0479 1.6304 0.1188
6.0453 1.6451 0.1191
6.0469 1.6606 0.1201
6.0420 1.6752 0.1200
6.0424 1.6910 0.1208
6.0417 1.7068 0.1214
6.0420 1.7230 0.1223
6.0379 1.7383 0.1223
6.0453 1.7574 0.1245
6.0463 1.7749 0.1255
6.0493 1.7935 0.1269
6.0450 1.8096 0.1270
6.0437 1.8271 0.1276
6.0423 1.8448 0.1282
6.0369 1.8607 0.1280
6.0413 1.8818 0.1298
6.0426 1.9019 0.1310
6.0428 1.9217 0.1320
6.0410 1.9406 0.1326
6.0401 1.9604 0.1334
6.0474 1.9863 0.1359
6.0462 2.0069 0.1367
6.0505 2.0319 0.1387
6.0418 2.0473 0.1379
6.0422 2.0701 0.1391
6.0397 2.0909 0.1396
6.0364 2.1111 0.1400
6.0466 2.1693 0.1446
6.0438 2.1914 0.1452
6.0450 2.2184 0.1467
6.0428 2.2420 0.1475
6.0438 2.2697 0.1490
6.0381 2.2900 0.1490
6.0397 2.3195 0.1507
6.0378 2.3453 0.1516
6.0375 2.3736 0.1529
6.0362 2.4013 0.1540
6.0302 2.4225 0.1540
6.0340 2.4588 0.1564
6.0369 2.4947 0.1586
6.0426 2.5697 0.1633
6.0317 2.5849 0.1621
6.0496 1.3637 0.1181
6.0506 1.3744 0.1189
6.0490 1.3860 0.1192
6.0499 1.3971 0.1200
6.0495 1.4086 0.1206
6.0502 1.4201 0.1214
6.0497 1.4320 0.1219
6.0491 1.4441 0.1225
6.0459 1.4568 0.1226
6.0502 1.4684 0.1241
6.0494 1.4810 0.1246
6.0521 1.4934 0.1258
6.0476 1.5067 0.1257
6.0479 1.5197 0.1265
6.0457 1.5330 0.1268
6.0458 1.5464 0.1275
6.0447 1.5600 0.1281
6.0458 1.5738 0.1291
6.0480 1.5879 0.1303
6.0478 1.6022 0.1311
6.0453 1.6164 0.1314
6.0461 1.6312 0.1323
6.0469 1.6463 0.1333
6.0486 1.6617 0.1345
6.0456 1.7083 0.1365
6.0470 1.7248 0.1377
6.0430 1.7401 0.1378
6.0421 1.7565 0.1385
6.0442 1.7742 0.1399
6.0452 1.7919 0.1411
6.0430 1.8086 0.1416
6.0458 1.8278 0.1432
6.0435 1.8449 0.1437
6.0401 1.8618 0.1440
6.0377 1.8792 0.1445
6.0462 1.9228 0.1486
6.0482 1.9441 0.1502
6.0379 1.9577 0.1489
6.0351 1.9762 0.1494
6.0434 2.0031 0.1525
6.0423 2.0680 0.1559
6.0408 2.0895 0.1568
6.0437 2.1154 0.1588
6.0455 2.1409 0.1606
6.0446 2.1642 0.1617
6.0381 2.2073 0.1629
6.0397 2.2609 0.1662
6.0350 2.2819 0.1664
6.0342 2.3081 0.1677
6.0326 2.3336 0.1688
6.0364 2.3670 0.1714
6.0376 2.3978 0.1734
6.0425 2.4347 0.1764
6.0317 2.4493 0.1751
6.0287 2.4754 0.1759
6.0308 2.5103 0.1783
6.0403 2.5922 0.1847
6.0570 1.3526 0.1307
6.0515 1.3653 0.1303
6.0539 1.3756 0.1315
6.0523 1.3872 0.1319
6.0455 1.4004 0.1312
6.0528 1.4099 0.1334
6.0485 1.4225 0.1333
6.0493 1.4341 0.1342
6.0506 1.4579 0.1360
6.0462 1.4708 0.1358
6.0492 1.4828 0.1372
6.0472 1.4956 0.1376
6.0475 1.5083 0.1385
6.0454 1.5214 0.1388
6.0481 1.5344 0.1402
6.0459 1.5478 0.1406
6.0389 1.5613 0.1399
6.0472 1.5751 0.1426
6.0459 1.5890 0.1432
6.0458 1.6032 0.1441
6.0491 1.6179 0.1457
6.0473 1.6472 0.1472
6.0447 1.6619 0.1475
6.0442 1.6771 0.1484
6.0447 1.6928 0.1495
6.0463 1.7090 0.1509
6.0456 1.7249 0.1517
6.0437 1.7407 0.1523
6.0439 1.7574 0.1534
6.0430 1.7739 0.1542
6.0430 1.7911 0.1553
6.0440 1.8089 0.1567
6.0469 1.8280 0.1585
6.0477 1.8465 0.1598
6.0393 1.8609 0.1589
6.0434 1.9007 0.1623
6.0427 1.9198 0.1634
6.0403 1.9581 0.1653
6.0413 1.9792 0.1668
6.0394 1.9987 0.1676
6.0393 2.0198 0.1689
6.0400 2.0419 0.1705
6.0433 2.0667 0.1728
6.0419 2.0881 0.1738
6.0449 2.1139 0.1761
6.0512 2.1435 0.1793
6.0468 2.1635 0.1796
6.0404 2.2064 0.1809
6.0384 2.2296 0.1820
6.0338 2.2501 0.1823
6.0325 2.2747 0.1835
6.0335 2.3028 0.1855
6.0368 2.3345 0.1882
6.0367 2.3625 0.1900
6.0388 2.3942 0.1924
6.0384 2.4231 0.1942
6.0386 2.4536 0.1961
6.0325 2.4751 0.1961
6.0393 2.5173 0.2003
6.0497 2.6007 0.2078
5.9821 0.9427 0.1157
5.9844 0.9434 0.1039
5.9753 0.9369 0.1048
5.9725 0.9255 0.1072
5.9671 0.9155 0.1091
5.9634 0.9038 0.1115
5.9532 0.8969 0.1123
5.9439 0.8891 0.1135
5.9428 0.8736 0.1169
5.9328 0.8656 0.1180
5.9261 0.8541 0.1202
5.9208 0.8406 0.1229
5.9099 0.8323 0.1240
5.9020 0.8204 0.1262
5.8913 0.8110 0.1276
5.8903 0.7897 0.1323
5.8795 0.7791 0.1340
5.8697 0.7665 0.1362
5.8603 0.7528 0.1386
5.8523 0.7362 0.1418
5.8406 0.7241 0.1438
5.8339 0.7032 0.1481
5.8217 0.6898 0.1502
5.8091 0.6763 0.1524
5.7998 0.6557 0.1565
5.7857 0.6428 0.1584
5.7745 0.6228 0.1622
5.7630 0.6015 0.1662
4.7263 -0.5034 0.3448
5.9787 0.9497 0.0903
5.9752 0.9392 0.0923
5.9702 0.9295 0.0939
5.9701 0.9156 0.0968
5.9632 0.9063 0.0983
5.9580 0.8953 0.1002
5.9504 0.8858 0.1017
5.9435 0.8754 0.1034
5.9316 0.8691 0.1039
5.9249 0.8576 0.1059
5.9229 0.8408 0.1092
5.9136 0.8307 0.1107
5.9063 0.8178 0.1129
5.8994 0.8039 0.1153
5.8889 0.7935 0.1168
5.8825 0.7774 0.1197
5.8733 0.7640 0.1219
5.8602 0.7549 0.1229
5.8528 0.7374 0.1261
5.8441 0.7206 0.1290
5.8294 0.7122 0.1298
5.8230 0.6893 0.1341
5.8092 0.6777 0.1356
5.7956 0.6650 0.1374
5.7870 0.6413 0.1417
5.7747 0.6233 0.1446
4.7645 -0.4677 0.3055
4.7264 -0.4864 0.3069
5.9911 0.9561 0.0779
5.9900 0.9443 0.0800
5.9785 0.9393 0.0803
5.9723 0.9303 0.0816
5.9700 0.9180 0.0837
5.9600 0.9112 0.0844
5.9558 0.8995 0.0863
5.9492 0.8892 0.0878
5.9479 0.8738 0.0906
5.9367 0.8666 0.0913
5.9307 0.8543 0.0932
5.9225 0.8435 0.0948
5.9148 0.8317 0.0965
5.9082 0.8180 0.0986
5.8957 0.8104 0.0993
5.8920 0.7919 0.1025
5.8796 0.7831 0.1035
5.8683 0.7725 0.1048
5.8588 0.7589 0.1067
5.8401 0.7285 0.1113
5.8350 0.7050 0.1153
5.8238 0.6897 0.1175
5.8109 0.6762 0.1193
5.7981 0.6616 0.1212
4.9504 -0.1794 0.2284
4.8042 -0.4272 0.2658
4.7587 -0.4655 0.2703
4.7231 -0.4775 0.2705
5.9969 0.9547 0.0664
5.9889 0.9474 0.0671
5.9807 0.9401 0.0679
5.9819 0.9257 0.0703
5.9709 0.9197 0.0707
5.9608 0.9129 0.0714
5.9516 0.9052 0.0721
5.9547 0.8869 0.0753
5.9485 0.8757 0.0768
5.9373 0.8685 0.0774
5.9303 0.8570 0.0789
5.9238 0.8446 0.0806
5.9143 0.8345 0.0817
5.9029 0.8261 0.0825
5.8990 0.8088 0.0851
5.8907 0.7958 0.0869
5.8711 0.7709 0.0899
5.8647 0.7528 0.0925
5.8538 0.7400 0.0941
5.8430 0.7261 0.0958
5.8352 0.7064 0.0986
5.8174 0.6662 0.1042
5.7986 0.6621 0.1040
5.7891 0.6396 0.1071
5.7732 0.6285 0.1082
4.9582 -0.2230 0.2061
4.9441 -0.1821 0.1988
4.8085 -0.3988 0.2272
4.7607 -0.4434 0.2321
4.7555 -0.3824 0.2220
5.9877 0.9506 0.0543
5.9773 0.9448 0.0546
5.9753 0.9328 0.0562
5.9728 0.9207 0.0578
5.9657 0.9115 0.0588
5.9573 0.9030 0.0596
5.9544 0.8895 0.0614
5.9463 0.8800 0.0624
5.9387 0.8695 0.0635
5.9352 0.8547 0.0654
5.9199 0.8507 0.0653
5.9138 0.8373 0.0669
5.9071 0.8238 0.0686
5.9000 0.8100 0.0702
5.8885 0.8005 0.0710
5.8761 0.7918 0.0717
5.8732 0.7704 0.0746
5.8660 0.7532 0.0766
5.8561 0.7386 0.0783
5.8421 0.7293 0.0790
5.8246 0.6917 0.0835
5.8137 0.6745 0.0854
5.8016 0.6579 0.0872
5.7914 0.6364 0.0898
5.2440 -0.3319 0.2016
4.9954 -0.0928 0.1584
4.9724 -0.0846 0.1563
4.9403 -0.1034 0.1576
4.9177 -0.0963 0.1557
4.8927 -0.0967 0.1548
4.8681 -0.0971 0.1538
4.8455 -0.0934 0.1524
6.0003 0.9572 0.0415
5.9888 0.9522 0.0417
5.9838 0.9427 0.0426
5.9752 0.9353 0.0432
5.9737 0.9224 0.0446
5.9655 0.9140 0.0453
5.9660 0.8984 0.0471
5.9542 0.8922 0.0474
5.9469 0.8819 0.0484
5.9402 0.8706 0.0495
5.9321 0.8600 0.0504
5.9220 0.8510 0.0511
5.9141 0.8393 0.0522
5.9090 0.8241 0.0538
5.8970 0.8155 0.0544
5.8879 0.8035 0.0555
5.8804 0.7886 0.0570
5.8696 0.7771 0.0579
5.8658 0.7555 0.0603
5.8572 0.7391 0.0619
5.8247 0.6933 0.0661
5.8142 0.6751 0.0679
5.7878 0.6448 0.0705
5.2521 -0.2356 0.1544
4.7411 -0.3851 0.1548
5.9933 0.9517 0.0292
5.9870 0.9429 0.0299
5.9762 0.9370 0.0301
5.9725 0.9257 0.0311
5.9724 0.9111 0.0324
5.9637 0.9026 0.0330
5.9548 0.8940 0.0335
5.9447 0.8862 0.0340
5.9461 0.8676 0.0358
5.9308 0.8636 0.0357
5.9177 0.8379 0.0378
5.9100 0.8253 0.0387
5.9003 0.8142 0.0395
5.8887 0.8047 0.0401
5.8826 0.7881 0.0415
5.8737 0.7739 0.0425
5.8650 0.7587 0.0437
5.8551 0.7442 0.0448
5.8476 0.7249 0.0464
5.8231 0.6976 0.0483
5.8115 0.6814 0.0495
5.7988 0.6660 0.0506
5.7875 0.6465 0.0521
5.7737 0.6307 0.0532
4.8660 -0.5526 0.1392
4.8069 -0.5233 0.1350
4.7743 -0.5209 0.1340
4.7453 -0.5105 0.1323
5.9981 0.9636 0.0157
5.9943 0.9534 0.0163
5.9848 0.9469 0.0166
5.9814 0.9357 0.0173
5.9693 0.9306 0.0174
5.9672 0.9176 0.0183
5.9635 0.9053 0.0190
5.9526 0.8983 0.0193
5.9462 0.8873 0.0200
5.9394 0.8761 0.0206
5.9339 0.8631 0.0214
5.9253 0.8525 0.0220
5.9205 0.8375 0.0229
5.9087 0.8291 0.0233
5.8989 0.8180 0.0239
5.8896 0.8060 0.0245
5.8869 0.7851 0.0259
5.8778 0.7709 0.0267
5.8649 0.7610 0.0272
5.8536 0.7483 0.0279
5.8455 0.7301 0.0290
5.8384 0.7088 0.0303
5.8232 0.6992 0.0307
5.8136 0.6794 0.0319
5.8002 0.6648 0.0326
5.7883 0.6464 0.0337
5.7779 0.6229 0.0351
6.2547 -2.6150 0.2632
6.0375 -3.3879 0.3121
5.1326 -1.0437 0.1375
5.0477 -1.2589 0.1507
4.9531 -0.7676 0.1157
4.9410 -0.6551 0.1078
4.8744 -0.6209 0.1044
4.8330 -0.6348 0.1046
4.7886 -0.6576 0.1054
4.7402 -0.6905 0.1068
4.6948 -0.7136 0.1076
4.5253 -0.8562 0.1145
5.9980 0.9660 0.0028
5.9898 0.9588 0.0031
5.9868 0.9479 0.0035
5.9834 0.9368 0.0040
5.9732 0.9301 0.0042
5.9679 0.9195 0.0046
5.9652 0.9064 0.0051
5.9453 0.8732 0.0064
5.9361 0.8635 0.0068
5.9282 0.8520 0.0072
5.9200 0.8404 0.0076
5.9089 0.8312 0.0079
5.9014 0.8176 0.0085
5.8963 0.8005 0.0092
5.8805 0.7951 0.0093
5.8654 0.7625 0.0106
5.8552 0.7480 0.0111
5.8427 0.7361 0.0115
5.8316 0.7213 0.0121
5.8239 0.7000 0.0130
5.8094 0.6885 0.0133
5.8006 0.6657 0.0143
5.7880 0.6482 0.0149
5.7766 0.6267 0.0158
5.7622 0.6097 0.0164
6.3015 -2.8657 0.1735
5.7975 -3.4987 0.1969
5.6791 -3.5386 0.1976
5.4423 -3.6183 0.1990
5.0289 -1.3283 0.0949
4.8486 -0.6830 0.0651
4.7964 -0.7260 0.0665
4.5744 -1.1284 0.0822
4.5724 -1.0154 0.0772
4.5084 -1.0701 0.0790
4.4802 -1.0354 0.0773
4.4636 -0.9781 0.0746
4.4272 -0.9705 0.0740
6.0014 0.9663 -0.0100
5.9942 0.9584 -0.0099
5.9900 0.9482 -0.0097
5.9801 0.9416 -0.0096
5.9720 0.9334 -0.0094
5.9697 0.9206 -0.0092
5.9659 0.9083 -0.0089
5.9568 0.8998 -0.0088
5.9520 0.8872 -0.0085
5.9391 0.8632 -0.0081
5.9294 0.8533 -0.0079
5.9178 0.8450 -0.0077
5.9122 0.8300 -0.0074
5.9007 0.8207 -0.0073
5.8875 0.8129 -0.0071
5.8883 0.7880 -0.0066
5.8762 0.7773 -0.0064
5.8665 0.7631 -0.0062
5.8556 0.7496 -0.0059
5.8467 0.7323 -0.0056
5.8347 0.7184 -0.0053
5.8212 0.7062 -0.0051
5.8078 0.6929 -0.0048
5.8014 0.6656 -0.0043
5.7925 0.6407 -0.0038
5.7762 0.6286 -0.0036
6.3669 -2.6623 0.0606
6.3554 -3.1538 0.0702
5.8994 -3.3687 0.0741
5.7868 -3.4691 0.0760
5.0785 -1.3277 0.0340
4.4966 -1.4579 0.0362
4.3813 -1.6315 0.0395
4.2787 -1.7569 0.0419
4.2228 -1.7571 0.0419
5.9975 0.9588 -0.0231
5.9920 0.9493 -0.0231
5.9862 0.9398 -0.0231
5.9770 0.9323 -0.0231
5.9685 0.9240 -0.0231
5.9646 0.9118 -0.0231
5.9602 0.8994 -0.0231
5.9544 0.8877 -0.0232
5.9427 0.8805 -0.0231
5.9360 0.8684 -0.0231
5.9348 0.8506 -0.0232
5.9221 0.8431 -0.0231
5.9140 0.8306 -0.0231
5.9039 0.8195 -0.0231
5.8949 0.8067 -0.0231
5.8847 0.7946 -0.0231
5.8741 0.7823 -0.0231
5.8702 0.7603 -0.0232
5.8566 0.7503 -0.0231
5.8433 0.7393 -0.0231
5.8331 0.7228 -0.0231
5.8300 0.6934 -0.0232
5.8119 0.6874 -0.0231
5.8018 0.6665 -0.0231
5.7945 0.6380 -0.0232
5.7740 0.6343 -0.0231
6.3679 -2.6819 -0.0455
6.3337 -3.0689 -0.0473
5.2266 -0.9550 -0.0273
5.0830 -1.2438 -0.0278
4.8579 -0.6068 -0.0226
4.7256 -0.8940 -0.0231
4.4847 -1.4616 -0.0243
4.2016 -1.9247 -0.0245
4.1131 -1.9970 -0.0242
4.0855 -1.9214 -0.0236
4.0688 -1.8291 -0.0230
4.0143 -1.8278 -0.0226
6.0059 0.9685 -0.0363
5.9985 0.9606 -0.0365
5.9876 0.9548 -0.0365
5.9850 0.9431 -0.0368
5.9788 0.9335 -0.0370
5.9683 0.9267 -0.0370
5.9624 0.9160 -0.0372
5.9618 0.9007 -0.0377
5.9558 0.8890 -0.0379
5.9476 0.8786 -0.0381
5.9382 0.8690 -0.0383
5.9301 0.8576 -0.0385
5.9240 0.8437 -0.0388
5.9150 0.8320 -0.0390
5.9040 0.8218 -0.0392
5.8920 0.8123 -0.0392
5.8868 0.7944 -0.0397
5.8767 0.7813 -0.0399
5.8681 0.7654 -0.0403
5.8613 0.7458 -0.0408
5.8465 0.7365 -0.0408
5.8356 0.7209 -0.0411
5.8289 0.6971 -0.0417
5.8016 0.6684 -0.0422
5.7942 0.6400 -0.0429
5.7776 0.6279 -0.0430
6.6807 -2.9795 -0.1676
5.2557 -0.6146 -0.0724
5.0917 -1.1345 -0.0855
4.8267 -0.8163 -0.0715
4.8095 -0.7378 -0.0689
4.6258 -1.1671 -0.0790
4.4394 -1.5595 -0.0879
4.3474 -1.6608 -0.0895
4.2412 -1.7905 -0.0917
4.1469 -1.8817 -0.0929
4.0994 -1.8578 -0.0914
4.0533 -1.8344 -0.0900
4.0482 -1.7258 -0.0866
5.9980 0.9759 -0.0491
5.9984 0.9632 -0.0499
5.9929 0.9538 -0.0502
5.9849 0.9457 -0.0505
5.9837 0.9325 -0.0512
5.9760 0.9234 -0.0515
5.9776 0.9068 -0.0525
5.9643 0.9012 -0.0525
5.9591 0.8888 -0.0530
5.9463 0.8823 -0.0531
5.9386 0.8711 -0.0535
5.9296 0.8606 -0.0539
5.9210 0.8491 -0.0543
5.9136 0.8359 -0.0549
5.9079 0.8200 -0.0556
5.8986 0.8072 -0.0561
5.8874 0.7959 -0.0564
5.8779 0.7820 -0.0570
5.8711 0.7636 -0.0579
5.8592 0.7510 -0.0583
5.8504 0.7330 -0.0590
5.8380 0.7192 -0.0595
5.8267 0.7025 -0.0602
5.8159 0.6838 -0.0609
5.8092 0.6558 -0.0623
5.7948 0.6402 -0.0629
5.7772 0.6300 -0.0630
6.7688 -2.8584 -0.2827
6.4098 -2.4222 -0.2494
5.2963 -0.5978 -0.1197
5.2189 -0.5186 -0.1134
5.1771 -0.5241 -0.1126
4.8621 -0.6720 -0.1131
4.8085 -0.7169 -0.1143
4.6160 -1.1681 -0.1347
4.4338 -1.5440 -0.1512
4.1191 -2.0675 -0.1727
4.0468 -2.0919 -0.1722
3.9625 -2.1438 -0.1731
6.0092 0.9715 -0.0632
5.9973 0.9665 -0.0632
5.9928 0.9564 -0.0639
5.9858 0.9477 -0.0644
5.9794 0.9381 -0.0649
5.9718 0.9291 -0.0654
5.9667 0.9178 -0.0662
5.9677 0.9011 -0.0676
5.9587 0.8916 -0.0680
5.9538 0.8783 -0.0690
5.9424 0.8702 -0.0692
5.9299 0.8628 -0.0694
5.9228 0.8497 -0.0703
5.9169 0.8349 -0.0713
5.9102 0.8199 -0.0723
5.8993 0.8088 -0.0728
5.8888 0.7967 -0.0734
5.8798 0.7819 -0.0743
5.8728 0.7636 -0.0756
5.8601 0.7519 -0.0761
5.8458 0.7417 -0.0765
5.8386 0.7201 -0.0780
5.8294 0.7000 -0.0794
5.8147 0.6876 -0.0799
5.8031 0.6687 -0.0810
5.7916 0.6478 -0.0824
5.7767 0.6321 -0.0831
5.7625 0.6135 -0.0842
6.7922 -2.9368 -0.4089
6.6017 -2.7174 -0.3846
5.2463 -0.6017 -0.1662
5.2196 -0.4732 -0.1548
5.1758 -0.4965 -0.1552
5.1318 -0.5188 -0.1556
5.0872 -0.5423 -0.1560
5.0404 -0.2724 -0.1324
4.9918 -0.3293 -0.1354
4.9445 -0.3761 -0.1377
4.4211 -1.5479 -0.2159
4.1849 -2.0250 -0.2470
4.0796 -2.1319 -0.2522
3.2757 -3.6838 -0.3521
6.0080 0.9748 -0.0765
6.0027 0.9656 -0.0773
5.9926 0.9590 -0.0776
5.9898 0.9475 -0.0787
5.9792 0.9408 -0.0790
5.9755 0.9289 -0.0801
5.9654 0.9213 -0.0805
5.9607 0.9091 -0.0816
5.9556 0.8968 -0.0827
5.9472 0.8866 -0.0835
5.9427 0.8724 -0.0848
5.9352 0.8603 -0.0858
5.9154 0.8388 -0.0873
5.9050 0.8279 -0.0880
5.8915 0.7958 -0.0909
5.8776 0.7869 -0.0913
5.8726 0.7662 -0.0933
5.8616 0.7519 -0.0944
5.8484 0.7401 -0.0951
5.8376 0.7237 -0.0964
5.8256 0.7081 -0.0976
5.8177 0.6842 -0.0998
5.8043 0.6681 -0.1010
5.7931 0.6463 -0.1029
5.7688 0.6000 -0.1068
6.9039 -2.5330 -0.4930
6.8448 -2.7127 -0.5099
6.7482 -2.8013 -0.5153
6.6343 -2.8397 -0.5147
6.4819 -2.7269 -0.4960
6.2342 -2.6579 -0.4781
6.1361 -2.7407 -0.4829
5.7101 -2.9349 -0.4858
5.6052 -3.0761 -0.4966
5.3810 -3.2617 -0.5072
5.1666 -0.5194 -0.2021
5.1167 -0.5700 -0.2055
5.1102 -0.2335 -0.1689
5.0931 -0.1694 -0.1613
5.0544 -0.1983 -0.1627
5.0167 -0.2216 -0.1637
4.9784 -0.2451 -0.1646
4.9454 -0.2509 -0.1638
4.9230 -0.2267 -0.1602
3.9868 -2.1667 -0.3300
3.2124 -3.5790 -0.4496
6.0069 0.9781 -0.0898
6.0015 0.9689 -0.0908
5.9978 0.9582 -0.0920
5.9906 0.9495 -0.0929
5.9831 0.9406 -0.0937
5.9742 0.9324 -0.0943
5.9728 0.9183 -0.0961
5.9595 0.9127 -0.0962
5.9542 0.9005 -0.0976
5.9459 0.8903 -0.0985
5.9397 0.8777 -0.0999
5.9363 0.8618 -0.1019
5.9225 0.8551 -0.1021
5.9210 0.8357 -0.1046
5.9103 0.8247 -0.1055
5.9015 0.8112 -0.1069
5.8900 0.8000 -0.1078
5.8815 0.7845 -0.1094
5.8717 0.7697 -0.1109
5.8662 0.7479 -0.1136
5.8533 0.7351 -0.1146
5.8343 0.7308 -0.1142
5.8267 0.7083 -0.1169
5.8165 0.6880 -0.1191
5.8055 0.6675 -0.1213
5.7927 0.6485 -0.1232
5.7646 0.6106 -0.1268
6.7548 -1.8643 -0.5104
6.6285 -1.8017 -0.4955
6.5508 -1.8626 -0.4997
6.5355 -2.1284 -0.5347
6.4716 -2.2739 -0.5509
6.3077 -2.0516 -0.5127
6.1933 -1.9829 -0.4976
6.1168 -2.0791 -0.5066
6.0257 -2.1098 -0.5060
5.9173 -2.8347 -0.5979
5.3855 -2.4378 -0.5173
5.2915 -2.4694 -0.5167
5.1368 -0.6696 -0.2668
5.1511 -0.1719 -0.2006
5.1369 -0.0926 -0.1892
5.1017 -0.1139 -0.1903
4.9931 -0.1789 -0.1934
4.9064 -0.1744 -0.1884
3.9554 -2.2057 -0.4128
3.7204 -2.5885 -0.4522
3.6027 -2.6902 -0.4598
6.0113 0.9780 -0.1040
6.0035 0.9702 -0.1048
6.0030 0.9575 -0.1069
5.9842 0.9564 -0.1059
5.9849 0.9420 -0.1083
5.9739 0.9352 -0.1087
5.9705 0.9226 -0.1105
5.9638 0.9119 -0.1118
5.9611 0.8975 -0.1140
5.9560 0.8843 -0.1158
5.9426 0.8777 -0.1161
5.9357 0.8649 -0.1177
5.9251 0.8551 -0.1187
5.9227 0.8365 -0.1215
5.9044 0.8335 -0.1209
5.8993 0.8161 -0.1234
5.8864 0.8066 -0.1242
5.8833 0.7846 -0.1275
5.8733 0.7698 -0.1293
5.8665 0.7498 -0.1321
5.8499 0.7421 -0.1324
5.8433 0.7190 -0.1357
5.8304 0.7042 -0.1373
5.8199 0.6840 -0.1399
5.8062 0.6679 -0.1417
5.7800 0.6288 -0.1464
5.7680 0.6039 -0.1497
6.5175 -1.5064 -0.5356
6.4281 -1.5083 -0.5305
6.2828 -1.6136 -0.5387
6.1882 -1.5891 -0.5290
6.1027 -1.5908 -0.5241
6.0386 -1.6958 -0.5372
5.8684 -1.6967 -0.5271
5.7746 -1.5969 -0.5053
5.7085 -1.7506 -0.5262
5.6317 -1.8328 -0.5348
5.5503 -1.8602 -0.5343
5.4682 -1.7251 -0.5075
5.3893 -1.8309 -0.5199
5.3034 -2.0018 -0.5423
5.2184 -2.0607 -0.5466
5.1347 -2.0888 -0.5461
5.1406 -1.3585 -0.4286
5.1462 -0.8797 -0.3517
5.1392 -0.6169 -0.3088
5.1387 -0.0640 -0.2196
5.1050 -0.0806 -0.2202
5.0674 -0.1110 -0.2228
5.0315 -0.1325 -0.2242
4.9933 -0.1599 -0.2263
4.9635 -0.1606 -0.2246
4.9362 -0.1552 -0.2221
4.9168 -0.1304 -0.2169
3.9975 -2.0731 -0.4750
3.8417 -2.0139 -0.4560
6.0023 0.9735 -0.1184
5.9986 0.9629 -0.1202
5.9975 0.9501 -0.1225
5.9856 0.9441 -0.1228
5.9766 0.9359 -0.1238
5.9731 0.9233 -0.1259
5.9690 0.9105 -0.1280
5.9625 0.8990 -0.1297
5.9537 0.8888 -0.1311
5.9463 0.8770 -0.1328
5.9392 0.8642 -0.1347
5.9277 0.8551 -0.1356
5.9166 0.8452 -0.1367
5.9104 0.8296 -0.1392
5.8999 0.8178 -0.1407
5.8987 0.7946 -0.1450
5.8864 0.7832 -0.1463
5.8743 0.7709 -0.1478
5.8636 0.7559 -0.1499
5.8471 0.7482 -0.1502
5.8411 0.7245 -0.1542
5.8329 0.7020 -0.1579
5.8192 0.6870 -0.1598
5.8054 0.6710 -0.1618
5.7901 0.6565 -0.1635
5.7782 0.6338 -0.1670
5.7661 0.6090 -0.1708
6.2831 -1.0891 -0.5272
6.2260 -1.1488 -0.5345
6.1565 -1.1722 -0.5341
6.0727 -1.1393 -0.5220
6.0261 -1.2586 -0.5413
5.9515 -1.2619 -0.5368
5.8814 -1.2855 -0.5363
5.8033 -1.2507 -0.5243
5.7368 -1.2928 -0.5276
5.6678 -1.3160 -0.5272
5.6009 -1.3800 -0.5346
5.5308 -1.4036 -0.5342
5.4607 -1.4272 -0.5338
5.3981 -1.1323 -0.4738
5.2703 -1.2250 -0.4824
5.2411 -0.8950 -0.4181
5.1618 -0.7248 -0.3805
5.1606 -0.0797 -0.2587
5.1368 -0.0515 -0.2517
5.1021 -0.0725 -0.2532
5.0672 -0.0925 -0.2546
4.9988 -0.1249 -0.2559
4.9747 -0.1102 -0.2515
4.9442 -0.1163 -0.2505
4.9180 -0.1117 -0.2478
4.0072 -1.7580 -0.4952
3.9187 -1.8262 -0.5019
6.0109 0.9709 -0.1341
6.0005 0.9643 -0.1347
5.9931 0.9556 -0.1360
5.9864 0.9462 -0.1375
5.9812 0.9352 -0.1395
5.9746 0.9247 -0.1412
5.9658 0.9156 -0.1425
5.9566 0.9063 -0.1438
5.9532 0.8918 -0.1467
5.9441 0.8815 -0.1482
5.9321 0.8734 -0.1490
5.9286 0.8568 -0.1523
5.9198 0.8445 -0.1543
5.9119 0.8306 -0.1567
5.9028 0.8172 -0.1588
5.8931 0.8037 -0.1610
5.8842 0.7883 -0.1636
5.8727 0.7752 -0.1655
5.8651 0.7562 -0.1691
5.8548 0.7394 -0.1719
5.8428 0.7240 -0.1743
5.8318 0.7059 -0.1773
5.8215 0.6849 -0.1810
5.8089 0.6663 -0.1841
5.7814 0.6282 -0.1902
5.7666 0.6088 -0.1932
6.2445 -0.7815 -0.5318
6.1885 -0.8158 -0.5348
6.1186 -0.8084 -0.5277
6.0662 -0.8570 -0.5340
6.0014 -0.8633 -0.5303
5.8799 -0.9043 -0.5296
5.8191 -0.9247 -0.5292
5.7584 -0.9452 -0.5289
5.6992 -0.9805 -0.5318
5.5149 -1.0117 -0.5241
5.4545 -1.0629 -0.5304
5.4003 -0.8127 -0.4719
5.3486 -0.7817 -0.4612
5.2965 -0.7869 -0.4582
5.2389 -0.8547 -0.4683
5.1750 -0.9534 -0.4846
5.1420 -0.8163 -0.4524
5.1754 -0.1396 -0.3085
5.1598 -0.0615 -0.2904
5.1315 -0.0535 -0.2864
5.0992 -0.0644 -0.2862
5.0710 -0.0605 -0.2832
5.0345 -0.0862 -0.2859
4.9992 -0.1063 -0.2874
4.9666 -0.1172 -0.2872
4.9430 -0.1036 -0.2824
4.9169 -0.0990 -0.2794
4.8809 -0.1204 -0.2812
6.0144 0.9840 -0.1460
6.0010 0.9795 -0.1459
6.0014 0.9664 -0.1491
5.9970 0.9557 -0.1514
5.9901 0.9463 -0.1531
5.9780 0.9401 -0.1535
5.9733 0.9284 -0.1560
5.9626 0.9207 -0.1569
5.9625 0.9043 -0.1609
5.9510 0.8963 -0.1618
5.9469 0.8817 -0.1650
5.9381 0.8705 -0.1670
5.9280 0.8600 -0.1687
5.9252 0.8417 -0.1729
5.9119 0.8331 -0.1738
5.9091 0.8128 -0.1785
5.8964 0.8023 -0.1800
5.8820 0.7934 -0.1809
5.8794 0.7691 -0.1866
5.8659 0.7574 -0.1883
5.8584 0.7365 -0.1927
5.8279 0.7140 -0.1955
5.8202 0.6889 -0.2010
5.7946 0.6507 -0.2081
5.7838 0.6245 -0.2135
5.7683 0.6060 -0.2167
6.1809 -0.6122 -0.5510
6.1246 -0.6312 -0.5507
5.9438 -0.6400 -0.5369
5.8916 -0.6708 -0.5398
5.8386 -0.7010 -0.5425
5.7830 -0.7197 -0.5421
5.7258 -0.7266 -0.5388
5.6680 -0.7206 -0.5322
5.4015 -0.5857 -0.4757
5.3457 -0.7331 -0.5068
5.2859 -0.8493 -0.5299
5.2340 -0.8412 -0.5234
5.1801 -0.8594 -0.5230
5.1392 -0.7904 -0.5026
5.1525 -0.0731 -0.3283
5.1286 -0.0454 -0.3195
5.1001 -0.0417 -0.3160
5.0710 -0.0423 -0.3136
5.0434 -0.0394 -0.3105
5.0150 -0.0408 -0.3083
4.9773 -0.0698 -0.3121
4.9525 -0.0618 -0.3079
4.9195 -0.0770 -0.3087
4.8862 -0.0923 -0.3095
4.3032 -1.1801 -0.5240
4.2632 -1.1680 -0.5175
6.0154 0.9861 -0.1602
6.0139 0.9744 -0.1632
6.0097 0.9639 -0.1657
5.9978 0.9579 -0.1661
5.9909 0.9484 -0.1680
5.9796 0.9416 -0.1688
5.9739 0.9306 -0.1713
5.9678 0.9194 -0.1737
5.9593 0.9094 -0.1756
5.9583 0.8929 -0.1800
5.9497 0.8819 -0.1822
5.9407 0.8707 -0.1843
5.9361 0.8550 -0.1882
5.9253 0.8442 -0.1901
5.9134 0.8342 -0.1917
5.9054 0.8193 -0.1949
5.8975 0.8035 -0.1985
5.8896 0.7866 -0.2023
5.8835 0.7663 -0.2073
5.8697 0.7546 -0.2091
5.8562 0.7419 -0.2112
5.8433 0.7274 -0.2139
5.8347 0.7053 -0.2191
5.8210 0.6895 -0.2221
5.8067 0.6736 -0.2251
5.7986 0.6445 -0.2322
5.7849 0.6236 -0.2366
5.7707 0.6016 -0.2412
6.0763 -0.3346 -0.5268
6.0159 -0.3164 -0.5159
5.9764 -0.3581 -0.5234
5.9233 -0.3568 -0.5178
5.8755 -0.3728 -0.5175
5.8338 -0.4163 -0.5253
5.7399 -0.4682 -0.5303
5.6909 -0.4847 -0.5300
5.6409 -0.4914 -0.5269
5.5899 -0.4791 -0.5186
5.5415 -0.4853 -0.5155
5.4942 -0.5205 -0.5205
5.4458 -0.5672 -0.5285
5.3989 -0.5151 -0.5097
5.3516 -0.5310 -0.5094
5.3029 -0.5656 -0.5141
5.2519 -0.6122 -0.5218
5.2007 -0.6497 -0.5270
5.1451 -0.7090 -0.5378
5.1797 -0.0688 -0.3664
5.1526 -0.0505 -0.3587
5.1235 -0.0461 -0.3547
5.0948 -0.0426 -0.3509
5.0681 -0.0344 -0.3460
5.0378 -0.0406 -0.3448
5.0076 -0.0466 -0.3435
4.9729 -0.0665 -0.3455
4.9411 -0.0772 -0.3453
4.9052 -0.0983 -0.3476
4.8795 -0.0938 -0.3438
4.8392 -0.1246 -0.3483
4.3994 -0.9499 -0.5305
4.3314 -1.0043 -0.5387
6.0153 0.9888 -0.1741
6.0116 0.9785 -0.1769
6.0053 0.9693 -0.1790
6.0007 0.9587 -0.1817
5.9896 0.9520 -0.1825
5.9861 0.9398 -0.1858
5.9764 0.9315 -0.1873
5.9692 0.9210 -0.1897
5.9651 0.9075 -0.1933
5.9569 0.8967 -0.1957
5.9475 0.8865 -0.1978
5.9409 0.8732 -0.2011
5.9322 0.8612 -0.2037
5.9253 0.8468 -0.2073
5.9200 0.8299 -0.2119
5.9124 0.8143 -0.2158
5.9008 0.8023 -0.2181
5.8861 0.7934 -0.2193
5.8781 0.7756 -0.2238
5.8705 0.7559 -0.2289
5.8521 0.7165 -0.2388
5.8361 0.7051 -0.2405
5.8212 0.6910 -0.2432
6.0001 -0.2712 -0.5531
5.9414 -0.2477 -0.5396
5.6264 -0.3799 -0.5456
5.5816 -0.4121 -0.5505
5.5343 -0.4109 -0.5451
5.4424 -0.4157 -0.5366
5.3501 -0.4729 -0.5440
5.3018 -0.5154 -0.5516
5.2561 -0.5217 -0.5486
5.2156 -0.4921 -0.5353
5.1772 -0.4627 -0.5223
5.1865 -0.1808 -0.4382
5.1766 -0.0604 -0.4007
5.1465 -0.0565 -0.3963
5.1217 -0.0336 -0.3867
5.0943 -0.0257 -0.3814
5.0692 -0.0130 -0.3748
5.0434 -0.0056 -0.3698
5.0048 -0.0387 -0.3757
4.9700 -0.0585 -0.3779
4.9417 -0.0600 -0.3753
4.9120 -0.0660 -0.3739
4.8747 -0.0906 -0.3773
4.4655 -0.7879 -0.5438
4.4243 -0.7927 -0.5409
4.3886 -0.7876 -0.5355
6.0136 0.9800 -0.1918
6.0019 0.9741 -0.1924
5.9984 0.9629 -0.1957
5.9913 0.9535 -0.1980
5.9848 0.9434 -0.2006
5.9770 0.9337 -0.2029
5.9706 0.9226 -0.2058
5.9682 0.9078 -0.2104
5.9573 0.8991 -0.2120
5.9478 0.8889 -0.2143
5.9403 0.8765 -0.2175
5.9284 0.8674 -0.2191
5.9254 0.8494 -0.2247
5.9148 0.8379 -0.2273
5.9109 0.8186 -0.2332
5.8982 0.7814 -0.2441
5.8790 0.7769 -0.2433
5.8552 0.7479 -0.2501
5.9761 -0.0684 -0.5349
5.9327 -0.0761 -0.5323
5.8470 -0.0909 -0.5271
5.8063 -0.1046 -0.5269
5.7670 -0.1249 -0.5290
5.7274 -0.1452 -0.5311
5.6853 -0.1524 -0.5285
5.6452 -0.1728 -0.5306
5.6048 -0.1934 -0.5326
5.5229 -0.2350 -0.5368
5.4809 -0.2212 -0.5273
5.4396 -0.2700 -0.5386
5.3167 -0.2835 -0.5286
5.2765 -0.2900 -0.5260
5.2366 -0.2965 -0.5235
5.1971 -0.3028 -0.5209
5.1896 -0.1365 -0.4649
5.1736 -0.0520 -0.4351
5.1444 -0.0438 -0.4289
5.1151 -0.0397 -0.4241
5.0914 -0.0177 -0.4140
5.0637 -0.0141 -0.4096
5.0320 -0.0247 -0.4094
4.9989 -0.0399 -0.4105
4.9671 -0.0506 -0.4103
4.9314 -0.0716 -0.4131
4.8995 -0.0823 -0.4129
4.8548 -0.1233 -0.4212
4.8062 -0.1707 -0.4312
4.6613 -0.4252 -0.4985
4.5571 -0.5752 -0.5360
4.4979 -0.6241 -0.5452
4.4409 -0.6663 -0.5525
6.0194 0.9918 -0.2037
6.0155 0.9816 -0.2069
6.0059 0.9744 -0.2083
5.9961 0.9671 -0.2097
5.9960 0.9532 -0.2147
5.9884 0.9437 -0.2172
5.9794 0.9347 -0.2193
5.9702 0.9256 -0.2214
5.9606 0.9165 -0.2234
5.9559 0.9030 -0.2277
5.9480 0.8914 -0.2309
5.9454 0.8747 -0.2366
5.9372 0.8620 -0.2401
5.9269 0.8506 -0.2429
5.9126 0.8428 -0.2439
5.8976 0.8110 -0.2535
5.8907 0.7928 -0.2592
5.8830 0.7743 -0.2649
5.8388 0.7406 -0.2714
5.8107 0.6717 -0.2927
5.8764 -0.0428 -0.5592
5.8365 -0.0563 -0.5590
5.7951 -0.0642 -0.5566
5.3975 -0.1853 -0.5495
5.3571 -0.2117 -0.5540
5.2768 -0.2447 -0.5556
5.2358 -0.2655 -0.5579
