ply
format ascii 1.0
element vertex 2111
property float x
property float y
property float z
end_header
4.1112 -3.5486 -0.1172
4.0936 -3.5390 -0.1185
4.0763 -3.5293 -0.1189
4.0452 -3.5122 -0.1207
4.0317 -3.5054 -0.1232
4.0180 -3.4980 -0.1241
4.0019 -3.4866 -0.1183
3.9881 -3.4777 -0.1156
3.9663 -3.4668 -0.1196
3.9559 -3.4616 -0.1214
3.9467 -3.4576 -0.1250
3.9349 -3.4490 -0.1200
3.9261 -3.4450 -0.1225
5.0247 -3.6437 0.9455
5.0164 -3.6482 0.9200
4.9604 -3.6333 0.8770
4.9444 -3.6344 0.8494
4.9284 -3.6355 0.8220
4.9159 -3.6379 0.7957
4.9033 -3.6404 0.7695
4.9018 -3.6478 0.7462
4.8848 -3.6483 0.7186
4.8905 -3.6592 0.6964
4.8734 -3.6597 0.6687
4.8712 -3.6672 0.6440
4.8760 -3.6782 0.6199
4.8670 -3.6828 0.5931
4.8224 -3.6699 0.5618
4.8167 -3.6759 0.5358
4.6853 -3.6262 0.4770
4.6795 -3.6315 0.4529
4.6708 -3.6354 0.4286
4.8122 -3.7316 0.3701
4.8545 -3.7661 0.3363
4.7647 -3.7256 0.3146
5.6798 -4.3371 -0.0316
4.8746 -3.8928 0.0054
4.9775 -3.9778 -0.0796
4.9755 -3.9929 -0.1260
4.8994 -3.9561 -0.1370
4.6559 -3.8238 -0.1318
4.5867 -3.7849 -0.1266
4.5306 -3.7546 -0.1257
4.4795 -3.7268 -0.1245
4.4297 -3.6987 -0.1206
4.3866 -3.6750 -0.1187
4.3208 -3.6417 -0.1243
4.2871 -3.6231 -0.1227
4.2619 -3.6112 -0.1274
4.2353 -3.5975 -0.1289
4.2040 -3.5785 -0.1223
4.1760 -3.5615 -0.1169
4.1638 -3.5598 -0.1304
4.1381 -3.5438 -0.1242
4.1164 -3.5312 -0.1214
4.0797 -3.5111 -0.1202
4.0519 -3.4991 -0.1281
4.0363 -3.4902 -0.1269
4.0186 -3.4783 -0.1198
3.9950 -3.4675 -0.1251
3.9805 -3.4577 -0.1195
3.9694 -3.4522 -0.1206
3.9586 -3.4466 -0.1212
3.9489 -3.4422 -0.1235
3.9386 -3.4365 -0.1230
3.9282 -3.4302 -0.1207
5.0463 -3.6203 0.9439
4.9895 -3.6065 0.9000
4.9803 -3.6104 0.8746
4.9422 -3.6030 0.8393
4.9480 -3.6127 0.8191
4.9275 -3.6121 0.7902
4.9149 -3.6146 0.7639
4.8891 -3.6116 0.7341
4.9007 -3.6242 0.7139
4.8946 -3.6295 0.6888
4.8893 -3.6352 0.6636
4.8839 -3.6411 0.6380
4.8668 -3.6418 0.6103
4.8642 -3.6490 0.5847
4.8553 -3.6535 0.5580
4.8382 -3.6542 0.5303
4.8192 -3.6539 0.5026
4.7836 -3.6454 0.4746
4.6996 -3.6207 0.4223
4.7010 -3.6300 0.3968
4.7571 -3.6873 0.3096
4.8846 -3.7793 0.2258
4.9847 -3.8896 0.0464
4.8932 -3.8474 0.0350
5.0800 -3.9954 -0.1271
4.6062 -3.7370 -0.0653
4.5814 -3.7317 -0.0869
4.5191 -3.7109 -0.1181
4.4375 -3.6728 -0.1268
4.4064 -3.6600 -0.1352
4.3591 -3.6335 -0.1268
4.2833 -3.5923 -0.1173
4.2696 -3.5909 -0.1339
4.2360 -3.5719 -0.1273
4.2069 -3.5559 -0.1233
4.1853 -3.5460 -0.1261
4.1377 -3.5202 -0.1203
4.1211 -3.5133 -0.1247
4.0851 -3.4954 -0.1250
4.0649 -3.4831 -0.1186
4.0531 -3.4794 -0.1253
4.0373 -3.4710 -0.1237
4.0230 -3.4636 -0.1233
3.9983 -3.4523 -0.1264
3.9841 -3.4436 -0.1217
3.9752 -3.4413 -0.1282
3.9608 -3.4312 -0.1198
3.9503 -3.4259 -0.1196
3.9428 -3.4246 -0.1271
3.9327 -3.4192 -0.1260
5.0549 -3.5918 0.9371
4.9895 -3.5760 0.8903
4.9593 -3.5722 0.8577
4.9178 -3.5641 0.8220
4.9160 -3.5704 0.7999
4.9289 -3.5822 0.7817
4.9265 -3.5885 0.7583
4.9072 -3.5884 0.7302
4.9013 -3.5935 0.7055
4.9106 -3.6048 0.6838
4.8945 -3.6060 0.6563
4.8817 -3.6086 0.6295
4.8720 -3.6124 0.6031
4.8665 -3.6181 0.5772
4.8567 -3.6220 0.5504
4.8468 -3.6259 0.5235
4.8338 -3.6285 0.4963
4.8247 -3.6329 0.4692
4.8186 -3.6387 0.4419
4.7986 -3.6381 0.4145
4.7188 -3.6344 0.3087
4.7298 -3.6492 0.2784
4.9111 -3.7778 0.1416
4.9045 -3.7863 0.1053
4.8841 -3.7871 0.0728
4.8856 -3.8006 0.0329
4.8036 -3.8031 -0.0959
4.7789 -3.8008 -0.1250
4.5661 -3.6863 -0.0789
4.5612 -3.6945 -0.1117
4.5137 -3.6732 -0.1149
4.4277 -3.6341 -0.1187
4.3595 -3.6045 -0.1262
4.2991 -3.5780 -0.1318
4.2644 -3.5600 -0.1265
4.2269 -3.5387 -0.1149
4.2066 -3.5310 -0.1205
4.1819 -3.5189 -0.1190
4.1419 -3.5014 -0.1228
4.1223 -3.4922 -0.1229
4.1049 -3.4846 -0.1245
4.0862 -3.4752 -0.1226
4.0702 -3.4679 -0.1233
4.0398 -3.4537 -0.1234
4.0280 -3.4495 -0.1278
4.0124 -3.4409 -0.1234
3.9992 -3.4343 -0.1224
3.9873 -3.4289 -0.1228
3.9752 -3.4228 -0.1215
3.9651 -3.4189 -0.1240
3.9532 -3.4121 -0.1204
3.9458 -3.4110 -0.1278
3.9340 -3.4035 -0.1217
5.0181 -3.5553 0.8911
4.9556 -3.5413 0.8472
4.9345 -3.5473 0.7968
4.9554 -3.5614 0.7805
4.9427 -3.5639 0.7539
4.9480 -3.5730 0.7318
4.9318 -3.5743 0.7041
4.9047 -3.5715 0.6742
4.9203 -3.5848 0.6529
4.9191 -3.5919 0.6277
4.8943 -3.5899 0.5985
4.8813 -3.5925 0.5712
4.8828 -3.6010 0.5454
4.8625 -3.6007 0.5173
4.8362 -3.5977 0.4892
4.8333 -3.6046 0.4624
4.8163 -3.6054 0.4351
4.8425 -3.6342 0.3780
4.8326 -3.6387 0.3491
4.7206 -3.6037 0.3030
4.7291 -3.6165 0.2732
4.8849 -3.7132 0.1786
4.9551 -3.7602 0.1247
4.9291 -3.7585 0.0929
4.9127 -3.7617 0.0586
4.9006 -3.7673 0.0229
4.9047 -3.7948 -0.0617
4.9679 -3.8444 -0.1346
4.8620 -3.7963 -0.1284
4.8059 -3.7760 -0.1423
4.7278 -3.7413 -0.1401
4.6714 -3.7185 -0.1463
4.5773 -3.6705 -0.1236
4.5242 -3.6471 -0.1230
4.4310 -3.6059 -0.1212
4.3583 -3.5751 -0.1243
4.2897 -3.5441 -0.1208
4.2636 -3.5336 -0.1237
4.2406 -3.5249 -0.1284
4.1832 -3.4967 -0.1180
4.1430 -3.4802 -0.1212
4.1082 -3.4663 -0.1258
4.0733 -3.4506 -0.1243
4.0571 -3.4432 -0.1231
4.0412 -3.4356 -0.1211
4.0142 -3.4240 -0.1216
4.0029 -3.4200 -0.1246
3.9890 -3.4127 -0.1206
3.9796 -3.4101 -0.1257
3.9655 -3.4016 -0.1180
3.9566 -3.3990 -0.1222
3.9448 -3.3925 -0.1177
3.9372 -3.3909 -0.1234
4.9827 -3.5204 0.8472
4.9549 -3.5181 0.8162
4.9472 -3.5220 0.7917
4.9453 -3.5278 0.7687
4.9531 -3.5438 0.7243
4.9593 -3.5529 0.7016
4.9385 -3.5528 0.6727
4.9441 -3.5619 0.6489
4.9234 -3.5618 0.6201
4.9253 -3.5699 0.5948
4.9088 -3.5713 0.5667
4.8956 -3.5740 0.5390
4.8824 -3.5766 0.5113
4.8549 -3.5736 0.4830
4.8418 -3.5762 0.4556
4.8458 -3.5857 0.4282
4.8651 -3.6018 0.3995
4.8699 -3.6123 0.3699
4.8599 -3.6167 0.3405
4.7767 -3.5976 0.2898
4.7598 -3.5986 0.2628
4.8949 -3.6798 0.1707
4.9757 -3.7290 0.1136
4.9538 -3.7298 0.0803
4.9191 -3.7240 0.0516
4.9071 -3.7294 0.0159
5.0154 -3.8106 -0.1135
4.8328 -3.7375 -0.1167
4.7721 -3.7157 -0.1265
4.7057 -3.6897 -0.1292
4.6525 -3.6700 -0.1360
4.5891 -3.6434 -0.1326
4.5302 -3.6182 -0.1280
4.4487 -3.5873 -0.1354
4.3930 -3.5609 -0.1221
4.3548 -3.5449 -0.1203
4.3142 -3.5264 -0.1132
4.2962 -3.5227 -0.1259
4.2625 -3.5077 -0.1209
4.2343 -3.4957 -0.1192
4.2094 -3.4856 -0.1191
4.1875 -3.4773 -0.1208
4.1459 -3.4607 -0.1221
4.1267 -3.4531 -0.1224
4.1109 -3.4478 -0.1262
4.0909 -3.4384 -0.1221
4.0775 -3.4345 -0.1271
4.0595 -3.4260 -0.1229
4.0435 -3.4189 -0.1206
4.0164 -3.4079 -0.1209
3.9925 -3.3988 -0.1227
3.9812 -3.3944 -0.1233
3.9688 -3.3884 -0.1199
3.9594 -3.3854 -0.1229
3.9507 -3.3829 -0.1266
3.9412 -3.3794 -0.1275
4.9945 -3.4943 0.8419
4.9820 -3.4967 0.8157
4.9659 -3.4982 0.7884
4.9790 -3.5083 0.7692
4.9893 -3.5179 0.7483
4.9763 -3.5205 0.7211
4.9915 -3.5320 0.6999
4.9904 -3.5385 0.6744
4.9770 -3.5412 0.6463
4.9832 -3.5504 0.6212
4.9987 -3.5630 0.5964
4.9719 -3.5613 0.5657
4.9623 -3.5656 0.5371
4.9244 -3.5598 0.5065
4.8851 -3.5531 0.4770
4.8789 -3.5584 0.4493
4.8806 -3.5667 0.4211
4.8969 -3.5809 0.3916
4.8908 -3.5867 0.3619
4.8884 -3.5942 0.3315
4.9812 -3.6905 0.1064
4.9647 -3.6938 0.0717
4.9040 -3.6873 0.0124
5.0688 -3.7780 -0.0936
5.0158 -3.7648 -0.1179
4.8434 -3.7022 -0.1251
4.7052 -3.6520 -0.1309
4.6525 -3.6341 -0.1375
4.5787 -3.6036 -0.1266
4.5242 -3.5825 -0.1243
4.4829 -3.5681 -0.1283
4.4447 -3.5549 -0.1320
4.3304 -3.5109 -0.1278
4.2917 -3.4943 -0.1199
4.2633 -3.4837 -0.1200
4.2183 -3.4689 -0.1274
4.1931 -3.4588 -0.1253
4.1734 -3.4523 -0.1283
4.1511 -3.4434 -0.1262
4.1282 -3.4334 -0.1212
4.1094 -3.4262 -0.1203
4.0951 -3.4221 -0.1249
4.0744 -3.4123 -0.1176
4.0613 -3.4085 -0.1216
4.0464 -3.4028 -0.1212
4.0313 -3.3965 -0.1189
4.0206 -3.3940 -0.1242
4.0072 -3.3885 -0.1227
3.9941 -3.3830 -0.1204
3.9833 -3.3794 -0.1219
3.9717 -3.3747 -0.1207
3.9641 -3.3739 -0.1282
3.9504 -3.3662 -0.1187
5.0177 -3.4768 0.8175
5.0120 -3.4813 0.7927
4.9921 -3.4819 0.7638
4.9827 -3.4854 0.7379
5.0009 -3.4968 0.7180
5.0632 -3.5282 0.6795
5.0813 -3.5407 0.6553
5.0899 -3.5507 0.6283
5.0893 -3.5580 0.5992
5.0196 -3.5436 0.5625
5.0139 -3.5492 0.5333
4.9869 -3.5479 0.5025
4.9198 -3.5329 0.4710
4.9144 -3.5384 0.4425
4.9118 -3.5450 0.4137
4.9020 -3.5492 0.3845
4.8881 -3.5520 0.3555
4.8938 -3.5619 0.3245
4.8758 -3.5633 0.2954
4.8656 -3.5675 0.2654
5.0086 -3.6512 0.1325
4.9921 -3.6545 0.0978
4.9612 -3.6517 0.0674
4.9405 -3.6531 0.0346
4.9242 -3.6563 0.0005
4.9998 -3.7123 -0.1152
4.9261 -3.6898 -0.1261
4.8631 -3.6713 -0.1382
4.6916 -3.6088 -0.1248
4.6617 -3.6036 -0.1447
4.6066 -3.5851 -0.1465
4.4780 -3.5352 -0.1248
4.4522 -3.5298 -0.1380
4.3936 -3.5054 -0.1217
4.3259 -3.4822 -0.1222
4.2681 -3.4626 -0.1234
4.2402 -3.4526 -0.1218
4.2169 -3.4451 -0.1235
4.1719 -3.4296 -0.1235
4.1321 -3.4159 -0.1235
4.1017 -3.4075 -0.1315
4.0841 -3.4010 -0.1298
4.0669 -3.3944 -0.1272
4.0508 -3.3882 -0.1246
4.0387 -3.3850 -0.1284
4.0233 -3.3787 -0.1244
4.0093 -3.3731 -0.1216
3.9956 -3.3675 -0.1181
3.9857 -3.3650 -0.1217
3.9746 -3.3611 -0.1214
3.9647 -3.3581 -0.1229
3.9559 -3.3560 -0.1264
3.9446 -3.3510 -0.1222
5.0603 -3.4814 0.7224
5.0820 -3.4935 0.7008
5.0951 -3.5037 0.6762
5.1143 -3.5158 0.6515
5.1449 -3.5314 0.6270
5.1877 -3.5510 0.6019
5.1827 -3.5573 0.5697
5.2930 -3.5980 0.5454
5.0597 -3.5361 0.4983
4.9737 -3.5172 0.4651
4.9678 -3.5226 0.4355
4.9536 -3.5254 0.4058
4.9111 -3.5190 0.3773
4.9411 -3.5364 0.3450
4.9484 -3.5466 0.3127
4.9172 -3.5438 0.2840
5.0520 -3.6178 0.1552
5.0149 -3.6135 0.1250
4.9837 -3.6112 0.0945
4.9720 -3.6162 0.0589
4.9458 -3.6155 0.0280
4.9252 -3.6170 -0.0044
4.9748 -3.6580 -0.1083
4.8944 -3.6342 -0.1144
4.8431 -3.6222 -0.1309
4.7010 -3.5778 -0.1322
4.6582 -3.5672 -0.1440
4.5748 -3.5365 -0.1260
4.4834 -3.5086 -0.1291
4.3970 -3.4801 -0.1241
4.3553 -3.4656 -0.1184
4.3352 -3.4622 -0.1301
4.2680 -3.4389 -0.1216
4.2166 -3.4226 -0.1210
4.1971 -3.4175 -0.1252
4.1798 -3.4135 -0.1311
4.1516 -3.4021 -0.1208
4.1383 -3.4000 -0.1292
4.1186 -3.3933 -0.1272
4.1012 -3.3878 -0.1269
4.0818 -3.3805 -0.1220
4.0715 -3.3794 -0.1308
4.0366 -3.3656 -0.1195
4.0285 -3.3656 -0.1298
4.0133 -3.3596 -0.1248
4.0006 -3.3553 -0.1234
3.9886 -3.3513 -0.1225
3.9770 -3.3472 -0.1209
3.9684 -3.3457 -0.1259
3.9572 -3.3416 -0.1233
3.9464 -3.3374 -0.1201
5.4622 -3.5445 0.7992
5.2429 -3.5208 0.6307
5.3061 -3.5446 0.6056
5.2760 -3.5445 0.5688
5.4090 -3.5884 0.5434
4.9845 -3.5008 0.3978
4.9609 -3.5010 0.3679
4.9556 -3.5066 0.3371
5.1023 -3.5765 0.2157
5.0855 -3.5799 0.1805
5.0904 -3.5905 0.1405
5.0957 -3.6016 0.0991
5.1013 -3.6132 0.0563
5.0180 -3.6327 -0.1314
4.8966 -3.5952 -0.1189
4.8368 -3.5808 -0.1305
4.7708 -3.5630 -0.1354
4.7071 -3.5454 -0.1377
4.6320 -3.5219 -0.1288
4.5761 -3.5057 -0.1278
4.5207 -3.4889 -0.1235
4.4704 -3.4735 -0.1194
4.4380 -3.4658 -0.1262
4.3619 -3.4435 -0.1236
4.3331 -3.4361 -0.1271
4.2788 -3.4216 -0.1315
4.2196 -3.4025 -0.1223
4.1966 -3.3960 -0.1222
4.1800 -3.3927 -0.1286
4.1372 -3.3795 -0.1243
4.0994 -3.3678 -0.1204
4.0731 -3.3624 -0.1294
4.0534 -3.3547 -0.1205
4.0391 -3.3504 -0.1197
4.0295 -3.3493 -0.1267
4.0158 -3.3449 -0.1248
4.0035 -3.3413 -0.1243
3.9935 -3.3392 -0.1278
3.9807 -3.3347 -0.1239
3.9693 -3.3309 -0.1217
3.9595 -3.3283 -0.1225
3.9508 -3.3265 -0.1254
5.6171 -3.5442 0.7829
5.3706 -3.5201 0.6023
5.3003 -3.5110 0.5611
5.4440 -3.5536 0.5351
5.0117 -3.4740 0.3896
5.0011 -3.4781 0.3587
5.0046 -3.4860 0.3263
5.0268 -3.4994 0.2909
5.1074 -3.5301 0.2454
5.1016 -3.5365 0.2089
5.0695 -3.5352 0.1770
5.1245 -3.5603 0.1265
5.1485 -3.5767 0.0796
5.4039 -3.6674 -0.0351
5.3824 -3.6717 -0.0801
5.0148 -3.5793 -0.0900
5.0410 -3.5981 -0.1457
4.9210 -3.5647 -0.1340
4.8471 -3.5467 -0.1386
4.7764 -3.5290 -0.1408
4.7164 -3.5144 -0.1450
4.6374 -3.4917 -0.1336
4.5812 -3.4769 -0.1322
4.4802 -3.4498 -0.1271
4.3900 -3.4244 -0.1172
4.3627 -3.4188 -0.1236
4.3309 -3.4107 -0.1239
4.3005 -3.4027 -0.1234
4.2765 -3.3974 -0.1274
4.2433 -3.3872 -0.1196
4.2231 -3.3830 -0.1243
4.2020 -3.3781 -0.1265
4.1807 -3.3727 -0.1269
4.1586 -3.3665 -0.1246
4.1421 -3.3630 -0.1283
4.1046 -3.3527 -0.1250
4.0910 -3.3501 -0.1293
4.0695 -3.3423 -0.1190
4.0583 -3.3407 -0.1249
4.0467 -3.3387 -0.1293
4.0299 -3.3329 -0.1225
4.0178 -3.3300 -0.1236
4.0064 -3.3274 -0.1252
3.9964 -3.3256 -0.1286
3.9845 -3.3222 -0.1269
3.9720 -3.3179 -0.1222
3.9617 -3.3152 -0.1217
3.9521 -3.3128 -0.1220
5.3218 -3.4691 0.5873
5.3446 -3.4810 0.5548
5.5044 -3.5232 0.5279
5.8755 -3.6243 0.4502
5.0428 -3.4538 0.3489
5.0611 -3.4721 0.2801
5.0973 -3.4886 0.2398
5.0908 -3.4945 0.2040
5.1299 -3.5127 0.1586
5.1417 -3.5241 0.1162
5.4687 -3.6463 -0.1142
4.9931 -3.5399 -0.1281
4.9267 -3.5271 -0.1400
4.7534 -3.4853 -0.1302
4.7091 -3.4777 -0.1425
4.6290 -3.4567 -0.1295
4.5245 -3.4322 -0.1274
4.4979 -3.4289 -0.1408
4.4286 -3.4084 -0.1184
4.3604 -3.3932 -0.1207
4.3321 -3.3874 -0.1240
4.3052 -3.3818 -0.1268
4.2669 -3.3707 -0.1157
4.2525 -3.3699 -0.1280
4.2014 -3.3572 -0.1234
4.1814 -3.3530 -0.1251
4.1611 -3.3483 -0.1251
4.1439 -3.3449 -0.1277
4.1038 -3.3342 -0.1202
4.0739 -3.3278 -0.1225
4.0470 -3.3222 -0.1253
4.0329 -3.3186 -0.1236
4.0223 -3.3171 -0.1279
4.0083 -3.3130 -0.1238
3.9946 -3.3089 -0.1190
3.9838 -3.3065 -0.1193
3.9737 -3.3043 -0.1203
3.9648 -3.3029 -0.1233
3.9551 -3.3007 -0.1235
5.2946 -3.4252 0.5750
5.3694 -3.4457 0.5467
5.8542 -3.5554 0.4864
5.0678 -3.4180 0.3727
5.0870 -3.4349 0.3048
5.0866 -3.4415 0.2701
5.1291 -3.4581 0.2282
5.1523 -3.4707 0.1866
5.1765 -3.4841 0.1425
5.5779 -3.6012 -0.0450
5.5057 -3.5931 -0.0789
5.4460 -3.5877 -0.1138
4.9236 -3.4717 -0.0602
4.9122 -3.4761 -0.0953
4.8877 -3.4767 -0.1242
4.8151 -3.4626 -0.1274
4.7560 -3.4519 -0.1338
4.7116 -3.4452 -0.1457
4.6268 -3.4249 -0.1294
4.5676 -3.4121 -0.1248
4.5306 -3.4060 -0.1324
4.4849 -3.3965 -0.1311
4.4488 -3.3899 -0.1346
4.3623 -3.3699 -0.1218
4.3055 -3.3592 -0.1258
4.2476 -3.3465 -0.1208
4.2252 -3.3424 -0.1226
4.2013 -3.3372 -0.1209
4.1832 -3.3343 -0.1249
4.1642 -3.3307 -0.1264
4.1449 -3.3268 -0.1261
4.1268 -3.3231 -0.1259
4.1090 -3.3192 -0.1248
4.0953 -3.3172 -0.1287
4.0789 -3.3136 -0.1270
4.0628 -3.3099 -0.1245
4.0483 -3.3067 -0.1233
4.0358 -3.3044 -0.1247
4.0225 -3.3015 -0.1233
4.0111 -3.2994 -0.1246
3.9994 -3.2970 -0.1243
3.9859 -3.2932 -0.1187
3.9659 -3.2894 -0.1200
3.9577 -3.2884 -0.1237
5.3247 -3.3923 0.5680
5.8574 -3.5026 0.4741
5.1340 -3.4017 0.3279
5.1232 -3.4059 0.2940
5.1288 -3.4133 0.2578
5.1349 -3.4211 0.2204
5.6329 -3.5701 -0.1237
5.4425 -3.5358 -0.1194
5.3372 -3.5201 -0.1350
5.0598 -3.4690 -0.1215
4.9182 -3.4405 -0.1015
4.8804 -3.4378 -0.1237
4.7517 -3.4170 -0.1335
4.6708 -3.4009 -0.1229
4.6435 -3.3994 -0.1414
4.5542 -3.3793 -0.1166
4.5246 -3.3762 -0.1286
4.4963 -3.3733 -0.1400
4.4356 -3.3597 -0.1238
4.3987 -3.3532 -0.1234
4.3612 -3.3460 -0.1201
4.3387 -3.3435 -0.1283
4.2990 -3.3347 -0.1181
4.2763 -3.3315 -0.1226
4.2482 -3.3261 -0.1198
4.2251 -3.3221 -0.1205
4.2086 -3.3205 -0.1276
4.1639 -3.3119 -0.1233
4.1446 -3.3084 -0.1227
4.1296 -3.3065 -0.1268
4.1092 -3.3020 -0.1217
4.0973 -3.3011 -0.1283
4.0802 -3.2976 -0.1254
4.0629 -3.2937 -0.1206
4.0501 -3.2917 -0.1224
4.0410 -3.2915 -0.1301
4.0248 -3.2874 -0.1231
4.0150 -3.2865 -0.1277
3.9995 -3.2823 -0.1192
3.9886 -3.2804 -0.1192
3.9794 -3.2793 -0.1224
3.9685 -3.2770 -0.1203
3.9592 -3.2756 -0.1214
5.3289 -3.3549 0.5588
5.5212 -3.3875 0.5360
5.1902 -3.3806 0.2797
5.1673 -3.3828 0.2457
6.1385 -3.5926 -0.1428
5.9974 -3.5767 -0.1739
5.6937 -3.5273 -0.1496
5.4842 -3.4943 -0.1397
5.1728 -3.4456 -0.1271
4.9754 -3.4167 -0.1312
4.9127 -3.4093 -0.1427
4.8347 -3.3977 -0.1429
4.7437 -3.3821 -0.1311
4.6795 -3.3723 -0.1298
4.6167 -3.3622 -0.1255
4.5620 -3.3535 -0.1228
4.5191 -3.3475 -0.1251
4.4796 -3.3420 -0.1274
4.4496 -3.3388 -0.1350
4.4023 -3.3302 -0.1261
4.3359 -3.3200 -0.1247
4.3087 -3.3163 -0.1265
4.2828 -3.3126 -0.1279
4.2523 -3.3072 -0.1226
4.1655 -3.2942 -0.1228
4.1474 -3.2917 -0.1238
4.1278 -3.2883 -0.1211
4.1131 -3.2866 -0.1243
4.0962 -3.2839 -0.1229
4.0821 -3.2821 -0.1248
4.0690 -3.2805 -0.1271
4.0543 -3.2781 -0.1256
4.0399 -3.2756 -0.1235
4.0276 -3.2738 -0.1240
4.0128 -3.2706 -0.1182
4.0038 -3.2701 -0.1233
3.9949 -3.2696 -0.1281
3.9820 -3.2668 -0.1228
3.9710 -3.2648 -0.1206
9.0201 -3.5497 2.0114
8.5685 -3.5271 1.7949
8.5232 -3.5361 1.7000
8.5848 -3.5542 1.6316
7.0336 -3.4584 1.0055
7.0536 -3.4702 0.9451
5.3251 -3.3119 0.5821
5.3467 -3.3194 0.5506
5.5927 -3.3532 0.5292
6.2062 -3.4410 0.4526
7.0255 -3.5531 0.3843
6.7783 -3.5328 0.3173
5.2323 -3.3547 0.2297
6.3414 -3.5588 -0.2030
5.9273 -3.5015 -0.1641
5.7446 -3.4802 -0.1729
5.4355 -3.4353 -0.1301
5.1785 -3.4040 -0.1341
5.0882 -3.3941 -0.1420
4.9816 -3.3802 -0.1376
4.9096 -3.3723 -0.1443
4.7397 -3.3491 -0.1308
4.6709 -3.3399 -0.1262
4.6351 -3.3373 -0.1385
4.5865 -3.3316 -0.1403
4.5291 -3.3233 -0.1328
4.4730 -3.3148 -0.1225
4.3947 -3.3046 -0.1192
4.3367 -3.2982 -0.1245
4.3116 -3.2957 -0.1282
4.2819 -3.2916 -0.1255
4.2251 -3.2832 -0.1166
4.2107 -3.2828 -0.1258
4.1903 -3.2804 -0.1267
4.1684 -3.2773 -0.1239
4.1442 -3.2731 -0.1164
4.1311 -3.2725 -0.1229
4.1170 -3.2714 -0.1269
4.1006 -3.2692 -0.1264
4.0852 -3.2673 -0.1261
4.0689 -3.2648 -0.1231
4.0404 -3.2608 -0.1200
4.0298 -3.2601 -0.1237
4.0171 -3.2583 -0.1223
4.0053 -3.2567 -0.1216
3.9932 -3.2548 -0.1190
3.9835 -3.2539 -0.1208
3.9735 -3.2526 -0.1209
8.6887 -3.4105 1.9611
8.5901 -3.4165 1.8506
8.4937 -3.4223 1.7425
8.5005 -3.4343 1.6629
8.2594 -3.4305 1.5217
8.0384 -3.4271 1.3920
7.5415 -3.4036 1.2120
7.1136 -3.3826 1.0618
7.0476 -3.3957 0.9237
7.0958 -3.4088 0.8651
5.4549 -3.2916 0.5485
5.6136 -3.3114 0.5195
6.8168 -3.4416 0.4402
6.8338 -3.4532 0.3701
6.7509 -3.4547 0.3020
7.0055 -3.4924 0.2136
7.6960 -3.5809 0.0713
6.7740 -3.4885 0.0806
6.6904 -3.4894 0.0156
6.7810 -3.5114 -0.0760
5.8361 -3.4282 -0.1478
5.4070 -3.3828 -0.1268
5.2710 -3.3695 -0.1278
5.1596 -3.3590 -0.1313
4.9630 -3.3397 -0.1325
4.8230 -3.3272 -0.1417
4.6794 -3.3118 -0.1329
4.5775 -3.3020 -0.1351
4.4767 -3.2907 -0.1256
4.3996 -3.2827 -0.1230
4.3451 -3.2786 -0.1315
4.2883 -3.2728 -0.1308
4.2590 -3.2693 -0.1265
4.2282 -3.2651 -0.1183
4.2116 -3.2644 -0.1248
4.1543 -3.2591 -0.1276
4.1364 -3.2574 -0.1275
4.1170 -3.2549 -0.1236
4.1025 -3.2538 -0.1259
4.0870 -3.2522 -0.1254
4.0589 -3.2494 -0.1257
4.0444 -3.2477 -0.1232
4.0314 -3.2462 -0.1223
4.0187 -3.2448 -0.1207
4.0096 -3.2446 -0.1257
3.9979 -3.2432 -0.1243
3.9855 -3.2414 -0.1199
3.9744 -3.2399 -0.1173
3.9666 -3.2398 -0.1220
8.6036 -3.2978 1.9815
8.2266 -3.2950 1.7887
8.2749 -3.3064 1.7287
8.3734 -3.3201 1.6793
8.3305 -3.3286 1.5893
8.4341 -3.3436 1.5338
8.1084 -3.3395 1.3799
7.4668 -3.3188 1.1732
6.8616 -3.2971 0.9953
6.6806 -3.2951 0.9074
6.9418 -3.3169 0.8884
6.9846 -3.3276 0.8311
5.3925 -3.2436 0.5689
5.6922 -3.2733 0.5119
6.7199 -3.3611 0.4234
6.8815 -3.3824 0.3520
6.7979 -3.3851 0.2837
7.0008 -3.4114 0.1969
7.8126 -3.4921 0.0398
7.2990 -3.4590 0.0018
6.6650 -3.4115 0.0051
6.6547 -3.4203 -0.0686
5.9993 -3.3647 -0.0151
6.0456 -3.3775 -0.0865
6.0961 -3.3912 -0.1630
5.5989 -3.3517 -0.1432
5.2346 -3.3216 -0.1196
5.1591 -3.3181 -0.1357
4.9735 -3.3050 -0.1407
4.8872 -3.2984 -0.1390
4.8244 -3.2945 -0.1449
4.6791 -3.2823 -0.1343
4.5717 -3.2740 -0.1319
4.5163 -3.2690 -0.1246
4.4722 -3.2654 -0.1223
4.4290 -3.2617 -0.1180
4.3980 -3.2598 -0.1212
4.3380 -3.2557 -0.1238
4.2819 -3.2514 -0.1227
4.2283 -3.2466 -0.1166
4.1912 -3.2447 -0.1232
4.1508 -3.2413 -0.1201
4.1357 -3.2406 -0.1235
4.1234 -3.2406 -0.1301
4.1030 -3.2382 -0.1233
4.0900 -3.2376 -0.1267
4.0599 -3.2350 -0.1235
4.0466 -3.2339 -0.1230
4.0364 -3.2338 -0.1276
4.0219 -3.2320 -0.1225
4.0105 -3.2312 -0.1227
3.9983 -3.2299 -0.1199
3.9906 -3.2302 -0.1264
3.9778 -3.2285 -0.1201
8.6762 -3.1937 2.0506
6.7156 -3.2198 1.0052
6.4281 -3.2179 0.9005
6.1266 -3.2253 0.7114
5.6589 -3.2222 0.5402
5.8286 -3.2348 0.5057
6.5563 -3.2753 0.4705
6.7873 -3.2945 0.4066
6.6773 -3.3047 0.2741
6.6907 -3.3137 0.2042
7.1050 -3.3478 0.0913
5.9481 -3.3096 -0.0740
5.9925 -3.3204 -0.1461
5.4008 -3.2897 -0.1368
5.2469 -3.2811 -0.1293
5.1460 -3.2767 -0.1349
4.9606 -3.2678 -0.1381
4.8603 -3.2616 -0.1282
4.8266 -3.2623 -0.1484
4.6101 -3.2488 -0.1259
4.5672 -3.2471 -0.1296
4.5235 -3.2450 -0.1303
4.3683 -3.2364 -0.1231
4.3376 -3.2348 -0.1226
4.3030 -3.2323 -0.1162
4.2867 -3.2327 -0.1264
4.2387 -3.2303 -0.1266
4.2110 -3.2282 -0.1199
4.1962 -3.2283 -0.1271
4.1696 -3.2259 -0.1181
4.1548 -3.2257 -0.1229
4.1355 -3.2244 -0.1203
4.1239 -3.2247 -0.1277
4.1053 -3.2233 -0.1236
4.0911 -3.2227 -0.1249
4.0758 -3.2218 -0.1234
4.0627 -3.2213 -0.1245
4.0362 -3.2197 -0.1227
4.0113 -3.2181 -0.1196
4.0019 -3.2180 -0.1227
3.9898 -3.2170 -0.1193
3.9818 -3.2172 -0.1241
5.7391 -3.1809 0.5334
5.7375 -3.1854 0.4914
7.1152 -3.2844 -0.0930
6.0044 -3.2491 -0.0362
5.8976 -3.2501 -0.0716
5.9669 -3.2602 -0.1486
5.2396 -3.2392 -0.1316
5.1575 -3.2384 -0.1441
5.0208 -3.2331 -0.1285
4.9220 -3.2299 -0.1231
4.8698 -3.2299 -0.1358
4.6056 -3.2217 -0.1241
4.5635 -3.2210 -0.1278
4.4982 -3.2177 -0.1124
4.4733 -3.2182 -0.1235
4.4472 -3.2185 -0.1325
4.4042 -3.2166 -0.1258
4.3712 -3.2157 -0.1250
4.3420 -3.2150 -0.1258
4.3134 -3.2142 -0.1253
4.2831 -3.2129 -0.1212
4.2565 -3.2120 -0.1190
4.2387 -3.2122 -0.1248
4.1961 -3.2110 -0.1247
4.1758 -3.2104 -0.1237
4.1560 -3.2097 -0.1218
4.1393 -3.2093 -0.1229
4.1237 -3.2091 -0.1243
4.1090 -3.2089 -0.1260
4.0901 -3.2077 -0.1198
4.0767 -3.2075 -0.1213
4.0623 -3.2070 -0.1199
4.0508 -3.2070 -0.1225
4.0424 -3.2076 -0.1303
4.0259 -3.2062 -0.1215
4.0138 -3.2057 -0.1201
4.0038 -3.2057 -0.1219
3.9939 -3.2056 -0.1233
3.9831 -3.2051 -0.1217
3.9757 -3.2055 -0.1275
5.3696 -3.1309 0.5717
5.7037 -3.1368 0.5207
6.8862 -3.1481 0.4407
6.8295 -3.1544 0.3731
6.7049 -3.1602 0.3095
6.5472 -3.1652 0.2523
6.4973 -3.1709 0.1915
6.5482 -3.1779 0.1203
6.5177 -3.1840 0.0563
5.7456 -3.1862 0.0088
5.8632 -3.2000 -0.1300
5.2378 -3.1986 -0.1359
5.1515 -3.1994 -0.1460
5.0410 -3.1985 -0.1411
4.8756 -3.1981 -0.1414
4.7134 -3.1960 -0.1253
4.6204 -3.1967 -0.1348
4.5112 -3.1951 -0.1223
4.4504 -3.1962 -0.1350
4.4122 -3.1958 -0.1322
4.3626 -3.1941 -0.1167
4.3350 -3.1942 -0.1184
4.3072 -3.1941 -0.1182
4.2618 -3.1944 -0.1231
4.2401 -3.1945 -0.1247
4.2203 -3.1947 -0.1270
4.1929 -3.1938 -0.1186
4.1734 -3.1937 -0.1182
4.1410 -3.1940 -0.1225
4.1073 -3.1937 -0.1201
4.0942 -3.1939 -0.1231
4.0650 -3.1936 -0.1209
4.0534 -3.1938 -0.1233
4.0389 -3.1934 -0.1195
4.0272 -3.1934 -0.1197
4.0050 -3.1933 -0.1198
3.9957 -3.1936 -0.1223
3.9871 -3.1939 -0.1257
5.5466 -3.0945 0.5405
5.6975 -3.0942 0.5096
7.1491 -3.0728 0.4231
7.2326 -3.0777 0.3470
6.8919 -3.0897 0.2855
6.3131 -3.1089 0.1949
6.4670 -3.1125 0.1163
6.7127 -3.1162 0.0159
5.9167 -3.1414 -0.0942
5.8544 -3.1462 -0.1361
5.2300 -3.1587 -0.1377
5.0071 -3.1624 -0.1296
4.9159 -3.1640 -0.1263
4.8351 -3.1653 -0.1234
4.7255 -3.1684 -0.1340
4.6058 -3.1701 -0.1264
4.5580 -3.1710 -0.1256
4.5069 -3.1715 -0.1196
4.4435 -3.1736 -0.1293
4.3768 -3.1749 -0.1288
4.3160 -3.1758 -0.1257
4.2893 -3.1763 -0.1250
4.2647 -3.1767 -0.1248
4.2376 -3.1769 -0.1201
4.2194 -3.1776 -0.1239
4.1977 -3.1779 -0.1224
4.1780 -3.1782 -0.1219
4.1462 -3.1793 -0.1271
4.1256 -3.1792 -0.1211
4.1142 -3.1800 -0.1277
4.0950 -3.1798 -0.1211
4.0789 -3.1798 -0.1179
4.0670 -3.1803 -0.1206
4.0548 -3.1806 -0.1218
4.0427 -3.1809 -0.1224
4.0303 -3.1811 -0.1214
4.0181 -3.1812 -0.1198
4.0097 -3.1818 -0.1251
3.9997 -3.1821 -0.1263
3.9888 -3.1822 -0.1246
6.8118 -2.9593 1.1108
6.8260 -2.9624 1.0610
5.9931 -3.0255 0.6870
5.4527 -3.0554 0.5931
5.4227 -3.0593 0.5574
5.7787 -3.0453 0.5432
6.0899 -3.0345 0.5123
6.5154 -3.0242 0.4103
6.5059 -3.0290 0.3506
6.3340 -3.0402 0.2985
6.2911 -3.0461 0.2433
6.3492 -3.0485 0.1789
6.4863 -3.0485 0.1010
6.8316 -3.0426 -0.0151
6.9274 -3.0455 -0.1073
5.8948 -3.0883 -0.0976
5.6647 -3.1016 -0.1452
5.3367 -3.1148 -0.1369
5.2167 -3.1199 -0.1373
5.0027 -3.1285 -0.1312
4.9130 -3.1320 -0.1279
4.8442 -3.1351 -0.1306
4.7852 -3.1380 -0.1350
4.7218 -3.1405 -0.1337
4.6070 -3.1450 -0.1283
4.5572 -3.1469 -0.1258
4.4329 -3.1518 -0.1206
4.3987 -3.1532 -0.1200
4.3745 -3.1546 -0.1262
4.3441 -3.1559 -0.1253
4.3103 -3.1568 -0.1191
4.2731 -3.1594 -0.1324
4.2381 -3.1599 -0.1189
4.2228 -3.1610 -0.1261
4.2033 -3.1619 -0.1272
4.1768 -3.1624 -0.1180
4.1618 -3.1633 -0.1221
4.1478 -3.1642 -0.1266
4.1327 -3.1650 -0.1286
4.1150 -3.1656 -0.1258
4.0978 -3.1660 -0.1222
4.0823 -3.1665 -0.1200
4.0710 -3.1673 -0.1238
4.0586 -3.1679 -0.1248
4.0452 -3.1683 -0.1231
4.0315 -3.1686 -0.1195
4.0133 -3.1700 -0.1279
4.0015 -3.1703 -0.1253
3.9928 -3.1709 -0.1286
6.9208 -2.8783 1.3239
6.8931 -2.8838 1.2659
6.7557 -2.9013 1.1310
6.6714 -2.9111 1.0622
6.8868 -2.8978 1.0547
6.9472 -2.8967 1.0109
6.0645 -2.9717 0.7255
5.4174 -3.0226 0.5804
5.9645 -2.9900 0.5412
6.4412 -2.9686 0.3969
6.3621 -2.9773 0.3415
6.3016 -2.9846 0.2874
6.2752 -2.9899 0.2320
6.3674 -2.9883 0.1645
6.4672 -2.9866 0.0905
6.8290 -2.9711 -0.0289
6.8454 -2.9750 -0.1072
6.5790 -2.9937 -0.1316
5.9236 -3.0347 -0.1135
5.6479 -3.0545 -0.1472
5.3195 -3.0749 -0.1360
5.2092 -3.0822 -0.1390
5.0891 -3.0895 -0.1324
5.0090 -3.0949 -0.1375
4.9148 -3.1006 -0.1317
4.8494 -3.1051 -0.1358
4.7674 -3.1098 -0.1273
4.6555 -3.1171 -0.1285
4.5554 -3.1233 -0.1253
4.4803 -3.1284 -0.1296
4.3449 -3.1368 -0.1252
4.3207 -3.1386 -0.1282
4.2921 -3.1402 -0.1254
4.2666 -3.1417 -0.1238
4.2407 -3.1432 -0.1203
4.2193 -3.1445 -0.1201
4.2074 -3.1459 -0.1301
4.1829 -3.1471 -0.1236
4.1649 -3.1483 -0.1237
4.1458 -3.1493 -0.1212
4.1278 -3.1503 -0.1187
4.1130 -3.1513 -0.1197
4.1012 -3.1524 -0.1244
4.0863 -3.1533 -0.1231
4.0729 -3.1542 -0.1235
4.0471 -3.1558 -0.1225
4.0376 -3.1567 -0.1272
4.0132 -3.1580 -0.1232
3.9922 -3.1593 -0.1221
6.8750 -2.8246 1.2920
6.7886 -2.8359 1.2199
6.8412 -2.8333 1.1833
6.7152 -2.8484 1.1038
6.6713 -2.8554 1.0448
6.7793 -2.8477 1.0156
6.9217 -2.8370 0.9877
6.8066 -2.8508 0.9134
6.6206 -2.8712 0.8323
6.3415 -2.8998 0.7458
5.4342 -2.9870 0.5725
6.3916 -2.9091 0.4943
6.4501 -2.9070 0.4398
6.3562 -2.9180 0.3846
6.3631 -2.9205 0.3283
6.3529 -2.9244 0.2716
6.3946 -2.9241 0.2097
6.4863 -2.9235 0.0754
6.8508 -2.8988 -0.0461
6.6095 -2.9212 -0.0786
6.3266 -2.9463 -0.0922
5.7607 -2.9914 -0.0282
5.8762 -2.9859 -0.1101
5.8045 -2.9940 -0.1465
5.6423 -3.0082 -0.1524
5.0787 -3.0555 -0.1319
4.7539 -3.0828 -0.1219
4.6559 -3.0917 -0.1300
4.5607 -3.0998 -0.1296
4.4728 -3.1071 -0.1240
4.4411 -3.1100 -0.1271
4.4058 -3.1129 -0.1253
4.3489 -3.1179 -0.1281
4.2951 -3.1225 -0.1271
4.2621 -3.1248 -0.1177
4.2457 -3.1266 -0.1242
4.2327 -3.1282 -0.1339
4.2030 -3.1302 -0.1227
4.1694 -3.1333 -0.1273
4.1451 -3.1349 -0.1176
4.1385 -3.1362 -0.1314
4.1144 -3.1376 -0.1188
4.1039 -3.1388 -0.1254
4.0868 -3.1400 -0.1207
4.0611 -3.1423 -0.1217
4.0382 -3.1444 -0.1241
4.0277 -3.1454 -0.1259
4.0174 -3.1464 -0.1272
4.0043 -3.1472 -0.1218
3.9938 -3.1480 -0.1209
6.5858 -2.8040 1.1504
6.5776 -2.8070 1.1026
6.6399 -2.8018 1.0697
6.6332 -2.8047 1.0199
6.6796 -2.8015 0.9794
6.6731 -2.8045 0.9274
6.7227 -2.8011 0.8832
6.6954 -2.8065 0.8261
6.3884 -2.8433 0.7367
5.4587 -2.9503 0.5652
5.7143 -2.9238 0.5468
6.3356 -2.8579 0.5316
6.4087 -2.8523 0.4807
6.3328 -2.8628 0.4262
6.3565 -2.8627 0.3714
6.3626 -2.8645 0.3153
6.3362 -2.8697 0.2599
6.6662 -2.8382 0.1728
6.5343 -2.8546 0.1212
6.5854 -2.8523 0.0495
6.7978 -2.8340 -0.0515
6.5257 -2.8641 -0.0756
6.5357 -2.8662 -0.1465
5.7975 -2.9431 -0.0980
5.7415 -2.9508 -0.1363
5.5707 -2.9691 -0.1368
5.3024 -2.9979 -0.1400
5.0841 -3.0212 -0.1380
4.9012 -3.0405 -0.1308
4.8246 -3.0485 -0.1278
4.7747 -3.0542 -0.1354
4.6457 -3.0676 -0.1250
4.5613 -3.0769 -0.1308
4.4722 -3.0861 -0.1236
4.4084 -3.0931 -0.1272
4.3512 -3.0993 -0.1295
4.3177 -3.1026 -0.1233
4.2897 -3.1055 -0.1205
4.2507 -3.1100 -0.1282
4.2016 -3.1149 -0.1189
4.1665 -3.1187 -0.1210
4.1494 -3.1205 -0.1210
4.1385 -3.1220 -0.1286
4.1052 -3.1254 -0.1243
4.0887 -3.1270 -0.1205
4.0787 -3.1283 -0.1262
4.0662 -3.1297 -0.1270
4.0539 -3.1310 -0.1272
4.0399 -3.1324 -0.1233
4.0287 -3.1336 -0.1237
4.0166 -3.1348 -0.1212
4.0077 -3.1359 -0.1245
3.9972 -3.1370 -0.1235
6.5592 -2.7547 1.1716
6.5184 -2.7618 1.1169
6.4641 -2.7706 1.0597
6.5362 -2.7624 1.0306
6.5280 -2.7651 0.9824
6.4871 -2.7721 0.9278
6.4946 -2.7728 0.8816
6.5900 -2.7617 0.8471
6.5640 -2.7669 0.7928
6.3423 -2.7978 0.7171
5.4961 -2.9114 0.5587
6.3683 -2.8012 0.5191
6.3591 -2.8041 0.4663
6.3495 -2.8072 0.4129
6.3239 -2.8123 0.3593
6.3151 -2.8152 0.3048
6.3535 -2.8123 0.2462
6.8918 -2.7471 0.1379
6.6349 -2.7814 0.0966
6.6465 -2.7822 0.0282
6.6811 -2.7803 -0.0459
6.6502 -2.7864 -0.1108
6.4953 -2.8075 -0.1495
5.7568 -2.8984 -0.0435
5.8004 -2.8950 -0.1067
5.7238 -2.9059 -0.1385
5.3278 -2.9570 -0.1545
5.0843 -2.9878 -0.1419
4.8905 -3.0121 -0.1284
4.6504 -3.0428 -0.1292
4.5157 -3.0600 -0.1282
4.4342 -3.0702 -0.1213
4.4117 -3.0734 -0.1297
4.3501 -3.0812 -0.1276
4.3180 -3.0851 -0.1226
4.2875 -3.0889 -0.1171
4.2674 -3.0915 -0.1205
4.2557 -3.0934 -0.1322
4.2244 -3.0970 -0.1206
4.2031 -3.0997 -0.1188
4.1899 -3.1016 -0.1259
4.1664 -3.1044 -0.1186
4.1377 -3.1083 -0.1246
4.1190 -3.1105 -0.1199
4.1043 -3.1124 -0.1199
4.0906 -3.1142 -0.1203
4.0798 -3.1157 -0.1247
4.0646 -3.1175 -0.1206
4.0530 -3.1190 -0.1218
4.0429 -3.1204 -0.1250
4.0291 -3.1220 -0.1203
4.0207 -3.1233 -0.1252
3.9981 -3.1260 -0.1209
3.9913 -3.1271 -0.1274
6.4403 -2.7241 1.0819
6.3879 -2.7332 1.0268
6.5027 -2.7166 1.0075
6.5695 -2.7087 0.9267
6.5793 -2.7084 0.8795
6.6070 -2.7054 0.8337
6.4454 -2.7310 0.7628
6.3371 -2.7533 0.5046
6.3434 -2.7536 0.4529
6.3343 -2.7562 0.4000
6.3248 -2.7589 0.3465
6.3320 -2.7592 0.2914
6.4582 -2.7420 0.2258
6.9638 -2.6697 0.1162
6.8807 -2.6835 0.0537
6.7104 -2.7099 0.0062
6.4285 -2.7538 -0.0805
6.1820 -2.7907 -0.0930
5.8157 -2.8444 -0.0656
5.7933 -2.8489 -0.1126
5.7274 -2.8595 -0.1468
5.4016 -2.9077 -0.1409
5.3051 -2.9222 -0.1509
5.1427 -2.9458 -0.1300
5.0495 -2.9597 -0.1305
4.9753 -2.9708 -0.1352
4.9076 -2.9809 -0.1395
4.6907 -3.0127 -0.1237
4.6684 -3.0165 -0.1417
4.4403 -3.0500 -0.1261
4.4071 -3.0549 -0.1255
4.3496 -3.0634 -0.1265
4.3132 -3.0686 -0.1170
4.2692 -3.0752 -0.1210
4.2510 -3.0780 -0.1253
4.2291 -3.0812 -0.1244
4.2022 -3.0850 -0.1159
4.1852 -3.0876 -0.1178
4.1677 -3.0902 -0.1180
4.1543 -3.0923 -0.1227
4.1337 -3.0952 -0.1164
4.1216 -3.0971 -0.1210
4.0945 -3.1012 -0.1234
4.0796 -3.1034 -0.1209
4.0683 -3.1051 -0.1236
4.0566 -3.1069 -0.1247
4.0439 -3.1087 -0.1229
4.0326 -3.1104 -0.1231
4.0145 -3.1132 -0.1299
6.4629 -2.6744 0.9386
6.5030 -2.6682 0.8996
6.4948 -2.6703 0.8509
6.5705 -2.6581 0.8130
6.3371 -2.6985 0.7354
6.3078 -2.7070 0.4907
6.3285 -2.7043 0.4397
6.3347 -2.7040 0.3872
6.3415 -2.7036 0.3333
6.3818 -2.6976 0.2761
6.7613 -2.6369 0.0546
6.1943 -2.7339 -0.0458
6.0950 -2.7512 -0.0836
5.8998 -2.7842 -0.0943
5.7637 -2.8074 -0.1122
5.6705 -2.8235 -0.1371
5.3914 -2.8706 -0.1427
5.1701 -2.9079 -0.1452
4.9593 -2.9432 -0.1309
4.7013 -2.9867 -0.1315
4.6289 -2.9988 -0.1183
4.5798 -3.0070 -0.1162
4.5373 -3.0141 -0.1161
4.5161 -3.0179 -0.1292
4.4482 -3.0294 -0.1324
4.4032 -3.0368 -0.1219
4.3794 -3.0409 -0.1272
4.3236 -3.0503 -0.1262
4.2987 -3.0545 -0.1261
4.2817 -3.0575 -0.1329
4.2510 -3.0625 -0.1238
4.2323 -3.0657 -0.1263
4.2036 -3.0704 -0.1156
4.1873 -3.0732 -0.1184
4.1548 -3.0787 -0.1209
4.1401 -3.0812 -0.1229
4.1257 -3.0836 -0.1242
4.1050 -3.0870 -0.1151
4.0991 -3.0882 -0.1276
4.0813 -3.0911 -0.1204
4.0679 -3.0933 -0.1195
4.0556 -3.0954 -0.1192
4.0454 -3.0971 -0.1221
4.0244 -3.1007 -0.1242
4.0160 -3.1022 -0.1286
4.0035 -3.1042 -0.1235
6.4041 -2.5184 0.8629
5.7053 -2.7004 0.6787
5.6210 -2.7217 0.6334
5.5075 -2.7508 0.5880
6.3046 -2.5366 0.5600
6.3415 -2.5253 0.5101
6.3165 -2.5305 0.4570
6.0552 -2.5977 0.3578
6.0917 -2.5835 0.2017
6.1375 -2.5696 0.1423
6.2805 -2.5292 0.0655
6.5029 -2.4669 -0.0330
6.6823 -2.4160 -0.1353
6.2059 -2.5426 -0.1668
5.8977 -2.6257 -0.1473
5.6649 -2.6884 -0.1351
5.3689 -2.7676 -0.1360
4.9347 -2.8842 -0.1219
4.7866 -2.9240 -0.1173
4.6869 -2.9505 -0.1258
4.5818 -2.9788 -0.1202
4.4988 -3.0010 -0.1189
4.4191 -3.0226 -0.1107
4.3715 -3.0350 -0.1218
4.3132 -3.0508 -0.1170
4.2669 -3.0632 -0.1176
4.2271 -3.0738 -0.1198
4.2062 -3.0794 -0.1179
4.1872 -3.0845 -0.1170
4.1702 -3.0891 -0.1172
4.1556 -3.0929 -0.1199
4.1370 -3.0980 -0.1156
4.1230 -3.1017 -0.1170
4.1100 -3.1051 -0.1189
4.0938 -3.1096 -0.1147
4.0704 -3.1157 -0.1181
4.0565 -3.1196 -0.1143
4.0453 -3.1226 -0.1148
4.0351 -3.1253 -0.1160
4.0256 -3.1277 -0.1181
4.0139 -3.1310 -0.1147
4.0059 -3.1330 -0.1187
3.9976 -3.1352 -0.1211
6.2148 -2.5183 0.8051
5.7942 -2.6361 0.7036
5.7210 -2.6555 0.6570
5.4801 -2.7216 0.5629
6.4267 -2.4443 0.4725
6.0740 -2.5424 0.3685
5.9738 -2.5696 0.3227
6.0397 -2.5485 0.2682
6.1107 -2.5257 0.2093
6.2349 -2.4871 0.1396
6.4595 -2.4161 -0.0175
6.6574 -2.3548 -0.1228
6.4584 -2.4112 -0.1534
5.9005 -2.5729 -0.1450
5.6832 -2.6360 -0.1387
5.5281 -2.6808 -0.1418
5.3639 -2.7286 -0.1341
5.2302 -2.7675 -0.1298
5.1262 -2.7975 -0.1307
5.0341 -2.8241 -0.1317
4.9302 -2.8546 -0.1222
4.7735 -2.9002 -0.1137
4.7402 -2.9093 -0.1287
4.6797 -2.9269 -0.1258
4.5786 -2.9563 -0.1231
4.4930 -2.9811 -0.1204
4.3521 -3.0223 -0.1111
4.3412 -3.0248 -0.1267
4.3142 -3.0327 -0.1258
4.2831 -3.0419 -0.1187
4.2620 -3.0480 -0.1205
4.2405 -3.0542 -0.1206
4.2180 -3.0608 -0.1179
4.1802 -3.0718 -0.1173
4.1633 -3.0766 -0.1177
4.1460 -3.0817 -0.1164
4.1312 -3.0859 -0.1175
4.1181 -3.0896 -0.1202
4.1011 -3.0947 -0.1157
4.0898 -3.0978 -0.1194
4.0762 -3.1018 -0.1182
4.0647 -3.1051 -0.1198
4.0503 -3.1094 -0.1150
4.0393 -3.1126 -0.1156
4.0279 -3.1159 -0.1145
4.0191 -3.1183 -0.1180
4.0099 -3.1209 -0.1198
3.9991 -3.1241 -0.1174
3.9909 -3.1265 -0.1198
7.3133 -2.1376 1.0624
6.5503 -2.3474 0.4900
6.6329 -2.2924 -0.1102
6.3950 -2.3654 -0.1335
5.5333 -2.6336 -0.1425
5.2619 -2.7182 -0.1426
5.0151 -2.7960 -0.1252
4.9423 -2.8184 -0.1306
4.8560 -2.8456 -0.1252
4.7153 -2.8898 -0.1184
4.6703 -2.9035 -0.1246
4.6163 -2.9204 -0.1225
4.5731 -2.9338 -0.1247
4.5273 -2.9482 -0.1225
4.4868 -2.9608 -0.1217
4.4488 -2.9727 -0.1204
4.4116 -2.9845 -0.1175
4.3793 -2.9946 -0.1165
4.3501 -3.0037 -0.1165
4.3246 -3.0115 -0.1183
4.2738 -3.0275 -0.1170
4.2537 -3.0336 -0.1199
4.2257 -3.0427 -0.1122
4.2080 -3.0481 -0.1150
4.1950 -3.0517 -0.1227
4.1765 -3.0575 -0.1223
4.1534 -3.0651 -0.1142
4.1266 -3.0731 -0.1215
4.1089 -3.0789 -0.1169
4.0922 -3.0843 -0.1126
4.0830 -3.0868 -0.1197
4.0701 -3.0908 -0.1197
4.0569 -3.0950 -0.1180
4.0446 -3.0989 -0.1169
4.0213 -3.1063 -0.1142
4.0120 -3.1091 -0.1165
4.0023 -3.1121 -0.1171
3.9929 -3.1150 -0.1174
3.9852 -3.1172 -0.1212
7.3521 -2.0512 1.0963
7.2499 -2.0725 0.8802
7.0257 -2.1420 0.7875
5.7942 -2.5440 0.6128
5.5852 -2.6107 0.5571
7.0530 -2.0993 0.2250
6.7595 -2.1944 0.1728
7.1584 -2.0539 0.0565
6.7659 -2.1835 0.0260
6.7573 -2.1820 -0.0482
6.6531 -2.2134 -0.1059
6.4084 -2.2939 -0.1300
6.1170 -2.3914 -0.1315
5.9439 -2.4483 -0.1501
5.5481 -2.5811 -0.1463
5.2292 -2.6888 -0.1307
4.7176 -2.8606 -0.1239
4.6632 -2.8787 -0.1248
4.6011 -2.9000 -0.1176
4.5543 -2.9157 -0.1171
4.5058 -2.9322 -0.1126
4.4811 -2.9398 -0.1235
4.4344 -2.9559 -0.1153
4.3757 -2.9753 -0.1205
4.3436 -2.9862 -0.1179
4.3145 -2.9960 -0.1162
4.2636 -3.0132 -0.1145
4.2141 -3.0302 -0.1074
4.2003 -3.0344 -0.1148
4.1852 -3.0391 -0.1199
4.1477 -3.0519 -0.1166
4.1171 -3.0620 -0.1181
4.0859 -3.0727 -0.1137
4.0603 -3.0813 -0.1143
4.0399 -3.0877 -0.1210
4.0163 -3.0958 -0.1176
3.9942 -3.1035 -0.1131
3.9784 -3.1084 -0.1199
7.2907 -2.0135 1.3638
7.4968 -1.9388 1.3535
7.3265 -1.9786 1.0526
7.2626 -1.9959 0.9749
5.4960 -2.6007 0.5622
7.2629 -1.9653 0.5456
7.5281 -1.8648 0.4716
7.6399 -1.8186 0.3858
7.2790 -1.9428 0.3097
6.8931 -2.0770 0.2499
6.9937 -2.0350 0.1668
7.1343 -1.9778 0.0728
7.0661 -1.9970 -0.0024
5.2349 -2.6449 -0.1337
5.0026 -2.7290 -0.1238
4.8366 -2.7888 -0.1218
4.7165 -2.8315 -0.1276
4.6031 -2.8724 -0.1241
4.5643 -2.8859 -0.1297
4.4610 -2.9241 -0.1142
4.4323 -2.9340 -0.1202
4.4008 -2.9451 -0.1223
4.3637 -2.9588 -0.1172
4.3119 -2.9771 -0.1217
4.2831 -2.9877 -0.1184
4.2585 -2.9965 -0.1177
4.2168 -3.0114 -0.1201
4.1923 -3.0205 -0.1146
4.1768 -3.0258 -0.1189
4.1588 -3.0323 -0.1188
4.1358 -3.0411 -0.1101
4.1115 -3.0491 -0.1208
4.0956 -3.0550 -0.1187
4.0825 -3.0596 -0.1202
4.0666 -3.0656 -0.1156
4.0565 -3.0689 -0.1203
4.0419 -3.0745 -0.1154
4.0328 -3.0774 -0.1204
4.0199 -3.0823 -0.1167
4.0100 -3.0857 -0.1184
3.9977 -3.0905 -0.1135
3.9883 -3.0938 -0.1143
3.9790 -3.0971 -0.1147
3.9720 -3.0992 -0.1200
7.4764 -1.8666 1.3801
7.1652 -1.9641 1.1153
7.1054 -1.9808 1.0402
7.0461 -1.9975 0.9661
6.9623 -2.0233 0.8897
7.1478 -1.9250 0.5627
7.3308 -1.8487 0.4904
7.2926 -1.8567 0.4096
7.0629 -1.9322 0.2562
7.0264 -1.9398 0.1790
7.1716 -1.8761 0.0832
7.1331 -1.8841 0.0017
7.1916 -1.8536 -0.0948
6.4587 -2.1323 -0.1270
5.5595 -2.4758 -0.1478
5.2544 -2.5934 -0.1420
4.5908 -2.8499 -0.1212
4.4256 -2.9133 -0.1216
4.3828 -2.9303 -0.1138
4.3502 -2.9430 -0.1123
4.3022 -2.9607 -0.1202
4.2287 -2.9891 -0.1186
4.2125 -2.9948 -0.1248
4.1870 -3.0052 -0.1178
4.1689 -3.0121 -0.1188
4.1504 -3.0192 -0.1179
4.1350 -3.0249 -0.1201
4.1154 -3.0329 -0.1147
4.0994 -3.0392 -0.1133
4.0740 -3.0485 -0.1180
4.0619 -3.0530 -0.1201
4.0449 -3.0602 -0.1116
4.0266 -3.0664 -0.1221
4.0117 -3.0728 -0.1138
4.0026 -3.0761 -0.1168
3.9920 -3.0802 -0.1157
3.9827 -3.0837 -0.1167
3.9726 -3.0877 -0.1146
3.9632 -3.0915 -0.1134
7.0827 -1.9132 1.0626
7.1606 -1.8764 1.0113
7.1198 -1.8796 0.8696
7.3556 -1.7716 0.7501
7.1607 -1.8429 0.6595
7.0946 -1.8626 0.5817
7.3751 -1.7411 0.5129
7.4423 -1.7056 0.4297
7.2299 -1.7849 0.3483
7.1144 -1.8090 0.1036
7.1395 -1.7902 0.0142
7.3052 -1.7114 -0.0997
6.4529 -2.0589 -0.1186
5.7550 -2.3420 -0.1490
5.2261 -2.5603 -0.1319
5.1073 -2.6091 -0.1303
4.9209 -2.6854 -0.1316
4.5849 -2.8240 -0.1228
4.5413 -2.8416 -0.1253
4.4546 -2.8774 -0.1225
4.4209 -2.8910 -0.1249
4.3802 -2.9082 -0.1190
4.3420 -2.9245 -0.1125
4.3202 -2.9327 -0.1194
4.2657 -2.9553 -0.1174
4.1589 -2.9992 -0.1159
4.1433 -3.0053 -0.1189
4.1287 -3.0110 -0.1223
4.1094 -3.0194 -0.1171
4.0776 -3.0328 -0.1131
4.0518 -3.0432 -0.1147
4.0396 -3.0481 -0.1152
4.0277 -3.0530 -0.1151
4.0188 -3.0562 -0.1203
4.0063 -3.0616 -0.1168
3.9946 -3.0667 -0.1139
3.9867 -3.0694 -0.1191
3.9760 -3.0741 -0.1164
3.9665 -3.0780 -0.1158
7.1667 -1.7928 1.0397
7.2097 -1.7519 0.8353
7.2034 -1.7467 0.7610
7.2616 -1.7136 0.6901
7.3560 -1.6645 0.6168
7.4594 -1.6108 0.5378
7.2775 -1.6809 0.4506
7.3777 -1.6279 0.3649
7.1342 -1.7258 0.2872
7.1868 -1.6839 0.1119
7.2849 -1.6301 0.0106
7.1396 -1.6857 -0.0624
5.7423 -2.2872 -0.1429
5.1344 -2.5526 -0.1433
4.7393 -2.7279 -0.1178
4.6881 -2.7496 -0.1246
4.6347 -2.7726 -0.1270
4.4406 -2.8583 -0.1182
4.3681 -2.8902 -0.1159
4.3278 -2.9057 -0.1358
4.2630 -2.9352 -0.1239
4.2163 -2.9557 -0.1236
4.1950 -2.9650 -0.1235
4.1729 -2.9749 -0.1206
4.1552 -2.9825 -0.1220
4.1347 -2.9919 -0.1180
4.1031 -3.0056 -0.1195
4.0840 -3.0147 -0.1126
4.0711 -3.0200 -0.1150
4.0591 -3.0249 -0.1178
4.0457 -3.0309 -0.1169
4.0208 -3.0419 -0.1154
4.0108 -3.0460 -0.1184
4.0021 -3.0492 -0.1234
3.9891 -3.0556 -0.1171
3.9788 -3.0602 -0.1163
3.9692 -3.0644 -0.1162
3.9599 -3.0685 -0.1157
7.2443 -1.6913 1.2195
7.0929 -1.7497 1.1203
6.9256 -1.8156 1.0229
7.0956 -1.7154 0.8472
7.2751 -1.6255 0.7935
7.4075 -1.5558 0.7265
7.2976 -1.5961 0.6377
7.3275 -1.5725 0.5570
7.3578 -1.5482 0.4730
7.3170 -1.5567 0.3866
7.3121 -1.5484 0.2988
7.2708 -1.5570 0.2114
6.9407 -1.7029 0.1498
7.1883 -1.5742 0.0368
7.2518 -1.5323 -0.0655
7.2828 -1.5054 -0.1681
5.7793 -2.2061 -0.1510
5.1071 -2.5206 -0.1336
5.0096 -2.5655 -0.1364
4.9100 -2.6123 -0.1325
4.7558 -2.6840 -0.1315
4.6270 -2.7444 -0.1275
4.5182 -2.7957 -0.1211
4.4760 -2.8152 -0.1219
4.4408 -2.8311 -0.1256
4.3610 -2.8692 -0.1175
4.3347 -2.8808 -0.1222
4.3076 -2.8932 -0.1243
4.2831 -2.9042 -0.1274
4.2470 -2.9224 -0.1155
4.2083 -2.9393 -0.1243
4.1867 -2.9494 -0.1236
4.1662 -2.9591 -0.1227
4.1456 -2.9690 -0.1199
4.1285 -2.9768 -0.1207
4.0931 -2.9938 -0.1159
4.0645 -3.0070 -0.1167
4.0510 -3.0133 -0.1166
4.0372 -3.0200 -0.1148
4.0274 -3.0239 -0.1199
4.0158 -3.0292 -0.1203
4.0039 -3.0349 -0.1189
3.9928 -3.0402 -0.1180
3.9810 -3.0461 -0.1142
3.9732 -3.0491 -0.1196
3.9633 -3.0538 -0.1185
3.9532 -3.0589 -0.1155
7.1080 -1.6314 0.9466
7.2893 -1.5354 0.8989
7.3524 -1.4948 0.8285
7.2786 -1.5195 0.7416
7.3429 -1.4775 0.6652
7.6066 -1.3374 0.5923
7.4067 -1.4233 0.4966
7.2216 -1.5028 0.4085
7.3588 -1.4227 0.3172
7.1078 -1.5361 0.2392
7.1003 -1.5280 0.1517
7.2682 -1.4305 0.0430
7.2617 -1.4207 -0.0531
7.1822 -1.4484 -0.1390
5.7531 -2.1538 -0.1408
5.1224 -2.4650 -0.1419
5.0159 -2.5176 -0.1419
4.5176 -2.7656 -0.1274
4.4263 -2.8115 -0.1212
4.3960 -2.8257 -0.1267
4.3564 -2.8460 -0.1216
4.3234 -2.8625 -0.1199
4.2966 -2.8754 -0.1223
4.2719 -2.8873 -0.1249
4.2377 -2.9055 -0.1148
4.2181 -2.9145 -0.1195
4.1963 -2.9252 -0.1200
4.1769 -2.9345 -0.1219
4.1359 -2.9554 -0.1178
4.1043 -2.9704 -0.1217
4.0842 -2.9813 -0.1143
4.0769 -2.9831 -0.1276
4.0588 -2.9931 -0.1204
4.0443 -3.0005 -0.1185
4.0292 -3.0086 -0.1137
4.0180 -3.0138 -0.1157
4.0076 -3.0186 -0.1183
3.9944 -3.0258 -0.1135
3.9859 -3.0293 -0.1186
3.9752 -3.0347 -0.1173
3.9661 -3.0390 -0.1192
3.9564 -3.0439 -0.1182
3.9486 -3.0473 -0.1217
7.4247 -1.4282 1.3270
7.6433 -1.3101 1.3032
7.5632 -1.3378 1.2079
7.3432 -1.4353 1.0886
7.3380 -1.4266 1.0118
7.4407 -1.3634 0.9486
7.3998 -1.3719 0.8621
7.4326 -1.3429 0.7827
7.7131 -1.1862 0.7178
7.8495 -1.1017 0.6305
7.6223 -1.2051 0.5257
7.3020 -1.3587 0.4298
7.2956 -1.3486 0.3398
7.2530 -1.3575 0.2497
7.2473 -1.3466 0.1568
7.0991 -1.4124 0.0770
7.1971 -1.3450 -0.0300
7.1537 -1.3541 -0.1220
5.5602 -2.1862 -0.1419
5.0875 -2.4358 -0.1289
4.9944 -2.4838 -0.1348
4.8163 -2.5773 -0.1336
4.6792 -2.6489 -0.1347
4.5510 -2.7178 -0.1236
4.4955 -2.7477 -0.1177
4.4677 -2.7605 -0.1299
4.4246 -2.7834 -0.1276
4.3092 -2.8458 -0.1148
4.2882 -2.8556 -0.1230
4.2585 -2.8716 -0.1201
4.2353 -2.8834 -0.1224
4.2082 -2.8982 -0.1182
4.1448 -2.9317 -0.1164
4.1249 -2.9425 -0.1139
4.0350 -2.9895 -0.1152
3.9998 -3.0076 -0.1174
3.9878 -3.0142 -0.1151
3.9785 -3.0187 -0.1179
3.9684 -3.0239 -0.1180
3.9590 -3.0288 -0.1188
3.9494 -3.0339 -0.1178
3.9408 -3.0382 -0.1189
3.9329 -3.0421 -0.1209
7.6993 -1.1643 1.2716
7.7828 -1.1069 1.2049
7.3800 -1.2922 0.9703
7.2011 -1.3746 0.8664
7.1298 -1.4000 0.7800
7.2932 -1.2984 0.7138
7.3983 -1.2270 0.6346
7.5978 -1.1025 0.5511
7.3882 -1.2028 0.4530
7.0610 -1.3703 0.3658
7.0205 -1.3788 0.2802
7.0456 -1.3500 0.1898
7.1404 -1.2807 0.0886
7.2057 -1.2272 -0.0165
7.1988 -1.2146 -0.1165
6.5684 -1.5675 -0.1003
6.2589 -1.7365 -0.1187
5.5237 -2.1433 -0.1288
5.2054 -2.3203 -0.1283
4.9792 -2.4456 -0.1305
4.7968 -2.5474 -0.1274
4.6553 -2.6264 -0.1253
4.5515 -2.6832 -0.1306
4.4953 -2.7154 -0.1247
4.4449 -2.7443 -0.1192
4.4082 -2.7643 -0.1217
4.3787 -2.7796 -0.1281
4.3022 -2.8239 -0.1172
4.2496 -2.8526 -0.1204
4.2230 -2.8677 -0.1186
4.1994 -2.8808 -0.1184
4.1789 -2.8919 -0.1202
4.1606 -2.9015 -0.1235
4.1202 -2.9246 -0.1197
4.0829 -2.9464 -0.1133
4.0554 -2.9610 -0.1175
4.0310 -2.9736 -0.1232
4.0174 -2.9816 -0.1209
4.0026 -2.9908 -0.1147
3.9919 -2.9964 -0.1164
3.9806 -3.0029 -0.1154
3.9705 -3.0084 -0.1161
3.9610 -3.0135 -0.1174
3.9509 -3.0193 -0.1159
3.9423 -3.0238 -0.1175
3.9343 -3.0279 -0.1200
3.9260 -3.0324 -0.1208
7.4457 -1.2072 1.3287
7.3243 -1.2325 1.0720
7.2153 -1.2794 0.9756
7.1109 -1.3242 0.8829
6.9806 -1.3843 0.7904
7.0331 -1.3404 0.7183
7.7060 -0.9199 0.5821
7.2852 -1.1484 0.4759
6.9693 -1.3186 0.3877
6.9293 -1.3269 0.3029
6.9843 -1.2781 0.2117
7.0084 -1.2471 0.1180
7.0335 -1.2148 0.0204
7.0246 -1.2028 -0.0759
6.0630 -1.7566 -0.1435
5.5750 -2.0438 -0.1437
5.2193 -2.2547 -0.1347
5.0802 -2.3375 -0.1297
5.0014 -2.3813 -0.1437
4.9088 -2.4354 -0.1461
4.7933 -2.5063 -0.1299
4.6967 -2.5656 -0.1165
4.6315 -2.6040 -0.1160
4.5346 -2.6593 -0.1254
4.4487 -2.7091 -0.1302
4.3967 -2.7415 -0.1201
4.3675 -2.7575 -0.1268
4.3330 -2.7778 -0.1264
4.3020 -2.7960 -0.1268
4.2448 -2.8299 -0.1257
4.1929 -2.8612 -0.1216
4.1510 -2.8856 -0.1226
4.1357 -2.8936 -0.1286
4.1129 -2.9082 -0.1218
4.0730 -2.9337 -0.1105
4.0469 -2.9479 -0.1168
4.0309 -2.9582 -0.1121
4.0191 -2.9647 -0.1146
3.9954 -2.9784 -0.1158
3.9849 -2.9843 -0.1177
3.9751 -2.9896 -0.1202
3.9629 -2.9976 -0.1154
3.9540 -3.0024 -0.1180
3.9425 -3.0103 -0.1118
3.9355 -3.0132 -0.1183
3.9261 -3.0192 -0.1159
3.9173 -3.0247 -0.1142
7.3856 -1.1368 1.3502
7.2994 -1.1415 1.1001
7.1901 -1.1904 1.0022
7.1167 -1.2186 0.9127
7.1100 -1.2071 0.8327
6.9753 -1.2726 0.7389
7.0621 -1.2042 0.6655
7.2641 -1.0637 0.5909
7.1484 -1.1175 0.4975
6.9727 -1.2096 0.4085
6.9318 -1.2181 0.3220
6.9550 -1.1859 0.2315
6.9783 -1.1530 0.1374
6.9600 -1.1271 -0.0528
6.7276 -1.2606 -0.1102
5.4066 -2.0762 -0.1479
5.1160 -2.2573 -0.1472
4.9959 -2.3327 -0.1443
4.8971 -2.3943 -0.1441
4.5832 -2.5928 -0.1289
4.5331 -2.6236 -0.1314
4.4869 -2.6519 -0.1334
4.4352 -2.6854 -0.1273
4.3941 -2.7111 -0.1265
4.3580 -2.7335 -0.1272
4.2898 -2.7766 -0.1242
4.2594 -2.7958 -0.1226
4.2256 -2.8184 -0.1144
4.2059 -2.8296 -0.1204
4.1579 -2.8602 -0.1163
4.1255 -2.8783 -0.1269
4.1032 -2.8935 -0.1204
4.0682 -2.9160 -0.1168
4.0536 -2.9249 -0.1179
4.0384 -2.9347 -0.1162
4.0245 -2.9435 -0.1156
4.0147 -2.9483 -0.1224
4.0019 -2.9564 -0.1216
3.9868 -2.9673 -0.1137
3.9760 -2.9739 -0.1145
3.9672 -2.9785 -0.1193
3.9553 -2.9868 -0.1146
3.9445 -2.9941 -0.1115
3.9283 -3.0030 -0.1179
3.9194 -3.0087 -0.1169
7.4021 -1.0363 1.4675
7.1898 -1.1482 1.3359
7.0975 -1.1413 1.0177
6.9645 -1.2080 0.9195
7.0182 -1.1578 0.8498
6.8875 -1.2240 0.7565
7.0345 -1.1129 0.6895
6.9937 -1.1214 0.6030
6.9855 -1.1086 0.5175
6.8503 -1.1791 0.4302
6.9674 -1.0829 0.3409
6.8931 -1.1133 0.2537
6.8832 -1.1004 0.1627
6.8725 -1.0877 0.0699
6.8627 -1.0740 -0.0250
5.3894 -2.0199 -0.1417
5.0991 -2.2111 -0.1422
4.8906 -2.3479 -0.1449
4.6929 -2.4824 -0.1249
4.6132 -2.5368 -0.1162
4.5648 -2.5672 -0.1231
4.4709 -2.6278 -0.1288
4.3740 -2.6941 -0.1176
4.3091 -2.7358 -0.1224
4.2785 -2.7559 -0.1228
4.1972 -2.8098 -0.1215
4.1511 -2.8405 -0.1197
4.1314 -2.8533 -0.1205
4.1132 -2.8650 -0.1219
4.0945 -2.8776 -0.1206
4.0763 -2.8901 -0.1183
4.0600 -2.9010 -0.1176
4.0316 -2.9194 -0.1193
4.0188 -2.9274 -0.1210
4.0077 -2.9339 -0.1251
3.9907 -2.9474 -0.1141
3.9684 -2.9620 -0.1146
3.9580 -2.9687 -0.1151
3.9499 -2.9729 -0.1207
3.9289 -2.9880 -0.1144
3.9213 -2.9921 -0.1187
3.9126 -2.9981 -0.1178
3.9053 -3.0021 -0.1214
7.2487 -1.0561 1.6035
7.0711 -1.0509 1.0447
6.9989 -1.0805 0.9548
6.9910 -1.0676 0.8752
7.0479 -1.0109 0.8013
6.9419 -1.0633 0.7084
7.0312 -0.9832 0.6307
6.8921 -1.0588 0.5383
6.8829 -1.0453 0.4520
6.9369 -0.9870 0.3626
6.9278 -0.9723 0.2708
6.8206 -1.0271 0.1850
6.8093 -1.0136 0.0925
6.7364 -1.0446 0.0068
6.6644 -1.0755 -0.0771
6.0450 -1.4963 -0.1230
5.8403 -1.6334 -0.1468
5.3922 -1.9465 -0.1426
5.1093 -2.1421 -0.1489
4.8832 -2.3003 -0.1454
4.6916 -2.4374 -0.1299
4.5605 -2.5292 -0.1271
4.4522 -2.6059 -0.1221
4.3654 -2.6670 -0.1191
4.3020 -2.7097 -0.1256
4.2689 -2.7333 -0.1233
4.2384 -2.7550 -0.1212
4.2155 -2.7699 -0.1257
4.1855 -2.7924 -0.1189
4.1471 -2.8171 -0.1277
4.1055 -2.8468 -0.1243
4.0856 -2.8615 -0.1208
4.0691 -2.8729 -0.1214
4.0398 -2.8926 -0.1244
4.0084 -2.9163 -0.1165
3.9970 -2.9235 -0.1196
3.9739 -2.9393 -0.1209
3.9637 -2.9458 -0.1233
3.9420 -2.9618 -0.1199
3.9225 -2.9759 -0.1174
3.9136 -2.9822 -0.1171
3.9050 -2.9883 -0.1162
3.8985 -2.9915 -0.1224
6.9772 -1.1270 1.5499
6.9740 -1.0618 1.2787
7.0589 -0.9866 1.2276
6.9575 -1.0370 1.1302
7.0435 -0.9592 1.0722
7.0031 -0.9676 0.9866
6.8701 -1.0408 0.8875
6.8818 -0.9929 0.7299
6.8628 -0.9649 0.5612
6.8525 -0.9508 0.4743
6.8109 -0.9595 0.3861
6.8966 -0.8729 0.2922
6.7886 -0.9307 0.2051
6.7036 -0.9484 0.0250
6.6025 -1.0029 -0.0550
6.3989 -1.1390 -0.1099
5.9767 -1.4520 -0.1007
5.7939 -1.5791 -0.1302
5.6073 -1.7122 -0.1473
5.3954 -1.8690 -0.1436
5.0846 -2.0985 -0.1406
4.8663 -2.2590 -0.1411
4.7692 -2.3316 -0.1362
4.6858 -2.3940 -0.1323
4.6314 -2.4318 -0.1412
4.4417 -2.5762 -0.1222
4.3655 -2.6305 -0.1290
4.3304 -2.6559 -0.1307
4.2974 -2.6800 -0.1317
4.2295 -2.7322 -0.1227
4.2025 -2.7522 -0.1221
4.1785 -2.7697 -0.1228
4.1577 -2.7842 -0.1258
4.1302 -2.8067 -0.1169
4.1132 -2.8181 -0.1214
4.0951 -2.8312 -0.1225
4.0177 -2.8872 -0.1263
3.9968 -2.9068 -0.1090
3.9889 -2.9099 -0.1201
3.9748 -2.9216 -0.1146
3.9642 -2.9289 -0.1165
3.9550 -2.9346 -0.1212
3.9343 -2.9500 -0.1202
3.9158 -2.9636 -0.1203
3.9065 -2.9711 -0.1178
3.8986 -2.9765 -0.1195
7.0318 -0.9715 1.5413
6.9643 -0.9997 1.4512
7.0473 -0.9233 1.4070
6.9688 -0.9397 1.2407
6.8698 -0.9906 1.1440
6.8028 -1.0192 1.0566
7.1083 -0.7768 1.0380
7.0657 -0.7857 0.9480
6.8017 -0.9589 0.8290
6.7919 -0.9448 0.7482
7.0406 -0.7348 0.6858
6.8323 -0.8695 0.5847
6.8218 -0.8541 0.4971
6.8755 -0.7882 0.4072
6.8000 -0.8225 0.3165
6.6656 -0.9042 0.2318
6.8435 -0.7363 0.1214
6.5978 -0.8832 -0.0425
6.3915 -1.0283 -0.0993
6.0003 -1.3320 -0.1004
5.7780 -1.4989 -0.1220
5.6581 -1.5815 -0.1614
5.4416 -1.7502 -0.1597
5.2204 -1.9272 -0.1410
5.0660 -2.0487 -0.1350
4.9490 -2.1395 -0.1356
4.8434 -2.2221 -0.1337
