ply
format ascii 1.0
element vertex 2087
property float x
property float y
property float z
end_header
1.7257 1.2445 -0.0681
2.5408 -0.3023 0.0844
2.6072 -0.3165 0.0867
2.6700 -0.2778 0.0841
2.7319 -0.0664 0.0658
2.8058 0.3038 0.0332
2.8804 -0.8938 0.1431
2.9244 -0.9080 0.1451
2.9631 -0.9567 0.1501
2.9896 -1.0743 0.1611
3.0570 -1.1295 0.1671
3.0891 -1.1518 0.1696
3.1169 -1.1862 0.1732
3.1431 -1.2189 0.1765
3.1778 -1.2128 0.1765
3.2139 -1.2009 0.1759
3.2660 -1.1371 0.1709
3.3336 -1.0321 0.1624
3.4097 -0.9137 0.1527
3.4576 -0.8830 0.1507
3.4832 -0.9117 0.1536
3.5139 -0.9239 0.1552
3.5372 -0.9512 0.1580
3.5361 -1.0301 0.1652
1.3776 -1.8531 0.1714
1.3647 -1.8078 0.1658
1.4799 0.8876 -0.1477
1.5422 1.0525 -0.1656
1.6874 0.9559 -0.1509
1.7570 1.1232 -0.1689
2.0237 0.9318 -0.1402
2.5967 -0.0882 -0.0071
2.6717 -0.2216 0.0103
2.7366 -0.1033 -0.0020
2.8385 1.9197 -0.2370
2.9998 -1.0292 0.1128
3.0345 -1.0641 0.1177
3.0745 -1.0573 0.1178
3.1078 -1.0822 0.1215
3.1299 -1.1486 0.1299
3.1566 -1.1830 0.1345
3.1870 -1.1962 0.1368
3.2291 -1.1655 0.1342
3.2899 -1.0770 0.1252
3.3789 -0.9128 0.1080
3.4245 -0.8894 0.1064
3.4541 -0.9102 0.1095
3.4760 -0.9472 0.1144
3.5100 -0.9497 0.1154
3.5366 -0.9684 0.1183
3.5419 -1.0319 0.1258
3.5566 -1.0692 0.1306
1.3537 -1.8442 0.1321
1.3997 -1.8395 0.1329
0.1860 -0.6002 -0.0849
0.5107 -0.7937 -0.0466
-0.1298 0.5748 -0.2645
-0.0535 0.6522 -0.2732
0.0247 0.7313 -0.2821
0.4202 0.7558 -0.2729
0.6330 0.6271 -0.2474
1.0173 1.1136 -0.3052
1.3674 0.8689 -0.2586
1.5552 0.6659 -0.2232
1.6413 0.7361 -0.2306
1.7293 0.8080 -0.2381
1.8497 0.7629 -0.2277
1.9648 0.7202 -0.2178
2.1152 0.4767 -0.1779
2.4669 0.6270 -0.1882
2.5963 -0.0211 -0.0906
2.6766 -0.2563 -0.0541
2.8345 1.2598 -0.2675
3.3394 -0.9371 0.0655
3.3848 -0.9138 0.0636
3.4151 -0.9342 0.0675
3.4631 -0.9037 0.0647
3.5085 -0.8814 0.0629
3.5472 -0.8760 0.0634
3.5634 -0.9219 0.0706
3.5748 -0.9737 0.0784
3.6072 -0.9756 0.0797
0.4635 -0.9276 -0.0999
0.4633 -0.8487 -0.1134
0.5488 -0.8403 -0.1113
0.6174 -0.8177 -0.1124
0.4804 -0.5977 -0.1557
0.5192 -0.5361 -0.1647
0.5206 -0.4317 -0.1825
0.4597 -0.2511 -0.2160
0.2679 0.0963 -0.2834
0.3630 0.1276 -0.2849
0.4580 0.1589 -0.2863
0.5531 0.1902 -0.2878
0.6482 0.2215 -0.2892
0.8044 0.1607 -0.2723
0.8967 0.1911 -0.2737
0.9889 0.2214 -0.2751
1.0811 0.2518 -0.2765
1.1567 0.3141 -0.2841
1.2499 0.3448 -0.2855
1.3430 0.3755 -0.2869
1.4757 0.3110 -0.2704
1.5541 0.3722 -0.2776
1.6343 0.4339 -0.2849
1.7468 0.4003 -0.2745
1.9276 0.4598 -0.2772
2.0394 0.3948 -0.2615
2.1505 0.3056 -0.2416
2.4983 0.3026 -0.2268
2.5985 0.0051 -0.1716
2.6786 -0.1983 -0.1335
2.7450 -0.0350 -0.1587
2.8337 0.8663 -0.3095
2.9127 0.5867 -0.2583
3.0002 0.6467 -0.2650
3.1099 -0.9179 0.0077
3.4318 0.1090 -0.1550
3.5005 0.1316 -0.1561
3.3129 -0.9176 0.0160
3.3876 -0.9242 0.0202
3.4267 -0.9196 0.0210
3.5112 -0.8918 0.0198
3.5610 -0.8598 0.0163
-0.3226 -0.5912 -0.2785
0.3295 -0.9112 -0.1820
0.3248 -0.8291 -0.1985
0.3581 -0.7738 -0.2079
0.3936 -0.7177 -0.2172
0.7142 -0.9187 -0.1611
0.3879 -0.5234 -0.2562
0.4261 -0.4572 -0.2675
0.6009 -0.5297 -0.2442
0.7117 -0.5417 -0.2362
0.7543 -0.4792 -0.2465
0.7814 -0.3939 -0.2622
0.9077 -0.4287 -0.2489
0.9227 -0.3205 -0.2696
1.0174 -0.3162 -0.2657
1.1514 -0.3732 -0.2476
1.2017 -0.3071 -0.2583
1.4662 -0.2933 -0.2477
1.5615 -0.3094 -0.2397
1.6268 -0.2652 -0.2452
1.6839 -0.1979 -0.2557
1.7600 -0.1728 -0.2569
1.8205 -0.1034 -0.2676
1.9261 -0.1666 -0.2497
2.0364 -0.2656 -0.2245
2.0972 -0.2012 -0.2343
2.1299 -0.0015 -0.2723
2.2025 0.0482 -0.2786
2.3647 -0.4290 -0.1754
2.4313 -0.4246 -0.1730
2.4688 -0.1655 -0.2226
2.5302 -0.0369 -0.2451
2.6137 -0.1983 -0.2088
2.6800 -0.1166 -0.2217
2.7500 -0.1731 -0.2070
2.8330 0.5376 -0.3442
2.9139 0.4745 -0.3276
2.9667 0.0852 -0.2474
3.0437 0.1549 -0.2574
3.0787 -0.1402 -0.1970
3.1145 -0.9202 -0.0399
3.3250 -0.1303 -0.1865
3.4118 -0.0119 -0.2057
3.3032 -0.8322 -0.0479
3.3646 -0.8967 -0.0320
3.4083 -0.8823 -0.0327
3.4490 -0.8761 -0.0319
3.4821 -0.8890 -0.0277
3.5106 -0.9105 -0.0219
0.0971 -1.0452 -0.2402
0.1652 -1.0227 -0.2412
0.5026 -1.1905 -0.1831
0.3198 -0.9913 -0.2391
0.3696 -0.9554 -0.2443
0.3850 -0.8909 -0.2581
0.3822 -0.8077 -0.2771
0.4721 -0.7997 -0.2736
0.6886 -0.9078 -0.2361
0.8661 -0.9908 -0.2067
0.8079 -0.8501 -0.2421
0.8031 -0.7532 -0.2644
0.8439 -0.6988 -0.2743
0.9425 -0.7073 -0.2665
1.0255 -0.7005 -0.2631
1.0947 -0.6777 -0.2642
1.1638 -0.6550 -0.2652
1.2330 -0.6322 -0.2663
1.3021 -0.6094 -0.2673
1.3713 -0.5866 -0.2684
1.4404 -0.5639 -0.2694
1.5096 -0.5411 -0.2705
1.5514 -0.4658 -0.2851
1.6479 -0.4956 -0.2726
1.6929 -0.4192 -0.2872
1.7862 -0.4500 -0.2747
1.8686 -0.4619 -0.2671
1.9245 -0.4045 -0.2767
1.9937 -0.3817 -0.2778
2.0679 -0.3768 -0.2745
2.1412 -0.3721 -0.2712
2.2252 -0.4203 -0.2552
2.3014 -0.4495 -0.2441
2.3872 -0.5546 -0.2151
2.4505 -0.5491 -0.2126
2.4879 -0.3153 -0.2634
2.5484 -0.2185 -0.2818
2.6171 -0.1959 -0.2828
2.6846 -0.1337 -0.2929
2.7546 -0.3003 -0.2509
2.8185 -0.3141 -0.2440
2.9900 -0.9107 -0.0984
3.0258 -0.9696 -0.0829
3.0692 -0.9646 -0.0814
3.1071 -0.9849 -0.0746
3.1548 -0.9528 -0.0790
3.2058 -0.9104 -0.0856
3.2656 -0.8384 -0.0984
3.3120 -0.8232 -0.0991
3.3376 -0.8762 -0.0855
3.3734 -0.8890 -0.0805
3.4111 -0.8930 -0.0773
3.4420 -0.9136 -0.0708
3.3697 -1.2757 0.0071
3.3830 -1.3134 0.0164
3.3931 -1.3541 0.0263
3.4316 -1.3292 0.0229
3.4403 -1.3673 0.0321
0.5363 -1.2262 -0.2379
0.5386 -1.1643 -0.2535
0.6003 -1.1440 -0.2545
0.6039 -1.0777 -0.2712
0.6814 -1.0685 -0.2682
0.7443 -1.0477 -0.2691
0.8338 -1.0509 -0.2622
0.9455 -1.0772 -0.2477
0.9704 -1.0222 -0.2601
1.1658 -0.9731 -0.2591
1.2571 -0.9888 -0.2488
1.3172 -0.9691 -0.2497
1.4129 -0.9966 -0.2361
1.4550 -0.9542 -0.2440
1.4895 -0.8981 -0.2560
1.5500 -0.8782 -0.2569
1.6328 -0.8957 -0.2467
1.6988 -0.8882 -0.2441
1.7377 -0.8306 -0.2561
1.7918 -0.7986 -0.2606
1.8698 -0.8176 -0.2503
1.9343 -0.8107 -0.2477
2.0030 -0.8166 -0.2414
2.0566 -0.7846 -0.2459
2.1069 -0.7396 -0.2539
2.1737 -0.7461 -0.2477
2.2389 -0.7531 -0.2414
2.2967 -0.7341 -0.2422
2.3595 -0.7409 -0.2362
2.4009 -0.6275 -0.2623
2.4605 -0.6079 -0.2632
2.5171 -0.5597 -0.2716
2.5799 -0.5686 -0.2650
2.6403 -0.5640 -0.2620
2.7004 -0.5727 -0.2556
2.7589 -0.5952 -0.2459
2.8139 -0.6697 -0.2231
2.8730 -0.5718 -0.2440
2.9248 -0.6209 -0.2279
2.9585 -0.8165 -0.1756
2.9882 -0.9605 -0.1368
3.0355 -0.9357 -0.1399
3.0784 -0.9389 -0.1361
3.1168 -0.9609 -0.1278
3.1447 -1.0229 -0.1101
3.1836 -1.0254 -0.1067
3.3405 -0.8872 -0.1312
3.3823 -0.8816 -0.1298
3.4300 -0.8578 -0.1326
3.3695 -1.3582 -0.0090
3.4016 -1.3476 -0.0095
3.4175 -1.3719 -0.0022
3.4488 -1.3616 -0.0026
0.5946 -1.3373 -0.2677
0.6773 -1.3363 -0.2614
0.7212 -1.3087 -0.2658
0.8143 -1.3175 -0.2560
0.8464 -1.2806 -0.2640
0.9142 -1.2715 -0.2613
0.9702 -1.2530 -0.2621
1.0262 -1.2346 -0.2630
1.1030 -1.2356 -0.2567
1.1382 -1.1977 -0.2647
1.1943 -1.1793 -0.2655
1.2409 -1.1507 -0.2700
1.3153 -1.1525 -0.2636
1.3709 -1.1342 -0.2645
1.4266 -1.1159 -0.2653
1.4902 -1.1081 -0.2626
1.5456 -1.0899 -0.2634
1.5863 -1.0502 -0.2715
1.6562 -1.0534 -0.2651
1.7049 -1.0243 -0.2696
1.7481 -0.9837 -0.2777
1.8045 -0.9652 -0.2785
1.8719 -0.9693 -0.2721
1.9375 -0.9729 -0.2659
1.9881 -0.9442 -0.2701
2.0987 -0.9077 -0.2718
2.1540 -0.8895 -0.2726
2.2093 -0.8713 -0.2735
2.2647 -0.8531 -0.2743
2.3172 -0.8226 -0.2788
2.3775 -0.8281 -0.2726
2.4365 -0.8339 -0.2663
2.4875 -0.7919 -0.2742
2.5385 -0.7366 -0.2859
2.5955 -0.7310 -0.2831
2.6519 -0.7256 -0.2802
2.7069 -0.6944 -0.2847
2.7623 -0.7853 -0.2546
2.8161 -0.7332 -0.2652
2.8909 -1.1109 -0.1520
2.9323 -1.1124 -0.1483
3.0631 -0.7853 -0.2310
3.0897 -0.9029 -0.1955
3.1365 -0.8875 -0.1962
3.1654 -1.1216 -0.1274
3.3068 -0.8850 -0.1836
3.3644 -0.8307 -0.1945
3.4073 -0.8256 -0.1926
3.4534 -0.8104 -0.1932
3.4957 -0.8056 -0.1913
3.5497 -0.7696 -0.1973
3.4064 -1.3496 -0.0438
3.4223 -1.3736 -0.0357
3.4509 -1.3693 -0.0347
3.4853 -1.3529 -0.0366
1.0021 -1.4131 -0.2711
1.0636 -1.4039 -0.2685
1.1246 -1.3948 -0.2660
1.1849 -1.3860 -0.2635
1.2439 -1.3766 -0.2612
1.3270 -1.3914 -0.2493
1.3840 -1.3827 -0.2470
1.4262 -1.3588 -0.2508
1.4758 -1.3424 -0.2515
1.5181 -1.3175 -0.2556
1.5871 -1.3248 -0.2472
1.6307 -1.3015 -0.2507
1.6800 -1.2852 -0.2515
1.7561 -1.3083 -0.2375
1.7994 -1.2851 -0.2410
1.8124 -1.2105 -0.2632
1.8817 -1.2279 -0.2517
1.9718 -1.1791 -0.2590
2.0289 -1.1794 -0.2539
2.0891 -1.1897 -0.2454
2.1405 -1.1818 -0.2434
2.1826 -1.1489 -0.2500
2.2395 -1.1592 -0.2417
2.2847 -1.1343 -0.2455
2.3282 -1.1009 -0.2522
2.3747 -1.0756 -0.2560
2.4253 -1.0689 -0.2536
2.4739 -1.0529 -0.2544
2.5249 -1.0552 -0.2492
2.5700 -1.0113 -0.2590
2.6203 -1.0148 -0.2535
2.6681 -0.9890 -0.2573
2.7167 -0.9730 -0.2581
2.7652 -0.9761 -0.2528
2.8121 -0.9978 -0.2419
2.8494 -1.1581 -0.1884
2.9093 -0.9286 -0.2550
2.9606 -0.8826 -0.2649
3.0094 -0.8666 -0.2657
3.0550 -0.8716 -0.2601
3.1015 -0.8653 -0.2579
3.1515 -0.8398 -0.2615
3.1976 -0.8337 -0.2594
3.2084 -1.1182 -0.1693
3.3611 -0.8622 -0.2361
3.4205 -0.8065 -0.2483
3.4565 -0.8218 -0.2404
3.5142 -0.7757 -0.2497
3.5907 -0.6852 -0.2713
3.6441 -0.6576 -0.2753
3.6730 -0.6872 -0.2635
1.2785 -1.7704 -0.1792
1.2728 -1.7245 -0.1955
1.2390 -1.6549 -0.2227
1.3305 -1.6776 -0.2060
1.2698 -1.5272 -0.2635
1.3092 -1.5052 -0.2672
1.3634 -1.4963 -0.2649
1.4379 -1.5077 -0.2537
1.4704 -1.4790 -0.2604
1.5039 -1.4501 -0.2670
1.5507 -1.4347 -0.2677
1.5975 -1.4192 -0.2684
1.6444 -1.4038 -0.2692
1.7021 -1.4027 -0.2639
1.7798 -1.3502 -0.2743
1.8549 -1.3783 -0.2573
1.8966 -1.3567 -0.2607
1.9381 -1.3340 -0.2644
1.9883 -1.3265 -0.2621
2.1225 -1.2733 -0.2672
2.1594 -1.2342 -0.2770
2.2005 -1.2028 -0.2837
2.3530 -1.1974 -0.2707
2.4010 -1.1906 -0.2683
2.4500 -1.1914 -0.2633
2.6335 -1.1559 -0.2575
2.6778 -1.1323 -0.2613
2.7219 -1.0760 -0.2763
2.7679 -1.0698 -0.2739
2.8112 -1.1372 -0.2465
2.8496 -1.2133 -0.2167
2.9048 -1.0327 -0.2732
2.9513 -1.0094 -0.2767
2.9985 -0.9849 -0.2805
3.0431 -0.9792 -0.2781
3.0958 -0.9259 -0.2912
3.1407 -0.9201 -0.2888
3.1829 -0.9242 -0.2833
3.2219 -0.9372 -0.2750
3.2169 -1.2319 -0.1744
3.4489 -0.8625 -0.2784
3.5017 -0.8282 -0.2850
3.5517 -0.8027 -0.2889
3.5934 -0.7980 -0.2864
3.6439 -0.7724 -0.2903
3.6759 -0.7877 -0.2819
3.5895 -1.1142 -0.1784
3.6028 -1.1487 -0.1652
1.1713 -1.7482 -0.2441
1.2203 -1.7390 -0.2423
1.2755 -1.7347 -0.2379
1.3105 -1.7162 -0.2410
1.4198 -1.7545 -0.2150
1.4481 -1.7323 -0.2203
1.3856 -1.6331 -0.2640
1.4601 -1.6462 -0.2511
1.5023 -1.6323 -0.2517
1.5269 -1.6014 -0.2606
1.6184 -1.5792 -0.2590
1.6658 -1.5705 -0.2571
1.7182 -1.5681 -0.2524
1.7647 -1.5598 -0.2505
1.7933 -1.5286 -0.2591
1.8404 -1.5210 -0.2568
1.8904 -1.5184 -0.2524
1.9396 -1.5160 -0.2480
1.9741 -1.4908 -0.2537
2.0193 -1.4828 -0.2518
2.0998 -1.4494 -0.2556
2.1472 -1.4477 -0.2511
2.1938 -1.4462 -0.2467
2.2397 -1.4449 -0.2422
2.2673 -1.3943 -0.2581
2.3072 -1.3742 -0.2613
2.3656 -1.4173 -0.2390
2.3995 -1.3785 -0.2498
2.4363 -1.3456 -0.2581
2.4818 -1.3514 -0.2511
2.5240 -1.3444 -0.2491
2.5658 -1.3376 -0.2472
2.6051 -1.3107 -0.2529
2.6463 -1.2972 -0.2536
2.6874 -1.2837 -0.2542
2.7287 -1.2770 -0.2522
2.7698 -1.2427 -0.2606
2.8101 -1.2640 -0.2483
2.8511 -1.2436 -0.2515
2.8895 -1.2577 -0.2421
2.9366 -1.1808 -0.2657
2.9812 -1.1454 -0.2741
3.0235 -1.1314 -0.2748
3.0673 -1.1091 -0.2784
3.1098 -1.0951 -0.2790
3.1485 -1.0972 -0.2741
3.1868 -1.0985 -0.2695
3.2285 -1.0847 -0.2701
3.2509 -1.2475 -0.2070
3.4099 -0.9894 -0.2862
3.4591 -0.9583 -0.2924
3.4989 -0.9521 -0.2905
3.5345 -0.9553 -0.2855
3.5805 -0.9332 -0.2888
3.5810 -1.0102 -0.2600
3.5574 -1.1298 -0.2179
3.5753 -1.1565 -0.2060
1.2435 -1.8035 -0.2608
1.3033 -1.8034 -0.2538
1.3430 -1.7903 -0.2544
1.3772 -1.7732 -0.2573
1.4224 -1.7642 -0.2556
1.4735 -1.7602 -0.2512
1.5069 -1.7423 -0.2545
1.5415 -1.7250 -0.2574
1.5709 -1.7026 -0.2630
1.6209 -1.6989 -0.2586
1.6510 -1.6762 -0.2642
1.6910 -1.6630 -0.2648
1.7221 -1.6400 -0.2704
1.7665 -1.6313 -0.2687
1.8029 -1.6134 -0.2717
1.8511 -1.6103 -0.2672
1.8952 -1.6026 -0.2651
1.9240 -1.5735 -0.2735
2.2162 -1.5028 -0.2676
2.2644 -1.5115 -0.2584
2.2956 -1.4767 -0.2688
2.3815 -1.4730 -0.2602
2.4177 -1.4493 -0.2655
2.4544 -1.4244 -0.2712
2.4975 -1.4289 -0.2644
2.5338 -1.3983 -0.2724
2.5742 -1.3909 -0.2707
2.6546 -1.3831 -0.2644
2.6931 -1.3586 -0.2697
2.7322 -1.3329 -0.2754
2.7720 -1.3140 -0.2784
2.8118 -1.3008 -0.2790
2.8509 -1.2998 -0.2749
2.8898 -1.2938 -0.2727
2.9314 -1.2615 -0.2808
2.9722 -1.2412 -0.2842
3.0523 -1.2148 -0.2854
3.0894 -1.2153 -0.2809
3.1341 -1.1810 -0.2895
3.1672 -1.1956 -0.2797
3.2046 -1.1902 -0.2775
3.2258 -1.2372 -0.2560
3.2438 -1.2863 -0.2341
3.2843 -1.2622 -0.2390
3.3570 -1.1518 -0.2750
3.4013 -1.1254 -0.2804
3.4439 -1.1045 -0.2839
3.4800 -1.0995 -0.2816
3.5064 -1.1154 -0.2721
3.5011 -1.1967 -0.2399
3.5166 -1.2279 -0.2255
3.5712 -1.1785 -0.2390
1.3379 -1.9079 -0.2491
1.3687 -1.8920 -0.2521
1.4008 -1.8765 -0.2547
1.4379 -1.8643 -0.2552
1.5000 -1.8702 -0.2448
1.5265 -1.8508 -0.2498
1.5684 -1.8428 -0.2479
1.6049 -1.8308 -0.2485
1.6275 -1.8068 -0.2560
1.6866 -1.8146 -0.2450
1.7389 -1.8179 -0.2369
1.7627 -1.7944 -0.2441
1.7874 -1.7707 -0.2512
1.8274 -1.7624 -0.2497
1.8532 -1.7383 -0.2569
1.9039 -1.7431 -0.2483
1.9462 -1.7389 -0.2447
2.0004 -1.6898 -0.2591
2.0373 -1.6777 -0.2597
2.0954 -1.7005 -0.2423
2.1358 -1.6969 -0.2387
2.1645 -1.6728 -0.2455
2.1978 -1.6560 -0.2486
2.2318 -1.6400 -0.2512
2.2719 -1.6375 -0.2471
2.3057 -1.6205 -0.2502
2.3416 -1.6087 -0.2507
2.3776 -1.5968 -0.2513
2.4122 -1.5806 -0.2539
2.4472 -1.5642 -0.2566
2.4867 -1.5668 -0.2504
2.5233 -1.5596 -0.2488
2.5558 -1.5284 -0.2582
2.5953 -1.5408 -0.2478
2.6308 -1.5291 -0.2483
2.6652 -1.5021 -0.2556
2.7009 -1.4855 -0.2583
2.7368 -1.4630 -0.2635
2.7728 -1.4921 -0.2463
2.8084 -1.4706 -0.2510
2.8449 -1.4430 -0.2584
2.8809 -1.4311 -0.2589
2.9168 -1.4193 -0.2595
2.9542 -1.3972 -0.2643
2.9934 -1.3678 -0.2721
3.0267 -1.3734 -0.2654
3.0692 -1.3321 -0.2779
3.1046 -1.3262 -0.2759
3.1370 -1.3312 -0.2696
3.1685 -1.3364 -0.2633
3.2078 -1.3137 -0.2681
3.2404 -1.3127 -0.2644
3.2844 -1.2778 -0.2739
3.3255 -1.2535 -0.2792
3.3575 -1.2537 -0.2750
3.3940 -1.2417 -0.2756
3.4305 -1.2297 -0.2761
3.4530 -1.2486 -0.2651
3.4834 -1.2484 -0.2613
3.5160 -1.2425 -0.2597
3.5604 -1.2132 -0.2667
3.5999 -1.1944 -0.2698
1.3764 -1.9719 -0.2561
1.4001 -1.9535 -0.2614
1.4514 -1.9521 -0.2550
1.4706 -1.9303 -0.2625
1.5210 -1.9291 -0.2561
1.5558 -1.9177 -0.2566
1.5943 -1.9089 -0.2554
1.6212 -1.8913 -0.2598
1.6426 -1.8688 -0.2674
1.7107 -1.8851 -0.2504
1.7371 -1.8667 -0.2553
1.7610 -1.8453 -0.2620
1.7916 -1.8294 -0.2651
1.8231 -1.8142 -0.2679
1.8720 -1.8174 -0.2596
2.0167 -1.7795 -0.2573
2.0484 -1.7642 -0.2600
2.0757 -1.7417 -0.2667
2.1176 -1.7414 -0.2610
2.2423 -1.6665 -0.2787
2.2941 -1.6930 -0.2592
2.3268 -1.6774 -0.2620
2.3671 -1.6825 -0.2540
2.4753 -1.6740 -0.2430
2.5085 -1.6630 -0.2435
2.5377 -1.6312 -0.2543
2.6060 -1.6135 -0.2531
2.6396 -1.6025 -0.2536
2.6717 -1.5687 -0.2649
2.7058 -1.5526 -0.2677
2.7403 -1.5412 -0.2682
2.7748 -1.5250 -0.2710
2.8096 -1.5087 -0.2738
2.8436 -1.5072 -0.2698
2.8776 -1.5009 -0.2681
2.9470 -1.4732 -0.2714
2.9806 -1.4670 -0.2696
3.0149 -1.4557 -0.2702
3.0492 -1.4444 -0.2707
3.0911 -1.4015 -0.2848
3.1232 -1.4016 -0.2804
3.1553 -1.3998 -0.2768
3.1928 -1.3787 -0.2814
3.2262 -1.3716 -0.2801
3.2644 -1.3503 -0.2848
3.2957 -1.3487 -0.2812
3.3304 -1.3373 -0.2817
3.3721 -1.3090 -0.2891
3.4072 -1.2974 -0.2896
3.4346 -1.3030 -0.2833
3.4693 -1.2915 -0.2838
3.5040 -1.2801 -0.2843
3.5441 -1.2582 -0.2890
3.5860 -1.2337 -0.2946
1.5708 -2.1190 -0.1944
1.4959 -2.0188 -0.2554
1.5367 -2.0130 -0.2522
1.5820 -2.0106 -0.2466
1.6105 -1.9974 -0.2490
1.6465 -1.9894 -0.2476
1.6600 -1.9647 -0.2579
1.6929 -1.9539 -0.2584
1.7139 -1.9336 -0.2654
1.7650 -1.9379 -0.2556
1.7976 -1.9271 -0.2561
1.8340 -1.9199 -0.2543
1.8761 -1.9186 -0.2487
1.8990 -1.8986 -0.2553
1.9226 -1.8783 -0.2618
1.9555 -1.8675 -0.2623
2.0015 -1.8725 -0.2530
2.0313 -1.8588 -0.2554
2.0780 -1.8675 -0.2441
2.1141 -1.8633 -0.2408
2.1435 -1.8498 -0.2432
2.1751 -1.8393 -0.2437
2.2067 -1.8289 -0.2442
2.2383 -1.8185 -0.2446
2.2699 -1.8081 -0.2451
2.2953 -1.7844 -0.2532
2.3317 -1.7840 -0.2480
2.3660 -1.7803 -0.2447
2.3926 -1.7562 -0.2527
2.4257 -1.7492 -0.2513
2.4575 -1.7387 -0.2518
2.4893 -1.7282 -0.2523
2.5245 -1.7330 -0.2447
2.5536 -1.7109 -0.2513
2.5841 -1.6931 -0.2556
2.6170 -1.6900 -0.2523
2.6503 -1.6954 -0.2447
2.6813 -1.6813 -0.2471
2.7118 -1.6511 -0.2576
2.7437 -1.6406 -0.2580
2.7752 -1.6581 -0.2447
2.8072 -1.6274 -0.2552
2.8395 -1.6091 -0.2595
2.8714 -1.5986 -0.2600
2.9038 -1.5841 -0.2624
2.9372 -1.5644 -0.2672
2.9708 -1.5457 -0.2715
2.9991 -1.5565 -0.2619
3.0310 -1.5460 -0.2624
3.0629 -1.5355 -0.2629
3.0948 -1.5250 -0.2634
3.1280 -1.5102 -0.2658
3.1643 -1.4858 -0.2726
3.1982 -1.4708 -0.2750
3.2978 -1.4332 -0.2789
3.3262 -1.4325 -0.2750
3.3566 -1.4263 -0.2736
3.3998 -1.3919 -0.2843
3.3965 -1.4564 -0.2526
3.3867 -1.5279 -0.2186
3.4177 -1.5148 -0.2205
1.5600 -2.0923 -0.2444
1.5545 -2.0607 -0.2620
1.5938 -2.0554 -0.2585
1.6172 -2.0401 -0.2629
1.6561 -2.0349 -0.2595
1.6937 -2.0292 -0.2565
1.7184 -2.0144 -0.2604
1.7556 -2.0088 -0.2575
1.7832 -1.9959 -0.2599
1.8118 -1.9836 -0.2618
1.8485 -1.9782 -0.2589
1.8680 -1.9575 -0.2667
1.9162 -1.9636 -0.2558
1.9385 -1.9448 -0.2622
1.9648 -1.9294 -0.2662
1.9987 -1.9221 -0.2647
2.0317 -1.9141 -0.2637
2.0724 -1.9160 -0.2562
2.1030 -1.9059 -0.2567
2.1293 -1.8896 -0.2611
2.2237 -1.8623 -0.2605
2.2544 -1.8522 -0.2610
2.2917 -1.8552 -0.2535
2.3774 -1.8117 -0.2628
2.4782 -1.8110 -0.2472
2.5959 -1.7617 -0.2545
2.6252 -1.7454 -0.2585
2.6552 -1.7317 -0.2610
2.6856 -1.7217 -0.2614
2.7462 -1.6788 -0.2745
2.7769 -1.6878 -0.2649
2.8074 -1.6777 -0.2653
2.8391 -1.6521 -0.2739
2.8689 -1.6537 -0.2683
2.9005 -1.6357 -0.2728
2.9308 -1.6295 -0.2712
2.9641 -1.6042 -0.2793
2.9953 -1.5940 -0.2798
3.0248 -1.5909 -0.2767
3.0856 -1.5747 -0.2756
3.1189 -1.5561 -0.2801
3.1460 -1.5587 -0.2745
3.1738 -1.5571 -0.2709
3.2074 -1.5384 -0.2754
3.2707 -1.5138 -0.2784
3.3034 -1.4992 -0.2809
3.3324 -1.4935 -0.2793
3.3612 -1.4878 -0.2778
3.3853 -1.4913 -0.2721
3.3788 -1.5545 -0.2396
3.3955 -1.5681 -0.2298
3.4155 -1.5739 -0.2235
1.6113 -2.1280 -0.2512
1.6221 -2.1074 -0.2609
1.6557 -2.1001 -0.2593
1.7056 -2.1036 -0.2489
1.7346 -2.0940 -0.2493
1.7636 -2.0845 -0.2498
1.7988 -2.0795 -0.2466
1.8337 -2.0747 -0.2434
1.8623 -2.0653 -0.2438
1.8795 -2.0463 -0.2515
1.9140 -2.0416 -0.2483
1.9526 -2.0412 -0.2420
1.9811 -2.0318 -0.2424
2.0025 -2.0153 -0.2481
2.0312 -2.0059 -0.2485
2.0443 -1.9788 -0.2615
2.0843 -1.9818 -0.2530
2.1275 -1.9903 -0.2409
2.1421 -1.9627 -0.2539
2.1824 -1.9693 -0.2433
2.2123 -1.9623 -0.2422
2.2356 -1.9452 -0.2479
2.2655 -1.9382 -0.2467
2.2957 -1.9320 -0.2450
2.3212 -1.9170 -0.2492
2.3524 -1.9134 -0.2459
2.3758 -1.8924 -0.2537
2.4111 -1.8997 -0.2436
2.4392 -1.8904 -0.2440
2.4619 -1.8641 -0.2550
2.4948 -1.8693 -0.2465
2.5202 -1.8486 -0.2538
2.5508 -1.8480 -0.2489
2.5774 -1.8298 -0.2546
2.6065 -1.8231 -0.2535
2.6346 -1.8110 -0.2555
2.6635 -1.8043 -0.2544
2.6920 -1.7949 -0.2548
2.7205 -1.7827 -0.2568
2.7491 -1.7761 -0.2557
2.7775 -1.7734 -0.2524
2.8063 -1.7545 -0.2581
2.8349 -1.7450 -0.2586
2.8629 -1.7415 -0.2558
2.8913 -1.7321 -0.2562
2.9224 -1.7058 -0.2657
2.9493 -1.7074 -0.2603
2.9793 -1.6908 -0.2645
3.0074 -1.6844 -0.2633
3.0351 -1.6791 -0.2616
3.0649 -1.6655 -0.2642
3.0923 -1.6603 -0.2625
3.1223 -1.6466 -0.2650
3.1510 -1.6372 -0.2655
3.1836 -1.6169 -0.2713
3.2139 -1.6042 -0.2734
3.2385 -1.6055 -0.2684
3.2706 -1.5883 -0.2726
3.2981 -1.5821 -0.2714
3.3196 -1.5883 -0.2643
3.3443 -1.5868 -0.2609
3.3691 -1.5843 -0.2581
3.3955 -1.5784 -0.2569
3.4211 -1.5738 -0.2552
1.6416 -2.1512 -0.2663
1.7154 -2.1429 -0.2579
1.7434 -2.1337 -0.2583
1.7591 -2.1163 -0.2658
1.7957 -2.1127 -0.2614
1.8238 -2.1034 -0.2618
1.8580 -2.0988 -0.2584
1.8934 -2.0956 -0.2539
1.9081 -2.0757 -0.2631
1.9362 -2.0664 -0.2635
1.9643 -2.0572 -0.2639
2.0233 -2.0415 -0.2626
2.0466 -2.0273 -0.2668
2.0851 -2.0296 -0.2585
2.1129 -2.0205 -0.2589
2.2306 -1.9939 -0.2534
2.3206 -1.9812 -0.2447
2.3500 -1.9772 -0.2418
2.3756 -1.9659 -0.2438
2.4057 -1.9645 -0.2393
2.4264 -1.9407 -0.2496
2.4860 -1.9399 -0.2394
2.5894 -1.8899 -0.2504
2.6698 -1.8577 -0.2550
2.6979 -1.8626 -0.2470
2.7513 -1.8225 -0.2613
2.7788 -1.8068 -0.2656
2.8057 -1.8130 -0.2571
2.8320 -1.8156 -0.2508
2.8597 -1.7981 -0.2562
2.8875 -1.7833 -0.2600
2.9181 -1.7525 -0.2728
2.9449 -1.7493 -0.2698
2.9719 -1.7432 -0.2686
2.9986 -1.7382 -0.2667
3.0287 -1.7189 -0.2728
3.0602 -1.6964 -0.2805
3.0842 -1.7007 -0.2736
3.1184 -1.6715 -0.2848
3.1478 -1.6591 -0.2869
3.1726 -1.6593 -0.2822
3.1990 -1.6544 -0.2804
3.2256 -1.6484 -0.2791
3.2583 -1.6283 -0.2852
3.2849 -1.6223 -0.2839
3.3062 -1.6276 -0.2770
3.3323 -1.6218 -0.2757
3.3600 -1.6127 -0.2761
1.7536 -2.1965 -0.2501
1.7659 -2.1794 -0.2585
1.7975 -2.1737 -0.2560
1.8297 -2.1687 -0.2530
1.8771 -2.1475 -0.2572
1.9166 -2.1485 -0.2490
1.9327 -2.1320 -0.2563
1.9568 -2.1212 -0.2584
1.9903 -2.1186 -0.2537
2.0189 -2.1120 -0.2523
2.0473 -2.1054 -0.2510
2.0791 -2.1024 -0.2468
2.0956 -2.0839 -0.2552
2.1258 -2.0796 -0.2522
2.1569 -2.0768 -0.2480
2.1810 -2.0660 -0.2501
2.2104 -2.0620 -0.2470
2.2379 -2.0557 -0.2457
2.2565 -2.0365 -0.2542
2.2851 -2.0318 -0.2517
2.3139 -2.0279 -0.2486
2.3371 -2.0147 -0.2525
2.3619 -2.0037 -0.2546
2.3903 -1.9999 -0.2515
2.4183 -1.9963 -0.2484
2.4402 -1.9779 -0.2558
2.4699 -1.9793 -0.2492
2.4957 -1.9708 -0.2496
2.5477 -1.9556 -0.2492
2.5718 -1.9402 -0.2543
2.5988 -1.9369 -0.2511
2.6241 -1.9257 -0.2533
2.6496 -1.9145 -0.2554
2.6751 -1.9006 -0.2593
2.7019 -1.9029 -0.2527
2.7278 -1.8991 -0.2502
2.7534 -1.8832 -0.2552
2.7794 -1.8690 -0.2592
2.8056 -1.8557 -0.2625
2.8307 -1.8605 -0.2547
2.8571 -1.8462 -0.2586
2.8823 -1.8435 -0.2554
2.9081 -1.8351 -0.2558
2.9329 -1.8315 -0.2533
2.9609 -1.8121 -0.2602
2.9887 -1.7955 -0.2653
3.0164 -1.7807 -0.2692
3.0444 -1.7659 -0.2732
3.0681 -1.7665 -0.2682
3.0953 -1.7548 -0.2704
3.1165 -1.7608 -0.2625
3.1448 -1.7459 -0.2665
3.1755 -1.7256 -0.2734
3.1956 -1.7320 -0.2655
3.2283 -1.7082 -0.2742
3.2461 -1.7181 -0.2645
3.2753 -1.7030 -0.2684
3.2997 -1.6977 -0.2670
3.3240 -1.6925 -0.2657
3.3499 -1.6840 -0.2660
3.3720 -1.6823 -0.2629
1.7889 -2.2225 -0.2572
1.8114 -2.2123 -0.2594
1.8369 -2.2039 -0.2597
1.8680 -2.1992 -0.2565
1.8952 -2.1921 -0.2557
1.9276 -2.1888 -0.2513
1.9483 -2.1774 -0.2547
1.9627 -2.1606 -0.2629
1.9923 -2.1555 -0.2603
2.0201 -2.1491 -0.2588
2.0469 -2.1421 -0.2580
2.0744 -2.1359 -0.2566
2.0961 -2.1241 -0.2600
2.1228 -2.1171 -0.2592
2.1481 -2.1088 -0.2596
2.1802 -2.1084 -0.2533
2.1975 -2.0907 -0.2615
2.2268 -2.0875 -0.2577
2.2812 -2.0770 -0.2536
2.3871 -2.0560 -0.2460
2.4109 -2.0464 -0.2476
2.5589 -1.9995 -0.2486
2.5812 -1.9810 -0.2563
2.6574 -1.9698 -0.2482
2.6815 -1.9573 -0.2517
2.7307 -1.9429 -0.2512
2.7553 -1.9302 -0.2546
2.8301 -1.8963 -0.2619
2.8540 -1.8977 -0.2561
2.9062 -1.8638 -0.2680
2.9317 -1.8536 -0.2696
2.9569 -1.8453 -0.2700
2.9821 -1.8370 -0.2704
3.0060 -1.8337 -0.2676
3.0340 -1.8153 -0.2742
3.0587 -1.8090 -0.2734
3.0823 -1.8059 -0.2706
3.1111 -1.7871 -0.2772
3.1346 -1.7840 -0.2745
3.2489 -1.7677 -0.2621
3.2747 -1.7573 -0.2637
3.3087 -1.7313 -0.2741
3.3302 -1.7298 -0.2707
3.3571 -1.7181 -0.2730
1.8173 -2.2658 -0.2515
1.8536 -2.2649 -0.2443
1.8705 -2.2529 -0.2491
1.8925 -2.2438 -0.2507
1.9090 -2.2310 -0.2561
1.9378 -2.2261 -0.2533
1.9645 -2.2201 -0.2518
1.9817 -2.2071 -0.2572
2.0059 -2.1991 -0.2576
2.0422 -2.2009 -0.2485
2.0660 -2.1931 -0.2488
2.0929 -2.1879 -0.2467
2.1137 -2.1774 -0.2496
2.1340 -2.1661 -0.2531
2.1627 -2.1631 -0.2490
2.1852 -2.1539 -0.2506
2.2071 -2.1439 -0.2529
2.2299 -2.1346 -0.2545
2.2527 -2.1252 -0.2562
2.2805 -2.1225 -0.2521
2.3043 -2.1147 -0.2525
2.3315 -2.1121 -0.2484
2.3570 -2.1074 -0.2462
2.3813 -2.1012 -0.2453
2.4048 -2.0935 -0.2456
2.4283 -2.0858 -0.2460
2.4486 -2.0708 -0.2521
2.4746 -2.0687 -0.2480
2.4975 -2.0593 -0.2496
2.5211 -2.0515 -0.2500
2.5457 -2.0471 -0.2478
2.5679 -2.0343 -0.2520
2.5906 -2.0222 -0.2555
2.6147 -2.0161 -0.2546
2.6393 -2.0144 -0.2505
2.6621 -2.0005 -0.2553
2.6864 -1.9989 -0.2512
2.7100 -1.9930 -0.2503
2.7333 -1.9798 -0.2545
2.7570 -1.9720 -0.2548
2.7807 -1.9615 -0.2571
2.8048 -1.9471 -0.2620
2.8277 -1.9506 -0.2546
2.8502 -1.9533 -0.2479
2.8761 -1.9264 -0.2611
2.8999 -1.9185 -0.2615
2.9250 -1.9038 -0.2664
2.9490 -1.8959 -0.2667
2.9709 -1.8970 -0.2613
2.9947 -1.8892 -0.2616
3.0158 -1.8905 -0.2562
3.0438 -1.8684 -0.2656
3.0684 -1.8585 -0.2672
3.0961 -1.8402 -0.2741
3.1191 -1.8353 -0.2725
3.1373 -1.8422 -0.2638
3.1849 -1.8266 -0.2645
3.2076 -1.8209 -0.2636
3.2313 -1.8131 -0.2639
3.2562 -1.8031 -0.2656
3.2811 -1.7930 -0.2673
3.3007 -1.7930 -0.2631
3.3243 -1.7852 -0.2634
1.8365 -2.3015 -0.2503
1.8596 -2.2939 -0.2506
1.8806 -2.2851 -0.2523
1.8968 -2.2734 -0.2572
1.9201 -2.2657 -0.2576
1.9499 -2.2623 -0.2533
1.9899 -2.2427 -0.2586
2.0209 -2.2407 -0.2531
2.0423 -2.2319 -0.2547
2.0526 -2.2139 -0.2656
2.0815 -2.2108 -0.2614
2.1146 -2.2117 -0.2532
2.1823 -2.1876 -0.2555
2.2502 -2.1634 -0.2579
2.3055 -2.1607 -0.2474
2.3499 -2.1443 -0.2494
2.3726 -2.1368 -0.2497
2.4220 -2.1296 -0.2438
2.4429 -2.1191 -0.2468
2.5326 -2.0878 -0.2495
2.5557 -2.0820 -0.2485
2.5773 -2.0712 -0.2515
2.6456 -2.0506 -0.2512
2.6690 -2.0501 -0.2462
2.6914 -2.0427 -0.2465
2.7585 -2.0188 -0.2489
2.7810 -2.0114 -0.2492
2.8489 -1.9836 -0.2543
2.8713 -1.9781 -0.2533
2.9188 -1.9506 -0.2627
2.9691 -1.9167 -0.2762
2.9885 -1.9240 -0.2664
3.0121 -1.9144 -0.2681
3.0561 -1.9054 -0.2648
3.0999 -1.8955 -0.2621
3.1889 -1.8698 -0.2608
3.2126 -1.8602 -0.2625
3.2415 -1.8407 -0.2702
3.2656 -1.8309 -0.2720
3.2850 -1.8300 -0.2682
3.3117 -1.8157 -0.2727
1.8334 -2.3421 -0.2480
1.8554 -2.3348 -0.2483
1.8775 -2.3276 -0.2487
1.8975 -2.3192 -0.2504
1.9155 -2.3096 -0.2534
1.9715 -2.3020 -0.2459
1.9897 -2.2924 -0.2490
2.0135 -2.2864 -0.2479
2.0337 -2.2779 -0.2496
2.0472 -2.2645 -0.2568
2.0744 -2.2609 -0.2530
2.0965 -2.2536 -0.2534
2.1156 -2.2438 -0.2565
2.1393 -2.2378 -0.2554
2.1744 -2.2425 -0.2434
2.1892 -2.2286 -0.2506
2.2058 -2.2159 -0.2564
2.2254 -2.2058 -0.2595
2.2562 -2.2083 -0.2502
2.2793 -2.2025 -0.2492
2.2989 -2.1924 -0.2523
2.3198 -2.1837 -0.2540
2.3459 -2.1824 -0.2488
2.3677 -2.1752 -0.2491
2.3931 -2.1741 -0.2440
2.4104 -2.1593 -0.2512
2.4363 -2.1599 -0.2446
2.4549 -2.1465 -0.2505
2.4766 -2.1393 -0.2508
2.4972 -2.1290 -0.2539
2.5197 -2.1234 -0.2528
2.5420 -2.1178 -0.2518
2.5629 -2.1073 -0.2549
2.5843 -2.0984 -0.2566
2.6078 -2.0980 -0.2514
2.6283 -2.0840 -0.2573
2.6513 -2.0836 -0.2521
2.6730 -2.0765 -0.2524
2.6946 -2.0676 -0.2541
2.7168 -2.0675 -0.2489
2.7381 -2.0514 -0.2562
2.7600 -2.0515 -0.2509
2.7818 -2.0389 -0.2554
2.8037 -2.0298 -0.2571
2.8257 -2.0208 -0.2589
2.8474 -2.0154 -0.2578
2.8690 -2.0101 -0.2567
2.8920 -1.9953 -0.2627
2.9141 -1.9881 -0.2630
2.9352 -1.9847 -0.2605
2.9571 -1.9775 -0.2609
2.9828 -1.9564 -0.2710
3.0045 -1.9511 -0.2699
3.0254 -1.9478 -0.2675
3.0468 -1.9426 -0.2664
3.0689 -1.9353 -0.2667
3.0893 -1.9322 -0.2643
3.1096 -1.9291 -0.2618
3.1360 -1.9114 -0.2691
3.1562 -1.9084 -0.2667
3.1731 -1.9118 -0.2600
3.1959 -1.9025 -0.2617
3.2177 -1.8953 -0.2620
3.2418 -1.8838 -0.2652
3.2637 -1.8766 -0.2655
3.2831 -1.8738 -0.2630
1.9291 -2.3407 -0.2524
1.9474 -2.3320 -0.2549
1.9717 -2.3266 -0.2531
2.0330 -2.3038 -0.2562
2.0571 -2.2985 -0.2544
2.0725 -2.2872 -0.2597
2.0874 -2.2751 -0.2657
2.1155 -2.2730 -0.2603
2.1371 -2.2659 -0.2607
2.1880 -2.2590 -0.2535
2.2065 -2.2493 -0.2566
2.2530 -2.2394 -0.2530
2.4076 -2.2011 -0.2452
2.4472 -2.1835 -0.2494
2.4696 -2.1797 -0.2469
2.5078 -2.1573 -0.2554
2.5310 -2.1560 -0.2507
2.5724 -2.1405 -0.2528
2.5938 -2.1353 -0.2517
2.6147 -2.1284 -0.2520
2.6354 -2.1198 -0.2537
2.6575 -2.1206 -0.2476
2.6780 -2.1111 -0.2501
2.6986 -2.1025 -0.2518
2.7194 -2.0939 -0.2536
2.7403 -2.0826 -0.2575
2.7613 -2.0819 -0.2528
2.7825 -2.0669 -0.2596
2.8243 -2.0576 -0.2566
2.8884 -2.0302 -0.2626
2.9542 -2.0005 -0.2702
2.9761 -1.9915 -0.2719
2.9970 -1.9864 -0.2708
3.0601 -1.9683 -0.2696
3.0835 -1.9561 -0.2736
3.1058 -1.9469 -0.2754
3.1255 -1.9440 -0.2728
3.1460 -1.9391 -0.2716
3.1828 -1.9368 -0.2642
3.2033 -1.9310 -0.2638
1.9270 -2.3791 -0.2472
1.9442 -2.3708 -0.2497
1.9699 -2.3668 -0.2463
1.9902 -2.3601 -0.2466
2.0154 -2.3562 -0.2433
2.0356 -2.3496 -0.2436
2.0512 -2.3400 -0.2475
2.0670 -2.3303 -0.2515
2.0883 -2.3242 -0.2511
2.1079 -2.3169 -0.2522
2.1292 -2.3107 -0.2517
2.1440 -2.2996 -0.2572
2.1700 -2.2973 -0.2524
2.1920 -2.2919 -0.2512
2.2145 -2.2871 -0.2493
2.2396 -2.2851 -0.2444
2.2531 -2.2717 -0.2521
2.2703 -2.2616 -0.2561
2.2951 -2.2597 -0.2512
2.3154 -2.2530 -0.2516
2.3374 -2.2484 -0.2496
2.3523 -2.2346 -0.2574
2.3754 -2.2315 -0.2540
2.3972 -2.2269 -0.2520
2.4170 -2.2195 -0.2531
2.4378 -2.2136 -0.2527
2.4561 -2.2031 -0.2567
2.4806 -2.2048 -0.2488
2.4987 -2.1935 -0.2536
2.5180 -2.1845 -0.2561
2.5404 -2.1833 -0.2512
2.5588 -2.1711 -0.2567
2.5813 -2.1717 -0.2503
2.6023 -2.1683 -0.2476
2.6212 -2.1567 -0.2524
2.6423 -2.1551 -0.2483
2.6816 -2.1351 -0.2549
2.7020 -2.1302 -0.2537
2.7222 -2.1235 -0.2540
2.7424 -2.1169 -0.2543
2.7626 -2.1022 -0.2613
2.7827 -2.1054 -0.2534
2.8028 -2.0987 -0.2537
2.8226 -2.0958 -0.2510
2.8422 -2.0929 -0.2483
2.8624 -2.0844 -0.2501
2.8827 -2.0760 -0.2519
2.9241 -2.0570 -0.2570
2.9467 -2.0407 -0.2649
2.9669 -2.0349 -0.2644
2.9897 -2.0203 -0.2708
3.0055 -2.0284 -0.2598
3.0265 -2.0198 -0.2616
3.0479 -2.0100 -0.2642
3.0671 -2.0064 -0.2622
3.0895 -1.9945 -0.2663
3.1081 -1.9920 -0.2636
3.1260 -1.9905 -0.2601
3.1472 -1.9818 -0.2619
3.1740 -1.9623 -0.2713
3.1894 -1.9652 -0.2648
3.2092 -1.9596 -0.2644
3.2301 -1.9518 -0.2654
3.2472 -1.9506 -0.2619
1.9469 -2.3930 -0.2550
1.9878 -2.3804 -0.2549
2.0026 -2.3711 -0.2590
2.0276 -2.3673 -0.2555
2.0475 -2.3608 -0.2558
2.0711 -2.3565 -0.2530
2.0891 -2.3488 -0.2549
2.1089 -2.3423 -0.2552
2.1313 -2.3376 -0.2532
2.1428 -2.3249 -0.2611
2.1668 -2.3215 -0.2576
2.1867 -2.3149 -0.2579
2.2066 -2.3083 -0.2582
2.2547 -2.3031 -0.2496
2.3122 -2.2824 -0.2520
2.3348 -2.2794 -0.2485
2.3548 -2.2737 -0.2480
2.3917 -2.2580 -0.2517
2.4118 -2.2523 -0.2512
2.4327 -2.2480 -0.2492
2.4509 -2.2394 -0.2518
2.4748 -2.2412 -0.2436
2.4911 -2.2288 -0.2501
2.5102 -2.2216 -0.2511
2.5326 -2.2222 -0.2445
2.5495 -2.2096 -0.2510
2.5690 -2.2032 -0.2513
2.5892 -2.1992 -0.2492
2.6090 -2.1944 -0.2480
2.6272 -2.1831 -0.2529
2.6473 -2.1800 -0.2501
2.6662 -2.1703 -0.2535
2.6858 -2.1647 -0.2530
2.7247 -2.1510 -0.2544
2.7637 -2.1355 -0.2573
2.7829 -2.1407 -0.2475
2.8023 -2.1307 -0.2509
2.8224 -2.1171 -0.2574
2.8410 -2.1180 -0.2515
2.8606 -2.1098 -0.2533
2.8807 -2.0996 -0.2568
2.9417 -2.0707 -0.2655
2.9592 -2.0720 -0.2595
2.9782 -2.0675 -0.2582
2.9957 -2.0671 -0.2538
3.0179 -2.0527 -0.2604
3.0363 -2.0493 -0.2583
3.0562 -2.0419 -0.2594
3.0752 -2.0365 -0.2589
3.0952 -2.0290 -0.2600
3.1142 -2.0236 -0.2595
3.1367 -2.0109 -0.2645
3.1974 -1.9883 -0.2678
2.4982 -3.7326 -0.2484
2.5560 -3.7155 -0.2507
2.5765 -3.7062 -0.2488
2.6163 -3.6907 -0.2470
2.6357 -3.6844 -0.2473
2.7327 -3.6528 -0.2487
2.7714 -3.6411 -0.2501
2.7911 -3.6286 -0.2450
2.8103 -3.6232 -0.2460
2.8295 -3.6161 -0.2455
2.8488 -3.6107 -0.2466
2.8685 -3.6094 -0.2515
2.9057 -3.5861 -0.2421
2.9254 -3.5831 -0.2454
2.9837 -3.5668 -0.2486
3.0027 -3.5597 -0.2481
3.0205 -3.5496 -0.2445
3.0402 -3.5449 -0.2463
3.0604 -3.5409 -0.2489
3.0796 -3.5347 -0.2492
3.0981 -3.5269 -0.2479
3.1194 -3.5243 -0.2521
3.1373 -3.5159 -0.2500
3.1538 -3.5053 -0.2457
3.1733 -3.4998 -0.2467
3.1924 -3.4936 -0.2470
3.2148 -3.4915 -0.2519
3.2335 -3.4846 -0.2514
3.2534 -3.4790 -0.2525
3.2739 -3.4740 -0.2543
3.2899 -3.4645 -0.2507
3.3112 -3.4602 -0.2533
3.3304 -3.4539 -0.2536
3.3497 -3.4476 -0.2539
3.3682 -3.4407 -0.2534
3.4067 -3.4282 -0.2540
3.4434 -3.4145 -0.2530
3.4617 -3.4077 -0.2525
3.4836 -3.4032 -0.2551
3.5029 -3.3969 -0.2554
3.5221 -3.3906 -0.2557
3.5393 -3.3833 -0.2544
3.5575 -3.3765 -0.2539
3.5766 -3.3703 -0.2541
3.5958 -3.3641 -0.2544
3.6150 -3.3578 -0.2547
3.6319 -3.3506 -0.2534
3.6510 -3.3444 -0.2537
2.4035 -3.7998 -0.2531
2.4419 -3.7917 -0.2573
2.4638 -3.7819 -0.2554
2.4852 -3.7732 -0.2543
2.5048 -3.7686 -0.2560
2.5260 -3.7599 -0.2549
2.5489 -3.7463 -0.2500
2.5679 -3.7437 -0.2533
2.5873 -3.7400 -0.2558
2.6091 -3.7285 -0.2524
2.6289 -3.7238 -0.2542
2.6490 -3.7181 -0.2552
2.6704 -3.7068 -0.2518
2.6906 -3.7002 -0.2521
2.7106 -3.6955 -0.2539
2.7311 -3.6870 -0.2527
2.7515 -3.6786 -0.2515
2.7720 -3.6676 -0.2481
2.7920 -3.6628 -0.2499
2.8523 -3.6432 -0.2508
2.8728 -3.6409 -0.2548
2.8928 -3.6318 -0.2528
2.9127 -3.6236 -0.2516
2.9339 -3.6228 -0.2571
2.9545 -3.6178 -0.2589
2.9943 -3.6014 -0.2565
3.0137 -3.5924 -0.2546
3.0342 -3.5866 -0.2556
3.0528 -3.5762 -0.2522
3.0770 -3.5788 -0.2614
3.0929 -3.5631 -0.2528
3.1146 -3.5596 -0.2561
3.1360 -3.5552 -0.2586
3.1531 -3.5436 -0.2537
3.1942 -3.5319 -0.2557
3.2191 -3.5317 -0.2628
3.2333 -3.5174 -0.2548
3.2505 -3.5075 -0.2514
3.2735 -3.5044 -0.2554
3.2916 -3.4958 -0.2535
3.3116 -3.4893 -0.2538
3.3295 -3.4809 -0.2518
3.3565 -3.4808 -0.2596
3.3789 -3.4762 -0.2621
3.3931 -3.4646 -0.2564
3.4099 -3.4556 -0.2537
3.4540 -3.4456 -0.2581
3.4741 -3.4391 -0.2584
3.4932 -3.4320 -0.2579
3.5295 -3.4167 -0.2555
2.6047 -3.7571 -0.2488
2.7110 -3.7119 -0.2418
2.7523 -3.6985 -0.2424
2.7730 -3.6900 -0.2413
2.7934 -3.6869 -0.2445
2.8347 -3.6717 -0.2436
2.9386 -3.6423 -0.2487
2.9588 -3.6331 -0.2469
2.9797 -3.6271 -0.2479
3.0003 -3.6204 -0.2482
3.0226 -3.6184 -0.2528
3.0631 -3.6017 -0.2505
3.1233 -3.5777 -0.2478
3.1677 -3.5695 -0.2535
3.1875 -3.5612 -0.2523
3.2048 -3.5494 -0.2476
3.2253 -3.5428 -0.2479
3.2470 -3.5375 -0.2497
3.2676 -3.5308 -0.2500
3.2925 -3.5288 -0.2553
3.3328 -3.5140 -0.2545
3.3522 -3.5059 -0.2533
3.3707 -3.4972 -0.2515
3.4341 -3.4783 -0.2538
3.4532 -3.4704 -0.2527
3.4780 -3.4667 -0.2566
3.4909 -3.4545 -0.2504
3.5177 -3.4520 -0.2557
3.5338 -3.4424 -0.2524
3.5543 -3.4357 -0.2527
3.5788 -3.4312 -0.2559
3.5995 -3.4245 -0.2562
3.6202 -3.4178 -0.2565
3.6345 -3.4078 -0.2525
3.6550 -3.4011 -0.2528
3.6799 -3.3965 -0.2560
3.6983 -3.3888 -0.2548
3.7188 -3.3821 -0.2551
2.3721 -3.8817 -0.2571
2.3953 -3.8724 -0.2561
2.4184 -3.8631 -0.2550
2.4414 -3.8538 -0.2540
2.4626 -3.8487 -0.2557
2.4832 -3.8456 -0.2587
2.5091 -3.8283 -0.2522
2.5289 -3.8271 -0.2567
2.5517 -3.8180 -0.2556
2.5743 -3.8088 -0.2546
2.5958 -3.8036 -0.2563
2.6183 -3.7945 -0.2552
2.6399 -3.7893 -0.2569
2.6626 -3.7783 -0.2545
2.6849 -3.7693 -0.2534
2.7065 -3.7640 -0.2551
2.7289 -3.7532 -0.2527
2.7512 -3.7406 -0.2489
2.7946 -3.7247 -0.2482
2.8162 -3.7283 -0.2567
2.8382 -3.7229 -0.2584
2.8601 -3.7140 -0.2574
2.8819 -3.7051 -0.2563
2.9040 -3.6997 -0.2580
2.9251 -3.6875 -0.2542
2.9482 -3.6871 -0.2600
2.9687 -3.6733 -0.2548
2.9922 -3.6728 -0.2607
3.0137 -3.6640 -0.2596
3.0316 -3.6448 -0.2496
3.0558 -3.6450 -0.2561
3.0776 -3.6379 -0.2564
3.0973 -3.6261 -0.2526
3.1421 -3.6151 -0.2560
3.1630 -3.6065 -0.2549
3.1856 -3.6009 -0.2566
3.2049 -3.5902 -0.2535
3.2235 -3.5788 -0.2496
3.2497 -3.5783 -0.2562
3.2714 -3.5712 -0.2565
3.2942 -3.5656 -0.2582
3.3129 -3.5551 -0.2551
3.3351 -3.5487 -0.2561
3.3594 -3.5444 -0.2592
3.3839 -3.5400 -0.2623
3.4029 -3.5302 -0.2598
3.4305 -3.5283 -0.2657
3.4494 -3.5186 -0.2632
3.4665 -3.5077 -0.2594
3.4931 -3.5044 -0.2639
3.5115 -3.4949 -0.2614
3.5332 -3.4878 -0.2617
3.5469 -3.4753 -0.2557
3.5646 -3.4660 -0.2533
3.6348 -3.4485 -0.2584
3.6615 -3.4442 -0.2622
3.6811 -3.4361 -0.2611
3.7016 -3.4285 -0.2607
3.7165 -3.4183 -0.2568
3.7334 -3.4093 -0.2543
2.5442 -3.8548 -0.2536
2.6350 -3.8279 -0.2569
2.7060 -3.7895 -0.2467
2.7519 -3.7647 -0.2401
2.7743 -3.7539 -0.2378
2.8185 -3.7449 -0.2424
2.9739 -3.6925 -0.2434
2.9957 -3.6836 -0.2424
3.0411 -3.6724 -0.2457
3.1071 -3.6491 -0.2453
3.1540 -3.6392 -0.2499
3.1729 -3.6259 -0.2449
3.2000 -3.6269 -0.2526
3.2210 -3.6174 -0.2509
3.2404 -3.6057 -0.2472
3.2583 -3.5927 -0.2422
3.2792 -3.5841 -0.2412
3.3058 -3.5826 -0.2469
3.3539 -3.5723 -0.2515
3.3749 -3.5637 -0.2505
3.4000 -3.5592 -0.2535
3.4209 -3.5506 -0.2525
3.4469 -3.5466 -0.2562
3.4670 -3.5373 -0.2545
3.4830 -3.5249 -0.2495
3.5035 -3.5165 -0.2485
3.5307 -3.5130 -0.2528
3.5512 -3.5045 -0.2518
3.5698 -3.4949 -0.2494
3.5938 -3.4889 -0.2511
3.6121 -3.4793 -0.2487
3.6401 -3.4756 -0.2531
3.6582 -3.4661 -0.2507
3.6782 -3.4578 -0.2497
3.7024 -3.4517 -0.2514
3.7289 -3.4467 -0.2544
3.7488 -3.4384 -0.2534
3.7733 -3.4323 -0.2550
3.7932 -3.4240 -0.2540
2.3876 -3.9542 -0.2571
2.4117 -3.9463 -0.2575
2.4370 -3.9354 -0.2560
2.4610 -3.9276 -0.2563
2.4858 -3.9177 -0.2554
2.5114 -3.9048 -0.2526
2.5352 -3.8971 -0.2530
2.5596 -3.8873 -0.2521
2.5816 -3.8865 -0.2568
2.6055 -3.8787 -0.2572
2.6295 -3.8709 -0.2575
2.6547 -3.8564 -0.2535
2.6795 -3.8420 -0.2494
2.7020 -3.8428 -0.2554
2.7260 -3.8332 -0.2545
2.7498 -3.8254 -0.2548
2.7741 -3.8076 -0.2482
2.7975 -3.8036 -0.2511
2.8210 -3.7977 -0.2527
2.8448 -3.7945 -0.2562
2.8681 -3.7788 -0.2509
2.8916 -3.7711 -0.2512
2.9149 -3.7617 -0.2503
2.9396 -3.7618 -0.2563
2.9634 -3.7541 -0.2567
2.9857 -3.7405 -0.2526
3.0088 -3.7312 -0.2517
3.0338 -3.7285 -0.2558
3.0574 -3.7208 -0.2562
3.0804 -3.7115 -0.2552
3.1027 -3.7006 -0.2530
3.1283 -3.6977 -0.2572
3.1546 -3.6955 -0.2620
3.1748 -3.6808 -0.2566
3.1992 -3.6746 -0.2582
3.2499 -3.6645 -0.2634
3.2752 -3.6589 -0.2657
3.2889 -3.6373 -0.2539
3.3322 -3.6177 -0.2507
3.3634 -3.6193 -0.2594
3.3870 -3.6117 -0.2597
3.4093 -3.6026 -0.2588
3.4377 -3.5997 -0.2636
3.4614 -3.5920 -0.2640
3.4784 -3.5783 -0.2585
3.4995 -3.5687 -0.2569
3.5301 -3.5669 -0.2631
3.5504 -3.5567 -0.2608
3.5723 -3.5477 -0.2599
3.5913 -3.5370 -0.2570
3.6129 -3.5282 -0.2561
3.6343 -3.5194 -0.2551
3.6989 -3.4938 -0.2529
3.7221 -3.4863 -0.2532
3.7452 -3.4788 -0.2536
3.7683 -3.4713 -0.2539
3.7914 -3.4638 -0.2542
3.8099 -3.4541 -0.2520
3.8399 -3.4498 -0.2562
2.4730 -3.9673 -0.2563
2.6024 -3.9088 -0.2473
2.6765 -3.8828 -0.2472
2.7025 -3.8634 -0.2403
2.7505 -3.8542 -0.2453
2.7994 -3.8319 -0.2417
2.8236 -3.8167 -0.2373
2.8478 -3.8161 -0.2424
2.8960 -3.7977 -0.2413
2.9684 -3.7741 -0.2424
2.9926 -3.7662 -0.2427
3.0672 -3.7493 -0.2487
3.1597 -3.7073 -0.2422
3.2812 -3.6705 -0.2457
3.3064 -3.6641 -0.2473
3.3334 -3.6599 -0.2507
3.3535 -3.6469 -0.2468
3.4029 -3.6327 -0.2487
3.4304 -3.6283 -0.2522
3.4533 -3.6190 -0.2513
3.5033 -3.6046 -0.2532
3.5221 -3.5921 -0.2493
3.5518 -3.5888 -0.2539
3.5802 -3.5841 -0.2574
3.5961 -3.5698 -0.2515
3.6228 -3.5638 -0.2538
3.6443 -3.5541 -0.2523
3.6685 -3.5462 -0.2526
3.6926 -3.5384 -0.2530
3.7118 -3.5276 -0.2502
3.7338 -3.5186 -0.2493
3.7577 -3.5108 -0.2497
3.7817 -3.5030 -0.2500
3.8056 -3.4952 -0.2504
3.8296 -3.4874 -0.2507
3.8536 -3.4796 -0.2511
3.8834 -3.4745 -0.2545
2.3275 -4.0645 -0.2554
2.3548 -4.0538 -0.2546
2.3810 -4.0453 -0.2550
2.4064 -4.0388 -0.2565
2.4315 -4.0334 -0.2586
2.4597 -4.0196 -0.2561
2.4869 -4.0080 -0.2548
2.5122 -4.0026 -0.2569
2.5392 -3.9910 -0.2556
2.5669 -3.9765 -0.2525
2.5915 -3.9740 -0.2563
2.6183 -3.9625 -0.2550
2.6449 -3.9511 -0.2536
2.6704 -3.9455 -0.2557
2.6972 -3.9313 -0.2527
2.7229 -3.9257 -0.2548
2.7485 -3.9229 -0.2586
2.7749 -3.9088 -0.2555
2.8009 -3.8957 -0.2530
2.8269 -3.8973 -0.2598
2.8530 -3.8861 -0.2584
2.8790 -3.8776 -0.2588
2.9038 -3.8567 -0.2511
2.9801 -3.8272 -0.2493
3.0078 -3.8283 -0.2560
3.0348 -3.8242 -0.2593
3.0615 -3.8182 -0.2615
3.0846 -3.8006 -0.2554
3.1094 -3.7897 -0.2541
3.1315 -3.7724 -0.2480
3.1637 -3.7794 -0.2595
3.1866 -3.7646 -0.2552
3.2102 -3.7523 -0.2526
3.2380 -3.7479 -0.2559
3.2664 -3.7442 -0.2598
3.2923 -3.7357 -0.2602
3.3166 -3.7251 -0.2588
3.3364 -3.7085 -0.2527
3.3636 -3.7024 -0.2549
3.3922 -3.6977 -0.2582
3.4179 -3.6893 -0.2586
3.4475 -3.6852 -0.2625
3.4733 -3.6768 -0.2628
3.5006 -3.6698 -0.2644
3.5265 -3.6613 -0.2648
3.5524 -3.6529 -0.2651
3.5744 -3.6411 -0.2626
3.6002 -3.6327 -0.2630
3.6260 -3.6243 -0.2633
3.6561 -3.6192 -0.2667
3.6749 -3.6057 -0.2623
3.6979 -3.5954 -0.2609
3.7291 -3.5908 -0.2648
3.7578 -3.5842 -0.2670
3.7777 -3.5722 -0.2638
3.7953 -3.5591 -0.2594
3.8093 -3.5444 -0.2533
3.8826 -3.5187 -0.2532
3.9101 -3.5116 -0.2548
2.3882 -4.1000 -0.2577
2.4131 -4.0983 -0.2619
2.4420 -4.0861 -0.2607
2.4731 -4.0668 -0.2556
2.5014 -4.0547 -0.2544
3.1434 -3.8021 -0.2379
3.1767 -3.8098 -0.2494
3.1988 -3.7915 -0.2431
3.2264 -3.7853 -0.2451
3.2541 -3.7791 -0.2472
3.2779 -3.7658 -0.2442
3.3028 -3.7549 -0.2429
3.3322 -3.7509 -0.2467
3.3586 -3.7423 -0.2471
3.4013 -3.7126 -0.2383
3.4273 -3.7041 -0.2387
3.4605 -3.7035 -0.2452
3.4908 -3.6992 -0.2490
3.5173 -3.6906 -0.2494
3.5459 -3.6841 -0.2514
3.5747 -3.6775 -0.2535
3.6013 -3.6688 -0.2539
3.6279 -3.6602 -0.2543
3.6520 -3.6496 -0.2530
3.6759 -3.6390 -0.2517
3.7050 -3.6323 -0.2538
3.7288 -3.6218 -0.2525
3.8285 -3.5838 -0.2506
3.8527 -3.5740 -0.2499
3.8789 -3.5655 -0.2502
3.9073 -3.5581 -0.2518
3.9314 -3.5484 -0.2510
3.9507 -3.5365 -0.2480
3.9862 -3.5324 -0.2529
2.3094 -4.1872 -0.2584
2.3416 -4.1702 -0.2552
2.3718 -4.1575 -0.2541
2.4007 -4.1481 -0.2545
2.4310 -4.1345 -0.2528
2.4621 -4.1178 -0.2496
2.4885 -4.1158 -0.2537
2.5162 -4.1105 -0.2562
2.5451 -4.1011 -0.2566
2.5749 -4.0877 -0.2549
2.6037 -4.0783 -0.2553
2.6324 -4.0689 -0.2558
2.6616 -4.0566 -0.2546
2.6895 -4.0541 -0.2587
2.7181 -4.0476 -0.2607
2.7469 -4.0411 -0.2627
2.7762 -4.0259 -0.2600
2.8051 -4.0127 -0.2583
2.8337 -3.9969 -0.2550
2.8622 -3.9848 -0.2539
2.8914 -3.9846 -0.2595
2.9202 -3.9753 -0.2600
2.9486 -3.9632 -0.2588
3.0053 -3.9410 -0.2575
3.0347 -3.9352 -0.2601
3.0618 -3.9198 -0.2568
3.0895 -3.9080 -0.2556
3.1197 -3.9038 -0.2592
3.1715 -3.8719 -0.2516
3.2043 -3.8734 -0.2589
3.2317 -3.8617 -0.2577
3.2572 -3.8468 -0.2544
3.2886 -3.8432 -0.2585
3.3170 -3.8339 -0.2589
3.3434 -3.8216 -0.2572
3.3770 -3.8200 -0.2630
3.4023 -3.8062 -0.2602
3.4267 -3.7917 -0.2569
3.4471 -3.7728 -0.2504
3.4832 -3.7733 -0.2577
3.5134 -3.7663 -0.2597
3.5376 -3.7527 -0.2569
3.5750 -3.7528 -0.2643
3.5962 -3.7365 -0.2593
3.6297 -3.7321 -0.2635
3.6550 -3.7202 -0.2618
3.6890 -3.7156 -0.2659
3.7175 -3.7064 -0.2664
3.7487 -3.6991 -0.2684
3.7719 -3.6859 -0.2656
3.8058 -3.6804 -0.2692
3.8316 -3.6692 -0.2680
3.8533 -3.6556 -0.2647
3.8786 -3.6446 -0.2635
3.8997 -3.6311 -0.2601
3.9707 -3.5968 -0.2548
3.9939 -3.5855 -0.2531
4.0181 -3.5748 -0.2519
2.3161 -4.2494 -0.2583
2.3468 -4.2394 -0.2587
2.3790 -4.2252 -0.2572
2.4403 -4.2052 -0.2581
2.4709 -4.1953 -0.2585
2.5036 -4.1770 -0.2550
3.1001 -3.9413 -0.2419
3.1305 -3.9352 -0.2443
3.2185 -3.9066 -0.2456
3.2755 -3.8842 -0.2444
3.3632 -3.8557 -0.2457
3.3924 -3.8462 -0.2461
3.4178 -3.8313 -0.2430
3.4468 -3.8219 -0.2434
3.4801 -3.8176 -0.2474
3.5093 -3.8081 -0.2478
3.5340 -3.7935 -0.2447
3.5678 -3.7891 -0.2487
3.5920 -3.7746 -0.2456
3.6211 -3.7651 -0.2460
3.6555 -3.7606 -0.2500
3.6847 -3.7510 -0.2504
3.7115 -3.7395 -0.2493
3.7406 -3.7300 -0.2497
3.7724 -3.7225 -0.2517
3.7989 -3.7110 -0.2506
3.8280 -3.7015 -0.2510
3.8600 -3.6940 -0.2529
3.8893 -3.6845 -0.2534
3.9664 -3.6499 -0.2495
3.9954 -3.6405 -0.2499
4.0243 -3.6310 -0.2504
4.0567 -3.6233 -0.2523
4.0823 -3.6122 -0.2512
2.2608 -4.3347 -0.2550
2.2910 -4.3296 -0.2578
2.3322 -4.2952 -0.2481
2.3656 -4.2805 -0.2467
2.3960 -4.2745 -0.2490
2.4250 -4.2736 -0.2536
2.4571 -4.2632 -0.2541
2.4892 -4.2527 -0.2546
2.5204 -4.2464 -0.2569
2.5526 -4.2359 -0.2574
2.5856 -4.2213 -0.2560
2.6204 -4.1938 -0.2485
2.6510 -4.1915 -0.2527
2.6823 -4.1860 -0.2555
2.7154 -4.1629 -0.2499
2.7471 -4.1526 -0.2503
2.8423 -4.1292 -0.2555
2.8740 -4.1151 -0.2541
2.9064 -4.1131 -0.2588
2.9375 -4.0944 -0.2550
2.9704 -4.0922 -0.2597
3.0328 -4.0634 -0.2564
3.0646 -4.0530 -0.2569
3.0985 -4.0506 -0.2616
3.1292 -4.0358 -0.2597
3.1576 -4.0151 -0.2544
3.1904 -4.0083 -0.2568
3.2207 -3.9946 -0.2554
3.2537 -3.9876 -0.2577
3.2838 -3.9740 -0.2563
3.3154 -3.9638 -0.2568
3.3505 -3.9600 -0.2610
3.3842 -3.9528 -0.2634
3.4121 -3.9361 -0.2600
3.4416 -3.9227 -0.2586
3.4754 -3.9155 -0.2610
3.5094 -3.9082 -0.2633
3.5387 -3.8949 -0.2619
3.5729 -3.8876 -0.2643
3.6020 -3.8743 -0.2628
3.6392 -3.8698 -0.2671
3.6682 -3.8565 -0.2657
3.6941 -3.8405 -0.2623
3.7287 -3.8330 -0.2647
3.7540 -3.8172 -0.2613
3.7822 -3.8042 -0.2598
3.8102 -3.7913 -0.2583
3.8484 -3.7865 -0.2626
3.8834 -3.7789 -0.2650
3.9187 -3.7712 -0.2674
3.9542 -3.7635 -0.2698
3.9898 -3.7557 -0.2722
4.0307 -3.7509 -0.2771
4.0587 -3.7380 -0.2756
4.0686 -3.7148 -0.2659
4.0741 -3.6901 -0.2546
4.1093 -3.6825 -0.2570
4.1538 -3.6794 -0.2633
4.1944 -3.6738 -0.2677
2.1800 -4.4743 -0.2689
2.2080 -4.4806 -0.2765
2.2436 -4.4690 -0.2770
2.4007 -4.3736 -0.2589
2.4337 -4.3677 -0.2616
2.4706 -4.3471 -0.2581
2.6077 -4.3024 -0.2601
2.6427 -4.2862 -0.2584
2.6763 -4.2801 -0.2611
2.7462 -4.2343 -0.2515
3.2383 -4.0386 -0.2422
3.3654 -3.9895 -0.2405
3.4258 -3.9612 -0.2374
3.5926 -3.9156 -0.2439
3.6277 -3.9080 -0.2462
3.6541 -3.8908 -0.2425
3.7057 -3.8999 -0.2553
3.7679 -3.8748 -0.2540
3.7937 -3.8578 -0.2503
3.8231 -3.8444 -0.2490
3.8447 -3.8249 -0.2435
3.8882 -3.8232 -0.2500
3.9451 -3.8306 -0.2628
3.9617 -3.8079 -0.2550
3.9945 -3.7972 -0.2555
4.0146 -3.7782 -0.2500
4.0601 -3.7759 -0.2565
4.0929 -3.7652 -0.2569
4.1813 -3.7278 -0.2542
4.2093 -3.7148 -0.2529
4.2360 -3.7013 -0.2510
2.1579 -4.5443 -0.2554
2.1994 -4.5201 -0.2515
2.2493 -4.4729 -0.2388
2.3105 -4.3900 -0.2126
2.3510 -4.3594 -0.2057
2.3523 -4.4490 -0.2445
2.3830 -4.4545 -0.2516
2.4160 -4.4544 -0.2567
2.4553 -4.4310 -0.2527
2.4915 -4.4192 -0.2532
2.5287 -4.4022 -0.2517
2.5638 -4.3957 -0.2543
2.6017 -4.3727 -0.2502
2.6740 -4.3443 -0.2492
2.7148 -4.2681 -0.2227
2.8891 -4.2849 -0.2569
2.9251 -4.2732 -0.2575
2.9605 -4.2559 -0.2555
2.9964 -4.2442 -0.2560
3.0315 -4.2279 -0.2544
3.0681 -4.2208 -0.2570
3.1019 -4.2002 -0.2534
3.1399 -4.1975 -0.2581
3.1758 -4.1858 -0.2586
3.2149 -4.1837 -0.2638
3.2510 -4.1720 -0.2643
3.2817 -4.1465 -0.2581
3.3137 -4.1264 -0.2544
3.3492 -4.1148 -0.2549
3.3868 -4.1074 -0.2575
3.4224 -4.0958 -0.2580
3.4556 -4.0802 -0.2564
3.4911 -4.0686 -0.2570
3.5292 -4.0611 -0.2596
3.5559 -4.0369 -0.2533
3.6005 -4.0379 -0.2606
3.6263 -4.0140 -0.2544
3.6685 -4.0109 -0.2596
3.7106 -4.0069 -0.2643
3.7395 -3.9878 -0.2606
3.7635 -3.9645 -0.2543
3.7985 -3.9531 -0.2548
3.8336 -3.9417 -0.2553
3.8726 -3.9338 -0.2579
3.9169 -3.9301 -0.2632
3.9608 -3.9254 -0.2680
3.9922 -3.9104 -0.2664
4.0278 -3.8988 -0.2669
4.0681 -3.8905 -0.2695
4.1038 -3.8789 -0.2701
4.1347 -3.8640 -0.2684
4.1703 -3.8524 -0.2690
4.2059 -3.8408 -0.2695
4.2362 -3.8261 -0.2678
4.2651 -3.8109 -0.2658
4.3071 -3.8030 -0.2689
4.3244 -3.7819 -0.2625
4.3653 -3.7734 -0.2651
4.4136 -3.7684 -0.2704
2.1700 -4.6127 -0.2430
2.2209 -4.5668 -0.2321
2.4349 -4.5382 -0.2516
2.6238 -4.5079 -0.2668
2.6646 -4.4819 -0.2623
3.0450 -4.2937 -0.2421
3.6697 -4.0738 -0.2446
3.7098 -4.0656 -0.2472
3.7469 -4.0535 -0.2477
3.7763 -4.0332 -0.2438
3.8051 -4.0131 -0.2400
3.8461 -4.0056 -0.2429
3.8912 -4.0017 -0.2479
3.9691 -3.9812 -0.2509
4.0062 -3.9691 -0.2515
4.0388 -3.9536 -0.2500
4.0956 -3.9566 -0.2594
4.1331 -3.9444 -0.2600
4.1601 -3.9249 -0.2561
4.1914 -3.9088 -0.2542
4.2123 -3.8864 -0.2483
4.2541 -3.8777 -0.2508
4.2855 -3.8626 -0.2493
4.3276 -3.8538 -0.2519
4.4023 -3.8626 -0.2662
4.4605 -3.8613 -0.2741
4.4448 -3.8215 -0.2559
4.4686 -3.8030 -0.2520
2.1659 -4.7347 -0.2444
2.4001 -4.3366 -0.1291
2.4132 -4.6541 -0.2480
2.4512 -4.6555 -0.2537
2.4943 -4.6346 -0.2517
2.6751 -4.4252 -0.1988
2.8668 -4.5065 -0.2546
2.9088 -4.5066 -0.2603
2.9889 -4.4530 -0.2513
3.0317 -4.4528 -0.2570
3.0718 -4.4329 -0.2551
3.1141 -4.4260 -0.2582
3.1584 -4.4253 -0.2640
3.2000 -4.4118 -0.2646
3.2397 -4.3920 -0.2626
3.2770 -4.3661 -0.2581
3.3203 -4.3589 -0.2613
3.3640 -4.3515 -0.2644
3.4054 -4.3381 -0.2650
3.4468 -4.3246 -0.2656
3.4882 -4.3111 -0.2662
3.5264 -4.2918 -0.2643
3.5643 -4.2726 -0.2623
3.6018 -4.2535 -0.2603
3.6501 -4.2515 -0.2661
3.6993 -4.2493 -0.2719
3.7409 -4.2358 -0.2725
3.7609 -4.1948 -0.2601
3.7971 -4.1761 -0.2580
3.8469 -4.1737 -0.2639
3.8878 -4.1604 -0.2644
3.9185 -4.1366 -0.2598
3.9643 -4.1286 -0.2630
3.9995 -4.1102 -0.2610
4.0400 -4.0971 -0.2616
4.0921 -4.0939 -0.2674
4.1270 -4.0756 -0.2654
4.1553 -4.0526 -0.2607
4.2083 -4.0492 -0.2666
4.2490 -4.0359 -0.2672
4.2897 -4.0227 -0.2678
4.3303 -4.0094 -0.2684
4.3639 -3.9916 -0.2663
4.3836 -3.9655 -0.2593
4.4172 -3.9487 -0.2577
4.5007 -3.9609 -0.2734
4.5113 -3.9309 -0.2637
4.5744 -3.9300 -0.2719
4.5986 -3.9083 -0.2672
4.6162 -3.8839 -0.2606
2.4348 -4.7625 -0.2415
2.4818 -4.7324 -0.2371
2.5876 -4.5749 -0.1970
2.6773 -4.4525 -0.1667
2.9153 -4.5526 -0.2303
2.9578 -4.5387 -0.2309
3.0113 -4.6155 -0.2637
3.0552 -4.5933 -0.2616
3.4000 -4.4414 -0.2532
3.4407 -4.4202 -0.2511
3.5927 -4.3251 -0.2379
3.6167 -4.2816 -0.2261
3.6694 -4.2853 -0.2339
3.7114 -4.2716 -0.2345
4.0217 -4.1924 -0.2465
4.0534 -4.1682 -0.2422
4.2643 -4.0996 -0.2453
4.2859 -4.0707 -0.2382
4.3487 -4.0721 -0.2465
4.4596 -4.0211 -0.2431
4.5484 -4.0359 -0.2592
4.5431 -3.9939 -0.2443
4.5535 -3.9628 -0.2351
4.6520 -3.9803 -0.2533
