ply
format ascii 1.0
element vertex 2142
property float x
property float y
property float z
end_header
2.7885 -2.1838 0.4116
2.7997 -2.1849 0.3748
2.9615 -2.2877 0.0970
2.9624 -2.2733 0.0524
3.1217 -2.4304 -0.0611
3.0234 -2.3074 -0.0661
2.9713 -2.2358 -0.0872
2.8691 -2.1135 -0.0767
2.7870 -2.0146 -0.0700
2.7242 -1.9375 -0.0691
2.6804 -1.8810 -0.0762
2.6242 -1.8135 -0.0708
2.5868 -1.7658 -0.0754
2.5484 -1.7182 -0.0762
2.5134 -1.6749 -0.0768
2.4719 -1.6265 -0.0687
2.4369 -1.5852 -0.0634
2.4096 -1.5517 -0.0627
2.3918 -1.5274 -0.0696
2.3630 -1.4941 -0.0633
2.3263 -1.4474 -0.0677
2.3072 -1.4242 -0.0667
2.2908 -1.4036 -0.0674
2.2545 -1.3614 -0.0603
2.2414 -1.3449 -0.0615
2.2167 -1.3140 -0.0626
2.2039 -1.2988 -0.0609
2.1953 -1.2868 -0.0648
2.1861 -1.2748 -0.0671
2.1724 -1.2600 -0.0609
2.1634 -1.2487 -0.0617
2.1534 -1.2369 -0.0598
2.1480 -1.2282 -0.0656
2.1392 -1.2178 -0.0646
2.1316 -1.2083 -0.0651
2.1235 -1.1987 -0.0639
2.1155 -1.1894 -0.0621
2.1098 -1.1815 -0.0645
2.1030 -1.1733 -0.0641
2.0963 -1.1653 -0.0631
2.7855 -2.1820 0.5897
2.7785 -2.1621 0.5563
3.0818 -2.3474 0.0792
3.0270 -2.2737 0.0521
3.0725 -2.3041 -0.0122
3.0422 -2.2566 -0.0465
3.0376 -2.2354 -0.0912
2.9168 -2.1001 -0.0746
2.8135 -1.9851 -0.0587
2.7633 -1.9235 -0.0671
2.7281 -1.8773 -0.0814
2.6059 -1.7405 -0.0643
2.5644 -1.6923 -0.0638
2.5414 -1.6614 -0.0750
2.4688 -1.5790 -0.0685
2.4191 -1.5193 -0.0730
2.3843 -1.4825 -0.0620
2.3426 -1.4336 -0.0628
2.3293 -1.4157 -0.0694
2.3060 -1.3908 -0.0629
2.2904 -1.3721 -0.0641
2.2626 -1.3385 -0.0674
2.2436 -1.3188 -0.0602
2.2309 -1.3039 -0.0605
2.2201 -1.2905 -0.0626
2.2094 -1.2776 -0.0639
2.1994 -1.2653 -0.0654
2.1889 -1.2531 -0.0653
2.1778 -1.2408 -0.0634
2.1668 -1.2289 -0.0606
2.1516 -1.2098 -0.0647
2.1432 -1.2001 -0.0642
2.1343 -1.1904 -0.0620
2.1254 -1.1811 -0.0592
2.1201 -1.1736 -0.0628
2.1125 -1.1653 -0.0612
2.1079 -1.1585 -0.0653
2.8167 -2.1630 0.5983
2.8586 -2.1352 0.3923
2.9976 -2.1940 0.1287
2.9933 -2.1745 0.0874
2.9786 -2.1448 0.0502
3.0189 -2.1678 -0.0097
2.9599 -2.0962 -0.0269
2.8273 -1.9445 -0.0408
2.7922 -1.8992 -0.0585
2.7627 -1.8598 -0.0773
2.7022 -1.7942 -0.0736
2.6659 -1.7508 -0.0822
2.5704 -1.6482 -0.0736
2.5295 -1.6044 -0.0695
2.4976 -1.5689 -0.0700
2.4390 -1.5046 -0.0687
2.4091 -1.4731 -0.0639
2.3879 -1.4489 -0.0659
2.3511 -1.4063 -0.0711
2.3225 -1.3788 -0.0599
2.3116 -1.3640 -0.0675
2.2772 -1.3271 -0.0640
2.2665 -1.3135 -0.0690
2.2503 -1.2968 -0.0654
2.2366 -1.2821 -0.0642
2.2231 -1.2679 -0.0621
2.2019 -1.2438 -0.0637
2.1923 -1.2328 -0.0650
2.1822 -1.2218 -0.0645
2.1734 -1.2117 -0.0655
2.1623 -1.2008 -0.0615
2.1548 -1.1919 -0.0633
2.1474 -1.1832 -0.0647
2.1377 -1.1738 -0.0609
2.1286 -1.1649 -0.0576
2.1244 -1.1582 -0.0632
2.8881 -2.1104 0.4011
2.8977 -2.1069 0.3640
3.0592 -2.2069 0.1742
3.1320 -2.2425 0.0629
3.1389 -2.1969 -0.0811
2.9342 -1.9857 -0.0717
2.8577 -1.9059 -0.0702
2.7908 -1.8361 -0.0690
2.7523 -1.7915 -0.0808
2.6974 -1.7345 -0.0789
2.6352 -1.6733 -0.0678
2.5977 -1.6330 -0.0706
2.5179 -1.5517 -0.0640
2.4105 -1.4381 -0.0661
2.3888 -1.4151 -0.0670
2.3659 -1.3918 -0.0649
2.3398 -1.3672 -0.0576
2.3273 -1.3517 -0.0638
2.3102 -1.3338 -0.0636
2.2965 -1.3184 -0.0664
2.2829 -1.3035 -0.0683
2.2668 -1.2875 -0.0658
2.2501 -1.2716 -0.0613
2.2374 -1.2584 -0.0612
2.2262 -1.2463 -0.0620
2.2163 -1.2351 -0.0641
2.2039 -1.2231 -0.0615
2.1980 -1.2144 -0.0683
2.1876 -1.2039 -0.0674
2.1742 -1.1923 -0.0605
2.1647 -1.1828 -0.0591
2.1577 -1.1746 -0.0616
2.1495 -1.1661 -0.0614
2.1427 -1.1583 -0.0629
2.1340 -1.1501 -0.0604
2.1285 -1.1432 -0.0634
2.8663 -2.0737 0.5148
2.8705 -2.0654 0.4813
2.9266 -2.0944 0.4092
3.1833 -2.2234 0.0696
3.1381 -2.1668 0.0383
3.2477 -2.2430 -0.0497
3.1377 -2.1150 -0.0999
2.9101 -1.8986 -0.0733
2.8420 -1.8306 -0.0737
2.7757 -1.7659 -0.0706
2.7135 -1.7060 -0.0653
2.6704 -1.6619 -0.0686
2.6253 -1.6175 -0.0674
2.5447 -1.5390 -0.0630
2.5189 -1.5113 -0.0684
2.4883 -1.4811 -0.0680
2.4320 -1.4262 -0.0649
2.3848 -1.3799 -0.0630
2.3711 -1.3637 -0.0700
2.3492 -1.3430 -0.0670
2.2933 -1.2900 -0.0600
2.2643 -1.2615 -0.0593
2.2397 -1.2366 -0.0603
2.2295 -1.2257 -0.0625
2.2188 -1.2148 -0.0631
2.2094 -1.2048 -0.0649
2.1968 -1.1937 -0.0610
2.1862 -1.1838 -0.0594
2.1777 -1.1749 -0.0604
2.1706 -1.1668 -0.0630
2.1615 -1.1583 -0.0618
2.1551 -1.1509 -0.0646
2.1474 -1.1432 -0.0647
2.8090 -2.0593 0.7593
2.8940 -2.0503 0.5231
2.9024 -2.0455 0.4896
2.9200 -2.0492 0.4551
3.2874 -2.2095 -0.0378
3.2908 -2.1933 -0.0892
3.1678 -2.0786 -0.0860
3.1370 -2.0376 -0.1179
2.9452 -1.8761 -0.0664
2.8960 -1.8251 -0.0789
2.8026 -1.7432 -0.0626
2.7646 -1.7031 -0.0737
2.7172 -1.6575 -0.0763
2.6234 -1.5706 -0.0723
2.5424 -1.4968 -0.0654
2.4827 -1.4404 -0.0657
2.4302 -1.3914 -0.0645
2.3926 -1.3535 -0.0711
2.3630 -1.3294 -0.0609
2.3463 -1.3130 -0.0628
2.3140 -1.2819 -0.0643
2.2997 -1.2680 -0.0656
2.2834 -1.2535 -0.0634
2.2533 -1.2269 -0.0585
2.2428 -1.2162 -0.0609
2.2325 -1.2058 -0.0625
2.2235 -1.1962 -0.0656
2.2105 -1.1854 -0.0619
2.1990 -1.1754 -0.0594
2.1889 -1.1663 -0.0583
2.1809 -1.1581 -0.0600
2.1743 -1.1506 -0.0634
2.1670 -1.1431 -0.0652
2.1585 -1.1354 -0.0642
2.1526 -1.1287 -0.0675
2.8073 -2.0118 0.7592
2.8275 -2.0209 0.7359
2.9258 -2.0306 0.5315
2.9224 -2.0147 0.4979
2.9229 -2.0023 0.4642
3.8938 -2.6589 -0.0867
3.1863 -2.0689 0.0230
3.2672 -2.1121 -0.0530
3.2254 -2.0630 -0.0838
3.0266 -1.8861 -0.0819
2.9300 -1.8034 -0.0725
2.8517 -1.7356 -0.0668
2.8080 -1.6930 -0.0763
2.7608 -1.6491 -0.0808
2.6868 -1.5892 -0.0643
2.6455 -1.5519 -0.0657
2.5114 -1.4308 -0.0690
2.4825 -1.4053 -0.0682
2.4545 -1.3811 -0.0662
2.4101 -1.3407 -0.0678
2.3884 -1.3217 -0.0669
2.3654 -1.3027 -0.0631
2.3279 -1.2702 -0.0602
2.2958 -1.2422 -0.0586
2.2705 -1.2185 -0.0614
2.2591 -1.2077 -0.0630
2.2484 -1.1974 -0.0649
2.2378 -1.1875 -0.0662
2.2245 -1.1769 -0.0627
2.2050 -1.1591 -0.0638
2.1954 -1.1506 -0.0635
2.1893 -1.1433 -0.0682
2.1784 -1.1350 -0.0645
2.1689 -1.1273 -0.0625
2.1643 -1.1210 -0.0682
2.8587 -2.0174 0.7741
2.8522 -2.0000 0.7432
2.8525 -1.9890 0.7141
2.9404 -1.9956 0.5392
2.9502 -1.9912 0.5062
2.9814 -2.0044 0.4720
3.9974 -2.6493 -0.0836
3.2151 -2.0334 0.0361
3.2242 -2.0225 -0.0120
3.2412 -2.0167 -0.0642
3.2019 -1.9720 -0.0935
3.0807 -1.8738 -0.0826
2.9596 -1.7785 -0.0638
2.8956 -1.7229 -0.0674
2.7961 -1.6341 -0.0793
2.6855 -1.5436 -0.0710
2.5393 -1.4200 -0.0709
2.4823 -1.3719 -0.0704
2.4492 -1.3467 -0.0631
2.4336 -1.3308 -0.0702
2.4076 -1.3104 -0.0660
2.3833 -1.2914 -0.0618
2.3477 -1.2610 -0.0626
2.3319 -1.2473 -0.0635
2.3147 -1.2334 -0.0617
2.3006 -1.2212 -0.0624
2.2895 -1.2104 -0.0660
2.2770 -1.1995 -0.0670
2.2646 -1.1889 -0.0672
2.2487 -1.1775 -0.0618
2.2378 -1.1681 -0.0624
2.2264 -1.1588 -0.0613
2.2193 -1.1510 -0.0660
2.2094 -1.1427 -0.0659
2.1996 -1.1346 -0.0652
2.1898 -1.1269 -0.0638
2.1822 -1.1198 -0.0654
2.1718 -1.1125 -0.0618
2.8917 -1.9925 0.7544
2.9772 -1.9801 0.5478
2.9780 -1.9677 0.5144
2.9924 -1.9659 0.4807
3.8355 -2.4490 -0.0121
3.7364 -2.3560 -0.0465
3.3730 -2.0861 0.0082
3.2465 -1.9828 0.0035
3.2706 -1.9810 -0.0505
3.2173 -1.9289 -0.0745
3.1191 -1.8497 -0.0754
2.9493 -1.7149 -0.0722
2.6871 -1.5018 -0.0793
2.5920 -1.4308 -0.0659
2.4721 -1.3355 -0.0637
2.4476 -1.3160 -0.0633
2.4271 -1.2989 -0.0651
2.4021 -1.2804 -0.0611
2.3811 -1.2642 -0.0596
2.3640 -1.2500 -0.0609
2.3509 -1.2377 -0.0653
2.3317 -1.2236 -0.0621
2.3173 -1.2116 -0.0631
2.3044 -1.2005 -0.0650
2.2901 -1.1893 -0.0643
2.2609 -1.1680 -0.0593
2.2521 -1.1594 -0.0631
2.2411 -1.1505 -0.0633
2.2214 -1.1341 -0.0649
2.2020 -1.1188 -0.0643
2.1928 -1.1116 -0.0637
2.1865 -1.1052 -0.0673
3.0180 -1.9669 0.5568
3.0285 -1.9616 0.5234
3.2214 -2.0466 0.3681
3.8859 -2.4065 0.0029
3.9092 -2.3970 -0.0658
3.7406 -2.2638 -0.0789
3.5152 -2.0990 -0.0630
3.3856 -1.9985 -0.0681
3.3101 -1.9338 -0.0867
3.1635 -1.8289 -0.0705
3.0642 -1.7549 -0.0670
2.9821 -1.6930 -0.0657
2.9308 -1.6502 -0.0755
2.8470 -1.5911 -0.0642
2.8161 -1.5619 -0.0786
2.7364 -1.5084 -0.0611
2.7117 -1.4844 -0.0743
2.6311 -1.4234 -0.0739
2.5652 -1.3729 -0.0749
2.5221 -1.3445 -0.0640
2.4944 -1.3237 -0.0634
2.4749 -1.3069 -0.0683
2.4522 -1.2894 -0.0692
2.4035 -1.2548 -0.0631
2.3883 -1.2417 -0.0672
2.3702 -1.2279 -0.0670
2.3490 -1.2136 -0.0624
2.3341 -1.2019 -0.0636
2.3162 -1.1896 -0.0603
2.3062 -1.1800 -0.0653
2.2802 -1.1601 -0.0657
2.2688 -1.1510 -0.0668
2.2552 -1.1418 -0.0641
2.2447 -1.1335 -0.0649
2.2343 -1.1256 -0.0651
2.2107 -1.1100 -0.0590
2.2034 -1.1034 -0.0619
5.5723 -3.8235 0.7267
5.6069 -3.8069 0.6230
3.9666 -2.3831 0.0111
4.0225 -2.3922 -0.0665
3.8816 -2.2809 -0.0917
3.6402 -2.1133 -0.0769
3.3860 -1.9252 -0.0905
3.1221 -1.7438 -0.0698
2.9895 -1.6432 -0.0830
2.8408 -1.5410 -0.0713
2.7506 -1.4734 -0.0781
2.6630 -1.4114 -0.0759
2.5896 -1.3595 -0.0737
2.5245 -1.3145 -0.0692
2.5036 -1.2976 -0.0740
2.4796 -1.2800 -0.0746
2.4231 -1.2440 -0.0634
2.4108 -1.2321 -0.0709
2.3881 -1.2174 -0.0670
2.3528 -1.1924 -0.0659
2.3376 -1.1813 -0.0665
2.3218 -1.1704 -0.0653
2.3029 -1.1591 -0.0594
2.2912 -1.1500 -0.0612
2.2834 -1.1420 -0.0674
2.2679 -1.1327 -0.0629
2.2580 -1.1247 -0.0648
2.2481 -1.1171 -0.0662
2.2367 -1.1094 -0.0648
2.2285 -1.1025 -0.0673
2.2141 -1.0951 -0.0601
2.2098 -1.0891 -0.0674
5.6595 -3.7499 0.7526
5.6952 -3.7324 0.6492
4.1846 -2.4391 -0.0093
4.1778 -2.4076 -0.0758
3.7779 -2.1290 -0.0923
3.4237 -1.8934 -0.0794
3.3327 -1.8268 -0.0911
3.2196 -1.7510 -0.0883
3.0273 -1.6240 -0.0792
2.8768 -1.5253 -0.0700
2.8163 -1.4853 -0.0672
2.7706 -1.4532 -0.0699
2.7236 -1.4216 -0.0689
2.6836 -1.3940 -0.0698
2.6506 -1.3702 -0.0733
2.6101 -1.3443 -0.0694
2.5792 -1.3229 -0.0702
2.5170 -1.2823 -0.0662
2.4925 -1.2653 -0.0669
2.4454 -1.2337 -0.0659
2.3997 -1.2048 -0.0604
2.3865 -1.1938 -0.0654
2.3546 -1.1714 -0.0672
2.3391 -1.1609 -0.0671
2.3238 -1.1508 -0.0663
2.3110 -1.1416 -0.0675
2.2958 -1.1324 -0.0650
2.2848 -1.1241 -0.0667
2.2674 -1.1152 -0.0595
2.2588 -1.1080 -0.0630
2.2504 -1.1010 -0.0661
2.2443 -1.0944 -0.0721
2.2327 -1.0875 -0.0698
5.9056 -3.8275 0.8989
5.4403 -3.4699 0.7558
4.7303 -2.8966 0.4692
3.7475 -2.2250 0.3717
3.9581 -2.3313 0.3004
3.8649 -2.2289 0.1963
4.6565 -2.6588 0.0025
3.8295 -2.1166 -0.0233
3.7391 -2.0458 -0.0544
3.2463 -1.7202 -0.0760
3.1872 -1.6758 -0.0917
3.0011 -1.5610 -0.0798
2.8662 -1.4764 -0.0748
2.8081 -1.4402 -0.0718
2.7590 -1.4090 -0.0711
2.6129 -1.3129 -0.0763
2.5146 -1.2534 -0.0671
2.4879 -1.2370 -0.0654
2.4673 -1.2228 -0.0675
2.4374 -1.2068 -0.0599
2.4230 -1.1953 -0.0652
2.4010 -1.1824 -0.0622
2.3834 -1.1710 -0.0623
2.3709 -1.1612 -0.0669
2.3377 -1.1408 -0.0645
2.3288 -1.1325 -0.0707
2.3116 -1.1232 -0.0665
2.2970 -1.1147 -0.0643
2.2832 -1.1066 -0.0625
2.2737 -1.0994 -0.0651
2.2634 -1.0923 -0.0662
2.2515 -1.0853 -0.0645
2.2413 -1.0788 -0.0645
2.2360 -1.0728 -0.0709
3.8573 -2.4020 0.8045
4.1151 -2.5512 0.7865
5.6823 -3.4641 0.6917
4.1866 -2.4976 0.5507
4.2259 -2.4698 0.4250
3.8264 -2.2096 0.3826
3.7627 -2.1511 0.3343
3.9802 -2.2282 0.2006
4.0787 -2.2573 0.1261
4.0874 -2.2366 0.0628
4.0358 -2.1842 0.0119
4.0602 -2.1715 -0.0552
3.9093 -2.0713 -0.0759
3.7776 -1.9837 -0.0943
3.4203 -1.7743 -0.0758
3.2919 -1.6982 -0.0712
3.2433 -1.6599 -0.0926
3.0420 -1.5436 -0.0782
2.7951 -1.3957 -0.0731
2.7425 -1.3656 -0.0687
2.7071 -1.3425 -0.0725
2.6674 -1.3188 -0.0715
2.6314 -1.2972 -0.0708
2.5601 -1.2568 -0.0637
2.5079 -1.2249 -0.0644
2.4624 -1.1970 -0.0649
2.4199 -1.1719 -0.0631
2.3848 -1.1503 -0.0639
2.3669 -1.1401 -0.0624
2.3577 -1.1316 -0.0693
2.3417 -1.1224 -0.0680
2.3216 -1.1131 -0.0610
2.3092 -1.1052 -0.0620
2.2977 -1.0976 -0.0633
2.2757 -1.0835 -0.0652
2.2627 -1.0767 -0.0626
2.2539 -1.0704 -0.0649
4.1075 -2.4975 0.8506
3.9213 -2.2009 0.3933
3.8053 -2.1151 0.3470
3.8843 -2.1357 0.2872
3.8416 -2.0908 0.2382
3.9792 -2.1388 0.1638
4.0019 -2.1263 0.1022
4.1915 -2.1680 -0.0593
4.0126 -2.0581 -0.0768
3.8713 -1.9693 -0.0957
3.4806 -1.7544 -0.0735
3.3744 -1.6910 -0.0797
3.2819 -1.6355 -0.0856
3.0890 -1.5277 -0.0788
2.9257 -1.4394 -0.0660
2.7327 -1.3271 -0.0700
2.7030 -1.3074 -0.0765
2.6671 -1.2865 -0.0772
2.5950 -1.2472 -0.0722
2.5362 -1.2145 -0.0698
2.4834 -1.1858 -0.0660
2.4391 -1.1612 -0.0640
2.4162 -1.1496 -0.0604
2.4023 -1.1400 -0.0644
2.3746 -1.1217 -0.0702
2.3573 -1.1126 -0.0682
2.3428 -1.1042 -0.0683
2.3157 -1.0887 -0.0682
2.2846 -1.0744 -0.0599
2.2773 -1.0681 -0.0650
2.2658 -1.0618 -0.0641
2.2603 -1.0560 -0.0707
4.2872 -2.5372 0.8864
4.0754 -2.2679 0.5165
3.9801 -2.1702 0.4061
3.8842 -2.0979 0.3573
3.8661 -2.0667 0.3061
3.9233 -2.0728 0.2468
4.0123 -2.0928 0.1796
4.1284 -2.0728 -0.0183
4.1377 -2.0513 -0.0818
3.9836 -1.9599 -0.1009
3.3474 -1.6209 -0.0889
3.1378 -1.5114 -0.0797
3.0617 -1.4701 -0.0800
2.9738 -1.4266 -0.0705
2.8516 -1.3621 -0.0666
2.7633 -1.3129 -0.0702
2.7348 -1.2940 -0.0784
2.6533 -1.2522 -0.0732
2.5551 -1.2015 -0.0672
2.4829 -1.1623 -0.0676
2.4612 -1.1508 -0.0672
2.4486 -1.1411 -0.0742
2.4031 -1.1200 -0.0656
2.3889 -1.1112 -0.0683
2.3713 -1.1025 -0.0665
2.3600 -1.0946 -0.0706
2.3400 -1.0865 -0.0642
2.3279 -1.0792 -0.0659
2.3151 -1.0723 -0.0659
2.2996 -1.0655 -0.0621
2.2922 -1.0593 -0.0674
2.2722 -1.0474 -0.0700
6.2901 -3.8492 1.7559
4.2969 -2.4455 0.8352
3.9145 -2.0550 0.3709
3.8732 -2.0132 0.3218
3.8799 -1.9946 0.2694
5.3837 -2.6155 -0.0748
4.0129 -1.9618 0.0312
4.2041 -2.0162 -0.0710
3.9878 -1.9039 -0.0759
3.5888 -1.7061 -0.0630
3.5315 -1.6656 -0.0899
3.3026 -1.5491 -0.0896
3.0934 -1.4490 -0.0742
3.0103 -1.4090 -0.0686
2.7453 -1.2748 -0.0666
2.7050 -1.2546 -0.0659
2.6696 -1.2363 -0.0665
2.6392 -1.2199 -0.0685
2.5506 -1.1754 -0.0671
2.4772 -1.1391 -0.0646
2.4579 -1.1287 -0.0658
2.4341 -1.1184 -0.0617
2.4160 -1.1091 -0.0618
2.3882 -1.0925 -0.0676
2.3534 -1.0768 -0.0627
2.3429 -1.0698 -0.0666
2.3279 -1.0630 -0.0647
2.3149 -1.0565 -0.0643
2.3037 -1.0504 -0.0653
2.2943 -1.0444 -0.0681
2.2877 -1.0386 -0.0738
4.3125 -2.3847 0.8451
4.3230 -2.3653 0.7876
4.1850 -2.1961 0.5449
4.1185 -2.1399 0.4877
3.9965 -2.0364 0.3818
3.9523 -1.9940 0.3317
5.4967 -2.5687 -0.0584
5.1721 -2.3979 -0.0940
4.0259 -1.8865 -0.0044
4.0334 -1.8655 -0.0624
3.8617 -1.7794 -0.0712
3.6639 -1.6879 -0.0634
3.5945 -1.6442 -0.0880
3.3677 -1.5333 -0.0932
3.1490 -1.4346 -0.0787
2.9884 -1.3613 -0.0699
2.7912 -1.2640 -0.0764
2.7307 -1.2400 -0.0646
2.7033 -1.2241 -0.0712
2.6354 -1.1917 -0.0709
2.5806 -1.1643 -0.0735
2.5197 -1.1386 -0.0652
2.4736 -1.1173 -0.0634
2.4411 -1.0992 -0.0694
2.4208 -1.0904 -0.0672
2.4015 -1.0821 -0.0648
2.3706 -1.0671 -0.0652
2.3418 -1.0536 -0.0645
2.3294 -1.0473 -0.0653
2.3207 -1.0413 -0.0698
2.3075 -1.0356 -0.0683
6.7184 -4.1206 2.5338
6.7069 -4.0674 2.4216
4.2399 -2.2565 0.7858
4.3496 -2.2866 0.7406
4.2324 -2.1561 0.5590
4.0007 -1.9823 0.3965
3.9829 -1.9523 0.3453
3.9776 -1.9278 0.2936
5.2409 -2.3399 -0.0736
4.8568 -2.1620 -0.0850
4.5290 -2.0123 -0.0897
4.3861 -1.9338 -0.1228
3.9661 -1.7649 -0.0753
3.6495 -1.6190 -0.0829
3.4129 -1.5100 -0.0885
3.2249 -1.4243 -0.0908
3.0287 -1.3447 -0.0703
2.9828 -1.3205 -0.0786
2.9261 -1.2948 -0.0790
2.8115 -1.2469 -0.0704
2.7646 -1.2268 -0.0679
2.7336 -1.2106 -0.0732
2.6584 -1.1781 -0.0698
2.5947 -1.1505 -0.0672
2.5704 -1.1387 -0.0693
2.5345 -1.1262 -0.0608
2.4961 -1.1063 -0.0667
2.4800 -1.0973 -0.0709
2.4591 -1.0883 -0.0699
2.4167 -1.0717 -0.0639
2.4028 -1.0644 -0.0666
2.3890 -1.0573 -0.0685
2.3714 -1.0505 -0.0658
2.3577 -1.0441 -0.0664
2.3441 -1.0380 -0.0663
2.3343 -1.0321 -0.0698
2.3217 -1.0265 -0.0696
2.3101 -1.0212 -0.0699
5.1660 -2.6694 0.9881
5.9370 -2.8826 0.7263
5.5193 -2.6586 0.6161
6.1560 -2.8937 0.5370
4.1845 -2.0032 0.4043
4.0523 -1.9267 0.3565
4.0332 -1.8966 0.3053
6.3595 -2.7021 -0.1078
5.3781 -2.3062 -0.0639
4.6255 -1.9802 -0.0821
4.4766 -1.9025 -0.1163
4.2252 -1.7958 -0.1174
3.8804 -1.6661 -0.0801
3.7156 -1.5962 -0.0807
3.5920 -1.5413 -0.0869
3.4608 -1.4869 -0.0843
3.2484 -1.3989 -0.0802
3.1506 -1.3603 -0.0739
3.0707 -1.3278 -0.0709
3.0228 -1.3039 -0.0794
2.9528 -1.2765 -0.0743
2.7544 -1.1950 -0.0688
2.6817 -1.1643 -0.0687
2.6406 -1.1496 -0.0626
2.6197 -1.1380 -0.0690
2.5938 -1.1264 -0.0706
2.5072 -1.0943 -0.0601
2.4724 -1.0771 -0.0659
2.4571 -1.0691 -0.0694
2.4399 -1.0614 -0.0704
2.4198 -1.0541 -0.0677
2.3999 -1.0472 -0.0640
2.3878 -1.0407 -0.0674
2.3738 -1.0344 -0.0681
2.3580 -1.0286 -0.0661
2.3451 -1.0230 -0.0666
2.3351 -1.0174 -0.0698
6.6078 -3.1128 0.8956
6.1007 -2.8089 0.6576
5.8200 -2.6533 0.5550
5.7278 -2.5772 0.4636
4.0957 -1.8902 0.3694
6.6287 -2.6882 -0.1035
4.8434 -1.9840 -0.0974
4.5686 -1.8700 -0.1094
4.2410 -1.7463 -0.0954
4.0082 -1.6560 -0.0913
3.8263 -1.5841 -0.0909
3.6442 -1.5159 -0.0818
3.3844 -1.4158 -0.0755
3.2999 -1.3801 -0.0808
3.2232 -1.3478 -0.0852
3.0469 -1.2836 -0.0723
2.9827 -1.2587 -0.0711
2.9344 -1.2378 -0.0751
2.8322 -1.1983 -0.0728
2.6715 -1.1371 -0.0673
2.6389 -1.1246 -0.0663
2.6126 -1.1134 -0.0682
2.5562 -1.0924 -0.0651
2.5343 -1.0831 -0.0665
2.5104 -1.0742 -0.0652
2.4887 -1.0659 -0.0646
2.4681 -1.0581 -0.0638
2.4526 -1.0507 -0.0666
2.4311 -1.0438 -0.0631
2.4167 -1.0371 -0.0653
2.3984 -1.0309 -0.0629
2.3730 -1.0190 -0.0670
2.3588 -1.0136 -0.0666
2.3477 -1.0083 -0.0688
4.9513 2.5285 1.4049
6.1247 3.2200 1.7200
3.0826 0.3450 0.8370
3.0267 0.2710 0.8195
3.0028 0.2203 0.8108
2.9478 0.1207 0.7920
2.9653 0.0969 0.7946
2.9411 0.0525 0.7863
2.9401 0.0203 0.7841
2.9627 -0.0015 0.7880
2.9762 -0.0278 0.7895
3.0293 -0.0401 0.8011
5.6359 0.5927 1.4460
4.7723 0.1926 1.2207
4.7646 0.1133 1.2141
4.8269 0.0473 1.2246
5.8244 -0.4840 1.4242
4.4365 -0.9001 1.0760
3.6178 -0.8388 0.8893
3.5533 -0.8623 0.8729
3.5617 -0.9014 0.8724
5.1448 2.9747 1.3848
5.1659 2.8758 1.3836
5.3603 2.5756 1.4075
5.6713 2.7152 1.4805
3.0081 0.2628 0.7849
2.9951 0.2190 0.7798
2.9731 0.1712 0.7724
2.9447 0.1216 0.7637
2.9540 0.0936 0.7641
2.9502 0.0591 0.7614
2.9667 0.0343 0.7634
2.9699 0.0034 0.7624
2.9937 -0.0193 0.7661
3.0218 -0.0414 0.7707
3.0398 -0.0682 0.7730
5.3579 0.5173 1.2916
5.0678 0.3477 1.2213
4.7542 0.1896 1.1467
4.7701 0.1150 1.1459
4.9310 0.0654 1.1768
6.6963 -0.4940 1.5153
4.5073 -0.9174 1.0329
3.7641 -0.8319 0.8820
3.6078 -0.8405 0.8487
3.6095 -0.8797 0.8469
3.5734 -0.9086 0.8377
3.5747 -0.9462 0.8359
5.1418 2.8717 1.2854
3.0167 0.3090 0.7588
2.9925 0.2565 0.7516
2.9807 0.2136 0.7472
2.9686 0.1716 0.7428
2.9504 0.1275 0.7371
2.9594 0.0331 0.7340
2.9976 -0.0161 0.7386
3.0256 -0.0385 0.7427
3.0292 -0.0705 0.7417
3.0472 -0.0978 0.7437
4.8057 0.2023 1.0864
4.7519 0.1120 1.0718
4.8874 0.0579 1.0943
6.4368 -0.4970 1.3544
4.3587 -0.8966 0.9471
3.7174 -0.8267 0.8312
3.5979 -0.8422 0.8082
3.5844 -0.8777 0.8039
3.6083 -0.9220 0.8060
3.5946 -0.9563 0.8017
7.2348 -3.4355 1.3529
5.0966 2.9667 1.1884
5.1178 2.8677 1.1872
5.2088 2.8379 1.2007
4.4914 1.9387 1.0426
3.0811 0.3965 0.7423
2.9075 0.2054 0.7053
2.9040 0.1700 0.7031
2.9690 0.1749 0.7139
2.9647 0.1381 0.7115
2.9495 0.0963 0.7071
2.9559 0.0664 0.7068
2.9562 0.0337 0.7053
3.0004 -0.0133 0.7103
3.0222 -0.0383 0.7127
3.0483 -0.0627 0.7159
3.0509 -0.0955 0.7148
3.0815 -0.1202 0.7186
4.7399 0.1885 1.0024
4.8034 0.1228 1.0097
4.7720 0.0381 1.0007
4.8115 -0.0336 1.0038
5.0593 -0.0818 1.0419
5.9212 -0.4973 1.1629
3.9961 -0.7880 0.8365
3.9945 -0.8371 0.8340
3.7067 -0.8285 0.7876
3.5949 -0.8454 0.7687
3.5967 -0.8847 0.7671
3.6054 -0.9256 0.7667
3.6141 -0.9664 0.7662
3.4677 -1.1615 0.7334
3.4450 -1.1837 0.7287
3.4648 -1.2250 0.7300
6.6762 -2.9561 1.1724
6.9289 -3.1868 1.2029
5.2436 4.0855 1.1598
5.1626 2.9348 1.1015
5.1148 2.7647 1.0879
4.2162 1.6154 0.9163
3.0423 0.3734 0.7027
2.9207 0.2519 0.6809
2.8945 0.2005 0.6751
2.9066 0.1748 0.6757
2.9265 0.1533 0.6776
2.9461 0.0972 0.6780
2.9525 0.0671 0.6777
2.9619 0.0385 0.6778
2.9724 0.0101 0.6781
2.9859 -0.0173 0.6789
3.0217 -0.0369 0.6830
3.0641 -0.0560 0.6881
3.0597 -0.0917 0.6861
3.0706 -0.1224 0.6863
4.5857 0.0799 0.9046
4.6862 0.0235 0.9163
4.7242 -0.0467 0.9187
4.6952 -0.1261 0.9114
6.6708 -0.5091 1.1696
4.2662 -0.6040 0.8324
4.0709 -0.6460 0.8036
3.9281 -0.6837 0.7822
3.8950 -0.7285 0.7758
3.9497 -0.7848 0.7811
3.6880 -0.8286 0.7430
3.5780 -0.8455 0.7271
3.5798 -0.8847 0.7257
3.5955 -0.9272 0.7261
3.6193 -0.9725 0.7276
3.4536 -1.0612 0.7010
3.4692 -1.1344 0.7001
3.4517 -1.1598 0.6967
3.4594 -1.1958 0.6963
6.4204 -2.7495 1.0432
6.4927 -2.8781 1.0479
6.8423 -3.1592 1.0849
5.2566 4.1348 1.0578
5.1380 2.9307 1.0012
5.1596 2.8297 1.0001
2.9513 0.2766 0.6561
2.8874 0.1993 0.6461
2.8965 0.1718 0.6461
2.9057 0.1441 0.6462
2.9353 0.1276 0.6490
2.9525 0.1031 0.6501
2.9560 0.0712 0.6493
2.9378 0.0295 0.6457
3.0045 -0.0082 0.6520
3.0423 -0.0277 0.6557
3.0653 -0.0542 0.6573
3.0723 -0.0866 0.6570
3.1089 -0.1106 0.6603
3.1242 -0.1417 0.6610
4.5485 0.0731 0.8316
4.7354 0.0320 0.8515
5.0342 -0.4162 0.8696
4.0419 -0.8033 0.7423
3.5378 -0.8019 0.6847
3.5977 -0.8539 0.6897
3.5550 -0.8826 0.6837
3.6005 -0.9330 0.6871
3.6174 -0.9766 0.6875
3.4603 -1.1359 0.6639
3.4621 -1.1698 0.6628
3.4880 -1.2147 0.6642
6.1192 -2.6137 0.9152
6.5703 -2.9364 0.9553
6.8154 -3.1637 0.9752
5.1520 4.0241 0.9379
2.8897 0.2043 0.6180
2.8675 0.1570 0.6146
2.8957 0.1412 0.6166
2.9280 0.1264 0.6191
2.9516 0.0714 0.6195
2.9306 0.0283 0.6163
2.9860 -0.0138 0.6200
3.0105 -0.0380 0.6215
3.0574 -0.0555 0.6252
3.0937 -0.0787 0.6277
3.1313 -0.1033 0.6303
3.1345 -0.1384 0.6296
4.7010 0.1041 0.7777
4.7400 0.0329 0.7790
5.0659 0.0021 0.8074
3.5498 -0.3959 0.6590
3.4655 -0.4809 0.6489
3.3549 -0.5539 0.6367
3.3452 -0.5897 0.6347
3.3597 -0.6273 0.6349
3.3788 -0.6658 0.6354
3.3633 -0.6993 0.6330
3.3947 -0.7404 0.6346
3.4343 -0.7842 0.6368
3.4481 -0.8236 0.6368
3.4699 -0.8652 0.6375
3.5183 -0.9148 0.6403
3.6949 -1.0044 0.6535
3.6961 -1.0453 0.6523
3.6402 -1.0663 0.6467
3.4495 -1.1032 0.6284
3.4633 -1.1425 0.6285
3.4843 -1.1852 0.6290
3.6241 -1.2843 0.6386
6.7412 -2.9470 0.8679
6.7649 -3.0576 0.8667
6.7310 -3.1365 0.8612
7.1205 -3.4546 0.8865
7.4233 -3.7359 0.9051
5.1257 4.0197 0.8307
4.9377 3.6300 0.8086
5.0626 3.6624 0.8176
5.0672 3.0236 0.8018
5.0760 2.7866 0.7964
2.9024 0.2508 0.5912
2.8985 0.2136 0.5900
2.8851 0.1712 0.5880
2.8914 0.1417 0.5877
2.9245 0.1273 0.5895
2.9348 0.0991 0.5895
2.9374 0.0668 0.5888
2.9920 -0.0433 0.5896
3.0406 -0.0599 0.5923
3.0685 -0.0855 0.5935
3.1513 -0.0966 0.5986
3.1974 -0.1215 0.6010
4.7290 0.1103 0.7063
4.6109 0.0107 0.6962
4.8095 -0.0356 0.7079
4.5793 -0.1424 0.6902
4.4389 -0.2277 0.6790
4.4092 -0.4300 0.6719
3.8696 -0.5888 0.6329
3.7606 -0.8114 0.6202
3.7795 -0.8598 0.6202
3.9993 -1.1008 0.6284
3.8801 -1.1099 0.6204
3.4191 -1.0291 0.5925
3.4211 -1.0634 0.5918
3.4653 -1.1148 0.5933
3.4862 -1.1577 0.5936
3.5476 -1.2195 0.5961
3.6215 -1.2893 0.5991
4.7298 -1.9310 0.6549
4.7382 -2.0508 0.6525
6.2683 -2.9864 0.7283
4.7083 3.4727 0.6972
5.1225 3.9072 0.7222
5.0243 3.5093 0.7104
5.0858 2.8173 0.6992
2.8755 0.2360 0.5600
2.8754 0.2019 0.5594
2.8779 0.1700 0.5588
2.8908 0.1445 0.5588
2.9133 0.1239 0.5593
2.9341 0.1014 0.5597
2.9925 -0.0076 0.5599
3.0150 -0.0331 0.5602
3.0327 -0.0612 0.5604
3.0775 -0.0814 0.5618
3.1147 -0.1061 0.5628
3.1594 -0.1305 0.5641
4.6147 0.0115 0.6248
4.7905 -0.0387 0.6308
4.7355 -0.1249 0.6269
4.6653 -0.4296 0.6181
4.4991 -0.4993 0.6101
4.3696 -0.5612 0.6037
4.2234 -0.6147 0.5968
4.1081 -0.6630 0.5913
3.9924 -0.7050 0.5858
4.0664 -0.7671 0.5875
3.9788 -0.8058 0.5833
3.9213 -0.8455 0.5802
3.8674 -0.8826 0.5773
3.9665 -0.9526 0.5799
4.0361 -1.0190 0.5813
4.1087 -1.1398 0.5818
3.4218 -1.0349 0.5566
3.4424 -1.0768 0.5566
3.4690 -1.1216 0.5567
3.5170 -1.1766 0.5576
3.6963 -1.2931 0.5624
6.2731 -2.7414 0.6362
6.2691 -2.9172 0.6326
6.7583 -3.2878 0.6447
7.3631 -3.7460 0.6597
5.1339 3.9539 0.6163
5.1315 2.8854 0.6009
5.0155 2.6456 0.5958
2.8554 0.2258 0.5302
2.8617 0.1964 0.5299
2.8931 0.1829 0.5301
2.8714 0.1360 0.5291
2.8937 0.1157 0.5292
2.9200 0.0966 0.5293
2.9466 0.0763 0.5293
2.9638 0.0504 0.5292
2.9859 0.0259 0.5292
2.9849 -0.0089 0.5287
3.0073 -0.0344 0.5286
3.0249 -0.0625 0.5285
3.0357 -0.0935 0.5282
3.0895 -0.1123 0.5287
3.1007 -0.1448 0.5284
3.1301 -0.1735 0.5284
5.2442 -0.4263 0.5549
5.2948 -0.5146 0.5544
5.3799 -0.6060 0.5543
4.8786 -0.6617 0.5463
4.0765 -0.8793 0.5317
4.0628 -0.9288 0.5308
4.4288 -1.0671 0.5341
4.8711 -1.3794 0.5359
3.4128 -1.0364 0.5200
3.4334 -1.0783 0.5197
3.4599 -1.1232 0.5194
3.5076 -1.1782 0.5193
3.6789 -1.2916 0.5201
6.1593 -2.5213 0.5379
6.2269 -2.6444 0.5371
6.2485 -2.7455 0.5359
6.2701 -2.8466 0.5348
6.5430 -3.0890 0.5352
7.1676 -3.5464 0.5375
4.9641 3.7541 0.5078
4.9817 2.8743 0.4998
5.1064 2.8812 0.4984
4.9914 2.6416 0.4976
2.8547 0.2291 0.5010
2.8573 0.1970 0.5007
2.8636 0.1676 0.5004
2.8801 0.1443 0.5000
2.8865 0.1145 0.4996
2.9192 0.0989 0.4991
2.9495 0.0803 0.4986
2.9791 0.0599 0.4981
2.9926 0.0310 0.4977
2.9966 -0.0023 0.4973
3.0102 -0.0662 0.4966
3.0635 -0.1188 0.4955
3.0795 -0.1496 0.4951
3.1127 -0.1769 0.4944
5.2543 -0.4296 0.4674
5.4779 -0.5216 0.4640
5.2921 -0.6069 0.4654
5.0423 -0.6773 0.4676
5.6904 -0.8178 0.4589
5.4503 -0.8849 0.4611
5.3679 -0.9615 0.4614
4.8154 -1.3031 0.4647
4.7431 -1.3483 0.4652
3.4038 -1.0379 0.4834
3.4243 -1.0798 0.4828
3.6433 -1.2438 0.4788
6.1807 -2.5475 0.4379
6.1116 -2.6027 0.4382
6.3198 -2.8001 0.4341
6.4418 -2.9580 0.4312
6.6808 -3.1862 0.4265
4.9146 3.0703 0.4028
4.7523 2.7645 0.4080
4.8821 2.6698 0.4027
4.7850 2.1226 0.4046
2.8538 0.2323 0.4714
2.8720 0.2106 0.4707
2.8628 0.1705 0.4709
2.8692 0.1408 0.4706
2.8913 0.1202 0.4697
2.8884 0.0851 0.4697
2.9315 0.0738 0.4680
2.9637 0.0550 0.4667
3.0010 0.0368 0.4652
2.9993 0.0008 0.4652
2.9956 -0.0355 0.4652
3.0131 -0.0638 0.4645
3.0054 -0.1008 0.4646
3.0476 -0.1224 0.4630
3.0675 -0.1520 0.4621
3.1094 -0.1772 0.4605
3.2407 -0.2639 0.4552
3.3291 -0.2917 0.4518
5.2650 -0.4329 0.3782
5.1898 -0.5207 0.3807
5.1778 -0.6064 0.3809
4.9948 -0.6787 0.3876
5.1837 -0.7760 0.3801
5.2952 -0.8726 0.3756
5.2515 -0.9514 0.3770
4.1707 -0.9072 0.4180
4.1141 -0.9502 0.4200
4.7533 -1.2932 0.3947
3.3757 -0.9985 0.4477
3.4323 -1.0536 0.4454
3.5800 -1.2219 0.4393
6.3769 -2.5637 0.3292
6.2505 -2.5977 0.3339
6.2245 -2.6765 0.3346
6.2464 -2.7787 0.3335
6.3167 -2.9076 0.3304
6.4387 -3.0679 0.3252
4.8172 2.8597 0.3088
4.6653 2.5752 0.3193
4.7128 2.5132 0.3163
4.7805 2.3564 0.3124
4.8298 2.2907 0.3094
2.8556 0.2375 0.4413
2.8620 0.2075 0.4410
2.8748 0.1816 0.4402
2.8711 0.1452 0.4405
2.8618 0.1063 0.4412
2.9007 0.0944 0.4388
2.9277 0.0745 0.4371
2.9485 0.0501 0.4358
2.9931 0.0355 0.4330
2.9877 -0.0021 0.4334
3.0070 -0.0295 0.4322
3.0101 -0.0634 0.4321
3.0248 -0.0934 0.4312
3.0396 -0.1238 0.4304
3.0545 -0.1546 0.4295
3.1050 -0.1776 0.4263
3.1402 -0.2063 0.4241
3.1927 -0.2336 0.4208
3.2427 -0.2638 0.4176
3.3195 -0.2933 0.4128
3.3982 -0.3264 0.4078
3.4490 -0.3650 0.4046
4.9145 -0.5194 0.3107
4.9751 -0.6820 0.3072
4.9924 -0.7630 0.3063
4.9565 -0.8375 0.3088
4.2291 -0.9238 0.3558
4.6121 -1.2600 0.3319
3.4274 -1.0219 0.4076
3.4604 -1.0694 0.4056
3.4755 -1.1109 0.4047
3.6068 -1.2400 0.3966
6.5325 -2.7529 0.2120
6.3965 -2.7816 0.2208
6.1747 -2.7579 0.2350
6.5401 -3.2400 0.2127
4.6164 2.5422 0.2314
4.6903 2.5094 0.2249
4.7380 2.4456 0.2211
4.6861 2.0663 0.2289
2.8673 0.2148 0.4100
2.8710 0.1827 0.4099
2.8456 0.1329 0.4126
2.8905 0.0917 0.4088
2.9100 0.0680 0.4073
2.9408 0.0489 0.4046
2.9814 0.0325 0.4010
3.0158 0.0114 0.3981
3.0267 -0.0203 0.3973
3.0252 -0.0567 0.3978
3.0284 -0.0910 0.3977
3.0679 -0.1503 0.3946
3.1016 -0.1779 0.3918
3.1465 -0.2048 0.3879
3.2147 -0.2298 0.3819
3.2446 -0.2638 0.3794
3.3100 -0.2949 0.3737
3.3952 -0.3274 0.3662
5.0663 -0.6933 0.2167
3.7655 -0.6958 0.3354
3.7377 -0.7393 0.3383
3.6161 -0.8500 0.3503
3.4629 -1.0397 0.3659
3.6843 -1.2416 0.3473
6.6416 -2.9260 0.0912
6.6087 -3.0086 0.0949
4.6404 2.4765 0.1371
4.6876 2.4135 0.1324
4.7352 2.3488 0.1277
4.8130 2.3103 0.1190
4.9259 2.2991 0.1057
5.6568 2.8161 0.0119
2.8536 0.2093 0.3806
2.8700 0.1855 0.3790
2.8629 0.1467 0.3803
2.8794 0.1224 0.3787
2.8831 0.0904 0.3787
2.9126 0.0719 0.3755
2.9443 0.0529 0.3720
2.9614 0.0258 0.3704
2.9682 -0.0063 0.3700
2.9987 -0.0293 0.3667
3.0219 -0.0563 0.3643
3.0328 -0.0883 0.3635
3.0274 -0.1253 0.3647
3.0684 -0.1494 0.3601
3.0883 -0.1804 0.3582
3.1055 -0.2128 0.3566
3.1217 -0.2458 0.3552
3.3064 -0.2958 0.3340
3.3651 -0.3309 0.3275
5.2835 -0.5347 0.1030
5.2699 -0.6244 0.1059
5.1332 -0.7032 0.1232
5.0638 -0.7807 0.1325
3.5562 -0.7995 0.3114
3.4913 -0.8261 0.3195
3.4515 -0.8554 0.3246
3.4199 -0.8846 0.3288
3.4086 -0.9179 0.3306
3.4366 -0.9629 0.3279
3.4450 -1.0021 0.3274
3.5077 -1.0612 0.3208
3.5532 -1.1160 0.3162
6.6716 -2.9606 -0.0276
6.4183 -2.9247 0.0019
6.7205 -3.1899 -0.0302
4.7589 2.6231 0.0230
4.7210 2.4672 0.0316
4.7411 2.3732 0.0306
4.7899 2.3065 0.0248
4.8706 2.2665 0.0138
5.2384 2.4721 -0.0441
2.8427 0.2057 0.3511
2.8652 0.1860 0.3482
2.8753 0.1576 0.3473
2.8783 0.1248 0.3476
2.8948 0.0997 0.3456
2.8950 0.0655 0.3463
2.9219 0.0445 0.3428
2.9508 0.0232 0.3390
2.9642 -0.0061 0.3376
2.9908 -0.0306 0.3342
3.1216 -0.1722 0.3179
3.3002 -0.2562 0.2935
3.3611 -0.3320 0.2861
5.3982 -0.5416 -0.0075
5.0075 -0.6162 0.0511
4.9976 -0.6981 0.0542
5.2865 -0.8088 0.0141
5.2097 -0.8869 0.0269
4.8901 -0.9231 0.0743
3.5691 -0.8060 0.2651
3.4812 -0.8278 0.2784
3.3955 -0.8454 0.2913
3.3196 -0.8612 0.3027
3.3394 -0.9016 0.3006
3.3594 -0.9426 0.2985
3.4618 -1.0128 0.2849
3.5564 -1.0845 0.2725
6.2201 -2.7430 -0.0838
6.2424 -2.8475 -0.0850
6.3133 -2.9795 -0.0928
6.1440 -2.9723 -0.0682
6.0313 -2.9917 -0.0513
4.7528 2.8786 -0.0819
4.6303 2.6204 -0.0539
4.6501 2.5273 -0.0549
4.6700 2.4343 -0.0560
4.7970 2.3314 -0.0755
4.7296 2.1551 -0.0592
4.8992 2.1933 -0.0897
4.8584 2.0436 -0.0787
4.8789 1.9477 -0.0798
2.8486 0.2136 0.3187
2.8578 0.1848 0.3179
2.8679 0.1564 0.3168
2.8780 0.1278 0.3158
2.8774 0.0929 0.3168
2.8912 0.0661 0.3151
2.9215 0.0468 0.3103
2.9458 0.0231 0.3067
2.9721 -0.0008 0.3028
2.9940 -0.0276 0.2996
3.0254 -0.0521 0.2948
3.0723 -0.0730 0.2872
3.1159 -0.0974 0.2802
3.3473 -0.2497 0.2438
3.3118 -0.2962 0.2512
3.3452 -0.3342 0.2464
5.0176 -0.3653 -0.0441
5.2529 -0.4508 -0.0829
5.3406 -0.5446 -0.0957
5.2923 -0.6351 -0.0850
4.9229 -0.6972 -0.0190
4.5207 -0.8042 0.0538
3.5911 -0.8145 0.2160
3.4849 -0.8327 0.2350
3.3679 -0.8424 0.2556
3.3278 -0.8674 0.2632
3.3304 -0.9031 0.2637
3.3101 -0.9310 0.2680
3.3463 -0.9774 0.2629
3.3717 -1.0211 0.2595
5.2987 -1.8188 -0.0555
5.6618 -2.0486 -0.1128
5.8402 -2.2124 -0.1396
5.7020 -2.2366 -0.1149
5.7220 -2.3306 -0.1160
5.7421 -2.4246 -0.1170
5.7622 -2.5186 -0.1181
5.8623 -2.6566 -0.1320
5.8828 -2.7526 -0.1330
5.9033 -2.8485 -0.1341
5.8425 -2.8946 -0.1223
5.7844 -2.9391 -0.1111
4.3308 2.1006 -0.0737
4.2848 1.9545 -0.0597
4.3020 1.8741 -0.0606
4.4696 1.8311 -0.0932
4.4647 1.7271 -0.0889
4.4365 1.6059 -0.0793
2.8508 0.2190 0.2863
2.8538 0.1858 0.2867
2.8666 0.1590 0.2850
2.8634 0.1223 0.2868
2.8896 0.1026 0.2821
2.8900 0.0681 0.2831
2.9066 0.0420 0.2806
2.9416 0.0235 0.2741
4.3270 0.1092 -0.0093
3.3499 -0.2495 0.2001
3.3079 -0.2971 0.2101
3.3943 -0.3308 0.1937
4.5961 -0.3807 -0.0482
4.7033 -0.4557 -0.0675
4.8419 -0.5364 -0.0930
4.8085 -0.6148 -0.0837
4.7531 -0.6888 -0.0701
3.9097 -0.8335 0.1053
3.5561 -0.8114 0.1763
3.4611 -0.8312 0.1962
3.3522 -0.8423 0.2186
3.3305 -0.8723 0.2239
3.3213 -0.9046 0.2268
3.3120 -0.9361 0.2297
3.3036 -0.9671 0.2324
3.3168 -1.0054 0.2310
5.1188 -1.8327 -0.1077
5.0020 -1.8541 -0.0833
5.1255 -1.9818 -0.1043
5.1998 -2.0900 -0.1159
5.1827 -2.3670 -0.1036
5.1998 -2.4466 -0.1045
5.2168 -2.5263 -0.1054
5.2338 -2.6059 -0.1063
4.0136 2.0572 -0.0852
4.0126 1.9641 -0.0814
4.0283 1.8907 -0.0823
4.0439 1.8173 -0.0831
4.0260 1.7100 -0.0749
4.0580 1.6537 -0.0801
4.0910 1.5970 -0.0856
4.1242 1.5392 -0.0911
4.1047 1.4351 -0.0826
4.1032 1.3485 -0.0790
2.8528 0.2244 0.2532
2.8620 0.1950 0.2522
2.8591 0.1577 0.2543
2.8856 0.1033 0.2502
2.8789 0.0650 0.2533
2.8927 0.0376 0.2511
2.9238 0.0176 0.2447
3.2086 0.0596 0.1772
3.2467 0.0303 0.1695
3.4789 0.0622 0.1145
3.6117 0.0509 0.0842
4.1552 0.0703 -0.0423
4.1856 0.0074 -0.0469
3.3020 -0.2566 0.1676
3.3039 -0.2981 0.1687
3.4338 -0.3283 0.1398
4.2735 -0.3250 -0.0546
4.4541 -0.3873 -0.0940
4.4495 -0.4591 -0.0902
4.4266 -0.5293 -0.0823
4.4799 -0.6015 -0.0918
4.3999 -0.6650 -0.0709
3.8512 -0.7765 0.0603
3.6178 -0.7841 0.1146
3.5141 -0.8066 0.1395
3.4510 -0.8329 0.1551
3.2743 -0.8261 0.1957
3.3213 -0.8738 0.1866
3.3475 -0.9170 0.1822
3.3031 -0.9376 0.1933
3.3109 -0.9743 0.1929
3.3361 -1.0176 0.1887
4.7452 -1.7506 -0.1095
4.7384 -1.8119 -0.1056
4.7982 -1.9051 -0.1158
4.8136 -1.9774 -0.1166
4.7840 -2.0255 -0.1080
4.7778 -2.0847 -0.1043
4.7713 -2.1429 -0.1005
4.8080 -2.2261 -0.1059
4.7576 -2.2560 -0.0931
3.8409 1.8710 -0.1102
3.8556 1.8023 -0.1110
3.8414 1.7021 -0.1029
3.8139 1.5901 -0.0907
3.8004 1.4959 -0.0830
3.8561 1.4713 -0.0965
3.8992 1.4316 -0.1059
3.8705 1.3253 -0.0937
3.8294 1.2119 -0.0780
3.8162 1.1256 -0.0708
2.8683 0.2030 0.2172
2.8611 0.1625 0.2209
2.8651 0.1297 0.2213
2.8683 0.0966 0.2219
2.8713 0.0637 0.2226
2.9093 0.0482 0.2134
2.9197 0.0180 0.2120
3.2280 0.0695 0.1294
3.2423 0.0306 0.1274
3.2954 0.0040 0.1147
3.3714 -0.0185 0.0959
3.7011 -0.0346 0.0107
3.8841 -0.0532 -0.0362
3.2979 -0.2575 0.1257
3.3124 -0.2977 0.1237
3.3678 -0.3348 0.1109
4.0549 -0.3391 -0.0680
4.0680 -0.4005 -0.0687
4.0960 -0.4619 -0.0733
4.0793 -0.5229 -0.0662
4.0503 -0.5817 -0.0561
3.9826 -0.6349 -0.0361
3.4594 -0.6343 0.1003
3.5874 -0.7382 0.0715
3.5252 -0.7708 0.0892
3.4673 -0.8006 0.1056
3.3492 -0.8128 0.1369
3.3104 -0.8394 0.1482
3.3301 -0.8805 0.1449
3.3202 -0.9129 0.1489
3.2995 -0.9409 0.1555
3.3020 -0.9758 0.1564
3.3626 -1.0327 0.1432
3.6869 -1.2412 0.0679
4.3800 -1.6528 -0.0945
4.3934 -1.7154 -0.0952
4.4234 -1.7868 -0.0999
4.4537 -1.8589 -0.1046
4.3998 -1.8845 -0.0894
4.4130 -1.9463 -0.0901
4.4262 -2.0082 -0.0908
4.2659 -1.9613 -0.0511
3.5332 1.5208 -0.0763
3.5354 1.4506 -0.0733
3.5581 1.4040 -0.0776
3.5706 1.3457 -0.0782
3.5621 1.2658 -0.0717
3.5639 1.1978 -0.0688
3.5867 1.1505 -0.0730
3.5884 1.0832 -0.0701
3.6329 1.0537 -0.0815
3.6346 0.9864 -0.0786
3.6360 0.9198 -0.0757
3.6161 0.8382 -0.0658
2.8606 0.2017 0.1858
2.8535 0.1612 0.1899
2.8602 0.1300 0.1895
2.8914 0.1126 0.1814
2.8770 0.0695 0.1877
2.8979 0.0452 0.1829
2.9083 0.0150 0.1814
3.1590 0.0872 0.1050
3.1891 0.0564 0.0978
3.2040 0.0187 0.0954
3.2236 -0.0179 0.0915
3.2387 -0.0565 0.0891
3.3357 -0.0738 0.0618
3.4703 -0.0878 0.0235
3.4718 -0.1365 0.0255
3.3635 -0.2037 0.0604
3.3194 -0.2546 0.0758
3.2727 -0.3027 0.0917
3.3507 -0.3371 0.0708
3.8459 -0.3523 -0.0721
3.8705 -0.4079 -0.0764
3.9316 -0.4643 -0.0913
3.8817 -0.5201 -0.0740
3.8469 -0.5734 -0.0612
3.4630 -0.6376 0.0535
3.6453 -0.7049 0.0040
3.5284 -0.7323 0.0393
3.4766 -0.7654 0.0560
3.4282 -0.7962 0.0716
3.3273 -0.8114 0.1016
3.3241 -0.8470 0.1044
3.3145 -0.8802 0.1088
3.2774 -0.9039 0.1208
3.2852 -0.9406 0.1204
3.2601 -0.9653 0.1290
3.5993 -1.1699 0.0409
3.6087 -1.2140 0.0404
3.6769 -1.2849 0.0242
3.9961 -1.4788 -0.0587
4.1903 -1.6753 -0.1051
4.2026 -1.7330 -0.1057
4.2004 -1.7824 -0.1026
4.2127 -1.8397 -0.1032
4.1967 -1.8798 -0.0965
4.2088 -1.9365 -0.0972
3.4072 1.3161 -0.0868
3.4014 1.2428 -0.0808
3.4128 1.1894 -0.0814
3.4242 1.1360 -0.0820
3.4356 1.0826 -0.0826
3.4470 1.0292 -0.0832
3.4404 0.9595 -0.0771
3.4517 0.9067 -0.0777
3.4721 0.8614 -0.0817
2.8563 0.2027 0.1532
2.8631 0.1709 0.1528
2.8500 0.1272 0.1595
2.8697 0.1035 0.1545
2.8834 0.0756 0.1517
2.8973 0.0474 0.1489
2.9556 0.0392 0.1307
3.1857 0.0572 0.0560
3.2286 0.0295 0.0438
3.1509 -0.0813 0.0750
3.1434 -0.1238 0.0798
3.5352 -0.1232 -0.0457
3.3463 -0.2066 0.0196
3.2837 -0.2600 0.0427
3.2924 -0.3010 0.0422
3.3472 -0.3382 0.0268
3.6145 -0.3665 -0.0572
3.6833 -0.4147 -0.0765
3.6942 -0.4661 -0.0771
3.6758 -0.5165 -0.0683
3.6481 -0.5648 -0.0566
3.5861 -0.6081 -0.0343
3.4454 -0.6386 0.0125
3.4848 -0.6861 0.0026
3.4144 -0.7170 0.0269
3.3766 -0.7500 0.0409
3.3097 -0.7743 0.0637
3.3241 -0.8145 0.0614
3.2972 -0.8439 0.0717
3.2554 -0.8671 0.0864
3.2684 -0.9054 0.0844
3.2658 -0.9385 0.0871
3.2683 -0.9730 0.0883
3.3143 -1.0242 0.0765
3.8485 -1.3709 -0.0748
3.9577 -1.6084 -0.0962
3.9577 -1.6540 -0.0936
3.9241 -1.6791 -0.0814
3.9236 -1.7228 -0.0788
3.9795 -1.8017 -0.0922
3.9451 -1.8233 -0.0799
3.2271 1.1798 -0.0734
3.2375 1.1313 -0.0739
3.2408 1.0750 -0.0715
3.2511 1.0268 -0.0721
3.2543 0.9711 -0.0696
3.2573 0.9160 -0.0672
3.2748 0.8752 -0.0707
3.2850 0.8273 -0.0713
3.3173 0.7985 -0.0808
3.3203 0.7437 -0.0783
3.3157 0.6834 -0.0729
3.3335 0.6411 -0.0764
2.8519 0.2037 0.1203
2.8622 0.1740 0.1186
2.8424 0.1259 0.1286
2.8586 0.1002 0.1246
2.8583 0.0651 0.1269
2.8755 0.0391 0.1225
3.0205 0.0718 0.0696
3.3106 0.1091 -0.0346
3.2869 0.0527 -0.0227
3.4019 0.0443 -0.0625
3.4046 -0.0044 -0.0603
3.1174 -0.1691 0.0509
3.1151 -0.2083 0.0542
3.2593 -0.2216 0.0045
3.2680 -0.2625 0.0040
3.3080 -0.2998 -0.0076
3.3235 -0.3410 -0.0105
3.3459 -0.3823 -0.0157
3.3684 -0.4243 -0.0209
3.4948 -0.4675 -0.0625
3.5631 -0.5154 -0.0834
3.5478 -0.5616 -0.0751
3.5243 -0.6057 -0.0641
3.4210 -0.6388 -0.0257
3.4092 -0.6788 -0.0191
3.4042 -0.7188 -0.0148
3.3041 -0.7395 0.0217
3.2830 -0.7721 0.0312
3.2523 -0.8007 0.0437
3.2551 -0.8365 0.0450
3.2517 -0.8701 0.0484
3.2595 -0.9068 0.0480
3.2569 -0.9400 0.0510
3.2479 -0.9702 0.0561
3.2777 -1.0149 0.0484
3.7550 -1.2916 -0.1014
3.7084 -1.3136 -0.0836
3.7368 -1.3695 -0.0900
3.6828 -1.3843 -0.0702
3.7573 -1.5065 -0.0885
3.7873 -1.5651 -0.0953
3.8174 -1.6248 -0.1021
3.8277 -1.6730 -0.1026
3.8179 -1.7083 -0.0969
3.1166 1.0011 -0.0714
3.1083 0.9364 -0.0637
3.1294 0.9052 -0.0695
3.1706 0.7845 -0.0768
3.1954 0.6999 -0.0803
3.1993 0.6502 -0.0783
3.1870 0.5368 -0.0656
3.1314 0.4462 -0.0381
2.8886 0.2328 0.0696
2.8924 0.1972 0.0706
2.8442 0.1304 0.0937
2.8740 0.1122 0.0836
2.8749 0.0767 0.0858
2.8713 0.0395 0.0898
3.1542 0.1368 -0.0251
3.2323 0.1265 -0.0541
3.2733 0.0967 -0.0677
3.2576 0.0441 -0.0580
3.2919 0.0097 -0.0687
3.2569 -0.0471 -0.0513
3.2659 -0.0893 -0.0518
3.2685 -0.1329 -0.0498
3.2231 -0.1860 -0.0287
3.1242 -0.2449 0.0132
3.2170 -0.2700 -0.0205
3.2490 -0.3070 -0.0301
3.2878 -0.3449 -0.0422
3.3090 -0.3854 -0.0475
3.2930 -0.4276 -0.0384
3.3537 -0.4687 -0.0587
3.4624 -0.5144 -0.0970
3.4205 -0.5564 -0.0780
3.3671 -0.5946 -0.0550
3.3692 -0.6357 -0.0529
3.3265 -0.6701 -0.0342
3.2863 -0.7021 -0.0166
3.2776 -0.7378 -0.0108
3.2353 -0.7651 0.0073
3.2433 -0.8022 0.0069
3.2400 -0.8363 0.0105
3.2479 -0.8732 0.0101
3.2351 -0.9033 0.0171
3.2750 -0.9509 0.0052
3.3717 -1.0211 -0.0268
3.5521 -1.2085 -0.0825
3.5774 -1.2595 -0.0886
3.6028 -1.3114 -0.0946
3.5270 -1.3119 -0.0657
3.4915 -1.3302 -0.0508
3.6072 -1.4309 -0.0879
3.6407 -1.4887 -0.0967
3.6094 -1.5084 -0.0833
3.6264 -1.5566 -0.0864
3.6279 -1.5951 -0.0843
3.0013 0.9793 -0.0709
3.0101 0.9379 -0.0714
3.0190 0.8965 -0.0718
3.0224 0.8490 -0.0696
3.0413 0.8187 -0.0751
3.0346 0.7608 -0.0679
3.0387 0.7150 -0.0660
3.0474 0.6741 -0.0665
3.0609 0.6377 -0.0693
3.0913 0.6158 -0.0801
3.1002 0.5740 -0.0806
3.1092 0.5323 -0.0811
3.1074 0.4823 -0.0765
3.1047 0.4325 -0.0716
3.1085 0.3881 -0.0697
3.0502 0.3037 -0.0391
2.9024 0.1694 0.0322
2.8602 0.1074 0.0544
2.8765 0.0805 0.0498
3.1609 0.1429 -0.0725
3.1696 0.1020 -0.0730
3.1836 0.0632 -0.0758
3.1817 0.0183 -0.0715
3.1904 -0.0224 -0.0720
3.2045 -0.0615 -0.0748
3.2493 -0.0927 -0.0909
3.2456 -0.1376 -0.0859
3.2307 -0.1841 -0.0762
3.0913 -0.2506 -0.0135
3.2018 -0.2724 -0.0575
3.2569 -0.3067 -0.0776
3.2656 -0.3475 -0.0780
3.2743 -0.3884 -0.0785
3.2707 -0.4296 -0.0739
3.2860 -0.4701 -0.0771
3.2822 -0.5104 -0.0724
3.2783 -0.5499 -0.0677
3.3121 -0.5922 -0.0785
3.3022 -0.6307 -0.0714
3.2517 -0.6623 -0.0481
3.2431 -0.6979 -0.0418
3.2343 -0.7326 -0.0355
3.2213 -0.7655 -0.0276
3.1979 -0.7946 -0.0157
3.2259 -0.8364 -0.0241
3.2613 -0.8814 -0.0352
3.3268 -0.9377 -0.0579
3.3660 -0.9876 -0.0703
3.4202 -1.0446 -0.0883
3.4227 -1.0831 -0.0864
3.4178 -1.1182 -0.0817
3.4465 -1.1677 -0.0897
3.4701 -1.2158 -0.0958
3.4715 -1.2535 -0.0934
3.4524 -1.2803 -0.0835
3.4816 -1.3318 -0.0916
3.4903 -1.3729 -0.0920
3.4860 -1.4062 -0.0877
3.5013 -1.4509 -0.0905
3.5166 -1.4960 -0.0934
3.5121 -1.5284 -0.0891
2.9476 0.8713 -0.0837
2.9606 0.8372 -0.0866
2.9508 0.7766 -0.0772
2.9461 0.7232 -0.0706
2.9582 0.6887 -0.0731
2.9532 0.6366 -0.0666
2.9614 0.5984 -0.0670
2.9790 0.5691 -0.0724
2.9960 0.5383 -0.0774
3.0043 0.4995 -0.0778
3.0022 0.4074 -0.0692
3.0062 0.3663 -0.0675
2.9962 0.3156 -0.0588
2.9909 0.2695 -0.0526
2.9201 0.1840 -0.0140
2.8727 0.1178 0.0127
2.8652 0.0774 0.0194
2.9960 0.1080 -0.0414
3.0347 0.0864 -0.0568
3.0522 0.0534 -0.0618
3.0506 0.0121 -0.0576
3.0682 -0.0215 -0.0626
3.0806 -0.0575 -0.0652
3.0887 -0.0950 -0.0656
3.0725 -0.1391 -0.0547
3.1146 -0.1679 -0.0710
3.1082 -0.2088 -0.0648
3.0632 -0.2554 -0.0409
3.0755 -0.2906 -0.0434
3.1072 -0.3239 -0.0547
3.1104 -0.3610 -0.0530
3.1276 -0.3971 -0.0576
3.1411 -0.4338 -0.0606
3.1490 -0.4708 -0.0610
3.1617 -0.5080 -0.0635
3.1543 -0.5442 -0.0572
3.1573 -0.5805 -0.0555
3.1651 -0.6170 -0.0559
3.1680 -0.6529 -0.0542
3.1758 -0.6893 -0.0546
3.1935 -0.7278 -0.0593
3.1963 -0.7633 -0.0576
3.2042 -0.7999 -0.0580
3.2331 -0.8424 -0.0673
3.2360 -0.8780 -0.0656
3.2490 -0.9167 -0.0681
3.2518 -0.9521 -0.0664
3.2700 -0.9930 -0.0711
3.2780 -1.0303 -0.0715
3.2974 -1.0725 -0.0767
3.3117 -1.1129 -0.0796
3.3198 -1.1507 -0.0801
3.3242 -1.2201 -0.0762
3.3204 -1.2511 -0.0719
3.3639 -1.3085 -0.0865
3.3417 -1.3286 -0.0749
3.3682 -1.3772 -0.0826
3.3817 -1.4185 -0.0852
3.3722 -1.4448 -0.0788
2.8327 0.8298 -0.0691
2.8405 0.7936 -0.0695
2.8593 0.7714 -0.0765
2.8709 0.7393 -0.0791
2.8674 0.6895 -0.0729
2.8668 0.6439 -0.0685
2.8707 0.6038 -0.0667
2.8822 0.5719 -0.0693
2.9062 0.5519 -0.0789
2.9140 0.5153 -0.0794
2.9139 0.4717 -0.0754
2.9129 0.4279 -0.0709
2.9375 0.4056 -0.0806
2.9332 0.3597 -0.0744
2.9396 0.2811 -0.0703
2.9563 0.2512 -0.0756
2.9641 0.2150 -0.0760
2.8717 0.0839 -0.0201
2.9533 0.0892 -0.0595
2.9898 0.0679 -0.0750
2.9769 0.0229 -0.0647
2.9888 -0.0107 -0.0674
2.9798 -0.0523 -0.0593
2.9951 -0.0846 -0.0637
3.0203 -0.1145 -0.0730
3.0280 -0.1502 -0.0734
3.0096 -0.1921 -0.0609
3.0081 -0.2289 -0.0568
3.0327 -0.2606 -0.0657
3.0494 -0.2945 -0.0706
3.0698 -0.3286 -0.0773
3.0645 -0.3655 -0.0714
3.0628 -0.4014 -0.0673
3.0488 -0.4371 -0.0574
3.0694 -0.4718 -0.0641
3.0948 -0.5074 -0.0730
3.1158 -0.5437 -0.0797
3.1052 -0.5779 -0.0716
3.1079 -0.6126 -0.0697
3.1300 -0.6500 -0.0769
3.1513 -0.6880 -0.0836
3.1452 -0.7212 -0.0777
3.1667 -0.7600 -0.0844
3.1654 -0.7937 -0.0807
3.1630 -0.8267 -0.0766
3.1656 -0.8606 -0.0748
3.2035 -0.9061 -0.0887
3.2000 -0.9382 -0.0842
3.1985 -0.9705 -0.0805
3.2009 -1.0041 -0.0786
3.2033 -1.0373 -0.0768
3.2307 -1.0817 -0.0858
3.2551 -1.1256 -0.0935
3.2513 -1.1560 -0.0889
3.2589 -1.1920 -0.0893
3.2613 -1.2251 -0.0874
3.2743 -1.2640 -0.0901
3.2766 -1.2968 -0.0882
3.2800 -1.3300 -0.0868
3.2821 -1.3623 -0.0849
3.2996 -1.4044 -0.0894
3.2919 -1.4298 -0.0834
2.8034 0.7106 -0.0830
2.7871 0.6471 -0.0685
2.7973 0.6166 -0.0707
2.8114 0.5902 -0.0753
2.8298 0.5255 -0.0784
2.8480 0.4187 -0.0772
2.8482 0.3783 -0.0734
2.8420 0.3332 -0.0658
2.8347 0.2884 -0.0578
2.8354 0.2505 -0.0544
2.8391 0.2154 -0.0529
2.8707 0.1989 -0.0673
2.8811 0.1673 -0.0696
2.8634 0.1191 -0.0559
2.8671 0.0844 -0.0544
2.8842 0.0568 -0.0604
2.8879 0.0221 -0.0589
2.8881 -0.0139 -0.0555
2.8985 -0.0453 -0.0577
2.9056 -0.0781 -0.0581
2.9239 -0.1072 -0.0646
2.9196 -0.1438 -0.0589
2.9337 -0.1748 -0.0630
2.9301 -0.2104 -0.0577
2.9371 -0.2432 -0.0581
2.9594 -0.2733 -0.0665
2.9701 -0.3060 -0.0688
2.9471 -0.3426 -0.0535
2.9540 -0.3751 -0.0539
2.9757 -0.4068 -0.0618
2.9790 -0.4397 -0.0603
2.9823 -0.4724 -0.0588
2.9817 -0.5048 -0.0553
3.0076 -0.5385 -0.0652
3.0032 -0.5703 -0.0599
3.0217 -0.6044 -0.0660
3.0249 -0.6368 -0.0644
3.0280 -0.6690 -0.0629
3.0311 -0.7009 -0.0614
3.0420 -0.7345 -0.0636
3.0658 -0.7716 -0.0722
3.0640 -0.8023 -0.0682
3.0630 -0.8327 -0.0648
3.0529 -0.8597 -0.0570
3.0942 -0.9045 -0.0737
3.1145 -0.9428 -0.0803
3.0910 -0.9638 -0.0662
3.1021 -0.9983 -0.0685
3.1091 -1.0312 -0.0689
3.0943 -1.0534 -0.0592
3.1409 -1.1059 -0.0778
3.1618 -1.1465 -0.0845
3.1512 -1.2284 -0.0711
3.1410 -1.2505 -0.0638
3.1609 -1.2913 -0.0700
3.1864 -1.3364 -0.0786
3.1935 -1.3696 -0.0789
2.7192 0.7381 -0.0795
2.7234 0.7014 -0.0779
2.7209 0.6564 -0.0718
2.7249 0.6204 -0.0702
2.7384 0.5963 -0.0750
2.7387 0.5561 -0.0709
2.7522 0.5315 -0.0758
2.7682 0.5088 -0.0820
2.7691 0.4698 -0.0785
2.7730 0.4342 -0.0769
2.7830 0.4047 -0.0792
2.7651 0.3496 -0.0637
2.7750 0.3207 -0.0661
2.7881 0.2941 -0.0704
2.7973 0.2640 -0.0722
2.8074 0.2343 -0.0746
2.8175 0.2044 -0.0769
2.8179 0.1678 -0.0733
2.8280 0.1378 -0.0757
2.8349 0.1056 -0.0760
2.8359 0.0702 -0.0729
2.8486 0.0413 -0.0768
2.8630 0.0127 -0.0816
2.8590 -0.0246 -0.0755
2.8658 -0.0567 -0.0759
2.8761 -0.0874 -0.0782
2.8735 -0.1228 -0.0731
2.8803 -0.1547 -0.0735
2.8871 -0.1866 -0.0738
2.9001 -0.2170 -0.0777
2.9043 -0.2496 -0.0766
2.9004 -0.2834 -0.0709
2.8999 -0.3161 -0.0672
2.9103 -0.3472 -0.0696
2.9170 -0.3787 -0.0700
2.9311 -0.4099 -0.0743
2.9440 -0.5049 -0.0714
2.9545 -0.5367 -0.0738
2.9612 -0.5683 -0.0741
2.9527 -0.5981 -0.0664
2.9632 -0.6299 -0.0688
2.9892 -0.6647 -0.0792
2.9805 -0.6933 -0.0715
2.9911 -0.7257 -0.0739
3.0165 -0.7621 -0.0839
3.0232 -0.8241 -0.0810
3.0301 -0.8559 -0.0814
3.0328 -0.8863 -0.0797
3.0507 -0.9225 -0.0857
3.0464 -0.9499 -0.0805
3.0450 -0.9780 -0.0768
3.0641 -1.0153 -0.0832
3.0781 -1.0507 -0.0871
3.0694 -1.0748 -0.0799
3.0955 -1.1452 -0.0867
3.0981 -1.1747 -0.0850
3.1092 -1.2091 -0.0874
3.1235 -1.2458 -0.0914
3.1099 -1.2647 -0.0820
2.6723 0.5233 -0.0656
2.6787 0.4931 -0.0659
2.6852 0.4629 -0.0663
2.6998 0.4416 -0.0723
2.7063 0.4111 -0.0727
2.6992 0.3669 -0.0636
2.7110 0.3420 -0.0676
2.7090 0.3040 -0.0622
2.7154 0.2741 -0.0626
2.7304 0.2513 -0.0687
2.7203 0.2080 -0.0580
2.7211 0.1742 -0.0547
2.7385 0.1527 -0.0623
2.7425 0.1212 -0.0611
2.7513 0.0930 -0.0630
2.7634 0.0666 -0.0670
2.7476 0.0242 -0.0532
2.7505 -0.0068 -0.0514
2.7684 -0.0303 -0.0591
2.7832 -0.0562 -0.0647
2.7921 -0.0850 -0.0666
2.7729 -0.1244 -0.0512
2.7851 -0.1515 -0.0552
2.7940 -0.1800 -0.0571
2.8029 -0.2087 -0.0590
2.8091 -0.2381 -0.0593
2.8251 -0.2656 -0.0655
2.8191 -0.2975 -0.0584
2.8405 -0.3247 -0.0678
2.8316 -0.3562 -0.0591
2.8442 -0.3851 -0.0631
2.8533 -0.4145 -0.0651
2.8532 -0.4443 -0.0617
2.8632 -0.4738 -0.0641
2.8602 -0.5030 -0.0592
2.8721 -0.5327 -0.0627
2.8690 -0.5612 -0.0577
2.8884 -0.5921 -0.0655
2.8852 -0.6201 -0.0605
2.8972 -0.6505 -0.0640
2.9074 -0.6807 -0.0665
2.9234 -0.7126 -0.0721
2.9327 -0.7432 -0.0741
2.9263 -0.7694 -0.0675
2.9454 -0.8031 -0.0748
2.9350 -0.8272 -0.0660
2.9413 -0.8567 -0.0663
2.9546 -0.8889 -0.0704
2.9508 -0.9143 -0.0654
2.9672 -0.9482 -0.0711
2.9807 -0.9812 -0.0752
2.9799 -1.0075 -0.0718
3.0079 -1.0483 -0.0834
2.9895 -1.0651 -0.0708
3.0209 -1.1088 -0.0841
3.0199 -1.1347 -0.0806
3.0042 -1.1512 -0.0697
2.9998 -1.1739 -0.0646
3.0167 -1.2101 -0.0704
3.0306 -1.2446 -0.0745
3.0228 -1.2645 -0.0678
2.6146 0.5697 -0.0705
2.6186 0.5379 -0.0692
2.6341 0.5209 -0.0766
2.6447 0.4970 -0.0802
2.6466 0.4624 -0.0773
2.6434 0.4222 -0.0705
2.6495 0.3932 -0.0708
2.6527 0.3612 -0.0689
2.6544 0.3278 -0.0660
2.6628 0.3013 -0.0679
2.6712 0.2747 -0.0699
2.6904 0.2573 -0.0796
2.6835 0.2170 -0.0706
2.6998 0.1963 -0.0781
2.6935 0.1576 -0.0696
2.6972 0.1272 -0.0682
2.7057 0.1001 -0.0702
2.7119 0.0714 -0.0706
2.7205 0.0441 -0.0725
2.7242 0.0139 -0.0712
2.7229 -0.0187 -0.0666
2.7422 -0.0407 -0.0757
2.7559 -0.0663 -0.0810
2.7462 -0.1021 -0.0708
2.7447 -0.1336 -0.0662
2.7569 -0.1904 -0.0668
2.7629 -0.2188 -0.0671
2.7768 -0.2453 -0.0725
2.7838 -0.3036 -0.0698
2.8029 -0.4743 -0.0611
2.8033 -0.5020 -0.0581
2.8502 -0.5892 -0.0764
2.8507 -0.6170 -0.0733
2.8596 -0.6460 -0.0753
2.8562 -0.6725 -0.0701
2.8622 -0.7008 -0.0704
2.8838 -0.7333 -0.0797
2.8967 -0.7640 -0.0839
2.8960 -0.7908 -0.0803
2.9051 -0.8205 -0.0823
2.9083 -0.8482 -0.0810
2.9144 -0.8770 -0.0813
2.9116 -0.9019 -0.0766
2.9338 -0.9376 -0.0859
2.9237 -0.9589 -0.0772
2.9421 -0.9934 -0.0843
2.9421 -1.0191 -0.0812
2.9740 -1.0876 -0.0926
2.9740 -1.1131 -0.0895
2.9728 -1.1376 -0.0859
2.9695 -1.1603 -0.0812
2.9692 -1.1847 -0.0781
2.5743 0.4864 -0.0674
2.5845 0.4645 -0.0712
2.5984 0.4118 -0.0736
2.5978 0.3765 -0.0687
2.6059 0.3515 -0.0707
2.6154 0.2941 -0.0696
2.6190 0.2644 -0.0682
2.6249 0.2370 -0.0685
2.6247 0.2043 -0.0642
2.6305 0.1771 -0.0645
2.6386 0.1518 -0.0666
2.6506 0.1292 -0.0715
2.6392 0.0894 -0.0591
2.6537 0.0684 -0.0657
2.6571 0.0397 -0.0643
2.6540 0.0073 -0.0582
2.6549 -0.0222 -0.0551
2.6720 -0.0428 -0.0635
2.6712 -0.0730 -0.0592
2.6794 -0.0987 -0.0612
2.6893 -0.1239 -0.0644
2.6909 -0.1525 -0.0618
2.6890 -0.1819 -0.0569
2.6947 -0.2085 -0.0572
2.7030 -0.2345 -0.0592
2.7087 -0.2612 -0.0595
2.7092 -0.2889 -0.0563
2.7227 -0.3141 -0.0619
2.7258 -0.3413 -0.0604
2.7412 -0.3669 -0.0672
2.7497 -0.3937 -0.0692
