ply
format ascii 1.0
element vertex 2204
property float x
property float y
property float z
end_header
0.7158 0.5968 -0.0703
0.6988 0.5859 -0.0705
0.6808 0.5745 -0.0681
0.6683 0.5661 -0.0723
0.6535 0.5565 -0.0721
0.6408 0.5482 -0.0741
0.6240 0.5379 -0.0683
0.6112 0.5297 -0.0679
0.6023 0.5235 -0.0733
0.5888 0.5151 -0.0695
0.5790 0.5086 -0.0718
0.5676 0.5015 -0.0701
0.5571 0.4948 -0.0690
0.5490 0.4892 -0.0722
0.5371 0.4821 -0.0664
0.5304 0.4774 -0.0713
0.5233 0.4725 -0.0746
1.1989 1.0055 0.7462
1.1739 0.9867 0.7208
1.1884 0.9953 0.7058
1.1809 0.9887 0.6850
1.1799 0.9865 0.6655
1.1617 0.9725 0.6426
1.1459 0.9601 0.6205
1.3274 1.0813 0.6018
1.7155 1.3388 0.5430
1.7266 1.3436 0.5076
1.7018 1.3240 0.4713
1.7495 1.3533 0.4331
1.8368 1.4089 0.3892
2.3806 1.7464 0.0017
1.7892 1.3431 -0.0481
1.7963 1.3439 -0.0999
1.6826 1.2669 -0.1022
1.5998 1.2103 -0.1120
1.1712 0.9310 0.0216
1.2140 0.9530 -0.0689
1.1861 0.9328 -0.0861
1.1131 0.8846 -0.0714
1.0825 0.8631 -0.0822
1.0344 0.8310 -0.0779
0.9563 0.7785 -0.0747
0.9004 0.7403 -0.0814
0.8363 0.6977 -0.0723
0.8138 0.6823 -0.0743
0.7931 0.6681 -0.0769
0.7534 0.6411 -0.0797
0.7098 0.6123 -0.0715
0.6916 0.6001 -0.0697
0.6783 0.5909 -0.0736
0.6627 0.5804 -0.0730
0.6455 0.5690 -0.0686
0.6342 0.5611 -0.0724
0.6157 0.5494 -0.0632
0.5972 0.5361 -0.0732
0.5850 0.5280 -0.0715
0.5712 0.5191 -0.0656
0.5629 0.5132 -0.0695
0.5530 0.5065 -0.0695
0.5381 0.4958 -0.0779
0.5260 0.4883 -0.0702
0.5168 0.4822 -0.0682
0.5104 0.4775 -0.0723
1.1870 1.0226 0.7393
1.1797 1.0160 0.7187
1.1701 1.0079 0.6976
1.1606 0.9998 0.6766
1.1554 0.9948 0.6565
1.1344 0.9784 0.6336
1.1386 0.9802 0.6152
1.3323 1.1160 0.5968
1.3425 1.1216 0.5728
1.5836 1.2893 0.5299
1.7234 1.3861 0.4987
1.7279 1.3869 0.4619
2.0279 1.5927 0.3656
2.1521 1.6733 0.2551
2.2125 1.7009 0.0244
2.1259 1.6373 -0.0108
1.6580 1.3091 0.0297
1.8323 1.4253 -0.0784
1.7930 1.3952 -0.1137
1.6654 1.3052 -0.1093
1.5292 1.2099 -0.0931
1.1619 0.9574 0.0165
1.1761 0.9648 -0.0238
1.1478 0.9437 -0.0397
1.1406 0.9368 -0.0679
1.1239 0.9235 -0.0898
1.0823 0.8939 -0.0929
1.0283 0.8563 -0.0838
0.9523 0.8027 -0.0814
0.8819 0.7534 -0.0739
0.8565 0.7353 -0.0761
0.8056 0.6994 -0.0750
0.7858 0.6852 -0.0780
0.7621 0.6686 -0.0752
0.7410 0.6538 -0.0736
0.7222 0.6405 -0.0736
0.6858 0.6150 -0.0707
0.6675 0.6022 -0.0668
0.6603 0.5964 -0.0785
0.6450 0.5857 -0.0770
0.6338 0.5775 -0.0809
0.6136 0.5640 -0.0685
0.6028 0.5562 -0.0710
0.5922 0.5486 -0.0730
0.5807 0.5405 -0.0723
0.5664 0.5309 -0.0651
0.5582 0.5248 -0.0689
0.5495 0.5185 -0.0712
0.5409 0.5123 -0.0730
0.5315 0.5057 -0.0719
0.5227 0.4995 -0.0716
0.5136 0.4932 -0.0695
1.7063 1.4431 0.9398
1.1679 1.0327 0.7120
1.1671 1.0311 0.6931
1.1640 1.0277 0.6734
1.1375 1.0069 0.6490
1.1272 0.9981 0.6283
1.1355 1.0033 0.6105
1.3289 1.1452 0.5909
1.6718 1.3913 0.4539
2.3789 1.9072 0.3271
2.3591 1.8896 0.2720
2.1755 1.7401 0.0172
2.1235 1.6993 -0.0264
1.8288 1.4779 -0.0922
1.7519 1.4199 -0.1122
1.6492 1.3437 -0.1166
1.1330 0.9661 -0.0412
1.1235 0.9577 -0.0676
1.0944 0.9355 -0.0803
0.9773 0.8487 -0.0836
0.9332 0.8166 -0.0751
0.9166 0.8036 -0.0885
0.8393 0.7475 -0.0684
0.8031 0.7200 -0.0818
0.7757 0.7001 -0.0759
0.7564 0.6857 -0.0777
0.7222 0.6601 -0.0828
0.6966 0.6418 -0.0719
0.6794 0.6292 -0.0706
0.6497 0.6072 -0.0713
0.6359 0.5970 -0.0714
0.6241 0.5882 -0.0740
0.6084 0.5768 -0.0686
0.5995 0.5699 -0.0742
0.5872 0.5609 -0.0728
0.5758 0.5525 -0.0719
0.5563 0.5380 -0.0742
0.5438 0.5291 -0.0680
0.5370 0.5237 -0.0733
0.5260 0.5159 -0.0683
0.5189 0.5105 -0.0717
0.5114 0.5048 -0.0734
1.1632 1.0561 0.7436
1.1614 1.0539 0.7250
1.1671 1.0576 0.7081
1.1576 1.0494 0.6870
1.1587 1.0494 0.6684
1.1230 1.0208 0.6423
1.1158 1.0144 0.6223
1.3111 1.1645 0.6078
1.3224 1.1722 0.5846
1.3815 1.2169 0.5639
2.1550 1.8018 0.2794
2.5049 2.0593 -0.0163
1.8187 1.5323 0.0449
1.8252 1.5309 -0.1062
1.5674 1.3325 -0.0940
1.4025 1.2050 -0.0984
1.2275 1.0709 -0.0763
1.1899 1.0414 -0.0883
1.1325 0.9972 -0.0848
1.0432 0.9283 -0.0856
0.9557 0.8612 -0.0759
0.9188 0.8328 -0.0724
0.8965 0.8153 -0.0801
0.8309 0.7651 -0.0694
0.7901 0.7333 -0.0768
0.7651 0.7142 -0.0729
0.7399 0.6950 -0.0668
0.7245 0.6829 -0.0714
0.7075 0.6697 -0.0726
0.6907 0.6568 -0.0730
0.6691 0.6405 -0.0649
0.6581 0.6317 -0.0711
0.6498 0.6249 -0.0807
0.6158 0.5991 -0.0690
0.6033 0.5895 -0.0686
0.5938 0.5820 -0.0731
0.5794 0.5711 -0.0670
0.5669 0.5616 -0.0635
0.5592 0.5555 -0.0687
0.5516 0.5494 -0.0735
0.5414 0.5416 -0.0720
0.5335 0.5354 -0.0749
0.5232 0.5275 -0.0710
0.5146 0.5209 -0.0705
0.5056 0.5141 -0.0682
0.4998 0.5094 -0.0734
1.1584 1.0769 0.7206
1.1597 1.0774 0.7025
1.1524 1.0709 0.6820
1.1367 1.0575 0.6598
1.1127 1.0375 0.6364
1.1014 1.0279 0.6159
1.3159 1.1992 0.5783
1.3776 1.2482 0.5574
3.1957 2.6902 -0.1096
1.6624 1.4625 0.0774
1.6483 1.4500 0.0381
1.7911 1.5619 -0.0581
1.7677 1.5418 -0.0990
1.6558 1.4517 -0.1014
1.5519 1.3681 -0.1007
1.4375 1.2765 -0.0884
1.3685 1.2209 -0.0932
1.1897 1.0779 -0.0648
1.1377 1.0361 -0.0660
1.1077 1.0115 -0.0790
1.0697 0.9808 -0.0845
1.0431 0.9590 -0.0963
0.9829 0.9111 -0.0793
0.9434 0.8794 -0.0756
0.8883 0.8349 -0.0824
0.8537 0.8073 -0.0759
0.8331 0.7906 -0.0815
0.7862 0.7528 -0.0820
0.7552 0.7282 -0.0706
0.7356 0.7125 -0.0709
0.7184 0.6985 -0.0728
0.7008 0.6844 -0.0729
0.6855 0.6720 -0.0749
0.6629 0.6541 -0.0648
0.6239 0.6226 -0.0701
0.6094 0.6111 -0.0671
0.5993 0.6028 -0.0708
0.5900 0.5952 -0.0751
0.5774 0.5851 -0.0723
0.5644 0.5748 -0.0677
0.5562 0.5681 -0.0716
0.5453 0.5594 -0.0692
0.5363 0.5522 -0.0699
0.5296 0.5466 -0.0752
0.5188 0.5381 -0.0699
0.5088 0.5301 -0.0653
0.5039 0.5260 -0.0734
0.4977 0.5208 -0.0773
1.1662 1.1091 0.7191
1.1588 1.1025 0.6986
1.1493 1.0942 0.6775
1.1169 1.0665 0.6519
1.0755 1.0314 0.6258
1.0872 1.0409 0.6096
1.2984 1.2175 0.5955
1.2954 1.2145 0.5708
1.4063 1.3070 0.5529
1.5072 1.3910 0.5285
3.7930 3.2921 -0.1562
3.2022 2.7978 -0.1351
1.6586 1.5090 0.0659
1.6513 1.5022 0.0241
1.7723 1.6018 -0.0660
1.5049 1.3774 -0.0923
1.1713 1.0998 0.0023
1.1461 1.0777 -0.0490
1.1363 1.0690 -0.0762
0.9659 0.9263 -0.0757
0.9393 0.9039 -0.0823
0.9080 0.8777 -0.0829
0.8759 0.8509 -0.0805
0.8487 0.8280 -0.0807
0.8135 0.7988 -0.0705
0.7881 0.7776 -0.0684
0.7700 0.7623 -0.0729
0.7570 0.7512 -0.0823
0.7274 0.7267 -0.0699
0.7143 0.7156 -0.0768
0.6797 0.6867 -0.0759
0.6585 0.6691 -0.0674
0.6508 0.6624 -0.0782
0.6333 0.6479 -0.0727
0.6180 0.6351 -0.0693
0.6043 0.6236 -0.0672
0.5966 0.6171 -0.0751
0.5810 0.6041 -0.0673
0.5753 0.5992 -0.0776
0.5613 0.5876 -0.0706
0.5488 0.5772 -0.0651
0.5413 0.5709 -0.0697
0.5340 0.5646 -0.0740
0.5241 0.5565 -0.0717
0.5155 0.5492 -0.0713
0.5060 0.5414 -0.0680
0.4997 0.5360 -0.0720
0.4950 0.5319 -0.0799
1.1404 1.1153 0.7246
1.1439 1.1195 0.7071
1.1289 1.1051 0.6843
1.0679 1.0453 0.6335
1.0733 1.0514 0.6164
1.2906 1.2719 0.6073
1.3106 1.2930 0.5843
1.3156 1.2990 0.5585
2.1797 2.1759 0.5229
2.2172 2.2160 0.4699
2.2224 2.2233 0.4149
2.2512 2.2546 0.3568
3.4361 3.4728 -0.1120
2.6577 2.6842 -0.1176
2.4545 2.4792 -0.1381
1.5173 1.5223 0.0538
1.6515 1.6638 -0.0938
1.1588 1.1640 -0.0785
1.0653 1.0692 -0.0798
1.0165 1.0196 -0.0736
0.9473 0.9495 -0.0757
0.9117 0.9133 -0.0719
0.8846 0.8860 -0.0739
0.7841 0.7840 -0.0699
0.7423 0.7415 -0.0665
0.7247 0.7236 -0.0667
0.7097 0.7085 -0.0693
0.6800 0.6785 -0.0713
0.6648 0.6631 -0.0696
0.6504 0.6485 -0.0680
0.6380 0.6358 -0.0685
0.6247 0.6223 -0.0662
0.6128 0.6102 -0.0652
0.6001 0.5972 -0.0614
0.5916 0.5887 -0.0655
0.5813 0.5783 -0.0648
0.5628 0.5595 -0.0649
0.5536 0.5502 -0.0636
0.5459 0.5425 -0.0654
0.5380 0.5344 -0.0656
0.5302 0.5265 -0.0653
0.5225 0.5187 -0.0645
0.5151 0.5111 -0.0633
0.5090 0.5050 -0.0656
1.1341 1.1387 0.7155
1.1285 1.1339 0.6950
1.1174 1.1233 0.6729
1.0611 1.0656 0.6411
1.0496 1.0545 0.6206
2.9351 3.0811 -0.1003
2.5280 2.6508 -0.0852
2.4345 2.5548 -0.1359
1.4445 1.4994 0.0758
1.4500 1.5075 0.0311
1.5637 1.6325 -0.0636
1.1752 1.2227 -0.0658
1.1263 1.1713 -0.0694
1.0621 1.1048 -0.0924
1.0047 1.0435 -0.0791
0.9596 0.9956 -0.0720
0.9294 0.9640 -0.0755
0.8880 0.9197 -0.0652
0.8378 0.8670 -0.0701
0.7826 0.8082 -0.0603
0.7690 0.7944 -0.0700
0.7493 0.7736 -0.0704
0.7161 0.7389 -0.0751
0.6971 0.7186 -0.0714
0.6795 0.6999 -0.0682
0.6628 0.6821 -0.0648
0.6481 0.6665 -0.0631
0.6373 0.6553 -0.0673
0.6266 0.6443 -0.0709
0.6137 0.6306 -0.0689
0.5997 0.6154 -0.0630
0.5921 0.6078 -0.0699
0.5791 0.5937 -0.0635
0.5700 0.5843 -0.0651
0.5603 0.5739 -0.0638
0.5511 0.5642 -0.0632
0.5422 0.5548 -0.0620
0.5343 0.5465 -0.0626
0.5270 0.5388 -0.0641
0.5202 0.5318 -0.0664
0.5116 0.5225 -0.0619
0.5055 0.5162 -0.0646
0.4996 0.5101 -0.0671
0.9893 1.0237 0.5271
0.9841 1.0193 0.5078
0.9888 1.0258 0.4885
0.9949 1.0338 0.4684
0.9958 1.0363 0.4477
0.9974 1.0395 0.4265
0.9980 1.0416 0.4048
2.3643 2.5791 -0.1190
1.4158 1.5257 0.0386
1.0822 1.1603 0.0181
1.1143 1.2019 -0.0750
1.0277 1.1071 -0.0804
0.9430 1.0134 -0.0736
0.9075 0.9743 -0.0716
0.8746 0.9380 -0.0692
0.8245 0.8832 -0.0738
0.7736 0.8269 -0.0688
0.7349 0.7845 -0.0714
0.6989 0.7449 -0.0710
0.6503 0.6912 -0.0665
0.6384 0.6784 -0.0697
0.6093 0.6458 -0.0615
0.6015 0.6378 -0.0696
0.5920 0.6276 -0.0731
0.5782 0.6119 -0.0656
0.5670 0.5993 -0.0625
0.5599 0.5920 -0.0686
0.5487 0.5793 -0.0631
0.5415 0.5716 -0.0672
0.5328 0.5620 -0.0662
0.5255 0.5541 -0.0683
0.5156 0.5428 -0.0613
0.5083 0.5347 -0.0611
0.5026 0.5287 -0.0656
0.4955 0.5209 -0.0647
0.4904 0.5156 -0.0699
0.9649 1.0178 0.6203
0.9731 1.0300 0.5873
0.9773 1.0363 0.5699
0.9747 1.0349 0.5511
0.9728 1.0343 0.5322
1.9913 2.2089 0.4565
1.9438 2.1587 0.4051
1.0124 1.0904 0.4058
0.9963 1.0737 0.3849
1.0087 1.0901 0.3592
1.0111 1.0949 0.3343
2.2941 2.6033 -0.1020
2.1025 2.3846 -0.1139
1.3510 1.5080 0.0591
1.1185 1.2543 -0.0935
1.0611 1.1879 -0.0876
0.9982 1.1144 -0.0721
0.9634 1.0748 -0.0763
0.9263 1.0323 -0.0755
0.8334 0.9231 -0.0438
0.8128 0.9000 -0.0504
0.7988 0.8850 -0.0633
0.7616 0.8432 -0.0742
0.7222 0.7982 -0.0755
0.7024 0.7753 -0.0730
0.6831 0.7528 -0.0693
0.6468 0.7104 -0.0595
0.6370 0.6997 -0.0672
0.6245 0.6856 -0.0688
0.5985 0.6555 -0.0659
0.5873 0.6427 -0.0661
0.5759 0.6295 -0.0646
0.5661 0.6183 -0.0655
0.5552 0.6056 -0.0626
0.5394 0.5880 -0.0691
0.5292 0.5759 -0.0642
0.5227 0.5688 -0.0692
0.5049 0.5478 -0.0610
0.4974 0.5391 -0.0597
0.4912 0.5321 -0.0617
0.4800 0.5198 -0.0687
0.9241 0.9919 0.6815
0.9518 1.0257 0.6752
0.9476 1.0242 0.6418
0.9421 1.0193 0.6239
0.9489 1.0291 0.6085
0.9579 1.0415 0.5927
0.9610 1.0469 0.5751
0.9581 1.0455 0.5563
0.9513 1.0393 0.5368
0.9515 1.0414 0.5178
1.9473 2.2394 0.4695
1.8546 2.1335 0.4194
1.0068 1.1188 0.4093
0.9703 1.0771 0.3908
0.9871 1.0998 0.3645
0.9912 1.1074 0.3392
2.3181 2.7433 -0.1136
2.1430 2.5357 -0.1344
1.3054 1.5111 0.0716
1.3214 1.5354 0.0213
1.3295 1.5501 -0.0275
1.0789 1.2553 -0.0798
1.0294 1.1959 -0.0789
0.9443 1.0937 -0.0769
0.7999 0.9155 -0.0256
0.7926 0.9088 -0.0466
0.7841 0.9007 -0.0662
0.7647 0.8780 -0.0713
0.7452 0.8550 -0.0744
0.7020 0.8027 -0.0686
0.6518 0.7424 -0.0677
0.6381 0.7262 -0.0695
0.6121 0.6953 -0.0715
0.5981 0.6781 -0.0679
0.5840 0.6606 -0.0624
0.5744 0.6494 -0.0657
0.5641 0.6372 -0.0664
0.5542 0.6253 -0.0665
0.5452 0.6147 -0.0680
0.5345 0.6014 -0.0635
0.5256 0.5907 -0.0627
0.5169 0.5801 -0.0613
0.5113 0.5741 -0.0686
0.5016 0.5617 -0.0614
0.4955 0.5549 -0.0656
0.4872 0.5445 -0.0607
0.4811 0.5374 -0.0629
0.4742 0.5289 -0.0607
0.4696 0.5240 -0.0674
0.9344 1.0330 0.6799
0.9339 1.0343 0.6638
0.9316 1.0335 0.6469
0.9317 1.0356 0.6304
0.9298 1.0375 0.5957
0.9381 1.0499 0.5794
0.9383 1.0523 0.5611
0.9330 1.0480 0.5418
0.9216 1.0362 0.5220
0.9230 1.0402 0.5029
0.9161 1.0340 0.4833
0.9114 1.0305 0.4636
0.9750 1.1160 0.4159
0.9594 1.0990 0.3945
0.9675 1.1123 0.3694
0.9656 1.1129 0.3453
0.9744 1.1272 0.3179
2.2284 2.7482 -0.0909
2.1881 2.7057 -0.1573
1.2565 1.5089 0.0856
1.2671 1.5280 0.0382
0.9906 1.1769 0.0767
1.1017 1.3342 -0.0733
0.7859 0.9297 0.0006
0.7796 0.9244 -0.0216
0.7753 0.9220 -0.0465
0.7668 0.9138 -0.0663
0.7469 0.8894 -0.0704
0.7304 0.8696 -0.0774
0.7066 0.8391 -0.0716
0.6876 0.8152 -0.0710
0.6406 0.7568 -0.0745
0.6251 0.7371 -0.0725
0.6113 0.7197 -0.0720
0.5978 0.7026 -0.0705
0.5850 0.6864 -0.0690
0.5613 0.6562 -0.0652
0.5517 0.6445 -0.0671
0.5402 0.6294 -0.0621
0.5315 0.6187 -0.0637
0.5237 0.6094 -0.0669
0.5141 0.5968 -0.0630
0.5056 0.5861 -0.0617
0.5001 0.5800 -0.0692
0.4904 0.5669 -0.0609
0.4848 0.5605 -0.0664
0.4772 0.5505 -0.0630
0.4715 0.5438 -0.0665
0.4645 0.5347 -0.0633
0.4580 0.5262 -0.0608
3.1831 3.8480 1.8490
0.8954 1.0110 0.6920
0.9073 1.0280 0.6812
0.9067 1.0295 0.6654
0.9115 1.0379 0.6509
0.9043 1.0311 0.6326
0.9042 1.0333 0.6160
0.9046 1.0363 0.5991
0.9147 1.0518 0.5835
0.9155 1.0553 0.5654
0.9079 1.0482 0.5460
0.9084 1.0515 0.5273
0.9030 1.0472 0.5078
0.8996 1.0456 0.4882
0.9018 1.0513 0.4682
0.9024 1.0550 0.4476
0.9307 1.0987 0.4009
0.9196 1.0872 0.3795
0.9652 1.1520 0.3458
0.9724 1.1654 0.3178
1.2038 1.4940 0.1421
1.1914 1.4829 0.1071
1.1658 1.4533 0.0787
0.9843 1.2115 0.1035
0.9728 1.2002 0.0770
1.0789 1.3609 -0.0733
0.8262 1.0143 0.0316
0.7982 0.9780 0.0288
0.8385 1.0462 -0.0785
0.7781 0.9661 -0.0726
0.7321 0.9060 -0.0741
0.6893 0.8493 -0.0706
0.6544 0.8036 -0.0709
0.6217 0.7601 -0.0670
0.5947 0.7246 -0.0672
0.5817 0.7074 -0.0658
0.5702 0.6923 -0.0662
0.5484 0.6636 -0.0657
0.5377 0.6493 -0.0637
0.5273 0.6353 -0.0609
0.5209 0.6281 -0.0690
0.5117 0.6156 -0.0670
0.5017 0.6017 -0.0610
0.4948 0.5932 -0.0644
0.4878 0.5842 -0.0662
0.4801 0.5738 -0.0640
0.4728 0.5640 -0.0624
0.4672 0.5571 -0.0664
0.4536 0.5385 -0.0607
0.8844 1.0205 0.7277
0.8865 1.0256 0.7142
0.8877 1.0322 0.6849
0.8893 1.0368 0.6701
0.8907 1.0413 0.6547
0.8866 1.0385 0.6373
0.8840 1.0377 0.6201
0.8857 1.0428 0.6036
0.8972 1.0641 0.5704
0.8889 1.0560 0.5509
0.8899 1.0604 0.5322
0.8878 1.0607 0.5129
0.8786 1.0546 0.4732
0.8743 1.0520 0.4531
0.8985 1.0928 0.4076
0.8851 1.0778 0.3871
0.9705 1.2068 0.3178
1.1693 1.5148 0.1096
1.1498 1.4933 0.0776
1.1186 1.4544 0.0528
0.9370 1.1985 0.0890
0.8161 1.0375 0.0554
0.8054 1.0263 0.0348
0.7091 0.9104 -0.0663
0.6952 0.8930 -0.0766
0.6757 0.8660 -0.0759
0.6587 0.8430 -0.0776
0.6373 0.8120 -0.0688
0.6097 0.7748 -0.0736
0.5948 0.7540 -0.0712
0.5808 0.7342 -0.0685
0.5678 0.7160 -0.0665
0.5553 0.6982 -0.0635
0.5455 0.6852 -0.0661
0.5356 0.6717 -0.0670
0.5260 0.6585 -0.0673
0.5150 0.6425 -0.0617
0.5080 0.6339 -0.0678
0.4982 0.6196 -0.0628
0.4821 0.5969 -0.0603
0.4761 0.5896 -0.0656
0.4697 0.5813 -0.0682
0.4619 0.5697 -0.0632
0.4547 0.5589 -0.0587
0.4498 0.5532 -0.0649
0.4445 0.5465 -0.0683
0.8719 1.0328 0.7341
0.8636 1.0242 0.7160
0.8661 1.0303 0.7026
0.8691 1.0373 0.6890
0.8704 1.0421 0.6742
0.8664 1.0395 0.6571
0.8645 1.0399 0.6406
0.8654 1.0442 0.6246
0.8611 1.0414 0.6068
0.8716 1.0593 0.5920
0.8739 1.0660 0.5746
0.8617 1.0521 0.5546
0.8672 1.0634 0.5368
0.8859 1.1142 0.4117
0.8726 1.0990 0.3907
0.9703 1.2542 0.3172
1.8947 2.6659 -0.0772
1.8474 2.6085 -0.1353
1.1333 1.5357 0.0762
0.9301 1.2343 0.1158
0.9093 1.2080 0.0957
0.8433 1.1158 0.0793
0.8306 1.1014 0.0580
0.8258 1.0999 0.0296
0.7687 1.0375 -0.0769
0.7445 1.0029 -0.0788
0.7184 0.9644 -0.0751
0.6745 0.9002 -0.0715
0.6565 0.8744 -0.0725
0.6425 0.8553 -0.0789
0.6223 0.8247 -0.0712
0.6076 0.8036 -0.0721
0.5951 0.7863 -0.0759
0.5815 0.7666 -0.0756
0.5662 0.7431 -0.0689
0.5531 0.7235 -0.0654
0.5420 0.7074 -0.0653
0.5328 0.6949 -0.0691
0.5223 0.6793 -0.0674
0.5123 0.6647 -0.0659
0.5036 0.6522 -0.0666
0.4948 0.6392 -0.0656
0.4859 0.6259 -0.0628
0.4790 0.6165 -0.0659
0.4717 0.6059 -0.0662
0.4645 0.5956 -0.0660
0.4581 0.5866 -0.0676
0.4509 0.5755 -0.0639
0.4450 0.5673 -0.0657
0.4385 0.5571 -0.0621
0.4331 0.5498 -0.0643
0.8515 1.0345 0.7367
0.8523 1.0387 0.7230
0.8492 1.0375 0.7072
0.8468 1.0372 0.6915
0.8472 1.0410 0.6766
0.8468 1.0437 0.6610
0.8447 1.0442 0.6446
0.8482 1.0527 0.6295
0.8417 1.0468 0.6112
0.8455 1.0560 0.5952
0.8489 1.0649 0.5784
0.8462 1.0647 0.5599
0.8466 1.0693 0.5415
0.8404 1.0641 0.5221
0.8498 1.0868 0.4830
0.8426 1.0803 0.4626
0.8293 1.0644 0.4426
0.8516 1.1085 0.3959
0.9169 1.2220 0.3308
0.9164 1.2274 0.3027
1.7918 2.6356 -0.0481
1.7794 2.6321 -0.1188
0.8947 1.2322 0.1272
0.8685 1.1958 0.1116
0.8528 1.1765 0.0901
0.8436 1.1682 0.0639
0.8788 1.2533 -0.0813
0.8115 1.1514 -0.0841
0.7463 1.0499 -0.0739
0.7006 0.9812 -0.0772
0.6746 0.9399 -0.0693
0.6545 0.9089 -0.0679
0.6243 0.8650 -0.0771
0.5916 0.8141 -0.0724
0.5634 0.7704 -0.0689
0.5281 0.7161 -0.0661
0.5191 0.7034 -0.0701
0.4992 0.6722 -0.0664
0.4899 0.6576 -0.0642
0.4820 0.6458 -0.0654
0.4738 0.6329 -0.0639
0.4668 0.6227 -0.0660
0.4590 0.6103 -0.0632
0.4528 0.6016 -0.0665
0.4464 0.5919 -0.0670
0.4397 0.5813 -0.0647
0.4338 0.5725 -0.0654
0.4273 0.5616 -0.0606
0.4225 0.5553 -0.0654
0.8387 1.0437 0.7570
0.8343 1.0405 0.7409
0.8384 1.0501 0.7290
0.8324 1.0446 0.7118
0.8277 1.0412 0.6951
0.8300 1.0483 0.6812
0.8279 1.0489 0.6652
0.8346 1.0629 0.6518
0.8322 1.0632 0.6348
0.8290 1.0624 0.6173
0.8336 1.0824 0.5658
0.8311 1.0831 0.5469
0.8316 1.0885 0.5279
0.8331 1.1008 0.4881
0.8246 1.0923 0.4675
0.8122 1.0772 0.4473
0.8249 1.1088 0.4020
0.8818 1.2155 0.3395
0.8838 1.2256 0.3111
0.8891 1.2417 0.2804
0.8860 1.2594 0.1887
0.8764 1.2506 0.1613
0.8648 1.2385 0.1353
0.8572 1.2332 0.1066
0.8489 1.2269 0.0781
0.8443 1.2273 0.0463
0.8471 1.2415 0.0067
0.8849 1.3213 -0.0709
0.8537 1.2734 -0.0797
0.8250 1.2295 -0.0881
0.7283 1.0716 -0.0777
0.7061 1.0369 -0.0812
0.6838 1.0012 -0.0818
0.6369 0.9228 -0.0690
0.6070 0.8769 -0.0774
0.5905 0.8498 -0.0750
0.5742 0.8225 -0.0703
0.5036 0.7080 -0.0655
0.4856 0.6791 -0.0659
0.4772 0.6656 -0.0659
0.4686 0.6511 -0.0632
0.4605 0.6375 -0.0607
0.4539 0.6279 -0.0640
0.4472 0.6171 -0.0646
0.4414 0.6089 -0.0691
0.4342 0.5962 -0.0641
0.4287 0.5883 -0.0677
0.4220 0.5759 -0.0613
0.4167 0.5678 -0.0629
0.4066 0.5524 -0.0659
0.8198 1.0508 0.7466
0.8201 1.0552 0.7329
0.8148 1.0507 0.7160
0.8128 1.0516 0.7007
0.8120 1.0545 0.6856
0.8118 1.0584 0.6703
0.8055 1.0526 0.6525
0.8128 1.0687 0.6392
0.8082 1.0659 0.6213
0.8092 1.0722 0.6049
0.8076 1.0743 0.5872
0.8112 1.0853 0.5702
0.8128 1.0930 0.5520
0.8100 1.0936 0.5327
0.8181 1.1127 0.5137
0.8097 1.1042 0.4931
0.7997 1.0928 0.4727
0.7925 1.0863 0.4523
0.8110 1.1305 0.4060
0.8532 1.2187 0.3465
0.8594 1.2373 0.3169
0.8594 1.2454 0.2880
0.8661 1.2659 0.2551
0.8644 1.2715 0.2244
0.8581 1.2690 0.1954
0.8550 1.2725 0.1640
0.8435 1.2602 0.1375
0.8261 1.2368 0.1158
0.8258 1.2460 0.0809
0.9130 1.4389 -0.0806
0.8800 1.3859 -0.0921
0.8332 1.3044 -0.0840
0.7924 1.2332 -0.0770
0.7645 1.1872 -0.0817
0.7031 1.0803 -0.0716
0.6630 1.0146 -0.0805
0.6198 0.9391 -0.0720
0.6014 0.9071 -0.0692
0.5843 0.8772 -0.0661
0.5711 0.8557 -0.0696
0.5574 0.8325 -0.0698
0.5458 0.8139 -0.0735
0.5345 0.7956 -0.0763
0.5109 0.7544 -0.0722
0.5007 0.7370 -0.0721
0.4903 0.7186 -0.0692
0.4715 0.6854 -0.0643
0.4648 0.6757 -0.0705
0.4570 0.6623 -0.0701
0.4484 0.6459 -0.0638
0.4416 0.6349 -0.0651
0.4353 0.6246 -0.0670
0.4286 0.6127 -0.0650
0.4226 0.6028 -0.0657
0.4165 0.5919 -0.0636
0.4111 0.5829 -0.0646
0.4056 0.5734 -0.0638
0.4005 0.5648 -0.0638
0.3958 0.5573 -0.0658
0.7868 1.0315 0.7417
0.7999 1.0569 0.7357
0.7971 1.0568 0.7203
0.7976 1.0621 0.7062
0.7999 1.0704 0.6926
0.7974 1.0710 0.6764
0.7917 1.0663 0.6586
0.7890 1.0668 0.6419
0.7881 1.0703 0.6255
0.7835 1.0728 0.5907
0.7875 1.0910 0.5560
0.7919 1.1046 0.5379
0.7971 1.1200 0.5188
0.7921 1.1173 0.4983
0.7859 1.1126 0.4776
0.7796 1.1079 0.4568
0.7655 1.0889 0.4368
0.7942 1.1486 0.4105
0.7854 1.1396 0.3885
0.8319 1.2435 0.3237
0.8329 1.2546 0.2944
0.8043 1.2585 0.1177
0.7959 1.2523 0.0891
0.7979 1.2681 0.0503
0.8743 1.4425 -0.0681
0.8449 1.3942 -0.0822
0.8069 1.3260 -0.0825
0.7746 1.2687 -0.0851
0.7375 1.1994 -0.0765
0.7137 1.1585 -0.0825
0.6646 1.0701 -0.0819
0.6220 0.9923 -0.0786
0.6022 0.9556 -0.0748
0.5687 0.8944 -0.0714
0.5531 0.8653 -0.0680
0.5397 0.8411 -0.0676
0.5272 0.8187 -0.0676
0.5063 0.7828 -0.0733
0.4957 0.7635 -0.0726
0.4841 0.7405 -0.0656
0.4751 0.7246 -0.0664
0.4673 0.7117 -0.0702
0.4584 0.6950 -0.0676
0.4496 0.6773 -0.0621
0.4423 0.6645 -0.0627
0.4286 0.6401 -0.0630
0.4225 0.6297 -0.0650
0.4168 0.6201 -0.0675
0.4106 0.6083 -0.0651
0.4044 0.5954 -0.0596
0.3995 0.5881 -0.0641
0.3948 0.5809 -0.0683
0.3895 0.5698 -0.0635
0.3849 0.5623 -0.0657
0.7878 1.0673 0.7566
0.7798 1.0585 0.7384
0.7795 1.0629 0.7245
0.7779 1.0650 0.7096
0.7835 1.0799 0.6979
0.7833 1.0848 0.6827
0.7823 1.0886 0.6668
0.7711 1.0743 0.6466
0.7723 1.0821 0.6311
0.7767 1.0958 0.6159
0.7711 1.0918 0.5972
0.7594 1.0765 0.5770
0.7698 1.1019 0.5612
0.7715 1.1117 0.5428
0.7746 1.1242 0.5237
0.7710 1.1246 0.5034
0.7647 1.1199 0.4827
0.7574 1.1133 0.4620
0.7531 1.1125 0.4409
0.7627 1.1475 0.3939
0.7732 1.1770 0.3668
0.8142 1.2693 0.3272
1.4984 2.7079 -0.0490
1.4664 2.6686 -0.1106
1.3517 2.4534 -0.1212
1.1898 2.1322 -0.0865
0.8132 1.3496 0.0938
0.7692 1.2655 0.0945
0.7568 1.2506 0.0695
0.8097 1.4015 -0.0720
0.6899 1.1760 -0.0813
0.6383 1.0747 -0.0730
0.6206 1.0426 -0.0783
0.6025 1.0087 -0.0801
0.5830 0.9700 -0.0755
0.5635 0.9296 -0.0668
0.5369 0.8809 -0.0722
0.5238 0.8556 -0.0715
0.5107 0.8293 -0.0679
0.4890 0.7880 -0.0683
0.4798 0.7714 -0.0712
0.4688 0.7481 -0.0644
0.4519 0.7163 -0.0656
0.4443 0.7021 -0.0669
0.4367 0.6876 -0.0666
0.4300 0.6758 -0.0695
0.4234 0.6637 -0.0708
0.4167 0.6504 -0.0694
0.4097 0.6348 -0.0629
0.4042 0.6251 -0.0656
0.3986 0.6144 -0.0655
0.3879 0.5934 -0.0636
0.3831 0.5844 -0.0643
0.3784 0.5761 -0.0658
0.3739 0.5673 -0.0656
0.7728 1.0778 0.7625
0.7699 1.0778 0.7472
0.7656 1.0756 0.7310
0.7625 1.0755 0.7152
0.7623 1.0808 0.7008
0.7618 1.0859 0.6858
0.7589 1.0865 0.6693
0.7548 1.0850 0.6520
0.7573 1.1025 0.6206
0.7576 1.1100 0.6036
0.7519 1.1058 0.5845
0.7629 1.1344 0.5687
0.7578 1.1319 0.5488
0.7602 1.1445 0.5295
0.7509 1.1339 0.5086
0.7446 1.1292 0.4878
0.7391 1.1265 0.4670
0.7290 1.1140 0.4464
0.7473 1.1706 0.3979
1.4650 2.8070 -0.0489
1.3913 2.6735 -0.0899
1.2903 2.4747 -0.1064
1.1979 2.2908 -0.1165
0.7263 1.2543 0.0789
0.7215 1.2576 0.0459
0.7765 1.4130 -0.0640
0.7132 1.2861 -0.0686
0.6643 1.1904 -0.0778
0.6137 1.0832 -0.0671
0.5803 1.0190 -0.0764
0.5469 0.9499 -0.0733
0.5190 0.8929 -0.0726
0.4921 0.8341 -0.0620
0.4843 0.8226 -0.0733
0.4743 0.8025 -0.0742
0.4633 0.7778 -0.0680
0.4534 0.7557 -0.0632
0.4457 0.7416 -0.0671
0.4381 0.7270 -0.0694
0.4298 0.7086 -0.0653
0.4225 0.6932 -0.0641
0.4088 0.6638 -0.0603
0.3975 0.6438 -0.0674
0.3916 0.6308 -0.0647
0.3862 0.6193 -0.0636
0.3811 0.6092 -0.0642
0.3765 0.6012 -0.0679
0.3716 0.5902 -0.0651
0.3672 0.5818 -0.0667
0.7426 1.0602 0.7580
0.7498 1.0795 0.7499
0.7467 1.0795 0.7345
0.7475 1.0872 0.7212
0.7487 1.0958 0.7077
0.7446 1.0944 0.6908
0.7415 1.0951 0.6743
0.7351 1.0893 0.6561
0.7353 1.1115 0.6075
0.7392 1.1272 0.5912
0.7477 1.1528 0.5750
0.7424 1.1504 0.5548
0.7418 1.1580 0.5350
0.7335 1.1493 0.5140
0.7270 1.1446 0.4930
0.7206 1.1398 0.4720
0.7114 1.1292 0.4512
0.7290 1.1892 0.4024
0.7280 1.1982 0.3776
0.7757 1.3208 0.3350
0.7715 1.3244 0.3061
1.3324 2.7150 -0.0782
1.2229 2.4813 -0.0877
1.1412 2.3104 -0.1028
1.0494 2.1089 -0.0986
0.6910 1.2613 0.0555
0.6902 1.3168 -0.0727
0.6652 1.2646 -0.0774
0.6433 1.2198 -0.0837
0.6172 1.1601 -0.0774
0.5988 1.1226 -0.0828
0.5139 0.9344 -0.0743
0.4995 0.9005 -0.0685
0.4576 0.8115 -0.0733
0.4388 0.7684 -0.0681
0.4240 0.7393 -0.0750
0.4086 0.7016 -0.0655
0.4026 0.6903 -0.0697
0.3901 0.6616 -0.0661
0.3848 0.6522 -0.0707
0.3740 0.6262 -0.0651
0.3645 0.6066 -0.0673
0.3600 0.5961 -0.0659
0.3557 0.5864 -0.0652
0.7389 1.0922 0.7718
0.7328 1.0867 0.7546
0.7290 1.0857 0.7388
0.7317 1.0979 0.7270
0.7303 1.1022 0.7121
0.7293 1.1074 0.6971
0.7255 1.1070 0.6802
0.7206 1.1044 0.6625
0.7176 1.1310 0.5957
0.7225 1.1507 0.5790
0.7213 1.1577 0.5599
0.7159 1.1552 0.5395
0.7121 1.1566 0.5191
0.7074 1.1560 0.4983
0.6991 1.1473 0.4772
0.6917 1.1405 0.4562
0.6859 1.1377 0.4349
0.7089 1.2050 0.4074
0.7054 1.2093 0.3830
0.7572 1.3523 0.3385
0.7375 1.3179 0.3155
1.3017 2.8334 -0.0835
1.2094 2.6292 -0.1053
1.1351 2.4677 -0.1283
1.0298 2.2149 -0.1140
0.7733 1.5504 0.0185
0.6638 1.2736 0.0611
0.6521 1.2587 0.0364
0.6784 1.3628 -0.0485
0.6652 1.3453 -0.0750
0.6401 1.2882 -0.0781
0.5752 1.1389 -0.0817
0.5372 1.0462 -0.0739
0.5230 1.0150 -0.0776
0.5076 0.9772 -0.0738
0.4957 0.9517 -0.0783
0.4810 0.9127 -0.0688
0.4703 0.8889 -0.0712
0.4589 0.8602 -0.0671
0.4487 0.8357 -0.0654
0.4413 0.8234 -0.0756
0.4309 0.7945 -0.0659
0.4080 0.7419 -0.0675
0.4018 0.7308 -0.0742
0.3949 0.7128 -0.0707
0.3882 0.6946 -0.0653
0.3823 0.6800 -0.0639
0.3770 0.6710 -0.0702
0.3716 0.6575 -0.0686
0.3615 0.6318 -0.0643
0.3569 0.6215 -0.0652
0.3525 0.6120 -0.0668
0.3482 0.6008 -0.0643
0.3441 0.5934 -0.0685
0.3402 0.5831 -0.0662
0.7161 1.1020 0.7465
0.7120 1.1008 0.7303
0.7104 1.1052 0.7156
0.7076 1.1072 0.6998
0.7082 1.1168 0.6855
0.7047 1.1174 0.6686
0.7059 1.1475 0.6207
0.7027 1.1600 0.5842
0.7055 1.1774 0.5662
0.7024 1.1810 0.5460
0.6941 1.1722 0.5247
0.6859 1.1634 0.5035
0.6867 1.1899 0.4602
0.6781 1.1809 0.4382
0.6936 1.2348 0.4114
0.6852 1.2273 0.3877
0.7043 1.2942 0.3542
0.7016 1.3033 0.3259
1.2534 2.9188 -0.0800
1.1628 2.7039 -0.1025
1.0699 2.4747 -0.1098
0.9959 2.2942 -0.1195
0.9030 2.0482 -0.0972
0.8177 1.8163 -0.0659
0.7606 1.6660 -0.0535
0.6251 1.2719 0.0416
0.6179 1.2718 0.0097
0.6350 1.3595 -0.0693
0.6138 1.3113 -0.0782
0.5879 1.2427 -0.0721
0.5681 1.1944 -0.0747
0.5322 1.1052 -0.0763
0.5007 1.0245 -0.0734
0.4870 0.9895 -0.0725
0.4757 0.9637 -0.0774
0.4628 0.9282 -0.0718
0.4514 0.8979 -0.0688
0.4410 0.8704 -0.0664
0.4319 0.8487 -0.0682
0.4241 0.8325 -0.0746
0.4159 0.8129 -0.0761
0.3930 0.7516 -0.0693
0.3861 0.7318 -0.0649
0.3802 0.7187 -0.0681
0.3740 0.7002 -0.0628
0.3687 0.6889 -0.0666
0.3635 0.6777 -0.0700
0.3583 0.6634 -0.0675
0.3535 0.6513 -0.0675
0.3490 0.6433 -0.0736
0.3445 0.6290 -0.0679
0.3403 0.6181 -0.0673
0.3363 0.6061 -0.0638
0.6989 1.1184 0.7383
0.6960 1.1205 0.7227
0.6930 1.1225 0.7067
0.6885 1.1211 0.6895
0.6857 1.1240 0.6732
0.7019 1.1941 0.6323
0.6865 1.1788 0.5907
0.6825 1.1806 0.5709
0.6792 1.1844 0.5509
0.6701 1.1863 0.5091
0.6730 1.2079 0.4878
0.6693 1.2119 0.4654
0.6621 1.2067 0.4428
0.6775 1.2660 0.4156
0.6689 1.2583 0.3913
0.6660 1.2671 0.3651
0.6673 1.2892 0.3359
1.1754 2.9225 -0.0584
1.0912 2.7088 -0.0823
1.0097 2.4955 -0.0953
0.9364 2.3005 -0.1022
0.8568 2.0754 -0.0886
0.7921 1.8922 -0.0773
0.7502 1.7825 -0.0840
0.7048 1.6548 -0.0770
0.5835 1.2579 0.0281
0.5714 1.2699 -0.0423
0.5549 1.2319 -0.0532
0.5435 1.2148 -0.0750
0.5235 1.1568 -0.0692
0.5093 1.1229 -0.0767
0.4802 1.0437 -0.0767
0.4652 0.9970 -0.0672
0.4553 0.9758 -0.0763
0.4426 0.9352 -0.0669
0.4326 0.9085 -0.0677
0.4245 0.8924 -0.0770
0.3979 0.8121 -0.0644
0.3910 0.7957 -0.0683
0.3841 0.7773 -0.0687
0.3777 0.7613 -0.0709
0.3712 0.7392 -0.0640
0.3656 0.7273 -0.0693
0.3600 0.7121 -0.0692
0.3547 0.6965 -0.0673
0.3497 0.6798 -0.0625
0.3450 0.6694 -0.0664
0.3404 0.6565 -0.0654
0.3361 0.6458 -0.0671
0.3319 0.6353 -0.0683
0.3280 0.6236 -0.0667
0.3242 0.6134 -0.0669
0.3206 0.6040 -0.0677
0.6864 1.1293 0.7602
0.6752 1.1212 0.7254
0.6771 1.1357 0.7131
0.6733 1.1365 0.6964
0.6689 1.1361 0.6791
0.6700 1.1498 0.6647
0.6696 1.1601 0.6487
0.6672 1.1657 0.6312
0.6614 1.1626 0.6118
0.6636 1.1943 0.5767
0.6577 1.1918 0.5561
0.6539 1.1955 0.5356
0.6564 1.2176 0.5153
0.6574 1.2362 0.4935
0.7070 1.4216 0.4402
0.6873 1.3817 0.4145
0.6602 1.3174 0.3927
0.6452 1.2896 0.3695
1.1363 3.0565 -0.0631
1.0413 2.7867 -0.0791
0.9620 2.5617 -0.0924
0.8949 2.3711 -0.1036
0.8178 2.1324 -0.0893
0.7516 1.9242 -0.0723
0.7188 1.8398 -0.0900
0.6766 1.7115 -0.0854
0.6465 1.6282 -0.0933
0.5482 1.2676 0.0032
0.5404 1.2676 -0.0288
0.5266 1.2380 -0.0445
0.5198 1.2439 -0.0804
0.4870 1.1475 -0.0815
0.4589 1.0632 -0.0799
0.4467 1.0274 -0.0801
0.4342 0.9848 -0.0725
0.4244 0.9581 -0.0760
0.4148 0.9303 -0.0768
0.3965 0.8697 -0.0680
0.3887 0.8471 -0.0684
0.3814 0.8256 -0.0686
0.3746 0.8067 -0.0702
0.3680 0.7851 -0.0674
0.3619 0.7682 -0.0689
0.3561 0.7480 -0.0650
0.3507 0.7332 -0.0667
0.3455 0.7165 -0.0647
0.3406 0.7028 -0.0659
0.3359 0.6879 -0.0644
0.3315 0.6761 -0.0663
0.3271 0.6651 -0.0687
0.3231 0.6529 -0.0684
0.3194 0.6396 -0.0653
0.3158 0.6278 -0.0638
0.3120 0.6201 -0.0687
0.3087 0.6087 -0.0661
0.3048 0.6037 -0.0752
0.6618 1.1299 0.7467
0.6612 1.1390 0.7333
0.6602 1.1588 0.7051
0.6552 1.1572 0.6872
0.6472 1.2167 0.5835
0.6404 1.2120 0.5624
0.6455 1.2440 0.5435
0.6416 1.2494 0.5217
0.6740 1.3715 0.5012
0.6756 1.3981 0.4751
0.6549 1.3519 0.4497
0.6298 1.2891 0.4271
0.6250 1.2944 0.4017
0.6197 1.2984 0.3757
1.0747 3.1286 -0.0542
1.0042 2.9282 -0.0889
0.9165 2.6478 -0.0936
0.8448 2.4181 -0.0974
0.7850 2.2267 -0.1006
0.7200 2.0002 -0.0817
0.6806 1.8778 -0.0880
0.6462 1.7709 -0.0939
0.6087 1.6413 -0.0841
0.5814 1.5550 -0.0868
0.5555 1.4692 -0.0849
0.5325 1.3936 -0.0834
0.5093 1.3095 -0.0727
0.4938 1.2657 -0.0809
0.4784 1.2192 -0.0849
0.4615 1.1564 -0.0753
0.4345 1.0630 -0.0681
0.4244 1.0368 -0.0760
0.4124 0.9873 -0.0634
0.4035 0.9637 -0.0696
0.3950 0.9396 -0.0741
0.3864 0.9096 -0.0715
0.3781 0.8761 -0.0635
0.3644 0.8400 -0.0734
0.3579 0.8186 -0.0729
0.3518 0.7960 -0.0696
0.3461 0.7767 -0.0687
0.3408 0.7548 -0.0631
0.3307 0.7287 -0.0709
0.3262 0.7120 -0.0684
0.3218 0.6983 -0.0692
0.3179 0.6821 -0.0651
0.3138 0.6704 -0.0666
0.3100 0.6594 -0.0686
0.3064 0.6473 -0.0679
0.3003 0.6210 -0.0599
0.2968 0.6134 -0.0644
0.6522 1.1371 0.7831
0.6464 1.1326 0.7658
0.6491 1.1512 0.7561
0.6463 1.1558 0.7410
0.6431 1.1590 0.7251
0.6408 1.1655 0.7098
0.6388 1.1729 0.6942
0.6358 1.1779 0.6774
0.6241 1.2199 0.5883
0.6292 1.2547 0.5709
0.6243 1.2572 0.5494
0.6170 1.2521 0.5270
0.6132 1.2595 0.5048
0.6123 1.2781 0.4819
0.6097 1.2911 0.4579
0.6156 1.3375 0.4311
0.6098 1.3415 0.4048
1.0257 3.1780 0.0373
1.0170 3.2289 -0.0498
0.9483 3.0165 -0.0854
0.8721 2.7563 -0.0991
0.8021 2.5086 -0.1025
0.7466 2.3159 -0.1090
0.6915 2.1112 -0.1013
0.6325 1.8697 -0.0691
0.6037 1.7778 -0.0811
0.5748 1.6772 -0.0845
0.5283 1.5221 -0.0967
0.5027 1.4169 -0.0821
0.4841 1.3505 -0.0825
0.4519 1.2346 -0.0820
0.4370 1.1755 -0.0758
0.4250 1.1360 -0.0795
0.4031 1.0604 -0.0826
0.3831 0.9757 -0.0687
0.3749 0.9466 -0.0692
0.3671 0.9187 -0.0690
0.3600 0.8960 -0.0720
0.3532 0.8712 -0.0716
0.3409 0.8222 -0.0662
0.3354 0.8009 -0.0647
0.3300 0.7867 -0.0702
0.3206 0.7472 -0.0642
0.3158 0.7359 -0.0702
0.3116 0.7198 -0.0689
0.3079 0.7025 -0.0648
0.3038 0.6911 -0.0681
0.3005 0.6756 -0.0644
0.2971 0.6632 -0.0644
0.2934 0.6537 -0.0682
0.2907 0.6397 -0.0635
0.2870 0.6325 -0.0698
0.2846 0.6195 -0.0652
0.2815 0.6112 -0.0683
0.6348 1.1576 0.7768
0.6348 1.1705 0.7648
0.6287 1.1657 0.7466
0.6263 1.1725 0.7318
0.6293 1.1961 0.7209
0.6253 1.1990 0.7037
0.6180 1.1915 0.6838
0.6112 1.2023 0.6488
0.6174 1.2410 0.6360
0.6089 1.2502 0.5963
0.6066 1.2626 0.5764
0.6019 1.2672 0.5551
0.6463 1.4865 0.5166
0.6422 1.5005 0.4886
0.6410 1.5276 0.4592
0.6367 1.5438 0.4284
0.7182 1.9330 0.3702
1.0197 3.3278 0.1950
1.0481 3.5566 0.0887
1.0069 3.4718 0.0157
0.9787 3.4461 -0.0646
0.9340 3.3362 -0.1278
0.8135 2.8158 -0.0917
0.7427 2.5291 -0.0881
0.6920 2.3348 -0.0958
0.6540 2.2012 -0.1124
0.5980 1.9400 -0.0779
0.5649 1.8059 -0.0765
0.5415 1.7275 -0.0903
0.4954 1.5486 -0.0952
0.4730 1.4478 -0.0844
0.4535 1.3574 -0.0733
0.4250 1.2494 -0.0786
0.4009 1.1566 -0.0816
0.3902 1.1147 -0.0822
0.3805 1.0776 -0.0840
0.3625 0.9887 -0.0685
0.3478 0.9335 -0.0716
0.3411 0.9041 -0.0690
0.3350 0.8775 -0.0672
0.3292 0.8553 -0.0681
0.3238 0.8312 -0.0655
0.3140 0.7900 -0.0636
0.3095 0.7722 -0.0639
0.3050 0.7576 -0.0670
0.3007 0.7440 -0.0705
0.2969 0.7270 -0.0684
0.2935 0.7102 -0.0655
0.2898 0.6979 -0.0679
0.2869 0.6823 -0.0644
0.2840 0.6684 -0.0623
0.2804 0.6595 -0.0673
0.2779 0.6460 -0.0640
0.2751 0.6354 -0.0646
0.2729 0.6229 -0.0611
0.6212 1.1516 0.8082
0.6239 1.1877 0.7896
0.6189 1.1864 0.7725
0.6144 1.1875 0.7560
0.6141 1.2023 0.7432
0.6111 1.2088 0.7273
0.6052 1.2059 0.7086
0.6061 1.2268 0.6952
0.6050 1.2418 0.6794
0.6007 1.2463 0.6608
0.5963 1.2507 0.6416
0.6475 1.5553 0.5831
0.6382 1.5503 0.5543
0.6378 1.5835 0.5265
0.6352 1.6096 0.4967
0.6761 1.8874 0.4230
0.6685 1.9039 0.3828
0.9652 3.7201 0.0045
0.9125 3.5641 -0.0598
0.8637 3.4201 -0.1195
0.7502 2.8584 -0.0800
0.6857 2.5652 -0.0777
0.6467 2.4183 -0.1006
0.6088 2.2649 -0.1141
0.5645 2.0427 -0.0965
0.5034 1.7542 -0.0859
0.4816 1.6623 -0.0910
0.4608 1.5662 -0.0892
0.4431 1.4899 -0.0917
0.4258 1.4012 -0.0834
0.3988 1.2836 -0.0865
0.3867 1.2249 -0.0830
0.3757 1.1679 -0.0772
0.3414 0.9993 -0.0661
0.3345 0.9729 -0.0700
0.3279 0.9501 -0.0756
0.3224 0.9066 -0.0607
0.3168 0.8830 -0.0620
0.3114 0.8623 -0.0646
0.3065 0.8402 -0.0647
0.3016 0.8232 -0.0687
0.2976 0.8002 -0.0650
0.2890 0.7690 -0.0708
0.2849 0.7552 -0.0745
0.2823 0.7327 -0.0659
0.2794 0.7158 -0.0631
0.2753 0.7070 -0.0707
0.2732 0.6884 -0.0633
0.2702 0.6764 -0.0646
0.2669 0.6668 -0.0686
0.2649 0.6524 -0.0643
0.2622 0.6423 -0.0662
0.2599 0.6311 -0.0653
0.2565 0.6246 -0.0723
0.6028 1.1714 0.8020
0.6025 1.1859 0.7912
0.6042 1.2084 0.7823
0.5979 1.2035 0.7636
0.5996 1.2278 0.7535
0.5955 1.2319 0.7366
0.5950 1.2497 0.7229
0.5905 1.2534 0.7048
1.1362 3.4773 1.0992
0.6337 1.6001 0.6221
0.6261 1.6036 0.5936
0.6224 1.6264 0.5656
0.6125 1.6209 0.5350
0.6024 1.6153 0.5042
0.6283 1.8538 0.4340
0.6235 1.8887 0.3941
0.6186 1.9269 0.3516
0.8340 3.4696 0.0631
0.8192 3.5319 -0.0297
0.7866 3.4771 -0.1053
0.7138 3.1141 -0.1135
0.5952 2.4796 -0.0982
0.5574 2.2947 -0.1048
0.4625 1.7548 -0.0712
0.4457 1.6995 -0.0920
0.4258 1.5831 -0.0828
0.3955 1.4319 -0.0861
0.3828 1.3725 -0.0902
0.3710 1.3121 -0.0905
0.3601 1.2430 -0.0820
0.3504 1.1715 -0.0677
0.3418 1.1315 -0.0705
0.3337 1.1024 -0.0789
0.3262 1.0686 -0.0821
0.3197 1.0235 -0.0743
0.3135 0.9908 -0.0741
0.2977 0.9007 -0.0684
0.2925 0.8812 -0.0731
0.2881 0.8581 -0.0728
0.2838 0.8376 -0.0740
0.2812 0.8074 -0.0628
0.2770 0.7922 -0.0671
0.2728 0.7789 -0.0726
0.2702 0.7574 -0.0671
0.2670 0.7422 -0.0682
0.2642 0.7258 -0.0666
0.2620 0.7089 -0.0633
0.2588 0.6974 -0.0663
0.2555 0.6874 -0.0711
0.2534 0.6733 -0.0688
0.2516 0.6595 -0.0658
0.2491 0.6493 -0.0679
0.2473 0.6373 -0.0659
0.5901 1.1983 0.8142
0.5880 1.2470 0.7800
1.1267 3.6019 1.2718
1.0710 3.4484 1.1709
0.6098 1.6426 0.6330
0.5964 1.6186 0.6013
0.5876 1.6188 0.5719
0.5827 1.6415 0.5431
0.5735 1.6412 0.5122
0.5882 1.8533 0.4435
0.7259 3.2817 0.1098
0.6971 3.2339 0.0400
0.6798 3.2851 -0.0461
0.6408 3.1394 -0.0958
0.5104 2.3870 -0.1134
0.4069 1.7005 -0.0778
0.3906 1.6000 -0.0762
0.3525 1.3720 -0.0771
0.3422 1.3158 -0.0800
0.3331 1.2497 -0.0738
0.3250 1.1881 -0.0667
0.3101 1.1105 -0.0732
0.3042 1.0636 -0.0670
0.2981 1.0310 -0.0691
0.2920 1.0073 -0.0766
0.2870 0.9739 -0.0745
0.2829 0.9394 -0.0693
0.2786 0.9112 -0.0677
0.2747 0.8851 -0.0663
0.2703 0.8657 -0.0702
0.2672 0.8403 -0.0665
0.2611 0.7977 -0.0633
0.2579 0.7804 -0.0642
0.2541 0.7679 -0.0700
0.2511 0.7526 -0.0714
0.2493 0.7337 -0.0672
0.2469 0.7189 -0.0670
0.2443 0.7057 -0.0683
0.2419 0.6928 -0.0689
0.2392 0.6821 -0.0722
0.2379 0.6674 -0.0683
0.2366 0.6536 -0.0649
0.2342 0.6442 -0.0677
0.2325 0.6336 -0.0677
1.1780 3.9065 1.5698
1.0838 3.7714 1.3246
0.5787 1.7065 0.6161
0.5742 1.7380 0.5873
0.5687 1.7667 0.5565
0.5576 1.7613 0.5229
0.5497 1.7794 0.4891
0.6741 3.3061 0.2037
0.6362 3.1632 0.1451
0.6137 3.1634 0.0719
0.5850 3.0962 0.0091
0.5696 3.1888 -0.0830
0.5233 2.8680 -0.0884
0.4548 2.3932 -0.0965
0.4058 2.0400 -0.0961
0.3849 1.8358 -0.0718
0.3699 1.7697 -0.0908
0.3429 1.5665 -0.0867
0.3216 1.4237 -0.0913
0.3051 1.2825 -0.0811
0.2913 1.1810 -0.0802
0.2797 1.0965 -0.0799
0.2710 1.0129 -0.0701
0.2624 0.9545 -0.0719
0.2550 0.9020 -0.0721
0.2519 0.8767 -0.0708
0.2494 0.8510 -0.0674
0.2462 0.8313 -0.0687
0.2434 0.8119 -0.0691
0.2411 0.7920 -0.0677
0.2387 0.7740 -0.0673
0.2353 0.7616 -0.0726
0.2351 0.7380 -0.0627
0.2328 0.7237 -0.0636
0.2295 0.7142 -0.0701
0.2253 0.6889 -0.0723
0.2222 0.6636 -0.0709
0.2223 0.6477 -0.0636
0.2186 0.6425 -0.0731
1.0715 3.5245 1.6442
0.5863 3.4678 0.1309
0.5537 3.3617 0.0654
0.5184 3.1893 0.0150
0.4910 3.1209 -0.0474
0.4565 2.8717 -0.0683
0.3304 1.7834 -0.0813
0.3184 1.6854 -0.0844
0.3073 1.6134 -0.0939
0.2773 1.2948 -0.0759
0.2678 1.1709 -0.0621
0.2603 1.1534 -0.0797
0.2569 1.1010 -0.0718
0.2495 1.0236 -0.0677
0.2423 0.9639 -0.0693
0.2348 0.9183 -0.0770
0.2330 0.8886 -0.0721
0.2312 0.8618 -0.0682
0.2278 0.8151 -0.0626
0.2210 0.7886 -0.0747
0.2182 0.7745 -0.0785
0.2199 0.7460 -0.0631
0.2167 0.7354 -0.0693
0.2154 0.7197 -0.0678
0.2137 0.7065 -0.0687
0.2118 0.6942 -0.0702
0.2110 0.6799 -0.0677
0.2115 0.6629 -0.0600
0.2095 0.6534 -0.0629
0.4972 3.2839 0.1720
0.4699 3.2131 0.1066
0.4459 3.2144 0.0325
0.4222 3.2398 -0.0473
0.3963 3.1923 -0.1145
0.3456 2.4570 -0.0770
0.3130 2.1093 -0.0857
0.3001 1.9715 -0.0892
0.2886 1.8590 -0.0950
0.2733 1.6000 -0.0741
0.2591 1.4490 -0.0782
0.2403 1.2929 -0.0948
0.2400 1.2066 -0.0732
0.2272 1.0379 -0.0680
0.2219 0.9741 -0.0674
0.2183 0.9518 -0.0727
0.2156 0.9273 -0.0748
0.2143 0.8981 -0.0709
0.2124 0.8744 -0.0706
0.2109 0.8510 -0.0691
0.2104 0.8255 -0.0639
0.2074 0.8109 -0.0691
0.2054 0.7940 -0.0709
0.2041 0.7758 -0.0701
0.2037 0.7564 -0.0665
0.2014 0.7434 -0.0698
0.2005 0.7275 -0.0686
0.1996 0.7127 -0.0676
0.1974 0.7017 -0.0712
0.1955 0.6759 -0.0705
0.1945 0.6641 -0.0703
0.4248 3.3346 0.1872
0.3985 3.2621 0.1210
0.3734 3.2394 0.0500
0.3485 3.3150 -0.0382
0.3225 3.3171 -0.1168
0.2890 2.5317 -0.0777
0.2731 2.4067 -0.1031
0.2518 2.0734 -0.1079
0.2497 1.8381 -0.0722
0.2410 1.7538 -0.0833
0.2218 1.4079 -0.0794
0.2127 1.3025 -0.0881
0.2069 1.0875 -0.0673
0.2052 1.0488 -0.0654
0.1972 0.9662 -0.0747
0.1970 0.9329 -0.0695
0.1934 0.8863 -0.0721
0.1926 0.8618 -0.0701
0.1900 0.8450 -0.0747
0.1900 0.8212 -0.0706
0.1891 0.8018 -0.0699
0.1877 0.7850 -0.0711
0.1868 0.7677 -0.0706
0.1851 0.7538 -0.0733
0.1857 0.7347 -0.0682
0.1863 0.7166 -0.0632
0.1847 0.7048 -0.0659
0.1826 0.6947 -0.0702
0.1824 0.6811 -0.0685
0.1817 0.6691 -0.0685
0.3261 3.2629 0.1414
0.3006 3.2887 0.0641
0.2748 3.2908 -0.0117
0.2493 3.2677 -0.0840
0.2340 2.9993 -0.1025
0.2160 2.4779 -0.1044
0.2071 2.0714 -0.0909
0.2016 1.7788 -0.0785
0.1952 1.5833 -0.0782
0.1902 1.4296 -0.0779
0.1888 1.3592 -0.0750
0.1846 1.3148 -0.0830
0.1827 1.2034 -0.0777
0.1821 1.1069 -0.0701
0.1793 1.0767 -0.0753
0.1796 1.0354 -0.0704
0.1759 0.9799 -0.0758
0.1794 0.9351 -0.0612
0.1765 0.9166 -0.0677
0.1737 0.8991 -0.0742
0.1750 0.8694 -0.0676
0.1711 0.8350 -0.0755
0.1727 0.7895 -0.0665
0.1720 0.7729 -0.0671
0.1703 0.7596 -0.0708
0.1710 0.7411 -0.0669
0.1717 0.7236 -0.0631
0.1693 0.7140 -0.0690
0.1685 0.7015 -0.0703
0.1689 0.6870 -0.0676
0.1692 0.6734 -0.0654
0.2550 3.2642 0.1613
0.2313 3.2186 0.0945
0.2057 3.2196 0.0215
0.1798 3.2202 -0.0526
0.1609 3.1076 -0.1041
0.1584 2.5256 -0.0986
0.1536 2.1635 -0.1041
0.1488 2.0460 -0.1152
0.1605 1.6000 -0.0721
0.1563 1.3272 -0.0779
0.1567 1.2167 -0.0745
0.1561 1.1722 -0.0752
0.1534 1.1402 -0.0821
0.1572 1.0481 -0.0694
0.1553 1.0211 -0.0741
0.1539 0.9946 -0.0776
0.1580 0.9511 -0.0649
0.1559 0.9306 -0.0703
0.1565 0.8795 -0.0676
0.1561 0.8583 -0.0683
0.1542 0.8423 -0.0733
0.1568 0.7964 -0.0647
0.1561 0.7804 -0.0663
0.1560 0.7638 -0.0663
0.1555 0.7491 -0.0675
0.1557 0.7053 -0.0660
0.1553 0.6929 -0.0668
0.1528 0.6852 -0.0737
0.1810 3.3374 0.1736
0.1576 3.2901 0.1057
0.1292 3.3164 0.0278
0.1060 3.2693 -0.0396
0.0872 3.1766 -0.0964
0.1173 1.8533 -0.0774
0.1110 1.7934 -0.0977
0.1205 1.5680 -0.0823
0.1248 1.4747 -0.0749
0.1256 1.4077 -0.0758
0.1202 1.3225 -0.0952
0.1278 1.2412 -0.0780
0.1312 1.1833 -0.0712
0.1312 1.1437 -0.0733
0.1339 1.0626 -0.0696
0.1344 0.9997 -0.0713
0.1331 0.9760 -0.0760
0.1375 0.9370 -0.0658
0.1349 0.8974 -0.0749
0.1374 0.8691 -0.0693
0.1374 0.8488 -0.0702
0.1398 0.8238 -0.0649
0.1385 0.8090 -0.0693
0.1388 0.7912 -0.0694
0.1386 0.7753 -0.0705
0.1402 0.7564 -0.0670
0.1391 0.7441 -0.0708
0.1413 0.7122 -0.0661
0.1400 0.7020 -0.0702
0.1405 0.6888 -0.0695
0.1403 0.6774 -0.0705
0.1105 3.3375 0.1935
0.0835 3.3397 0.1201
0.0608 3.2924 0.0526
0.0360 3.2699 -0.0179
0.0217 3.1557 -0.0705
0.0206 2.9478 -0.0976
0.0516 2.1227 -0.1085
0.0824 1.6031 -0.0847
0.0938 1.4855 -0.0674
0.0929 1.4323 -0.0760
0.0944 1.3733 -0.0787
0.0966 1.3160 -0.0794
0.1041 1.2426 -0.0674
0.0996 1.2188 -0.0823
0.1055 1.1253 -0.0772
0.1125 1.0700 -0.0644
0.1097 1.0489 -0.0744
0.1123 1.0129 -0.0715
0.1106 0.9916 -0.0787
0.1146 0.9556 -0.0720
0.1159 0.9289 -0.0715
0.1160 0.9069 -0.0739
0.1208 0.8741 -0.0644
0.1189 0.8595 -0.0715
0.1222 0.8335 -0.0655
0.1204 0.8202 -0.0720
0.1218 0.8006 -0.0704
0.1212 0.7861 -0.0737
0.1246 0.7497 -0.0684
0.1252 0.7351 -0.0686
0.1264 0.7199 -0.0671
0.1283 0.7042 -0.0638
0.1264 0.6955 -0.0698
0.1270 0.6832 -0.0698
0.3594 3.2710 1.0529
0.3371 3.3834 1.0134
0.3143 3.3400 0.9448
0.0138 3.3398 0.1404
-0.0169 3.3669 0.0631
-0.0390 3.3194 -0.0045
-0.0674 3.3212 -0.0802
-0.0531 3.0294 -0.0944
-0.0163 2.6266 -0.0683
-0.0151 2.4831 -0.0908
0.0090 2.1202 -0.0915
0.0238 1.8684 -0.0972
0.0427 1.6405 -0.0876
0.0620 1.4466 -0.0707
0.0736 1.3101 -0.0643
0.0749 1.2646 -0.0690
0.0777 1.2170 -0.0699
0.0812 1.1378 -0.0748
0.0887 1.0562 -0.0693
0.0923 0.9948 -0.0710
0.0956 0.9405 -0.0718
0.1014 0.8860 -0.0662
0.1019 0.8661 -0.0683
0.1035 0.8449 -0.0678
0.1049 0.8091 -0.0705
0.1066 0.7904 -0.0692
0.1104 0.7687 -0.0631
0.1093 0.7570 -0.0681
0.1075 0.7470 -0.0746
0.1112 0.7277 -0.0681
0.1144 0.7102 -0.0629
0.1118 0.7030 -0.0712
0.1121 0.6914 -0.0724
0.4064 3.4376 1.3931
0.3842 3.4174 1.3299
0.3619 3.3971 1.2666
0.3169 3.4018 1.1498
0.2935 3.4272 1.0946
0.2700 3.4304 1.0337
0.2469 3.4094 0.9680
-0.0485 3.2924 0.1655
-0.0829 3.3422 0.0873
-0.1077 3.3197 0.0169
-0.1326 3.2971 -0.0536
-0.1417 3.1821 -0.1051
-0.0768 2.5426 -0.0883
-0.0487 2.1937 -0.0984
-0.0383 2.0583 -0.1037
-0.0089 1.7831 -0.0925
0.0013 1.6794 -0.0906
0.0142 1.5733 -0.0823
0.0232 1.4894 -0.0790
0.0373 1.3512 -0.0751
0.0472 1.2436 -0.0748
0.0538 1.1588 -0.0780
0.0596 1.0855 -0.0805
0.0719 1.0034 -0.0677
0.0758 0.9713 -0.0652
0.0746 0.9530 -0.0728
0.0828 0.8771 -0.0694
0.0845 0.8564 -0.0701
0.0864 0.8361 -0.0698
0.0887 0.8161 -0.0686
0.0915 0.7819 -0.0694
0.0947 0.7627 -0.0657
0.0954 0.7486 -0.0672
0.0969 0.7339 -0.0670
0.0951 0.7249 -0.0738
0.0994 0.7067 -0.0669
0.0984 0.6973 -0.0716
0.3642 3.4801 1.4720
0.3190 3.5097 1.3648
0.2963 3.4891 1.3001
0.2729 3.4918 1.2410
0.2019 3.4778 1.0543
0.1786 3.4566 0.9881
-0.1115 3.2702 0.1871
-0.1589 3.3923 0.1016
-0.1840 3.3696 0.0305
-0.2135 3.3717 -0.0448
-0.1985 3.1397 -0.0751
-0.0981 2.2204 -0.0902
-0.0803 2.0653 -0.0904
-0.0339 1.6916 -0.0821
-0.0089 1.5040 -0.0734
0.0056 1.3734 -0.0752
0.0094 1.3241 -0.0798
0.0210 1.2552 -0.0705
0.0312 1.1649 -0.0712
0.0380 1.0678 -0.0825
0.0522 0.9887 -0.0695
0.0568 0.9576 -0.0668
0.0643 0.8863 -0.0687
0.0655 0.8673 -0.0713
0.0688 0.8450 -0.0695
0.0701 0.8274 -0.0714
0.0755 0.7894 -0.0688
0.0796 0.7692 -0.0642
0.0792 0.7574 -0.0689
0.0798 0.7442 -0.0711
0.0818 0.7296 -0.0705
0.0818 0.7183 -0.0737
0.2576 3.3739 1.3364
0.2352 3.3755 1.2805
0.2085 3.4676 1.2456
0.1847 3.4705 1.1867
0.1619 3.4499 1.1220
0.1376 3.4524 1.0616
0.1111 3.4800 1.0044
-0.1976 3.3899 0.1948
-0.2222 3.3676 0.1249
-0.2468 3.3453 0.0550
-0.2714 3.3229 -0.0149
-0.2809 3.2303 -0.0714
-0.1969 2.6243 -0.0723
-0.1890 2.4958 -0.0976
-0.1313 2.1075 -0.0885
-0.0841 1.8091 -0.0743
-0.0792 1.7374 -0.0871
-0.0663 1.6444 -0.0873
-0.0382 1.4683 -0.0783
-0.0114 1.2833 -0.0756
0.0115 1.1374 -0.0692
0.0210 1.0892 -0.0621
0.0221 1.0630 -0.0685
0.0292 1.0036 -0.0715
0.0311 0.9794 -0.0753
0.0355 0.9511 -0.0742
0.0505 0.8549 -0.0701
0.0541 0.8336 -0.0685
0.0556 0.8169 -0.0706
0.0613 0.7936 -0.0643
0.0639 0.7766 -0.0638
0.0652 0.7623 -0.0656
0.0662 0.7489 -0.0678
0.0673 0.7358 -0.0694
0.0671 0.7252 -0.0738
0.2633 3.3265 1.4931
0.2156 3.4369 1.4196
0.1893 3.5085 1.3834
0.1629 3.5587 1.3383
0.1415 3.5140 1.2673
0.1204 3.4697 1.1973
0.0978 3.4492 1.1331
0.0711 3.4754 1.0776
0.0504 3.4314 1.0086
-0.2317 3.2271 0.2285
-0.2784 3.3198 0.1502
-0.3025 3.2980 0.0819
-0.3373 3.3234 0.0062
-0.3674 3.3252 -0.0676
-0.3369 3.0800 -0.0911
-0.2642 2.6877 -0.0690
-0.2568 2.5686 -0.0988
-0.1945 2.1879 -0.0980
-0.1471 1.9038 -0.0951
-0.1074 1.6775 -0.0881
-0.0843 1.5648 -0.0762
-0.0696 1.4827 -0.0730
-0.0555 1.4067 -0.0687
-0.0537 1.3673 -0.0801
-0.0370 1.2619 -0.0813
-0.0212 1.1690 -0.0795
-0.0102 1.0955 -0.0819
0.0120 1.0057 -0.0632
0.0149 0.9619 -0.0737
0.0233 0.9113 -0.0731
0.0296 0.8839 -0.0685
0.0339 0.8613 -0.0671
0.0375 0.8407 -0.0666
0.0409 0.8213 -0.0660
0.0459 0.7874 -0.0672
0.0469 0.7737 -0.0703
0.0508 0.7561 -0.0676
0.0523 0.7429 -0.0694
0.0539 0.7298 -0.0706
-1.0286 0.4002 0.7071
-0.9942 0.4067 0.7025
-0.8387 0.4326 0.6807
-0.7328 0.4067 0.6582
-0.6705 0.4016 0.6467
-0.6512 0.4061 0.6443
-0.6340 0.4115 0.6423
-0.6221 0.4210 0.6420
-1.0404 3.2787 1.2218
-0.9844 3.3304 1.2215
-0.9222 3.3550 1.2154
-0.7554 3.5090 1.2145
-0.6838 3.4530 1.1924
-0.6264 3.4762 1.1868
-0.5670 3.4744 1.1765
-0.4513 3.4442 1.1515
-0.4217 3.8170 1.2129
-0.3535 3.6149 1.1653
-0.2988 3.5849 1.1507
-0.9866 0.4453 0.6880
-0.9613 0.4554 0.6857
-0.8875 0.4376 0.6715
-0.7672 0.4080 0.6483
-0.6779 0.4061 0.6343
-0.6497 0.4040 0.6297
-0.6376 0.4137 0.6294
-0.6297 0.4269 0.6303
-0.6134 0.4538 0.6321
-1.0083 3.1891 1.1323
-0.9536 3.2396 1.1320
-0.9045 3.3160 1.1368
-0.8494 3.3669 1.1365
-0.7942 3.4178 1.1363
-0.7435 3.4957 1.1410
-0.6798 3.4923 1.1307
-0.6217 3.5163 1.1256
-0.5644 3.5396 1.1206
-0.5055 3.5363 1.1110
-0.4524 3.5853 1.1108
-0.3943 3.5546 1.0969
-0.3387 3.5259 1.0838
-0.2871 3.5469 1.0793
-1.2663 0.4420 0.7055
-1.0436 0.4475 0.6757
-0.9133 0.4280 0.6551
-0.8152 0.4155 0.6399
-0.7498 0.4156 0.6309
-0.6542 0.4067 0.6165
-0.6322 0.4285 0.6166
-0.6149 0.4548 0.6180
-1.0437 3.3561 1.0922
-0.9540 3.2771 1.0686
-0.8984 3.3284 1.0683
-0.8375 3.3537 1.0636
-0.7871 3.4311 1.0677
-0.7315 3.4824 1.0675
-0.6607 3.4272 1.0498
-0.6034 3.4506 1.0453
-0.5472 3.4746 1.0411
-0.4941 3.5236 1.0408
-0.4491 3.6813 1.0572
-0.3894 3.6481 1.0443
-0.3372 3.7258 1.0482
-1.2889 0.4739 0.6871
-1.2496 0.4853 0.6838
-1.1715 0.4784 0.6735
-1.0546 0.4503 0.6559
-0.9766 0.4361 0.6447
-0.6596 0.4100 0.6031
-0.6347 0.4300 0.6026
-0.6248 0.4421 0.6030
-0.6202 0.4594 0.6046
-0.9665 3.0921 0.9764
-0.8563 2.9029 0.9394
-1.3077 0.4780 0.6631
-1.1162 0.4513 0.6403
-0.7253 0.4169 0.5959
-0.6239 0.4407 0.5879
-0.6177 0.4566 0.5890
-1.1772 2.7114 0.8893
-0.9122 2.1466 0.8011
-0.8286 2.0480 0.7818
-0.8366 2.2324 0.8024
-0.7773 2.3860 0.8128
-0.7635 2.5411 0.8280
-1.3208 0.4798 0.6373
-0.8706 0.4433 0.5948
-0.6522 0.4225 0.5739
-0.6363 0.4300 0.5731
-0.6254 0.4415 0.5732
-1.2099 2.6329 0.8195
-0.7944 1.9579 0.7231
-0.8030 2.1391 0.7400
-0.7916 2.2723 0.7509
-0.7862 2.4463 0.7659
-0.7542 2.5308 0.7707
-1.3448 0.4856 0.6117
-1.1982 0.4816 0.6011
-0.9253 0.4494 0.5797
-0.8263 0.4375 0.5719
-0.7439 0.4274 0.5654
-0.6588 0.4271 0.5594
-1.2215 2.6775 0.7579
-0.7602 1.8662 0.6682
-0.7691 2.0431 0.6813
-0.8283 2.6400 0.7277
-0.7943 2.7359 0.7321
-0.8060 3.0610 0.7558
-0.7585 3.1322 0.7575
-1.2182 0.4873 0.5765
-1.1605 0.4892 0.5735
-0.8727 0.4410 0.5558
-0.8390 0.4437 0.5541
-0.7606 0.4376 0.5497
-0.6669 0.4328 0.5445
-0.6336 0.4478 0.5435
-0.6238 0.4612 0.5437
-0.6087 0.4694 0.5433
-1.2499 2.7655 0.6965
-1.4022 3.3765 0.7363
-0.7340 1.7985 0.6190
-0.7803 2.0994 0.6371
-0.7642 2.2155 0.6423
-0.8060 2.5791 0.6634
-0.7843 2.7247 0.6698
-0.8494 3.3134 0.7038
-1.2190 0.4846 0.5497
-1.1871 0.4985 0.5490
-0.9474 0.4576 0.5391
-0.9045 0.4576 0.5376
-0.8066 0.4445 0.5337
-0.6431 0.4338 0.5276
-0.6334 0.4470 0.5277
-0.6250 0.4618 0.5279
-0.6098 0.4702 0.5276
-1.2280 2.5496 0.6182
-0.7591 2.2185 0.5906
-0.7847 2.5209 0.6015
-0.7947 2.8050 0.6112
-0.8218 3.2235 0.6260
-1.2532 0.4962 0.5234
-0.9670 0.4661 0.5179
-0.9227 0.4662 0.5171
-0.8584 0.4523 0.5157
-0.8170 0.4497 0.5150
-0.6509 0.4396 0.5119
-0.6316 0.4448 0.5116
-0.6247 0.4610 0.5117
-0.6102 0.4702 0.5116
-1.2561 2.6309 0.5530
-1.1736 2.6029 0.5511
-0.7868 2.1602 0.5381
-0.8319 2.5156 0.5438
-0.7640 2.4642 0.5419
-1.2018 0.4993 0.4951
-1.1580 0.5075 0.4950
-0.9154 0.4601 0.4954
-0.8862 0.4674 0.4953
-0.6793 0.4402 0.4955
-0.6577 0.4447 0.4955
-0.6328 0.4453 0.4955
-0.6205 0.4567 0.4954
-0.6097 0.4695 0.4954
-0.5967 0.4801 0.4953
-1.2213 2.5617 0.4836
-1.1147 2.4670 0.4841
-0.8769 2.1367 0.4860
-0.8858 2.5272 0.4838
-0.8263 2.5206 0.4839
-0.7546 2.4538 0.4843
-0.8378 3.0752 0.4808
-1.4051 0.4902 0.4638
-1.3900 0.5153 0.4635
-1.3662 0.5373 0.4634
-1.1765 0.5135 0.4674
-0.9911 0.4748 0.4718
-0.8046 0.4621 0.4756
-0.6854 0.4442 0.4782
-0.6355 0.4472 0.4790
