ply
format ascii 1.0
element vertex 2066
property float x
property float y
property float z
end_header
-0.4192 -2.7910 -0.2069
-0.3848 -2.7981 -0.1965
-0.3576 -2.7858 -0.1987
-0.3014 -2.7663 -0.1997
-0.2727 -2.7593 -0.1986
-0.2452 -2.7469 -0.2008
-0.2162 -2.7426 -0.1980
-0.1872 -2.7420 -0.1930
-0.1320 -2.7200 -0.1957
-0.1045 -2.7010 -0.2017
-0.0765 -2.6980 -0.1984
-0.0485 -2.6845 -0.2011
0.0112 -2.8790 -0.0782
0.0355 -2.8534 -0.0885
0.1173 -2.6365 -0.1987
0.1456 -2.6238 -0.2009
0.1741 -2.6111 -0.2031
0.2038 -2.5942 -0.2074
0.2310 -2.5876 -0.2063
0.2608 -2.5715 -0.2102
0.2494 -2.8041 -0.0782
0.2634 -2.8164 -0.0686
0.2797 -2.8212 -0.0629
0.4703 -2.5266 -0.1981
0.5082 -2.4954 -0.2093
0.5402 -2.4776 -0.2137
-1.0896 -3.0967 -0.1835
-1.0390 -3.0764 -0.1861
-0.9217 -3.0471 -0.1814
-0.9051 -3.0300 -0.1886
-0.8831 -3.0167 -0.1925
-0.8492 -3.0135 -0.1879
-0.7915 -2.9991 -0.1855
-0.7671 -2.9878 -0.1877
-0.6787 -2.9704 -0.1813
-0.6606 -2.9509 -0.1897
-0.6228 -2.9568 -0.1789
-0.5952 -2.9500 -0.1777
-0.5777 -2.9279 -0.1878
-0.5460 -2.9273 -0.1820
-0.5225 -2.9135 -0.1859
-0.4924 -2.9116 -0.1813
-0.4643 -2.9066 -0.1790
-0.4413 -2.8910 -0.1840
-0.4182 -2.8745 -0.1896
-0.3855 -2.8821 -0.1787
-0.3596 -2.8731 -0.1792
-0.3390 -2.8471 -0.1911
-0.3131 -2.8362 -0.1927
-0.2866 -2.8270 -0.1932
-0.2598 -2.8196 -0.1925
-0.2315 -2.8212 -0.1862
-0.2043 -2.8193 -0.1820
-0.1790 -2.8058 -0.1854
-0.1537 -2.7885 -0.1911
-0.1276 -2.7766 -0.1933
-0.1012 -2.7675 -0.1938
-0.0749 -2.7612 -0.1925
-0.0487 -2.7550 -0.1913
-0.0104 -2.9034 -0.0935
0.0522 -2.7465 -0.1770
0.0821 -2.7097 -0.1937
0.1071 -2.7067 -0.1907
0.1332 -2.6977 -0.1912
0.1647 -2.6650 -0.2050
0.1938 -2.6464 -0.2108
0.2180 -2.6465 -0.2060
0.2427 -2.6436 -0.2030
0.2663 -2.6430 -0.1989
0.2874 -2.6490 -0.1912
0.2656 -2.8191 -0.0917
0.2778 -2.8338 -0.0804
0.2885 -2.8500 -0.0685
0.3082 -2.8441 -0.0683
0.5143 -2.5382 -0.2150
0.5466 -2.5185 -0.2208
-1.0712 -3.1366 -0.1860
-1.0477 -3.1266 -0.1876
-1.0338 -3.1105 -0.1951
-0.9964 -3.1088 -0.1885
-0.9689 -3.1012 -0.1879
-0.9433 -3.0923 -0.1883
-0.9247 -3.0783 -0.1935
-0.8964 -3.0713 -0.1922
-0.8600 -3.0709 -0.1850
-0.8362 -3.0608 -0.1867
-0.8131 -3.0500 -0.1889
-0.7898 -3.0391 -0.1912
-0.7678 -3.0268 -0.1946
-0.7345 -3.0256 -0.1886
-0.6824 -3.0094 -0.1883
-0.6600 -2.9970 -0.1918
-0.6345 -2.9881 -0.1922
-0.6090 -2.9793 -0.1927
-0.5851 -2.9682 -0.1950
-0.5565 -2.9639 -0.1919
-0.5325 -2.9528 -0.1941
-0.5070 -2.9439 -0.1946
-0.4781 -2.9414 -0.1903
-0.4540 -2.9303 -0.1926
-0.4286 -2.9215 -0.1931
-0.4050 -2.9086 -0.1965
-0.3770 -2.9064 -0.1922
-0.3517 -2.8976 -0.1927
-0.3264 -2.8889 -0.1931
-0.3018 -2.8775 -0.1954
-0.2764 -2.8687 -0.1959
-0.2525 -2.8529 -0.2012
-0.2260 -2.8494 -0.1980
-0.2005 -2.8406 -0.1985
-0.1746 -2.8363 -0.1960
-0.1501 -2.8175 -0.2031
-0.1243 -2.8141 -0.1999
-0.0987 -2.8100 -0.1974
-0.0734 -2.7909 -0.2045
-0.0120 -2.9424 -0.0946
0.0545 -2.7466 -0.2069
0.0792 -2.7437 -0.2037
0.1052 -2.7318 -0.2060
0.1307 -2.7230 -0.2065
0.1596 -2.6998 -0.2154
0.1825 -2.7022 -0.2092
0.2104 -2.6850 -0.2146
0.2317 -2.6908 -0.2065
0.2564 -2.6841 -0.2058
0.2818 -2.6753 -0.2062
0.2941 -2.8448 -0.0948
0.3049 -2.8588 -0.0836
0.4860 -2.6027 -0.2112
0.5133 -2.5904 -0.2136
-1.0019 -3.1583 -0.1871
-0.9755 -3.1510 -0.1863
-0.9577 -3.1383 -0.1911
-0.9156 -3.1414 -0.1799
-0.8977 -3.1287 -0.1846
-0.8290 -3.1002 -0.1890
-0.8006 -3.0950 -0.1864
-0.7725 -3.0900 -0.1838
-0.7609 -3.0701 -0.1947
-0.7327 -3.0650 -0.1921
-0.6726 -3.0600 -0.1825
-0.6517 -3.0481 -0.1860
-0.6276 -3.0398 -0.1865
-0.6063 -3.0277 -0.1900
-0.5738 -3.0304 -0.1812
-0.5541 -3.0162 -0.1866
-0.5275 -3.0116 -0.1839
-0.5059 -2.9995 -0.1875
-0.4871 -2.9818 -0.1954
-0.4615 -2.9757 -0.1940
-0.4344 -2.9728 -0.1900
-0.4077 -2.9701 -0.1861
-0.3854 -2.9577 -0.1897
-0.3588 -2.9559 -0.1851
-0.3363 -2.9435 -0.1887
-0.3100 -2.9428 -0.1835
-0.2867 -2.9328 -0.1852
-0.2614 -2.9306 -0.1813
-0.2408 -2.9076 -0.1924
-0.2159 -2.9037 -0.1897
-0.1931 -2.8874 -0.1958
-0.1685 -2.8826 -0.1937
-0.1442 -2.8769 -0.1923
-0.1197 -2.8769 -0.1871
-0.0962 -2.8575 -0.1951
-0.0721 -2.8538 -0.1924
-0.0328 -2.9763 -0.1010
0.0234 -2.8235 -0.1922
0.0480 -2.8104 -0.1958
0.0736 -2.7921 -0.2026
0.0998 -2.7737 -0.2094
0.1237 -2.7683 -0.2080
0.1502 -2.7516 -0.2135
0.1727 -2.7513 -0.2089
0.1951 -2.7501 -0.2049
0.2216 -2.7343 -0.2098
0.2412 -2.7406 -0.2013
0.2679 -2.7248 -0.2062
0.2902 -2.7218 -0.2035
0.3122 -2.7188 -0.2008
0.2978 -2.8440 -0.1191
0.3072 -2.8613 -0.1054
0.3175 -2.8745 -0.0942
0.3286 -2.8846 -0.0850
-0.9816 -3.1964 -0.1850
-0.9603 -3.1871 -0.1867
-0.9369 -3.1790 -0.1871
-0.9049 -3.1763 -0.1818
-0.8984 -3.1573 -0.1938
-0.8747 -3.1491 -0.1942
-0.8354 -3.1522 -0.1831
-0.8139 -3.1429 -0.1848
-0.7964 -3.1303 -0.1898
-0.7746 -3.1209 -0.1915
-0.7496 -3.1141 -0.1906
-0.7329 -3.1000 -0.1969
-0.7014 -3.0993 -0.1902
-0.6780 -3.0912 -0.1906
-0.6632 -3.0740 -0.1995
-0.6339 -3.0722 -0.1941
-0.6092 -3.0655 -0.1932
-0.5817 -3.0624 -0.1891
-0.5585 -3.0544 -0.1896
-0.5353 -3.0463 -0.1900
-0.5111 -3.0398 -0.1891
-0.4898 -3.0287 -0.1922
-0.4665 -3.0206 -0.1926
-0.4424 -3.0141 -0.1917
-0.4219 -3.0006 -0.1967
-0.3978 -2.9941 -0.1958
-0.3529 -2.9730 -0.2006
-0.3263 -2.9739 -0.1939
-0.3059 -2.9567 -0.2015
-0.2794 -2.9595 -0.1934
-0.2327 -2.9452 -0.1930
-0.2099 -2.9354 -0.1947
-0.1883 -2.9159 -0.2037
-0.1631 -2.9238 -0.1923
-0.1399 -2.9177 -0.1914
-0.1171 -2.9051 -0.1951
-0.0941 -2.8916 -0.1995
-0.0509 -2.9683 -0.1351
-0.0308 -2.9696 -0.1296
0.0226 -2.8484 -0.2036
0.0460 -2.8403 -0.2041
0.0678 -2.8411 -0.1986
0.0913 -2.8311 -0.2003
0.1154 -2.8190 -0.2034
0.1364 -2.8201 -0.1979
0.1589 -2.8141 -0.1970
0.1852 -2.7949 -0.2047
0.2078 -2.7889 -0.2038
0.2278 -2.7902 -0.1982
0.2527 -2.7770 -0.2020
0.2746 -2.7722 -0.2004
0.2968 -2.7664 -0.1995
0.3083 -2.7855 -0.1833
0.3088 -2.8270 -0.1537
0.3298 -2.8891 -0.1047
0.3436 -2.8926 -0.0990
0.3612 -2.8884 -0.0980
-0.9463 -3.2204 -0.1871
-0.9078 -3.2217 -0.1768
-0.8877 -3.2129 -0.1786
-0.8732 -3.2006 -0.1843
-0.8490 -3.1940 -0.1834
-0.8357 -3.1802 -0.1905
-0.8114 -3.1736 -0.1896
-0.7923 -3.1634 -0.1927
-0.7665 -3.1581 -0.1904
-0.7440 -3.1503 -0.1908
-0.7200 -3.1438 -0.1899
-0.6976 -3.1360 -0.1903
-0.6751 -3.1283 -0.1907
-0.6514 -3.1219 -0.1898
-0.6237 -3.1196 -0.1848
-0.6041 -3.1092 -0.1879
-0.5782 -3.1057 -0.1843
-0.5550 -3.0995 -0.1834
-0.5296 -3.0962 -0.1797
-0.5098 -3.0857 -0.1828
-0.4908 -3.0736 -0.1873
-0.4714 -3.0614 -0.1918
-0.4482 -3.0552 -0.1908
-0.4243 -3.0505 -0.1885
-0.4006 -3.0460 -0.1862
-0.3822 -3.0304 -0.1934
-0.3551 -3.0339 -0.1843
-0.3344 -3.0231 -0.1875
-0.3135 -3.0122 -0.1906
-0.2898 -3.0095 -0.1869
-0.2683 -3.0002 -0.1887
-0.2470 -2.9891 -0.1918
-0.2259 -2.9763 -0.1963
-0.2018 -2.9790 -0.1886
-0.1798 -2.9713 -0.1890
-0.1584 -2.9584 -0.1935
-0.1363 -2.9507 -0.1939
-0.1143 -2.9394 -0.1970
-0.0918 -2.9409 -0.1906
-0.0502 -2.9889 -0.1448
-0.0305 -2.9885 -0.1403
-0.0052 -2.9256 -0.1812
0.0184 -2.9008 -0.1940
0.0396 -2.8990 -0.1903
0.0615 -2.8914 -0.1907
0.0838 -2.8818 -0.1925
0.1053 -2.8762 -0.1915
0.1297 -2.8586 -0.1988
0.1529 -2.8469 -0.2020
0.1746 -2.8412 -0.2010
0.1948 -2.8397 -0.1973
0.2169 -2.8321 -0.1977
0.2397 -2.8223 -0.1995
0.2634 -2.8104 -0.2027
0.2856 -2.8027 -0.2031
0.2959 -2.8231 -0.1855
0.3184 -2.8134 -0.1872
0.3420 -2.8016 -0.1904
0.3723 -2.7764 -0.2020
0.3797 -2.7977 -0.1843
0.3507 -2.8858 -0.1255
0.3661 -2.8860 -0.1216
-0.9748 -3.2670 -0.1854
-0.9510 -3.2606 -0.1845
-0.9274 -3.2542 -0.1835
-0.9080 -3.2457 -0.1853
-0.8865 -3.2382 -0.1857
-0.8649 -3.2307 -0.1861
-0.8415 -3.2245 -0.1851
-0.8274 -3.2123 -0.1910
-0.7950 -3.2120 -0.1831
-0.7789 -3.2009 -0.1877
-0.7640 -3.1885 -0.1936
-0.7374 -3.1847 -0.1898
-0.7190 -3.1747 -0.1930
-0.6897 -3.1737 -0.1865
-0.6727 -3.1623 -0.1910
-0.6554 -3.1508 -0.1956
-0.6336 -3.1433 -0.1961
-0.6054 -3.1426 -0.1894
-0.5889 -3.1296 -0.1955
-0.5636 -3.1264 -0.1916
-0.5410 -3.1203 -0.1906
-0.5206 -3.1114 -0.1924
-0.5012 -3.1011 -0.1957
-0.4766 -3.0980 -0.1918
-0.4363 -3.0786 -0.1969
-0.4138 -3.0726 -0.1959
-0.3736 -3.0514 -0.2023
-0.3478 -3.0534 -0.1942
-0.3251 -3.0492 -0.1918
-0.3043 -3.0401 -0.1936
-0.2813 -3.0376 -0.1898
-0.2594 -3.0328 -0.1880
-0.2392 -3.0212 -0.1920
-0.2182 -3.0122 -0.1938
-0.1978 -2.9996 -0.1984
-0.1768 -2.9887 -0.2017
-0.1553 -2.9794 -0.2035
-0.1328 -2.9825 -0.1954
-0.1114 -2.9769 -0.1943
-0.0900 -2.9714 -0.1933
-0.0691 -2.9933 -0.1709
-0.0489 -2.9908 -0.1677
-0.0289 -2.9885 -0.1645
-0.0045 -2.9363 -0.1992
0.0179 -2.9212 -0.2053
0.0608 -2.9082 -0.2047
0.1031 -2.8972 -0.2026
0.1230 -2.8957 -0.1987
0.1455 -2.8843 -0.2020
0.1681 -2.8728 -0.2052
0.2076 -2.8683 -0.1988
0.2319 -2.8525 -0.2050
0.2533 -2.8451 -0.2054
0.2713 -2.8462 -0.2000
0.2884 -2.8485 -0.1939
0.3070 -2.8466 -0.1907
0.3395 -2.8836 -0.1535
0.3501 -2.8936 -0.1430
0.3648 -2.8949 -0.1383
-0.9271 -3.2940 -0.1774
-0.9120 -3.2842 -0.1814
-0.8809 -3.2825 -0.1746
-0.8729 -3.2688 -0.1836
-0.8432 -3.2667 -0.1775
-0.8277 -3.2568 -0.1815
-0.8071 -3.2497 -0.1819
-0.7866 -3.2426 -0.1823
-0.7696 -3.2331 -0.1855
-0.7550 -3.2217 -0.1910
-0.7309 -3.2169 -0.1885
-0.7150 -3.2060 -0.1932
-0.6855 -3.2057 -0.1856
-0.6702 -3.1941 -0.1911
-0.6443 -3.1915 -0.1864
-0.6174 -3.1903 -0.1802
-0.6065 -3.1738 -0.1908
-0.5851 -3.1673 -0.1905
-0.5576 -3.1677 -0.1828
-0.5401 -3.1572 -0.1868
-0.5208 -3.1487 -0.1887
-0.5040 -3.1365 -0.1942
-0.4832 -3.1293 -0.1946
-0.4590 -3.1273 -0.1898
-0.4375 -3.1216 -0.1888
-0.4156 -3.1167 -0.1869
-0.3980 -3.1043 -0.1924
-0.3766 -3.0987 -0.1914
-0.3524 -3.0994 -0.1844
-0.3324 -3.0916 -0.1855
-0.3139 -3.0797 -0.1903
-0.2929 -3.0742 -0.1892
-0.2724 -3.0671 -0.1896
-0.2519 -3.0600 -0.1900
-0.2315 -3.0530 -0.1904
-0.2098 -3.0518 -0.1856
-0.1903 -3.0405 -0.1896
-0.1703 -3.0300 -0.1930
-0.1499 -3.0220 -0.1941
-0.1287 -3.0237 -0.1871
-0.1088 -3.0086 -0.1941
-0.0883 -3.0015 -0.1945
-0.0678 -2.9981 -0.1919
-0.0475 -2.9937 -0.1901
-0.0275 -2.9913 -0.1867
-0.0071 -2.9815 -0.1893
0.0138 -2.9698 -0.1934
0.0335 -2.9675 -0.1901
0.0543 -2.9576 -0.1927
0.0758 -2.9447 -0.1975
0.0981 -2.9297 -0.2039
0.1176 -2.9275 -0.2005
0.1362 -2.9274 -0.1957
0.1572 -2.9183 -0.1976
0.1764 -2.9153 -0.1950
0.1989 -2.9020 -0.1998
0.2194 -2.8949 -0.2002
0.2403 -2.8868 -0.2013
0.2565 -2.8902 -0.1942
0.2767 -2.8832 -0.1946
0.2985 -2.8730 -0.1972
0.3095 -2.8854 -0.1841
0.3223 -2.8927 -0.1747
0.3367 -2.8959 -0.1683
0.3477 -2.9048 -0.1582
0.3641 -2.9027 -0.1555
-0.9126 -3.3049 -0.1896
-0.8881 -3.3001 -0.1869
-0.8702 -3.2920 -0.1888
-0.8450 -3.2878 -0.1854
-0.8250 -3.2809 -0.1858
-0.8099 -3.2712 -0.1899
-0.7870 -3.2659 -0.1881
-0.7624 -3.2619 -0.1847
-0.7443 -3.2538 -0.1865
-0.7270 -3.2451 -0.1892
-0.7095 -3.2364 -0.1918
-0.6870 -3.2313 -0.1899
-0.6615 -3.2287 -0.1850
-0.6492 -3.2155 -0.1929
-0.6277 -3.2098 -0.1918
-0.6091 -3.2016 -0.1937
-0.5890 -3.1946 -0.1940
-0.5650 -3.1917 -0.1899
-0.5438 -3.1862 -0.1887
-0.5210 -3.1827 -0.1853
-0.5041 -3.1724 -0.1895
-0.4853 -3.1641 -0.1914
-0.4633 -3.1600 -0.1887
-0.4435 -3.1532 -0.1891
-0.4056 -3.1365 -0.1928
-0.3869 -3.1273 -0.1955
-0.3661 -3.1219 -0.1943
-0.3505 -3.1057 -0.2038
-0.3053 -3.1035 -0.1932
-0.2871 -3.0918 -0.1981
-0.2643 -3.0938 -0.1901
-0.2248 -3.0801 -0.1908
-0.2054 -3.0716 -0.1927
-0.1864 -3.0605 -0.1969
-0.1659 -3.0579 -0.1934
-0.1463 -3.0484 -0.1961
-0.1267 -3.0389 -0.1988
-0.1064 -3.0391 -0.1930
-0.0867 -3.0278 -0.1972
-0.0668 -3.0164 -0.2014
-0.0273 -3.0099 -0.1960
-0.0070 -2.9984 -0.2002
0.0129 -2.9915 -0.2006
0.0325 -2.9865 -0.1994
0.0527 -2.9777 -0.2013
0.0727 -2.9708 -0.2017
0.0921 -2.9658 -0.2005
0.1120 -2.9589 -0.2009
0.1319 -2.9520 -0.2013
0.1502 -2.9502 -0.1978
0.1706 -2.9413 -0.1997
0.1922 -2.9293 -0.2039
0.2122 -2.9224 -0.2043
0.2333 -2.9124 -0.2070
0.2511 -2.9107 -0.2035
0.2696 -2.9070 -0.2015
0.2919 -2.8948 -0.2058
0.3175 -2.9093 -0.1863
0.3299 -2.9158 -0.1773
0.3453 -2.9158 -0.1730
0.3615 -2.9138 -0.1702
-0.3811 -4.6519 -0.1851
-0.3624 -4.6463 -0.1862
-0.3428 -4.6388 -0.1858
-0.3236 -4.6322 -0.1862
-0.3033 -4.6227 -0.1842
-0.2835 -4.6142 -0.1830
-0.2652 -4.6096 -0.1849
-0.2455 -4.6012 -0.1837
-0.2262 -4.5937 -0.1833
-0.2080 -4.5901 -0.1859
-0.1892 -4.5845 -0.1870
-0.1707 -4.5808 -0.1897
-0.1516 -4.5742 -0.1901
-0.1319 -4.5649 -0.1881
-0.1128 -4.5584 -0.1884
-0.0931 -4.5465 -0.1841
-0.0743 -4.5418 -0.1860
-0.0552 -4.5335 -0.1848
-0.0364 -4.5288 -0.1867
-0.0174 -4.5197 -0.1847
0.0016 -4.5158 -0.1874
0.0206 -4.5101 -0.1885
0.0393 -4.5003 -0.1857
0.0583 -4.4946 -0.1869
0.0775 -4.4898 -0.1888
0.0962 -4.4817 -0.1875
0.1155 -4.4768 -0.1894
0.1340 -4.4687 -0.1882
0.1523 -4.4599 -0.1862
0.1724 -4.4573 -0.1905
0.1917 -4.4516 -0.1916
0.2098 -4.4428 -0.1896
0.2294 -4.4378 -0.1915
0.2476 -4.4299 -0.1903
0.2662 -4.4227 -0.1898
0.2851 -4.4162 -0.1902
0.3026 -4.4076 -0.1882
0.3219 -4.4019 -0.1893
0.3403 -4.3947 -0.1889
0.3596 -4.3890 -0.1900
0.3768 -4.3805 -0.1880
0.3973 -4.3761 -0.1907
0.4162 -4.3696 -0.1910
0.4344 -4.3625 -0.1906
0.4519 -4.3548 -0.1893
0.4720 -4.3496 -0.1912
0.4930 -4.3451 -0.1939
0.5148 -4.3410 -0.1974
0.5339 -4.3345 -0.1978
0.5521 -4.3274 -0.1973
0.5645 -4.3163 -0.1913
0.5824 -4.3093 -0.1909
0.6038 -4.3046 -0.1936
0.6235 -4.2987 -0.1947
0.6424 -4.2922 -0.1951
0.6612 -4.2858 -0.1954
0.6791 -4.2788 -0.1950
0.6949 -4.2708 -0.1929
0.7147 -4.2649 -0.1941
0.7271 -4.2555 -0.1896
0.7544 -4.2530 -0.1963
0.7765 -4.2480 -0.1991
0.7932 -4.2406 -0.1978
0.8109 -4.2337 -0.1974
-0.4169 -4.7014 -0.1920
-0.3744 -4.6825 -0.1890
-0.3522 -4.6706 -0.1857
-0.3340 -4.6678 -0.1890
-0.3145 -4.6620 -0.1901
-0.2927 -4.6502 -0.1868
-0.1336 -4.5932 -0.1874
0.0041 -4.5313 -0.1771
0.0233 -4.5230 -0.1760
0.0427 -4.5181 -0.1778
0.0621 -4.5123 -0.1789
0.0814 -4.5057 -0.1793
0.1006 -4.4983 -0.1789
0.1195 -4.4901 -0.1777
0.1778 -4.4719 -0.1803
0.1974 -4.4660 -0.1814
0.2173 -4.4609 -0.1832
0.2360 -4.4528 -0.1821
0.2565 -4.4484 -0.1847
0.2747 -4.4396 -0.1828
0.2940 -4.4330 -0.1831
0.3120 -4.4242 -0.1812
0.3322 -4.4191 -0.1831
0.3515 -4.4124 -0.1834
0.3708 -4.4058 -0.1838
0.3889 -4.3979 -0.1826
0.4082 -4.3913 -0.1829
0.4274 -4.3847 -0.1833
0.4467 -4.3781 -0.1836
0.4659 -4.3715 -0.1840
0.4852 -4.3650 -0.1843
0.5044 -4.3584 -0.1847
0.5251 -4.3530 -0.1866
0.5444 -4.3464 -0.1869
0.5637 -4.3398 -0.1872
0.5830 -4.3332 -0.1876
0.6006 -4.3254 -0.1864
0.6190 -4.3183 -0.1860
0.6409 -4.3134 -0.1886
0.6602 -4.3068 -0.1890
0.6776 -4.2991 -0.1878
0.6969 -4.2925 -0.1882
0.7131 -4.2844 -0.1862
0.7354 -4.2793 -0.1888
0.7771 -4.2677 -0.1919
0.7931 -4.2596 -0.1899
0.8123 -4.2530 -0.1902
-0.4240 -4.7259 -0.1845
-0.4035 -4.7189 -0.1849
-0.3829 -4.7118 -0.1852
-0.3623 -4.7048 -0.1856
-0.3418 -4.6978 -0.1860
-0.3196 -4.6867 -0.1835
-0.2992 -4.6797 -0.1838
-0.2787 -4.6727 -0.1842
-0.2583 -4.6657 -0.1846
-0.2384 -4.6606 -0.1864
-0.2184 -4.6555 -0.1882
-0.1981 -4.6495 -0.1893
-0.1775 -4.6424 -0.1897
-0.1560 -4.6307 -0.1864
-0.1351 -4.6209 -0.1846
-0.1148 -4.6149 -0.1857
-0.0939 -4.6033 -0.1825
-0.0734 -4.5937 -0.1807
-0.0535 -4.5912 -0.1847
-0.0331 -4.5843 -0.1850
-0.0128 -4.5773 -0.1854
0.0076 -4.5721 -0.1872
0.0280 -4.5660 -0.1883
0.0486 -4.5607 -0.1901
0.0688 -4.5520 -0.1890
0.0888 -4.5425 -0.1872
0.1088 -4.5339 -0.1862
0.1295 -4.5286 -0.1880
0.1498 -4.5217 -0.1883
0.1694 -4.5123 -0.1865
0.1899 -4.5062 -0.1876
0.2087 -4.4954 -0.1843
0.2302 -4.4916 -0.1876
0.2521 -4.4884 -0.1916
0.2729 -4.4822 -0.1927
0.2929 -4.4745 -0.1924
0.3124 -4.4660 -0.1913
0.3328 -4.4591 -0.1916
0.3521 -4.4507 -0.1906
0.3734 -4.4452 -0.1924
0.3937 -4.4382 -0.1927
0.4152 -4.4326 -0.1946
0.4344 -4.4243 -0.1935
0.4529 -4.4153 -0.1916
0.4738 -4.4091 -0.1927
0.4934 -4.4015 -0.1924
0.5136 -4.3946 -0.1927
0.5346 -4.3883 -0.1938
0.5526 -4.3795 -0.1920
0.5767 -4.3756 -0.1961
0.5946 -4.3669 -0.1942
0.6132 -4.3587 -0.1931
0.6317 -4.3507 -0.1920
0.6492 -4.3420 -0.1901
0.6702 -4.3357 -0.1912
0.6940 -4.3311 -0.1946
0.7142 -4.3242 -0.1949
0.7363 -4.3184 -0.1968
0.7526 -4.3093 -0.1942
0.7644 -4.2982 -0.1886
0.7907 -4.2945 -0.1934
0.8152 -4.2896 -0.1967
0.8331 -4.2817 -0.1956
0.8555 -4.2758 -0.1975
0.8757 -4.2689 -0.1978
-0.3950 -4.7499 -0.1857
-0.3736 -4.7425 -0.1861
-0.3531 -4.7373 -0.1878
-0.3316 -4.7300 -0.1882
-0.3095 -4.7206 -0.1872
-0.2467 -4.7036 -0.1918
-0.2257 -4.6981 -0.1936
-0.2042 -4.6908 -0.1940
0.2396 -4.5142 -0.1825
0.2594 -4.5047 -0.1808
0.2786 -4.4946 -0.1784
0.3207 -4.4820 -0.1805
0.3437 -4.4785 -0.1844
0.3655 -4.4728 -0.1862
0.3864 -4.4657 -0.1866
0.4057 -4.4564 -0.1848
0.4265 -4.4493 -0.1852
0.4473 -4.4422 -0.1856
0.4656 -4.4324 -0.1831
0.4876 -4.4266 -0.1849
0.5083 -4.4195 -0.1853
0.5277 -4.4111 -0.1843
0.5498 -4.4053 -0.1860
0.5691 -4.3970 -0.1850
0.5882 -4.3887 -0.1840
0.6065 -4.3798 -0.1822
0.6279 -4.3733 -0.1833
0.6485 -4.3663 -0.1837
0.6726 -4.3616 -0.1869
0.6915 -4.3533 -0.1858
0.7140 -4.3474 -0.1876
0.7327 -4.3392 -0.1866
0.7573 -4.3343 -0.1898
0.7740 -4.3251 -0.1873
0.7926 -4.3170 -0.1863
0.8132 -4.3099 -0.1866
0.8381 -4.3049 -0.1899
0.8566 -4.2968 -0.1888
0.8795 -4.2908 -0.1906
-0.4032 -4.7799 -0.1792
-0.3813 -4.7724 -0.1796
-0.3617 -4.7711 -0.1840
-0.2966 -4.7524 -0.1878
-0.2738 -4.7428 -0.1869
-0.2504 -4.7312 -0.1846
-0.2289 -4.7256 -0.1864
-0.2054 -4.7122 -0.1828
-0.1834 -4.7047 -0.1832
-0.1617 -4.6991 -0.1849
-0.1391 -4.6878 -0.1826
-0.1174 -4.6821 -0.1844
-0.0952 -4.6728 -0.1834
-0.0734 -4.6671 -0.1851
-0.0295 -4.6538 -0.1873
-0.0074 -4.6463 -0.1877
0.0143 -4.6317 -0.1827
0.0363 -4.6260 -0.1845
0.0580 -4.6168 -0.1835
0.0802 -4.6127 -0.1866
0.1019 -4.6035 -0.1856
0.1245 -4.5994 -0.1887
0.1680 -4.5827 -0.1882
0.1899 -4.5752 -0.1886
0.2124 -4.5693 -0.1903
0.2332 -4.5586 -0.1880
0.2538 -4.5480 -0.1857
0.2755 -4.5405 -0.1861
0.2973 -4.5331 -0.1865
0.3207 -4.5286 -0.1896
0.3417 -4.5197 -0.1886
0.3636 -4.5122 -0.1890
0.3854 -4.5047 -0.1894
0.4093 -4.5001 -0.1925
0.4312 -4.4926 -0.1929
0.4531 -4.4851 -0.1933
0.4751 -4.4776 -0.1937
0.4958 -4.4687 -0.1928
0.5177 -4.4613 -0.1931
0.5395 -4.4538 -0.1935
0.5614 -4.4463 -0.1939
0.5847 -4.4401 -0.1957
0.6067 -4.4326 -0.1961
0.6286 -4.4251 -0.1965
0.6506 -4.4176 -0.1969
0.6708 -4.4088 -0.1959
0.6910 -4.4002 -0.1949
0.7093 -4.3903 -0.1926
0.7328 -4.3841 -0.1944
0.7565 -4.3777 -0.1961
0.7783 -4.3703 -0.1965
0.7922 -4.3584 -0.1914
0.8139 -4.3510 -0.1918
0.8355 -4.3436 -0.1922
0.8614 -4.3383 -0.1953
0.8809 -4.3298 -0.1944
0.9093 -4.3255 -0.1989
0.9334 -4.3190 -0.2007
-0.3553 -4.8191 -0.1924
-0.3319 -4.8111 -0.1928
-0.3079 -4.8011 -0.1920
-0.2818 -4.7840 -0.1867
-0.2587 -4.7761 -0.1871
-0.2370 -4.7741 -0.1913
-0.2129 -4.7623 -0.1892
-0.1897 -4.7543 -0.1896
-0.1657 -4.7416 -0.1868
0.1748 -4.6044 -0.1782
0.1962 -4.5935 -0.1760
0.2177 -4.5834 -0.1745
0.3767 -4.5353 -0.1819
0.3947 -4.5210 -0.1764
0.4179 -4.5149 -0.1781
0.4418 -4.5094 -0.1805
0.4641 -4.5018 -0.1809
0.4865 -4.4941 -0.1813
0.5088 -4.4865 -0.1817
0.5311 -4.4788 -0.1821
0.5535 -4.4712 -0.1825
0.6325 -4.4586 -0.1942
0.8030 -4.3894 -0.1896
0.8086 -4.3722 -0.1787
0.8163 -4.3569 -0.1699
0.8400 -4.3506 -0.1716
0.9173 -4.3521 -0.1929
0.9398 -4.3444 -0.1933
0.9600 -4.3357 -0.1924
-0.3384 -4.8443 -0.1849
-0.3127 -4.8310 -0.1823
-0.2908 -4.8299 -0.1870
-0.2675 -4.8246 -0.1893
-0.2433 -4.8163 -0.1897
-0.2173 -4.8001 -0.1853
-0.1933 -4.7919 -0.1857
-0.1698 -4.7866 -0.1880
-0.1445 -4.7707 -0.1835
-0.1204 -4.7606 -0.1827
-0.0968 -4.7544 -0.1844
-0.0728 -4.7443 -0.1836
-0.0487 -4.7297 -0.1797
0.0224 -4.7072 -0.1822
0.0461 -4.6991 -0.1826
0.0698 -4.6910 -0.1831
0.0943 -4.6890 -0.1878
0.1172 -4.6748 -0.1839
0.1405 -4.6650 -0.1831
0.1646 -4.6586 -0.1848
0.1883 -4.6505 -0.1852
0.2127 -4.6448 -0.1875
0.2365 -4.6367 -0.1879
0.2603 -4.6285 -0.1883
0.2841 -4.6204 -0.1888
0.3079 -4.6123 -0.1892
0.3316 -4.6041 -0.1896
0.3554 -4.5960 -0.1901
0.3801 -4.5894 -0.1917
0.4039 -4.5812 -0.1922
0.4253 -4.5694 -0.1895
0.4479 -4.5598 -0.1887
0.4727 -4.5531 -0.1903
0.4964 -4.5450 -0.1908
0.5189 -4.5355 -0.1899
0.5413 -4.5260 -0.1891
0.5662 -4.5193 -0.1908
0.5912 -4.5126 -0.1925
0.6170 -4.5065 -0.1948
0.6386 -4.4964 -0.1933
0.6623 -4.4883 -0.1938
0.6844 -4.4789 -0.1929
0.7065 -4.4695 -0.1921
0.7300 -4.4614 -0.1925
0.7571 -4.4558 -0.1955
0.7835 -4.4495 -0.1978
0.8045 -4.4396 -0.1963
0.8263 -4.4303 -0.1955
0.8548 -4.4251 -0.1991
0.8371 -4.3730 -0.1594
0.8613 -4.3665 -0.1610
0.9627 -4.3791 -0.1949
0.9896 -4.3726 -0.1972
1.0132 -4.3646 -0.1976
1.0333 -4.3550 -0.1961
-0.3542 -4.9059 -0.1913
-0.3316 -4.9064 -0.1970
-0.3050 -4.8946 -0.1958
-0.2785 -4.8828 -0.1945
-0.2510 -4.8660 -0.1903
-0.2228 -4.8444 -0.1831
-0.1477 -4.8188 -0.1845
-0.1227 -4.8102 -0.1849
0.5450 -4.5698 -0.1893
0.5678 -4.5592 -0.1880
0.5891 -4.5474 -0.1854
0.6122 -4.5376 -0.1847
0.6647 -4.5242 -0.1886
0.7099 -4.5042 -0.1864
0.7343 -4.4959 -0.1869
0.8732 -4.3777 -0.1440
0.9995 -4.4023 -0.1899
1.0216 -4.3930 -0.1891
1.0459 -4.3846 -0.1895
1.0702 -4.3763 -0.1900
-0.3338 -4.9301 -0.1798
-0.3094 -4.9273 -0.1837
-0.2839 -4.9213 -0.1858
-0.2568 -4.9093 -0.1846
-0.2292 -4.8943 -0.1817
-0.2036 -4.8883 -0.1839
-0.1773 -4.8793 -0.1844
-0.1507 -4.8675 -0.1832
-0.1249 -4.8614 -0.1853
0.1102 -4.7736 -0.1851
0.1362 -4.7646 -0.1855
0.1628 -4.7583 -0.1877
0.1882 -4.7468 -0.1865
0.2136 -4.7354 -0.1852
0.2387 -4.7240 -0.1840
0.2646 -4.7152 -0.1845
0.2933 -4.7137 -0.1900
0.3201 -4.7064 -0.1917
0.3462 -4.6974 -0.1921
0.3680 -4.6798 -0.1863
0.3952 -4.6733 -0.1885
0.4224 -4.6667 -0.1907
0.4485 -4.6578 -0.1912
0.4745 -4.6489 -0.1916
0.5005 -4.6400 -0.1921
0.5265 -4.6311 -0.1926
0.5508 -4.6200 -0.1913
0.5749 -4.6090 -0.1901
0.6027 -4.6023 -0.1923
0.6286 -4.5934 -0.1927
0.6566 -4.5866 -0.1949
0.6784 -4.5736 -0.1919
0.7043 -4.5647 -0.1924
0.7278 -4.5539 -0.1912
0.7536 -4.5451 -0.1916
0.7843 -4.5401 -0.1955
0.8128 -4.5331 -0.1977
0.8362 -4.5224 -0.1965
0.8621 -4.5135 -0.1970
0.8881 -4.5046 -0.1974
0.9112 -4.4939 -0.1962
0.9341 -4.4833 -0.1949
0.9439 -4.4651 -0.1861
-0.3261 -5.0048 -0.1930
-0.2988 -4.9983 -0.1951
-0.2699 -4.9856 -0.1940
-0.2397 -4.9659 -0.1892
-0.2118 -4.9564 -0.1897
-0.1831 -4.9409 -0.1870
-0.1558 -4.9344 -0.1891
-0.1283 -4.9278 -0.1912
0.5472 -4.6621 -0.1836
0.5671 -4.6441 -0.1776
0.5900 -4.6306 -0.1748
0.6202 -4.6259 -0.1785
0.6546 -4.6253 -0.1856
0.7084 -4.6069 -0.1865
0.7621 -4.5886 -0.1875
1.0645 -4.4244 -0.1582
-0.3229 -5.0126 -0.1645
-0.3000 -5.0236 -0.1751
-0.2730 -5.0209 -0.1791
-0.2179 -5.0153 -0.1872
-0.1578 -4.9815 -0.1812
-0.1293 -4.9746 -0.1833
0.1867 -4.8570 -0.1839
0.2153 -4.8472 -0.1844
0.2440 -4.8374 -0.1849
0.2726 -4.8276 -0.1854
0.3024 -4.8212 -0.1880
0.3311 -4.8114 -0.1885
0.3599 -4.8015 -0.1890
0.3871 -4.7884 -0.1875
0.4157 -4.7787 -0.1880
0.4444 -4.7689 -0.1885
0.4730 -4.7591 -0.1890
0.5016 -4.7493 -0.1896
0.5303 -4.7395 -0.1901
0.5573 -4.7274 -0.1890
0.5836 -4.7146 -0.1875
0.5788 -4.6625 -0.1584
0.5893 -4.6335 -0.1449
0.6232 -4.6332 -0.1516
0.6822 -4.6592 -0.1776
0.7259 -4.6659 -0.1901
0.7500 -4.6520 -0.1874
0.7783 -4.6423 -0.1880
0.8143 -4.6395 -0.1937
0.8452 -4.6317 -0.1958
0.8714 -4.6199 -0.1947
0.8965 -4.6075 -0.1931
0.9224 -4.5959 -0.1921
0.9480 -4.5843 -0.1910
0.9634 -4.5658 -0.1842
0.9657 -4.4887 -0.1431
0.9390 -4.4281 -0.1050
0.9574 -4.4171 -0.1027
1.1437 -4.4467 -0.1564
-0.2275 -5.0962 -0.1921
-0.1958 -5.0815 -0.1907
0.2945 -4.8948 -0.1900
0.3566 -4.8773 -0.1930
0.3872 -4.8668 -0.1936
0.4132 -4.8465 -0.1882
0.4391 -4.8272 -0.1834
0.4724 -4.8234 -0.1879
0.5076 -4.8218 -0.1938
0.5361 -4.8083 -0.1924
0.5629 -4.7924 -0.1895
0.5867 -4.7729 -0.1842
0.6126 -4.7574 -0.1813
0.6341 -4.7367 -0.1749
0.6377 -4.6537 -0.1336
0.7166 -4.7009 -0.1725
0.7561 -4.7016 -0.1805
0.7827 -4.6887 -0.1790
0.8038 -4.6710 -0.1741
0.8445 -4.6714 -0.1821
0.8795 -4.6660 -0.1861
0.9248 -4.6686 -0.1960
1.0508 -4.6008 -0.1858
0.9948 -4.5116 -0.1299
1.0120 -4.4971 -0.1259
0.3787 -4.9340 -0.1883
0.4093 -4.9197 -0.1870
0.4397 -4.9054 -0.1857
0.4696 -4.8904 -0.1840
0.4996 -4.8763 -0.1827
0.5330 -4.8687 -0.1851
0.5647 -4.8579 -0.1857
0.5990 -4.8509 -0.1886
0.6330 -4.8432 -0.1910
0.6576 -4.8223 -0.1856
0.6821 -4.8024 -0.1806
0.6753 -4.7453 -0.1522
0.6426 -4.6634 -0.1076
0.8157 -4.7682 -0.1884
0.8502 -4.7602 -0.1909
0.8789 -4.7465 -0.1896
0.9105 -4.7357 -0.1901
0.9453 -4.7277 -0.1926
0.9770 -4.7168 -0.1932
1.0053 -4.7033 -0.1919
1.0405 -4.6951 -0.1943
1.0649 -4.6791 -0.1911
1.0703 -4.6504 -0.1785
0.9857 -4.5115 -0.0974
-0.1416 -5.2353 -0.1964
-0.0709 -5.2014 -0.1934
-0.0361 -5.1992 -0.1983
0.4158 -5.0300 -0.2000
0.4505 -5.0181 -0.2006
0.4796 -4.9937 -0.1947
0.5062 -4.9662 -0.1871
0.5357 -4.9465 -0.1833
0.5739 -4.9431 -0.1883
0.6077 -4.9315 -0.1889
0.6467 -4.9278 -0.1939
0.7739 -4.8698 -0.1898
0.8950 -4.8100 -0.1838
0.9387 -4.8085 -0.1906
0.9692 -4.7942 -0.1895
1.0776 -4.4748 -0.0665
-0.1415 -5.2882 -0.1779
0.4353 -5.0801 -0.1839
0.4713 -5.0678 -0.1846
0.5011 -5.0420 -0.1787
0.5387 -5.0340 -0.1814
0.5723 -5.0177 -0.1800
0.6129 -5.0145 -0.1851
0.6512 -5.0063 -0.1878
0.6846 -4.9900 -0.1864
0.7205 -4.9777 -0.1870
0.7563 -4.9654 -0.1877
0.7886 -4.9485 -0.1859
0.8243 -4.9363 -0.1865
0.7339 -4.7332 -0.0886
0.8824 -4.8482 -0.1595
0.9482 -4.8685 -0.1783
1.0028 -4.8752 -0.1897
1.0432 -4.8673 -0.1929
1.0702 -4.8473 -0.1890
1.0924 -4.8241 -0.1829
1.2585 -4.7575 -0.1819
1.3300 -4.7691 -0.1981
1.3598 -4.7531 -0.1962
1.3902 -4.7378 -0.1947
1.0963 -4.5135 -0.0559
1.2272 -4.5107 -0.0755
0.5201 -5.1844 -0.1953
0.5377 -5.1233 -0.1746
0.5659 -5.0910 -0.1665
0.6031 -5.0783 -0.1672
0.6347 -5.0557 -0.1633
0.7006 -5.0912 -0.1866
0.7421 -5.0829 -0.1896
0.7845 -5.0753 -0.1929
0.8233 -5.0620 -0.1936
0.8507 -5.0339 -0.1870
0.8664 -4.9931 -0.1738
0.9302 -4.8562 -0.1312
1.0401 -4.9170 -0.1706
1.0731 -4.9008 -0.1693
0.9272 -4.6585 -0.0555
0.9410 -4.6371 -0.0494
0.9850 -4.6387 -0.0566
1.4209 -4.7985 -0.1820
1.1678 -4.5339 -0.0438
1.2140 -4.5338 -0.0506
-0.3587 -4.9935 0.0370
-0.3363 -4.9968 0.0328
-0.1099 -5.5215 -0.1822
0.5515 -5.2595 -0.1817
0.5739 -5.2042 -0.1654
0.6339 -5.2313 -0.1832
0.6596 -5.1877 -0.1715
0.6262 -5.0434 -0.1163
0.6901 -5.0771 -0.1369
0.7533 -5.1041 -0.1551
0.8207 -5.1326 -0.1744
0.8731 -5.1355 -0.1826
0.8971 -5.0995 -0.1733
0.9052 -5.0462 -0.1557
0.7727 -4.7423 -0.0310
0.9521 -4.6839 -0.0353
1.4382 -4.9352 -0.1904
1.4653 -4.9121 -0.1860
1.2165 -4.6192 -0.0491
1.1950 -4.5800 -0.0324
1.1969 -4.5555 -0.0241
1.2218 -4.5440 -0.0235
1.2737 -4.5461 -0.0314
-0.3540 -4.9951 0.0648
-0.1416 -5.4746 -0.1161
-0.1036 -5.5036 -0.1302
-0.0213 -5.7135 -0.2080
0.0259 -5.6793 -0.2031
0.0722 -5.6445 -0.1979
0.7377 -5.3387 -0.1849
0.6350 -4.9888 -0.0595
0.6721 -4.9811 -0.0618
0.7469 -4.9075 -0.0478
0.7714 -4.8851 -0.0437
0.7985 -4.8668 -0.0413
0.7882 -4.8073 -0.0209
0.7966 -4.7724 -0.0108
0.8246 -4.7598 -0.0103
0.0804 -5.7128 -0.1670
0.7066 -5.4986 -0.1783
0.6842 -5.3378 -0.1288
0.8164 -5.4913 -0.1891
0.9427 -5.4087 -0.1800
0.7587 -4.8736 -0.0023
0.7798 -4.8492 0.0023
0.8054 -4.8314 0.0045
0.8342 -4.8175 0.0051
0.8568 -4.7976 0.0083
0.8758 -4.7750 0.0126
0.9485 -4.8036 -0.0043
1.0175 -4.8254 -0.0187
1.5910 -5.2161 -0.2002
1.5473 -5.1272 -0.1691
1.2049 -4.5474 0.0402
1.2327 -4.5379 0.0397
-0.3391 -4.9787 0.1241
-0.3250 -5.0095 0.1145
0.0421 -5.8906 -0.1567
0.5031 -5.9210 -0.2144
0.5600 -5.9015 -0.2154
0.8661 -5.4795 -0.1376
0.9616 -5.2739 -0.0939
0.9686 -5.1414 -0.0599
0.8789 -4.8253 0.0329
1.4780 -5.0332 -0.0864
1.3767 -4.9143 -0.0442
1.2065 -4.5790 0.0622
1.2011 -4.5514 0.0701
-0.3406 -5.0004 0.1464
-0.3292 -5.0427 0.1354
-0.3043 -5.0403 0.1335
-0.2846 -5.0612 0.1266
0.0515 -6.0134 -0.1297
0.1143 -6.1283 -0.1628
0.8752 -5.6096 -0.1159
0.8668 -5.4843 -0.0857
1.0550 -5.2559 -0.0507
0.8952 -4.8472 0.0609
1.4740 -5.1371 -0.0640
1.9593 -5.3473 -0.1610
1.9323 -5.2715 -0.1406
1.9957 -5.2610 -0.1444
2.2885 -5.3987 -0.2054
2.1265 -5.2409 -0.1525
2.2733 -5.2788 -0.1758
-0.3607 -4.9409 0.1879
-0.3466 -4.9629 0.1821
-0.3243 -5.0432 0.1635
-0.3080 -5.0748 0.1556
-0.2881 -5.0979 0.1490
-0.2718 -5.1461 0.1376
-0.2338 -5.2571 0.1113
0.1218 -6.1586 -0.1066
0.1971 -6.3261 -0.1479
0.2839 -6.5041 -0.1924
0.3557 -6.5002 -0.1980
0.4321 -6.5164 -0.2081
0.7550 -6.3026 -0.1926
1.0426 -6.2445 -0.2061
0.9470 -5.7501 -0.0954
0.8344 -5.3360 0.0002
0.8574 -5.2878 0.0081
1.0812 -5.2949 -0.0133
1.1096 -5.2594 -0.0085
1.6052 -5.3761 -0.0766
2.3511 -5.7182 -0.2135
2.0076 -5.2270 -0.0815
2.0473 -5.2021 -0.0799
1.1816 -4.5527 0.1312
1.2050 -4.5415 0.1314
-0.3588 -4.9497 0.2113
-0.3414 -4.9614 0.2079
-0.2841 -5.1023 0.1781
-0.2759 -5.1911 0.1615
-0.2535 -5.2251 0.1536
-0.2324 -5.2804 0.1420
-0.2106 -5.3532 0.1272
-0.1807 -5.3878 0.1187
-0.1486 -5.4226 0.1099
0.3884 -6.6901 -0.1601
0.5859 -6.5079 -0.1431
1.0056 -6.5518 -0.1843
1.1287 -6.4368 -0.1734
0.9908 -5.3307 0.0358
1.0573 -5.3444 0.0281
1.5793 -5.7398 -0.0842
1.2480 -4.5947 0.1474
1.1829 -4.5357 0.1631
1.2019 -4.5230 0.1639
-0.2778 -5.0953 0.2085
-0.2452 -5.2070 0.1892
-0.2310 -5.3051 0.1733
-0.2031 -5.3354 0.1667
-0.1746 -5.3792 0.1580
-0.1156 -5.5638 0.1257
-0.0783 -5.6518 0.1097
0.5188 -6.9586 -0.1313
0.5787 -6.8257 -0.1153
1.2604 -6.9537 -0.1827
1.4091 -5.7257 -0.0060
0.7626 -4.6521 0.2030
0.7814 -4.6373 0.2039
0.8728 -4.6239 0.1996
2.2807 -5.6185 -0.0508
-0.3756 -4.9089 0.2672
-0.3605 -4.9217 0.2646
-0.3479 -4.9449 0.2609
-0.3419 -4.9947 0.2543
-0.3266 -5.0191 0.2503
-0.3095 -5.0418 0.2464
-0.2803 -5.1292 0.2336
-0.2410 -5.2110 0.2209
-0.2243 -5.2942 0.2094
-0.1985 -5.3394 0.2022
-0.1725 -5.4077 0.1920
1.0308 -5.3198 0.1295
0.7079 -4.6355 0.2353
-0.3133 -5.0758 0.2703
-0.2730 -5.1175 0.2640
-0.2413 -5.2421 0.2499
-0.2155 -5.2685 0.2460
-0.1877 -5.2920 0.2422
0.2209 -6.3458 0.1157
0.5576 -7.1181 0.0211
0.5710 -6.7465 0.0574
1.0307 -7.4639 -0.0381
0.6949 -4.6263 0.2625
1.1713 -4.5465 0.2456
-0.3062 -5.0667 0.2982
-0.2691 -5.1217 0.2925
-0.2543 -5.1822 0.2874
-0.2326 -5.2188 0.2837
0.2384 -6.4680 0.1707
1.0416 -7.4907 0.0601
1.6660 -5.0465 0.2141
-0.3657 -4.9197 0.3343
-0.3360 -5.0233 0.3283
-0.3190 -5.0435 0.3267
-0.2698 -5.1480 0.3199
-0.2518 -5.1949 0.3170
-0.2299 -5.2318 0.3144
0.2219 -6.2515 0.2489
0.6938 -7.2924 0.1818
1.1658 -7.9000 0.1357
1.1748 -7.5622 0.1519
0.7317 -4.9829 0.2931
0.6673 -4.6724 0.3105
1.8796 -5.1535 0.2449
2.0411 -5.2109 0.2365
1.8858 -5.0690 0.2488
-0.2865 -5.1276 0.3496
-0.2698 -5.1721 0.3481
-0.2477 -5.1984 0.3469
-0.2272 -5.2449 0.3453
0.2611 -6.5809 0.3006
1.1373 -7.7929 0.2487
0.7993 -5.1502 0.3206
0.6714 -4.7180 0.3343
0.6574 -4.6649 0.3359
0.6683 -4.6426 0.3362
2.1633 -5.2991 0.2813
-0.3413 -4.9988 0.3783
-0.2988 -5.0943 0.3776
-0.2650 -5.1718 0.3771
-0.2237 -5.2533 0.3764
0.2335 -6.2682 0.3689
0.6790 -8.2979 0.3623
1.2497 -8.1598 0.3520
0.6676 -4.6800 0.3601
2.1239 -5.2353 0.3345
-0.2602 -5.1713 0.4056
-0.2368 -5.1899 0.4059
-0.2188 -5.2525 0.4072
0.2505 -6.3806 0.4308
0.3812 -6.8789 0.4419
0.7185 -8.4967 0.4788
1.1474 -7.8058 0.4576
0.7403 -5.0063 0.3919
1.5173 -5.2546 0.3907
1.5694 -5.2456 0.3900
2.2264 -5.3610 0.3865
2.1409 -5.2562 0.3848
-0.3310 -4.9945 0.4253
-0.3193 -5.0296 0.4270
-0.3043 -5.0579 0.4284
-0.2890 -5.0918 0.4300
-0.2764 -5.1467 0.4326
-0.2548 -5.1672 0.4336
-0.2140 -5.2515 0.4377
-0.1938 -5.3216 0.4410
-0.1727 -5.4171 0.4457
-0.1435 -5.4707 0.4482
0.1921 -6.3685 0.4914
0.2485 -6.3168 0.4888
0.3533 -6.6326 0.5040
0.7508 -8.6480 0.6015
1.0962 -7.6244 0.5512
1.5316 -5.3921 0.4420
1.5545 -5.3530 0.4401
1.5851 -5.3225 0.4386
1.3441 -5.0175 0.4241
1.3814 -5.0047 0.4234
-0.3291 -5.0034 0.4490
-0.3160 -5.0338 0.4513
-0.2924 -5.1270 0.4582
-0.2766 -5.1699 0.4614
-0.2547 -5.1917 0.4631
-0.1908 -5.3351 0.4739
-0.1682 -5.4208 0.4802
-0.1389 -5.4749 0.4843
0.1988 -6.3850 0.5522
0.2587 -6.3645 0.5511
-0.3629 -4.9339 0.4649
-0.3525 -4.9610 0.4676
-0.2789 -5.0865 0.4806
-0.2553 -5.2200 0.4937
-0.2099 -5.2872 0.5008
-0.1884 -5.3546 0.5075
-0.1622 -5.4080 0.5130
-0.1368 -5.5103 0.5231
0.2027 -6.3697 0.6098
0.2600 -6.3331 0.6072
0.3961 -6.8678 0.6601
0.7907 -5.1556 0.5028
1.0463 -4.9367 0.4856
1.0753 -4.9222 0.4847
1.1965 -4.6292 0.4585
1.2021 -4.6080 0.4566
-0.3484 -4.9619 0.4893
-0.3144 -5.0621 0.5019
-0.2958 -5.0786 0.5042
-0.2765 -5.0960 0.5067
-0.2299 -5.2603 0.5272
-0.2051 -5.2861 0.5308
-0.1812 -5.3327 0.5368
-0.1355 -5.5590 0.5645
-0.0637 -5.6406 0.5757
-0.0243 -5.7310 0.5873
0.2139 -6.4347 0.6756
-0.2702 -5.0869 0.5304
-0.2430 -5.2029 0.5475
-0.2232 -5.2467 0.5543
-0.1823 -5.3833 0.5747
-0.1295 -5.5434 0.5988
-0.0603 -5.6991 0.6227
0.0276 -5.9564 0.6615
0.0801 -6.0523 0.6765
0.1424 -6.2126 0.7009
0.2131 -6.3700 0.7251
1.0321 -7.7246 0.9400
0.9769 -4.6222 0.5026
-0.3019 -5.0477 0.5471
-0.2768 -5.1387 0.5629
-0.2568 -5.1620 0.5674
-0.2405 -5.2143 0.5765
-0.1989 -5.3077 0.5933
-0.1219 -5.5014 0.6277
-0.0906 -5.5880 0.6429
-0.0554 -5.6940 0.6615
0.0329 -5.9695 0.7096
0.2196 -6.3862 0.7843
0.2838 -6.4140 0.7913
0.6665 -7.9238 1.0511
0.7937 -5.4950 0.6610
-0.2334 -5.1986 0.6009
-0.1966 -5.3259 0.6260
-0.1233 -5.5970 0.6793
-0.0870 -5.6126 0.6838
-0.0508 -5.7052 0.7025
0.0852 -5.9561 0.7549
0.2231 -6.3707 0.8376
0.6983 -7.5318 1.0731
-0.2981 -5.0673 0.5967
-0.2714 -5.1557 0.6163
-0.2303 -5.2062 0.6289
-0.2165 -5.2931 0.6475
-0.1956 -5.3540 0.6611
-0.1685 -5.3835 0.6686
-0.1143 -5.5271 0.7010
-0.0453 -5.6538 0.7307
-0.0052 -5.7951 0.7619
0.1556 -6.1888 0.8514
0.2281 -6.3707 0.8927
0.4371 -6.5270 0.9358
1.1857 -7.8541 1.2483
0.6149 -4.7196 0.5730
0.5864 -4.4593 0.5179
0.5616 -4.3973 0.5038
0.5660 -4.3828 0.5011
-0.5650 -4.3206 0.4430
-0.5700 -4.3128 0.4437
-0.5725 -4.3018 0.4437
-0.5759 -4.2919 0.4439
-0.5776 -4.2801 0.4436
-0.5919 -4.2550 0.4455
-0.5962 -4.2459 0.4460
-0.6005 -4.2367 0.4465
-0.6048 -4.2275 0.4470
-0.6073 -4.2166 0.4470
-0.6160 -4.1980 0.4479
-0.6194 -4.1879 0.4481
-0.6219 -4.1771 0.4481
-0.6263 -4.1677 0.4486
-0.6335 -4.1602 0.4499
-0.6351 -4.1487 0.4496
-0.6404 -4.1398 0.4503
-0.6449 -4.1301 0.4508
-0.6484 -4.1199 0.4510
-0.6528 -4.1102 0.4515
-0.6543 -4.0990 0.4512
-0.6568 -4.0883 0.4512
-0.6633 -4.0794 0.4522
-0.6678 -4.0695 0.4527
-0.6723 -4.0596 0.4532
-0.6783 -4.0387 0.4534
-0.6966 -3.9984 0.4554
-0.7013 -3.9882 0.4559
-0.7059 -3.9780 0.4564
-0.7106 -3.9676 0.4569
-0.7153 -3.9573 0.4574
-0.7200 -3.9469 0.4579
-0.7224 -3.9363 0.4579
-0.7283 -3.9258 0.4586
-0.7319 -3.9153 0.4589
-0.7390 -3.9047 0.4600
-0.7402 -3.8942 0.4596
-0.7462 -3.8834 0.4604
-0.7498 -3.8728 0.4607
-0.7558 -3.8619 0.4615
-0.7583 -3.8514 0.4614
-0.7631 -3.8405 0.4619
-0.7655 -3.8301 0.4619
-0.7740 -3.8085 0.4626
-0.7776 -3.7978 0.4629
-0.7825 -3.7868 0.4634
-0.7875 -3.7758 0.4639
-0.7950 -3.7639 0.4650
-0.8012 -3.7523 0.4658
-0.8049 -3.7415 0.4661
-0.8113 -3.7297 0.4669
-0.8163 -3.7183 0.4674
-0.8174 -3.7084 0.4671
-0.8251 -3.6959 0.4682
-0.5601 -4.3305 0.4329
-0.5692 -4.3139 0.4340
-0.5734 -4.3049 0.4344
-0.5752 -4.2929 0.4342
-0.5853 -4.2630 0.4349
-0.5973 -4.2483 0.4367
-0.5981 -4.2357 0.4362
-0.6015 -4.2256 0.4364
-0.6058 -4.2164 0.4369
-0.6119 -4.2086 0.4378
-0.6127 -4.1962 0.4373
-0.6197 -4.1890 0.4385
-0.6232 -4.1788 0.4387
-0.6257 -4.1680 0.4387
-0.6301 -4.1585 0.4392
-0.6326 -4.1477 0.4392
-0.6399 -4.1399 0.4403
-0.6424 -4.1290 0.4403
-0.6469 -4.1193 0.4408
-0.6514 -4.1096 0.4413
-0.6549 -4.0993 0.4415
-0.6594 -4.0895 0.4420
-0.6629 -4.0792 0.4422
-0.6674 -4.0693 0.4427
-0.6709 -4.0589 0.4429
-0.6857 -4.0291 0.4445
-0.6924 -4.0194 0.4455
-0.6960 -4.0089 0.4457
-0.6963 -3.9977 0.4452
-0.7010 -3.9875 0.4457
-0.7067 -3.9773 0.4464
-0.7103 -3.9668 0.4467
-0.7128 -3.9562 0.4467
-0.7186 -3.9458 0.4474
-0.7233 -3.9353 0.4479
-0.7292 -3.9248 0.4486
-0.7305 -3.9142 0.4483
-0.7353 -3.9036 0.4488
-0.7412 -3.8929 0.4496
-0.7472 -3.8821 0.4503
-0.7520 -3.8712 0.4508
-0.7545 -3.8607 0.4508
-0.7654 -3.8387 0.4520
-0.7691 -3.8279 0.4522
-0.7740 -3.8169 0.4527
-0.7802 -3.8055 0.4535
-0.7826 -3.7949 0.4535
-0.7838 -3.7848 0.4532
-0.7938 -3.7722 0.4547
-0.8001 -3.7606 0.4555
-0.8051 -3.7492 0.4560
-0.8049 -3.7395 0.4555
-0.8100 -3.7281 0.4560
-0.8124 -3.7176 0.4559
-0.8187 -3.7057 0.4567
-0.8251 -3.6937 0.4575
-0.5600 -4.3328 0.4233
-0.5634 -4.3228 0.4236
-0.5668 -4.3128 0.4238
-0.5794 -4.2858 0.4250
-0.5862 -4.2795 0.4261
-0.5863 -4.2657 0.4255
-0.5914 -4.2574 0.4261
-0.5957 -4.2481 0.4265
-0.5974 -4.2363 0.4264
-0.5991 -4.2246 0.4262
-0.6060 -4.2177 0.4272
-0.6086 -4.2068 0.4272
-0.6129 -4.1974 0.4277
-0.6164 -4.1872 0.4279
-0.6226 -4.1791 0.4287
-0.6242 -4.1676 0.4285
-0.6277 -4.1574 0.4288
-0.6349 -4.1496 0.4298
-0.6375 -4.1388 0.4298
-0.6419 -4.1291 0.4303
-0.6454 -4.1188 0.4305
-0.6499 -4.1090 0.4310
-0.6715 -4.0589 0.4330
-0.6771 -4.0492 0.4336
-0.6807 -4.0387 0.4338
-0.6842 -4.0283 0.4341
-0.6910 -4.0186 0.4350
-0.6924 -4.0076 0.4348
-0.6992 -3.9977 0.4356
-0.7006 -3.9868 0.4354
-0.7064 -3.9765 0.4361
-0.7089 -3.9658 0.4361
-0.7136 -3.9554 0.4366
-0.7194 -3.9450 0.4373
-0.7253 -3.9344 0.4379
-0.7278 -3.9237 0.4380
-0.7337 -3.9131 0.4386
-0.7385 -3.9023 0.4391
-0.7422 -3.8916 0.4393
-0.7458 -3.8809 0.4396
-0.7507 -3.8700 0.4400
-0.7615 -3.8584 0.4416
-0.7616 -3.8480 0.4412
-0.7677 -3.8368 0.4419
-0.7702 -3.8261 0.4419
-0.7764 -3.8148 0.4426
-0.7788 -3.8041 0.4426
-0.7838 -3.7929 0.4431
-0.7913 -3.7810 0.4440
-0.7950 -3.7700 0.4443
-0.7975 -3.7594 0.4443
-0.8025 -3.7480 0.4447
-0.8088 -3.7362 0.4454
-0.8113 -3.7256 0.4455
-0.8137 -3.7151 0.4455
-0.8201 -3.7030 0.4462
-0.8292 -3.6898 0.4474
-0.8343 -3.6781 0.4478
-0.5641 -4.3261 0.4140
-0.5675 -4.3160 0.4142
-0.5710 -4.3059 0.4145
-0.5768 -4.2988 0.4152
-0.5819 -4.2906 0.4158
-0.5821 -4.2766 0.4153
-0.5880 -4.2692 0.4161
-0.5907 -4.2581 0.4161
-0.5950 -4.2488 0.4165
-0.5984 -4.2386 0.4167
-0.6019 -4.2284 0.4170
-0.6036 -4.2166 0.4168
-0.6062 -4.2057 0.4169
-0.6141 -4.1992 0.4180
-0.6211 -4.1787 0.4184
-0.6255 -4.1691 0.4189
-0.6299 -4.1595 0.4193
-0.6343 -4.1498 0.4197
-0.6388 -4.1400 0.4201
-0.6414 -4.1291 0.4201
-0.6458 -4.1193 0.4205
-0.6503 -4.1094 0.4210
-0.6558 -4.1000 0.4216
-0.6594 -4.0895 0.4218
-0.6649 -4.0799 0.4224
-0.6695 -4.0698 0.4228
-0.6711 -4.0586 0.4227
-0.6767 -4.0488 0.4233
-0.6813 -4.0386 0.4237
-0.6859 -4.0283 0.4241
-0.6895 -4.0177 0.4244
-0.6942 -4.0074 0.4248
-0.6978 -3.9968 0.4250
-0.7025 -3.9864 0.4254
-0.7061 -3.9757 0.4257
-0.7075 -3.9649 0.4255
-0.7155 -3.9547 0.4265
-0.7214 -3.9441 0.4272
-0.7250 -3.9334 0.4274
-0.7346 -3.9119 0.4283
-0.7394 -3.9011 0.4287
-0.7443 -3.8902 0.4291
-0.7456 -3.8796 0.4290
-0.7505 -3.8687 0.4294
-0.7577 -3.8574 0.4303
-0.7626 -3.8464 0.4307
-0.7675 -3.8353 0.4311
-0.7712 -3.8243 0.4314
-0.7737 -3.8136 0.4314
-0.7812 -3.8019 0.4323
-0.7861 -3.7906 0.4327
-0.7899 -3.7796 0.4330
-0.7936 -3.7685 0.4332
-0.7936 -3.7587 0.4328
-0.8050 -3.7453 0.4343
-0.8062 -3.7350 0.4341
-0.8086 -3.7244 0.4342
-0.8137 -3.7129 0.4346
-0.8201 -3.7009 0.4353
-0.8316 -3.6769 0.4364
-0.5583 -4.3351 0.4035
-0.5625 -4.3261 0.4038
-0.5667 -4.3170 0.4042
-0.5701 -4.3069 0.4044
-0.5760 -4.2997 0.4051
-0.5795 -4.2895 0.4053
-0.5821 -4.2783 0.4054
-0.5856 -4.2681 0.4056
-0.5899 -4.2588 0.4060
-0.5942 -4.2494 0.4064
-0.5968 -4.2384 0.4064
-0.6029 -4.2306 0.4071
-0.6055 -4.2195 0.4072
-0.6090 -4.2092 0.4074
-0.6248 -4.1694 0.4086
-0.6302 -4.1603 0.4092
-0.6337 -4.1499 0.4094
-0.6373 -4.1395 0.4096
-0.6436 -4.1307 0.4103
-0.6462 -4.1198 0.4104
-0.6508 -4.1098 0.4108
-0.6553 -4.0998 0.4112
-0.6589 -4.0893 0.4114
-0.6654 -4.0801 0.4121
-0.6700 -4.0699 0.4125
-0.6716 -4.0586 0.4124
-0.6772 -4.0487 0.4130
-0.6808 -4.0381 0.4132
-0.6844 -4.0275 0.4135
-0.6901 -4.0174 0.4140
-0.6937 -4.0067 0.4143
-0.6984 -3.9963 0.4147
-0.7021 -3.9856 0.4149
-0.7068 -3.9751 0.4153
-0.7115 -3.9645 0.4157
-0.7281 -3.9325 0.4173
-0.7318 -3.9216 0.4175
-0.7354 -3.9108 0.4177
-0.7414 -3.8998 0.4183
-0.7440 -3.8890 0.4184
-0.7489 -3.8780 0.4188
-0.7526 -3.8671 0.4190
-0.7634 -3.8553 0.4203
-0.7660 -3.8444 0.4204
-0.7673 -3.8337 0.4203
-0.7711 -3.8227 0.4205
-0.7748 -3.8117 0.4208
-0.7798 -3.8005 0.4212
-0.7847 -3.7891 0.4216
-0.7860 -3.7787 0.4215
-0.7935 -3.7667 0.4223
-0.7973 -3.7556 0.4225
-0.8023 -3.7441 0.4229
-0.8074 -3.7326 0.4234
-0.8162 -3.7098 0.4240
-0.8227 -3.6976 0.4246
-0.8304 -3.6848 0.4254
-0.5581 -4.3374 0.3935
-0.5616 -4.3272 0.3937
-0.5650 -4.3170 0.3939
-0.5701 -4.3089 0.3944
-0.5735 -4.2987 0.3946
-0.5778 -4.2894 0.3950
-0.5813 -4.2791 0.3952
-0.5831 -4.2671 0.3952
-0.5883 -4.2586 0.3956
-0.5934 -4.2501 0.3961
-0.6021 -4.2311 0.3968
-0.6057 -4.2207 0.3970
-0.6101 -4.2111 0.3974
-0.6145 -4.2015 0.3978
-0.6171 -4.1904 0.3979
-0.6215 -4.1806 0.3982
-0.6269 -4.1715 0.3987
-0.6314 -4.1617 0.3991
-0.6359 -4.1518 0.3994
-0.6404 -4.1418 0.3998
-0.6440 -4.1313 0.4000
-0.6492 -4.1092 0.4002
-0.6557 -4.1001 0.4008
-0.6573 -4.0887 0.4008
-0.6649 -4.0798 0.4016
-0.6705 -4.0699 0.4021
-0.6721 -4.0585 0.4020
-0.6757 -4.0479 0.4023
-0.6803 -4.0376 0.4027
-0.6829 -4.0266 0.4028
-0.6886 -4.0165 0.4033
-0.6933 -4.0061 0.4036
-0.6969 -3.9954 0.4039
-0.7006 -3.9847 0.4041
-0.7075 -3.9744 0.4048
-0.7122 -3.9637 0.4051
-0.7192 -3.9532 0.4058
-0.7229 -3.9423 0.4060
-0.7255 -3.9314 0.4061
-0.7359 -3.9205 0.4072
-0.7362 -3.9096 0.4070
-0.7411 -3.8986 0.4074
-0.7448 -3.8876 0.4077
-0.7520 -3.8764 0.4083
-0.7535 -3.8656 0.4083
-0.7584 -3.8544 0.4087
-0.7645 -3.8430 0.4092
-0.7671 -3.8322 0.4093
-0.7732 -3.8207 0.4099
-0.7758 -3.8098 0.4100
-0.7832 -3.7979 0.4106
-0.7870 -3.7867 0.4109
-0.7908 -3.7756 0.4111
-0.7959 -3.7641 0.4115
-0.8022 -3.7521 0.4121
-0.8073 -3.7405 0.4125
-0.8111 -3.7292 0.4127
-0.8149 -3.7179 0.4130
-0.8226 -3.7052 0.4137
-0.8239 -3.6949 0.4136
-0.8277 -3.6836 0.4139
-0.5572 -4.3385 0.3832
-0.5614 -4.3293 0.3836
-0.5649 -4.3191 0.3838
-0.5692 -4.3098 0.3841
-0.5734 -4.3006 0.3844
-0.5777 -4.2912 0.3847
-0.5812 -4.2809 0.3850
-0.5891 -4.2611 0.3855
-0.5943 -4.2524 0.3859
-0.5995 -4.2437 0.3864
-0.6005 -4.2308 0.3863
-0.6040 -4.2204 0.3865
-0.6102 -4.2123 0.3871
-0.6129 -4.2011 0.3872
-0.6173 -4.1914 0.3875
-0.6226 -4.1822 0.3880
-0.6262 -4.1717 0.3882
-0.6307 -4.1618 0.3885
-0.6361 -4.1524 0.3890
-0.6379 -4.1407 0.3890
-0.6405 -4.1296 0.3891
-0.6479 -4.1212 0.3898
-0.6515 -4.1105 0.3900
-0.6551 -4.0999 0.3902
-0.6587 -4.0893 0.3905
-0.6623 -4.0787 0.3907
-0.6669 -4.0684 0.3910
-0.6705 -4.0578 0.3913
-0.6742 -4.0471 0.3915
-0.6819 -4.0377 0.3922
-0.6855 -4.0269 0.3924
-0.6923 -4.0169 0.3930
-0.6975 -3.9948 0.3932
-0.7033 -3.9844 0.3937
-0.7059 -3.9734 0.3938
-0.7161 -3.9633 0.3947
-0.7187 -3.9522 0.3949
-0.7225 -3.9413 0.3951
-0.7262 -3.9303 0.3954
-0.7321 -3.9194 0.3958
-0.7381 -3.9084 0.3963
-0.7419 -3.8973 0.3965
-0.7456 -3.8863 0.3968
-0.7494 -3.8752 0.3970
-0.7555 -3.8639 0.3975
-0.7581 -3.8530 0.3976
-0.7619 -3.8419 0.3979
-0.7644 -3.8310 0.3980
-0.7780 -3.8076 0.3991
-0.7830 -3.7962 0.3995
-0.7893 -3.7843 0.4000
-0.7943 -3.7727 0.4003
-0.7982 -3.7615 0.4006
-0.8045 -3.7494 0.4011
-0.8096 -3.7376 0.4014
-0.8122 -3.7267 0.4016
-0.8186 -3.7144 0.4021
-0.8238 -3.7025 0.4024
-0.8277 -3.6911 0.4027
-0.8329 -3.6791 0.4031
-0.5605 -4.3304 0.3732
-0.5632 -4.3191 0.3734
-0.5717 -4.3005 0.3739
-0.5776 -4.2930 0.3744
-0.5827 -4.2845 0.3747
-0.5871 -4.2749 0.3750
-0.5899 -4.2635 0.3752
-0.5934 -4.2531 0.3754
-0.5978 -4.2434 0.3757
-0.6022 -4.2337 0.3760
-0.6041 -4.2217 0.3761
-0.6085 -4.2119 0.3764
-0.6164 -4.2051 0.3770
-0.6165 -4.1917 0.3770
-0.6210 -4.1818 0.3773
-0.6273 -4.1732 0.3777
-0.6300 -4.1619 0.3779
-0.6345 -4.1519 0.3782
-0.6381 -4.1413 0.3784
-0.6417 -4.1307 0.3787
-0.6463 -4.1206 0.3790
-0.6499 -4.1099 0.3792
-0.6554 -4.1002 0.3796
-0.6610 -4.0903 0.3800
-0.6693 -4.0692 0.3805
-0.6710 -4.0577 0.3806
-0.6776 -4.0479 0.3811
-0.6813 -4.0371 0.3813
-0.6880 -4.0271 0.3818
-0.6928 -4.0165 0.3821
-0.6934 -4.0049 0.3821
-0.6992 -3.9945 0.3825
-0.7060 -3.9841 0.3830
-0.7108 -3.9732 0.3834
-0.7146 -3.9622 0.3836
-0.7161 -3.9511 0.3837
-0.7231 -3.9403 0.3842
-0.7280 -3.9293 0.3845
-0.7317 -3.9183 0.3847
-0.7321 -3.9073 0.3847
-0.7393 -3.8962 0.3852
-0.7441 -3.8850 0.3856
-0.7586 -3.8621 0.3866
-0.7601 -3.8512 0.3867
-0.7639 -3.8400 0.3869
-0.7689 -3.8286 0.3872
-0.7739 -3.8172 0.3876
-0.7753 -3.8065 0.3876
-0.7827 -3.7944 0.3882
-0.7902 -3.7822 0.3887
-0.7929 -3.7712 0.3889
-0.8004 -3.7588 0.3894
-0.8055 -3.7470 0.3898
-0.8094 -3.7356 0.3900
-0.8120 -3.7246 0.3902
-0.8159 -3.7132 0.3904
-0.8185 -3.7023 0.3906
-0.8262 -3.6894 0.3911
-0.8327 -3.6769 0.3916
-0.8366 -3.6654 0.3918
-0.5560 -4.3418 0.3625
-0.5587 -4.3304 0.3627
-0.5638 -4.3221 0.3630
-0.5665 -4.3107 0.3632
-0.5716 -4.3023 0.3635
-0.5759 -4.2929 0.3637
-0.5906 -4.2659 0.3646
-0.5942 -4.2554 0.3649
-0.5970 -4.2440 0.3651
-0.5997 -4.2326 0.3653
-0.6033 -4.2221 0.3655
-0.6111 -4.2153 0.3659
-0.6122 -4.2025 0.3660
-0.6166 -4.1926 0.3663
-0.6211 -4.1827 0.3666
-0.6256 -4.1727 0.3669
-0.6301 -4.1627 0.3672
-0.6319 -4.1508 0.3673
-0.6356 -4.1402 0.3675
-0.6410 -4.1306 0.3679
-0.6475 -4.1215 0.3683
-0.6511 -4.1107 0.3685
-0.6557 -4.1004 0.3688
-0.6594 -4.0896 0.3690
-0.6631 -4.0789 0.3693
-0.6687 -4.0688 0.3696
-0.6733 -4.0583 0.3699
-0.6800 -4.0484 0.3703
-0.6807 -4.0366 0.3704
-0.6885 -4.0268 0.3708
-0.6902 -4.0153 0.3710
-0.6970 -4.0051 0.3714
-0.6997 -3.9939 0.3716
-0.7055 -3.9832 0.3719
-0.7093 -3.9722 0.3722
-0.7141 -3.9613 0.3725
-0.7200 -3.9504 0.3728
-0.7238 -3.9393 0.3731
-0.7286 -3.9282 0.3734
-0.7411 -3.8948 0.3742
-0.7460 -3.8836 0.3745
-0.7510 -3.8723 0.3748
-0.7594 -3.8606 0.3753
-0.7609 -3.8496 0.3754
-0.7694 -3.8376 0.3759
-0.7756 -3.8258 0.3763
-0.7807 -3.8141 0.3766
-0.7846 -3.8027 0.3769
-0.7885 -3.7912 0.3771
-0.7924 -3.7798 0.3774
-0.7938 -3.7690 0.3775
-0.8014 -3.7565 0.3779
-0.8040 -3.7454 0.3781
-0.8092 -3.7336 0.3785
-0.8118 -3.7226 0.3786
-0.8195 -3.7097 0.3791
-0.8222 -3.6987 0.3793
-0.8261 -3.6872 0.3795
-0.8326 -3.6746 0.3799
-0.8365 -3.6630 0.3802
-0.5536 -4.3567 0.3517
-0.5564 -4.3451 0.3519
-0.5614 -4.3367 0.3522
-0.5635 -4.3241 0.3524
-0.5737 -4.3071 0.3529
-0.5750 -4.2937 0.3531
-0.5793 -4.2841 0.3533
-0.5853 -4.2763 0.3536
-0.5905 -4.2675 0.3539
-0.5933 -4.2560 0.3541
-0.5953 -4.2437 0.3543
-0.5997 -4.2339 0.3545
-0.6050 -4.2249 0.3548
-0.6069 -4.2127 0.3550
-0.6113 -4.2028 0.3553
-0.6167 -4.1936 0.3555
-0.6203 -4.1829 0.3558
-0.6231 -4.1716 0.3560
-0.6258 -4.1603 0.3562
-0.6367 -4.1413 0.3567
-0.6486 -4.1224 0.3573
-0.6495 -4.1101 0.3575
-0.6616 -4.0906 0.3581
-0.6653 -4.0797 0.3583
-0.6690 -4.0688 0.3586
-0.6708 -4.0572 0.3588
-0.6831 -4.0369 0.3594
-0.6869 -4.0259 0.3596
-0.6916 -4.0152 0.3599
-0.6974 -4.0046 0.3602
-0.6981 -3.9929 0.3604
-0.7060 -3.9826 0.3607
-0.7077 -3.9712 0.3609
-0.7125 -3.9603 0.3612
-0.7184 -3.9493 0.3615
-0.7243 -3.9383 0.3618
-0.7281 -3.9271 0.3620
-0.7407 -3.8935 0.3628
-0.7467 -3.8822 0.3631
-0.7551 -3.8705 0.3635
-0.7612 -3.8588 0.3638
-0.7640 -3.8476 0.3641
-0.7702 -3.8358 0.3644
-0.7752 -3.8242 0.3647
-0.7803 -3.8125 0.3650
-0.7807 -3.8018 0.3651
-0.7845 -3.7903 0.3654
-0.7896 -3.7786 0.3657
-0.7947 -3.7668 0.3659
-0.7999 -3.7550 0.3662
-0.8050 -3.7431 0.3665
-0.8102 -3.7311 0.3668
-0.8153 -3.7191 0.3671
-0.8205 -3.7070 0.3674
-0.8258 -3.6949 0.3677
-0.8297 -3.6833 0.3680
-0.8375 -3.6700 0.3684
-0.5510 -4.3556 0.3410
-0.5561 -4.3472 0.3412
-0.5604 -4.3377 0.3414
-0.5647 -4.3282 0.3416
-0.5691 -4.3186 0.3418
-0.5712 -4.3060 0.3421
-0.5748 -4.2955 0.3423
-0.5799 -4.2867 0.3425
-0.5835 -4.2761 0.3427
-0.5871 -4.2655 0.3430
-0.5915 -4.2557 0.3432
-0.5952 -4.2451 0.3434
-0.5988 -4.2344 0.3437
-0.6077 -4.2146 0.3441
-0.6122 -4.2046 0.3443
-0.6158 -4.1939 0.3446
-0.6195 -4.1831 0.3448
-0.6231 -4.1724 0.3451
-0.6303 -4.1641 0.3453
-0.6367 -4.1550 0.3455
-0.6377 -4.1424 0.3457
-0.6432 -4.1326 0.3460
-0.6469 -4.1217 0.3462
-0.6506 -4.1109 0.3464
-0.6599 -4.1026 0.3467
-0.6580 -4.0891 0.3469
-0.6665 -4.0801 0.3472
-0.6693 -4.0688 0.3474
-0.6720 -4.0574 0.3476
-0.6825 -4.0363 0.3481
-0.6872 -4.0256 0.3484
-0.6920 -4.0147 0.3486
-0.6948 -4.0034 0.3489
-0.6996 -3.9925 0.3491
-0.7054 -3.9817 0.3494
-0.7092 -3.9706 0.3496
-0.7151 -3.9596 0.3499
-0.7189 -3.9484 0.3501
-0.7260 -3.9374 0.3504
-0.7309 -3.9261 0.3506
-0.7315 -3.9148 0.3509
-0.7364 -3.9035 0.3511
-0.7424 -3.8921 0.3514
-0.7530 -3.8803 0.3517
-0.7557 -3.8690 0.3519
-0.7585 -3.8577 0.3522
-0.7612 -3.8464 0.3524
-0.7674 -3.8346 0.3527
-0.7702 -3.8234 0.3529
-0.7752 -3.8117 0.3532
-0.7815 -3.7998 0.3535
-0.7842 -3.7886 0.3537
-0.7917 -3.7761 0.3540
-0.7968 -3.7642 0.3543
-0.7995 -3.7530 0.3545
-0.8047 -3.7411 0.3548
-0.8136 -3.7278 0.3551
-0.8213 -3.7147 0.3554
-0.8240 -3.7034 0.3556
-0.8293 -3.6912 0.3559
-0.8320 -3.6800 0.3562
-0.8360 -3.6682 0.3564
-0.5521 -4.3600 0.3300
-0.5550 -4.3483 0.3303
-0.5586 -4.3377 0.3305
-0.5622 -4.3271 0.3307
-0.5665 -4.3175 0.3309
-0.5716 -4.3088 0.3311
-0.5730 -4.2953 0.3314
-0.5781 -4.2866 0.3316
-0.5825 -4.2768 0.3318
-0.5869 -4.2670 0.3320
-0.5906 -4.2563 0.3322
-0.5950 -4.2464 0.3324
-0.5995 -4.2365 0.3326
-0.6064 -4.2287 0.3327
-0.6060 -4.2142 0.3331
-0.6113 -4.2049 0.3333
-0.6175 -4.1962 0.3334
