ply
format ascii 1.0
element vertex 2102
property float x
property float y
property float z
end_header
4.9350 -3.6275 0.6848
4.9387 -3.6465 0.6510
4.9204 -3.6524 0.6119
4.9020 -3.6583 0.5727
4.8987 -3.6738 0.5359
4.9089 -3.6984 0.5001
4.9002 -3.7300 0.4220
4.7985 -3.6984 0.3380
4.7670 -3.6951 0.2986
4.8135 -3.7887 0.1736
5.6133 -4.5241 -0.1723
4.6432 -3.8753 -0.2553
4.5387 -3.8032 -0.2596
4.2828 -3.6232 -0.2633
4.1845 -3.5443 -0.2445
4.0394 -3.4468 -0.2561
4.0021 -3.4232 -0.2620
3.9532 -3.3852 -0.2552
3.9173 -3.3602 -0.2563
3.8880 -3.3418 -0.2612
3.8600 -3.3239 -0.2653
3.8235 -3.2943 -0.2578
3.7958 -3.2744 -0.2573
3.7712 -3.2573 -0.2581
3.7437 -3.2354 -0.2532
3.7198 -3.2171 -0.2505
3.6805 -3.1894 -0.2510
3.6637 -3.1785 -0.2531
3.6473 -3.1675 -0.2543
3.6157 -3.1449 -0.2541
3.6019 -3.1359 -0.2556
3.5871 -3.1244 -0.2535
3.5613 -3.1057 -0.2528
3.5489 -3.0963 -0.2515
3.5365 -3.0859 -0.2483
3.5281 -3.0828 -0.2543
5.0758 -3.6110 0.8141
5.0180 -3.5959 0.7629
4.9760 -3.5888 0.7174
4.9577 -3.5947 0.6784
4.9394 -3.6006 0.6394
4.9067 -3.5980 0.5977
4.9253 -3.6257 0.5653
4.9068 -3.6317 0.5258
4.9172 -3.6555 0.4898
4.9357 -3.6851 0.4532
4.8940 -3.6770 0.4104
4.8701 -3.6987 0.3294
4.8162 -3.6815 0.2885
4.7900 -3.6824 0.2487
4.7256 -3.6563 0.2115
4.9850 -3.9070 0.0495
5.6407 -4.4278 -0.1187
5.5074 -4.3593 -0.1646
4.8865 -3.9284 -0.1384
4.7332 -3.8280 -0.1449
4.6393 -3.7730 -0.1628
4.5445 -3.7146 -0.1748
4.5216 -3.7164 -0.2114
4.4982 -3.7174 -0.2474
4.4171 -3.6658 -0.2541
4.3439 -3.6191 -0.2598
4.0831 -3.4411 -0.2552
3.9863 -3.3739 -0.2513
3.9141 -3.3270 -0.2550
3.8423 -3.2752 -0.2478
3.8227 -3.2665 -0.2576
3.7661 -3.2258 -0.2520
3.7416 -3.2084 -0.2503
3.7268 -3.2029 -0.2597
3.7034 -3.1852 -0.2557
3.6800 -3.1665 -0.2494
3.6605 -3.1522 -0.2469
3.6318 -3.1361 -0.2540
3.6182 -3.1283 -0.2570
3.6019 -3.1158 -0.2536
3.5754 -3.0981 -0.2540
3.5618 -3.0875 -0.2511
3.5520 -3.0832 -0.2559
3.5277 -3.0639 -0.2497
4.9399 -3.5241 0.6964
4.9731 -3.5572 0.6701
4.9474 -3.5591 0.6294
4.9592 -3.5817 0.5960
4.9180 -3.5749 0.5526
4.9219 -3.5937 0.5166
4.9484 -3.6261 0.4821
4.9441 -3.6412 0.4427
4.8755 -3.6350 0.3590
4.9130 -3.6958 0.2773
4.8931 -3.7022 0.2349
4.7666 -3.6373 0.1994
4.7344 -3.6340 0.1611
4.7420 -3.6580 0.1188
4.8276 -3.7379 0.0629
4.9994 -3.8830 -0.0153
4.7663 -3.8478 -0.2679
4.6037 -3.7371 -0.2529
4.5161 -3.6852 -0.2619
4.3193 -3.5545 -0.2513
4.1880 -3.4720 -0.2544
4.0696 -3.3936 -0.2484
3.9893 -3.3456 -0.2559
3.9576 -3.3285 -0.2628
3.9062 -3.2895 -0.2491
3.8440 -3.2503 -0.2505
3.7922 -3.2187 -0.2538
3.7621 -3.1965 -0.2472
3.7447 -3.1885 -0.2542
3.7029 -3.1618 -0.2543
3.6637 -3.1353 -0.2510
3.6553 -3.1362 -0.2650
3.6287 -3.1110 -0.2469
3.6177 -3.1073 -0.2542
3.6034 -3.0982 -0.2544
3.5899 -3.0898 -0.2548
3.5768 -3.0813 -0.2545
3.5649 -3.0742 -0.2555
3.5534 -3.0670 -0.2560
3.5399 -3.0558 -0.2504
3.5306 -3.0515 -0.2540
5.0393 -3.5295 0.7089
4.9811 -3.5155 0.6601
4.9859 -3.5334 0.6255
4.9600 -3.5355 0.5845
4.9641 -3.5537 0.5485
4.9677 -3.5720 0.5114
4.9406 -3.5737 0.4699
4.9376 -3.5888 0.4308
4.9184 -3.5950 0.3900
4.8769 -3.5880 0.3484
4.8945 -3.6159 0.3084
4.9217 -3.6506 0.2664
4.9018 -3.6570 0.2240
4.8153 -3.6211 0.1863
4.7689 -3.6095 0.1484
4.9286 -3.7759 -0.0123
4.8983 -3.7768 -0.0565
4.8683 -3.7776 -0.1001
4.8393 -3.7789 -0.1435
4.8287 -3.8169 -0.2456
4.7312 -3.7650 -0.2620
4.5138 -3.6358 -0.2670
4.3185 -3.5127 -0.2556
4.0771 -3.3672 -0.2567
3.9826 -3.3082 -0.2525
3.9141 -3.2691 -0.2579
3.8444 -3.2243 -0.2517
3.7949 -3.1968 -0.2573
3.7412 -3.1609 -0.2495
3.7012 -3.1375 -0.2513
3.6659 -3.1170 -0.2533
3.6322 -3.0959 -0.2516
3.6196 -3.0903 -0.2561
3.6038 -3.0794 -0.2532
3.5923 -3.0743 -0.2574
3.5805 -3.0683 -0.2600
3.5515 -3.0458 -0.2486
3.5420 -3.0417 -0.2525
3.5327 -3.0377 -0.2560
5.0437 -3.5001 0.6617
4.9940 -3.4911 0.6153
4.9984 -3.5086 0.5796
5.0189 -3.5347 0.5452
5.1020 -3.5940 0.5168
5.0461 -3.5819 0.4695
5.0100 -3.5797 0.4253
4.9416 -3.5596 0.3803
4.9301 -3.5702 0.3393
4.9107 -3.5764 0.2979
4.9303 -3.6054 0.2556
4.9180 -3.6162 0.2127
4.8822 -3.6131 0.1713
4.8580 -3.6356 0.0848
4.9086 -3.6872 0.0304
4.9291 -3.7210 -0.0224
4.9164 -3.7338 -0.0702
4.8862 -3.7349 -0.1140
5.1459 -3.9369 -0.2426
4.9284 -3.8091 -0.2337
4.7904 -3.7330 -0.2401
4.7191 -3.7026 -0.2649
4.4854 -3.5670 -0.2596
4.2329 -3.4194 -0.2512
4.0761 -3.3331 -0.2588
4.0143 -3.2928 -0.2467
3.9126 -3.2395 -0.2580
3.8726 -3.2136 -0.2508
3.7957 -3.1730 -0.2586
3.7484 -3.1460 -0.2587
3.7224 -3.1286 -0.2525
3.7040 -3.1190 -0.2547
3.6827 -3.1053 -0.2509
3.6669 -3.0974 -0.2538
3.6369 -3.0822 -0.2582
3.6052 -3.0622 -0.2539
3.5766 -3.0439 -0.2491
3.5559 -3.0351 -0.2562
3.5419 -3.0241 -0.2491
3.5335 -3.0217 -0.2547
6.1040 -3.7214 1.3983
5.1340 -3.5258 0.5901
5.1502 -3.5498 0.5520
5.1480 -3.5655 0.5100
5.1555 -3.5865 0.4681
5.0971 -3.5744 0.4201
5.0673 -3.5765 0.3752
4.9788 -3.5473 0.3296
4.9996 -3.5757 0.2870
4.9879 -3.5870 0.2432
4.9759 -3.5984 0.1990
4.9553 -3.6050 0.1550
4.9180 -3.6020 0.1129
5.0088 -3.6746 0.0536
4.9870 -3.6817 0.0070
4.9562 -3.6832 -0.0377
4.9433 -3.6957 -0.0861
5.1808 -3.8949 -0.2636
5.0046 -3.8021 -0.2683
4.8228 -3.7011 -0.2602
4.7279 -3.6565 -0.2760
4.6045 -3.5893 -0.2737
4.4826 -3.5199 -0.2642
4.4146 -3.4876 -0.2745
4.3242 -3.4365 -0.2683
4.2062 -3.3767 -0.2774
4.0179 -3.2653 -0.2519
3.9854 -3.2507 -0.2590
3.8169 -3.1579 -0.2536
3.7940 -3.1469 -0.2569
3.7660 -3.1300 -0.2523
3.6848 -3.0868 -0.2533
3.6480 -3.0653 -0.2489
3.6367 -3.0622 -0.2565
3.6209 -3.0531 -0.2549
3.6101 -3.0499 -0.2614
3.5930 -3.0379 -0.2544
3.5803 -3.0311 -0.2545
3.5688 -3.0256 -0.2562
3.5571 -3.0194 -0.2562
3.5448 -3.0116 -0.2534
3.5360 -3.0086 -0.2578
6.0596 -3.6390 1.3613
5.9626 -3.6224 1.2777
5.9022 -3.6183 1.2097
6.0335 -3.6854 1.2074
6.7183 -4.1220 0.9726
5.6114 -3.6682 0.7024
5.2481 -3.5429 0.5526
5.2471 -3.5595 0.5086
5.2670 -3.5863 0.4655
5.3821 -3.6594 0.4265
5.2651 -3.6217 0.3715
5.1898 -3.6030 0.3217
5.0349 -3.5427 0.2755
5.0228 -3.5539 0.2310
5.0372 -3.5792 0.1844
5.0244 -3.5907 0.1382
5.1376 -3.6717 0.0766
5.0559 -3.6461 0.0361
5.0335 -3.6533 -0.0115
4.9657 -3.6339 -0.0496
4.9263 -3.6303 -0.0917
5.0900 -3.7729 -0.2465
4.9955 -3.7361 -0.2746
4.8171 -3.6428 -0.2663
4.7293 -3.6054 -0.2840
4.5439 -3.4999 -0.2531
4.3824 -3.4222 -0.2629
4.2293 -3.3427 -0.2570
4.1883 -3.3268 -0.2694
4.1259 -3.2934 -0.2645
4.0165 -3.2338 -0.2531
3.9790 -3.2159 -0.2557
3.9383 -3.1942 -0.2528
3.8718 -3.1605 -0.2523
3.8209 -3.1372 -0.2586
3.7946 -3.1238 -0.2581
3.7647 -3.1059 -0.2508
3.7460 -3.0981 -0.2553
3.7258 -3.0884 -0.2564
3.6841 -3.0654 -0.2514
3.6527 -3.0512 -0.2555
3.6360 -3.0420 -0.2537
3.6228 -3.0365 -0.2567
3.6078 -3.0284 -0.2551
3.5963 -3.0240 -0.2589
3.5815 -3.0150 -0.2548
3.5715 -3.0117 -0.2595
3.5478 -2.9991 -0.2577
3.5358 -2.9916 -0.2541
3.5271 -2.9888 -0.2580
6.1129 -3.6656 1.1634
5.9905 -3.6407 1.0752
5.9993 -3.6630 1.0265
6.0275 -3.6931 0.9814
6.6210 -3.9668 0.9992
6.4475 -3.9229 0.8969
5.9320 -3.7372 0.7418
5.7811 -3.6955 0.6623
5.4647 -3.5815 0.5672
5.3554 -3.5524 0.5070
5.3323 -3.5598 0.4577
5.4687 -3.6391 0.4177
5.8763 -3.8697 0.3153
5.1076 -3.5262 0.2631
5.0406 -3.5108 0.2192
5.0646 -3.5400 0.1715
5.1499 -3.6012 0.1152
5.2242 -3.6590 0.0543
5.1891 -3.6608 0.0048
5.1324 -3.6508 -0.0402
5.0209 -3.6098 -0.0714
4.9268 -3.5765 -0.1013
4.9142 -3.5884 -0.1493
4.9445 -3.6258 -0.2112
4.9138 -3.6278 -0.2556
4.7801 -3.5664 -0.2603
4.6513 -3.5051 -0.2590
4.5467 -3.4563 -0.2606
4.3894 -3.3861 -0.2716
4.2170 -3.2979 -0.2534
4.1218 -3.2572 -0.2647
4.0564 -3.2217 -0.2525
4.0294 -3.2139 -0.2657
3.9394 -3.1675 -0.2554
3.9063 -3.1523 -0.2563
3.8774 -3.1396 -0.2590
3.8229 -3.1148 -0.2614
3.7696 -3.0880 -0.2569
3.7227 -3.0638 -0.2517
3.6873 -3.0485 -0.2554
3.6703 -3.0407 -0.2560
3.6525 -3.0315 -0.2539
3.6209 -3.0157 -0.2516
3.6107 -3.0135 -0.2587
3.5975 -3.0076 -0.2593
3.5698 -2.9922 -0.2532
3.5581 -2.9865 -0.2528
3.5476 -2.9820 -0.2541
3.5378 -2.9781 -0.2560
6.1096 -3.6729 0.9275
6.0404 -3.6678 0.8563
5.9360 -3.6490 0.7803
6.0816 -3.7244 0.7488
5.9917 -3.7109 0.6759
5.6558 -3.5987 0.5759
5.5023 -3.5554 0.5078
5.3196 -3.4979 0.4434
5.5490 -3.6118 0.4077
5.2953 -3.5574 0.2472
5.0857 -3.4798 0.2060
5.0740 -3.4912 0.1597
5.1922 -3.5648 0.0994
5.2346 -3.6043 0.0412
5.2217 -3.6176 -0.0119
5.1865 -3.6198 -0.0614
5.2916 -3.6946 -0.1412
4.9860 -3.5734 -0.1788
4.9107 -3.5513 -0.2096
4.8720 -3.5486 -0.2497
4.7890 -3.5198 -0.2715
4.6229 -3.4404 -0.2539
4.5224 -3.3967 -0.2557
4.4567 -3.3723 -0.2684
4.3676 -3.3318 -0.2650
4.2791 -3.2897 -0.2560
4.2415 -3.2790 -0.2724
4.1636 -3.2403 -0.2602
4.1101 -3.2165 -0.2595
4.0265 -3.1818 -0.2657
3.9411 -3.1417 -0.2586
3.9079 -3.1273 -0.2592
3.8816 -3.1175 -0.2643
3.8190 -3.0876 -0.2577
3.7881 -3.0717 -0.2511
3.7651 -3.0616 -0.2514
3.7463 -3.0547 -0.2554
3.7261 -3.0461 -0.2560
3.7045 -3.0355 -0.2530
3.6835 -3.0248 -0.2489
3.6544 -3.0144 -0.2558
3.6397 -3.0085 -0.2573
3.6238 -3.0007 -0.2552
3.6104 -2.9952 -0.2563
3.5952 -2.9871 -0.2525
3.5849 -2.9844 -0.2574
3.5719 -2.9779 -0.2554
3.5621 -2.9750 -0.2594
3.5496 -2.9684 -0.2561
3.5398 -2.9647 -0.2580
3.5297 -2.9603 -0.2581
7.7306 -4.1423 1.2662
6.6688 -3.8597 0.8231
6.2385 -3.7287 0.6917
5.9177 -3.6321 0.5903
5.7502 -3.5891 0.5161
5.4126 -3.4781 0.4366
5.7008 -3.6285 0.3421
5.9218 -3.7395 0.2820
5.6940 -3.6667 0.2226
5.1538 -3.4564 0.1910
5.1220 -3.4593 0.1448
5.1392 -3.4839 0.0936
5.1790 -3.5195 0.0371
5.2434 -3.5678 -0.0270
5.4077 -3.6655 -0.1159
5.5271 -3.7454 -0.2061
5.3954 -3.7033 -0.2407
4.9289 -3.5068 -0.2243
4.8572 -3.4872 -0.2528
4.7614 -3.4534 -0.2685
4.6025 -3.3826 -0.2519
4.5299 -3.3575 -0.2651
4.4281 -3.3139 -0.2596
4.3663 -3.2919 -0.2691
4.2885 -3.2589 -0.2657
4.2259 -3.2336 -0.2665
4.1554 -3.2019 -0.2582
4.1079 -3.1834 -0.2610
4.0473 -3.1551 -0.2509
4.0219 -3.1493 -0.2643
3.9704 -3.1248 -0.2543
3.9025 -3.0974 -0.2555
3.8459 -3.0753 -0.2584
3.8149 -3.0610 -0.2537
3.7912 -3.0517 -0.2550
3.7642 -3.0391 -0.2504
3.7289 -3.0277 -0.2594
3.7042 -3.0151 -0.2520
3.6867 -3.0082 -0.2529
3.6725 -3.0040 -0.2575
3.6557 -2.9969 -0.2568
3.6394 -2.9897 -0.2553
3.6245 -2.9835 -0.2549
3.6105 -2.9777 -0.2547
3.5994 -2.9746 -0.2590
3.5825 -2.9647 -0.2502
3.5730 -2.9626 -0.2554
3.5632 -2.9599 -0.2593
3.5531 -2.9565 -0.2615
3.5427 -2.9525 -0.2622
3.5299 -2.9449 -0.2552
5.6229 -3.4782 0.4893
5.4605 -3.4376 0.4259
5.7570 -3.5627 0.3866
5.1617 -3.4217 0.1301
5.2008 -3.4545 0.0753
5.2214 -3.4805 0.0198
5.5341 -3.6345 -0.0887
5.5682 -3.6710 -0.1607
5.6044 -3.7097 -0.2369
5.4217 -3.6480 -0.2594
4.8664 -3.4394 -0.2643
4.5817 -3.3268 -0.2494
4.4926 -3.2944 -0.2536
4.4178 -3.2681 -0.2597
4.2646 -3.2089 -0.2560
4.1641 -3.1746 -0.2672
4.0501 -3.1276 -0.2555
3.9699 -3.0973 -0.2558
3.8729 -3.0612 -0.2576
3.8472 -3.0524 -0.2606
3.7890 -3.0279 -0.2528
3.7457 -3.0120 -0.2544
3.7087 -2.9991 -0.2578
3.6875 -2.9896 -0.2533
3.6715 -2.9841 -0.2550
3.6553 -2.9780 -0.2550
3.6390 -2.9712 -0.2532
3.6246 -2.9659 -0.2535
3.6128 -2.9626 -0.2572
3.6011 -2.9592 -0.2604
3.5877 -2.9536 -0.2588
3.5756 -2.9490 -0.2587
3.5638 -2.9443 -0.2580
3.5522 -2.9395 -0.2567
3.5336 -2.9342 -0.2618
5.5098 -3.3954 0.4148
5.9654 -3.7407 -0.1789
5.9537 -3.7602 -0.2540
5.6172 -3.6427 -0.2530
5.3112 -3.5326 -0.2415
5.1896 -3.4985 -0.2679
4.8921 -3.3993 -0.2819
4.6723 -3.3120 -0.2476
4.5893 -3.2867 -0.2590
4.4198 -3.2297 -0.2658
4.3561 -3.2098 -0.2730
4.2707 -3.1771 -0.2636
4.1433 -3.1306 -0.2566
4.0995 -3.1166 -0.2608
4.0236 -3.0931 -0.2701
3.9782 -3.0756 -0.2647
3.9238 -3.0514 -0.2478
3.9054 -3.0491 -0.2609
3.8714 -3.0361 -0.2572
3.8409 -3.0247 -0.2547
3.7894 -3.0064 -0.2535
3.7467 -2.9921 -0.2554
3.7058 -2.9772 -0.2532
3.6734 -2.9671 -0.2570
3.6441 -2.9580 -0.2607
3.6286 -2.9521 -0.2591
3.6145 -2.9471 -0.2587
3.6007 -2.9419 -0.2575
3.5888 -2.9382 -0.2589
3.5757 -2.9329 -0.2565
3.5653 -2.9300 -0.2589
3.5429 -2.9215 -0.2566
5.3939 -3.2867 0.4430
6.0229 -3.5112 0.3623
6.0801 -3.6793 -0.1369
6.0935 -3.7080 -0.2180
5.9252 -3.6679 -0.2631
5.2851 -3.4587 -0.2454
5.1778 -3.4333 -0.2745
4.6734 -3.2668 -0.2549
4.4928 -3.2123 -0.2649
4.4017 -3.1823 -0.2616
4.2703 -3.1422 -0.2674
4.1315 -3.0933 -0.2518
4.0847 -3.0787 -0.2529
4.0518 -3.0708 -0.2617
4.0150 -3.0603 -0.2654
3.9644 -3.0410 -0.2548
3.9339 -3.0323 -0.2585
3.9068 -3.0252 -0.2635
3.8769 -3.0158 -0.2637
3.8455 -3.0048 -0.2603
3.8149 -2.9935 -0.2554
3.7664 -2.9775 -0.2534
3.7482 -2.9728 -0.2573
3.7109 -2.9618 -0.2599
3.6735 -2.9488 -0.2562
3.6561 -2.9425 -0.2539
3.6402 -2.9371 -0.2526
3.6167 -2.9321 -0.2611
3.6018 -2.9264 -0.2577
3.5873 -2.9205 -0.2536
3.5782 -2.9195 -0.2597
3.5629 -2.9119 -0.2508
3.5543 -2.9107 -0.2559
3.5463 -2.9100 -0.2620
5.5291 -3.2684 0.4387
7.3470 -3.9591 -0.1376
6.1671 -3.6265 -0.1672
6.3970 -3.7287 -0.2919
6.1708 -3.6747 -0.3318
5.6596 -3.5147 -0.2894
5.3090 -3.4057 -0.2629
4.6632 -3.2175 -0.2575
4.4126 -3.1492 -0.2721
4.3388 -3.1279 -0.2725
4.1962 -3.0838 -0.2624
4.1368 -3.0655 -0.2584
4.0921 -3.0533 -0.2610
4.0529 -3.0431 -0.2649
4.0033 -3.0268 -0.2579
3.9608 -3.0132 -0.2534
3.9010 -2.9976 -0.2592
3.8746 -2.9909 -0.2625
3.8418 -2.9799 -0.2572
3.8180 -2.9736 -0.2593
3.7893 -2.9638 -0.2540
3.7686 -2.9584 -0.2562
3.7509 -2.9546 -0.2607
3.7254 -2.9451 -0.2533
3.7098 -2.9419 -0.2578
3.6921 -2.9368 -0.2579
3.6766 -2.9329 -0.2600
3.6596 -2.9276 -0.2586
3.6413 -2.9208 -0.2533
3.6297 -2.9188 -0.2581
3.6145 -2.9136 -0.2552
3.6023 -2.9105 -0.2569
3.5893 -2.9065 -0.2558
3.5793 -2.9046 -0.2596
3.5668 -2.9004 -0.2573
3.5567 -2.8980 -0.2590
3.5453 -2.8940 -0.2567
3.5371 -2.8929 -0.2611
5.7015 -3.2675 0.3803
5.8055 -3.3095 0.3256
7.6787 -3.9403 -0.1990
7.5719 -3.9406 -0.3018
6.2579 -3.5705 -0.1989
6.2221 -3.5820 -0.2752
6.0417 -3.5469 -0.3188
5.5577 -3.4093 -0.2764
5.2584 -3.3267 -0.2592
4.9411 -3.2475 -0.2714
4.6772 -3.1784 -0.2700
4.4790 -3.1266 -0.2692
4.4067 -3.1091 -0.2740
4.3236 -3.0859 -0.2684
4.2538 -3.0670 -0.2655
4.1881 -3.0486 -0.2607
4.0839 -3.0206 -0.2578
4.0539 -3.0157 -0.2682
4.0011 -2.9992 -0.2582
3.9352 -2.9833 -0.2627
3.8994 -2.9729 -0.2589
3.8758 -2.9683 -0.2646
3.8422 -2.9578 -0.2583
3.8183 -2.9521 -0.2602
3.7949 -2.9463 -0.2609
3.7728 -2.9406 -0.2614
3.7485 -2.9332 -0.2574
3.7293 -2.9285 -0.2583
3.7105 -2.9235 -0.2582
3.6903 -2.9173 -0.2545
3.6754 -2.9141 -0.2573
3.6471 -2.9080 -0.2618
3.6303 -2.9025 -0.2576
3.6155 -2.8981 -0.2555
3.6044 -2.8962 -0.2591
3.5903 -2.8916 -0.2558
3.5808 -2.8904 -0.2606
3.5668 -2.8852 -0.2547
3.5591 -2.8852 -0.2621
3.5458 -2.8798 -0.2549
3.5370 -2.8783 -0.2579
8.5509 -3.4850 1.8317
5.4959 -3.1333 0.4580
5.6194 -3.1729 0.4157
5.8808 -3.2451 0.3709
5.8420 -3.2675 0.2501
5.9231 -3.3033 0.1848
6.0119 -3.3424 0.1136
6.2030 -3.4092 0.0267
6.3719 -3.4733 -0.0692
7.2470 -3.7308 -0.2791
6.2481 -3.4822 -0.2141
6.0009 -3.4334 -0.2469
5.7874 -3.3913 -0.2753
5.4094 -3.2971 -0.2500
5.2691 -3.2704 -0.2728
4.9088 -3.1857 -0.2683
4.4765 -3.0868 -0.2734
4.2990 -3.0418 -0.2587
4.1912 -3.0187 -0.2661
4.1347 -3.0048 -0.2631
4.0952 -2.9971 -0.2687
4.0464 -2.9848 -0.2648
4.0034 -2.9742 -0.2622
3.9629 -2.9639 -0.2587
3.9306 -2.9567 -0.2600
3.8712 -2.9432 -0.2610
3.8137 -2.9284 -0.2555
3.7938 -2.9249 -0.2598
3.7676 -2.9176 -0.2550
3.7261 -2.9076 -0.2536
3.7105 -2.9051 -0.2577
3.6946 -2.9020 -0.2602
3.6747 -2.8962 -0.2553
3.6595 -2.8929 -0.2562
3.6459 -2.8903 -0.2584
3.6319 -2.8872 -0.2590
3.6143 -2.8812 -0.2516
3.6032 -2.8795 -0.2550
3.5918 -2.8773 -0.2568
3.5802 -2.8747 -0.2570
3.5703 -2.8732 -0.2601
3.5581 -2.8695 -0.2569
3.5374 -2.8645 -0.2560
8.3123 -3.3140 1.8168
8.2071 -3.3216 1.6988
8.4346 -3.4449 1.3870
7.9722 -3.3972 1.1979
5.8334 -3.1549 0.4116
5.9671 -3.1956 0.3572
6.5922 -3.4394 -0.1145
6.2732 -3.3841 -0.1540
5.9716 -3.3477 -0.2558
5.7281 -3.3027 -0.2748
5.3934 -3.2301 -0.2571
5.2109 -3.1950 -0.2659
5.0443 -3.1621 -0.2701
4.8932 -3.1315 -0.2708
4.5378 -3.0577 -0.2658
4.4696 -3.0461 -0.2752
4.2949 -3.0069 -0.2606
4.2317 -2.9938 -0.2596
4.1780 -2.9831 -0.2609
4.0939 -2.9683 -0.2704
3.9980 -2.9462 -0.2598
3.9567 -2.9366 -0.2551
3.9274 -2.9315 -0.2586
3.8930 -2.9236 -0.2551
3.8643 -2.9177 -0.2550
3.8132 -2.9074 -0.2554
3.7912 -2.9033 -0.2571
3.7656 -2.8970 -0.2527
3.7466 -2.8936 -0.2547
3.7306 -2.8915 -0.2594
3.6945 -2.8842 -0.2594
3.6783 -2.8810 -0.2600
3.6624 -2.8777 -0.2599
3.6446 -2.8729 -0.2550
3.6335 -2.8720 -0.2604
3.6047 -2.8650 -0.2561
3.5944 -2.8639 -0.2600
3.5795 -2.8592 -0.2534
3.5696 -2.8579 -0.2563
3.5600 -2.8566 -0.2588
3.5505 -2.8552 -0.2609
3.5373 -2.8505 -0.2527
8.3927 -3.2123 1.8086
8.1804 -3.3606 1.0136
7.6991 -3.3135 0.8522
5.9892 -3.1169 0.4025
7.2045 -3.4055 0.0848
7.2879 -3.5173 -0.3305
5.9439 -3.2648 -0.2646
5.6718 -3.2191 -0.2744
4.8710 -3.0770 -0.2707
4.7654 -3.0603 -0.2793
4.5256 -3.0149 -0.2658
4.4591 -3.0054 -0.2751
4.3710 -2.9884 -0.2691
4.2849 -2.9708 -0.2589
4.1266 -2.9439 -0.2633
4.0798 -2.9355 -0.2626
4.0443 -2.9304 -0.2677
4.0110 -2.9257 -0.2724
3.9640 -2.9152 -0.2632
3.9316 -2.9097 -0.2638
3.8896 -2.8997 -0.2530
3.8718 -2.8990 -0.2635
3.8401 -2.8922 -0.2583
3.8168 -2.8885 -0.2600
3.7919 -2.8837 -0.2582
3.7744 -2.8819 -0.2637
3.7466 -2.8748 -0.2546
3.7299 -2.8727 -0.2582
3.7097 -2.8686 -0.2556
3.6913 -2.8649 -0.2539
3.6782 -2.8638 -0.2589
3.6599 -2.8596 -0.2546
3.6468 -2.8579 -0.2575
3.6304 -2.8541 -0.2535
3.6196 -2.8533 -0.2583
3.6074 -2.8514 -0.2594
3.5948 -2.8491 -0.2588
3.5830 -2.8470 -0.2588
3.5721 -2.8452 -0.2593
3.5603 -2.8426 -0.2570
3.5503 -2.8410 -0.2577
3.5416 -2.8401 -0.2605
8.1186 -3.0598 1.7786
8.2021 -3.2473 0.9863
8.0367 -3.2492 0.8660
6.0610 -3.0597 0.3888
6.6657 -3.1622 0.3335
6.9885 -3.2478 0.1643
7.1816 -3.2989 0.0633
6.7026 -3.2398 0.0075
7.4023 -3.3803 -0.1558
7.2631 -3.3789 -0.2434
6.5261 -3.2656 -0.2287
5.8971 -3.1805 -0.2688
5.6679 -3.1502 -0.2861
5.3387 -3.0961 -0.2640
5.0170 -3.0513 -0.2786
4.7337 -3.0079 -0.2736
4.6320 -2.9934 -0.2765
4.5229 -2.9757 -0.2701
4.4240 -2.9593 -0.2625
4.3558 -2.9497 -0.2654
4.3035 -2.9437 -0.2736
4.2171 -2.9273 -0.2578
4.1673 -2.9205 -0.2604
4.1195 -2.9135 -0.2613
4.0887 -2.9113 -0.2717
4.0261 -2.8984 -0.2557
3.9915 -2.8938 -0.2583
3.9638 -2.8910 -0.2646
3.8950 -2.8796 -0.2594
3.8416 -2.8719 -0.2606
3.8154 -2.8677 -0.2590
3.7919 -2.8640 -0.2585
3.7525 -2.8590 -0.2621
3.7298 -2.8546 -0.2577
3.7115 -2.8518 -0.2576
3.6987 -2.8514 -0.2642
3.6786 -2.8472 -0.2588
3.6652 -2.8459 -0.2622
3.6320 -2.8393 -0.2548
3.6183 -2.8371 -0.2541
3.6066 -2.8358 -0.2561
3.5951 -2.8344 -0.2575
3.5823 -2.8320 -0.2550
3.5734 -2.8318 -0.2601
3.5617 -2.8295 -0.2576
3.5506 -2.8274 -0.2558
3.5409 -2.8260 -0.2559
8.4093 -2.9560 1.9223
8.4826 -2.9783 1.8586
5.6840 -2.9255 0.4657
5.7338 -2.9419 0.4167
6.6001 -3.0541 0.3878
7.2469 -3.1481 0.3169
7.0859 -3.1468 0.2283
7.4209 -3.2095 0.1249
7.2427 -3.2060 0.0368
7.2415 -3.2262 -0.0607
6.9951 -3.2108 -0.1320
6.7680 -3.2154 -0.2873
5.8713 -3.1033 -0.2770
5.5687 -3.0655 -0.2735
5.2775 -3.0264 -0.2574
4.9908 -2.9956 -0.2781
4.8506 -2.9785 -0.2784
4.6979 -2.9571 -0.2658
4.4925 -2.9310 -0.2612
4.3689 -2.9192 -0.2770
4.2804 -2.9056 -0.2642
4.2200 -2.8980 -0.2632
4.1701 -2.8924 -0.2654
4.1204 -2.8862 -0.2647
4.0307 -2.8745 -0.2615
3.9991 -2.8716 -0.2664
3.9557 -2.8648 -0.2592
3.8900 -2.8560 -0.2557
3.8367 -2.8496 -0.2560
3.7490 -2.8391 -0.2575
3.7310 -2.8372 -0.2590
3.7133 -2.8352 -0.2597
3.6953 -2.8328 -0.2586
3.6772 -2.8299 -0.2556
3.6469 -2.8261 -0.2553
3.6347 -2.8253 -0.2582
3.6203 -2.8231 -0.2564
3.6080 -2.8218 -0.2571
3.5976 -2.8212 -0.2607
3.5853 -2.8194 -0.2593
3.5716 -2.8166 -0.2537
3.5614 -2.8155 -0.2546
3.5519 -2.8147 -0.2562
3.5427 -2.8138 -0.2575
8.0960 -2.8377 1.7918
8.0013 -2.8499 1.6831
8.0069 -2.9853 0.9949
7.1551 -2.9589 0.7119
5.5456 -2.8568 0.4422
5.9797 -2.9043 0.4133
6.6730 -2.9795 0.3699
7.6311 -3.1063 0.1935
7.1011 -3.0705 0.1160
7.4918 -3.1726 -0.2131
6.6844 -3.1104 -0.2918
5.8095 -3.0231 -0.2765
5.4790 -2.9886 -0.2623
5.2764 -2.9700 -0.2672
4.9745 -2.9436 -0.2808
4.6762 -2.9115 -0.2635
4.5927 -2.9050 -0.2712
4.4948 -2.8949 -0.2675
4.4282 -2.8898 -0.2743
4.3394 -2.8794 -0.2652
4.2733 -2.8728 -0.2638
4.2035 -2.8646 -0.2563
4.1628 -2.8622 -0.2636
4.1115 -2.8567 -0.2612
4.0669 -2.8523 -0.2605
4.0265 -2.8484 -0.2603
3.9854 -2.8438 -0.2570
3.9506 -2.8403 -0.2564
3.8947 -2.8359 -0.2613
3.8598 -2.8311 -0.2540
3.8316 -2.8278 -0.2512
3.8162 -2.8282 -0.2607
3.7890 -2.8246 -0.2556
3.7516 -2.8220 -0.2607
3.7321 -2.8200 -0.2602
3.7144 -2.8184 -0.2607
3.6826 -2.8158 -0.2632
3.6472 -2.8107 -0.2546
3.6332 -2.8093 -0.2542
3.6212 -2.8086 -0.2564
3.6106 -2.8084 -0.2603
3.5974 -2.8067 -0.2582
3.5850 -2.8051 -0.2566
3.5724 -2.8033 -0.2531
3.5632 -2.8030 -0.2563
3.5542 -2.8027 -0.2591
3.5444 -2.8017 -0.2591
8.0069 -2.7221 1.8121
7.9154 -2.7352 1.7064
7.8630 -2.8550 1.0349
7.8181 -2.8694 0.9392
7.8235 -2.8863 0.8497
7.5858 -2.8910 0.7331
5.8293 -2.8202 0.4461
7.2357 -3.0387 -0.2039
7.1080 -3.0448 -0.2858
5.7797 -2.9383 -0.2144
5.7866 -2.9516 -0.2843
5.4354 -2.9228 -0.2621
4.9580 -2.8931 -0.2831
4.7013 -2.8745 -0.2803
4.4926 -2.8583 -0.2717
4.4107 -2.8522 -0.2699
4.3419 -2.8475 -0.2708
4.2608 -2.8399 -0.2603
4.2037 -2.8358 -0.2598
4.1487 -2.8314 -0.2573
4.1081 -2.8294 -0.2615
4.0561 -2.8245 -0.2548
4.0238 -2.8232 -0.2603
3.9881 -2.8208 -0.2611
3.9548 -2.8186 -0.2616
3.9222 -2.8161 -0.2606
3.8903 -2.8134 -0.2581
3.8182 -2.8094 -0.2636
3.7931 -2.8071 -0.2607
3.7699 -2.8050 -0.2584
3.7473 -2.8028 -0.2550
3.7161 -2.8020 -0.2627
3.6974 -2.8003 -0.2603
3.6778 -2.7979 -0.2550
3.6512 -2.7970 -0.2601
3.6364 -2.7957 -0.2586
3.6232 -2.7947 -0.2586
3.6108 -2.7940 -0.2591
3.5999 -2.7936 -0.2614
3.5852 -2.7914 -0.2550
3.5742 -2.7906 -0.2549
3.5650 -2.7905 -0.2580
3.5539 -2.7893 -0.2558
8.1259 -2.6245 1.8208
7.5971 -2.7479 0.9655
8.0008 -2.7870 0.8434
7.6869 -2.9670 -0.2855
7.1682 -2.9491 -0.3162
5.6636 -2.8734 -0.2678
5.3942 -2.8603 -0.2620
5.0855 -2.8501 -0.2829
4.7905 -2.8359 -0.2772
4.6682 -2.8297 -0.2727
4.5668 -2.8248 -0.2710
4.4821 -2.8212 -0.2717
4.4098 -2.8183 -0.2741
4.3277 -2.8134 -0.2670
4.2603 -2.8099 -0.2637
4.2065 -2.8076 -0.2649
4.1664 -2.8071 -0.2721
4.0980 -2.8014 -0.2570
4.0550 -2.7994 -0.2563
3.9813 -2.7962 -0.2571
3.9511 -2.7954 -0.2599
3.9223 -2.7944 -0.2621
3.8635 -2.7914 -0.2596
3.8145 -2.7892 -0.2598
3.7323 -2.7855 -0.2599
3.7131 -2.7844 -0.2580
3.6931 -2.7827 -0.2533
3.6665 -2.7827 -0.2603
3.6514 -2.7818 -0.2593
3.6367 -2.7809 -0.2577
3.6228 -2.7801 -0.2564
3.6099 -2.7793 -0.2556
3.5978 -2.7787 -0.2553
3.5876 -2.7788 -0.2580
3.5771 -2.7785 -0.2591
3.5663 -2.7779 -0.2585
3.5546 -2.7768 -0.2550
3.5463 -2.7770 -0.2584
7.9410 -2.5200 1.8086
7.8997 -2.5333 1.7206
7.8070 -2.6655 0.8835
7.3636 -2.6791 0.7443
6.2863 -2.6869 0.5636
6.0354 -2.6947 0.4843
5.9539 -2.7030 0.4226
6.0356 -2.7134 0.3678
6.7392 -2.7612 0.1551
7.1946 -2.7877 0.0452
7.2312 -2.8352 -0.2465
6.6772 -2.8259 -0.2565
6.1024 -2.8233 -0.3107
5.5110 -2.8008 -0.2426
5.3672 -2.8016 -0.2652
5.0223 -2.7957 -0.2706
4.8887 -2.7936 -0.2739
4.7664 -2.7914 -0.2746
4.6588 -2.7893 -0.2750
4.5489 -2.7861 -0.2684
4.4623 -2.7842 -0.2670
4.4080 -2.7848 -0.2777
4.3070 -2.7799 -0.2594
4.2484 -2.7789 -0.2602
4.2057 -2.7793 -0.2677
4.1452 -2.7770 -0.2608
3.9887 -2.7746 -0.2652
3.9599 -2.7747 -0.2693
3.9146 -2.7717 -0.2562
3.8642 -2.7715 -0.2611
3.8107 -2.7696 -0.2559
3.7694 -2.7691 -0.2579
3.7487 -2.7685 -0.2567
3.7299 -2.7681 -0.2563
3.7135 -2.7680 -0.2580
3.6960 -2.7675 -0.2570
3.6829 -2.7680 -0.2612
3.6687 -2.7679 -0.2628
3.6510 -2.7667 -0.2575
3.6387 -2.7669 -0.2599
3.6242 -2.7662 -0.2574
3.6118 -2.7660 -0.2576
3.6002 -2.7659 -0.2584
3.5889 -2.7657 -0.2587
3.5756 -2.7647 -0.2537
3.5653 -2.7645 -0.2541
3.5564 -2.7647 -0.2565
3.5465 -2.7645 -0.2561
8.1475 -2.4049 1.9237
7.7332 -2.4383 1.7133
7.6337 -2.5567 0.9195
7.4215 -2.5743 0.8084
6.9459 -2.5964 0.6762
5.9128 -2.6420 0.4055
6.4251 -2.6666 0.2218
6.5776 -2.6775 0.1432
6.7318 -2.7270 -0.1961
6.7585 -2.7406 -0.2883
6.1952 -2.7406 -0.2685
5.9103 -2.7441 -0.2824
5.5505 -2.7432 -0.2637
5.3908 -2.7468 -0.2821
5.0488 -2.7494 -0.2879
4.8894 -2.7493 -0.2817
4.7543 -2.7493 -0.2765
4.6437 -2.7496 -0.2745
4.5233 -2.7483 -0.2620
4.4322 -2.7481 -0.2569
4.3844 -2.7502 -0.2697
4.3162 -2.7504 -0.2686
4.2459 -2.7498 -0.2623
4.2058 -2.7513 -0.2710
4.1501 -2.7510 -0.2670
4.0475 -2.7498 -0.2552
3.9865 -2.7516 -0.2651
3.9481 -2.7511 -0.2603
3.9193 -2.7514 -0.2618
3.8848 -2.7508 -0.2560
3.8686 -2.7524 -0.2665
3.8377 -2.7517 -0.2604
3.8104 -2.7512 -0.2561
3.7924 -2.7519 -0.2607
3.7684 -2.7515 -0.2567
3.7357 -2.7527 -0.2639
3.6983 -2.7523 -0.2596
3.6676 -2.7525 -0.2601
3.6524 -2.7524 -0.2588
3.6376 -2.7522 -0.2567
3.6149 -2.7530 -0.2619
3.6021 -2.7529 -0.2604
3.5907 -2.7530 -0.2606
3.5791 -2.7528 -0.2590
3.5671 -2.7524 -0.2557
3.5570 -2.7524 -0.2556
3.5492 -2.7531 -0.2602
8.3233 -2.2964 1.9526
8.0728 -2.3256 1.7938
7.7873 -2.4427 1.0010
7.7443 -2.4566 0.9093
6.9652 -2.5043 0.7295
6.5066 -2.5341 0.6111
6.6036 -2.5391 0.5540
5.9334 -2.5737 0.4466
6.2266 -2.5974 0.2099
6.5096 -2.6002 0.1284
6.6731 -2.6073 0.0412
6.9624 -2.6137 -0.0681
7.1084 -2.6241 -0.1755
6.8482 -2.6395 -0.2318
6.1866 -2.6660 -0.2819
5.8299 -2.6760 -0.2775
5.4918 -2.6836 -0.2601
4.9885 -2.7007 -0.2756
4.8543 -2.7047 -0.2760
4.7077 -2.7075 -0.2643
4.5991 -2.7102 -0.2611
4.5300 -2.7136 -0.2703
4.4310 -2.7152 -0.2611
4.3651 -2.7175 -0.2637
4.3058 -2.7197 -0.2666
4.2628 -2.7223 -0.2760
4.1936 -2.7230 -0.2663
4.1319 -2.7236 -0.2574
4.0868 -2.7248 -0.2567
4.0478 -2.7261 -0.2577
4.0087 -2.7271 -0.2563
3.9793 -2.7286 -0.2608
3.9192 -2.7307 -0.2631
3.8593 -2.7317 -0.2578
3.7921 -2.7341 -0.2606
3.7752 -2.7352 -0.2652
3.7515 -2.7352 -0.2600
3.7304 -2.7354 -0.2565
3.7153 -2.7363 -0.2597
3.6998 -2.7369 -0.2613
3.6626 -2.7366 -0.2511
3.6500 -2.7374 -0.2536
3.6383 -2.7381 -0.2568
3.6250 -2.7384 -0.2561
3.6126 -2.7388 -0.2560
3.6016 -2.7393 -0.2576
3.5897 -2.7395 -0.2564
3.5808 -2.7404 -0.2608
3.5683 -2.7401 -0.2561
3.5587 -2.7406 -0.2571
3.5493 -2.7409 -0.2578
8.1845 -2.2116 1.8772
7.5794 -2.3616 0.9429
7.6264 -2.3686 0.8676
7.0810 -2.4163 0.7214
6.4965 -2.4640 0.5916
6.5127 -2.5054 0.2556
6.2185 -2.5290 0.1939
6.4208 -2.5279 0.1158
6.6887 -2.5254 0.0215
6.8750 -2.5279 -0.0788
6.9045 -2.5378 -0.1696
6.7650 -2.5539 -0.2378
6.6953 -2.5671 -0.3133
6.0465 -2.5963 -0.2679
5.7229 -2.6134 -0.2655
5.4886 -2.6266 -0.2702
5.1547 -2.6466 -0.2873
4.8080 -2.6626 -0.2657
4.7151 -2.6686 -0.2737
4.6003 -2.6739 -0.2673
4.5320 -2.6788 -0.2765
4.4566 -2.6831 -0.2787
4.3609 -2.6866 -0.2658
4.2925 -2.6899 -0.2628
4.2505 -2.6933 -0.2720
4.1715 -2.6955 -0.2552
4.1480 -2.6987 -0.2712
4.0940 -2.7008 -0.2643
4.0146 -2.7049 -0.2630
3.9802 -2.7068 -0.2632
3.9457 -2.7083 -0.2611
3.8333 -2.7139 -0.2570
3.8112 -2.7152 -0.2578
3.7482 -2.7183 -0.2557
3.7334 -2.7197 -0.2603
3.7000 -2.7215 -0.2609
3.6848 -2.7224 -0.2617
3.6666 -2.7228 -0.2566
3.6520 -2.7235 -0.2559
3.6397 -2.7244 -0.2578
3.6270 -2.7251 -0.2582
3.6133 -2.7255 -0.2556
3.6023 -2.7263 -0.2572
3.5903 -2.7268 -0.2558
3.5798 -2.7274 -0.2564
3.5683 -2.7277 -0.2540
3.5598 -2.7286 -0.2574
3.5510 -2.7293 -0.2592
7.8247 -2.2475 0.9539
7.4730 -2.2897 0.8229
7.1661 -2.3266 0.7088
6.3239 -2.4092 0.5581
6.2758 -2.4567 0.1756
6.4351 -2.4533 0.0978
6.5605 -2.4531 0.0141
6.6388 -2.4569 -0.0719
6.6323 -2.4666 -0.1521
6.3959 -2.4991 -0.2755
6.1029 -2.5239 -0.2938
5.7846 -2.5484 -0.2923
5.4861 -2.5702 -0.2804
5.3256 -2.5842 -0.2938
5.0881 -2.6004 -0.2747
4.9338 -2.6121 -0.2722
4.8217 -2.6214 -0.2778
4.7225 -2.6297 -0.2831
4.5872 -2.6383 -0.2671
4.4944 -2.6451 -0.2638
4.4276 -2.6509 -0.2686
4.3530 -2.6563 -0.2656
4.2799 -2.6613 -0.2593
4.2424 -2.6655 -0.2705
4.1906 -2.6695 -0.2706
4.0729 -2.6764 -0.2514
4.0456 -2.6795 -0.2604
4.0172 -2.6825 -0.2671
3.9351 -2.6873 -0.2531
3.8857 -2.6919 -0.2600
3.8284 -2.6954 -0.2522
3.8115 -2.6975 -0.2587
3.7942 -2.6994 -0.2636
3.7505 -2.7022 -0.2586
3.7122 -2.7047 -0.2544
3.6987 -2.7062 -0.2585
3.6842 -2.7075 -0.2601
3.6693 -2.7087 -0.2600
3.6514 -2.7093 -0.2538
3.6257 -2.7114 -0.2546
3.6182 -2.7130 -0.2633
3.6035 -2.7135 -0.2578
3.5909 -2.7142 -0.2552
3.5803 -2.7151 -0.2556
3.5706 -2.7160 -0.2568
3.5615 -2.7169 -0.2589
7.6557 -2.1631 0.9853
7.6596 -2.1710 0.9045
6.5237 -2.3217 0.5574
6.3900 -2.3698 0.2228
6.4573 -2.3705 0.1511
6.7259 -2.3527 0.0610
6.7824 -2.3558 -0.0237
6.6257 -2.3782 -0.0882
6.5903 -2.3897 -0.1638
6.6421 -2.3938 -0.2537
6.3097 -2.4295 -0.2750
6.0944 -2.4545 -0.3062
5.4198 -2.5191 -0.2732
5.0609 -2.5555 -0.2742
4.7972 -2.5822 -0.2752
4.7009 -2.5925 -0.2803
4.5892 -2.6030 -0.2735
4.5007 -2.6118 -0.2718
4.4225 -2.6195 -0.2705
4.2826 -2.6330 -0.2645
4.2153 -2.6391 -0.2572
4.1690 -2.6440 -0.2595
4.0852 -2.6528 -0.2627
4.0164 -2.6603 -0.2683
3.9752 -2.6638 -0.2623
3.9357 -2.6671 -0.2550
3.9091 -2.6700 -0.2573
3.8791 -2.6727 -0.2545
3.8279 -2.6777 -0.2523
3.8103 -2.6800 -0.2577
3.7968 -2.6823 -0.2668
3.7709 -2.6842 -0.2601
3.7478 -2.6860 -0.2550
3.7179 -2.6898 -0.2620
3.6988 -2.6913 -0.2580
3.6802 -2.6927 -0.2532
3.6560 -2.6959 -0.2603
3.6410 -2.6971 -0.2577
3.6307 -2.6986 -0.2622
3.6170 -2.6997 -0.2595
3.6035 -2.7007 -0.2561
3.5809 -2.7029 -0.2548
3.5722 -2.7041 -0.2584
3.5637 -2.7053 -0.2617
3.5548 -2.7064 -0.2634
7.5389 -2.0610 1.2439
6.4708 -2.2534 0.5976
6.1060 -2.3071 0.5071
6.1353 -2.3085 0.4525
6.4598 -2.2849 0.2727
6.4775 -2.2892 0.2035
6.3722 -2.3083 0.1383
6.4668 -2.3245 -0.1630
6.6276 -2.3143 -0.2685
6.3990 -2.3463 -0.3077
6.0254 -2.3924 -0.3049
5.6939 -2.4326 -0.2945
5.4054 -2.4669 -0.2795
4.7605 -2.5458 -0.2676
4.6692 -2.5577 -0.2730
4.5767 -2.5692 -0.2734
4.4776 -2.5807 -0.2656
4.4135 -2.5891 -0.2703
4.3348 -2.5983 -0.2637
4.2816 -2.6052 -0.2676
4.2259 -2.6121 -0.2670
4.1766 -2.6183 -0.2674
4.1292 -2.6240 -0.2664
4.0836 -2.6295 -0.2640
4.0088 -2.6387 -0.2640
3.8571 -2.6571 -0.2588
3.8359 -2.6600 -0.2616
3.7903 -2.6654 -0.2594
3.7630 -2.6680 -0.2504
3.7479 -2.6703 -0.2550
3.7158 -2.6746 -0.2587
3.6975 -2.6766 -0.2555
3.6843 -2.6785 -0.2587
3.6687 -2.6803 -0.2572
3.6560 -2.6821 -0.2593
3.6416 -2.6837 -0.2575
3.6288 -2.6853 -0.2574
3.6169 -2.6868 -0.2579
3.6028 -2.6881 -0.2532
3.5944 -2.6897 -0.2586
3.5843 -2.6910 -0.2601
3.5626 -2.6934 -0.2568
7.3652 -2.0686 0.4161
7.0653 -2.1198 0.3284
7.1344 -2.1163 0.2473
6.7984 -2.1715 0.1754
6.8878 -2.1652 0.0928
7.0541 -2.1485 -0.0016
7.2823 -2.1241 -0.1118
7.2407 -2.1375 -0.2006
6.5640 -2.2363 -0.1939
6.3890 -2.2724 -0.3214
5.9598 -2.3340 -0.3036
5.6151 -2.3832 -0.2862
4.3404 -2.5690 -0.2708
4.2787 -2.5780 -0.2695
4.2282 -2.5856 -0.2717
4.1312 -2.5997 -0.2705
4.0346 -2.6129 -0.2582
4.0079 -2.6174 -0.2651
3.9657 -2.6230 -0.2573
3.9044 -2.6318 -0.2551
3.8775 -2.6357 -0.2548
3.8503 -2.6395 -0.2525
3.8386 -2.6423 -0.2650
3.8100 -2.6459 -0.2582
3.7912 -2.6489 -0.2607
3.7705 -2.6518 -0.2597
3.7325 -2.6572 -0.2579
3.7152 -2.6597 -0.2573
3.6996 -2.6621 -0.2580
3.6863 -2.6643 -0.2611
3.6720 -2.6664 -0.2616
3.6540 -2.6685 -0.2549
3.6429 -2.6704 -0.2585
3.6307 -2.6723 -0.2594
3.6181 -2.6741 -0.2586
3.5949 -2.6774 -0.2579
3.5831 -2.6790 -0.2555
3.5750 -2.6806 -0.2602
3.5659 -2.6820 -0.2621
6.9241 -2.0508 0.4569
6.8578 -2.0674 0.3812
7.2263 -2.0103 0.3085
7.4671 -1.9758 0.2207
7.3835 -1.9962 0.1335
7.1466 -2.0417 0.0577
7.4264 -2.0023 -0.0529
7.1426 -2.0549 -0.1176
7.1026 -2.0678 -0.2029
6.7569 -2.1290 -0.2406
6.4897 -2.1769 -0.2774
6.2330 -2.2223 -0.3047
5.8273 -2.2896 -0.2860
5.5545 -2.3355 -0.2818
4.6301 -2.4910 -0.2680
4.2151 -2.5612 -0.2666
4.1172 -2.5775 -0.2632
4.0389 -2.5908 -0.2635
3.9662 -2.6028 -0.2594
3.9023 -2.6132 -0.2543
3.8577 -2.6213 -0.2609
3.8156 -2.6287 -0.2649
3.7898 -2.6326 -0.2593
3.7691 -2.6361 -0.2580
3.7347 -2.6421 -0.2606
3.6988 -2.6478 -0.2563
3.6719 -2.6527 -0.2606
3.6579 -2.6550 -0.2603
3.6460 -2.6572 -0.2628
3.6312 -2.6595 -0.2590
3.6057 -2.6635 -0.2555
3.5972 -2.6653 -0.2608
3.5854 -2.6672 -0.2584
3.5755 -2.6689 -0.2592
3.5635 -2.6706 -0.2544
3.5552 -2.6722 -0.2570
7.3600 -1.8997 0.2870
7.5276 -1.8731 0.1970
7.2415 -1.9327 0.1182
7.2793 -1.9309 0.0285
7.2389 -1.9439 -0.0577
7.2370 -1.9498 -0.1482
7.0830 -1.9837 -0.2197
7.0068 -2.0031 -0.2983
6.0949 -2.1772 -0.2901
5.7888 -2.2357 -0.2892
5.5250 -2.2859 -0.2848
4.4412 -2.4920 -0.2617
4.3139 -2.5165 -0.2636
4.2173 -2.5354 -0.2712
4.0344 -2.5699 -0.2621
3.9616 -2.5835 -0.2570
3.8548 -2.6041 -0.2586
3.8288 -2.6089 -0.2556
3.8103 -2.6126 -0.2593
3.7676 -2.6206 -0.2563
3.7502 -2.6240 -0.2577
3.7369 -2.6269 -0.2633
3.7044 -2.6332 -0.2639
3.6862 -2.6364 -0.2595
3.6684 -2.6395 -0.2542
3.6557 -2.6420 -0.2558
3.6466 -2.6442 -0.2626
3.6172 -2.6493 -0.2541
3.5959 -2.6535 -0.2563
3.5882 -2.6553 -0.2625
3.5765 -2.6574 -0.2594
3.5657 -2.6593 -0.2571
3.5584 -2.6610 -0.2624
7.7256 -1.7346 0.2627
7.4180 -1.8046 0.1776
7.2587 -1.8427 0.0965
7.3782 -1.8221 0.0005
7.4197 -1.8181 -0.0952
7.2548 -1.8571 -0.1705
7.2140 -1.8703 -0.2575
5.9510 -2.1404 -0.2727
5.7672 -2.1808 -0.2960
5.4705 -2.2433 -0.2808
4.3662 -2.4779 -0.2624
4.2001 -2.5134 -0.2634
4.1496 -2.5240 -0.2609
4.0438 -2.5471 -0.2714
3.9952 -2.5569 -0.2600
3.9054 -2.5760 -0.2595
3.8750 -2.5823 -0.2551
3.8509 -2.5875 -0.2553
3.8167 -2.5953 -0.2669
3.7884 -2.6009 -0.2581
3.7676 -2.6053 -0.2563
3.7317 -2.6129 -0.2561
3.7179 -2.6161 -0.2599
3.7015 -2.6195 -0.2590
3.6861 -2.6228 -0.2586
3.6703 -2.6260 -0.2563
3.6590 -2.6286 -0.2601
3.6438 -2.6317 -0.2566
3.6202 -2.6368 -0.2582
3.6091 -2.6392 -0.2589
3.5975 -2.6416 -0.2579
3.5868 -2.6439 -0.2577
3.5769 -2.6460 -0.2583
7.5116 -1.6734 0.6624
7.4324 -1.6955 0.5761
7.5148 -1.6793 0.4992
7.5581 -1.6725 0.4163
7.6047 -1.6651 0.3300
7.6063 -1.6683 0.2407
7.4357 -1.7119 0.1553
7.4373 -1.7151 0.0659
7.4801 -1.7090 -0.0285
7.1586 -1.7870 -0.0903
7.3137 -1.7550 -0.1979
5.7312 -2.1307 -0.2989
4.8478 -2.3378 -0.2905
4.7097 -2.3698 -0.2783
4.6105 -2.3930 -0.2760
4.5063 -2.4171 -0.2662
4.4345 -2.4340 -0.2672
4.3853 -2.4459 -0.2767
4.2284 -2.4818 -0.2530
4.1478 -2.5011 -0.2624
3.9887 -2.5382 -0.2564
3.8801 -2.5639 -0.2611
3.8526 -2.5702 -0.2579
3.8297 -2.5756 -0.2577
3.8104 -2.5802 -0.2602
3.7845 -2.5861 -0.2537
3.7675 -2.5901 -0.2563
3.7524 -2.5939 -0.2603
3.7178 -2.6020 -0.2593
3.7013 -2.6058 -0.2583
3.6866 -2.6092 -0.2587
3.6695 -2.6131 -0.2541
3.6554 -2.6164 -0.2532
3.6449 -2.6190 -0.2574
3.6307 -2.6222 -0.2543
3.6213 -2.6246 -0.2588
3.6101 -2.6272 -0.2594
3.5980 -2.6300 -0.2571
3.5885 -2.6323 -0.2593
3.5767 -2.6349 -0.2559
3.5676 -2.6371 -0.2573
3.5593 -2.6392 -0.2597
7.5322 -1.5884 0.4773
7.4516 -1.6117 0.3910
7.3718 -1.6347 0.3064
7.5812 -1.5838 0.2184
7.3328 -1.6499 0.1376
7.5854 -1.5884 0.0355
7.5429 -1.6021 -0.0552
7.2916 -1.6685 -0.1240
5.6522 -2.0936 -0.2906
4.9356 -2.2769 -0.2851
4.5487 -2.3751 -0.2537
4.3677 -2.4220 -0.2712
4.2466 -2.4528 -0.2673
4.0692 -2.4983 -0.2668
4.0230 -2.5099 -0.2589
3.9909 -2.5181 -0.2599
3.9294 -2.5338 -0.2586
3.9033 -2.5405 -0.2597
3.8695 -2.5489 -0.2514
3.8289 -2.5595 -0.2574
3.7907 -2.5694 -0.2612
3.7643 -2.5759 -0.2525
3.7477 -2.5802 -0.2542
3.7169 -2.5882 -0.2577
3.6900 -2.5953 -0.2631
3.6579 -2.6033 -0.2563
3.6467 -2.6062 -0.2594
3.6344 -2.6094 -0.2596
3.6185 -2.6133 -0.2522
3.6093 -2.6157 -0.2562
3.5996 -2.6183 -0.2587
3.5901 -2.6208 -0.2608
3.5789 -2.6236 -0.2586
3.5710 -2.6257 -0.2626
7.5896 -1.4846 0.5407
7.5496 -1.4975 0.4554
7.5516 -1.4987 0.3709
7.3888 -1.5456 0.2850
7.4708 -1.5247 0.1986
7.5144 -1.5145 0.1087
7.3900 -1.5507 0.0263
7.3896 -1.5527 -0.0634
7.3488 -1.5659 -0.1504
6.5171 -1.7991 -0.2834
5.7647 -2.0073 -0.2681
5.3252 -2.1291 -0.2702
5.1727 -2.1715 -0.2765
4.9435 -2.2354 -0.2951
4.6696 -2.3109 -0.2731
4.5630 -2.3402 -0.2652
4.4986 -2.3582 -0.2721
4.4205 -2.3798 -0.2688
4.3566 -2.3975 -0.2691
4.2335 -2.4315 -0.2625
4.1855 -2.4448 -0.2629
4.1070 -2.4666 -0.2684
4.0626 -2.4789 -0.2640
3.9948 -2.4977 -0.2648
3.9262 -2.5165 -0.2570
3.8795 -2.5296 -0.2624
3.8560 -2.5361 -0.2628
3.8346 -2.5420 -0.2641
3.7851 -2.5556 -0.2548
3.7673 -2.5605 -0.2562
3.7529 -2.5646 -0.2607
3.7159 -2.5748 -0.2560
3.6869 -2.5828 -0.2577
3.6703 -2.5873 -0.2539
3.6604 -2.5902 -0.2595
3.6465 -2.5940 -0.2578
3.6321 -2.5979 -0.2544
3.6228 -2.6006 -0.2587
3.6109 -2.6039 -0.2578
3.5904 -2.6096 -0.2597
3.5786 -2.6128 -0.2561
3.5707 -2.6151 -0.2600
6.9641 -1.3748 0.8158
6.9916 -1.3628 0.7510
6.9265 -1.3859 0.6740
7.1107 -1.3090 0.3898
7.1431 -1.2948 0.3103
7.1776 -1.2797 0.2277
7.1760 -1.2783 0.1433
7.1372 -1.2912 0.0596
7.1357 -1.2898 -0.0273
7.2899 -1.2285 -0.1327
7.2089 -1.2575 -0.2164
7.0542 -1.3150 -0.2866
5.5867 -1.8753 -0.2882
5.1442 -2.0446 -0.2724
5.0447 -2.0822 -0.2895
4.8899 -2.1415 -0.2814
4.4799 -2.2984 -0.2691
4.2608 -2.3824 -0.2528
4.2065 -2.4032 -0.2509
4.1259 -2.4338 -0.2574
4.0459 -2.4644 -0.2552
4.0084 -2.4788 -0.2525
3.9792 -2.4899 -0.2547
3.8257 -2.5485 -0.2540
3.8033 -2.5571 -0.2517
3.7865 -2.5634 -0.2549
3.7679 -2.5706 -0.2545
3.7475 -2.5785 -0.2504
3.7332 -2.5838 -0.2534
3.7177 -2.5897 -0.2538
3.7040 -2.5949 -0.2556
3.6878 -2.6012 -0.2526
3.6752 -2.6060 -0.2543
3.6610 -2.6114 -0.2521
3.6365 -2.6208 -0.2517
3.6250 -2.6252 -0.2513
3.6130 -2.6298 -0.2492
3.6043 -2.6331 -0.2527
3.5940 -2.6370 -0.2522
3.5833 -2.6411 -0.2499
3.5740 -2.6447 -0.2497
3.5676 -2.6470 -0.2559
6.9248 -1.3244 1.1597
7.0725 -1.2635 1.1306
6.9745 -1.2981 0.9787
7.0311 -1.2709 0.8526
6.9906 -1.2799 0.6335
6.9874 -1.2787 0.5595
7.1170 -1.2213 0.4118
7.2644 -1.1589 0.3323
7.1492 -1.2027 0.2478
7.1852 -1.1852 0.1615
7.1837 -1.1828 0.0740
7.0694 -1.2264 -0.0063
7.1806 -1.1780 -0.1065
7.1018 -1.2071 -0.1897
6.9872 -1.2509 -0.2654
6.0719 -1.6216 -0.2649
5.8512 -1.7103 -0.2861
5.5865 -1.8175 -0.2857
5.3110 -1.9296 -0.2690
5.1366 -2.0002 -0.2700
4.8938 -2.0980 -0.2846
4.6221 -2.2088 -0.2619
4.4489 -2.2791 -0.2579
4.3238 -2.3296 -0.2619
4.2117 -2.3751 -0.2603
4.1128 -2.4153 -0.2549
4.0315 -2.4483 -0.2514
3.9757 -2.4706 -0.2601
3.9061 -2.4992 -0.2488
3.8611 -2.5173 -0.2539
3.8396 -2.5259 -0.2555
3.8178 -2.5347 -0.2553
3.7987 -2.5424 -0.2569
3.7763 -2.5516 -0.2530
3.7579 -2.5591 -0.2528
3.7407 -2.5660 -0.2528
3.7272 -2.5714 -0.2570
3.7092 -2.5788 -0.2535
3.6943 -2.5848 -0.2534
3.6830 -2.5892 -0.2580
3.6674 -2.5957 -0.2545
3.6552 -2.6006 -0.2558
3.6414 -2.6062 -0.2532
3.6280 -2.6118 -0.2500
3.6172 -2.6161 -0.2509
3.6061 -2.6207 -0.2501
3.5957 -2.6248 -0.2500
3.5873 -2.6282 -0.2533
3.5773 -2.6322 -0.2525
3.5697 -2.6352 -0.2564
3.5596 -2.6394 -0.2534
7.1114 -1.1685 1.1712
7.0127 -1.2069 1.0824
6.9785 -1.2182 1.0087
6.8458 -1.2650 0.7833
7.2398 -1.0915 0.6834
6.9915 -1.1936 0.5838
6.9888 -1.1913 0.5074
7.0187 -1.1750 0.4307
7.4840 -0.9722 0.3580
7.0091 -1.1682 0.1859
7.0059 -1.1657 0.1012
7.0761 -1.1315 0.0091
7.1893 -1.0783 -0.0925
7.0708 -1.1256 -0.1727
6.8168 -1.2320 -0.2286
6.0825 -1.5455 -0.2612
5.8934 -1.6253 -0.2917
5.2618 -1.8979 -0.2538
5.1201 -1.9582 -0.2647
4.6005 -2.1815 -0.2556
4.5385 -2.2076 -0.2675
4.4567 -2.2427 -0.2662
4.2646 -2.3251 -0.2667
4.2003 -2.3531 -0.2592
4.1579 -2.3711 -0.2629
4.1114 -2.3911 -0.2610
4.0808 -2.4039 -0.2685
4.0335 -2.4245 -0.2609
3.9030 -2.4808 -0.2551
3.8584 -2.4996 -0.2612
3.8297 -2.5122 -0.2548
3.8061 -2.5225 -0.2523
3.7674 -2.5390 -0.2530
3.7500 -2.5464 -0.2539
3.7343 -2.5531 -0.2560
3.7163 -2.5609 -0.2535
3.7006 -2.5677 -0.2532
3.6905 -2.5717 -0.2606
3.6728 -2.5795 -0.2548
3.6575 -2.5863 -0.2514
3.6461 -2.5910 -0.2539
3.6332 -2.5966 -0.2525
3.6241 -2.6003 -0.2576
3.6100 -2.6066 -0.2516
3.6001 -2.6108 -0.2534
3.5888 -2.6157 -0.2510
3.5793 -2.6198 -0.2519
3.5716 -2.6229 -0.2563
3.5620 -2.6270 -0.2551
3.5531 -2.6309 -0.2549
7.0574 -1.1176 1.3218
6.9918 -1.1427 1.2400
6.9280 -1.1672 1.1596
6.9857 -1.1380 1.1076
6.9830 -1.1354 1.0398
6.8562 -1.1877 0.9476
6.9771 -1.1302 0.9004
6.9737 -1.1277 0.8288
6.9380 -1.1396 0.7518
7.3284 -0.9606 0.7205
6.9634 -1.1198 0.6062
7.2484 -0.9871 0.5480
7.2084 -1.0004 0.4618
7.0936 -1.0476 0.3739
7.2854 -0.9557 0.2891
7.0151 -1.0736 0.2048
7.0116 -1.0703 0.1185
6.9014 -1.1159 0.0382
6.9685 -1.0801 -0.0557
6.9651 -1.0765 -0.1464
6.8885 -1.1067 -0.2282
6.8137 -1.1361 -0.3084
6.0939 -1.4657 -0.2574
5.8440 -1.5781 -0.2761
5.3479 -1.8033 -0.2771
5.0758 -1.9283 -0.2507
4.8380 -2.0353 -0.2673
4.7004 -2.0983 -0.2587
4.6081 -2.1400 -0.2622
4.4363 -2.2181 -0.2604
4.3814 -2.2425 -0.2690
4.3119 -2.2742 -0.2662
4.2491 -2.3029 -0.2633
4.1392 -2.3532 -0.2569
4.0976 -2.3720 -0.2584
4.0186 -2.4079 -0.2570
3.9240 -2.4508 -0.2581
3.8971 -2.4629 -0.2589
3.8700 -2.4753 -0.2577
3.8449 -2.4867 -0.2569
3.8219 -2.4972 -0.2566
3.7758 -2.5185 -0.2510
3.7576 -2.5267 -0.2520
3.7378 -2.5358 -0.2493
3.7237 -2.5420 -0.2534
3.7060 -2.5501 -0.2511
3.6919 -2.5564 -0.2529
3.6756 -2.5640 -0.2500
3.6645 -2.5688 -0.2547
3.6506 -2.5751 -0.2537
3.6394 -2.5801 -0.2564
3.6255 -2.5866 -0.2529
3.6153 -2.5910 -0.2558
3.6037 -2.5964 -0.2547
3.5923 -2.6017 -0.2530
3.5817 -2.6065 -0.2520
3.5724 -2.6107 -0.2530
3.5612 -2.6160 -0.2485
3.5538 -2.6192 -0.2525
3.5460 -2.6226 -0.2550
6.9654 -1.0737 1.2664
6.9006 -1.0992 1.1850
6.8667 -1.1105 1.1119
6.8929 -1.0937 1.0517
6.8894 -1.0907 0.9834
6.8853 -1.0879 0.9138
6.9448 -1.0552 0.8528
6.9412 -1.0519 0.7795
6.9712 -1.0326 0.7087
6.9013 -1.0605 0.6258
7.1426 -0.9406 0.5667
7.1796 -0.9172 0.4851
6.8549 -1.0666 0.3902
6.7545 -1.1092 0.3093
7.0584 -0.9575 0.2237
7.0180 -0.9709 0.1366
6.9051 -1.0195 0.0544
6.7969 -1.0660 -0.0247
6.7581 -1.0789 -0.1084
6.7528 -1.0754 -0.1970
6.6804 -1.1047 -0.2759
6.1285 -1.3708 -0.2579
5.8878 -1.4848 -0.2815
5.3801 -1.7282 -0.2850
5.0669 -1.8812 -0.2478
4.9933 -1.9146 -0.2756
4.7126 -2.0500 -0.2664
4.5134 -2.1458 -0.2636
4.3652 -2.2168 -0.2655
4.1779 -2.3072 -0.2579
4.1409 -2.3245 -0.2654
4.0828 -2.3530 -0.2551
4.0499 -2.3685 -0.2606
4.0091 -2.3883 -0.2576
3.9737 -2.4053 -0.2567
3.9430 -2.4200 -0.2576
3.9144 -2.4337 -0.2585
3.8604 -2.4596 -0.2580
3.8137 -2.4820 -0.2582
3.7697 -2.5034 -0.2550
3.7329 -2.5211 -0.2550
3.7163 -2.5289 -0.2556
3.6989 -2.5375 -0.2535
3.6706 -2.5509 -0.2559
3.6549 -2.5587 -0.2525
3.6442 -2.5635 -0.2570
3.6302 -2.5704 -0.2544
3.6154 -2.5778 -0.2488
3.6060 -2.5821 -0.2528
3.5962 -2.5866 -0.2553
3.5834 -2.5931 -0.2502
3.5740 -2.5975 -0.2517
3.5648 -2.6019 -0.2528
3.5553 -2.6065 -0.2523
3.5465 -2.6107 -0.2525
3.5384 -2.6145 -0.2538
6.8433 -1.0444 1.2032
6.8691 -1.0265 1.1445
6.8654 -1.0229 1.0770
6.8611 -1.0196 1.0082
6.7958 -1.0460 0.9270
6.8839 -0.9969 0.8721
6.8797 -0.9931 0.7990
7.0098 -0.9224 0.7409
6.8715 -0.9851 0.6487
6.9336 -0.9477 0.5767
7.0001 -0.9078 0.5005
6.9965 -0.9029 0.4171
6.8865 -0.9517 0.3310
7.1430 -0.8145 0.2434
7.1405 -0.8082 0.1511
6.9092 -0.9190 0.0711
6.7649 -0.9859 -0.0069
6.7932 -0.9641 -0.0991
6.7193 -0.9949 -0.1806
6.6797 -1.0081 -0.2660
6.1421 -1.2817 -0.2539
5.8750 -1.4156 -0.2739
5.6990 -1.5025 -0.3034
5.4844 -1.6105 -0.3132
5.1161 -1.8014 -0.2632
4.9840 -1.8675 -0.2734
4.7132 -2.0052 -0.2694
4.5143 -2.1062 -0.2683
4.3596 -2.1847 -0.2679
4.1304 -2.3011 -0.2656
3.9636 -2.3864 -0.2569
3.9356 -2.4004 -0.2603
3.9117 -2.4121 -0.2660
3.8492 -2.4445 -0.2566
3.7626 -2.4883 -0.2581
3.7442 -2.4976 -0.2588
3.7243 -2.5079 -0.2559
3.6897 -2.5257 -0.2529
3.6601 -2.5408 -0.2526
3.6464 -2.5477 -0.2524
3.6329 -2.5546 -0.2516
3.6242 -2.5584 -0.2590
3.6108 -2.5655 -0.2559
3.5993 -2.5714 -0.2556
3.5880 -2.5771 -0.2547
3.5755 -2.5839 -0.2497
3.5657 -2.5888 -0.2501
3.5562 -2.5936 -0.2501
3.5492 -2.5967 -0.2560
3.5392 -2.6021 -0.2525
3.5298 -2.6071 -0.2499
7.2891 -0.7596 1.6391
6.8583 -0.9707 1.4310
6.6311 -1.0799 1.2993
6.7859 -0.9896 1.2213
6.7521 -1.0009 1.1482
6.8368 -0.9512 1.1027
6.7718 -0.9783 1.0207
6.7667 -0.9745 0.9514
6.9866 -0.8537 0.9196
6.9835 -0.8482 0.8435
6.8459 -0.9129 0.7484
6.8643 -0.8812 0.5170
6.8946 -0.8574 0.4369
6.7549 -0.9241 0.3507
6.7489 -0.9195 0.2683
6.7432 -0.9147 0.1843
6.8409 -0.8537 0.0928
6.6656 -0.9405 0.0169
6.7947 -0.8617 -0.0853
5.8418 -1.3554 -0.2616
5.6844 -1.4364 -0.2966
4.9737 -1.8195 -0.2709
4.7195 -1.9552 -0.2750
4.4834 -2.0832 -0.2579
4.4418 -2.1036 -0.2782
4.2609 -2.2028 -0.2542
4.2109 -2.2291 -0.2590
4.1063 -2.2854 -0.2560
3.9926 -2.3457 -0.2617
3.9547 -2.3664 -0.2584
3.8928 -2.3996 -0.2575
3.8671 -2.4132 -0.2593
3.8378 -2.4293 -0.2552
3.7952 -2.4516 -0.2596
3.7717 -2.4645 -0.2566
3.7539 -2.4738 -0.2593
3.7295 -2.4876 -0.2514
3.7175 -2.4933 -0.2595
3.6809 -2.5135 -0.2532
3.6662 -2.5213 -0.2536
3.6512 -2.5295 -0.2523
3.6377 -2.5367 -0.2523
3.6262 -2.5426 -0.2549
3.6127 -2.5501 -0.2525
3.6022 -2.5555 -0.2551
3.5908 -2.5616 -0.2549
3.5803 -2.5672 -0.2553
3.5685 -2.5739 -0.2517
3.5579 -2.5797 -0.2498
3.5412 -2.5882 -0.2545
3.5330 -2.5924 -0.2564
3.5247 -2.5968 -0.2565
6.8014 -0.9164 1.4490
6.6833 -0.9724 1.3498
6.7342 -0.9387 1.3041
6.7870 -0.9036 1.2558
6.9643 -0.7861 1.0949
6.9881 -0.7488 0.8749
4.7376 -1.9720 0.4238
6.7940 -0.8132 0.4563
6.7223 -0.8446 0.3718
6.7833 -0.8012 0.2887
6.7106 -0.8331 0.2042
6.8073 -0.7686 0.1126
6.6979 -0.8215 0.0300
6.7954 -0.7555 -0.0708
6.7900 -0.7483 -0.1655
5.7894 -1.3053 -0.2450
5.6174 -1.3991 -0.2765
5.1406 -1.6691 -0.2708
4.9552 -1.7745 -0.2656
4.8525 -1.8309 -0.2810
4.6002 -1.9743 -0.2734
4.4792 -2.0441 -0.2604
4.4077 -2.0839 -0.2656
4.3290 -2.1288 -0.2625
4.2568 -2.1700 -0.2582
4.2083 -2.1968 -0.2644
4.0938 -2.2625 -0.2549
3.9834 -2.3240 -0.2632
3.9382 -2.3506 -0.2532
3.9040 -2.3703 -0.2503
3.8858 -2.3794 -0.2612
3.8550 -2.3972 -0.2575
3.8249 -2.4148 -0.2522
3.8113 -2.4212 -0.2641
3.7406 -2.4622 -0.2544
3.7277 -2.4686 -0.2626
3.7061 -2.4815 -0.2566
3.6868 -2.4928 -0.2522
3.6726 -2.5007 -0.2545
3.6569 -2.5096 -0.2531
3.6284 -2.5260 -0.2511
3.6023 -2.5410 -0.2483
3.5910 -2.5474 -0.2487
3.5813 -2.5525 -0.2519
3.5705 -2.5587 -0.2512
3.5617 -2.5633 -0.2547
3.5518 -2.5689 -0.2543
3.5412 -2.5753 -0.2508
3.5251 -2.5840 -0.2550
6.8901 -0.7736 1.4532
6.7264 -0.7988 0.8627
4.7169 -1.9442 0.4325
6.6573 -0.7825 0.3924
6.9672 -0.5878 0.3112
6.9246 -0.6019 0.2194
6.6702 -0.7436 0.1376
6.6638 -0.7365 0.0489
6.5267 -0.8088 -0.0284
6.5184 -0.8029 -0.1170
5.8136 -1.2074 -0.2452
5.6347 -1.3101 -0.2775
5.3359 -1.4895 -0.2667
5.1431 -1.6039 -0.2715
4.8408 -1.7832 -0.2788
4.6100 -1.9204 -0.2819
4.3900 -2.0541 -0.2617
4.3088 -2.1031 -0.2571
4.2643 -2.1281 -0.2695
4.1481 -2.1976 -0.2674
4.0446 -2.2603 -0.2592
3.9659 -2.3074 -0.2577
3.9301 -2.3290 -0.2558
3.9039 -2.3440 -0.2609
3.8512 -2.3748 -0.2652
3.8197 -2.3945 -0.2582
3.7985 -2.4068 -0.2612
3.7783 -2.4185 -0.2640
3.7544 -2.4332 -0.2600
3.7159 -2.4563 -0.2595
3.7005 -2.4650 -0.2628
3.6792 -2.4787 -0.2551
3.6651 -2.4867 -0.2576
3.6497 -2.4960 -0.2565
3.6201 -2.5143 -0.2519
3.6073 -2.5219 -0.2516
3.5949 -2.5295 -0.2506
3.5851 -2.5348 -0.2545
3.5761 -2.5397 -0.2591
3.5626 -2.5486 -0.2518
3.5544 -2.5529 -0.2566
3.5455 -2.5579 -0.2587
3.5350 -2.5645 -0.2555
3.5261 -2.5699 -0.2554
7.1306 -0.5415 1.5738
6.8882 -0.6735 1.4257
6.9806 -0.6003 1.3153
6.9083 -0.6332 1.2242
6.7745 -0.7030 1.1197
6.7691 -0.6964 1.0475
4.6169 -1.9606 0.4025
6.6494 -0.6732 0.3311
6.7447 -0.6012 0.2438
6.7035 -0.6149 0.1549
6.8418 -0.5140 0.0536
6.7984 -0.5285 -0.0401
6.5798 -0.6560 -0.1119
6.5711 -0.6485 -0.2058
5.5673 -1.2724 -0.2573
5.2654 -1.4639 -0.2453
5.1452 -1.5357 -0.2721
4.8691 -1.7065 -0.2921
4.7274 -1.7962 -0.2881
4.6075 -1.8720 -0.2851
4.4091 -1.9977 -0.2778
4.2348 -2.1099 -0.2583
4.1364 -2.1705 -0.2675
4.0390 -2.2322 -0.2640
3.9281 -2.3018 -0.2647
3.8791 -2.3351 -0.2470
3.7843 -2.3933 -0.2567
3.7447 -2.4177 -0.2607
3.7028 -2.4448 -0.2547
3.6708 -2.4647 -0.2569
3.6547 -2.4749 -0.2559
3.6391 -2.4850 -0.2540
3.6270 -2.4922 -0.2572
3.6116 -2.5025 -0.2527
3.5986 -2.5108 -0.2515
3.5854 -2.5195 -0.2485
3.5650 -2.5317 -0.2526
3.5550 -2.5379 -0.2534
3.5456 -2.5436 -0.2548
3.5364 -2.5493 -0.2558
3.5270 -2.5553 -0.2551
3.5179 -2.5612 -0.2539
3.5101 -2.5658 -0.2560
7.0028 -0.5381 1.7062
6.8009 -0.6406 1.5018
6.8267 -0.6148 1.4451
6.7294 -0.6643 1.3477
6.7858 -0.6193 1.2976
6.7805 -0.6119 1.2270
6.7435 -0.6242 1.1472
6.7691 -0.5973 1.0817
6.9636 -0.4387 0.8883
4.5485 -1.9651 0.4063
6.5272 -0.6582 0.4335
6.7162 -0.5209 0.3548
6.6750 -0.5346 0.2659
6.7382 -0.4785 0.1732
6.6256 -0.5397 0.0859
6.3641 -0.7023 0.0163
6.5423 -0.5673 -0.0937
6.5343 -0.5581 -0.1886
5.6189 -1.1527 -0.2665
5.2589 -1.3950 -0.2418
5.1256 -1.4797 -0.2658
4.6811 -1.7732 -0.2721
4.5709 -1.8462 -0.2727
4.3737 -1.9780 -0.2647
4.1457 -2.1320 -0.2456
4.1008 -2.1610 -0.2505
4.0619 -2.1859 -0.2568
4.0238 -2.2104 -0.2613
3.9390 -2.2677 -0.2540
3.9182 -2.2796 -0.2663
3.8804 -2.3056 -0.2599
3.8239 -2.3432 -0.2591
3.8022 -2.3570 -0.2631
3.7785 -2.3727 -0.2630
3.7526 -2.3907 -0.2576
3.7302 -2.4059 -0.2549
3.6920 -2.4314 -0.2533
3.6595 -2.4529 -0.2541
3.6458 -2.4615 -0.2569
3.6275 -2.4748 -0.2495
3.6156 -2.4822 -0.2527
3.6034 -2.4900 -0.2544
3.5897 -2.4996 -0.2514
3.5790 -2.5062 -0.2539
3.5576 -2.5203 -0.2552
3.5464 -2.5280 -0.2527
3.5359 -2.5353 -0.2507
3.5266 -2.5415 -0.2506
3.5182 -2.5468 -0.2523
