ply
format ascii 1.0
element vertex 2193
property float x
property float y
property float z
end_header
5.7349 2.5541 -0.3545
5.7606 2.5675 -0.3983
5.8157 2.5963 -0.4926
5.8270 2.5855 -0.5319
5.7587 2.4384 -0.5480
5.7029 2.3176 -0.5620
5.6189 2.1695 -0.5428
5.5721 2.0766 -0.5445
5.5331 1.9988 -0.5463
5.4932 1.9253 -0.5411
5.4651 1.8688 -0.5428
5.4470 1.8379 -0.5375
5.4379 1.8169 -0.5413
5.4177 1.7750 -0.5444
5.4067 1.7541 -0.5435
5.3913 1.7300 -0.5365
5.3847 1.7144 -0.5396
5.3793 1.7003 -0.5440
5.3703 1.6835 -0.5430
5.3619 1.6677 -0.5421
5.3504 1.6501 -0.5364
5.3488 1.6405 -0.5440
5.3330 1.6129 -0.5402
5.3196 1.5887 -0.5379
5.3725 2.5510 0.4149
5.3861 2.5645 0.3977
5.3899 2.5492 0.3709
5.4004 2.5527 0.3495
5.4137 2.5628 0.3293
5.4245 2.5656 0.3064
5.4385 2.5760 0.2847
5.4500 2.5792 0.2606
5.4622 2.5833 0.2360
5.4776 2.5946 0.2120
5.4864 2.5892 0.1845
5.4957 2.5846 0.1567
5.5145 2.6012 0.1307
5.5146 2.5750 0.1001
5.5223 2.5658 0.0709
5.5299 2.5565 0.0416
5.5337 2.5389 0.0120
5.5597 2.5667 -0.0184
5.5682 2.5577 -0.0491
5.6223 2.6105 -0.1184
5.6312 2.6004 -0.1518
5.6376 2.5854 -0.1846
5.6545 2.5891 -0.2209
5.6610 2.5739 -0.2542
5.6648 2.5541 -0.2864
5.6740 2.5434 -0.3209
5.6865 2.5380 -0.3572
5.7133 2.5553 -0.4019
5.7725 2.5940 -0.4996
5.7796 2.5773 -0.5362
5.6429 2.2832 -0.5477
5.5822 2.1614 -0.5426
5.4683 1.9240 -0.5435
5.4498 1.8896 -0.5388
5.4366 1.8621 -0.5389
5.4276 1.8400 -0.5428
5.4132 1.8130 -0.5395
5.4070 1.7951 -0.5452
5.3967 1.7738 -0.5452
5.3863 1.7529 -0.5442
5.3723 1.7294 -0.5377
5.3673 1.7150 -0.5425
5.3563 1.6955 -0.5384
5.3517 1.6823 -0.5428
5.3451 1.6677 -0.5437
5.3355 1.6511 -0.5398
5.3292 1.6377 -0.5402
5.3121 1.6087 -0.5326
5.3110 1.6004 -0.5397
5.3099 1.5921 -0.5465
5.3597 2.5713 0.3928
5.3718 2.5807 0.3732
5.3722 2.5547 0.3431
5.3889 2.5764 0.3257
5.4006 2.5554 0.2730
5.4112 2.5578 0.2491
5.4224 2.5610 0.2248
5.4355 2.5682 0.2004
5.4552 2.5914 0.1773
5.4695 2.5998 0.1510
5.4735 2.5822 0.1214
5.4792 2.5689 0.0922
5.4993 2.5889 0.0646
5.5015 2.5670 0.0344
5.5128 2.5656 0.0046
5.5289 2.5741 -0.0260
5.5556 2.5767 -0.0897
5.5661 2.5711 -0.1221
5.5791 2.5702 -0.1555
5.6044 2.5927 -0.1935
5.6109 2.5776 -0.2264
5.6073 2.5440 -0.2553
5.6212 2.5429 -0.2912
5.6567 2.5795 -0.3385
5.6778 2.5889 -0.3806
5.6701 2.5482 -0.4070
5.7004 2.5718 -0.4562
5.7200 2.5762 -0.5001
5.6827 2.4639 -0.5335
5.6020 2.2726 -0.5473
5.5535 2.1635 -0.5491
5.4867 2.0215 -0.5422
5.4731 1.9884 -0.5454
5.4573 1.9538 -0.5451
5.4425 1.9214 -0.5445
5.4297 1.8925 -0.5451
5.4148 1.8622 -0.5421
5.4033 1.8367 -0.5420
5.3927 1.8130 -0.5423
5.3697 1.7661 -0.5377
5.3635 1.7491 -0.5414
5.3559 1.7312 -0.5425
5.3487 1.7143 -0.5436
5.3369 1.6937 -0.5374
5.3320 1.6799 -0.5406
5.3218 1.6619 -0.5354
5.3140 1.6382 -0.5425
5.2970 1.6086 -0.5335
5.2954 1.5998 -0.5394
5.2910 1.5891 -0.5405
5.2879 1.5796 -0.5434
5.3051 2.5681 0.4493
5.3111 2.5604 0.4256
5.3188 2.5586 0.4036
5.3281 2.5613 0.3827
5.3378 2.5650 0.3616
5.3484 2.5708 0.3404
5.3550 2.5634 0.3153
5.3625 2.5582 0.2905
5.3715 2.5575 0.2664
5.3818 2.5599 0.2424
5.3898 2.5553 0.2166
5.4036 2.5660 0.1928
5.4283 2.5772 0.1411
5.4418 2.5844 0.1142
5.4508 2.5796 0.0856
5.4634 2.5829 0.0568
5.4743 2.5817 0.0273
5.4802 2.5680 -0.0028
5.4882 2.5593 -0.0330
5.5017 2.5625 -0.0642
5.5175 2.5702 -0.0967
5.5236 2.5560 -0.1279
5.5402 2.5639 -0.1622
5.5779 2.6143 -0.2048
5.5821 2.5943 -0.2373
5.5862 2.5744 -0.2696
5.6004 2.5739 -0.3066
5.6146 2.5731 -0.3444
5.6213 2.5576 -0.3784
5.6328 2.5509 -0.4155
5.6649 2.5797 -0.4669
5.6899 2.5945 -0.5155
5.6514 2.4748 -0.5460
5.5925 2.3314 -0.5499
5.4850 2.0896 -0.5354
5.4592 2.0196 -0.5448
5.4265 1.9453 -0.5411
5.4135 1.9144 -0.5413
5.3974 1.8807 -0.5364
5.3885 1.8568 -0.5394
5.3834 1.8381 -0.5466
5.3616 1.7893 -0.5432
5.3430 1.7472 -0.5410
5.3322 1.7256 -0.5366
5.3260 1.7094 -0.5383
5.3210 1.6948 -0.5411
5.3152 1.6799 -0.5423
5.3079 1.6641 -0.5408
5.3037 1.6516 -0.5436
5.2950 1.6354 -0.5385
5.2905 1.6234 -0.5400
5.2834 1.6096 -0.5366
5.2774 1.5971 -0.5347
5.2745 1.5875 -0.5378
5.2722 2.5778 0.4668
5.2770 2.5664 0.4418
5.2809 2.5513 0.4157
5.2903 2.5569 0.3962
5.2983 2.5561 0.3742
5.3086 2.5635 0.3542
5.3147 2.5552 0.3293
5.3239 2.5573 0.3068
5.3326 2.5568 0.2832
5.3424 2.5595 0.2598
5.3549 2.5699 0.2372
5.3602 2.5574 0.2099
5.3644 2.5416 0.1821
5.3708 2.5324 0.1553
5.4055 2.5739 0.1060
5.4174 2.5776 0.0781
5.4247 2.5684 0.0489
5.4368 2.5716 0.0197
5.4443 2.5621 -0.0101
5.4534 2.5566 -0.0403
5.4647 2.5558 -0.0712
5.4706 2.5420 -0.1016
5.4974 2.5760 -0.1377
5.5157 2.5886 -0.1733
5.5285 2.5882 -0.2081
5.5371 2.5780 -0.2417
5.5479 2.5723 -0.2767
5.5499 2.5480 -0.3074
5.5727 2.5657 -0.3498
5.5917 2.5746 -0.3915
5.5984 2.5588 -0.4259
5.6155 2.5624 -0.4678
5.6389 2.5766 -0.5157
5.6320 2.5355 -0.5401
5.5995 2.4514 -0.5414
5.5471 2.3133 -0.5457
5.4586 2.0915 -0.5414
5.4400 2.0461 -0.5390
5.4282 2.0123 -0.5429
5.4028 1.9454 -0.5449
5.3777 1.8836 -0.5426
5.3592 1.8340 -0.5449
5.3493 1.8098 -0.5439
5.3437 1.7913 -0.5483
5.3228 1.7452 -0.5406
5.3184 1.7299 -0.5448
5.3068 1.7075 -0.5374
5.2954 1.6769 -0.5390
5.2904 1.6629 -0.5402
5.2871 1.6509 -0.5439
5.2794 1.6353 -0.5397
5.2734 1.6217 -0.5379
5.2672 1.6084 -0.5353
5.2647 1.5986 -0.5388
5.2621 1.5889 -0.5419
5.2562 1.5770 -0.5387
5.2425 2.5685 0.4565
5.2491 2.5646 0.4344
5.2557 2.5606 0.4119
5.2657 2.5697 0.3934
5.2926 2.5795 0.3287
5.2964 2.5628 0.3012
5.3038 2.5589 0.2766
5.3143 2.5650 0.2539
5.3185 2.5494 0.2264
5.3329 2.5673 0.2044
5.3383 2.5548 0.1769
5.3485 2.5575 0.1513
5.3770 2.5847 0.0995
5.3900 2.5926 0.0715
5.3928 2.5707 0.0417
5.4090 2.5863 0.0124
5.4149 2.5726 -0.0176
5.4257 2.5721 -0.0483
5.4332 2.5622 -0.0790
5.4411 2.5532 -0.1100
5.4575 2.5647 -0.1438
5.4749 2.5776 -0.1792
5.4852 2.5725 -0.2129
5.4915 2.5578 -0.2451
5.5015 2.5515 -0.2793
5.5185 2.5597 -0.3180
5.5408 2.5784 -0.3612
5.5517 2.5718 -0.3982
5.5610 2.5615 -0.4344
5.5700 2.5502 -0.4705
5.5870 2.5543 -0.5137
5.5091 2.3057 -0.5474
5.4842 2.2398 -0.5444
5.4714 2.1968 -0.5523
5.4477 2.1374 -0.5462
5.4332 2.0949 -0.5485
5.3984 2.0058 -0.5416
5.3852 1.9698 -0.5410
5.3721 1.9354 -0.5392
5.3663 1.9125 -0.5463
5.3557 1.8837 -0.5459
5.3381 1.8465 -0.5343
5.3311 1.8245 -0.5370
5.3255 1.8051 -0.5410
5.3203 1.7867 -0.5450
5.3034 1.7439 -0.5410
5.2889 1.7069 -0.5383
5.2851 1.6929 -0.5417
5.2794 1.6774 -0.5415
5.2742 1.6628 -0.5417
5.2694 1.6491 -0.5421
5.2628 1.6341 -0.5387
5.2595 1.6227 -0.5410
5.2543 1.6099 -0.5395
5.2502 1.5985 -0.5396
5.2472 1.5883 -0.5414
5.2440 1.5784 -0.5428
5.2136 2.5604 0.4468
5.2252 2.5813 0.4333
5.2576 2.5889 0.3473
5.2639 2.5816 0.3222
5.2690 2.5695 0.2958
5.2751 2.5609 0.2701
5.2881 2.5785 0.2494
5.2925 2.5628 0.2217
5.2987 2.5538 0.1952
5.3097 2.5613 0.1707
5.3151 2.5487 0.1432
5.3428 2.5783 0.0917
5.3484 2.5651 0.0629
5.3609 2.5730 0.0344
5.3781 2.5939 0.0050
5.3780 2.5626 -0.0247
5.3866 2.5571 -0.0549
5.4368 2.5713 -0.1857
5.4464 2.5654 -0.2191
5.4600 2.5688 -0.2549
5.4663 2.5540 -0.2874
5.4928 2.5863 -0.3328
5.4994 2.5709 -0.3665
5.5105 2.5654 -0.4036
5.5302 2.5784 -0.4482
5.5438 2.5466 -0.5178
5.5323 2.4939 -0.5352
5.5212 2.4439 -0.5513
5.4754 2.3047 -0.5528
5.4396 2.1941 -0.5557
5.4165 2.1331 -0.5480
5.3994 2.0844 -0.5453
5.3831 2.0390 -0.5419
5.3730 2.0053 -0.5452
5.3602 1.9685 -0.5436
5.3499 1.9370 -0.5443
5.3413 1.9090 -0.5463
5.3324 1.8816 -0.5470
5.3208 1.8514 -0.5426
5.3134 1.8280 -0.5437
5.3038 1.8024 -0.5404
5.2974 1.7820 -0.5417
5.2888 1.7595 -0.5386
5.2816 1.7394 -0.5370
5.2788 1.7254 -0.5425
5.2728 1.7080 -0.5419
5.2619 1.6761 -0.5411
5.2587 1.6633 -0.5441
5.2526 1.6479 -0.5413
5.2480 1.6346 -0.5409
5.2433 1.6215 -0.5399
5.2379 1.6082 -0.5371
5.2346 1.5973 -0.5381
5.2318 1.5872 -0.5398
5.2301 1.5783 -0.5434
5.1750 2.5707 0.4843
5.1829 2.5773 0.4667
5.1895 2.5761 0.4456
5.1972 2.5796 0.4259
5.2013 2.5644 0.3996
5.2077 2.5603 0.3768
5.2146 2.5584 0.3544
5.2244 2.5695 0.3350
5.2326 2.5718 0.3127
5.2369 2.5564 0.2858
5.2480 2.5699 0.2650
5.2551 2.5658 0.2399
5.2603 2.5535 0.2131
5.2675 2.5491 0.1875
5.2786 2.5590 0.1634
5.2881 2.5618 0.1375
5.3001 2.5731 0.1117
5.3183 2.5716 0.0559
5.3278 2.5710 0.0271
5.3322 2.5535 -0.0021
5.3444 2.5608 -0.0319
5.3528 2.5554 -0.0621
5.3670 2.5669 -0.0941
5.3926 2.5784 -0.1604
5.4054 2.5825 -0.1950
5.4166 2.5814 -0.2295
5.4229 2.5666 -0.2619
5.4347 2.5659 -0.2977
5.4544 2.5843 -0.3398
5.4587 2.5635 -0.3717
5.4754 2.5726 -0.4136
5.4947 2.5864 -0.4588
5.4992 2.5652 -0.4916
5.5127 2.5641 -0.5330
5.4913 2.4871 -0.5390
5.4780 2.4303 -0.5511
5.4582 2.3622 -0.5537
5.4452 2.3103 -0.5620
5.4237 2.2441 -0.5581
5.3866 2.1303 -0.5508
5.3583 2.0408 -0.5476
5.3310 1.9598 -0.5395
5.3219 1.9290 -0.5404
5.3126 1.8990 -0.5397
5.3071 1.8760 -0.5443
5.2958 1.8451 -0.5387
5.2880 1.8204 -0.5378
5.2814 1.7983 -0.5382
5.2760 1.7787 -0.5399
5.2704 1.7594 -0.5408
5.2642 1.7400 -0.5399
5.2598 1.7235 -0.5417
5.2517 1.7030 -0.5362
5.2520 1.6933 -0.5460
5.2446 1.6748 -0.5406
5.2411 1.6615 -0.5424
5.2344 1.6450 -0.5373
5.2328 1.6344 -0.5420
5.2274 1.6203 -0.5386
5.2255 1.6102 -0.5423
5.2236 1.6004 -0.5456
5.2179 1.5797 -0.5475
5.1492 2.5764 0.4798
5.1550 2.5716 0.4578
5.1632 2.5817 0.4408
5.1662 2.5592 0.4122
5.1729 2.5590 0.3911
5.1797 2.5586 0.3695
5.1871 2.5604 0.3481
5.1971 2.5750 0.3296
5.2080 2.5927 0.3108
5.2107 2.5689 0.2817
5.2207 2.5801 0.2601
5.2242 2.5598 0.2318
5.2320 2.5590 0.2071
5.2398 2.5580 0.1818
5.2461 2.5500 0.1552
5.2630 2.5849 0.1327
5.2693 2.5753 0.1047
5.2801 2.5828 0.0774
5.2903 2.5867 0.0491
5.3017 2.5944 0.0201
5.3005 2.5557 -0.0093
5.3086 2.5507 -0.0388
5.3179 2.5495 -0.0689
5.3286 2.5521 -0.1001
5.3467 2.5773 -0.1346
5.3616 2.5907 -0.1696
5.3768 2.6035 -0.2060
5.3815 2.5839 -0.2375
5.3945 2.5881 -0.2742
5.4009 2.5731 -0.3070
5.4141 2.5767 -0.3452
5.4261 2.5761 -0.3832
5.4528 2.5793 -0.4637
5.4574 2.5582 -0.4961
5.4494 2.4767 -0.5410
5.4230 2.3603 -0.5590
5.4012 2.2870 -0.5540
5.3535 2.1204 -0.5485
5.3266 2.0295 -0.5427
5.3101 1.9643 -0.5473
5.2916 1.9005 -0.5445
5.2832 1.8718 -0.5430
5.2736 1.8423 -0.5386
5.2700 1.8231 -0.5437
5.2630 1.7996 -0.5423
5.2568 1.7779 -0.5415
5.2499 1.7561 -0.5387
5.2464 1.7399 -0.5420
5.2419 1.7227 -0.5427
5.2368 1.7053 -0.5417
5.2320 1.6889 -0.5408
5.2290 1.6753 -0.5431
5.2253 1.6613 -0.5437
5.2201 1.6460 -0.5406
5.2157 1.6321 -0.5388
5.2142 1.6218 -0.5429
5.2095 1.6085 -0.5398
5.2078 1.5987 -0.5429
5.2050 1.5880 -0.5433
5.1205 2.5605 0.4671
5.1303 2.5874 0.4568
5.1332 2.5624 0.4273
5.1385 2.5549 0.4041
5.1476 2.5720 0.3884
5.1502 2.5459 0.3590
5.1574 2.5491 0.3382
5.1639 2.5472 0.3156
5.1796 2.5569 0.2721
5.1867 2.5555 0.2482
5.1975 2.5733 0.2273
5.2066 2.5804 0.2035
5.2103 2.5601 0.1751
5.2142 2.5410 0.1472
5.2260 2.5584 0.1230
5.2440 2.5645 0.0693
5.2516 2.5601 0.0411
5.2621 2.5671 0.0126
5.2720 2.5705 -0.0168
5.2745 2.5447 -0.0457
5.2879 2.5600 -0.0768
5.2996 2.5676 -0.1087
5.3104 2.5707 -0.1412
5.3216 2.5744 -0.1747
5.3407 2.5680 -0.2418
5.3515 2.5678 -0.2770
5.3683 2.5851 -0.3176
5.3845 2.5988 -0.3591
5.3879 2.5742 -0.3900
5.3961 2.5633 -0.4252
5.4129 2.5423 -0.4968
5.4287 2.5503 -0.5416
5.4100 2.4707 -0.5449
5.3768 2.3317 -0.5490
5.2980 2.0228 -0.5413
5.2887 1.9861 -0.5407
5.2835 1.9585 -0.5457
5.2724 1.9211 -0.5398
5.2694 1.8998 -0.5471
5.2601 1.8682 -0.5424
5.2501 1.8367 -0.5352
5.2409 1.7948 -0.5391
5.2297 1.7527 -0.5365
5.2270 1.7372 -0.5404
5.2216 1.7182 -0.5381
5.2227 1.7090 -0.5491
5.2143 1.6870 -0.5394
5.2116 1.6734 -0.5415
5.2069 1.6577 -0.5389
5.2048 1.6458 -0.5417
5.2017 1.6331 -0.5420
5.1980 1.6200 -0.5405
5.1952 1.6084 -0.5406
5.1922 1.5970 -0.5401
5.1911 1.5879 -0.5439
5.1895 1.5785 -0.5460
5.1023 2.5792 0.4471
5.1071 2.5680 0.4226
5.1189 2.5629 0.3788
5.1237 2.5515 0.3539
5.1310 2.5571 0.3336
5.1374 2.5563 0.3111
5.1446 2.5589 0.2889
5.1544 2.5777 0.2697
5.1606 2.5726 0.2446
5.2258 2.5869 0.0346
5.2352 2.5905 0.0054
5.2400 2.5728 -0.0240
5.2487 2.5718 -0.0541
5.2575 2.5705 -0.0848
5.2666 2.5699 -0.1162
5.2692 2.5430 -0.1450
5.2750 2.5293 -0.1750
5.2951 2.5674 -0.2146
5.3050 2.5666 -0.2488
5.3176 2.5741 -0.2858
5.3281 2.5735 -0.3220
5.3431 2.5865 -0.3630
5.3627 2.5760 -0.4372
5.3660 2.5505 -0.4673
5.3790 2.5538 -0.5090
5.3857 2.5381 -0.5433
5.3525 2.3832 -0.5458
5.3382 2.3171 -0.5466
5.2899 2.1011 -0.5438
5.2809 2.0596 -0.5441
5.2729 2.0222 -0.5449
5.2574 1.9526 -0.5440
5.2495 1.9197 -0.5418
5.2458 1.8962 -0.5468
5.2366 1.8632 -0.5401
5.2309 1.8380 -0.5396
5.2208 1.7927 -0.5390
5.2176 1.7744 -0.5418
5.2123 1.7533 -0.5394
5.2100 1.7378 -0.5433
5.2047 1.7181 -0.5399
5.2004 1.7008 -0.5384
5.1998 1.6893 -0.5449
5.1962 1.6739 -0.5439
5.1906 1.6564 -0.5380
5.1901 1.6463 -0.5439
5.1869 1.6329 -0.5430
5.1840 1.6205 -0.5425
5.1828 1.6104 -0.5459
5.1769 1.5872 -0.5432
5.0750 2.5735 0.4384
5.0795 2.5599 0.4132
5.0845 2.5512 0.3897
5.0963 2.5498 0.3468
5.1036 2.5590 0.3274
5.1094 2.5547 0.3039
5.1166 2.5609 0.2826
5.1237 2.5644 0.2600
5.1318 2.5746 0.2381
5.1375 2.5660 0.2121
5.1444 2.5652 0.1871
5.1959 2.5557 -0.0016
5.2030 2.5499 -0.0305
5.2209 2.5959 -0.0627
5.2239 2.5687 -0.0919
5.2318 2.5642 -0.1229
5.2455 2.5845 -0.1576
5.2603 2.6070 -0.1946
5.2665 2.5924 -0.2266
5.2752 2.5875 -0.2606
5.2900 2.6053 -0.3009
5.2990 2.5997 -0.3366
5.3029 2.5751 -0.3670
5.3149 2.5794 -0.4066
5.3198 2.5585 -0.4382
5.3222 2.5297 -0.4663
5.3449 2.5662 -0.5217
5.3439 2.5267 -0.5452
5.3204 2.3890 -0.5552
5.3078 2.3227 -0.5558
5.2831 2.2002 -0.5513
5.2731 2.1494 -0.5505
5.2621 2.0982 -0.5462
5.2531 2.0543 -0.5442
5.2460 2.0169 -0.5446
5.2413 1.9864 -0.5486
5.2352 1.9542 -0.5491
5.2265 1.9175 -0.5431
5.2237 1.8948 -0.5485
5.2175 1.8661 -0.5461
5.2107 1.8373 -0.5416
5.2047 1.7974 -0.5473
5.2008 1.7770 -0.5476
5.1946 1.7532 -0.5415
5.1911 1.7351 -0.5416
5.1871 1.7167 -0.5398
5.1841 1.7006 -0.5400
5.1821 1.6867 -0.5424
5.1796 1.6725 -0.5432
5.1770 1.6586 -0.5434
5.1742 1.6450 -0.5429
5.1705 1.6305 -0.5396
5.1700 1.6209 -0.5444
5.1660 1.6070 -0.5398
5.1641 1.5962 -0.5402
5.1625 1.5861 -0.5414
5.0539 2.5718 0.4105
5.0597 2.5743 0.3902
5.0649 2.5667 0.3665
5.0701 2.5590 0.3427
5.0765 2.5646 0.3221
5.0961 2.5735 0.2550
5.1030 2.5767 0.2315
5.1082 2.5646 0.2050
5.1148 2.5639 0.1800
5.1400 2.5937 0.1048
5.1449 2.5763 0.0762
5.1497 2.5591 0.0479
5.1898 2.5628 -0.0986
5.1972 2.5573 -0.1293
5.2057 2.5567 -0.1611
5.2179 2.5727 -0.1964
5.2329 2.5998 -0.2354
5.2391 2.5851 -0.2675
5.2496 2.5887 -0.3042
5.2605 2.5928 -0.3421
5.2718 2.5973 -0.3813
5.2808 2.5912 -0.4181
5.2849 2.5666 -0.4485
5.2940 2.5603 -0.4858
5.2993 2.5403 -0.5177
5.2992 2.5021 -0.5406
5.2614 2.2500 -0.5538
5.2442 2.1465 -0.5533
5.2276 2.0537 -0.5480
5.2153 1.9803 -0.5471
5.2084 1.9445 -0.5437
5.2032 1.9138 -0.5429
5.1989 1.8868 -0.5435
5.1970 1.8660 -0.5491
5.1884 1.8167 -0.5470
5.1825 1.7905 -0.5413
5.1784 1.7689 -0.5394
5.1777 1.7544 -0.5454
5.1757 1.7382 -0.5481
5.1729 1.7210 -0.5481
5.1693 1.7030 -0.5455
5.1635 1.6823 -0.5369
5.1621 1.6693 -0.5395
5.1609 1.6573 -0.5425
5.1601 1.6460 -0.5461
5.1572 1.6321 -0.5438
5.1553 1.6202 -0.5441
5.1513 1.6058 -0.5382
5.1516 1.5976 -0.5443
5.1494 1.5864 -0.5430
5.1480 1.5765 -0.5436
5.0363 2.5439 0.3533
5.1472 2.6007 -0.0468
5.1504 2.5704 -0.0756
5.1670 2.5258 -0.1637
5.1854 2.5353 -0.2299
5.1997 2.5642 -0.2701
5.2115 2.5777 -0.3088
5.2246 2.5953 -0.3503
5.2353 2.5999 -0.3896
5.2406 2.5790 -0.4213
5.2484 2.5692 -0.4568
5.2596 2.5728 -0.4983
5.2663 2.5572 -0.5324
5.2575 2.4826 -0.5382
5.2436 2.3577 -0.5505
5.2275 2.2379 -0.5516
5.2231 2.1944 -0.5577
5.2083 2.0954 -0.5531
5.2030 2.0555 -0.5536
5.1892 1.9728 -0.5442
5.1808 1.9116 -0.5440
5.1807 1.8933 -0.5534
5.1716 1.8538 -0.5389
5.1693 1.8322 -0.5414
5.1668 1.8111 -0.5430
5.1635 1.7890 -0.5419
5.1609 1.7694 -0.5424
5.1559 1.7328 -0.5425
5.1532 1.7151 -0.5413
5.1537 1.7041 -0.5490
5.1500 1.6858 -0.5443
5.1478 1.6710 -0.5438
5.1462 1.6577 -0.5447
5.1441 1.6441 -0.5440
5.1416 1.6302 -0.5414
5.1389 1.6166 -0.5382
5.1376 1.6056 -0.5389
5.1369 1.5958 -0.5414
5.1353 1.5852 -0.5411
5.1353 1.5769 -0.5452
5.0113 2.5817 0.3574
5.0157 2.5592 0.3294
5.0204 2.5442 0.3036
5.1432 2.5306 -0.2033
5.1511 2.5298 -0.2358
5.1640 2.5579 -0.2758
5.1924 2.5686 -0.3870
5.2015 2.5676 -0.4246
5.2119 2.5718 -0.4651
5.2204 2.5655 -0.5025
5.2282 2.5554 -0.5388
5.2205 2.4772 -0.5423
5.2162 2.4180 -0.5514
5.2071 2.3428 -0.5482
5.1983 2.2727 -0.5435
5.1970 2.2350 -0.5551
5.1926 2.1881 -0.5585
5.1844 2.1300 -0.5511
5.1728 2.0390 -0.5447
5.1673 1.9978 -0.5405
5.1669 1.9744 -0.5492
5.1582 1.9079 -0.5436
5.1552 1.8809 -0.5437
5.1526 1.8559 -0.5440
5.1468 1.8082 -0.5422
5.1449 1.7882 -0.5434
5.1429 1.7686 -0.5437
5.1406 1.7495 -0.5431
5.1376 1.7294 -0.5397
5.1371 1.7156 -0.5440
5.1328 1.6945 -0.5359
5.1339 1.6850 -0.5447
5.1321 1.6702 -0.5441
5.1292 1.6539 -0.5395
5.1278 1.6410 -0.5396
5.1273 1.6300 -0.5423
5.1263 1.6187 -0.5435
5.1246 1.6065 -0.5418
5.1241 1.5968 -0.5443
5.1225 1.5856 -0.5427
5.1226 1.5773 -0.5468
4.9993 2.5661 0.2797
5.1258 2.5884 -0.2552
5.1319 2.5740 -0.2869
5.1415 2.5827 -0.3247
5.1498 2.5813 -0.3609
5.1547 2.5570 -0.3904
5.1641 2.5609 -0.4294
5.1737 2.5643 -0.4695
5.1828 2.5636 -0.5090
5.1913 2.5580 -0.5472
5.1779 2.3977 -0.5470
5.1747 2.3416 -0.5535
5.1705 2.2841 -0.5560
5.1654 2.2262 -0.5547
5.1566 2.1562 -0.5418
5.1554 2.1213 -0.5494
5.1485 2.0392 -0.5488
5.1440 1.9979 -0.5443
5.1436 1.9729 -0.5516
5.1387 1.9339 -0.5443
5.1364 1.9056 -0.5446
5.1346 1.8801 -0.5459
5.1318 1.8529 -0.5437
5.1310 1.8327 -0.5475
5.1280 1.8073 -0.5438
5.1266 1.7874 -0.5448
5.1247 1.7671 -0.5440
5.1237 1.7500 -0.5459
5.1218 1.7312 -0.5443
5.1205 1.7148 -0.5447
5.1211 1.7031 -0.5512
5.1169 1.6817 -0.5411
5.1161 1.6682 -0.5422
5.1160 1.6567 -0.5460
5.1143 1.6426 -0.5438
5.1131 1.6298 -0.5432
5.1124 1.6185 -0.5442
5.1110 1.6063 -0.5424
5.1107 1.5966 -0.5448
5.1104 1.5870 -0.5468
5.1076 1.5740 -0.5396
4.9797 3.4767 0.4702
5.0886 2.5642 -0.2572
5.0937 2.5412 -0.2860
5.1032 2.5572 -0.3250
5.1138 2.5791 -0.3675
5.1264 2.6124 -0.4161
5.1278 2.5588 -0.4358
5.1381 2.5715 -0.4796
5.1469 2.5707 -0.5193
5.1528 2.5508 -0.5511
5.1444 2.3965 -0.5526
5.1438 2.3473 -0.5626
5.1314 2.1656 -0.5530
5.1270 2.1117 -0.5470
5.1254 2.0735 -0.5496
5.1222 2.0305 -0.5459
5.1220 2.0026 -0.5522
5.1176 1.9598 -0.5435
5.1181 1.9377 -0.5513
5.1143 1.8800 -0.5489
5.1118 1.8513 -0.5449
5.1106 1.8283 -0.5452
5.1100 1.8086 -0.5478
5.1079 1.7852 -0.5444
5.1075 1.7676 -0.5470
5.1062 1.7485 -0.5460
5.1042 1.7284 -0.5423
5.1046 1.7153 -0.5472
5.1028 1.6973 -0.5437
5.1016 1.6816 -0.5424
5.1005 1.6668 -0.5413
5.1010 1.6560 -0.5460
5.0991 1.6406 -0.5415
5.0988 1.6291 -0.5429
5.0989 1.6189 -0.5461
5.0975 1.6061 -0.5430
5.0963 1.5942 -0.5405
5.0962 1.5759 -0.5449
4.9145 3.5096 0.5452
4.9231 3.4894 0.5010
4.9321 3.4366 0.4500
4.9407 3.4072 0.4047
4.9574 3.4735 0.3345
4.9662 3.4527 0.2890
4.9746 3.3581 0.2352
4.9829 3.3175 0.1894
4.9913 3.2887 0.1453
5.0543 2.5576 -0.2629
5.0603 2.5436 -0.2936
5.0686 2.5557 -0.3317
5.0773 2.5682 -0.3714
5.0864 2.5810 -0.4128
5.0938 2.5753 -0.4491
5.1007 2.5648 -0.4841
5.1072 2.5496 -0.5173
5.1108 2.5120 -0.5399
5.1104 2.4473 -0.5474
5.1100 2.3875 -0.5539
5.1100 2.3357 -0.5619
5.1093 2.2824 -0.5660
5.1023 2.1558 -0.5511
5.1023 2.1184 -0.5565
5.0978 2.0599 -0.5433
5.0971 1.9948 -0.5493
5.0974 1.9683 -0.5547
5.0935 1.9247 -0.5423
5.0929 1.8980 -0.5434
5.0923 1.8725 -0.5441
5.0914 1.8476 -0.5436
5.0896 1.8203 -0.5387
5.0908 1.8057 -0.5468
5.0893 1.7822 -0.5431
5.0885 1.7620 -0.5418
5.0883 1.7450 -0.5433
5.0883 1.7295 -0.5459
5.0876 1.7125 -0.5449
5.0861 1.6939 -0.5402
5.0862 1.6807 -0.5427
5.0855 1.6660 -0.5414
5.0861 1.6552 -0.5460
5.0849 1.6404 -0.5424
5.0848 1.6289 -0.5437
5.0839 1.6159 -0.5410
5.0846 1.6071 -0.5459
5.0832 1.5940 -0.5410
5.0835 1.5851 -0.5438
5.0830 1.5747 -0.5426
4.8747 3.5039 0.4926
4.8834 3.4836 0.4483
4.8920 3.4633 0.4039
4.9006 3.4431 0.3596
4.9088 3.4440 0.3184
4.9168 3.4562 0.2777
4.9255 3.4470 0.2335
4.9340 3.4604 0.1907
4.9428 3.4618 0.1457
4.9522 3.3843 0.0962
4.9612 3.4532 0.0524
4.9706 3.4544 0.0045
4.9802 3.4562 -0.0444
4.9896 3.4221 -0.0927
5.0216 2.5729 -0.2734
5.0284 2.5725 -0.3080
5.0356 2.5756 -0.3444
5.0428 2.5755 -0.3808
5.0504 2.5788 -0.4193
5.0575 2.5732 -0.4555
5.0651 2.5720 -0.4942
5.0725 2.5668 -0.5320
5.0742 2.5019 -0.5420
5.0767 2.3827 -0.5575
5.0749 2.2495 -0.5511
5.0750 2.1527 -0.5537
5.0740 2.1030 -0.5496
5.0743 2.0657 -0.5520
5.0746 2.0307 -0.5540
5.0729 1.9870 -0.5463
5.0733 1.9582 -0.5491
5.0738 1.9316 -0.5522
5.0719 1.8949 -0.5435
5.0725 1.8724 -0.5470
5.0730 1.8281 -0.5503
5.0716 1.7814 -0.5444
5.0720 1.7639 -0.5465
5.0709 1.7421 -0.5414
5.0715 1.7274 -0.5447
5.0710 1.7097 -0.5426
5.0711 1.6950 -0.5436
5.0705 1.6786 -0.5408
5.0710 1.6664 -0.5436
5.0716 1.6550 -0.5470
5.0710 1.6408 -0.5444
5.0703 1.6269 -0.5411
5.0708 1.6168 -0.5440
5.0704 1.6046 -0.5418
5.0702 1.5938 -0.5414
5.0705 1.5843 -0.5429
5.0707 1.5750 -0.5441
4.8100 3.5366 0.5675
4.8186 3.5164 0.5234
4.8272 3.4962 0.4792
4.8358 3.4761 0.4351
4.8438 3.4668 0.3930
4.8519 3.4572 0.3504
4.8606 3.4369 0.3058
4.8693 3.4165 0.2612
4.8780 3.3962 0.2167
4.8859 3.3976 0.1738
4.8929 3.4314 0.1320
4.9081 3.5047 0.0413
4.9179 3.4702 -0.0075
4.9272 3.4600 -0.0565
4.9355 3.5378 -0.1108
4.9452 3.5538 -0.1651
4.9555 3.4910 -0.2132
4.9654 3.4301 -0.2596
4.9756 3.4690 -0.3194
4.9857 3.4453 -0.3712
5.0094 2.6203 -0.4024
5.0155 2.5955 -0.4324
5.0219 2.5804 -0.4655
5.0286 2.5699 -0.5005
5.0351 2.5548 -0.5337
5.0372 2.4745 -0.5355
5.0401 2.4173 -0.5448
5.0432 2.2897 -0.5464
5.0458 2.2489 -0.5560
5.0485 2.2123 -0.5662
5.0464 2.1346 -0.5456
5.0482 2.0990 -0.5510
5.0486 2.0560 -0.5486
5.0498 2.0219 -0.5507
5.0493 1.9791 -0.5431
5.0507 1.9193 -0.5437
5.0507 1.8888 -0.5404
5.0521 1.8679 -0.5451
5.0528 1.8452 -0.5465
5.0528 1.8200 -0.5436
5.0539 1.8018 -0.5472
5.0546 1.7833 -0.5492
5.0543 1.7412 -0.5423
5.0549 1.7252 -0.5435
5.0561 1.7127 -0.5490
5.0568 1.6986 -0.5510
5.0567 1.6822 -0.5483
5.0567 1.6674 -0.5469
5.0565 1.6523 -0.5436
5.0568 1.6400 -0.5441
5.0567 1.6267 -0.5418
5.0574 1.6166 -0.5446
5.0564 1.6022 -0.5375
5.0576 1.5942 -0.5430
5.0585 1.5857 -0.5470
5.0594 1.5774 -0.5506
4.7642 3.5175 0.5510
4.7707 3.5198 0.5125
4.7784 3.5107 0.4707
4.7861 3.5014 0.4285
4.7957 3.4702 0.3820
4.8051 3.4392 0.3360
4.8130 3.4297 0.2933
4.8202 3.4305 0.2514
4.8268 3.4425 0.2098
4.8343 3.4446 0.1660
4.8394 3.4929 0.1237
4.8449 3.5431 0.0785
4.8526 3.5585 0.0297
4.8634 3.5114 -0.0200
4.8726 3.5008 -0.0699
4.8804 3.5288 -0.1226
4.8886 3.5578 -0.1780
4.8984 3.5467 -0.2315
4.9089 3.5102 -0.2822
4.9186 3.5122 -0.3385
4.9283 3.5289 -0.3989
4.9386 3.5175 -0.4554
4.9491 3.5067 -0.5129
4.9597 3.4158 -0.5495
4.9776 3.0805 -0.5608
4.9903 2.7946 -0.5561
4.9958 2.6979 -0.5616
5.0007 2.6115 -0.5665
5.0068 2.4080 -0.5462
5.0135 2.2918 -0.5532
5.0177 2.1727 -0.5448
5.0213 2.1456 -0.5580
5.0227 2.0950 -0.5524
5.0246 2.0561 -0.5527
5.0264 2.0204 -0.5533
5.0269 1.9767 -0.5446
5.0289 1.9504 -0.5489
5.0311 1.8902 -0.5448
5.0333 1.8722 -0.5526
5.0342 1.8465 -0.5507
5.0347 1.8206 -0.5468
5.0355 1.7981 -0.5451
5.0358 1.7747 -0.5405
5.0366 1.7560 -0.5403
5.0380 1.7410 -0.5440
5.0389 1.7250 -0.5451
5.0391 1.7060 -0.5406
5.0410 1.6788 -0.5443
5.0412 1.6635 -0.5415
5.0423 1.6521 -0.5446
5.0429 1.6397 -0.5450
5.0428 1.6253 -0.5402
5.0439 1.6158 -0.5441
5.0435 1.6019 -0.5380
5.0450 1.5945 -0.5446
5.0451 1.5834 -0.5423
4.7216 3.5344 0.5041
4.7290 3.5252 0.4620
4.7366 3.5158 0.4196
4.7475 3.4736 0.3711
4.7551 3.4641 0.3283
4.7628 3.4544 0.2852
4.7715 3.4340 0.2404
4.7783 3.4355 0.1976
4.7872 3.4149 0.1523
4.7933 3.4272 0.1086
4.7997 3.4399 0.0635
4.8038 3.4877 0.0170
4.8089 3.5274 -0.0324
4.8169 3.5298 -0.0832
4.8275 3.4939 -0.1327
4.8343 3.5223 -0.1873
4.8415 3.5507 -0.2444
4.8503 3.5540 -0.3007
4.8601 3.5432 -0.3560
4.8705 3.5188 -0.4094
4.8809 3.4944 -0.4628
4.8908 3.4840 -0.5197
4.9048 3.3349 -0.5392
4.9178 3.1818 -0.5502
4.9289 3.0569 -0.5630
4.9482 2.7910 -0.5631
4.9630 2.5939 -0.5658
4.9745 2.4220 -0.5597
4.9836 2.2826 -0.5531
4.9915 2.1865 -0.5589
4.9942 2.1257 -0.5484
4.9971 2.0810 -0.5462
5.0028 2.0123 -0.5504
5.0073 1.9464 -0.5486
5.0111 1.8885 -0.5462
5.0150 1.8427 -0.5492
5.0163 1.8182 -0.5466
5.0178 1.7972 -0.5464
5.0194 1.7787 -0.5479
5.0208 1.7606 -0.5487
5.0213 1.7374 -0.5410
5.0226 1.7214 -0.5419
5.0244 1.6885 -0.5384
5.0257 1.6754 -0.5402
5.0273 1.6651 -0.5458
5.0277 1.6494 -0.5411
5.0285 1.6365 -0.5402
5.0294 1.6251 -0.5409
5.0312 1.6173 -0.5482
5.0318 1.6056 -0.5468
5.0322 1.5937 -0.5437
5.0331 1.5842 -0.5450
4.6530 3.6011 0.5877
4.6601 3.5932 0.5459
4.6659 3.5950 0.5058
4.6806 3.5286 0.4510
4.6864 3.5315 0.4107
4.6952 3.5109 0.3657
4.7040 3.4903 0.3206
4.7154 3.4472 0.2728
4.7191 3.4703 0.2328
4.7254 3.4728 0.1893
4.7356 3.4402 0.1425
4.7479 3.3874 0.0954
4.7546 3.3871 0.0508
4.7536 3.4680 0.0051
4.7573 3.5058 -0.0441
4.7599 3.5599 -0.0969
4.7664 3.5756 -0.1506
4.7754 3.5659 -0.2037
4.7855 3.5421 -0.2559
4.7957 3.5183 -0.3080
4.8050 3.5069 -0.3623
4.8134 3.5096 -0.4200
4.8229 3.4985 -0.4760
4.8308 3.5152 -0.5398
4.8499 3.3388 -0.5517
4.8813 3.0430 -0.5681
4.9071 2.7751 -0.5650
4.9268 2.5671 -0.5605
4.9420 2.4091 -0.5590
4.9488 2.3183 -0.5449
4.9544 2.2672 -0.5492
4.9645 2.1765 -0.5569
4.9728 2.0786 -0.5485
4.9801 2.0107 -0.5528
4.9862 1.9440 -0.5497
4.9913 1.8854 -0.5460
4.9958 1.8344 -0.5426
4.9982 1.8159 -0.5464
5.0004 1.7977 -0.5495
5.0019 1.7729 -0.5427
5.0038 1.7562 -0.5450
5.0054 1.7378 -0.5436
5.0074 1.7238 -0.5473
5.0103 1.6928 -0.5469
5.0117 1.6783 -0.5466
5.0129 1.6636 -0.5447
5.0141 1.6504 -0.5442
5.0155 1.6393 -0.5466
5.0162 1.6248 -0.5415
5.0173 1.6136 -0.5416
5.0181 1.6015 -0.5388
5.0196 1.5935 -0.5440
5.0207 1.5840 -0.5452
5.0212 1.5726 -0.5409
4.6287 3.5555 0.4446
4.6409 3.5117 0.3955
4.6512 3.4805 0.3492
4.6583 3.4710 0.3063
4.6638 3.4732 0.2645
4.6697 3.4738 0.2215
4.6770 3.4647 0.1770
4.6888 3.4219 0.1299
4.7017 3.3692 0.0835
4.7092 3.3590 0.0391
4.7017 3.4717 -0.0067
4.7023 3.5229 -0.0566
4.7092 3.5244 -0.1074
4.7116 3.5666 -0.1624
4.7203 3.5560 -0.2152
4.7304 3.5323 -0.2670
4.7405 3.5086 -0.3188
4.7492 3.4985 -0.3730
4.7557 3.5137 -0.4331
4.7649 3.5026 -0.4892
4.7729 3.5053 -0.5496
4.8159 3.1793 -0.5705
4.8354 3.0202 -0.5700
4.8541 2.8557 -0.5590
4.8674 2.7534 -0.5644
4.9097 2.4114 -0.5664
4.9322 2.2164 -0.5558
4.9382 2.1639 -0.5530
4.9437 2.1183 -0.5520
4.9489 2.0670 -0.5439
4.9576 2.0026 -0.5497
4.9616 1.9678 -0.5474
4.9652 1.9384 -0.5479
4.9718 1.8791 -0.5425
4.9750 1.8621 -0.5504
4.9775 1.8283 -0.5383
4.9802 1.8099 -0.5418
4.9826 1.7882 -0.5401
4.9875 1.7560 -0.5468
4.9895 1.7362 -0.5433
4.9914 1.7182 -0.5410
4.9936 1.7066 -0.5468
4.9954 1.6919 -0.5471
4.9972 1.6774 -0.5467
4.9985 1.6608 -0.5413
5.0001 1.6483 -0.5418
5.0018 1.6378 -0.5451
5.0049 1.6162 -0.5481
5.0061 1.6046 -0.5465
5.0069 1.5916 -0.5406
5.0085 1.5838 -0.5454
5.0101 1.5761 -0.5500
4.6012 3.4948 0.3399
4.6132 3.4874 0.2546
4.6203 3.4773 0.2103
4.6292 3.4565 0.1648
4.6463 3.3826 0.1165
4.6533 3.3727 0.0725
4.6573 3.3840 0.0282
4.6548 3.4406 -0.0180
4.6512 3.5546 -0.1213
4.6482 3.6249 -0.1796
4.6604 3.5868 -0.2309
4.6688 3.5767 -0.2851
4.6808 3.5389 -0.3357
4.6877 3.5420 -0.3931
4.6964 3.5311 -0.4490
4.7084 3.4935 -0.4993
4.7126 3.5236 -0.5667
4.7701 3.1338 -0.5663
4.8131 2.8377 -0.5608
4.8891 2.3190 -0.5565
4.8975 2.2625 -0.5568
4.9050 2.2140 -0.5592
4.9192 2.1099 -0.5503
4.9249 2.0746 -0.5537
4.9305 2.0349 -0.5517
4.9359 1.9929 -0.5451
4.9405 1.9621 -0.5458
4.9448 1.9336 -0.5466
4.9490 1.9009 -0.5416
4.9527 1.8790 -0.5453
4.9562 1.8589 -0.5497
4.9596 1.8296 -0.5424
4.9628 1.8133 -0.5484
4.9658 1.7887 -0.5430
4.9686 1.7703 -0.5438
4.9712 1.7509 -0.5419
4.9738 1.7360 -0.5450
4.9763 1.7220 -0.5484
4.9784 1.7030 -0.5431
4.9805 1.6864 -0.5400
4.9827 1.6759 -0.5457
4.9847 1.6618 -0.5445
4.9866 1.6492 -0.5448
4.9881 1.6339 -0.5389
4.9900 1.6243 -0.5427
4.9916 1.6131 -0.5426
4.9934 1.6038 -0.5457
4.9946 1.5913 -0.5409
4.9965 1.5841 -0.5469
4.9979 1.5748 -0.5475
4.5549 3.4873 0.3272
4.5572 3.5008 0.2873
4.5660 3.4802 0.2422
4.5769 3.4478 0.1961
4.5798 3.4601 0.1536
4.5845 3.4624 0.1092
4.5955 3.4299 0.0629
4.5985 3.4431 0.0173
4.5998 3.4678 -0.0301
4.6507 3.4976 -0.5124
4.6648 3.4472 -0.5584
4.7732 2.8205 -0.5626
4.8093 2.6098 -0.5607
4.8397 2.4259 -0.5495
4.8615 2.2997 -0.5507
4.8801 2.1908 -0.5488
4.8949 2.1075 -0.5528
4.9078 2.0333 -0.5542
4.9195 1.9628 -0.5498
4.9247 1.9311 -0.5475
4.9293 1.9047 -0.5483
4.9340 1.8726 -0.5416
4.9380 1.8512 -0.5441
4.9416 1.8353 -0.5515
4.9522 1.7693 -0.5448
4.9553 1.7513 -0.5446
4.9582 1.7343 -0.5446
4.9610 1.7184 -0.5449
4.9636 1.7021 -0.5434
4.9661 1.6868 -0.5422
4.9685 1.6718 -0.5403
4.9708 1.6590 -0.5410
4.9730 1.6477 -0.5434
4.9751 1.6367 -0.5453
4.9771 1.6252 -0.5457
4.9789 1.6122 -0.5419
4.9825 1.5916 -0.5424
4.4933 3.5331 0.3642
4.5060 3.5151 0.2775
4.5171 3.4837 0.2311
4.5166 3.5080 0.1898
4.5280 3.4753 0.1431
4.5392 3.4428 0.0968
4.5435 3.4449 0.0518
4.5503 3.4353 0.0058
4.5615 3.4029 -0.0402
4.5553 3.4609 -0.0899
4.8325 2.0630 -0.1121
4.8541 2.1883 -0.5520
4.8620 2.1514 -0.5581
4.8726 2.0897 -0.5439
4.8852 2.0332 -0.5580
4.8995 1.9531 -0.5444
4.9106 1.8959 -0.5426
4.9153 1.8740 -0.5459
4.9199 1.8502 -0.5457
4.9240 1.8313 -0.5496
4.9283 1.8084 -0.5475
4.9323 1.7875 -0.5462
4.9360 1.7684 -0.5457
4.9429 1.7313 -0.5422
4.9489 1.7051 -0.5498
4.9518 1.6878 -0.5454
4.9546 1.6728 -0.5434
4.9571 1.6600 -0.5441
4.9596 1.6468 -0.5430
4.9620 1.6364 -0.5460
4.9643 1.6249 -0.5462
4.9664 1.6119 -0.5423
4.9685 1.6004 -0.5402
4.9705 1.5913 -0.5426
4.9725 1.5841 -0.5485
4.9743 1.5737 -0.5463
4.4499 3.5144 0.3497
4.4647 3.4848 0.2623
4.4681 3.4871 0.2200
4.4756 3.4905 0.1324
4.4820 3.4811 0.0869
4.4834 3.4945 0.0411
4.4873 3.4969 -0.0060
4.4965 3.4752 -0.0536
4.8221 2.0242 -0.1094
4.8255 2.0239 -0.1449
4.8265 2.0276 -0.1642
4.8316 2.0400 -0.2471
4.8330 2.0434 -0.2696
4.8461 2.0903 -0.5193
4.8495 2.0863 -0.5455
4.8653 2.0150 -0.5467
4.8720 1.9861 -0.5500
4.8796 1.9489 -0.5439
4.8856 1.9228 -0.5460
4.8919 1.8926 -0.5423
4.8970 1.8707 -0.5453
4.9018 1.8507 -0.5490
4.9067 1.8281 -0.5485
4.9113 1.8075 -0.5488
4.9159 1.7858 -0.5463
4.9205 1.7617 -0.5391
4.9278 1.7303 -0.5428
4.9313 1.7137 -0.5416
4.9346 1.6995 -0.5428
4.9407 1.6725 -0.5444
4.9437 1.6584 -0.5427
4.9463 1.6490 -0.5483
4.9490 1.6349 -0.5443
4.9516 1.6210 -0.5396
4.9540 1.6116 -0.5427
4.9563 1.6001 -0.5405
4.9585 1.5911 -0.5428
4.9607 1.5822 -0.5447
4.9627 1.5735 -0.5463
4.4286 3.4823 0.1205
4.4404 3.4498 0.0743
4.4464 3.4405 0.0290
4.4526 3.4310 -0.0169
4.4534 3.4439 -0.0641
4.8095 2.0042 -0.1095
4.8132 1.9940 -0.1245
4.8142 1.9962 -0.1423
4.8161 1.9941 -0.1594
4.8168 2.0046 -0.1991
4.8181 2.0060 -0.2187
4.8203 2.0032 -0.2373
4.8219 2.0117 -0.2815
4.8221 2.0197 -0.3065
4.8235 2.0218 -0.3296
4.8255 2.0208 -0.3517
4.8314 2.0213 -0.4234
4.8320 2.0292 -0.4538
4.8326 2.0375 -0.4858
4.8344 2.0402 -0.5149
4.8378 2.0342 -0.5381
4.8438 2.0132 -0.5490
4.8518 1.9803 -0.5484
4.8593 1.9496 -0.5479
4.8653 1.9266 -0.5529
4.8734 1.8900 -0.5427
4.8789 1.8689 -0.5462
4.8847 1.8452 -0.5456
4.8895 1.8264 -0.5491
4.8949 1.8035 -0.5464
4.9042 1.7657 -0.5465
4.9084 1.7491 -0.5477
4.9128 1.7293 -0.5432
4.9203 1.6992 -0.5440
4.9236 1.6865 -0.5466
4.9266 1.6754 -0.5509
4.9302 1.6588 -0.5447
4.9334 1.6450 -0.5422
4.9363 1.6333 -0.5426
4.9390 1.6219 -0.5425
4.9415 1.6131 -0.5468
4.9441 1.6033 -0.5482
4.9466 1.5925 -0.5468
4.9490 1.5814 -0.5435
4.9512 1.5743 -0.5489
4.3644 3.5157 0.1996
4.3762 3.4842 0.1534
4.3821 3.4741 0.1086
4.3847 3.4766 0.0637
4.3936 3.4556 0.0177
4.4087 3.4118 -0.0279
4.4176 3.3910 -0.0734
4.7987 1.9810 -0.1089
4.8011 1.9763 -0.1244
4.8025 1.9756 -0.1410
4.8029 1.9789 -0.1590
4.8049 1.9759 -0.1756
4.8038 1.9858 -0.1967
4.8069 1.9785 -0.2128
4.8095 1.9852 -0.2735
4.8114 1.9832 -0.2930
4.8134 1.9811 -0.3128
4.8132 1.9890 -0.3384
4.8145 1.9901 -0.3611
4.8162 1.9901 -0.3838
4.8185 1.9872 -0.4052
4.8197 1.9895 -0.4306
4.8203 1.9949 -0.4590
4.8202 2.0042 -0.4915
4.8253 1.9982 -0.5400
4.8323 1.9736 -0.5460
4.8405 1.9429 -0.5450
4.8468 1.9209 -0.5504
4.8619 1.8625 -0.5422
4.8666 1.8472 -0.5505
4.8731 1.8216 -0.5460
4.8792 1.7981 -0.5422
4.8831 1.7859 -0.5511
4.8885 1.7647 -0.5473
4.8932 1.7474 -0.5474
4.8979 1.7290 -0.5447
4.9017 1.7158 -0.5483
4.9056 1.7016 -0.5494
4.9097 1.6856 -0.5466
4.9137 1.6693 -0.5419
4.9166 1.6604 -0.5489
4.9202 1.6465 -0.5464
4.9232 1.6355 -0.5479
4.9266 1.6216 -0.5429
4.9294 1.6116 -0.5447
4.9321 1.6018 -0.5460
4.9348 1.5922 -0.5469
4.9374 1.5828 -0.5474
4.3249 3.4856 0.1856
4.3337 3.4651 0.1408
4.3327 3.4776 0.0974
4.3347 3.4802 0.0523
4.3471 3.4476 0.0064
4.3527 3.4382 -0.0397
4.7883 1.9609 -0.1086
4.7906 1.9564 -0.1236
4.7920 1.9549 -0.1394
4.7912 1.9616 -0.1578
4.7922 1.9618 -0.1750
4.7938 1.9599 -0.1918
4.7955 1.9616 -0.2286
4.7960 1.9641 -0.2484
4.7968 1.9654 -0.2683
4.7983 1.9646 -0.2877
4.8002 1.9618 -0.3065
4.8011 1.9635 -0.3281
4.8020 1.9650 -0.3502
4.8030 1.9717 -0.3987
4.8054 1.9680 -0.4194
4.8065 1.9694 -0.4441
4.8069 1.9740 -0.4720
4.8094 1.9698 -0.4939
4.8099 1.9747 -0.5237
4.8112 1.9759 -0.5515
4.8192 1.9492 -0.5541
4.8282 1.9175 -0.5502
4.8358 1.8912 -0.5497
4.8431 1.8661 -0.5488
4.8486 1.8485 -0.5546
4.8555 1.8244 -0.5517
4.8621 1.8007 -0.5478
4.8684 1.7784 -0.5437
4.8782 1.7456 -0.5470
4.8828 1.7301 -0.5481
4.8875 1.7135 -0.5465
4.8920 1.6979 -0.5453
4.8962 1.6833 -0.5444
4.9001 1.6702 -0.5450
4.9036 1.6588 -0.5474
4.9072 1.6462 -0.5470
4.9107 1.6339 -0.5461
4.9143 1.6213 -0.5434
4.9171 1.6125 -0.5475
4.9201 1.6021 -0.5475
4.9232 1.5913 -0.5458
4.9260 1.5814 -0.5448
4.9286 1.5727 -0.5461
4.2602 3.5326 0.2215
4.2655 3.5227 0.1771
4.2955 3.4498 0.0405
4.3043 3.4292 -0.0048
4.7764 1.9493 -0.1097
4.7779 1.9470 -0.1248
4.7801 1.9425 -0.1397
4.7813 1.9411 -0.1555
4.7802 1.9477 -0.1741
4.7828 1.9419 -0.1893
4.7839 1.9411 -0.2063
4.7836 1.9451 -0.2256
4.7841 1.9468 -0.2446
4.7829 1.9542 -0.2666
4.7849 1.9507 -0.2844
4.7864 1.9490 -0.3033
4.7885 1.9489 -0.3442
4.7896 1.9486 -0.3652
4.7896 1.9525 -0.3896
4.7895 1.9571 -0.4153
4.7888 1.9639 -0.4435
4.7911 1.9600 -0.4647
4.7944 1.9526 -0.4834
4.7965 1.9494 -0.5057
4.7965 1.9543 -0.5356
4.8019 1.9393 -0.5481
4.8097 1.9149 -0.5507
4.8182 1.8878 -0.5491
4.8276 1.8565 -0.5413
4.8334 1.8390 -0.5466
4.8391 1.8218 -0.5513
4.8461 1.7990 -0.5480
4.8530 1.7766 -0.5436
4.8636 1.7432 -0.5456
4.8689 1.7263 -0.5445
4.8729 1.7145 -0.5499
4.8782 1.6969 -0.5453
4.8832 1.6803 -0.5410
4.8864 1.6712 -0.5481
4.8906 1.6578 -0.5471
4.8983 1.6330 -0.5454
4.9015 1.6234 -0.5486
4.9049 1.6128 -0.5490
4.9083 1.6018 -0.5477
4.9111 1.5933 -0.5510
4.9147 1.5811 -0.5448
4.9174 1.5729 -0.5474
4.2313 3.4816 0.1627
4.2438 3.4663 -0.0164
4.7662 1.9344 -0.1100
4.7661 1.9365 -0.1258
4.7665 1.9374 -0.1417
4.7669 1.9381 -0.1580
4.7697 1.9315 -0.1724
4.7702 1.9320 -0.1892
4.7715 1.9303 -0.2056
4.7702 1.9364 -0.2255
4.7706 1.9373 -0.2438
4.7702 1.9409 -0.2639
4.7729 1.9348 -0.2799
4.7730 1.9371 -0.3004
4.7734 1.9382 -0.3209
4.7748 1.9364 -0.3402
4.7769 1.9350 -0.3814
4.7777 1.9354 -0.4035
4.7783 1.9365 -0.4267
4.7784 1.9390 -0.4518
4.7805 1.9353 -0.4726
4.7798 1.9408 -0.5015
4.7806 1.9417 -0.5276
4.7822 1.9399 -0.5519
4.7910 1.9139 -0.5528
4.8011 1.8836 -0.5477
4.8097 1.8578 -0.5454
4.8165 1.8380 -0.5480
4.8236 1.8170 -0.5480
4.8375 1.7755 -0.5444
4.8431 1.7594 -0.5466
4.8493 1.7407 -0.5441
4.8544 1.7259 -0.5458
4.8591 1.7121 -0.5480
4.8645 1.6959 -0.5454
4.8687 1.6839 -0.5485
4.8785 1.6542 -0.5421
4.8859 1.6327 -0.5459
4.8895 1.6225 -0.5478
4.8931 1.6119 -0.5481
4.8969 1.6003 -0.5454
4.9003 1.5901 -0.5447
4.9033 1.5813 -0.5461
4.1618 3.5396 0.1992
4.1706 3.5189 0.1539
4.1801 3.5000 0.0639
4.1891 3.4791 0.0182
4.1980 3.4582 -0.0276
4.7546 1.9258 -0.1114
4.7561 1.9228 -0.1258
4.7569 1.9217 -0.1409
4.7584 1.9203 -0.1721
4.7569 1.9260 -0.1904
4.7576 1.9254 -0.2071
4.7576 1.9267 -0.2248
4.7588 1.9248 -0.2417
4.7597 1.9238 -0.2593
4.7603 1.9236 -0.2776
4.7611 1.9246 -0.3165
4.7601 1.9294 -0.3392
4.7626 1.9239 -0.3563
4.7623 1.9265 -0.3789
4.7637 1.9243 -0.3990
4.7657 1.9203 -0.4180
4.7643 1.9266 -0.4453
4.7650 1.9265 -0.4685
4.7652 1.9279 -0.4937
4.7661 1.9274 -0.5178
4.7677 1.9250 -0.5409
4.7744 1.9072 -0.5492
4.7830 1.8833 -0.5503
4.7930 1.8552 -0.5452
4.8010 1.8331 -0.5450
4.8076 1.8152 -0.5483
4.8160 1.7916 -0.5435
4.8227 1.7730 -0.5433
4.8288 1.7562 -0.5443
4.8402 1.7249 -0.5461
4.8459 1.7090 -0.5450
4.8508 1.6955 -0.5464
4.8567 1.6789 -0.5418
4.8612 1.6666 -0.5431
4.8657 1.6539 -0.5428
4.8695 1.6440 -0.5466
4.8735 1.6330 -0.5476
4.8776 1.6215 -0.5470
4.8821 1.6086 -0.5421
4.8855 1.5994 -0.5442
4.8885 1.5915 -0.5486
4.8924 1.5804 -0.5448
4.8951 1.5734 -0.5498
4.1343 3.4869 0.1834
4.1394 3.4827 0.0069
4.1608 3.4292 -0.0381
4.7404 1.9245 -0.0995
4.7430 1.9183 -0.1130
4.7440 1.9164 -0.1274
4.7455 1.9134 -0.1418
4.7473 1.9092 -0.1560
4.7458 1.9150 -0.1897
4.7459 1.9155 -0.2065
4.7450 1.9189 -0.2248
4.7471 1.9142 -0.2402
4.7484 1.9114 -0.2567
4.7484 1.9123 -0.2752
4.7489 1.9121 -0.2936
4.7483 1.9146 -0.3140
4.7500 1.9113 -0.3315
4.7482 1.9170 -0.3551
4.7473 1.9205 -0.3781
4.7494 1.9158 -0.3961
4.7500 1.9155 -0.4175
4.7529 1.9089 -0.4345
4.7501 1.9176 -0.4643
4.7531 1.9107 -0.4819
4.7530 1.9121 -0.5071
4.7531 1.9133 -0.5329
4.7577 1.9021 -0.5471
4.7668 1.8783 -0.5478
4.7755 1.8557 -0.5484
4.7857 1.8289 -0.5428
4.7918 1.8133 -0.5485
4.7991 1.7943 -0.5491
4.8076 1.7719 -0.5441
4.8154 1.7514 -0.5399
4.8277 1.7196 -0.5402
4.8374 1.6945 -0.5464
4.8482 1.6662 -0.5439
4.8531 1.6535 -0.5434
4.8575 1.6423 -0.5448
4.8623 1.6295 -0.5420
4.8663 1.6194 -0.5436
4.8699 1.6100 -0.5461
4.8733 1.6014 -0.5495
4.8774 1.5906 -0.5473
4.8808 1.5818 -0.5487
4.8838 1.5742 -0.5524
4.0805 3.4985 0.4538
4.0994 3.4593 0.1278
4.1036 3.4500 0.0843
4.0991 3.4620 0.0407
4.0897 3.4862 -0.0044
4.0939 3.4769 -0.0505
4.7332 1.9075 -0.1137
4.7349 1.9037 -0.1274
4.7353 1.9029 -0.1420
4.7342 1.9061 -0.1582
4.7360 1.9020 -0.1724
4.7321 1.9120 -0.1918
4.7332 1.9096 -0.2073
4.7339 1.9081 -0.2235
4.7351 1.9055 -0.2395
4.7348 1.9076 -0.2943
4.7354 1.9064 -0.3124
4.7365 1.9041 -0.3303
4.7362 1.9054 -0.3508
4.7349 1.9092 -0.3735
4.7362 1.9064 -0.3925
4.7371 1.9044 -0.4123
4.7354 1.9093 -0.4379
4.7383 1.9026 -0.4550
4.7384 1.9027 -0.4780
4.7394 1.9010 -0.4999
4.7413 1.8966 -0.5199
4.7411 1.8978 -0.5457
4.7498 1.8764 -0.5486
4.7602 1.8506 -0.5456
4.7665 1.8355 -0.5528
4.7756 1.8130 -0.5505
4.7855 1.7887 -0.5444
4.7922 1.7723 -0.5467
4.7984 1.7569 -0.5493
4.8071 1.7354 -0.5423
4.8126 1.7221 -0.5456
4.8240 1.6941 -0.5474
4.8310 1.6768 -0.5413
4.8349 1.6672 -0.5469
4.8404 1.6538 -0.5452
4.8457 1.6407 -0.5429
4.8494 1.6316 -0.5473
4.8543 1.6196 -0.5452
4.8574 1.6121 -0.5514
4.8619 1.6011 -0.5496
4.8667 1.5892 -0.5447
4.8694 1.5826 -0.5513
4.8956 1.6160 -0.5452
3.8976 3.5856 0.5438
3.9120 3.5544 0.4969
3.9185 3.5297 0.3285
3.9339 3.4904 0.1945
3.9656 3.4260 0.1457
3.9722 3.4069 0.0566
3.9502 3.4423 -0.0357
3.9297 3.4779 -0.0852
4.7448 1.9148 -0.0970
4.7469 1.9099 -0.1105
4.7479 1.9069 -0.1245
4.7484 1.9049 -0.1389
4.7479 1.9047 -0.1541
4.7480 1.9034 -0.1693
4.7481 1.9020 -0.1847
4.7432 1.9100 -0.2042
4.7450 1.9054 -0.2192
4.7448 1.9045 -0.2360
4.7442 1.9044 -0.2536
4.7461 1.8996 -0.2691
4.7442 1.9019 -0.2887
4.7443 1.9005 -0.3068
4.7439 1.8998 -0.3257
4.7455 1.8955 -0.3426
4.7420 1.9004 -0.3663
4.7419 1.8992 -0.3864
4.7410 1.8994 -0.4080
4.7392 1.9011 -0.4315
4.7402 1.8977 -0.4514
4.7395 1.8974 -0.4744
4.7389 1.8968 -0.4978
4.7396 1.8938 -0.5194
4.7417 1.8884 -0.5388
4.7514 1.8695 -0.5435
4.7634 1.8466 -0.5423
4.7727 1.8285 -0.5454
4.7835 1.8079 -0.5440
4.7941 1.7877 -0.5417
4.8022 1.7721 -0.5442
4.8128 1.7521 -0.5391
4.8206 1.7371 -0.5401
4.8282 1.7225 -0.5404
4.8350 1.7094 -0.5422
4.8431 1.6941 -0.5391
4.8489 1.6828 -0.5419
4.8567 1.6680 -0.5375
4.8613 1.6590 -0.5427
4.8682 1.6460 -0.5393
4.8729 1.6367 -0.5425
4.8792 1.6248 -0.5392
4.8837 1.6159 -0.5416
4.8885 1.6067 -0.5423
4.8942 1.5960 -0.5387
4.8976 1.5892 -0.5439
4.9019 1.5810 -0.5449
4.7334 1.9084 -0.0945
4.7360 1.9024 -0.1079
4.7364 1.9003 -0.1222
4.7369 1.8981 -0.1367
4.7358 1.8987 -0.1523
4.7364 1.8963 -0.1673
4.7338 1.8994 -0.1846
4.7340 1.8977 -0.2005
4.7331 1.8977 -0.2174
4.7319 1.8984 -0.2352
4.7337 1.8936 -0.2506
4.7326 1.8940 -0.2690
4.7325 1.8925 -0.2868
4.7330 1.8900 -0.3044
4.7311 1.8917 -0.3250
4.7312 1.8897 -0.3437
4.7275 1.8943 -0.3676
4.7292 1.8895 -0.3853
4.7277 1.8903 -0.4077
4.7248 1.8933 -0.4326
4.7267 1.8881 -0.4512
4.7263 1.8868 -0.4736
4.7252 1.8867 -0.4979
4.7236 1.8872 -0.5234
4.7284 1.8772 -0.5383
4.7339 1.8658 -0.5515
4.7485 1.8397 -0.5466
4.7590 1.8204 -0.5482
4.7722 1.7967 -0.5427
4.7823 1.7782 -0.5424
4.7931 1.7589 -0.5394
4.8016 1.7432 -0.5403
4.8096 1.7285 -0.5415
4.8167 1.7153 -0.5441
4.8260 1.6987 -0.5398
4.8317 1.6879 -0.5444
4.8400 1.6731 -0.5408
4.8481 1.6587 -0.5365
4.8531 1.6492 -0.5407
4.8587 1.6387 -0.5421
4.8705 1.6173 -0.5412
4.8752 1.6085 -0.5437
4.8808 1.5984 -0.5420
4.8870 1.5874 -0.5373
4.8901 1.5812 -0.5439
4.8948 1.5726 -0.5435
4.7227 1.8986 -0.1061
4.7231 1.8963 -0.1206
4.7253 1.8911 -0.1345
4.7241 1.8915 -0.1501
4.7246 1.8890 -0.1652
4.7225 1.8909 -0.1822
4.7220 1.8899 -0.1986
4.7197 1.8902 -0.2334
4.7200 1.8879 -0.2503
4.7203 1.8855 -0.2675
4.7186 1.8863 -0.2868
4.7134 1.8907 -0.3290
4.7145 1.8869 -0.3470
4.7132 1.8869 -0.3682
4.7134 1.8844 -0.3879
4.7137 1.8818 -0.4080
4.7112 1.8836 -0.4323
4.7121 1.8798 -0.4524
4.7078 1.8841 -0.4806
4.7082 1.8787 -0.5257
4.7098 1.8736 -0.5465
4.7210 1.8538 -0.5502
4.7485 1.8065 -0.5440
4.7617 1.7840 -0.5395
4.7704 1.7685 -0.5431
4.7785 1.7540 -0.5469
4.7882 1.7372 -0.5463
4.7998 1.7177 -0.5399
4.8062 1.7060 -0.5446
4.8130 1.6938 -0.5479
4.8225 1.6778 -0.5431
4.8326 1.6611 -0.5354
4.8362 1.6538 -0.5445
4.8445 1.6399 -0.5398
4.8495 1.6307 -0.5437
4.8564 1.6190 -0.5413
4.8616 1.6096 -0.5431
4.8683 1.5984 -0.5395
4.8730 1.5900 -0.5417
4.8787 1.5802 -0.5397
4.8829 1.5726 -0.5424
4.8871 1.5651 -0.5449
4.7133 1.8878 -0.1027
4.7100 1.8895 -0.1337
4.7105 1.8868 -0.1488
4.7110 1.8841 -0.1640
4.7087 1.8858 -0.1812
4.7083 1.8823 -0.2141
4.7074 1.8817 -0.2316
4.7060 1.8818 -0.2499
4.7095 1.8742 -0.2645
4.7022 1.8810 -0.3071
4.7016 1.8795 -0.3265
4.6985 1.8819 -0.3490
4.7002 1.8769 -0.3669
4.6998 1.8750 -0.3873
4.6960 1.8782 -0.4125
4.6968 1.8744 -0.4325
4.6962 1.8726 -0.4548
4.6913 1.8772 -0.4839
4.6928 1.8722 -0.5043
4.6872 1.8775 -0.5363
4.6997 1.8563 -0.5395
4.7093 1.8396 -0.5465
4.7247 1.8145 -0.5421
4.7353 1.7965 -0.5449
4.7512 1.7712 -0.5364
4.7592 1.7573 -0.5418
4.7710 1.7381 -0.5383
4.7792 1.7241 -0.5415
4.7885 1.7087 -0.5411
4.7964 1.6953 -0.5430
4.8051 1.6811 -0.5423
4.8127 1.6683 -0.5429
4.8211 1.6547 -0.5408
4.8281 1.6430 -0.5413
4.8354 1.6310 -0.5401
4.8410 1.6214 -0.5429
4.8476 1.6105 -0.5418
4.8546 1.5993 -0.5389
4.8607 1.5893 -0.5379
4.8651 1.5815 -0.5414
4.8707 1.5724 -0.5408
4.8754 1.5644 -0.5423
4.8796 1.5570 -0.5448
4.6984 1.8854 -0.1012
4.6994 1.8819 -0.1156
4.6944 1.8874 -0.1328
4.6990 1.8783 -0.1462
4.6947 1.8825 -0.1639
4.6953 1.8771 -0.1960
4.6919 1.8798 -0.2148
4.6932 1.8756 -0.2309
4.6911 1.8762 -0.2498
4.6914 1.8734 -0.2673
4.6878 1.8761 -0.2884
4.6855 1.8769 -0.3090
4.6854 1.8744 -0.3281
4.6837 1.8741 -0.3492
4.6806 1.8758 -0.3724
4.6802 1.8735 -0.3932
4.6815 1.8689 -0.4125
4.6776 1.8713 -0.4385
4.6759 1.8707 -0.4626
4.6728 1.8719 -0.4892
4.6728 1.8687 -0.5121
4.6724 1.8659 -0.5361
4.6824 1.8491 -0.5442
4.6971 1.8259 -0.5436
4.7091 1.8066 -0.5460
4.7247 1.7825 -0.5407
4.7364 1.7641 -0.5411
4.7469 1.7472 -0.5424
4.7573 1.7307 -0.5428
4.7680 1.7140 -0.5416
4.7785 1.6977 -0.5394
4.7866 1.6846 -0.5415
4.7933 1.6734 -0.5460
4.8020 1.6597 -0.5448
4.8089 1.6484 -0.5472
4.8196 1.6328 -0.5391
4.8266 1.6216 -0.5391
4.8340 1.6101 -0.5375
4.8376 1.6033 -0.5458
4.8464 1.5904 -0.5383
4.8510 1.5825 -0.5424
4.8572 1.5729 -0.5411
4.8621 1.5649 -0.5431
4.8677 1.5561 -0.5422
4.8721 1.5488 -0.5448
4.6807 1.8861 -0.1002
4.6823 1.8815 -0.1148
4.6845 1.8759 -0.1293
4.6819 1.8773 -0.1459
4.6811 1.8760 -0.1622
4.6810 1.8736 -0.1784
4.6792 1.8736 -0.1959
4.6763 1.8752 -0.2145
4.6748 1.8719 -0.2504
4.6733 1.8712 -0.2695
4.6719 1.8703 -0.2889
4.6678 1.8731 -0.3113
4.6671 1.8711 -0.3312
4.6687 1.8659 -0.3493
4.6660 1.8666 -0.3720
4.6628 1.8677 -0.3960
4.6592 1.8692 -0.4211
4.6541 1.8725 -0.4489
4.6524 1.8714 -0.4734
4.6549 1.8646 -0.4929
4.6539 1.8624 -0.5175
4.6575 1.8541 -0.5358
4.6647 1.8413 -0.5488
4.6853 1.8116 -0.5399
4.6941 1.7970 -0.5482
4.7093 1.7746 -0.5449
4.7222 1.7552 -0.5439
4.7331 1.7386 -0.5455
4.7457 1.7201 -0.5426
4.7651 1.6905 -0.5445
4.8009 1.6367 -0.5427
4.8079 1.6259 -0.5446
4.8178 1.6120 -0.5382
4.8241 1.6022 -0.5401
4.8286 1.5945 -0.5462
4.8377 1.5819 -0.5389
4.8429 1.5736 -0.5419
4.8500 1.5634 -0.5382
4.8546 1.5559 -0.5415
4.8604 1.5474 -0.5407
4.8661 1.5390 -0.5394
2.6106 4.8932 0.2430
4.6639 1.8844 -0.0987
4.6686 1.8753 -0.1126
4.6664 1.8757 -0.1289
4.6662 1.8733 -0.1448
4.6648 1.8725 -0.1615
4.6616 1.8741 -0.1795
4.6604 1.8729 -0.1970
4.6592 1.8717 -0.2149
4.6563 1.8726 -0.2342
4.6552 1.8709 -0.2529
4.6543 1.8691 -0.2719
4.6503 1.8680 -0.3129
4.6495 1.8657 -0.3330
4.6494 1.8625 -0.3530
4.6415 1.8691 -0.3811
4.6394 1.8683 -0.4044
4.6396 1.8645 -0.4258
4.6360 1.8653 -0.4518
4.6319 1.8664 -0.4793
4.6308 1.8640 -0.5039
4.6291 1.8620 -0.5298
4.6397 1.8452 -0.5391
4.6549 1.8231 -0.5410
4.6688 1.8027 -0.5432
4.6830 1.7822 -0.5437
4.6981 1.7610 -0.5415
4.7093 1.7443 -0.5441
4.7215 1.7269 -0.5441
4.7324 1.7110 -0.5451
4.7461 1.6922 -0.5396
4.7534 1.6808 -0.5456
4.7658 1.6639 -0.5402
4.7844 1.6374 -0.5389
4.7902 1.6280 -0.5446
4.7992 1.6155 -0.5424
4.8076 1.6037 -0.5406
4.8154 1.5927 -0.5392
4.8217 1.5833 -0.5408
4.8285 1.5737 -0.5407
4.8355 1.5638 -0.5389
4.8412 1.5555 -0.5403
4.8463 1.5477 -0.5425
4.8526 1.5389 -0.5405
3.5489 3.4784 0.4133
3.5417 3.4798 0.3662
3.5153 3.5078 0.3219
4.6521 1.8722 -0.1110
4.6511 1.8706 -0.1271
4.6464 1.8738 -0.1450
4.6506 1.8654 -0.1595
4.6455 1.8690 -0.1786
4.6404 1.8724 -0.1983
4.6398 1.8700 -0.2161
4.6405 1.8659 -0.2335
4.6351 1.8693 -0.2552
4.6341 1.8672 -0.2745
4.6278 1.8715 -0.2983
4.6282 1.8675 -0.3177
4.6251 1.8676 -0.3403
4.6221 1.8676 -0.3634
4.6186 1.8679 -0.3877
4.6181 1.8646 -0.4097
4.6126 1.8671 -0.4375
4.6089 1.8673 -0.4642
4.6026 1.8705 -0.4948
4.6014 1.8675 -0.5202
4.6053 1.8587 -0.5397
4.6372 1.8141 -0.5446
4.6557 1.7893 -0.5410
4.6816 1.7530 -0.5463
4.6952 1.7343 -0.5459
4.7072 1.7177 -0.5471
4.7200 1.7005 -0.5457
4.7336 1.6826 -0.5414
4.7445 1.6678 -0.5408
4.7537 1.6548 -0.5424
4.7728 1.6288 -0.5416
4.7788 1.6195 -0.5476
4.8075 1.5823 -0.5361
4.8113 1.5756 -0.5447
4.8195 1.5649 -0.5412
4.8268 1.5552 -0.5396
4.8339 1.5459 -0.5373
4.8392 1.5382 -0.5396
4.8448 1.5304 -0.5403
3.4711 3.4747 0.3379
3.5006 3.4252 0.2810
3.4727 3.4525 0.2337
3.4230 3.5081 0.1863
4.6339 1.8702 -0.1098
4.6329 1.8684 -0.1261
4.6265 1.8698 -0.1616
4.6264 1.8666 -0.1787
4.6237 1.8665 -0.1974
4.6186 1.8692 -0.2179
4.6156 1.8693 -0.2379
4.6132 1.8684 -0.2581
4.6079 1.8710 -0.2808
4.6069 1.8683 -0.3011
4.6006 1.8717 -0.3260
4.5981 1.8707 -0.3487
4.5927 1.8685 -0.3962
4.5892 1.8680 -0.4216
4.5836 1.8699 -0.4500
4.5793 1.8701 -0.4780
4.5779 1.8623 -0.5279
4.5835 1.8515 -0.5458
4.5975 1.8319 -0.5526
4.6197 1.8040 -0.5473
4.6404 1.7780 -0.5418
4.6647 1.7445 -0.5510
4.6942 1.7067 -0.5473
4.7094 1.6877 -0.5425
4.7213 1.6723 -0.5421
4.7320 1.6582 -0.5428
4.7430 1.6440 -0.5417
4.7529 1.6311 -0.5418
4.7621 1.6190 -0.5422
4.7707 1.6076 -0.5431
4.7812 1.5948 -0.5390
4.7876 1.5857 -0.5429
4.7944 1.5763 -0.5453
4.8035 1.5652 -0.5415
4.8101 1.5563 -0.5429
4.8166 1.5476 -0.5438
4.8234 1.5388 -0.5430
4.8307 1.5298 -0.5405
4.8356 1.5228 -0.5439
3.3515 3.6417 0.8759
3.4378 3.3942 0.1950
3.3864 3.4479 0.1457
3.3534 3.4778 0.0912
4.6112 1.8726 -0.1094
4.6102 1.8704 -0.1262
4.6085 1.8688 -0.1435
4.6043 1.8702 -0.1623
4.6042 1.8667 -0.1798
4.5969 1.8714 -0.2011
4.5976 1.8669 -0.2191
4.5951 1.8659 -0.2391
4.5843 1.8740 -0.2647
4.5782 1.8766 -0.2884
4.5736 1.8776 -0.3120
4.5652 1.8779 -0.3608
4.5597 1.8793 -0.3874
4.5525 1.8823 -0.4163
4.5509 1.8791 -0.4411
4.5482 1.8770 -0.4675
4.5397 1.8808 -0.5007
4.5367 1.8787 -0.5291
4.5432 1.8669 -0.5474
4.5606 1.8441 -0.5524
4.5808 1.8190 -0.5525
4.6265 1.7648 -0.5402
4.6373 1.7497 -0.5478
4.6508 1.7324 -0.5507
4.6724 1.7077 -0.5399
4.6876 1.6894 -0.5371
4.6978 1.6759 -0.5412
4.7062 1.6642 -0.5474
4.7198 1.6480 -0.5437
4.7312 1.6341 -0.5428
4.7418 1.6210 -0.5422
4.7528 1.6078 -0.5397
4.7611 1.5971 -0.5417
4.7703 1.5858 -0.5410
4.7784 1.5756 -0.5418
4.7868 1.5653 -0.5410
4.7951 1.5552 -0.5395
4.8009 1.5472 -0.5433
4.8095 1.5373 -0.5396
4.8156 1.5294 -0.5413
