ply
format ascii 1.0
element vertex 2111
property float x
property float y
property float z
end_header
3.0515 -1.9132 -0.2601
3.0961 -1.9004 -0.2594
3.1923 -1.8586 -0.2682
3.2115 -1.8587 -0.2638
3.2393 -1.8413 -0.2703
3.2634 -1.8315 -0.2720
3.2889 -1.8195 -0.2750
3.3166 -1.8040 -0.2801
1.8291 -2.3421 -0.2495
1.8468 -2.3327 -0.2525
1.8755 -2.3287 -0.2488
1.8934 -2.3191 -0.2518
1.9135 -2.3107 -0.2535
1.9397 -2.3057 -0.2512
1.9676 -2.3019 -0.2474
1.9932 -2.2971 -0.2450
2.0151 -2.2899 -0.2453
2.0352 -2.2814 -0.2470
2.0434 -2.2643 -0.2583
2.0707 -2.2607 -0.2545
2.0897 -2.2508 -0.2576
2.1212 -2.2513 -0.2497
2.1402 -2.2414 -0.2528
2.1651 -2.2368 -0.2504
2.1885 -2.2309 -0.2493
2.2024 -2.2155 -0.2579
2.2284 -2.2123 -0.2541
2.2529 -2.2078 -0.2517
2.2772 -2.2035 -0.2493
2.2946 -2.1905 -0.2551
2.3167 -2.1832 -0.2555
2.3397 -2.1774 -0.2544
2.3617 -2.1702 -0.2547
2.3883 -2.1705 -0.2482
2.4075 -2.1587 -0.2526
2.4318 -2.1561 -0.2488
2.4513 -2.1443 -0.2533
2.4739 -2.1386 -0.2523
2.4944 -2.1282 -0.2553
2.5181 -2.1259 -0.2515
2.5405 -2.1203 -0.2505
2.5612 -2.1098 -0.2536
2.5818 -2.0976 -0.2581
2.6046 -2.0937 -0.2556
2.6265 -2.0865 -0.2560
2.6494 -2.0862 -0.2507
2.6711 -2.0790 -0.2511
2.6930 -2.0737 -0.2500
2.7146 -2.0665 -0.2503
2.7361 -2.0540 -0.2548
2.7579 -2.0468 -0.2551
2.7799 -2.0323 -0.2611
2.8015 -2.0306 -0.2572
2.8236 -2.0216 -0.2589
2.8448 -2.0200 -0.2551
2.8674 -2.0071 -0.2596
2.9123 -1.9869 -0.2644
2.9339 -1.9816 -0.2634
2.9545 -1.9802 -0.2595
2.9779 -1.9671 -0.2640
3.0011 -1.9558 -0.2672
3.0226 -1.9505 -0.2661
3.0460 -1.9392 -0.2692
3.0667 -1.9360 -0.2668
3.0872 -1.9329 -0.2643
3.1091 -1.9256 -0.2646
3.1347 -1.9100 -0.2706
3.1520 -1.9133 -0.2639
3.1760 -1.9018 -0.2670
3.1958 -1.8988 -0.2645
3.2177 -1.8916 -0.2649
3.2420 -1.8800 -0.2680
3.2640 -1.8728 -0.2684
3.2809 -1.8744 -0.2630
1.9474 -2.3342 -0.2536
1.9648 -2.3248 -0.2567
2.0310 -2.3048 -0.2563
2.0586 -2.3020 -0.2516
2.0738 -2.2907 -0.2569
2.0936 -2.2824 -0.2587
2.1183 -2.2778 -0.2562
2.1304 -2.2631 -0.2650
2.1618 -2.2644 -0.2561
2.1831 -2.2574 -0.2564
2.2037 -2.2497 -0.2575
2.2224 -2.2399 -0.2606
2.2509 -2.2404 -0.2531
2.2898 -2.2222 -0.2580
2.3061 -2.2087 -0.2648
2.3538 -2.2011 -0.2590
2.4459 -2.1860 -0.2481
2.5064 -2.1598 -0.2541
2.5289 -2.1568 -0.2508
2.5498 -2.1499 -0.2511
2.5708 -2.1430 -0.2514
2.5921 -2.1378 -0.2503
2.6117 -2.1250 -0.2557
2.6328 -2.1181 -0.2560
2.6754 -2.1085 -0.2530
2.6965 -2.1034 -0.2519
2.7174 -2.0965 -0.2522
2.7381 -2.0816 -0.2590
2.7592 -2.0773 -0.2572
2.7805 -2.0640 -0.2625
2.8012 -2.0653 -0.2563
2.8223 -2.0565 -0.2581
2.8860 -2.0328 -0.2612
2.9715 -2.0010 -0.2654
2.9943 -1.9891 -0.2694
3.0147 -1.9850 -0.2675
3.0370 -1.9750 -0.2700
3.0591 -1.9659 -0.2718
3.0769 -1.9681 -0.2656
3.1424 -1.9429 -0.2695
3.1616 -1.9402 -0.2669
3.1801 -1.9386 -0.2635
3.2012 -1.9316 -0.2638
3.2500 -1.9057 -0.2725
1.9272 -2.3812 -0.2458
1.9433 -2.3724 -0.2491
1.9658 -2.3667 -0.2479
1.9861 -2.3600 -0.2482
2.0046 -2.3522 -0.2500
2.0269 -2.3466 -0.2488
2.0612 -2.3486 -0.2381
2.0695 -2.3343 -0.2480
2.0880 -2.3264 -0.2497
2.1084 -2.3197 -0.2501
2.1271 -2.3118 -0.2518
2.1436 -2.3019 -0.2558
2.1657 -2.2964 -0.2547
2.1899 -2.2928 -0.2513
2.2117 -2.2874 -0.2501
2.2341 -2.2827 -0.2482
2.2524 -2.2740 -0.2507
2.2727 -2.2673 -0.2510
2.2918 -2.2593 -0.2528
2.3122 -2.2525 -0.2531
2.3353 -2.2494 -0.2497
2.3513 -2.2370 -0.2560
2.3718 -2.2302 -0.2563
2.3946 -2.2271 -0.2529
2.4150 -2.2204 -0.2532
2.4344 -2.2122 -0.2550
2.4548 -2.2055 -0.2553
2.4785 -2.2057 -0.2489
2.4966 -2.1944 -0.2537
2.5160 -2.1854 -0.2562
2.5378 -2.1826 -0.2528
2.5567 -2.1719 -0.2568
2.5799 -2.1750 -0.2482
2.5989 -2.1643 -0.2522
2.6184 -2.1543 -0.2555
2.6396 -2.1526 -0.2513
2.6601 -2.1485 -0.2494
2.6795 -2.1359 -0.2549
2.6996 -2.1275 -0.2567
2.7198 -2.1200 -0.2578
2.7401 -2.1115 -0.2596
2.7605 -2.0985 -0.2652
2.7807 -2.1026 -0.2564
2.8008 -2.0977 -0.2553
2.8205 -2.0965 -0.2510
2.8403 -2.0918 -0.2498
2.8611 -2.0796 -0.2547
2.8824 -2.0664 -0.2602
2.9035 -2.0558 -0.2636
2.9220 -2.0578 -0.2571
2.9461 -2.0356 -0.2695
2.9651 -2.0347 -0.2652
3.0060 -2.0212 -0.2659
3.0254 -2.0174 -0.2639
3.0450 -2.0128 -0.2627
3.0649 -2.0071 -0.2622
3.0874 -1.9952 -0.2663
3.1083 -1.9875 -0.2674
3.1282 -1.9818 -0.2669
3.1461 -1.9803 -0.2635
3.1696 -1.9672 -0.2683
3.1844 -1.9712 -0.2610
3.2070 -1.9602 -0.2644
3.2279 -1.9525 -0.2655
1.9427 -2.3930 -0.2567
1.9648 -2.3875 -0.2555
1.9847 -2.3809 -0.2558
2.0097 -2.3771 -0.2523
2.0304 -2.3712 -0.2518
2.0521 -2.3658 -0.2506
2.0728 -2.3599 -0.2501
2.0897 -2.3516 -0.2527
2.1051 -2.3421 -0.2568
2.1293 -2.3386 -0.2533
2.1449 -2.3290 -0.2574
2.1648 -2.3225 -0.2577
2.1862 -2.3172 -0.2565
2.2039 -2.3087 -0.2591
2.2492 -2.3008 -0.2535
2.3102 -2.2834 -0.2521
2.3315 -2.2790 -0.2501
2.3887 -2.2575 -0.2533
2.4093 -2.2525 -0.2521
2.4306 -2.2490 -0.2493
2.4501 -2.2425 -0.2496
2.4727 -2.2421 -0.2437
2.5075 -2.2210 -0.2528
2.5295 -2.2208 -0.2469
2.5466 -2.2081 -0.2534
2.5685 -2.2088 -0.2467
2.5864 -2.1976 -0.2516
2.6069 -2.1953 -0.2480
2.6251 -2.1840 -0.2530
2.6451 -2.1800 -0.2510
2.6643 -2.1719 -0.2528
2.6839 -2.1672 -0.2515
2.7038 -2.1660 -0.2472
2.7228 -2.1544 -0.2521
2.7616 -2.1363 -0.2574
2.7808 -2.1415 -0.2476
2.8001 -2.1342 -0.2486
2.8203 -2.1179 -0.2575
2.8389 -2.1188 -0.2515
2.8794 -2.0957 -0.2607
2.9388 -2.0744 -0.2632
2.9558 -2.0776 -0.2556
2.9761 -2.0683 -0.2583
2.9956 -2.0618 -0.2586
3.0161 -2.0524 -0.2612
3.0342 -2.0500 -0.2584
3.0549 -2.0405 -0.2610
3.0722 -2.0392 -0.2574
3.0917 -2.0328 -0.2577
3.1372 -2.0063 -0.2685
3.1773 -1.9922 -0.2699
3.1971 -1.9857 -0.2702
2.5552 -3.7144 -0.2493
2.5769 -3.7012 -0.2443
2.5953 -3.6978 -0.2468
2.6153 -3.6896 -0.2456
2.6346 -3.6833 -0.2459
2.6923 -3.6662 -0.2482
2.7318 -3.6482 -0.2442
2.7512 -3.6401 -0.2430
2.7700 -3.6392 -0.2478
2.7895 -3.6294 -0.2451
2.8087 -3.6231 -0.2453
2.8280 -3.6194 -0.2479
2.8669 -3.6094 -0.2508
2.8857 -3.5980 -0.2465
2.9045 -3.5893 -0.2444
2.9238 -3.5839 -0.2455
2.9622 -3.5714 -0.2460
2.9811 -3.5643 -0.2455
3.0011 -3.5604 -0.2481
3.0203 -3.5542 -0.2484
3.0377 -3.5433 -0.2441
3.0598 -3.5439 -0.2513
3.0784 -3.5361 -0.2500
3.0984 -3.5313 -0.2518
3.1177 -3.5250 -0.2521
3.1344 -3.5144 -0.2478
3.1526 -3.5067 -0.2465
3.1742 -3.5040 -0.2506
3.1924 -3.4964 -0.2494
3.2110 -3.4894 -0.2489
3.2302 -3.4832 -0.2492
3.2511 -3.4789 -0.2518
3.2741 -3.4766 -0.2567
3.2922 -3.4690 -0.2554
3.3109 -3.4621 -0.2549
3.3281 -3.4539 -0.2529
3.3473 -3.4476 -0.2532
3.3650 -3.4401 -0.2519
3.4050 -3.4288 -0.2540
3.4217 -3.4207 -0.2519
3.4409 -3.4145 -0.2522
3.4600 -3.4083 -0.2525
3.4820 -3.4037 -0.2551
3.5012 -3.3974 -0.2554
3.5243 -3.3934 -0.2588
3.5377 -3.3838 -0.2544
3.5568 -3.3776 -0.2547
3.5697 -3.3682 -0.2503
3.5941 -3.3646 -0.2544
3.6111 -3.3573 -0.2532
3.6290 -3.3506 -0.2526
3.6493 -3.3449 -0.2537
2.4009 -3.8028 -0.2546
2.4213 -3.7961 -0.2549
2.4418 -3.7895 -0.2552
2.4632 -3.7808 -0.2541
2.4828 -3.7761 -0.2558
2.5029 -3.7705 -0.2569
2.5234 -3.7638 -0.2572
2.5456 -3.7521 -0.2538
2.5663 -3.7445 -0.2534
2.5878 -3.7340 -0.2507
2.6070 -3.7313 -0.2539
2.6271 -3.7256 -0.2550
2.6464 -3.7237 -0.2590
2.6681 -3.7114 -0.2548
2.6895 -3.6983 -0.2500
2.7096 -3.6926 -0.2510
2.7295 -3.6878 -0.2528
2.7500 -3.6785 -0.2508
2.7705 -3.6675 -0.2474
2.7904 -3.6636 -0.2500
2.8507 -3.6440 -0.2508
2.8707 -3.6357 -0.2496
2.8910 -3.6309 -0.2514
2.9115 -3.6268 -0.2539
2.9323 -3.6235 -0.2572
2.9529 -3.6185 -0.2590
2.9708 -3.6022 -0.2504
2.9915 -3.5981 -0.2529
3.0108 -3.5892 -0.2509
3.0317 -3.5850 -0.2535
3.0512 -3.5769 -0.2523
3.0754 -3.5795 -0.2615
3.0921 -3.5653 -0.2543
3.1134 -3.5610 -0.2569
3.1335 -3.5544 -0.2572
3.1515 -3.5442 -0.2537
3.1701 -3.5355 -0.2518
3.1926 -3.5326 -0.2558
3.2153 -3.5295 -0.2598
3.2312 -3.5174 -0.2541
3.2466 -3.5054 -0.2484
3.2670 -3.4996 -0.2495
3.3087 -3.4886 -0.2523
3.3313 -3.4847 -0.2556
3.3535 -3.4801 -0.2581
3.3751 -3.4749 -0.2599
3.3914 -3.4652 -0.2565
3.4083 -3.4562 -0.2537
3.4557 -3.4486 -0.2611
3.4724 -3.4396 -0.2584
3.4916 -3.4325 -0.2579
3.5070 -3.4231 -0.2544
3.5297 -3.4183 -0.2570
3.5468 -3.4102 -0.2550
3.5637 -3.4020 -0.2530
2.6889 -3.7195 -0.2416
2.7097 -3.7109 -0.2405
2.7504 -3.7020 -0.2446
2.7714 -3.6908 -0.2414
2.7919 -3.6877 -0.2445
2.8332 -3.6742 -0.2451
2.8953 -3.6548 -0.2467
2.9373 -3.6447 -0.2502
2.9574 -3.6346 -0.2476
2.9785 -3.6295 -0.2494
2.9985 -3.6203 -0.2475
3.0200 -3.6160 -0.2500
3.0393 -3.6053 -0.2467
3.0627 -3.6056 -0.2535
3.1018 -3.5866 -0.2490
3.1217 -3.5784 -0.2479
3.1670 -3.5716 -0.2550
3.1859 -3.5619 -0.2524
3.2052 -3.5530 -0.2505
3.2227 -3.5420 -0.2465
3.2454 -3.5381 -0.2497
3.2648 -3.5300 -0.2485
3.2878 -3.5260 -0.2517
3.3085 -3.5193 -0.2520
3.3279 -3.5112 -0.2509
3.3498 -3.5058 -0.2526
3.3662 -3.4952 -0.2486
3.4126 -3.4863 -0.2543
3.4333 -3.4795 -0.2546
3.4499 -3.4697 -0.2512
3.4704 -3.4630 -0.2515
3.4893 -3.4551 -0.2504
3.5116 -3.4496 -0.2521
3.5293 -3.4412 -0.2502
3.5498 -3.4345 -0.2505
3.5703 -3.4278 -0.2508
3.5938 -3.4228 -0.2533
3.6185 -3.4183 -0.2565
3.6370 -3.4105 -0.2554
3.6577 -3.4037 -0.2557
3.6760 -3.3960 -0.2545
3.6943 -3.3883 -0.2534
3.7148 -3.3816 -0.2537
2.3495 -3.8878 -0.2555
2.3727 -3.8784 -0.2545
2.3959 -3.8691 -0.2535
2.4169 -3.8640 -0.2551
2.4417 -3.8506 -0.2514
2.4611 -3.8496 -0.2558
2.4824 -3.8445 -0.2575
2.5046 -3.8372 -0.2578
2.5267 -3.8300 -0.2581
2.5710 -3.8156 -0.2587
2.5942 -3.8045 -0.2563
2.6168 -3.7954 -0.2553
2.6379 -3.7920 -0.2583
2.6611 -3.7791 -0.2546
2.6830 -3.7720 -0.2549
2.7052 -3.7630 -0.2538
2.7269 -3.7577 -0.2555
2.7493 -3.7450 -0.2517
2.7931 -3.7246 -0.2476
2.8147 -3.7255 -0.2541
2.8366 -3.7202 -0.2557
2.8588 -3.7183 -0.2602
2.8800 -3.7024 -0.2536
2.9018 -3.6954 -0.2540
2.9233 -3.6866 -0.2529
2.9447 -3.6778 -0.2518
2.9660 -3.6691 -0.2508
2.9897 -3.6702 -0.2580
3.0126 -3.6664 -0.2610
3.0314 -3.6496 -0.2531
3.0531 -3.6425 -0.2534
3.0798 -3.6480 -0.2648
3.0957 -3.6268 -0.2527
3.1413 -3.6173 -0.2574
3.1640 -3.6117 -0.2591
3.1858 -3.6046 -0.2594
3.2057 -3.5945 -0.2570
3.2249 -3.5838 -0.2538
3.2481 -3.5789 -0.2562
3.2731 -3.5761 -0.2607
3.2938 -3.5676 -0.2596
3.3156 -3.5605 -0.2600
3.3386 -3.5548 -0.2617
3.3605 -3.5477 -0.2620
3.3823 -3.5405 -0.2623
3.4056 -3.5347 -0.2640
3.4260 -3.5263 -0.2629
3.4447 -3.5166 -0.2605
3.4624 -3.5064 -0.2573
3.4898 -3.5037 -0.2625
3.5082 -3.4942 -0.2600
3.5299 -3.4871 -0.2603
3.5434 -3.4747 -0.2544
3.5805 -3.4572 -0.2508
3.6291 -3.4467 -0.2556
3.6526 -3.4409 -0.2573
3.6720 -3.4328 -0.2562
3.6956 -3.4269 -0.2579
3.7193 -3.4209 -0.2597
3.7386 -3.4129 -0.2586
2.4929 -3.8818 -0.2602
2.5174 -3.8702 -0.2579
2.5417 -3.8587 -0.2556
2.7500 -3.7692 -0.2428
2.8616 -3.7329 -0.2444
2.9498 -3.6987 -0.2418
2.9716 -3.6898 -0.2408
3.0182 -3.6836 -0.2480
3.0400 -3.6747 -0.2470
3.1049 -3.6482 -0.2440
3.1278 -3.6425 -0.2457
3.1705 -3.6250 -0.2437
3.2175 -3.6151 -0.2483
3.2357 -3.6020 -0.2433
3.2620 -3.6006 -0.2489
3.2776 -3.5847 -0.2413
3.3042 -3.5832 -0.2469
3.3300 -3.5802 -0.2512
3.3511 -3.5716 -0.2502
3.3747 -3.5657 -0.2519
3.3970 -3.5584 -0.2522
3.4178 -3.5498 -0.2512
3.4416 -3.5439 -0.2529
3.4623 -3.5353 -0.2519
3.4814 -3.5255 -0.2495
3.5036 -3.5183 -0.2498
3.5461 -3.5026 -0.2491
3.5682 -3.4954 -0.2494
3.5921 -3.4894 -0.2511
3.6105 -3.4798 -0.2487
3.6364 -3.4750 -0.2517
3.6586 -3.4678 -0.2521
3.6807 -3.4605 -0.2524
3.7050 -3.4544 -0.2541
3.7272 -3.4472 -0.2544
3.7450 -3.4378 -0.2520
3.7671 -3.4306 -0.2523
3.7915 -3.4244 -0.2540
2.3655 -3.9555 -0.2525
2.3875 -3.9519 -0.2554
2.4124 -3.9420 -0.2545
2.4385 -3.9290 -0.2517
2.4623 -3.9212 -0.2520
2.4850 -3.9166 -0.2543
2.5089 -3.9088 -0.2546
2.5328 -3.9010 -0.2549
2.5576 -3.8902 -0.2534
2.5796 -3.8894 -0.2582
2.6040 -3.8796 -0.2572
2.6284 -3.8698 -0.2563
2.6528 -3.8591 -0.2548
2.6780 -3.8428 -0.2495
2.7005 -3.8436 -0.2555
2.7243 -3.8359 -0.2558
2.7484 -3.8244 -0.2537
2.7723 -3.8120 -0.2508
2.7959 -3.8044 -0.2512
2.8195 -3.7985 -0.2528
2.8433 -3.7935 -0.2550
2.8668 -3.7831 -0.2535
2.8904 -3.7754 -0.2538
2.9130 -3.7599 -0.2485
2.9607 -3.7489 -0.2523
2.9838 -3.7395 -0.2514
3.0047 -3.7219 -0.2441
3.0307 -3.7242 -0.2521
3.0542 -3.7166 -0.2524
3.0783 -3.7105 -0.2540
3.1018 -3.7029 -0.2544
3.1278 -3.7007 -0.2592
3.1530 -3.6961 -0.2621
3.1752 -3.6853 -0.2599
3.1989 -3.6776 -0.2602
3.2204 -3.6660 -0.2573
3.2449 -3.6599 -0.2590
3.2701 -3.6544 -0.2612
3.3085 -3.6274 -0.2517
3.3359 -3.6248 -0.2565
3.3649 -3.6235 -0.2626
3.3886 -3.6157 -0.2629
3.4104 -3.6059 -0.2614
3.4361 -3.6003 -0.2636
3.4612 -3.5939 -0.2653
3.4798 -3.5815 -0.2611
3.5049 -3.5751 -0.2627
3.5309 -3.5694 -0.2650
3.5521 -3.5597 -0.2634
3.6094 -3.5275 -0.2548
3.6299 -3.5181 -0.2532
3.6492 -3.5082 -0.2509
3.6993 -3.4955 -0.2542
3.7225 -3.4879 -0.2545
3.7435 -3.4793 -0.2536
3.7721 -3.4745 -0.2571
3.7897 -3.4642 -0.2542
2.4697 -3.9734 -0.2594
2.4956 -3.9631 -0.2586
2.6750 -3.8837 -0.2473
2.7008 -3.8661 -0.2416
2.7248 -3.8611 -0.2438
2.7490 -3.8550 -0.2453
2.7979 -3.8327 -0.2418
2.8221 -3.8220 -0.2403
2.8464 -3.8187 -0.2437
2.8940 -3.7940 -0.2384
2.9192 -3.7949 -0.2448
2.9425 -3.7810 -0.2409
2.9669 -3.7748 -0.2424
3.1127 -3.7301 -0.2464
3.1853 -3.7064 -0.2474
3.2771 -3.6674 -0.2427
3.3021 -3.6610 -0.2443
3.3306 -3.6590 -0.2495
3.3531 -3.6490 -0.2481
3.3791 -3.6433 -0.2502
3.3981 -3.6297 -0.2457
3.4255 -3.6254 -0.2491
3.4496 -3.6175 -0.2495
3.4687 -3.6049 -0.2455
3.5017 -3.6051 -0.2532
3.5244 -3.5959 -0.2524
3.5526 -3.5913 -0.2558
3.5927 -3.5691 -0.2503
3.6212 -3.5643 -0.2538
3.6455 -3.5564 -0.2541
3.6697 -3.5486 -0.2545
3.6843 -3.5347 -0.2486
3.7082 -3.5269 -0.2490
3.7322 -3.5191 -0.2493
3.7613 -3.5141 -0.2528
3.7854 -3.5063 -0.2531
3.8095 -3.4984 -0.2535
3.8302 -3.4889 -0.2520
3.8542 -3.4811 -0.2523
3.8782 -3.4733 -0.2527
2.3533 -4.0547 -0.2547
2.3809 -4.0430 -0.2534
2.4058 -4.0376 -0.2555
2.4320 -4.0291 -0.2559
2.4582 -4.0205 -0.2562
2.4845 -4.0120 -0.2566
2.5116 -4.0004 -0.2553
2.5394 -3.9858 -0.2522
2.5654 -3.9773 -0.2526
2.5914 -3.9689 -0.2530
2.6180 -3.9574 -0.2516
2.6424 -3.9578 -0.2572
2.6685 -3.9493 -0.2576
2.6954 -3.9350 -0.2545
2.7221 -3.9189 -0.2502
2.7474 -3.9180 -0.2552
2.7735 -3.9068 -0.2539
2.7994 -3.8983 -0.2543
2.8254 -3.8981 -0.2598
2.8515 -3.8869 -0.2585
2.8771 -3.8730 -0.2554
2.9026 -3.8601 -0.2529
2.9542 -3.8433 -0.2536
2.9786 -3.8280 -0.2493
3.0585 -3.8139 -0.2580
3.0839 -3.8038 -0.2572
3.1055 -3.7838 -0.2495
3.1293 -3.7715 -0.2469
3.1615 -3.7785 -0.2584
3.1881 -3.7717 -0.2599
3.2107 -3.7569 -0.2556
3.2342 -3.7446 -0.2531
3.2635 -3.7425 -0.2581
3.2893 -3.7341 -0.2585
3.3176 -3.7294 -0.2618
3.3392 -3.7150 -0.2575
3.3683 -3.7111 -0.2614
3.3942 -3.7026 -0.2617
3.4200 -3.6942 -0.2621
3.4459 -3.6858 -0.2625
3.4731 -3.6788 -0.2640
3.4976 -3.6689 -0.2632
3.5249 -3.6619 -0.2648
3.5493 -3.6521 -0.2640
3.5705 -3.6397 -0.2608
3.5962 -3.6313 -0.2612
3.6269 -3.6268 -0.2651
3.6545 -3.6197 -0.2667
3.6707 -3.6043 -0.2605
3.6890 -3.5909 -0.2562
3.7172 -3.5845 -0.2583
3.7456 -3.5780 -0.2605
3.7652 -3.5661 -0.2573
3.7906 -3.5578 -0.2577
3.8056 -3.5437 -0.2521
3.8275 -3.5338 -0.2507
3.8526 -3.5256 -0.2510
3.8866 -3.5219 -0.2562
3.9119 -3.5137 -0.2565
2.3867 -4.1009 -0.2578
2.4094 -4.1056 -0.2653
2.4420 -4.0829 -0.2586
2.9340 -3.8807 -0.2409
3.0685 -3.8453 -0.2479
3.1720 -3.8032 -0.2444
3.1961 -3.7898 -0.2414
3.3306 -3.7515 -0.2467
3.3571 -3.7429 -0.2471
3.3818 -3.7320 -0.2458
3.4052 -3.7198 -0.2434
3.4276 -3.7069 -0.2404
3.4628 -3.7084 -0.2486
3.4893 -3.6998 -0.2490
3.5199 -3.6954 -0.2528
3.5443 -3.6846 -0.2515
3.5686 -3.6739 -0.2502
3.5974 -3.6673 -0.2522
3.6215 -3.6567 -0.2509
3.6479 -3.6481 -0.2513
3.6769 -3.6414 -0.2534
3.7008 -3.6308 -0.2521
3.7217 -3.6184 -0.2491
3.7509 -3.6117 -0.2511
3.7801 -3.6050 -0.2532
3.8006 -3.5928 -0.2502
3.8218 -3.5812 -0.2478
3.8416 -3.5692 -0.2448
3.8741 -3.5642 -0.2485
3.9035 -3.5574 -0.2506
3.9264 -3.5471 -0.2493
3.9525 -3.5386 -0.2497
2.3099 -4.1838 -0.2564
2.3415 -4.1679 -0.2538
2.3692 -4.1617 -0.2557
2.3970 -4.1554 -0.2577
2.4260 -4.1460 -0.2581
2.4593 -4.1229 -0.2518
2.4880 -4.1136 -0.2522
2.5159 -4.1073 -0.2542
2.5437 -4.1020 -0.2567
2.5734 -4.0885 -0.2550
2.6022 -4.0792 -0.2554
2.6303 -4.0738 -0.2579
2.6602 -4.0575 -0.2547
2.6885 -4.0510 -0.2567
2.7176 -4.0388 -0.2555
2.7461 -4.0323 -0.2575
2.7747 -4.0267 -0.2600
2.8037 -4.0107 -0.2568
2.8322 -3.9948 -0.2535
2.8604 -3.9791 -0.2503
2.8893 -3.9763 -0.2544
2.9181 -3.9697 -0.2564
2.9466 -3.9604 -0.2568
3.0021 -3.9329 -0.2523
3.0318 -3.9298 -0.2564
3.0596 -3.9179 -0.2553
3.0888 -3.9112 -0.2573
3.1182 -3.9045 -0.2593
3.1458 -3.8926 -0.2581
3.1720 -3.8776 -0.2548
3.2018 -3.8716 -0.2573
3.2263 -3.8542 -0.2524
3.2545 -3.8451 -0.2528
3.2870 -3.8438 -0.2586
3.3183 -3.8393 -0.2622
3.3439 -3.8253 -0.2594
3.3739 -3.8183 -0.2614
3.4008 -3.8068 -0.2602
3.4309 -3.7997 -0.2622
3.4534 -3.7830 -0.2573
3.4835 -3.7760 -0.2593
3.5079 -3.7625 -0.2565
3.5334 -3.7504 -0.2548
3.5713 -3.7512 -0.2627
3.6020 -3.7440 -0.2647
3.6327 -3.7368 -0.2667
3.6590 -3.7254 -0.2655
3.6875 -3.7161 -0.2659
3.7160 -3.7068 -0.2664
3.7445 -3.6975 -0.2668
3.7641 -3.6818 -0.2618
3.7988 -3.6771 -0.2660
3.8234 -3.6653 -0.2643
3.8517 -3.6560 -0.2647
3.8840 -3.6493 -0.2672
3.9125 -3.6400 -0.2676
3.9230 -3.6206 -0.2589
3.9338 -3.6021 -0.2507
3.9647 -3.5949 -0.2527
2.3792 -4.2218 -0.2553
2.4389 -4.2061 -0.2582
2.4719 -4.1878 -0.2547
2.8357 -4.0277 -0.2381
3.0997 -3.9454 -0.2439
3.1618 -3.9356 -0.2503
3.1877 -3.9168 -0.2452
3.2145 -3.9014 -0.2421
3.2448 -3.8944 -0.2440
3.2711 -3.8792 -0.2409
3.3001 -3.8697 -0.2414
3.3567 -3.8485 -0.2407
3.3893 -3.8444 -0.2446
3.4146 -3.8296 -0.2415
3.4493 -3.8277 -0.2470
3.4786 -3.8182 -0.2474
3.5078 -3.8087 -0.2478
3.5370 -3.7991 -0.2483
3.5662 -3.7896 -0.2487
3.5905 -3.7751 -0.2456
3.6225 -3.7685 -0.2480
3.6516 -3.7590 -0.2484
3.6776 -3.7467 -0.2468
3.7124 -3.7420 -0.2508
3.7416 -3.7325 -0.2512
3.7682 -3.7210 -0.2501
3.7973 -3.7115 -0.2506
3.8265 -3.7020 -0.2510
3.8585 -3.6944 -0.2529
3.8848 -3.6830 -0.2518
3.9139 -3.6735 -0.2523
3.9431 -3.6640 -0.2527
3.9680 -3.6521 -0.2510
3.9938 -3.6408 -0.2499
4.0228 -3.6314 -0.2503
4.0483 -3.6202 -0.2492
4.0807 -3.6125 -0.2512
2.2553 -4.3456 -0.2593
2.2896 -4.3306 -0.2579
2.3309 -4.2962 -0.2482
2.3609 -4.2912 -0.2510
2.3915 -4.2850 -0.2533
2.4236 -4.2745 -0.2537
2.4545 -4.2683 -0.2561
2.4868 -4.2578 -0.2565
2.5190 -4.2473 -0.2570
2.5512 -4.2368 -0.2575
2.5849 -4.2181 -0.2542
2.6184 -4.1987 -0.2505
2.6502 -4.1883 -0.2509
2.6815 -4.1819 -0.2533
2.7144 -4.1598 -0.2481
2.7771 -4.1507 -0.2546
2.8090 -4.1289 -0.2495
2.8408 -4.1262 -0.2537
2.8725 -4.1158 -0.2541
2.9040 -4.1018 -0.2527
2.9357 -4.0915 -0.2532
2.9690 -4.0930 -0.2598
3.0002 -4.0780 -0.2579
3.0330 -4.0721 -0.2607
3.0650 -4.0617 -0.2612
3.0958 -4.0469 -0.2593
3.1267 -4.0330 -0.2578
3.1584 -4.0227 -0.2583
3.1890 -4.0089 -0.2569
3.2165 -3.9885 -0.2516
3.2493 -3.9816 -0.2540
3.2824 -3.9747 -0.2563
3.3139 -3.9644 -0.2568
3.3437 -3.9509 -0.2553
3.3770 -3.9438 -0.2577
3.4106 -3.9367 -0.2601
3.4464 -3.9326 -0.2644
3.4811 -3.9261 -0.2672
3.5056 -3.9057 -0.2615
3.5348 -3.8924 -0.2600
3.5739 -3.8911 -0.2662
3.5979 -3.8718 -0.2609
3.6377 -3.8703 -0.2671
3.6610 -3.8513 -0.2618
3.6896 -3.8381 -0.2604
3.7150 -3.8223 -0.2570
3.7494 -3.8149 -0.2593
3.7840 -3.8074 -0.2617
3.8154 -3.7971 -0.2622
3.8538 -3.7922 -0.2665
3.8819 -3.7793 -0.2650
3.9135 -3.7690 -0.2655
3.9488 -3.7613 -0.2679
3.9844 -3.7535 -0.2703
4.0202 -3.7457 -0.2727
4.0572 -3.7384 -0.2756
4.0797 -3.7224 -0.2717
4.0985 -3.7049 -0.2663
4.1255 -3.6923 -0.2648
4.1568 -3.6821 -0.2653
4.1835 -3.6696 -0.2638
2.1711 -4.4932 -0.2761
2.2117 -4.4694 -0.2718
2.2533 -4.4414 -0.2657
2.4338 -4.3634 -0.2595
2.4706 -4.3427 -0.2560
2.7116 -4.2411 -0.2489
2.7456 -4.2214 -0.2454
3.2016 -4.0430 -0.2382
3.2310 -4.0248 -0.2347
3.2632 -4.0143 -0.2351
3.3902 -3.9691 -0.2352
3.4223 -3.9586 -0.2357
3.4613 -3.9584 -0.2420
3.5233 -3.9334 -0.2407
3.5937 -3.9191 -0.2457
3.6262 -3.9085 -0.2462
3.6560 -3.8949 -0.2448
3.6913 -3.8873 -0.2471
3.7306 -3.8831 -0.2517
3.7634 -3.8724 -0.2521
3.7859 -3.8526 -0.2467
3.8109 -3.8358 -0.2431
3.8508 -3.8315 -0.2477
3.8946 -3.8297 -0.2541
3.9193 -3.8130 -0.2504
3.9481 -3.7997 -0.2491
3.9844 -3.7918 -0.2514
4.0209 -3.7837 -0.2537
4.0535 -3.7731 -0.2541
4.0821 -3.7599 -0.2528
4.1798 -3.7281 -0.2542
4.1975 -3.7098 -0.2487
4.2298 -3.6993 -0.2492
2.1618 -4.5329 -0.2511
2.2031 -4.5088 -0.2471
2.2505 -4.4672 -0.2365
2.3092 -4.3909 -0.2128
2.3581 -4.3353 -0.1964
2.3472 -4.4618 -0.2492
2.3763 -4.4737 -0.2587
2.4161 -4.4500 -0.2547
2.4524 -4.4382 -0.2553
2.4887 -4.4264 -0.2558
2.5263 -4.4083 -0.2538
2.5625 -4.3965 -0.2544
2.6012 -4.3684 -0.2483
2.6363 -4.3618 -0.2509
2.6715 -4.3562 -0.2539
2.7497 -4.2164 -0.2058
2.8156 -4.3034 -0.2535
2.8515 -4.2917 -0.2540
2.8877 -4.2857 -0.2570
2.9242 -4.2787 -0.2596
2.9591 -4.2566 -0.2555
2.9950 -4.2449 -0.2561
3.0309 -4.2332 -0.2566
3.0668 -4.2215 -0.2571
3.1005 -4.2009 -0.2534
3.1361 -4.1893 -0.2539
3.1717 -4.1777 -0.2545
3.2103 -4.1748 -0.2592
3.2496 -4.1726 -0.2643
3.2803 -4.1471 -0.2581
3.3141 -4.1312 -0.2565
3.3478 -4.1154 -0.2549
3.3832 -4.1039 -0.2554
3.4187 -4.0923 -0.2560
3.4489 -4.0718 -0.2518
3.4816 -4.0563 -0.2502
3.5166 -4.0449 -0.2507
3.5573 -4.0414 -0.2555
3.5961 -4.0345 -0.2585
3.6346 -4.0268 -0.2612
3.6671 -4.0114 -0.2596
3.6985 -3.9953 -0.2575
3.7166 -3.9652 -0.2474
3.7692 -3.9723 -0.2585
3.8045 -3.9608 -0.2591
3.8444 -3.9536 -0.2621
3.8799 -3.9420 -0.2627
3.9104 -3.9263 -0.2606
3.9458 -3.9147 -0.2611
3.9863 -3.9073 -0.2642
4.0164 -3.8917 -0.2621
4.0666 -3.8909 -0.2695
4.1023 -3.8792 -0.2700
4.1489 -3.8747 -0.2753
4.1788 -3.8591 -0.2732
4.2095 -3.8443 -0.2716
4.2347 -3.8264 -0.2678
4.2636 -3.8112 -0.2657
4.2934 -3.7966 -0.2641
4.3286 -3.7852 -0.2646
4.3637 -3.7737 -0.2651
2.1871 -4.5677 -0.2274
2.2314 -4.5366 -0.2214
2.3179 -4.5768 -0.2500
2.3505 -4.5847 -0.2579
2.3913 -4.5656 -0.2561
2.4337 -4.5391 -0.2517
2.6235 -4.5016 -0.2642
2.8962 -4.3766 -0.2537
3.0427 -4.2889 -0.2398
3.2849 -4.2676 -0.2664
3.3511 -4.2167 -0.2556
3.7084 -4.0661 -0.2472
3.7381 -4.0456 -0.2433
3.7714 -4.0299 -0.2419
3.8080 -4.0180 -0.2424
3.8483 -4.0097 -0.2449
3.8936 -4.0057 -0.2499
3.9586 -3.9738 -0.2465
4.0321 -3.9498 -0.2476
4.0743 -3.9420 -0.2505
4.1056 -3.9259 -0.2487
4.1423 -3.9139 -0.2492
4.1850 -3.9059 -0.2521
4.1996 -3.8796 -0.2438
4.2474 -3.8748 -0.2488
4.2776 -3.8591 -0.2469
4.3206 -3.8509 -0.2498
4.3327 -3.8255 -0.2414
4.3996 -3.8301 -0.2529
4.4234 -3.8116 -0.2490
4.4539 -3.7967 -0.2475
2.1872 -4.6752 -0.2253
2.3461 -4.4088 -0.1484
2.4084 -4.6700 -0.2532
2.4532 -4.6416 -0.2487
2.4945 -4.6282 -0.2493
2.7830 -4.5341 -0.2535
2.8241 -4.4932 -0.2439
2.8650 -4.4936 -0.2496
2.9063 -4.4871 -0.2528
2.9485 -4.4871 -0.2585
2.9876 -4.4537 -0.2514
3.0304 -4.4535 -0.2571
3.0704 -4.4336 -0.2551
3.1101 -4.4138 -0.2532
3.1510 -4.4004 -0.2538
3.1953 -4.3998 -0.2595
3.2365 -4.3864 -0.2601
3.2777 -4.3729 -0.2607
3.3190 -4.3595 -0.2613
3.3651 -4.3582 -0.2670
3.3935 -4.3145 -0.2548
3.4398 -4.3132 -0.2605
3.4809 -4.2998 -0.2611
3.5219 -4.2865 -0.2617
3.5629 -4.2731 -0.2623
3.6004 -4.2540 -0.2603
3.6488 -4.2520 -0.2661
3.6861 -4.2330 -0.2641
3.7271 -4.2196 -0.2647
3.7681 -4.2062 -0.2653
3.8047 -4.1874 -0.2633
3.8408 -4.1687 -0.2612
3.8766 -4.1502 -0.2592
3.9121 -4.1318 -0.2572
3.9479 -4.1142 -0.2555
3.9981 -4.1106 -0.2610
4.0442 -4.1025 -0.2642
4.0907 -4.0942 -0.2674
4.1255 -4.0760 -0.2654
4.1424 -4.0439 -0.2558
4.2005 -4.0446 -0.2639
4.2410 -4.0315 -0.2645
4.2949 -4.0277 -0.2704
4.3358 -4.0143 -0.2710
4.3624 -3.9919 -0.2663
4.4248 -3.9922 -0.2748
4.4157 -3.9489 -0.2576
4.4992 -3.9611 -0.2733
4.4953 -3.9230 -0.2588
4.5649 -3.9259 -0.2692
4.5749 -3.8971 -0.2599
4.5835 -3.8687 -0.2506
2.4336 -4.7635 -0.2416
2.6798 -4.4124 -0.1534
2.9136 -4.5465 -0.2280
2.9586 -4.5616 -0.2388
3.0131 -4.6411 -0.2725
3.0540 -4.5940 -0.2617
3.4425 -4.4277 -0.2539
3.4924 -4.4263 -0.2596
3.5036 -4.3473 -0.2342
3.5421 -4.3268 -0.2321
3.6021 -4.3440 -0.2454
3.6532 -4.3432 -0.2515
3.7052 -4.3421 -0.2577
3.7445 -4.3214 -0.2556
4.0150 -4.1876 -0.2440
4.0457 -4.1627 -0.2394
4.0941 -4.1548 -0.2428
4.1480 -4.1512 -0.2483
4.2331 -4.1235 -0.2495
4.2692 -4.1047 -0.2477
4.2910 -4.0758 -0.2406
4.3472 -4.0724 -0.2465
4.4967 -4.0455 -0.2561
4.5395 -4.0315 -0.2567
4.5340 -3.9897 -0.2418
4.5599 -3.9673 -0.2375
4.6942 -4.0039 -0.2667
4.7469 -3.9947 -0.2701
4.7905 -3.9805 -0.2707
2.1021 -5.0715 -0.2500
2.1510 -5.0556 -0.2507
2.2564 -4.8513 -0.1996
2.4277 -4.5005 -0.1109
2.5023 -4.4702 -0.1101
2.5488 -4.6070 -0.1578
2.5961 -4.5456 -0.1443
2.6873 -4.9108 -0.2677
2.7387 -4.8541 -0.2561
2.7880 -4.7910 -0.2423
2.8355 -4.7845 -0.2458
2.8843 -4.7966 -0.2551
2.9218 -4.6174 -0.2040
2.9673 -4.6196 -0.2100
3.0295 -4.7493 -0.2572
3.0779 -4.7335 -0.2579
3.1248 -4.7093 -0.2558
3.1729 -4.6936 -0.2565
3.2211 -4.6779 -0.2572
3.2645 -4.6447 -0.2520
3.3122 -4.6292 -0.2527
3.3571 -4.6056 -0.2506
3.4012 -4.5812 -0.2481
3.4484 -4.5658 -0.2488
3.4994 -4.5592 -0.2526
3.5505 -4.5515 -0.2561
3.6147 -4.5686 -0.2688
3.6458 -4.5205 -0.2575
3.6798 -4.4814 -0.2494
3.7267 -4.4661 -0.2500
3.7785 -4.4582 -0.2536
3.8257 -4.4429 -0.2543
3.8954 -4.4581 -0.2670
3.9318 -4.4273 -0.2617
3.9795 -4.4117 -0.2624
4.0332 -4.4032 -0.2659
4.0881 -4.3953 -0.2698
4.1225 -4.3651 -0.2644
4.1633 -4.3428 -0.2623
4.2178 -4.3341 -0.2658
4.2582 -4.3119 -0.2636
4.3289 -4.3168 -0.2733
4.3608 -4.2875 -0.2679
4.4084 -4.2719 -0.2686
4.5108 -4.1496 -0.2426
4.7143 -4.1913 -0.2789
4.7421 -4.1632 -0.2734
4.7392 -4.1181 -0.2592
4.7564 -4.0865 -0.2514
4.8747 -4.1110 -0.2726
4.9221 -4.0955 -0.2733
2.0542 -5.2408 -0.2386
2.1029 -5.2360 -0.2424
2.1670 -5.1808 -0.2337
2.4652 -4.5102 -0.0774
2.5010 -4.5036 -0.0793
2.5661 -4.5358 -0.0952
2.6444 -4.4982 -0.0930
3.1094 -4.9201 -0.2604
3.6134 -4.6873 -0.2485
3.7952 -4.6845 -0.2670
3.8480 -4.6673 -0.2677
3.8764 -4.6127 -0.2554
3.9412 -4.6147 -0.2629
4.0458 -4.5806 -0.2644
4.1274 -4.5198 -0.2560
4.3504 -4.4048 -0.2474
4.4007 -4.3884 -0.2481
4.6414 -4.3523 -0.2634
4.7587 -4.3826 -0.2843
4.8119 -4.3653 -0.2851
4.8651 -4.3479 -0.2859
4.8254 -4.1785 -0.2342
4.8524 -4.1505 -0.2292
4.8899 -4.1292 -0.2272
2.1118 -4.9756 -0.1202
2.0411 -5.4648 -0.2364
2.0990 -5.4460 -0.2372
2.2173 -5.2033 -0.1876
2.3967 -4.8401 -0.1136
2.5385 -4.5196 -0.0466
2.6067 -4.5462 -0.0599
2.6410 -4.5746 -0.0704
2.6754 -4.6254 -0.0864
2.7452 -4.9743 -0.1810
2.8512 -5.1592 -0.2377
2.9111 -5.2098 -0.2562
2.9668 -5.1490 -0.2462
3.0243 -5.1302 -0.2471
3.0819 -5.1114 -0.2479
3.1436 -5.1198 -0.2560
3.1994 -5.0874 -0.2532
3.2602 -5.0818 -0.2577
3.3249 -5.0891 -0.2657
3.3768 -5.0438 -0.2593
3.4311 -5.0119 -0.2566
3.4847 -4.9802 -0.2538
3.5469 -4.9741 -0.2582
3.6099 -4.9678 -0.2627
3.6682 -4.9488 -0.2636
3.6821 -4.8356 -0.2364
3.7375 -4.8175 -0.2373
3.8173 -4.8443 -0.2517
3.8302 -4.7498 -0.2291
3.8721 -4.7117 -0.2236
3.8696 -4.6079 -0.1973
3.8461 -4.4835 -0.1637
3.9406 -4.5320 -0.1850
4.0298 -4.5669 -0.2024
4.0956 -4.5678 -0.2090
4.2366 -4.6549 -0.2445
4.3288 -4.6777 -0.2591
4.4465 -4.7236 -0.2820
4.4842 -4.6829 -0.2754
4.4789 -4.6024 -0.2547
4.4643 -4.5187 -0.2322
4.5182 -4.5012 -0.2330
4.8211 -4.5589 -0.2767
4.8790 -4.5400 -0.2776
4.9233 -4.5113 -0.2746
4.9809 -4.4926 -0.2755
5.0108 -4.4554 -0.2690
5.0960 -4.4551 -0.2772
5.1104 -4.4097 -0.2671
5.1669 -4.3913 -0.2680
4.8470 -4.1574 -0.1783
4.8010 -4.0901 -0.1569
4.8264 -4.0645 -0.1529
2.1059 -5.0177 -0.0796
2.1889 -5.5536 -0.2065
2.5675 -4.5971 -0.0259
2.6620 -5.6605 -0.2717
2.9288 -5.4804 -0.2547
2.9916 -5.4241 -0.2477
3.0543 -5.3863 -0.2447
3.1226 -5.3988 -0.2534
3.1823 -5.3445 -0.2465
3.2789 -5.4994 -0.2895
3.3035 -5.2713 -0.2408
3.3483 -5.1758 -0.2233
3.4132 -5.1700 -0.2277
3.6302 -5.1986 -0.2530
3.6880 -5.1624 -0.2500
3.7081 -5.0422 -0.2249
3.7562 -4.9958 -0.2187
3.7907 -4.9262 -0.2062
3.8555 -4.9194 -0.2104
3.9072 -4.8882 -0.2079
3.9248 -4.6983 -0.1670
3.9201 -4.5964 -0.1439
3.9969 -4.6154 -0.1548
4.3340 -4.9692 -0.2633
4.4800 -5.0496 -0.2939
4.4572 -4.8298 -0.2429
4.4635 -4.7510 -0.2258
4.4794 -4.6874 -0.2130
4.5934 -4.7230 -0.2309
4.7281 -4.7732 -0.2539
4.8316 -4.7897 -0.2666
4.9247 -4.7941 -0.2757
4.9891 -4.7732 -0.2766
5.0535 -4.7522 -0.2776
5.0857 -4.7069 -0.2703
5.1015 -4.6515 -0.2593
5.1808 -4.6431 -0.2643
5.3113 -4.6682 -0.2813
5.3008 -4.5395 -0.2517
5.3482 -4.4043 -0.2256
2.0769 -5.1276 -0.0490
1.9573 -6.2651 -0.2621
2.0656 -6.1091 -0.2400
2.1448 -6.0606 -0.2368
2.2083 -6.0864 -0.2467
2.5727 -4.5999 0.0154
2.6038 -4.6517 0.0029
2.5945 -5.7831 -0.2177
2.6584 -5.8705 -0.2398
2.7283 -5.9406 -0.2589
2.8035 -5.8687 -0.2508
2.8763 -5.7996 -0.2429
2.9500 -5.7982 -0.2484
3.0232 -5.7744 -0.2495
3.1010 -5.7954 -0.2597
3.1639 -5.6831 -0.2427
3.2200 -5.5586 -0.2227
3.3757 -5.5925 -0.2415
3.4235 -5.4727 -0.2218
3.5356 -5.6074 -0.2569
3.6088 -5.5835 -0.2580
3.7034 -5.6228 -0.2731
3.7553 -5.5358 -0.2601
3.7745 -5.3779 -0.2308
3.7993 -5.2533 -0.2083
3.8158 -4.9797 -0.1561
3.8226 -4.8630 -0.1338
3.8921 -4.6537 -0.0983
3.8835 -4.5492 -0.0772
3.9385 -4.5416 -0.0800
4.4624 -5.0372 -0.2180
4.5164 -5.0010 -0.2151
4.8526 -4.9864 -0.2385
4.9731 -4.9275 -0.2365
5.1271 -4.9794 -0.2587
5.2531 -5.0023 -0.2730
5.4073 -5.0438 -0.2932
5.1748 -4.7864 -0.2247
5.4282 -4.9019 -0.2671
5.5633 -4.9239 -0.2819
5.5830 -4.7287 -0.2453
5.5499 -4.6457 -0.2265
5.5005 -4.5576 -0.2054
5.5879 -4.4961 -0.2002
5.5391 -4.4181 -0.1811
2.0531 -5.1010 0.0089
2.1220 -5.0224 0.0174
1.7191 -6.6431 -0.2273
1.7444 -6.8261 -0.2598
1.8870 -6.5884 -0.2297
3.0625 -6.2053 -0.2468
3.1558 -6.2674 -0.2637
3.3237 -6.1815 -0.2609
3.4037 -6.1242 -0.2568
3.4584 -5.9588 -0.2328
3.4446 -5.5486 -0.1628
3.5797 -5.7592 -0.2076
3.7912 -5.8795 -0.2425
3.7331 -5.4754 -0.1705
3.9003 -5.4874 -0.1841
3.9285 -5.3691 -0.1662
3.8540 -4.9257 -0.0864
3.8783 -4.8481 -0.0751
3.9001 -4.5791 -0.0313
3.9313 -4.5378 -0.0265
4.9351 -5.5067 -0.2591
5.0168 -5.4801 -0.2603
5.0985 -5.4534 -0.2615
5.5331 -5.0728 -0.2276
5.6802 -5.1007 -0.2425
5.8613 -5.1487 -0.2631
5.9372 -4.9660 -0.2376
5.7677 -4.7916 -0.1965
5.4512 -4.4343 -0.1145
2.1437 -4.9840 0.0701
2.7083 -4.4450 0.1121
3.5747 -5.7335 -0.1224
3.6172 -5.6013 -0.1063
3.6693 -5.5173 -0.0976
3.7548 -5.5334 -0.1051
3.8350 -5.5303 -0.1095
3.8578 -5.3920 -0.0913
3.8866 -5.2831 -0.0777
3.8476 -5.0508 -0.0425
3.8278 -4.8813 -0.0174
3.8875 -4.5665 0.0235
3.9484 -4.5676 0.0196
4.9772 -5.6995 -0.2026
5.4209 -5.9507 -0.2649
5.4890 -5.8888 -0.2603
5.4210 -5.6889 -0.2279
5.5206 -5.5548 -0.2150
5.4812 -5.4117 -0.1924
5.6634 -5.1030 -0.1599
5.3561 -4.8042 -0.0990
5.4808 -4.8222 -0.1091
5.7232 -4.9150 -0.1369
5.7958 -4.8913 -0.1380
5.6645 -4.7425 -0.1090
5.5560 -4.5589 -0.0765
2.5028 -4.2367 0.1842
2.5333 -4.2194 0.1846
2.5562 -4.2373 0.1814
2.6797 -4.4270 0.1532
2.7143 -4.4210 0.1521
2.7491 -4.4149 0.1510
2.7836 -4.4375 0.1466
3.7866 -6.1458 -0.1015
3.8346 -5.7483 -0.0583
3.8977 -5.4861 -0.0315
3.9015 -5.3181 -0.0124
3.7916 -4.8180 0.0506
3.8272 -4.7684 0.0545
3.8866 -4.5707 0.0741
3.9718 -4.6063 0.0656
4.6262 -5.3890 -0.0582
5.0939 -5.8580 -0.1363
5.5041 -6.2107 -0.1981
5.5450 -6.1067 -0.1882
5.6150 -6.0406 -0.1843
5.6835 -5.9761 -0.1804
5.8780 -5.4643 -0.1318
6.2976 -5.6937 -0.1799
5.6411 -4.8747 -0.0519
5.6886 -4.8370 -0.0500
5.8043 -4.8426 -0.0567
5.5756 -4.6407 -0.0216
5.5623 -4.5754 -0.0134
5.4630 -4.4653 0.0044
2.5559 -4.2609 0.2097
2.7512 -4.4587 0.1837
2.7871 -4.4523 0.1827
2.8232 -4.4353 0.1826
3.9721 -6.7406 -0.0715
3.9033 -6.2017 -0.0208
3.8424 -5.7688 0.0202
3.9487 -5.8149 0.0115
4.0076 -5.7415 0.0155
4.0337 -5.6044 0.0265
4.0291 -5.4209 0.0430
3.7970 -4.8322 0.1052
3.8213 -4.7627 0.1103
3.8802 -4.5670 0.1251
3.9584 -4.5936 0.1193
5.1727 -5.9698 -0.0553
5.4261 -6.1317 -0.0806
5.4403 -6.0017 -0.0697
5.6250 -6.0669 -0.0835
5.7293 -5.9075 -0.0739
6.6283 -5.9696 -0.1184
6.3661 -5.6596 -0.0796
6.2031 -5.3513 -0.0452
5.8831 -4.9060 0.0081
2.3390 -4.9518 0.2043
2.5532 -4.6646 0.2149
2.5783 -4.7582 0.2081
2.7906 -4.4737 0.2186
2.8272 -4.4854 0.2166
3.7346 -6.2831 0.0718
3.7262 -5.9400 0.0937
3.7891 -5.8627 0.0963
3.7617 -5.5504 0.1169
3.8406 -5.5472 0.1144
3.9207 -5.5436 0.1118
4.0023 -5.5406 0.1091
3.9824 -5.3318 0.1229
3.9193 -5.0654 0.1419
3.8815 -4.8732 0.1553
3.9431 -4.8660 0.1536
3.8744 -4.5639 0.1750
3.9045 -4.5241 0.1764
5.4948 -6.2289 0.0136
5.4776 -6.0589 0.0249
5.5749 -6.0271 0.0235
5.6723 -5.9954 0.0221
5.7085 -5.9022 0.0267
6.8092 -6.2567 -0.0341
6.6389 -5.9974 -0.0119
6.6134 -5.8643 -0.0026
6.5890 -5.7395 0.0061
6.0303 -5.2469 0.0566
6.0491 -5.0995 0.0652
5.7501 -4.8371 0.0922
5.6482 -4.7108 0.1037
5.5572 -4.5980 0.1139
1.6981 -5.8071 0.2352
1.7072 -5.9228 0.2306
2.0886 -5.1297 0.2501
2.6143 -4.8484 0.2466
2.7146 -4.6172 0.2526
2.7547 -4.5772 0.2530
2.7939 -4.5072 0.2546
2.8308 -4.4780 0.2547
3.6324 -5.9103 0.1796
3.7542 -5.5297 0.1906
3.8398 -5.5461 0.1877
3.9107 -5.5229 0.1867
3.9908 -5.5195 0.1847
3.9340 -4.9706 0.2068
3.9628 -4.9041 0.2085
3.9831 -4.8295 0.2108
3.8846 -4.5844 0.2226
3.9036 -4.5285 0.2242
5.3634 -6.0840 0.1269
5.5165 -6.1183 0.1215
5.6451 -6.1195 0.1180
5.8781 -6.2280 0.1077
6.7393 -6.0962 0.0896
6.5402 -5.8278 0.1050
5.6963 -4.7534 0.1678
5.6389 -4.6588 0.1729
5.6060 -4.5832 0.1766
2.2773 -5.0919 0.2946
2.6301 -4.7509 0.2923
2.6777 -4.6615 0.2926
2.7173 -4.6486 0.2920
2.7572 -4.6291 0.2915
2.7973 -4.5552 0.2917
2.8350 -4.5233 0.2914
3.6064 -5.8105 0.2610
3.6538 -5.6973 0.2615
3.6984 -5.5915 0.2620
3.7401 -5.4910 0.2625
3.8010 -5.4505 0.2619
3.9010 -5.5027 0.2594
4.0169 -5.5790 0.2563
4.0998 -5.5759 0.2548
4.1105 -5.4344 0.2563
3.9543 -4.8953 0.2659
3.8894 -4.5970 0.2709
3.9252 -4.5647 0.2706
5.5264 -6.1443 0.2212
5.6248 -6.1122 0.2197
5.6621 -6.0153 0.2203
5.3802 -5.5997 0.2307
5.7574 -5.0846 0.2301
5.5631 -4.8762 0.2363
5.5757 -4.7537 0.2376
5.5818 -4.6963 0.2382
5.5331 -4.6089 0.2402
5.4867 -4.5274 0.2421
5.5108 -4.4891 0.2421
2.5909 -4.7913 0.3351
2.6367 -4.7381 0.3340
2.6839 -4.6439 0.3323
2.7213 -4.6591 0.3321
2.7607 -4.6539 0.3316
2.8010 -4.5718 0.3302
2.8384 -4.5093 0.3291
3.5635 -5.9519 0.3390
3.6139 -5.8304 0.3370
3.6413 -5.6529 0.3345
3.6918 -5.5697 0.3330
3.7542 -5.5286 0.3318
3.8230 -5.5061 0.3308
3.8997 -5.5019 0.3300
4.0437 -5.6400 0.3301
4.2443 -5.8712 0.3308
4.3955 -5.9773 0.3305
3.8719 -4.5763 0.3190
3.9073 -4.5451 0.3182
5.5657 -6.2045 0.3210
5.6348 -6.1382 0.3194
5.6719 -6.0408 0.3178
5.9673 -6.2126 0.3168
5.8133 -5.1388 0.3054
5.4342 -4.8005 0.3052
5.4956 -4.6557 0.3028
5.4339 -4.5620 0.3023
5.4587 -4.5233 0.3016
5.5166 -4.5044 0.3008
1.5224 -6.7239 0.4504
2.5825 -4.9068 0.3813
2.6868 -4.6677 0.3723
2.7253 -4.6695 0.3722
2.7649 -4.6566 0.3717
2.8049 -4.5753 0.3686
2.8419 -4.5070 0.3660
3.6281 -5.8734 0.4138
3.6965 -5.8258 0.4119
3.7334 -5.4720 0.3989
3.8613 -5.6023 0.4033
3.9322 -5.5792 0.4023
4.0413 -5.6384 0.4041
4.2035 -5.7939 0.4094
3.8821 -4.5968 0.3666
3.9233 -4.5734 0.3656
3.9943 -4.5911 0.3661
5.5757 -6.2308 0.4217
5.6752 -6.1984 0.4203
5.8070 -6.2007 0.4200
5.9075 -6.1679 0.4186
5.7505 -5.8817 0.4085
5.6163 -5.6378 0.4000
6.0987 -5.4475 0.3918
5.6344 -5.0245 0.3776
5.5574 -4.8986 0.3732
5.5051 -4.7965 0.3696
5.4948 -4.7272 0.3671
5.4484 -4.6386 0.3640
5.4066 -4.5575 0.3611
5.4318 -4.5195 0.3597
5.4890 -4.5008 0.3588
2.5858 -4.9289 0.4267
2.6363 -4.8502 0.4222
2.6897 -4.6929 0.4129
2.7297 -4.6732 0.4120
2.7691 -4.6604 0.4114
2.8087 -4.5986 0.4079
2.8457 -4.5222 0.4034
3.5664 -5.9427 0.4930
3.7975 -5.6442 0.4762
3.8369 -5.5425 0.4702
3.9137 -5.5386 0.4704
4.0103 -5.5748 0.4731
4.0717 -5.5326 0.4709
4.1316 -5.4898 0.4686
3.8571 -4.7477 0.4223
3.8509 -4.6420 0.4159
3.8705 -4.5846 0.4125
3.9116 -4.5623 0.4114
5.5562 -6.2223 0.5202
5.6546 -6.1903 0.5188
5.7530 -6.1582 0.5174
5.8187 -6.0924 0.5137
5.8519 -5.9972 0.5082
5.9472 -5.9661 0.5068
5.7374 -5.6570 0.4870
6.1690 -5.5164 0.4807
5.6464 -4.9739 0.4452
5.6947 -4.9371 0.4433
5.7192 -4.8858 0.4403
5.6812 -4.7972 0.4347
5.6063 -4.6906 0.4279
5.6126 -4.6375 0.4247
2.4997 -4.7454 0.4541
2.6178 -4.7002 0.4518
2.6491 -4.7705 0.4581
3.5740 -5.9628 0.5703
3.7196 -5.6448 0.5454
3.8202 -5.7048 0.5518
3.8438 -5.5607 0.5399
3.8729 -5.4462 0.5307
3.9311 -5.4071 0.5282
4.0788 -5.5512 0.5422
4.3920 -5.9892 0.5830
3.8683 -4.7712 0.4739
3.8499 -4.6453 0.4631
3.8751 -4.5968 0.4593
5.7267 -6.2866 0.6252
5.8273 -6.2538 0.6237
5.8942 -6.1862 0.6189
5.9598 -6.1201 0.6142
5.9900 -6.0230 0.6064
5.9540 -5.8704 0.5931
5.5026 -5.3612 0.5445
5.6893 -5.1695 0.5308
5.5428 -4.9847 0.5134
5.7197 -5.0389 0.5202
5.7450 -4.9848 0.5160
5.5439 -4.7842 0.4966
5.4431 -4.6594 0.4848
5.4933 -4.5793 0.4787
2.3006 -4.4481 0.4565
2.3263 -4.4521 0.4575
2.3664 -4.5032 0.4638
2.6049 -4.8612 0.5071
2.8537 -4.5673 0.4807
4.0056 -7.1791 0.7846
3.8275 -5.9581 0.6499
3.8275 -5.7239 0.6247
3.8280 -5.5222 0.6031
3.8493 -5.3936 0.5897
3.9061 -5.3560 0.5869
4.2392 -5.8802 0.6499
4.4151 -6.0391 0.6706
3.8181 -4.6910 0.5137
3.8494 -4.6493 0.5098
3.8628 -4.5031 0.4944
6.1490 -6.3253 0.7368
6.1031 -6.1477 0.7168
5.9950 -5.9239 0.6906
6.0558 -5.8647 0.6854
5.7870 -5.5267 0.6437
6.5384 -5.8302 0.6916
5.5837 -4.8881 0.5710
5.4943 -4.7641 0.5558
5.6810 -4.7032 0.5531
4.1400 -7.2229 0.8991
3.8513 -5.7874 0.7040
3.8785 -5.4633 0.6625
3.9444 -5.4419 0.6616
4.0275 -5.4556 0.6657
3.8281 -4.8142 0.5765
3.7920 -4.6513 0.5543
3.8435 -4.6448 0.5549
4.1040 -4.4023 0.5306
5.8492 -6.0411 0.7929
6.0095 -6.0740 0.8016
6.1058 -6.0426 0.8002
6.2748 -6.0759 0.8093
6.2620 -5.9486 0.7923
5.8511 -5.4997 0.7224
6.8094 -5.9471 0.8074
5.6719 -4.9617 0.6473
5.5201 -4.7935 0.6211
5.6202 -4.7971 0.6244
5.7244 -4.8017 0.6279
1.0112 -7.9621 1.0072
2.8575 -4.4604 0.5369
2.8956 -4.5188 0.5471
4.1350 -7.2010 1.0011
4.1635 -6.9348 0.9614
3.9021 -5.9239 0.7976
3.9055 -5.7173 0.7661
3.8774 -5.4627 0.7262
4.0023 -5.5705 0.7471
3.8558 -4.8681 0.6345
3.7775 -4.6310 0.5954
3.8128 -4.6001 0.5920
3.8681 -4.6015 0.5941
3.9996 -4.6283 0.6029
4.0371 -4.5270 0.5887
4.0879 -4.5196 0.5894
4.0842 -4.3872 0.5690
6.3542 -6.4241 0.9607
6.3380 -6.2753 0.9374
6.2474 -6.0685 0.9025
6.3447 -6.0367 0.9011
6.4420 -6.0050 0.8997
6.1490 -5.6610 0.8367
6.6530 -5.8495 0.8834
6.7078 -5.7894 0.8761
5.9845 -5.1916 0.7592
5.6078 -4.8018 0.6862
5.6518 -4.7692 0.6828
5.5808 -4.6678 0.6648
1.0607 -7.8796 1.0927
4.1841 -6.6824 1.0159
3.8557 -5.5938 0.8111
3.9235 -5.5717 0.8102
4.0000 -5.5687 0.8129
4.0970 -5.6049 0.8234
3.8269 -4.8203 0.6743
6.1598 -6.1259 1.0026
6.2572 -6.0942 1.0012
6.3931 -6.0959 1.0072
6.4142 -5.9993 0.9912
6.5899 -6.0318 1.0044
6.6069 -5.9365 0.9884
6.7439 -5.9356 0.9941
5.5954 -4.8062 0.7472
5.6196 -4.7615 0.7404
4.2476 -7.1739 1.2072
4.3908 -7.2383 1.2270
4.0659 -5.5455 0.8768
3.7896 -4.7570 0.7075
3.7444 -4.4986 0.6543
4.0054 -4.4992 0.6674
6.0007 -5.9926 1.0614
6.1260 -5.9923 1.0676
6.2909 -6.0242 1.0821
6.5014 -6.0898 1.1055
6.5998 -6.0578 1.1041
6.8395 -6.0260 1.1097
6.8093 -5.8992 1.0832
6.9484 -5.8979 1.0899
6.7531 -5.6675 1.0347
5.4644 -4.6754 0.7748
5.6298 -4.7222 0.7923
3.7994 -4.7785 0.7580
3.7152 -4.5367 0.7003
3.7528 -4.5163 0.6980
3.7813 -4.4826 0.6922
3.8178 -4.4625 0.6899
3.9241 -4.4686 0.6973
3.9768 -4.4689 0.7003
4.0410 -4.4818 0.7068
4.0199 -4.3349 0.6734
6.9294 -6.2255 1.2530
6.9861 -6.1558 1.2409
6.5436 -5.7231 1.1210
5.7124 -4.7855 0.8684
5.7961 -4.7780 0.8715
0.8785 -5.7252 0.8614
1.7971 -4.1597 0.5417
1.7799 -4.1461 0.5448
1.7499 -4.1498 0.5520
1.7387 -4.1259 0.5530
-0.4315 -5.2367 1.1332
0.8134 -2.9674 0.6900
0.8833 -2.8937 0.6688
0.9643 -2.8295 0.6456
0.9649 -2.7956 0.6431
0.9292 -2.7567 0.6488
0.9299 -2.7231 0.6464
0.9245 -2.6888 0.6453
0.8336 -2.6366 0.6630
-0.4034 -1.8736 0.8992
-0.2925 -1.8656 0.8729
-0.3472 -1.7934 0.8807
-0.3471 -1.7437 0.8773
0.7138 -6.0117 0.8567
0.9165 -5.5938 0.7887
0.8763 -5.5691 0.7957
0.8683 -5.4948 0.7929
1.6818 -4.1687 0.5413
1.6578 -4.1582 0.5458
1.6178 -4.1661 0.5547
1.5467 -4.1634 0.5695
1.5431 -4.1238 0.5679
1.5610 -4.0618 0.5603
-0.3827 -5.2084 1.0390
-0.7708 -4.1173 1.0548
-1.0142 -3.2597 1.0542
0.8824 -2.9652 0.6370
0.8909 -2.9275 0.6329
0.9067 -2.8913 0.6274
0.9076 -2.8550 0.6250
0.9540 -2.8242 0.6133
0.9496 -2.7893 0.6122
0.9683 -2.7582 0.6064
0.9386 -2.7200 0.6103
0.9210 -2.6833 0.6118
0.8427 -2.6334 0.6253
0.7498 -2.5774 0.6414
0.2763 -2.3335 0.7264
0.2966 -2.2968 0.7199
0.4605 -2.2702 0.6838
0.0145 -2.0687 0.7655
-0.3689 -1.8759 0.8346
-0.3882 -1.8165 0.8351
-0.3143 -1.7961 0.8183
0.7561 -5.9632 0.7829
1.5514 -4.1644 0.5375
1.7998 -3.7815 0.4704
1.7016 -3.7783 0.4887
0.7432 -3.0002 0.6277
0.8700 -2.9613 0.6017
0.9072 -2.9245 0.5928
0.9359 -2.8894 0.5855
0.9168 -2.8517 0.5871
0.9379 -2.8183 0.5813
0.9703 -2.7878 0.5736
0.9649 -2.7532 0.5728
0.9158 -2.7113 0.5798
0.9041 -2.6751 0.5801
0.9244 -2.6459 0.5747
0.9191 -2.6119 0.5739
0.8951 -2.5734 0.5764
0.5428 -2.3288 0.6297
0.5653 -2.2996 0.6239
1.7383 -4.1884 0.4762
1.6167 -4.1809 0.4960
1.6164 -4.1380 0.4941
1.5659 -4.1540 0.5032
1.7164 -3.8019 0.4621
1.3672 -4.0383 0.5308
1.1743 -4.0000 0.5609
1.0193 -2.9262 0.5374
0.9716 -2.8527 0.5419
0.9469 -2.8151 0.5442
0.9601 -2.7820 0.5405
0.9293 -2.7431 0.5439
0.9621 -2.7148 0.5371
0.9325 -2.6758 0.5402
0.9392 -2.6441 0.5377
0.9155 -2.6058 0.5398
0.9101 -2.5719 0.5392
0.8787 -2.5308 0.5425
0.5667 -2.3671 0.5866
0.5340 -2.3187 0.5898
-0.3785 -1.9031 0.7218
1.7584 -4.2507 0.4480
1.7300 -4.2081 0.4504
1.7439 -4.1467 0.4461
1.6249 -4.2217 0.4659
1.6211 -4.1822 0.4649
1.5771 -4.1473 0.4699
1.7836 -3.8061 0.4273
1.7228 -3.7997 0.4357
1.4121 -4.0037 0.4879
1.1467 -4.0235 0.5265
0.7522 -3.1684 0.5499
0.7633 -3.1227 0.5465
0.6113 -3.0851 0.5668
0.5760 -3.0388 0.5700
0.5494 -2.9916 0.5720
0.9806 -2.8496 0.5051
0.9876 -2.8156 0.5027
0.9630 -2.7781 0.5048
0.9192 -2.7368 0.5095
0.8941 -2.6977 0.5115
0.9220 -2.6688 0.5065
0.8969 -2.6296 0.5085
0.9108 -2.5994 0.5054
0.8794 -2.5583 0.5083
0.8875 -2.5276 0.5060
0.5859 -2.3662 0.5428
0.6510 -2.3513 0.5329
0.8950 -2.2549 0.4944
1.7684 -4.2435 0.4184
1.7500 -4.1867 0.4189
1.6026 -4.2125 0.4373
1.5640 -4.2146 0.4419
1.5606 -4.1730 0.4411
1.1314 -4.0383 0.4881
0.6763 -3.1252 0.5142
0.5819 -3.0827 0.5242
0.5564 -3.0352 0.5257
0.5510 -2.9874 0.5249
1.0012 -2.8825 0.4680
0.9825 -2.8457 0.4691
0.9649 -2.8087 0.4700
0.9402 -2.7704 0.4718
0.8738 -2.7247 0.4783
0.8986 -2.6247 0.4722
0.8867 -2.5881 0.4725
0.9276 -2.5656 0.4670
0.8568 -2.5131 0.4738
1.6271 -4.1887 0.4025
1.5690 -4.2156 0.4087
1.5792 -4.1578 0.4064
1.5932 -4.0977 0.4036
1.1147 -4.0542 0.4484
0.6593 -3.1230 0.4704
0.5936 -3.0785 0.4756
0.5882 -3.0307 0.4751
0.5840 -2.9834 0.4744
0.5788 -2.9366 0.4738
1.0101 -2.8794 0.4311
0.9731 -2.8406 0.4338
0.9983 -2.8085 0.4306
0.9551 -2.7680 0.4338
0.8761 -2.7201 0.4403
0.7902 -2.6681 0.4473
0.8246 -2.6024 0.4425
0.7903 -2.5585 0.4447
0.6720 -2.4168 0.4528
0.7034 -2.3556 0.4483
1.6153 -4.2109 0.3722
1.5977 -4.1874 0.3731
1.5872 -4.1550 0.3733
1.5662 -4.1345 0.3745
1.0841 -4.0805 0.4083
0.9940 -4.0891 0.4149
0.9635 -4.0531 0.4166
0.6794 -3.1184 0.4225
0.6054 -3.0743 0.4271
0.6208 -3.0263 0.4253
0.5956 -2.9793 0.4264
1.0122 -2.8756 0.3948
0.9501 -2.8340 0.3986
0.9310 -2.7957 0.3994
0.5748 -2.6214 0.4223
0.5994 -2.5849 0.4200
0.5564 -2.5342 0.4223
0.5215 -2.4844 0.4240
0.5275 -2.4450 0.4230
0.5803 -2.4201 0.4188
0.5762 -2.3800 0.4185
0.5982 -2.3490 0.4164
0.6120 -2.3165 0.4149
0.6073 -2.2782 0.4146
0.7095 -2.2145 0.4063
0.7719 -2.2093 0.4018
0.7964 -2.1892 0.3997
1.6437 -4.2270 0.3385
1.6163 -4.2170 0.3398
1.5817 -4.1681 0.3410
1.5671 -4.1398 0.3415
0.7371 -3.1115 0.3732
0.6378 -3.0694 0.3776
0.6115 -3.0224 0.3785
0.6072 -2.9751 0.3783
1.0630 -2.8760 0.3559
0.9525 -2.8300 0.3608
0.9598 -2.7949 0.3602
0.4955 -2.5999 0.3808
0.4651 -2.5061 0.3815
0.4499 -2.4592 0.3819
0.3429 -2.3868 0.3864
0.2953 -2.2400 0.3876
0.4062 -2.2361 0.3823
0.3912 -2.1898 0.3826
0.4303 -2.1649 0.3806
0.4969 -2.1532 0.3773
0.5505 -2.1388 0.3747
0.5639 -2.1089 0.3738
0.5039 -2.0459 0.3762
1.3085 -5.1631 0.3137
1.2662 -5.1603 0.3147
1.1923 -5.2051 0.3164
0.8642 -5.6378 0.3238
1.6004 -4.2450 0.3073
1.5347 -4.1835 0.3088
1.5034 -4.1713 0.3095
0.5060 -4.7513 0.3324
1.1672 -4.0803 0.3173
1.1129 -4.0676 0.3186
0.6232 -3.0182 0.3302
0.5980 -2.9706 0.3308
1.0605 -2.8719 0.3202
1.0184 -2.8329 0.3211
0.9496 -2.7891 0.3227
0.4104 -2.4861 0.3353
0.4615 -2.4550 0.3341
-0.5160 -2.0155 0.3568
0.1811 -2.1927 0.3407
0.3039 -2.1912 0.3378
-0.1623 -1.9214 0.3487
0.1406 -1.9970 0.3417
-0.0195 -1.8837 0.3454
1.3112 -5.1006 0.2657
1.2034 -5.1261 0.2653
1.1944 -5.0649 0.2658
1.6232 -4.2703 0.2732
1.5949 -4.2599 0.2732
1.4929 -4.3400 0.2724
1.5192 -4.2571 0.2731
1.4280 -4.3136 0.2725
1.4411 -4.1967 0.2735
0.9001 -4.5583 0.2695
0.6366 -4.7254 0.2676
1.1578 -4.0920 0.2738
1.1307 -4.0586 0.2741
0.6561 -3.1094 0.2812
1.0637 -2.8682 0.2839
0.9778 -2.8242 0.2841
0.9657 -2.7867 0.2844
0.9398 -2.7470 0.2847
0.8063 -2.6495 0.2853
0.8236 -2.6159 0.2856
0.4292 -2.4393 0.2864
-0.6157 -1.9719 0.2884
0.3393 -2.1954 0.2883
0.2506 -2.1193 0.2887
-0.3512 -1.7810 0.2905
-0.3510 -1.7280 0.2910
-0.2946 -1.7014 0.2913
1.6314 -4.2673 0.2394
1.5889 -4.2757 0.2381
1.4890 -4.3532 0.2342
1.5396 -4.2400 0.2374
1.4187 -4.3321 0.2326
1.2036 -4.5192 0.2237
1.1065 -4.1365 0.2274
1.0850 -4.0966 0.2275
0.8647 -3.0514 0.2388
0.8687 -2.9674 0.2403
1.0169 -2.8962 0.2455
1.0658 -2.8645 0.2474
1.0117 -2.8237 0.2466
0.9941 -2.7860 0.2467
0.9628 -2.7459 0.2465
0.8415 -2.6143 0.2455
0.8053 -2.5691 0.2452
-0.3743 -2.0393 0.2222
0.3437 -2.2313 0.2384
0.2020 -2.1364 0.2361
-0.4374 -1.8446 0.2237
-0.4374 -1.7883 0.2246
-0.3959 -1.7502 0.2264
-0.2793 -1.7476 0.2296
-0.2077 -1.7293 0.2318
1.6396 -4.2644 0.2057
1.5898 -4.2826 0.2026
1.5597 -4.2721 0.2013
1.5521 -4.2322 0.2019
1.5089 -4.2343 0.1996
1.1176 -4.1325 0.1815
1.0884 -4.0983 0.1808
-1.0218 -3.2832 0.0903
0.9430 -3.0459 0.1993
0.9298 -3.0052 0.1996
0.9091 -2.9644 0.1996
0.9741 -2.9273 0.2039
1.0206 -2.8925 0.2072
1.0813 -2.8620 0.2112
1.0330 -2.8219 0.2096
1.0155 -2.7845 0.2096
0.9325 -2.7000 0.2074
0.8491 -2.6472 0.2043
0.8362 -2.6074 0.2046
0.8000 -2.5618 0.2038
0.8104 -2.5278 0.2052
0.7255 -2.4670 0.2023
-0.2972 -2.0539 0.1588
0.1650 -2.1600 0.1805
-0.3797 -1.9115 0.1580
-0.6736 -1.7406 0.1468
-0.2270 -1.7590 0.1698
-0.1757 -1.7323 0.1732
1.6021 -4.2746 0.1679
1.5759 -4.2594 0.1664
1.5531 -4.2384 0.1653
1.5302 -4.2167 0.1642
1.5100 -4.1906 0.1635
1.4551 -4.2014 0.1588
1.3794 -4.2299 0.1519
1.3239 -4.2326 0.1475
1.2700 -4.2302 0.1433
1.1513 -4.2245 0.1342
1.0931 -4.2152 0.1300
1.0703 -4.1745 0.1295
-0.2937 -4.9181 -0.0021
-0.6434 -4.3731 -0.0114
-0.7061 -4.2946 -0.0137
-0.8396 -4.2399 -0.0224
-0.8005 -4.1213 -0.0154
-0.6044 -3.9595 0.0054
-0.7229 -3.8002 0.0014
0.8213 -3.0456 0.1475
0.9749 -3.0017 0.1610
0.9760 -2.9623 0.1624
0.9632 -2.9228 0.1627
0.9972 -2.8868 0.1666
1.0539 -2.8553 0.1721
1.0608 -2.8210 0.1737
0.9934 -2.7768 0.1699
0.9274 -2.7303 0.1663
0.8051 -2.5202 0.1637
0.7521 -2.4682 0.1612
-0.4496 -1.9919 0.0828
-1.1738 -1.5305 0.0414
-0.8643 -1.5875 0.0637
-0.3056 -1.7119 0.1034
0.0890 -1.8445 0.1300
1.6035 -4.3313 0.1297
1.5884 -4.3011 0.1293
1.5659 -4.2802 0.1278
1.5302 -4.2744 0.1244
1.3763 -4.2941 0.1074
1.2961 -4.3235 0.0978
-0.6589 -4.5961 -0.1182
-0.6234 -4.4713 -0.1093
-0.6867 -4.3932 -0.1126
-0.7169 -4.2998 -0.1119
-0.7472 -4.2064 -0.1112
-0.7774 -4.1130 -0.1105
-0.6434 -3.9701 -0.0905
-0.7362 -3.8986 -0.0972
-0.7988 -3.8161 -0.1003
0.8348 -2.9978 0.1048
0.8710 -2.9140 0.1121
0.9526 -2.8793 0.1221
1.0204 -2.8478 0.1305
1.0390 -2.8140 0.1339
0.8591 -2.6756 0.1208
0.8313 -2.6322 0.1197
0.7862 -2.5840 0.1170
0.7727 -2.5426 0.1173
0.7837 -2.5079 0.1199
0.7214 -2.4524 0.1157
-0.4543 -1.9787 0.0124
-0.8218 -1.6554 -0.0126
-0.6873 -1.6471 0.0018
-0.4966 -1.6694 0.0209
1.2289 -4.5258 0.0337
1.1489 -4.5505 0.0219
1.2991 -4.2706 0.0557
-0.6133 -5.1478 -0.2395
-0.7376 -4.6384 -0.2302
-0.7691 -4.5411 -0.2294
-0.6636 -4.3850 -0.2077
-0.6605 -4.2784 -0.2019
-0.7926 -4.2231 -0.2165
-0.7885 -4.1162 -0.2106
-0.8190 -4.0218 -0.2098
-0.7803 -3.9087 -0.1991
-0.8802 -3.8331 -0.2084
-0.9833 -3.7542 -0.2179
-0.9779 -3.6512 -0.2120
-0.9001 -3.5390 -0.1962
-0.9663 -3.4512 -0.2004
-1.1477 -3.3729 -0.2203
0.8717 -2.9516 0.0660
0.8728 -2.9099 0.0683
0.8978 -2.8708 0.0735
0.9716 -2.8010 0.0867
0.9987 -2.7682 0.0919
0.9187 -2.7187 0.0839
0.8154 -2.6616 0.0732
0.6351 -2.5838 0.0535
0.6681 -2.5497 0.0595
0.7990 -2.5431 0.0771
0.8087 -2.5086 0.0801
0.7561 -2.4561 0.0758
-0.7040 -1.8813 -0.0870
-0.8098 -1.7778 -0.0957
-0.6992 -1.7539 -0.0799
-0.5734 -1.7414 -0.0628
-0.6698 -1.6409 -0.0704
-0.5706 -1.6237 -0.0565
-0.6654 -1.5222 -0.0638
1.0164 -5.2591 -0.0926
1.0554 -5.1195 -0.0782
1.1334 -4.9333 -0.0548
0.9898 -5.0453 -0.0842
0.9816 -4.9751 -0.0814
0.8905 -5.0054 -0.0976
1.1388 -4.6385 -0.0366
1.1831 -4.5218 -0.0227
1.2560 -4.3806 -0.0028
1.2916 -4.2851 0.0085
0.6620 -4.5925 -0.1093
-0.0212 -5.0585 -0.2450
-0.2027 -4.8772 -0.2630
-0.3686 -4.8791 -0.2894
-0.4275 -4.8064 -0.2944
