ply
format ascii 1.0
element vertex 2194
property float x
property float y
property float z
end_header
3.6605 2.1656 -0.5800
3.6848 2.1860 -0.5667
3.6796 2.2186 -0.5646
3.6675 2.2543 -0.5651
3.6554 2.2900 -0.5655
3.6610 2.3165 -0.5595
4.4199 0.1972 -0.5540
4.3923 0.2071 -0.5654
4.3874 0.2528 -0.5610
4.3756 0.2876 -0.5615
4.3598 0.3171 -0.5646
4.3613 0.3696 -0.5563
4.3565 0.4125 -0.5524
4.3379 0.4385 -0.5572
4.3087 0.4531 -0.5687
4.3109 0.5036 -0.5603
4.2845 0.5700 -0.5630
4.2756 0.6075 -0.5617
4.2609 0.6394 -0.5639
4.2556 0.7235 -0.5542
4.2434 0.7994 -0.5489
4.1779 0.9235 -0.5614
4.1387 0.9847 -0.5708
4.1367 1.1391 -0.5494
4.1095 1.1679 -0.5579
4.1015 1.2027 -0.5565
4.0729 1.2326 -0.5655
4.0703 1.2688 -0.5615
4.0541 1.3021 -0.5642
4.0425 1.3363 -0.5646
4.0402 1.3715 -0.5606
4.0325 1.4058 -0.5592
4.0210 1.4396 -0.5597
4.0095 1.4735 -0.5601
3.9746 1.5074 -0.5714
3.9541 1.5422 -0.5759
3.9462 1.5766 -0.5746
3.9445 1.6104 -0.5705
3.9211 1.6791 -0.5714
3.9043 1.7143 -0.5742
3.8978 1.7478 -0.5723
3.8715 1.7852 -0.5792
3.8639 1.8189 -0.5778
3.8681 1.8495 -0.5714
3.8457 1.8867 -0.5764
3.8394 1.9195 -0.5746
3.8168 1.9574 -0.5796
3.8007 1.9935 -0.5819
3.8044 2.0226 -0.5760
3.7771 2.0629 -0.5828
3.7754 2.0936 -0.5792
3.7353 2.1401 -0.5911
3.7234 2.1753 -0.5915
3.7299 2.2018 -0.5847
3.7285 2.2315 -0.5810
3.7110 2.2689 -0.5838
4.5877 0.2753 -0.4986
4.5778 0.3047 -0.4990
4.5484 0.3001 -0.5142
4.5235 0.3056 -0.5258
4.4607 0.2519 -0.5652
4.4472 0.3314 -0.5596
4.4361 0.3642 -0.5600
4.4165 0.4331 -0.5590
4.4169 0.4801 -0.5515
4.4122 0.5196 -0.5477
4.3895 0.5381 -0.5561
4.3722 0.5636 -0.5607
4.3639 0.5991 -0.5593
4.3529 0.6316 -0.5597
4.3513 0.6731 -0.5541
4.3308 0.6967 -0.5606
4.3197 0.7292 -0.5610
4.3223 0.7726 -0.5530
4.2936 0.8317 -0.5581
4.3054 0.8792 -0.5449
4.2978 0.9127 -0.5434
4.2470 0.9204 -0.5674
4.2806 0.9777 -0.5419
4.2420 0.9947 -0.5583
4.2278 1.0253 -0.5607
4.2445 1.0697 -0.5455
4.2448 1.1055 -0.5397
4.2309 1.1353 -0.5420
4.2090 1.1627 -0.5486
4.1764 1.1877 -0.5609
4.1805 1.2238 -0.5533
4.1733 1.2564 -0.5518
4.1590 1.2873 -0.5541
4.1482 1.3190 -0.5545
4.1531 1.3528 -0.5468
4.1192 1.3816 -0.5592
4.1318 1.4154 -0.5477
4.0852 1.4448 -0.5662
4.0943 1.4775 -0.5566
4.0874 1.5092 -0.5551
4.0806 1.5407 -0.5536
4.0580 1.5729 -0.5598
4.0472 1.6047 -0.5602
4.0324 1.6370 -0.5626
4.0125 1.6701 -0.5673
4.0148 1.7002 -0.5615
4.0256 1.7279 -0.5518
3.9932 1.7638 -0.5623
3.9740 1.7976 -0.5666
3.9715 1.8274 -0.5632
3.9565 1.8604 -0.5655
3.9456 1.8924 -0.5660
3.9478 1.9201 -0.5606
3.9141 1.9596 -0.5712
3.9175 1.9865 -0.5653
3.8878 2.0257 -0.5739
3.8958 2.0501 -0.5661
3.8941 2.0781 -0.5627
3.8697 2.1158 -0.5689
3.8485 2.1526 -0.5737
3.8329 2.1870 -0.5761
3.8173 2.2216 -0.5785
4.6112 0.2605 -0.5229
4.6094 0.3051 -0.5164
4.5997 0.3338 -0.5168
4.5230 0.3426 -0.5558
4.4951 0.3460 -0.5700
4.4926 0.3898 -0.5640
4.4865 0.4275 -0.5610
4.4786 0.4620 -0.5594
4.4635 0.4868 -0.5633
4.4549 0.5203 -0.5622
4.4424 0.5489 -0.5641
4.4449 0.5949 -0.5552
4.4234 0.6132 -0.5635
4.4107 0.6420 -0.5654
4.4002 0.6730 -0.5658
4.3761 0.7325 -0.5686
4.3656 0.7636 -0.5690
4.3588 0.8369 -0.5604
4.3607 0.8764 -0.5528
4.3287 0.8919 -0.5672
4.3126 0.9194 -0.5711
4.3172 0.9595 -0.5620
4.3003 0.9866 -0.5664
4.2597 1.0752 -0.5731
4.2617 1.1114 -0.5661
4.2385 1.1375 -0.5740
4.2374 1.1718 -0.5689
4.2408 1.2068 -0.5613
4.2201 1.2676 -0.5621
4.1892 1.2939 -0.5740
4.2030 1.3291 -0.5609
4.1750 1.3890 -0.5657
4.1684 1.4198 -0.5641
4.1684 1.4507 -0.5589
4.1287 1.4803 -0.5750
4.1450 1.5110 -0.5613
4.1231 1.5417 -0.5677
4.1049 1.5727 -0.5722
4.1103 1.6020 -0.5645
4.0801 1.6346 -0.5750
4.0816 1.6638 -0.5694
4.0794 1.6930 -0.5657
4.0527 1.7264 -0.5742
4.0464 1.7563 -0.5726
4.0318 1.7879 -0.5750
4.0129 1.8209 -0.5795
4.0024 1.8519 -0.5799
4.0004 1.8802 -0.5763
3.9943 1.9095 -0.5746
3.9676 1.9459 -0.5827
3.9603 1.9757 -0.5816
3.9393 2.0376 -0.5824
3.9287 2.0686 -0.5828
3.9001 2.1078 -0.5914
3.9123 2.1284 -0.5816
3.9374 2.1417 -0.5661
4.6279 0.2818 -0.5439
4.6125 0.2994 -0.5495
4.6085 0.3391 -0.5447
4.5928 0.3571 -0.5503
4.5830 0.3860 -0.5506
4.5689 0.4079 -0.5547
4.5547 0.4301 -0.5587
4.5448 0.4594 -0.5591
4.5393 0.4951 -0.5558
4.5339 0.5305 -0.5526
4.5261 0.5620 -0.5514
4.5275 0.6051 -0.5429
4.5045 0.6171 -0.5537
4.4946 0.6460 -0.5541
4.4986 0.6902 -0.5440
4.4799 0.7090 -0.5512
4.4772 0.7447 -0.5464
4.4676 0.7732 -0.5467
4.4506 0.7951 -0.5524
4.4357 0.8194 -0.5564
4.4207 0.8440 -0.5605
4.4055 0.8691 -0.5645
4.4139 0.9115 -0.5523
4.4042 0.9401 -0.5527
4.3921 0.9673 -0.5546
4.3879 0.9993 -0.5513
4.3782 1.0278 -0.5517
4.3596 1.0517 -0.5579
4.3670 1.0887 -0.5472
4.3458 1.1119 -0.5550
4.3361 1.1405 -0.5553
4.3204 1.1669 -0.5594
4.2961 1.1909 -0.5688
4.3267 1.2323 -0.5443
4.2972 1.2550 -0.5569
4.2936 1.2850 -0.5535
4.2813 1.3129 -0.5555
4.2680 1.3408 -0.5580
4.2519 1.3686 -0.5621
4.2641 1.3997 -0.5497
4.2573 1.4281 -0.5485
4.2263 1.4552 -0.5611
4.2231 1.4840 -0.5578
4.2096 1.5126 -0.5603
4.2095 1.5408 -0.5553
4.1999 1.5692 -0.5557
4.1804 1.5984 -0.5614
4.1539 1.6290 -0.5709
4.1510 1.6571 -0.5675
4.1412 1.6860 -0.5679
4.1385 1.7135 -0.5646
4.1287 1.7422 -0.5649
4.1262 1.7692 -0.5616
4.1019 1.8016 -0.5694
4.1205 1.8223 -0.5554
4.0832 1.8847 -0.5652
4.0885 1.9079 -0.5581
4.0495 1.9472 -0.5730
4.0540 1.9705 -0.5664
4.0254 2.0070 -0.5759
4.0155 2.0361 -0.5763
4.0405 2.0492 -0.5600
4.0309 2.0774 -0.5603
4.0168 2.1080 -0.5629
4.0071 2.1363 -0.5632
4.6405 0.2952 -0.5678
4.6365 0.3346 -0.5628
4.6327 0.3735 -0.5577
4.6233 0.4013 -0.5580
4.6026 0.4540 -0.5604
4.5888 0.4750 -0.5646
4.5855 0.5126 -0.5595
4.5817 0.5487 -0.5550
4.5665 0.5682 -0.5603
4.5649 0.6065 -0.5541
4.5535 0.6315 -0.5561
4.5508 0.6672 -0.5509
4.5395 0.6921 -0.5530
4.5234 0.7119 -0.5588
4.4987 0.7234 -0.5713
4.5067 0.7694 -0.5579
4.5023 0.8017 -0.5544
4.4879 0.8245 -0.5586
4.4785 0.8521 -0.5590
4.4579 0.9739 -0.5483
4.4371 0.9935 -0.5570
4.4419 1.0293 -0.5474
4.4256 1.0523 -0.5527
4.4164 1.0794 -0.5531
4.4096 1.1078 -0.5518
4.4077 1.1381 -0.5471
4.3895 1.1918 -0.5478
4.3635 1.3015 -0.5426
4.3386 1.3249 -0.5530
4.3111 1.4059 -0.5540
4.3102 1.4335 -0.5494
4.2871 1.4597 -0.5581
4.2835 1.4869 -0.5551
4.2630 1.5140 -0.5622
4.2623 1.5410 -0.5575
4.2502 1.5683 -0.5596
4.2381 1.5957 -0.5616
4.2259 1.6233 -0.5636
4.2096 1.6516 -0.5679
4.2103 1.6774 -0.5627
4.1816 1.7341 -0.5690
4.1794 1.7599 -0.5655
4.1401 1.7953 -0.5822
4.1577 1.8154 -0.5679
4.1379 1.8461 -0.5739
4.1253 1.8749 -0.5759
4.1191 1.9015 -0.5746
4.1129 1.9279 -0.5733
4.0861 1.9625 -0.5827
4.0623 1.9965 -0.5904
4.0748 2.0151 -0.5795
4.0721 2.0398 -0.5765
4.0593 2.0691 -0.5785
4.0714 2.0860 -0.5681
4.6899 0.3843 -0.5529
4.6871 0.4228 -0.5469
4.6771 0.4466 -0.5484
4.6584 0.4548 -0.5585
4.6494 0.4813 -0.5588
4.6386 0.5048 -0.5609
4.6296 0.5314 -0.5613
4.6224 0.5609 -0.5599
4.6096 0.5819 -0.5637
4.6005 0.6086 -0.5641
4.6004 0.6474 -0.5564
4.5915 0.6737 -0.5567
4.5806 0.6975 -0.5588
4.5756 0.7286 -0.5557
4.5688 0.7571 -0.5543
4.5578 0.7811 -0.5564
4.5545 0.8130 -0.5521
4.5379 0.8315 -0.5588
4.5353 0.8637 -0.5539
4.5344 0.8966 -0.5479
4.5176 0.9158 -0.5546
4.5125 0.9447 -0.5521
4.4842 0.9893 -0.5609
4.4906 1.0255 -0.5496
4.4710 1.0447 -0.5581
4.4660 1.0731 -0.5556
4.4620 1.1016 -0.5524
4.4395 1.1209 -0.5626
4.4420 1.1522 -0.5548
4.4405 1.1811 -0.5499
4.4202 1.2025 -0.5584
4.4180 1.2308 -0.5541
4.4025 1.2547 -0.5591
4.4005 1.2825 -0.5548
4.3943 1.3090 -0.5534
4.3759 1.3329 -0.5602
4.3715 1.3597 -0.5576
4.3707 1.3867 -0.5527
4.3665 1.4128 -0.5501
4.3550 1.4382 -0.5522
4.3362 1.4634 -0.5590
4.3199 1.4892 -0.5640
4.3289 1.5151 -0.5532
4.3202 1.5408 -0.5536
4.3009 1.5671 -0.5604
4.2844 1.5938 -0.5654
4.2804 1.6194 -0.5628
4.2804 1.6441 -0.5579
4.2687 1.6703 -0.5600
4.2659 1.6950 -0.5568
4.2481 1.7227 -0.5624
4.2341 1.7499 -0.5657
4.2304 1.7746 -0.5631
4.2071 1.8048 -0.5717
4.2275 1.8218 -0.5555
4.1802 1.8837 -0.5728
4.1713 1.9100 -0.5731
4.1721 1.9324 -0.5681
4.1633 1.9585 -0.5685
4.1599 1.9821 -0.5659
4.1478 2.0095 -0.5680
4.1490 2.0307 -0.5630
4.1278 2.0627 -0.5699
4.7261 0.4049 -0.5561
4.7202 0.4359 -0.5535
4.6711 0.5506 -0.5617
4.6612 0.5740 -0.5633
4.6586 0.6090 -0.5576
4.6550 0.6415 -0.5531
4.6446 0.6638 -0.5553
4.6329 0.6846 -0.5586
4.6231 0.7081 -0.5601
4.6190 0.7391 -0.5563
4.6020 0.7893 -0.5569
4.5901 0.8107 -0.5603
4.5836 0.8380 -0.5588
4.5750 0.8631 -0.5591
4.5587 0.8811 -0.5661
4.5579 0.9134 -0.5598
4.5275 1.0165 -0.5581
4.5228 1.0440 -0.5554
4.5128 1.0679 -0.5569
4.5020 1.0915 -0.5591
4.4999 1.1198 -0.5546
4.4811 1.1396 -0.5628
4.4575 1.1872 -0.5684
4.4571 1.2156 -0.5626
4.4619 1.2452 -0.5532
4.4409 1.2933 -0.5569
4.4325 1.3181 -0.5572
4.4214 1.3424 -0.5594
4.4156 1.3677 -0.5579
4.4001 1.3915 -0.5631
4.3961 1.4170 -0.5604
4.3700 1.4664 -0.5672
4.3633 1.4915 -0.5663
4.3613 1.5410 -0.5571
4.3314 1.6156 -0.5612
4.3180 1.6411 -0.5646
4.3066 1.6666 -0.5667
4.2926 1.7159 -0.5656
4.2862 1.7403 -0.5646
4.2695 1.7674 -0.5699
4.2672 1.7906 -0.5665
4.2473 1.8192 -0.5737
4.2387 1.8445 -0.5740
4.2355 1.8677 -0.5713
4.2130 1.9201 -0.5750
4.1937 1.9715 -0.5769
4.1906 1.9942 -0.5742
4.1876 2.0166 -0.5714
4.1646 2.0490 -0.5798
4.7382 0.5438 -0.5473
4.7262 0.5602 -0.5520
4.7163 0.5811 -0.5542
4.7123 0.6120 -0.5501
4.7042 0.6359 -0.5504
4.6949 0.6578 -0.5520
4.6867 0.6817 -0.5523
4.6617 0.7174 -0.5618
4.6503 0.7375 -0.5652
4.6465 0.7675 -0.5612
4.6416 0.7956 -0.5583
4.6460 0.8341 -0.5466
4.6299 0.8489 -0.5545
4.6218 0.8728 -0.5549
4.6102 0.8933 -0.5583
4.6119 0.9264 -0.5498
4.5975 0.9444 -0.5558
4.5879 0.9671 -0.5574
4.5739 0.9865 -0.5628
4.5716 1.0150 -0.5580
4.5665 1.0410 -0.5558
4.5554 1.0628 -0.5587
4.5556 1.0919 -0.5520
4.5391 1.1107 -0.5593
4.5286 1.1334 -0.5615
4.5284 1.1613 -0.5555
4.5123 1.1815 -0.5622
4.5098 1.2078 -0.5580
4.5115 1.2352 -0.5507
4.5035 1.2588 -0.5510
4.4938 1.2818 -0.5526
4.4799 1.3038 -0.5574
4.4736 1.3279 -0.5564
4.4612 1.3508 -0.5599
4.4575 1.3753 -0.5570
4.4388 1.3976 -0.5650
4.4494 1.4235 -0.5519
4.4270 1.4460 -0.5625
4.4207 1.4699 -0.5615
4.4126 1.4937 -0.5618
4.4138 1.5174 -0.5557
4.4011 1.5412 -0.5592
4.3930 1.5649 -0.5596
4.3831 1.5888 -0.5612
4.3682 1.6134 -0.5660
4.3669 1.6363 -0.5618
4.3520 1.6612 -0.5666
4.3438 1.6852 -0.5669
4.3397 1.7082 -0.5647
4.3366 1.7308 -0.5618
4.3194 1.7570 -0.5679
4.3154 1.7797 -0.5656
4.3125 1.8018 -0.5627
4.2898 1.8306 -0.5721
4.2816 1.8547 -0.5724
4.2958 1.8700 -0.5591
4.2728 1.8997 -0.5685
4.2538 1.9283 -0.5753
4.2587 1.9465 -0.5678
4.2506 1.9703 -0.5682
4.2403 1.9953 -0.5698
4.2400 2.0151 -0.5655
4.7611 0.5787 -0.5513
4.7410 0.5786 -0.5660
4.7392 0.6133 -0.5592
4.7377 0.6475 -0.5523
4.7352 0.6791 -0.5467
4.7245 0.6971 -0.5502
4.6987 0.7621 -0.5538
4.6663 0.8523 -0.5563
4.6624 0.8796 -0.5527
4.6456 0.9239 -0.5546
4.6272 0.9672 -0.5578
4.6104 1.0410 -0.5528
4.5989 1.0611 -0.5564
4.5872 1.1092 -0.5537
4.5917 1.1389 -0.5434
4.5844 1.1873 -0.5374
4.5658 1.2044 -0.5469
4.5457 1.2474 -0.5515
4.5429 1.2716 -0.5478
4.5303 1.2926 -0.5521
4.5210 1.3147 -0.5538
4.5285 1.3408 -0.5421
4.4996 1.3829 -0.5533
4.4867 1.4048 -0.5576
4.4878 1.4284 -0.5513
4.4748 1.4505 -0.5556
4.4689 1.4732 -0.5545
4.4558 1.4957 -0.5588
4.4499 1.5184 -0.5578
4.4403 1.5412 -0.5594
4.4287 1.5863 -0.5574
4.4229 1.6087 -0.5563
4.4114 1.6319 -0.5593
4.4036 1.6545 -0.5596
4.3891 1.6787 -0.5646
4.3773 1.7025 -0.5676
4.3617 1.7484 -0.5682
4.3580 1.7701 -0.5658
4.3461 1.7944 -0.5688
4.3268 1.8214 -0.5765
4.3210 1.8438 -0.5755
4.3191 1.8845 -0.5673
4.3092 1.9083 -0.5690
4.3014 1.9312 -0.5693
4.2980 1.9521 -0.5669
4.2814 1.9793 -0.5726
4.7985 0.5693 -0.5531
4.7964 0.6024 -0.5466
4.7824 0.6114 -0.5551
4.7815 0.6461 -0.5472
4.7730 0.6658 -0.5488
4.7576 0.6739 -0.5587
4.7546 0.7038 -0.5535
4.7460 0.7240 -0.5552
4.7373 0.7443 -0.5568
4.7382 0.7788 -0.5475
4.7210 0.7869 -0.5588
4.7134 0.8091 -0.5591
4.7046 0.8297 -0.5607
4.7009 0.8566 -0.5569
4.6973 0.8832 -0.5531
4.6912 0.9066 -0.5520
4.6891 0.9341 -0.5468
4.6749 0.9490 -0.5540
4.6586 0.9917 -0.5559
4.6554 1.0172 -0.5521
4.6408 1.0334 -0.5593
4.6362 1.0576 -0.5568
4.6273 1.0786 -0.5585
4.6123 1.1227 -0.5591
4.6124 1.1491 -0.5525
4.6019 1.1692 -0.5555
4.5976 1.1926 -0.5530
4.5807 1.2102 -0.5616
4.5828 1.2362 -0.5536
4.5705 1.2562 -0.5581
4.5663 1.2792 -0.5556
4.5573 1.3005 -0.5573
4.5498 1.3224 -0.5576
4.5407 1.3439 -0.5592
4.5349 1.3662 -0.5581
4.5344 1.3892 -0.5529
4.5179 1.4324 -0.5548
4.5034 1.4536 -0.5607
4.4995 1.4757 -0.5582
4.4885 1.4975 -0.5613
4.4884 1.5193 -0.5560
4.4791 1.5411 -0.5577
4.4699 1.5630 -0.5594
4.4568 1.5855 -0.5638
4.4550 1.6067 -0.5599
4.4303 1.6313 -0.5728
4.4344 1.6514 -0.5647
4.4289 1.6730 -0.5636
4.4115 1.6973 -0.5709
4.4060 1.7190 -0.5698
4.4025 1.7400 -0.5673
4.3950 1.7620 -0.5676
4.3875 1.7841 -0.5679
4.3862 1.8039 -0.5639
4.3787 1.8258 -0.5642
4.3776 1.8452 -0.5603
4.3575 1.8723 -0.5690
4.3458 1.8962 -0.5721
4.3468 1.9143 -0.5668
4.3415 1.9352 -0.5657
4.3341 1.9571 -0.5660
4.3178 1.9836 -0.5719
4.8149 0.6313 -0.5513
4.8066 0.6503 -0.5530
4.7966 0.7009 -0.5478
4.7884 0.7199 -0.5495
4.7622 0.7758 -0.5561
4.7405 0.8397 -0.5569
4.7314 0.8585 -0.5593
4.7216 0.8768 -0.5625
4.7181 0.9027 -0.5585
4.7129 0.9262 -0.5566
4.6984 0.9398 -0.5648
4.6924 0.9626 -0.5636
4.6865 0.9854 -0.5625
4.6826 1.0099 -0.5592
4.6566 1.0970 -0.5574
4.6457 1.1157 -0.5613
4.6474 1.1425 -0.5530
4.6403 1.1635 -0.5533
4.6278 1.1817 -0.5586
4.6078 1.2458 -0.5580
4.6078 1.2696 -0.5518
4.5847 1.3087 -0.5603
4.5824 1.3311 -0.5562
4.5778 1.3527 -0.5543
4.5682 1.3731 -0.5568
4.5522 1.4149 -0.5588
4.5467 1.4362 -0.5576
4.5378 1.4571 -0.5593
4.5307 1.4781 -0.5596
4.5217 1.4992 -0.5613
4.5146 1.5203 -0.5616
4.5175 1.5409 -0.5539
4.5085 1.5618 -0.5557
4.4912 1.5838 -0.5639
4.4821 1.6053 -0.5656
4.4806 1.6255 -0.5616
4.4517 1.6708 -0.5730
4.4483 1.6913 -0.5704
4.4430 1.7121 -0.5692
4.4428 1.7314 -0.5644
4.4296 1.7544 -0.5691
4.4264 1.7929 -0.5616
4.4027 1.8387 -0.5687
4.4039 1.8563 -0.5632
4.3947 1.8783 -0.5649
4.3875 1.8993 -0.5652
4.3879 1.9167 -0.5604
4.3765 1.9398 -0.5636
4.3737 1.9584 -0.5609
4.8421 0.6441 -0.5513
4.8367 0.6678 -0.5494
4.8282 0.6849 -0.5519
4.8256 0.7136 -0.5463
4.8149 0.7267 -0.5517
4.8102 0.7510 -0.5490
4.7994 0.7646 -0.5544
4.7953 0.7897 -0.5510
4.7896 0.8118 -0.5498
4.7833 0.8330 -0.5493
4.7704 0.8447 -0.5570
4.7689 0.8726 -0.5506
4.7577 0.8873 -0.5561
4.7520 0.9093 -0.5549
4.7451 0.9297 -0.5551
4.7381 0.9500 -0.5554
4.7410 0.9809 -0.5446
4.7249 0.9915 -0.5552
4.7194 1.0132 -0.5540
4.7125 1.0335 -0.5543
4.7042 1.0526 -0.5560
4.7057 1.0797 -0.5474
4.6932 1.0955 -0.5536
4.6863 1.1157 -0.5539
4.6801 1.1365 -0.5534
4.6696 1.1545 -0.5574
4.6664 1.1770 -0.5539
4.6572 1.1960 -0.5564
4.6465 1.2144 -0.5604
4.6395 1.2349 -0.5607
4.6389 1.2579 -0.5550
4.6296 1.2773 -0.5575
4.6267 1.2989 -0.5540
4.6239 1.3203 -0.5506
4.6163 1.3401 -0.5516
4.6094 1.3602 -0.5518
4.6009 1.3800 -0.5536
4.5924 1.3998 -0.5554
4.5898 1.4205 -0.5519
4.5821 1.4405 -0.5529
4.5701 1.4603 -0.5577
4.5588 1.4803 -0.5617
4.5456 1.5007 -0.5672
4.5449 1.5211 -0.5622
4.5398 1.5413 -0.5610
4.5394 1.5611 -0.5560
4.5344 1.5810 -0.5548
4.5238 1.6016 -0.5581
4.5151 1.6221 -0.5598
4.5034 1.6433 -0.5639
4.4917 1.6647 -0.5679
4.4798 1.6864 -0.5719
4.4895 1.7026 -0.5594
4.4846 1.7222 -0.5582
4.4688 1.7451 -0.5652
4.4588 1.7665 -0.5678
4.4590 1.7844 -0.5627
4.4552 1.8035 -0.5607
4.4359 1.8287 -0.5701
4.4415 1.8438 -0.5613
4.4241 1.8688 -0.5691
4.4246 1.8857 -0.5641
4.4059 1.9118 -0.5727
4.4065 1.9284 -0.5677
4.4203 1.9377 -0.5535
4.8551 0.6976 -0.5504
4.8375 0.7286 -0.5570
4.8318 0.7504 -0.5557
4.8262 0.7722 -0.5545
4.8061 0.8314 -0.5553
4.8058 0.8608 -0.5471
4.7945 0.8734 -0.5535
4.7793 0.9103 -0.5563
4.7726 0.9300 -0.5566
4.7646 0.9482 -0.5584
4.7649 0.9759 -0.5502
4.7550 0.9920 -0.5543
4.7464 1.0096 -0.5569
4.7398 1.0551 -0.5497
4.7352 1.0763 -0.5476
4.7112 1.1313 -0.5530
4.7067 1.1523 -0.5510
4.6847 1.2094 -0.5541
4.6788 1.2293 -0.5536
4.6656 1.2683 -0.5541
4.6613 1.2887 -0.5520
4.6457 1.3267 -0.5549
4.6431 1.3473 -0.5512
4.6365 1.3667 -0.5515
4.6233 1.3847 -0.5580
4.6209 1.4050 -0.5543
4.6151 1.4245 -0.5538
4.6102 1.4441 -0.5525
4.5941 1.4629 -0.5613
4.5901 1.4826 -0.5593
4.5852 1.5022 -0.5580
4.5683 1.5414 -0.5616
4.5653 1.5607 -0.5587
4.5550 1.5806 -0.5621
4.5321 1.6583 -0.5600
4.5216 1.6788 -0.5634
4.5198 1.6971 -0.5598
4.5053 1.7189 -0.5663
4.5016 1.7376 -0.5642
4.4949 1.7573 -0.5645
4.4867 1.7945 -0.5611
4.4770 1.8153 -0.5637
4.4766 1.8321 -0.5592
4.4637 1.8544 -0.5642
4.4592 1.8730 -0.5629
4.4525 1.8925 -0.5631
4.4384 1.9159 -0.5689
4.4403 1.9309 -0.5629
4.5682 1.8752 -0.4665
4.5825 1.8799 -0.4525
6.0458 1.6004 -0.5354
6.0446 1.6197 -0.5402
6.0343 1.6580 -0.5430
6.0255 1.6765 -0.5409
6.0199 1.6956 -0.5419
6.0159 1.7153 -0.5445
6.0095 1.7343 -0.5447
6.0024 1.7531 -0.5442
6.0006 1.7739 -0.5491
5.9919 1.7921 -0.5470
5.9832 1.8101 -0.5449
5.9731 1.8273 -0.5413
5.9583 1.8867 -0.5467
5.9498 1.9043 -0.5446
5.9427 1.9227 -0.5441
5.9412 1.9454 -0.5497
5.9348 1.9645 -0.5500
5.9263 1.9819 -0.5479
5.9233 2.0040 -0.5520
5.9168 2.0232 -0.5522
5.9065 2.0384 -0.5478
5.9039 2.0615 -0.5527
5.8981 2.0814 -0.5537
5.8916 2.1006 -0.5540
5.8827 2.1167 -0.5511
5.8745 2.1334 -0.5490
5.8664 2.1500 -0.5469
5.8588 2.1672 -0.5456
5.8559 2.1914 -0.5505
5.8507 2.2122 -0.5523
5.8448 2.2322 -0.5534
5.8367 2.2485 -0.5513
5.8303 2.2676 -0.5515
5.8239 2.2866 -0.5517
5.8170 2.3046 -0.5512
5.8096 2.3215 -0.5499
5.8047 2.3437 -0.5525
5.7983 2.3628 -0.5527
5.7914 2.3807 -0.5522
5.7836 2.3962 -0.5501
6.0192 1.8034 -0.5491
6.0140 1.8239 -0.5509
5.9962 1.8850 -0.5539
5.9887 1.9045 -0.5534
5.9630 1.9601 -0.5482
5.9591 1.9821 -0.5514
5.9518 2.0014 -0.5509
5.9471 2.0231 -0.5534
5.9324 2.0616 -0.5524
5.9068 2.1145 -0.5464
5.8984 2.1601 -0.5529
5.8918 2.1799 -0.5532
5.8851 2.1998 -0.5534
5.8767 2.2170 -0.5514
5.8706 2.2377 -0.5525
5.8568 2.2763 -0.5522
5.8392 2.3077 -0.5467
5.8358 2.3335 -0.5514
5.8307 2.3564 -0.5540
5.8215 2.3707 -0.5504
5.8149 2.3904 -0.5507
5.8103 2.4146 -0.5540
6.0504 1.3281 -0.4146
6.0437 1.7903 -0.5402
6.0415 1.8125 -0.5447
6.0362 1.8337 -0.5464
6.0308 1.8549 -0.5481
6.0239 1.8755 -0.5484
6.0140 1.8943 -0.5458
6.0072 1.9148 -0.5460
6.0003 1.9352 -0.5463
5.9927 1.9551 -0.5458
5.9811 1.9977 -0.5485
5.9707 2.0152 -0.5452
5.9653 2.0368 -0.5469
5.9617 2.0604 -0.5507
5.9522 2.0783 -0.5481
5.9479 2.1015 -0.5513
5.9397 2.1206 -0.5501
5.9328 2.1411 -0.5503
5.9247 2.1601 -0.5491
5.9172 2.1797 -0.5487
5.9104 2.2002 -0.5489
5.8993 2.2146 -0.5441
5.8984 2.2436 -0.5516
5.8875 2.2578 -0.5468
5.8829 2.2818 -0.5500
5.8760 2.3023 -0.5502
5.8692 2.3227 -0.5505
5.8629 2.3441 -0.5515
5.8571 2.3666 -0.5532
5.8502 2.3871 -0.5535
5.8423 2.4054 -0.5523
5.8349 2.4248 -0.5518
5.8285 2.4463 -0.5528
5.8216 2.4668 -0.5530
6.0456 1.3751 -0.4038
6.0188 1.9460 -0.5380
6.0104 1.9659 -0.5369
6.0160 2.0235 -0.5568
6.0115 2.0475 -0.5598
5.9981 2.0636 -0.5539
5.9881 2.0825 -0.5514
5.9850 2.1079 -0.5558
5.9705 2.1510 -0.5563
5.9560 2.1940 -0.5569
5.9438 2.2091 -0.5516
5.8832 2.3736 -0.5496
5.8793 2.4010 -0.5540
5.8711 2.4202 -0.5529
5.8671 2.4480 -0.5574
5.8578 2.4649 -0.5548
5.8517 2.4885 -0.5565
6.0376 2.0106 -0.5425
6.0229 2.0544 -0.5431
6.0196 2.0801 -0.5474
6.0163 2.1060 -0.5517
6.0048 2.1242 -0.5479
5.9961 2.1449 -0.5469
5.9886 2.1670 -0.5472
5.9851 2.1935 -0.5515
5.9777 2.2157 -0.5517
5.9627 2.2282 -0.5440
5.9615 2.2584 -0.5510
5.9442 2.2991 -0.5488
5.9380 2.3230 -0.5505
5.9329 2.3488 -0.5534
5.9232 2.3672 -0.5510
5.9169 2.3912 -0.5526
5.9106 2.4154 -0.5543
5.9009 2.4334 -0.5519
5.8924 2.4533 -0.5508
5.8861 2.4776 -0.5524
5.8797 2.5019 -0.5541
5.8743 2.5286 -0.5570
5.8668 2.5509 -0.5573
6.0423 1.4107 -0.3710
6.0308 2.1774 -0.5521
6.0237 2.2335 -0.5610
6.0100 2.2500 -0.5555
6.0054 2.2773 -0.5590
5.9919 2.2932 -0.5535
5.9841 2.3164 -0.5538
5.9578 2.3812 -0.5515
5.9553 2.4129 -0.5576
5.9451 2.4322 -0.5553
5.9268 2.4733 -0.5527
5.9201 2.4985 -0.5542
5.9113 2.5194 -0.5532
5.9046 2.5447 -0.5548
5.8937 2.5608 -0.5512
5.8860 2.5838 -0.5515
6.0379 2.2450 -0.5445
6.0357 2.2759 -0.5503
6.0264 2.2984 -0.5494
6.0183 2.3224 -0.5497
6.0115 2.3481 -0.5512
5.9809 2.4473 -0.5543
5.9699 2.4664 -0.5515
5.9630 2.4925 -0.5531
5.9509 2.5092 -0.5490
5.9457 2.5385 -0.5524
5.9349 2.5570 -0.5496
5.9193 2.5651 -0.5413
5.8961 2.5551 -0.5236
5.8822 2.5637 -0.5164
6.0330 2.4456 -0.5575
6.0227 2.4682 -0.5560
6.0207 2.5042 -0.5628
6.0074 2.5218 -0.5584
5.9960 2.5421 -0.5558
5.9858 2.5642 -0.5544
5.9207 2.5573 -0.5121
6.0461 1.4033 -0.3144
6.0439 1.4182 -0.3162
6.0308 2.5525 -0.5484
6.0074 2.5529 -0.5346
5.9849 2.5531 -0.5214
5.9038 2.5505 -0.4728
6.0440 1.4208 -0.2982
6.0458 1.4349 -0.3020
6.0465 1.4496 -0.3053
6.0377 2.5551 -0.5218
6.0301 2.5833 -0.5232
5.9448 2.5465 -0.4682
5.9048 2.5423 -0.4451
6.0486 1.3531 -0.2695
6.0447 1.3677 -0.2701
6.0438 1.3815 -0.2723
6.0490 1.4367 -0.2855
6.0467 1.4519 -0.2871
6.0474 1.4669 -0.2903
6.0392 2.5487 -0.4907
6.0173 2.5519 -0.4798
5.9874 2.5391 -0.4617
5.9693 2.5450 -0.4533
5.9573 2.5612 -0.4500
5.9157 2.5550 -0.4271
6.0531 1.2907 -0.2431
6.0538 1.3027 -0.2456
6.0566 1.3141 -0.2490
6.0583 1.3263 -0.2520
6.0522 1.3416 -0.2517
6.0478 1.3830 -0.2570
6.0448 1.3976 -0.2581
6.0450 1.4114 -0.2606
6.0511 1.4387 -0.2685
6.0509 1.4536 -0.2710
6.0466 1.4692 -0.2717
6.0452 1.4846 -0.2738
6.0497 1.4996 -0.2787
6.0466 1.5317 -0.2829
6.0449 1.5481 -0.2849
6.0451 1.5647 -0.2880
6.0432 1.5815 -0.2901
6.0404 1.5985 -0.2917
6.0479 2.5544 -0.4658
6.0179 2.5441 -0.4492
5.9804 2.5562 -0.4329
5.9636 2.5636 -0.4259
5.9379 2.5519 -0.4112
5.9166 2.5468 -0.3998
6.0524 1.2941 -0.2267
6.0532 1.3061 -0.2291
6.0505 1.3196 -0.2301
6.0523 1.3316 -0.2329
6.0506 1.3451 -0.2344
6.0490 1.3587 -0.2359
6.0472 1.3725 -0.2375
6.0454 1.3864 -0.2390
6.0436 1.4005 -0.2405
6.0490 1.4130 -0.2451
6.0501 1.4269 -0.2479
6.0480 1.4418 -0.2494
6.0459 1.4568 -0.2510
6.0487 1.4712 -0.2547
6.0474 1.4865 -0.2567
6.0461 1.5020 -0.2586
6.0466 1.5176 -0.2615
6.0474 1.5498 -0.2672
6.0466 1.5664 -0.2697
6.0448 1.5831 -0.2716
6.0401 1.5999 -0.2723
6.0354 1.6168 -0.2730
6.0344 1.6342 -0.2754
6.0448 1.6721 -0.2865
6.0461 1.6912 -0.2903
6.0455 1.7103 -0.2932
6.0377 1.7277 -0.2926
6.0566 2.5601 -0.4407
6.0374 2.5685 -0.4333
5.9979 2.5398 -0.4103
5.9725 2.5324 -0.3973
5.9552 2.5380 -0.3903
5.9451 2.5566 -0.3888
5.9094 2.5594 -0.3728
6.0527 1.2970 -0.2109
6.0491 1.3108 -0.2115
6.0488 1.3233 -0.2134
6.0473 1.3364 -0.2148
6.0501 1.3481 -0.2178
6.0518 1.3605 -0.2205
6.0501 1.3743 -0.2219
6.0504 1.3876 -0.2242
6.0443 1.4029 -0.2240
6.0509 1.4151 -0.2287
6.0428 1.4451 -0.2299
6.0469 1.4589 -0.2338
6.0437 1.4741 -0.2349
6.0466 1.4887 -0.2384
6.0423 1.5044 -0.2390
6.0390 1.5201 -0.2400
6.0474 1.5354 -0.2461
6.0400 1.5517 -0.2455
6.0416 1.5845 -0.2513
6.0427 1.6015 -0.2544
6.0418 1.6187 -0.2567
6.0352 1.6354 -0.2565
6.0323 1.6527 -0.2580
6.0436 1.6914 -0.2689
6.0430 1.7103 -0.2717
6.0406 1.7290 -0.2736
6.0434 1.7496 -0.2780
6.0519 1.7937 -0.2886
6.0508 1.8145 -0.2913
6.0461 1.8342 -0.2924
6.0397 1.8531 -0.2926
6.0367 1.8738 -0.2946
6.0303 1.8928 -0.2948
6.0056 2.5444 -0.3865
5.9829 2.5425 -0.3765
5.9642 2.5460 -0.3690
5.9336 2.5619 -0.3584
5.9209 2.5737 -0.3548
6.0542 1.2994 -0.1957
6.0483 1.3141 -0.1955
6.0481 1.3265 -0.1972
6.0433 1.3407 -0.1974
6.0462 1.3523 -0.2003
6.0480 1.3645 -0.2028
6.0475 1.3778 -0.2045
6.0490 1.3907 -0.2070
6.0462 1.4050 -0.2080
6.0433 1.4194 -0.2090
6.0425 1.4334 -0.2107
6.0426 1.4475 -0.2128
6.0469 1.4611 -0.2165
6.0489 1.4755 -0.2194
6.0457 1.4909 -0.2204
6.0455 1.5061 -0.2225
6.0442 1.5217 -0.2243
6.0468 1.5372 -0.2276
6.0492 1.5533 -0.2309
6.0447 1.5696 -0.2315
6.0421 1.5861 -0.2329
6.0442 1.6030 -0.2363
6.0434 1.6201 -0.2384
6.0396 1.6372 -0.2394
6.0368 1.6544 -0.2408
6.0431 1.6736 -0.2461
6.0455 1.6926 -0.2499
6.0423 1.7108 -0.2513
6.0391 1.7291 -0.2527
6.0394 1.7487 -0.2557
6.0500 1.7723 -0.2634
6.0482 1.7923 -0.2656
6.0497 1.8139 -0.2694
6.0494 1.8353 -0.2724
6.0431 1.8542 -0.2726
6.0545 2.5399 -0.3777
6.0390 2.5539 -0.3736
6.0244 2.5683 -0.3698
5.9996 2.5635 -0.3593
5.9728 2.5529 -0.3470
6.0579 1.3009 -0.1813
6.0498 1.3164 -0.1805
6.0428 1.3314 -0.1799
6.0425 1.3438 -0.1815
6.0434 1.3560 -0.1835
6.0496 1.3667 -0.1873
6.0513 1.3793 -0.1896
6.0518 1.3925 -0.1916
6.0523 1.4059 -0.1936
6.0483 1.4206 -0.1941
6.0443 1.4354 -0.1947
6.0446 1.4494 -0.1967
6.0478 1.4632 -0.1998
6.0478 1.4778 -0.2018
6.0447 1.4931 -0.2027
6.0486 1.5078 -0.2061
6.0474 1.5233 -0.2078
6.0440 1.5391 -0.2087
6.0436 1.5550 -0.2107
6.0421 1.5711 -0.2124
6.0419 1.6042 -0.2168
6.0459 1.6217 -0.2207
6.0431 1.6387 -0.2220
6.0450 1.6567 -0.2251
6.0420 1.6743 -0.2264
6.0437 1.6930 -0.2296
6.0415 1.7112 -0.2312
6.0410 1.7301 -0.2337
6.0387 1.7488 -0.2353
6.0381 1.7683 -0.2378
6.0435 1.7905 -0.2428
6.0469 1.8126 -0.2471
6.0458 1.8334 -0.2495
6.0370 1.8508 -0.2486
6.0367 1.8724 -0.2514
6.0379 1.8953 -0.2550
6.0331 1.9153 -0.2560
6.0315 2.0347 -0.2717
6.0183 2.1561 -0.2834
6.0341 2.5762 -0.3465
5.9420 2.5594 -0.3103
6.0558 1.3169 -0.1668
6.0465 1.3328 -0.1657
6.0474 1.3448 -0.1675
6.0449 1.3582 -0.1683
6.0490 1.3696 -0.1712
6.0431 1.3844 -0.1710
6.0470 1.3964 -0.1739
6.0508 1.4088 -0.1767
6.0490 1.4229 -0.1779
6.0451 1.4376 -0.1784
6.0507 1.4506 -0.1820
6.0456 1.4658 -0.1822
6.0446 1.4804 -0.1837
6.0488 1.4947 -0.1869
6.0456 1.5100 -0.1878
6.0495 1.5251 -0.1910
6.0492 1.5407 -0.1929
6.0429 1.5567 -0.1927
6.0365 1.5726 -0.1926
6.0410 1.5890 -0.1962
6.0462 1.6059 -0.2001
6.0446 1.6228 -0.2016
6.0419 1.6397 -0.2029
6.0429 1.6574 -0.2054
6.0363 1.6741 -0.2053
6.0353 1.6919 -0.2072
6.0415 1.7118 -0.2118
6.0430 1.7311 -0.2148
6.0434 1.7506 -0.2174
6.0464 1.7714 -0.2210
6.0483 1.8130 -0.2269
6.0447 1.8326 -0.2282
6.0419 1.8527 -0.2298
6.0408 1.8739 -0.2321
6.0504 1.9015 -0.2388
6.0514 1.9251 -0.2421
6.0416 1.9425 -0.2410
6.0424 1.9667 -0.2444
6.0463 1.9938 -0.2491
6.0348 2.0101 -0.2473
6.0384 2.0380 -0.2520
6.0394 2.0646 -0.2557
6.0402 2.0918 -0.2594
6.0395 2.5380 -0.3155
6.0281 2.5572 -0.3141
6.0017 2.5497 -0.3042
5.9784 2.5452 -0.2958
5.9627 2.5532 -0.2915
5.9449 2.5558 -0.2858
5.9327 2.5684 -0.2833
6.0479 1.3351 -0.1508
6.0478 1.3475 -0.1522
6.0532 1.3582 -0.1551
6.0528 1.3711 -0.1565
6.0491 1.3852 -0.1570
6.0520 1.3976 -0.1593
6.0514 1.4111 -0.1607
6.0497 1.4251 -0.1618
6.0469 1.4395 -0.1626
6.0451 1.4538 -0.1638
6.0411 1.4686 -0.1643
6.0403 1.4831 -0.1657
6.0456 1.4970 -0.1690
6.0456 1.5120 -0.1707
6.0414 1.5274 -0.1712
6.0443 1.5426 -0.1739
6.0431 1.5583 -0.1753
6.0437 1.5743 -0.1774
6.0423 1.5905 -0.1788
6.0438 1.6071 -0.1812
6.0509 1.6247 -0.1854
6.0434 1.6410 -0.1850
6.0416 1.6582 -0.1865
6.0464 1.6768 -0.1901
6.0407 1.6938 -0.1903
6.0405 1.7122 -0.1924
6.0449 1.7321 -0.1961
6.0463 1.7518 -0.1988
6.0457 1.7713 -0.2009
6.0362 1.7877 -0.1999
6.0399 1.8094 -0.2036
6.0478 1.8337 -0.2088
6.0434 1.8529 -0.2097
6.0432 1.8744 -0.2121
6.0457 1.9206 -0.2183
6.0376 1.9387 -0.2179
6.0427 1.9654 -0.2226
6.0426 1.9895 -0.2253
6.0432 2.0145 -0.2284
6.0366 2.0344 -0.2287
6.0377 2.0608 -0.2321
6.0395 2.0884 -0.2359
6.0379 2.1138 -0.2384
6.0280 2.1315 -0.2374
6.0308 2.1619 -0.2418
6.0342 2.1937 -0.2465
6.0345 2.5597 -0.2892
6.0048 2.5466 -0.2785
5.9888 2.5555 -0.2746
5.9687 2.5555 -0.2684
5.9520 2.5605 -0.2639
5.9350 2.5634 -0.2589
6.0503 1.3493 -0.1376
6.0513 1.3615 -0.1392
6.0533 1.3736 -0.1410
6.0462 1.3886 -0.1407
6.0492 1.4008 -0.1428
6.0498 1.4140 -0.1444
6.0493 1.4276 -0.1457
6.0476 1.4417 -0.1467
6.0469 1.4557 -0.1480
6.0451 1.4701 -0.1490
6.0496 1.4839 -0.1518
6.0486 1.4987 -0.1531
6.0444 1.5444 -0.1568
6.0392 1.5600 -0.1570
6.0440 1.5758 -0.1600
6.0446 1.5920 -0.1619
6.0471 1.6087 -0.1644
6.0507 1.6431 -0.1690
6.0460 1.6599 -0.1695
6.0471 1.6778 -0.1717
6.0414 1.6947 -0.1720
6.0413 1.7130 -0.1739
6.0439 1.7323 -0.1767
6.0459 1.7716 -0.1814
6.0471 1.7919 -0.1839
6.0447 1.8113 -0.1853
6.0395 1.8296 -0.1858
6.0430 1.8522 -0.1892
6.0401 1.8940 -0.1929
6.0507 1.9226 -0.1989
6.0427 1.9406 -0.1985
6.0404 1.9624 -0.2002
6.0397 1.9857 -0.2025
6.0410 2.0358 -0.2082
6.0422 2.0622 -0.2114
6.0324 2.0795 -0.2105
6.0442 2.1166 -0.2177
6.0349 2.1350 -0.2171
6.0363 2.1640 -0.2206
6.0398 2.1959 -0.2250
6.0341 2.2187 -0.2258
6.0408 2.2560 -0.2316
6.0407 2.2865 -0.2349
6.0482 2.3273 -0.2413
6.0510 2.3972 -0.2496
6.0418 2.4185 -0.2493
6.0400 2.4507 -0.2522
6.0492 2.5377 -0.2641
6.0391 2.5590 -0.2635
6.0175 2.5601 -0.2576
5.9880 2.5454 -0.2478
5.9723 2.5532 -0.2442
5.9518 2.5509 -0.2382
6.0552 1.3503 -0.1236
6.0528 1.3637 -0.1243
6.0548 1.3757 -0.1259
6.0523 1.3894 -0.1266
6.0508 1.4029 -0.1276
6.0493 1.4165 -0.1285
6.0488 1.4301 -0.1297
6.0482 1.4438 -0.1309
6.0433 1.4585 -0.1311
6.0501 1.4715 -0.1341
6.0504 1.4859 -0.1355
6.0485 1.5007 -0.1365
6.0465 1.5157 -0.1374
6.0445 1.5308 -0.1384
6.0486 1.5459 -0.1409
6.0515 1.5616 -0.1431
6.0502 1.5775 -0.1444
6.0458 1.5935 -0.1448
6.0385 1.6093 -0.1445
6.0469 1.6267 -0.1483
6.0473 1.6437 -0.1501
6.0427 1.6603 -0.1505
6.0372 1.6768 -0.1507
6.0364 1.6943 -0.1522
6.0477 1.7152 -0.1571
6.0457 1.7333 -0.1584
6.0415 1.7702 -0.1609
6.0455 1.7913 -0.1640
6.0414 1.8098 -0.1647
6.0478 1.8330 -0.1686
6.0513 1.8773 -0.1737
6.0442 1.8954 -0.1737
6.0431 1.9170 -0.1755
6.0401 1.9378 -0.1768
6.0413 1.9616 -0.1794
6.0398 1.9841 -0.1812
6.0440 2.0113 -0.1849
6.0438 2.0359 -0.1873
6.0476 2.0642 -0.1910
6.0503 2.0926 -0.1944
6.0457 2.1151 -0.1954
6.0419 2.1386 -0.1968
6.0388 2.1630 -0.1983
6.0494 2.2316 -0.2077
6.0407 2.2515 -0.2074
6.0421 2.2835 -0.2109
6.0333 2.3036 -0.2106
6.0359 2.3384 -0.2146
6.0431 2.4140 -0.2238
6.0524 2.4622 -0.2308
6.0384 2.4766 -0.2287
6.0331 2.5043 -0.2300
6.0298 2.5354 -0.2322
6.0315 2.5758 -0.2366
5.9966 2.5522 -0.2255
5.9795 2.5578 -0.2218
5.9539 2.5460 -0.2142
6.0543 1.3410 -0.1073
6.0531 1.3537 -0.1082
6.0519 1.3666 -0.1090
6.0472 1.3806 -0.1092
6.0527 1.3918 -0.1114
6.0479 1.4061 -0.1116
6.0453 1.4198 -0.1122
6.0482 1.4325 -0.1140
6.0477 1.4462 -0.1150
6.0504 1.4595 -0.1168
6.0455 1.4743 -0.1170
6.0448 1.4886 -0.1181
6.0408 1.5034 -0.1185
6.0421 1.5178 -0.1201
6.0402 1.5328 -0.1210
6.0454 1.5477 -0.1234
6.0433 1.5631 -0.1243
6.0422 1.5788 -0.1254
6.0460 1.5949 -0.1277
6.0467 1.6112 -0.1293
6.0482 1.6280 -0.1311
6.0457 1.6446 -0.1320
6.0451 1.6617 -0.1333
6.0415 1.6785 -0.1340
6.0465 1.6973 -0.1368
6.0447 1.7150 -0.1379
6.0418 1.7326 -0.1388
6.0461 1.7720 -0.1432
6.0484 1.7925 -0.1455
6.0479 1.8123 -0.1472
6.0437 1.8309 -0.1479
6.0457 1.8526 -0.1502
6.0440 1.8729 -0.1516
6.0430 1.8940 -0.1532
6.0443 1.9392 -0.1575
6.0430 1.9613 -0.1591
6.0424 1.9843 -0.1610
6.0409 2.0071 -0.1627
6.0393 2.0302 -0.1643
6.0424 2.0577 -0.1674
6.0406 2.0816 -0.1691
6.0378 2.1051 -0.1706
6.0419 2.1355 -0.1742
6.0358 2.1567 -0.1747
6.0335 2.1819 -0.1763
6.0456 2.2528 -0.1853
6.0523 2.2910 -0.1901
6.0464 2.3148 -0.1908
6.0432 2.3425 -0.1926
6.0450 2.4105 -0.1989
6.0414 2.4394 -0.2007
6.0398 2.4717 -0.2031
6.0380 2.5046 -0.2056
6.0394 2.5433 -0.2093
6.0255 2.5571 -0.2074
5.9804 2.5508 -0.1968
5.9560 2.5410 -0.1905
6.0509 1.3449 -0.0920
6.0533 1.3687 -0.0944
6.0520 1.3817 -0.0951
6.0507 1.3948 -0.0959
6.0505 1.4078 -0.0969
6.0491 1.4213 -0.0976
6.0465 1.4351 -0.0982
6.0439 1.4491 -0.0988
6.0461 1.4762 -0.1014
6.0466 1.4903 -0.1026
6.0501 1.5044 -0.1044
6.0429 1.5196 -0.1041
6.0400 1.5345 -0.1047
6.0422 1.5494 -0.1063
6.0423 1.5647 -0.1075
6.0473 1.5804 -0.1098
6.0441 1.5961 -0.1104
6.0419 1.6121 -0.1112
6.0406 1.6283 -0.1122
6.0411 1.6450 -0.1136
6.0527 1.6815 -0.1187
6.0452 1.6977 -0.1185
6.0348 1.7130 -0.1177
6.0359 1.7314 -0.1194
6.0462 1.7531 -0.1231
6.0451 1.7718 -0.1243
6.0439 1.7908 -0.1256
6.0435 1.8104 -0.1270
6.0430 1.8303 -0.1285
6.0469 1.8527 -0.1310
6.0408 1.8706 -0.1312
6.0409 1.8920 -0.1329
6.0426 1.9147 -0.1350
6.0415 1.9363 -0.1365
6.0429 1.9599 -0.1386
6.0400 1.9810 -0.1397
6.0452 2.0085 -0.1429
6.0445 2.0322 -0.1446
6.0368 2.1013 -0.1485
6.0387 2.1294 -0.1511
6.0389 2.1565 -0.1532
6.0426 2.2748 -0.1632
6.0449 2.3080 -0.1663
6.0433 2.3373 -0.1683
6.0299 2.3833 -0.1692
6.0432 2.4700 -0.1786
6.0382 2.4974 -0.1798
6.0364 2.5305 -0.1820
6.0344 2.5640 -0.1843
6.0088 2.5569 -0.1787
5.9876 2.5554 -0.1745
5.9592 2.5385 -0.1676
6.0510 1.3476 -0.0776
6.0500 1.3600 -0.0783
6.0512 1.3719 -0.0793
6.0546 1.3834 -0.0807
6.0568 1.3956 -0.0819
6.0566 1.4087 -0.0827
6.0450 1.4245 -0.0819
6.0492 1.4368 -0.0835
6.0499 1.4501 -0.0845
6.0484 1.4641 -0.0852
6.0457 1.4783 -0.0857
6.0472 1.4922 -0.0870
6.0530 1.5060 -0.0889
6.0491 1.5210 -0.0893
6.0514 1.5357 -0.0907
6.0494 1.5509 -0.0914
6.0443 1.5817 -0.0926
6.0452 1.5975 -0.0939
6.0420 1.6133 -0.0945
6.0427 1.6297 -0.0957
6.0444 1.6465 -0.0971
6.0449 1.6635 -0.0984
6.0444 1.6806 -0.0995
6.0428 1.6978 -0.1004
6.0421 1.7155 -0.1015
6.0432 1.7339 -0.1030
6.0347 1.7497 -0.1027
6.0385 1.7696 -0.1047
6.0395 1.8284 -0.1089
6.0471 1.8524 -0.1118
6.0376 1.8683 -0.1113
6.0325 1.8866 -0.1118
6.0379 1.9109 -0.1143
6.0430 1.9360 -0.1169
6.0453 1.9601 -0.1190
6.0416 1.9806 -0.1198
6.0486 2.0092 -0.1229
6.0513 2.0603 -0.1269
6.0460 2.1070 -0.1293
6.0456 2.1329 -0.1310
6.0420 2.1562 -0.1320
6.0375 2.1789 -0.1328
6.0378 2.2647 -0.1388
6.0411 2.2985 -0.1417
6.0419 2.3302 -0.1440
6.0403 2.3596 -0.1458
6.0386 2.3895 -0.1476
6.0403 2.4249 -0.1503
6.0382 2.4902 -0.1544
6.0365 2.5230 -0.1564
6.0320 2.5519 -0.1577
6.0110 2.5524 -0.1542
5.9838 2.5401 -0.1488
5.9726 2.5550 -0.1479
5.9677 2.5819 -0.1490
6.0475 1.3514 -0.0629
6.0453 1.3641 -0.0633
6.0502 1.3748 -0.0647
6.0490 1.3875 -0.0653
6.0501 1.3998 -0.0662
6.0510 1.4254 -0.0678
6.0451 1.4399 -0.0679
6.0459 1.4530 -0.0688
6.0467 1.4664 -0.0697
6.0495 1.4798 -0.0709
6.0479 1.4941 -0.0715
6.0451 1.5086 -0.0720
6.0402 1.5233 -0.0722
6.0480 1.5376 -0.0741
6.0503 1.5525 -0.0754
6.0494 1.5678 -0.0762
6.0442 1.5988 -0.0773
6.0400 1.6144 -0.0776
6.0449 1.6311 -0.0793
6.0416 1.6471 -0.0798
6.0472 1.6648 -0.0817
6.0448 1.6815 -0.0823
6.0426 1.7161 -0.0841
6.0428 1.7342 -0.0852
6.0429 1.7526 -0.0864
6.0382 1.7697 -0.0867
6.0438 1.7907 -0.0888
6.0432 1.8298 -0.0910
6.0383 1.8477 -0.0914
6.0369 1.8674 -0.0924
6.0383 1.9102 -0.0952
6.0418 1.9341 -0.0971
6.0425 1.9569 -0.0986
6.0389 1.9771 -0.0993
6.0360 1.9982 -0.1002
6.0439 2.0278 -0.1030
6.0433 2.0765 -0.1059
6.0416 2.1003 -0.1071
6.0430 2.1275 -0.1089
6.0426 2.1536 -0.1104
6.0374 2.1753 -0.1110
6.0337 2.1988 -0.1119
6.0330 2.2260 -0.1134
6.0408 2.2934 -0.1186
6.0432 2.3268 -0.1209
6.0342 2.4099 -0.1246
6.0387 2.4497 -0.1277
6.0380 2.4829 -0.1296
6.0461 2.5309 -0.1336
6.0456 2.5666 -0.1357
6.0197 2.5593 -0.1316
6.0008 2.5623 -0.1291
5.9771 2.5549 -0.1253
6.0487 1.3536 -0.0490
6.0489 1.3655 -0.0496
6.0491 1.3776 -0.0502
6.0457 1.3909 -0.0505
6.0492 1.4025 -0.0515
6.0492 1.4152 -0.0522
6.0513 1.4276 -0.0531
6.0477 1.4415 -0.0534
6.0463 1.4551 -0.0539
6.0427 1.4691 -0.0542
6.0501 1.4818 -0.0557
6.0507 1.4957 -0.0565
6.0447 1.5104 -0.0565
6.0451 1.5248 -0.0573
6.0445 1.5394 -0.0580
6.0448 1.5542 -0.0588
6.0450 1.5692 -0.0596
6.0493 1.5847 -0.0609
6.0462 1.6003 -0.0613
6.0462 1.6162 -0.0621
6.0430 1.6319 -0.0626
6.0387 1.6477 -0.0629
6.0495 1.6661 -0.0651
6.0431 1.6820 -0.0651
6.0416 1.6989 -0.0658
6.0498 1.7186 -0.0678
6.0453 1.7354 -0.0681
6.0407 1.7522 -0.0685
6.0427 1.7714 -0.0697
6.0370 1.7882 -0.0699
6.0360 1.8069 -0.0707
6.0460 1.8308 -0.0731
6.0411 1.8486 -0.0734
6.0434 1.8701 -0.0748
6.0446 1.8916 -0.0761
6.0386 1.9095 -0.0763
6.0379 1.9306 -0.0773
6.0388 1.9531 -0.0785
6.0386 1.9755 -0.0797
6.0503 2.0069 -0.0826
6.0498 2.0304 -0.0838
6.0401 2.0468 -0.0835
6.0394 2.0707 -0.0846
6.0444 2.1001 -0.0867
6.0432 2.1510 -0.0892
6.0443 2.1790 -0.0908
6.0430 2.2051 -0.0919
6.0384 2.2281 -0.0926
6.0414 2.2601 -0.0946
6.0434 2.2919 -0.0964
6.0423 2.3206 -0.0978
6.0520 2.3641 -0.1011
6.0417 2.3821 -0.1009
6.0386 2.4101 -0.1019
6.0418 2.4478 -0.1042
6.0488 2.5278 -0.1091
6.0444 2.5567 -0.1101
6.0318 2.5720 -0.1095
5.9995 2.5517 -0.1047
5.9763 2.5451 -0.1017
6.0507 1.3437 -0.0347
6.0510 1.3554 -0.0352
6.0549 1.3661 -0.0360
6.0562 1.3779 -0.0367
6.0434 1.3939 -0.0362
6.0435 1.4063 -0.0367
6.0471 1.4180 -0.0375
6.0470 1.4308 -0.0381
6.0526 1.4427 -0.0391
6.0490 1.4567 -0.0394
6.0420 1.4712 -0.0394
6.0472 1.4841 -0.0404
6.0457 1.4981 -0.0408
6.0485 1.5119 -0.0417
6.0484 1.5409 -0.0429
6.0434 1.5557 -0.0431
6.0437 1.5707 -0.0437
6.0460 1.5860 -0.0446
6.0472 1.6016 -0.0454
6.0420 1.6170 -0.0455
6.0451 1.6333 -0.0465
6.0419 1.6492 -0.0469
6.0457 1.6663 -0.0480
6.0463 1.6834 -0.0488
6.0400 1.6992 -0.0489
6.0438 1.7354 -0.0507
6.0460 1.7542 -0.0517
6.0376 1.7698 -0.0516
6.0443 1.7910 -0.0531
6.0433 1.8098 -0.0539
6.0441 1.8296 -0.0548
6.0462 1.8710 -0.0567
6.0376 1.8871 -0.0566
6.0398 1.9092 -0.0578
6.0373 1.9291 -0.0584
6.0366 1.9504 -0.0592
6.0401 1.9749 -0.0606
6.0337 2.0161 -0.0618
6.0401 2.0447 -0.0635
6.0395 2.0685 -0.0645
6.0381 2.0919 -0.0654
6.0525 2.1569 -0.0694
6.0417 2.1730 -0.0691
6.0444 2.2030 -0.0707
6.0415 2.2276 -0.0714
6.0400 2.2542 -0.0724
6.0437 2.2876 -0.0742
6.0422 2.3460 -0.0765
6.0489 2.3863 -0.0788
6.0430 2.4103 -0.0793
6.0370 2.4344 -0.0798
6.0339 2.4629 -0.0808
6.0397 2.5059 -0.0831
6.0410 2.5433 -0.0848
6.0427 2.5824 -0.0866
6.0087 2.5599 -0.0827
5.9887 2.5593 -0.0809
5.9748 2.5689 -0.0800
6.0497 1.3584 -0.0214
6.0489 1.3705 -0.0217
6.0503 1.3821 -0.0222
6.0482 1.3950 -0.0225
6.0471 1.4077 -0.0229
6.0495 1.4197 -0.0234
6.0472 1.4330 -0.0237
6.0449 1.4464 -0.0240
6.0482 1.4589 -0.0247
6.0502 1.4720 -0.0253
6.0465 1.4861 -0.0255
6.0484 1.4997 -0.0261
6.0491 1.5137 -0.0266
6.0464 1.5281 -0.0269
6.0447 1.5426 -0.0273
6.0473 1.5573 -0.0280
6.0466 1.5722 -0.0284
6.0458 1.5874 -0.0289
6.0376 1.6022 -0.0289
6.0388 1.6178 -0.0295
6.0450 1.6344 -0.0304
6.0439 1.6504 -0.0309
6.0509 1.6681 -0.0319
6.0506 1.6850 -0.0325
6.0392 1.6997 -0.0323
6.0428 1.7178 -0.0331
6.0436 1.7537 -0.0344
6.0419 1.7715 -0.0349
6.0459 1.7916 -0.0358
6.0393 1.8080 -0.0359
6.0421 1.8285 -0.0368
6.0404 1.8878 -0.0387
6.0417 1.9095 -0.0395
6.0394 1.9293 -0.0401
6.0413 1.9522 -0.0410
6.0414 1.9744 -0.0417
6.0413 1.9970 -0.0425
6.0377 2.0173 -0.0429
6.0387 2.0655 -0.0446
6.0357 2.0873 -0.0452
6.0482 2.2034 -0.0499
6.0430 2.2253 -0.0503
6.0439 2.2545 -0.0513
6.0454 2.2852 -0.0525
6.0452 2.3145 -0.0535
6.0404 2.3385 -0.0540
6.0364 2.3952 -0.0556
6.0400 2.4324 -0.0571
6.0369 2.4608 -0.0579
6.0351 2.4917 -0.0588
6.0394 2.5332 -0.0605
6.0331 2.5583 -0.0610
6.0187 2.5692 -0.0604
5.9891 2.5519 -0.0580
6.0498 1.3377 -0.0072
6.0479 1.3498 -0.0074
6.0520 1.3601 -0.0078
6.0500 1.3726 -0.0081
6.0527 1.3839 -0.0085
6.0506 1.3967 -0.0087
6.0484 1.4096 -0.0090
6.0485 1.4221 -0.0093
6.0474 1.4351 -0.0096
6.0485 1.4478 -0.0099
6.0439 1.4617 -0.0101
6.0449 1.4748 -0.0105
6.0503 1.4876 -0.0110
6.0455 1.5018 -0.0112
6.0441 1.5158 -0.0115
6.0503 1.5296 -0.0121
6.0513 1.5588 -0.0128
6.0463 1.5736 -0.0130
6.0434 1.5886 -0.0133
6.0416 1.6038 -0.0136
6.0439 1.6195 -0.0141
6.0429 1.6352 -0.0145
6.0490 1.6687 -0.0155
6.0406 1.6838 -0.0156
6.0464 1.7020 -0.0163
6.0451 1.7189 -0.0167
6.0426 1.7358 -0.0170
6.0450 1.7544 -0.0176
6.0424 1.7718 -0.0179
6.0427 1.7904 -0.0184
6.0457 1.8105 -0.0190
6.0391 1.8269 -0.0192
6.0418 1.8476 -0.0198
6.0407 1.8670 -0.0203
6.0377 1.8856 -0.0206
6.0383 1.9065 -0.0212
6.0441 1.9311 -0.0220
6.0417 1.9512 -0.0224
6.0392 1.9714 -0.0229
6.0452 2.0211 -0.0243
6.0373 2.0383 -0.0245
6.0420 2.0660 -0.0254
6.0332 2.0826 -0.0254
6.0360 2.1097 -0.0262
6.0443 2.1429 -0.0274
6.0466 2.1713 -0.0282
6.0504 2.2021 -0.0291
6.0428 2.2213 -0.0293
6.0478 2.2548 -0.0304
6.0425 2.2772 -0.0307
6.0478 2.3129 -0.0318
6.0437 2.3377 -0.0323
6.0434 2.3678 -0.0331
6.0406 2.3953 -0.0336
6.0371 2.4220 -0.0342
6.0370 2.4544 -0.0350
6.0382 2.4896 -0.0359
6.0384 2.5242 -0.0368
6.0378 2.5583 -0.0377
6.0172 2.5585 -0.0369
5.9921 2.5493 -0.0357
6.0483 1.3408 0.0061
6.0477 1.3525 0.0059
6.0506 1.3631 0.0057
6.0499 1.3751 0.0055
6.0539 1.3859 0.0052
6.0517 1.3987 0.0051
6.0567 1.4098 0.0048
6.0498 1.4241 0.0046
6.0487 1.4370 0.0044
6.0453 1.4505 0.0043
6.0475 1.4631 0.0040
6.0429 1.4770 0.0038
6.0439 1.4902 0.0036
6.0448 1.5037 0.0034
6.0456 1.5175 0.0031
6.0464 1.5315 0.0029
6.0459 1.5458 0.0026
6.0454 1.5603 0.0024
6.0437 1.5750 0.0022
6.0452 1.5900 0.0019
6.0455 1.6053 0.0016
6.0458 1.6208 0.0014
6.0428 1.6362 0.0011
6.0418 1.6520 0.0009
6.0490 1.6695 0.0005
6.0499 1.6864 0.0002
6.0456 1.7024 -0.0000
6.0423 1.7187 -0.0003
6.0389 1.7352 -0.0005
6.0415 1.7536 -0.0008
6.0429 1.7721 -0.0012
6.0422 1.7902 -0.0015
6.0453 1.8102 -0.0018
6.0407 1.8467 -0.0024
6.0369 1.8645 -0.0027
6.0395 1.8859 -0.0031
6.0383 1.9057 -0.0034
6.0443 1.9301 -0.0039
6.0428 1.9507 -0.0042
6.0395 1.9702 -0.0045
6.0379 2.0367 -0.0056
6.0334 2.0565 -0.0059
6.0373 2.0837 -0.0064
6.0360 2.1070 -0.0068
6.0379 2.1338 -0.0072
6.0405 2.1619 -0.0078
6.0428 2.1906 -0.0083
6.0466 2.2216 -0.0088
6.0469 2.2498 -0.0093
6.0464 2.3065 -0.0103
6.0413 2.4221 -0.0122
6.0457 2.4610 -0.0129
6.0369 2.4807 -0.0131
6.0323 2.5072 -0.0135
6.0354 2.5466 -0.0142
6.0265 2.5667 -0.0144
6.0006 2.5563 -0.0139
6.0510 1.3311 0.0193
6.0480 1.3435 0.0191
6.0536 1.3529 0.0191
6.0480 1.3664 0.0189
6.0436 1.3794 0.0188
6.0489 1.3897 0.0188
6.0481 1.4020 0.0186
6.0472 1.4144 0.0185
6.0498 1.4262 0.0184
6.0464 1.4395 0.0183
6.0477 1.4521 0.0182
6.0431 1.4658 0.0180
6.0454 1.4786 0.0179
6.0453 1.4919 0.0178
6.0485 1.5051 0.0177
6.0449 1.5192 0.0176
6.0446 1.5332 0.0175
6.0420 1.5474 0.0173
6.0405 1.5618 0.0172
6.0491 1.5916 0.0170
6.0474 1.6067 0.0168
6.0391 1.6213 0.0166
6.0478 1.6379 0.0166
6.0438 1.6533 0.0164
6.0449 1.6696 0.0163
6.0428 1.6857 0.0161
6.0437 1.7026 0.0160
6.0455 1.7201 0.0158
6.0491 1.7385 0.0157
6.0438 1.7546 0.0155
6.0462 1.7734 0.0154
6.0495 1.7930 0.0153
6.0536 1.8135 0.0151
6.0441 1.8286 0.0149
6.0433 1.8475 0.0147
6.0386 1.8648 0.0145
6.0413 1.8861 0.0143
6.0392 1.9053 0.0142
6.0380 1.9253 0.0140
6.0412 1.9484 0.0138
6.0442 1.9720 0.0136
6.0435 1.9937 0.0134
6.0427 2.0156 0.0132
6.0436 2.0393 0.0130
6.0499 2.0923 0.0126
6.0461 2.1136 0.0124
6.0397 2.1326 0.0122
6.0341 2.1524 0.0119
6.0399 2.1842 0.0117
6.0454 2.2167 0.0115
6.0411 2.2392 0.0113
6.0423 2.2684 0.0110
6.0387 2.2924 0.0108
6.0380 2.3205 0.0105
6.0410 2.3541 0.0103
6.0392 2.3821 0.0100
6.0376 2.4426 0.0095
6.0398 2.4785 0.0092
6.0339 2.5026 0.0089
6.0399 2.5466 0.0086
6.0118 2.5682 0.0081
5.9990 2.5802 0.0078
6.0532 1.3329 0.0323
6.0552 1.3434 0.0323
6.0483 1.3572 0.0321
6.0452 1.3697 0.0320
6.0507 1.3796 0.0322
6.0488 1.3921 0.0321
6.0480 1.4043 0.0320
6.0495 1.4161 0.0321
6.0486 1.4287 0.0320
6.0465 1.4416 0.0320
6.0478 1.4541 0.0320
6.0479 1.4670 0.0320
6.0502 1.4798 0.0321
6.0467 1.4936 0.0319
6.0455 1.5072 0.0319
6.0430 1.5210 0.0318
6.0461 1.5348 0.0319
6.0458 1.5489 0.0319
6.0465 1.5633 0.0319
6.0493 1.5780 0.0320
6.0498 1.5929 0.0320
6.0448 1.6077 0.0318
6.0452 1.6230 0.0318
6.0381 1.6377 0.0315
6.0478 1.6548 0.0319
6.0448 1.6868 0.0318
6.0458 1.7037 0.0318
6.0436 1.7201 0.0317
6.0443 1.7375 0.0317
6.0420 1.7543 0.0316
6.0466 1.7737 0.0318
6.0435 1.8092 0.0316
6.0399 1.8264 0.0315
6.0401 1.8456 0.0315
6.0373 1.8636 0.0314
6.0402 1.8848 0.0315
6.0363 1.9028 0.0313
6.0407 1.9259 0.0315
6.0413 1.9473 0.0315
6.0399 1.9677 0.0314
6.0367 1.9872 0.0313
6.0343 2.0075 0.0312
6.0432 2.0370 0.0315
6.0392 2.1047 0.0313
6.0372 2.1273 0.0312
6.0358 2.1511 0.0312
6.0303 2.1708 0.0310
6.0304 2.1968 0.0310
6.0376 2.2313 0.0312
6.0350 2.2556 0.0311
6.0393 2.2887 0.0312
6.0372 2.3147 0.0311
6.0312 2.3360 0.0309
6.0365 2.3729 0.0311
6.0347 2.4011 0.0310
6.0388 2.4383 0.0311
6.0375 2.4685 0.0311
6.0353 2.4980 0.0310
6.0294 2.5221 0.0307
6.0412 2.5760 0.0311
6.0120 2.5607 0.0301
6.0523 1.3470 0.0451
6.0499 1.3706 0.0451
6.0480 1.3828 0.0451
6.0498 1.3941 0.0453
6.0503 1.4059 0.0454
6.0482 1.4186 0.0454
6.0522 1.4300 0.0457
6.0548 1.4421 0.0460
6.0432 1.4569 0.0454
6.0468 1.4691 0.0457
6.0469 1.4821 0.0458
6.0481 1.4952 0.0460
6.0457 1.5089 0.0459
6.0456 1.5225 0.0460
6.0499 1.5362 0.0464
6.0418 1.5505 0.0460
6.0459 1.5647 0.0463
6.0466 1.5792 0.0465
6.0450 1.5939 0.0465
6.0466 1.6090 0.0467
6.0470 1.6243 0.0468
6.0420 1.6392 0.0467
6.0476 1.6557 0.0471
6.0436 1.6710 0.0470
6.0416 1.6869 0.0470
6.0406 1.7031 0.0471
6.0426 1.7203 0.0473
6.0465 1.7385 0.0477
6.0422 1.7546 0.0475
6.0379 1.7708 0.0474
6.0464 1.7919 0.0481
6.0458 1.8101 0.0482
6.0433 1.8277 0.0481
6.0445 1.8473 0.0484
6.0408 1.8648 0.0483
6.0380 1.8830 0.0482
6.0399 1.9040 0.0485
6.0397 1.9243 0.0486
6.0500 1.9732 0.0496
6.0477 1.9935 0.0496
6.0417 2.0113 0.0494
6.0357 2.0292 0.0492
6.0419 2.0571 0.0498
6.0410 2.0798 0.0499
6.0371 2.1245 0.0500
6.0417 2.1538 0.0505
6.0378 2.1753 0.0504
6.0330 2.1961 0.0503
6.0404 2.2306 0.0510
6.0402 2.2576 0.0512
6.0383 2.2831 0.0512
6.0371 2.3099 0.0514
6.0358 2.3371 0.0515
6.0297 2.3584 0.0513
6.0388 2.4011 0.0521
6.0432 2.4707 0.0529
6.0381 2.4957 0.0528
6.0366 2.5266 0.0530
6.0336 2.5556 0.0530
6.0234 2.5727 0.0525
6.0506 1.3500 0.0577
6.0488 1.3619 0.0577
6.0496 1.3731 0.0580
6.0490 1.3848 0.0581
6.0496 1.3964 0.0583
6.0415 1.4103 0.0579
6.0457 1.4213 0.0584
6.0473 1.4332 0.0587
6.0476 1.4455 0.0589
6.0479 1.4581 0.0591
6.0505 1.4705 0.0595
6.0482 1.4838 0.0595
6.0471 1.4971 0.0597
6.0506 1.5102 0.0602
6.0470 1.5241 0.0601
6.0446 1.5380 0.0601
6.0433 1.5520 0.0602
6.0452 1.5661 0.0606
6.0438 1.5805 0.0607
6.0466 1.5953 0.0611
6.0472 1.6103 0.0614
6.0520 1.6260 0.0621
6.0513 1.6414 0.0622
6.0463 1.6564 0.0620
6.0423 1.6716 0.0619
6.0414 1.6875 0.0621
6.0447 1.7046 0.0626
6.0467 1.7219 0.0631
6.0476 1.7392 0.0634
6.0433 1.7553 0.0633
6.0461 1.7738 0.0638
6.0417 1.7901 0.0637
6.0423 1.8085 0.0640
6.0427 1.8272 0.0644
6.0498 1.8494 0.0653
6.0490 1.8685 0.0655
6.0358 1.8811 0.0646
6.0397 1.9030 0.0653
6.0377 1.9221 0.0654
6.0385 1.9431 0.0658
6.0451 1.9902 0.0671
6.0428 2.0105 0.0672
6.0377 2.0289 0.0671
6.0353 2.0495 0.0672
6.0336 2.0711 0.0674
6.0480 2.1320 0.0695
6.0433 2.1524 0.0694
6.0395 2.1739 0.0694
6.0487 2.2634 0.0716
6.0532 2.2967 0.0725
6.0464 2.3169 0.0722
6.0435 2.3422 0.0723
6.0443 2.3730 0.0729
6.0403 2.4284 0.0734
6.0399 2.4595 0.0739
6.0387 2.4898 0.0742
6.0366 2.5195 0.0745
6.0380 2.5554 0.0752
6.0199 2.5590 0.0737
6.0530 1.3405 0.0702
6.0488 1.3531 0.0701
6.0522 1.3632 0.0707
6.0530 1.3744 0.0710
6.0474 1.3876 0.0707
6.0456 1.3997 0.0708
6.0437 1.4120 0.0709
6.0418 1.4243 0.0710
6.0496 1.4348 0.0720
6.0451 1.4480 0.0719
6.0443 1.4606 0.0721
6.0493 1.4726 0.0729
6.0495 1.4855 0.0732
6.0437 1.4993 0.0729
6.0473 1.5122 0.0736
6.0484 1.5257 0.0740
6.0460 1.5395 0.0741
6.0436 1.5535 0.0742
6.0445 1.5675 0.0746
6.0442 1.5819 0.0749
6.0483 1.5966 0.0757
6.0484 1.6266 0.0764
6.0477 1.6419 0.0766
6.0460 1.6573 0.0768
6.0463 1.6731 0.0772
6.0423 1.6884 0.0771
6.0414 1.7045 0.0774
6.0425 1.7213 0.0779
6.0456 1.7390 0.0787
6.0434 1.7555 0.0788
6.0402 1.7719 0.0789
6.0460 1.7917 0.0799
6.0366 1.8060 0.0793
6.0431 1.8271 0.0804
6.0477 1.8672 0.0819
6.0411 1.8833 0.0815
6.0422 1.9037 0.0821
6.0356 1.9198 0.0818
6.0393 1.9425 0.0827
6.0382 1.9626 0.0831
6.0407 1.9855 0.0839
6.0448 2.0103 0.0849
6.0389 2.0279 0.0846
6.0303 2.0434 0.0841
6.0305 2.0662 0.0846
6.0393 2.0972 0.0863
6.0418 2.1234 0.0872
6.0466 2.1527 0.0884
6.0453 2.1766 0.0888
6.0406 2.1974 0.0888
6.0474 2.2310 0.0903
6.0406 2.3051 0.0912
6.0394 2.3321 0.0917
6.0342 2.3542 0.0917
6.0336 2.3829 0.0923
6.0306 2.4087 0.0926
6.0305 2.4392 0.0933
6.0347 2.4771 0.0946
6.0372 2.5134 0.0957
6.0481 2.5649 0.0981
6.0264 2.5624 0.0957
6.0512 1.3436 0.0824
6.0521 1.3543 0.0828
6.0492 1.3665 0.0828
6.0488 1.3780 0.0831
6.0545 1.3878 0.0842
6.0527 1.4000 0.0843
6.0508 1.4124 0.0845
6.0514 1.4243 0.0849
6.0470 1.4374 0.0847
6.0486 1.4494 0.0853
6.0490 1.4618 0.0858
6.0457 1.4750 0.0857
6.0483 1.4875 0.0865
6.0414 1.5012 0.0860
6.0393 1.5145 0.0861
6.0417 1.5277 0.0868
6.0463 1.5410 0.0878
6.0450 1.5549 0.0881
6.0482 1.5690 0.0890
6.0480 1.5833 0.0894
6.0432 1.5976 0.0892
6.0395 1.6119 0.0892
6.0468 1.6275 0.0906
6.0484 1.6430 0.0913
6.0478 1.6584 0.0917
6.0438 1.6735 0.0916
6.0399 1.6886 0.0916
6.0454 1.7060 0.0928
6.0455 1.7226 0.0934
6.0394 1.7375 0.0930
6.0404 1.7548 0.0937
6.0444 1.7735 0.0948
6.0391 1.7891 0.0946
6.0498 1.8114 0.0967
6.0414 1.8261 0.0960
6.0419 1.8449 0.0967
6.0443 1.8650 0.0976
6.0417 1.8829 0.0978
6.0466 1.9054 0.0991
6.0429 1.9233 0.0992
6.0354 1.9389 0.0987
6.0372 1.9606 0.0996
6.0449 2.0087 0.1021
6.0444 2.0304 0.1027
6.0376 2.0473 0.1024
6.0396 2.0718 0.1034
6.0363 2.1156 0.1043
6.0379 2.1413 0.1053
6.0440 2.1975 0.1078
6.0368 2.2156 0.1074
6.0403 2.2458 0.1088
6.0460 2.2795 0.1106
6.0450 2.3061 0.1113
6.0423 2.3311 0.1117
6.0450 2.3636 0.1131
6.0390 2.3849 0.1130
6.0360 2.4107 0.1134
6.0269 2.4278 0.1127
