ply
format ascii 1.0
element vertex 2114
property float x
property float y
property float z
end_header
3.5808 -2.4071 -0.2559
3.5662 -2.4208 -0.2515
3.5431 -2.4404 -0.2528
3.5322 -2.4497 -0.2529
3.5232 -2.4562 -0.2577
3.5006 -2.4783 -0.2472
3.4931 -2.4834 -0.2527
3.4762 -2.4978 -0.2531
3.4692 -2.5028 -0.2574
3.4612 -2.5098 -0.2565
4.1869 -2.0736 0.6352
4.2102 -2.0453 0.6086
4.1912 -2.0558 0.5833
4.1914 -2.0506 0.5646
4.1791 -2.0556 0.5417
4.1660 -2.0613 0.5187
4.1474 -2.0717 0.4944
4.0955 -2.1103 0.4629
4.0786 -2.1197 0.4407
4.0796 -2.1137 0.4219
4.0865 -2.1026 0.4035
4.0834 -2.0998 0.3829
4.0793 -2.0979 0.3619
4.0742 -2.0968 0.3404
4.0715 -2.0935 0.3187
4.0595 -2.0984 0.2966
4.0565 -2.0952 0.2743
4.0501 -2.0950 0.2517
4.0217 -2.1151 0.2309
3.9778 -2.1502 0.2133
3.9606 -2.1606 0.1937
3.9496 -2.1651 0.1735
3.9891 -2.1208 0.1415
4.0521 -2.0448 0.0709
4.2074 -1.8398 -0.1696
4.0530 -1.9829 -0.1578
4.0904 -1.9210 -0.2624
4.0505 -1.9543 -0.2731
3.9850 -2.0175 -0.2586
3.9432 -2.0552 -0.2596
3.8646 -2.1274 -0.2557
3.8038 -2.1821 -0.2574
3.7747 -2.2090 -0.2555
3.7509 -2.2299 -0.2578
3.7048 -2.2718 -0.2574
3.6690 -2.3023 -0.2644
3.6492 -2.3210 -0.2617
3.6296 -2.3401 -0.2567
3.6007 -2.3651 -0.2612
3.5859 -2.3788 -0.2600
3.5685 -2.3972 -0.2503
3.5455 -2.4170 -0.2544
3.5348 -2.4261 -0.2564
3.5227 -2.4380 -0.2527
3.5127 -2.4470 -0.2534
3.5035 -2.4547 -0.2557
3.4841 -2.4732 -0.2519
3.4763 -2.4795 -0.2548
3.4676 -2.4880 -0.2526
3.4599 -2.4948 -0.2534
3.4525 -2.5014 -0.2537
4.2283 -2.0040 0.6465
4.1738 -2.0393 0.5888
4.1785 -2.0298 0.5718
4.1700 -2.0317 0.5499
4.1613 -2.0336 0.5279
4.1679 -2.0220 0.5098
4.1306 -2.0491 0.4804
4.0694 -2.0979 0.4473
4.0779 -2.0848 0.4299
4.0825 -2.0749 0.4108
4.0816 -2.0698 0.3903
4.0581 -2.0854 0.3669
4.0448 -2.0918 0.3450
4.0364 -2.0936 0.3235
4.0454 -2.0788 0.3021
4.0374 -2.0800 0.2799
4.0432 -2.0677 0.2567
3.9600 -2.1361 0.2186
3.9460 -2.1437 0.1986
3.9422 -2.1410 0.1769
3.9781 -2.0976 0.1455
4.0111 -2.0562 0.1112
4.0303 -2.0281 0.0778
4.2435 -1.7454 -0.1951
4.2305 -1.7467 -0.2333
4.0109 -1.9735 -0.1745
4.0338 -1.9236 -0.2712
3.9671 -1.9919 -0.2551
3.9410 -2.0124 -0.2707
3.8641 -2.0861 -0.2696
3.7934 -2.1562 -0.2606
3.7348 -2.2145 -0.2527
3.7155 -2.2313 -0.2586
3.6966 -2.2478 -0.2634
3.6756 -2.2681 -0.2628
3.6553 -2.2881 -0.2607
3.6193 -2.3232 -0.2583
3.5609 -2.3794 -0.2568
3.5354 -2.4046 -0.2538
3.5243 -2.4152 -0.2540
3.5144 -2.4238 -0.2565
3.5045 -2.4330 -0.2575
3.4952 -2.4415 -0.2589
3.4856 -2.4511 -0.2576
3.4751 -2.4629 -0.2511
3.4674 -2.4694 -0.2541
3.4587 -2.4787 -0.2509
3.4519 -2.4839 -0.2553
3.4446 -2.4908 -0.2558
3.4372 -2.4981 -0.2546
6.5842 0.0300 1.8400
4.2042 -1.9614 0.5518
4.1630 -1.9926 0.5192
4.1417 -2.0059 0.4932
4.0908 -2.0471 0.4610
4.0586 -2.0712 0.4347
4.0654 -2.0586 0.4163
4.0618 -2.0556 0.3954
4.0427 -2.0676 0.3724
4.0295 -2.0741 0.3505
4.0406 -2.0564 0.3300
4.0357 -2.0544 0.3078
4.0214 -2.0617 0.2854
4.0253 -2.0506 0.2624
3.9992 -2.0701 0.2408
3.9452 -2.1190 0.2236
3.9299 -2.1283 0.2037
3.9259 -2.1254 0.1821
3.9869 -2.0441 0.1187
4.6912 -1.2192 -0.2504
4.6281 -1.2716 -0.2855
4.3996 -1.5011 -0.2877
4.3159 -1.5836 -0.2929
4.2107 -1.6946 -0.2770
3.9784 -1.9651 -0.1601
3.9712 -1.9623 -0.1922
4.0172 -1.8917 -0.2696
3.9781 -1.9284 -0.2779
3.9248 -1.9849 -0.2690
3.8846 -2.0257 -0.2681
3.8436 -2.0688 -0.2623
3.8168 -2.0937 -0.2689
3.7536 -2.1597 -0.2615
3.7269 -2.1871 -0.2595
3.6998 -2.2163 -0.2536
3.6814 -2.2333 -0.2586
3.6660 -2.2461 -0.2669
3.6464 -2.2660 -0.2661
3.6271 -2.2864 -0.2632
3.5948 -2.3189 -0.2634
3.5628 -2.3538 -0.2550
3.5382 -2.3780 -0.2568
3.5171 -2.3974 -0.2624
3.5053 -2.4106 -0.2582
3.4942 -2.4231 -0.2542
3.4858 -2.4300 -0.2589
3.4772 -2.4380 -0.2610
3.4683 -2.4472 -0.2604
3.4594 -2.4569 -0.2580
3.4511 -2.4658 -0.2561
3.4439 -2.4724 -0.2584
3.4357 -2.4823 -0.2530
4.0589 -2.0317 0.4236
4.0502 -2.0335 0.4018
4.0297 -2.0473 0.3783
4.0156 -2.0547 0.3561
4.0105 -2.0455 0.3132
4.0128 -2.0355 0.2909
4.0052 -2.0358 0.2682
4.0033 -2.0300 0.2448
3.9137 -2.1052 0.1865
3.9067 -2.1054 0.1649
4.4591 -1.3712 -0.2705
4.3920 -1.4352 -0.2917
4.2925 -1.5420 -0.2881
4.1923 -1.6528 -0.2749
3.9362 -1.9587 -0.1749
3.9159 -1.9600 -0.2345
3.8980 -1.9713 -0.2570
3.8734 -1.9925 -0.2716
3.8280 -2.0445 -0.2606
3.7993 -2.0735 -0.2647
3.7170 -2.1611 -0.2641
3.6901 -2.1917 -0.2582
3.6711 -2.2105 -0.2622
3.6530 -2.2284 -0.2659
3.6158 -2.2684 -0.2643
3.5987 -2.2872 -0.2628
3.5824 -2.3050 -0.2610
3.5657 -2.3247 -0.2554
3.5536 -2.3363 -0.2591
3.5399 -2.3517 -0.2566
3.5275 -2.3650 -0.2559
3.5156 -2.3782 -0.2544
3.5066 -2.3855 -0.2609
3.4946 -2.4004 -0.2548
3.4843 -2.4119 -0.2530
3.4759 -2.4196 -0.2567
3.4665 -2.4303 -0.2546
3.4501 -2.4471 -0.2561
3.4418 -2.4570 -0.2532
3.4354 -2.4618 -0.2591
3.4277 -2.4708 -0.2563
4.0550 -2.0084 0.4520
4.0415 -2.0151 0.4292
4.0227 -2.0276 0.4056
4.0195 -2.0236 0.3847
4.0009 -2.0360 0.3618
4.0072 -2.0214 0.3412
3.9968 -2.0248 0.3189
3.9915 -2.0226 0.2966
3.9824 -2.0244 0.2740
3.9852 -2.0127 0.2506
3.8947 -2.0927 0.1922
3.8915 -2.0881 0.1699
4.6332 -1.1323 -0.1716
4.6245 -1.1204 -0.2306
4.5920 -1.1385 -0.2803
4.4283 -1.3286 -0.2618
4.3415 -1.4221 -0.2718
4.1776 -1.6044 -0.2756
3.9056 -1.9372 -0.1986
3.8838 -1.9547 -0.2176
3.8746 -1.9537 -0.2482
3.8476 -1.9797 -0.2597
3.8069 -2.0279 -0.2527
3.7826 -2.0518 -0.2615
3.7338 -2.1027 -0.2719
3.7028 -2.1408 -0.2627
3.6749 -2.1751 -0.2544
3.6353 -2.2189 -0.2560
3.6175 -2.2384 -0.2570
3.6039 -2.2509 -0.2645
3.5703 -2.2904 -0.2593
3.5412 -2.3245 -0.2551
3.5309 -2.3336 -0.2618
3.5177 -2.3499 -0.2578
3.4945 -2.3775 -0.2534
3.4859 -2.3849 -0.2595
3.4744 -2.4007 -0.2517
3.4654 -2.4105 -0.2524
3.4580 -2.4163 -0.2590
3.4489 -2.4279 -0.2553
3.4406 -2.4380 -0.2531
3.4256 -2.4549 -0.2526
3.4193 -2.4604 -0.2570
3.4121 -2.4696 -0.2538
6.0672 0.0732 1.3024
4.0376 -1.9917 0.4575
4.0188 -2.0045 0.4335
4.0170 -1.9986 0.4131
3.9969 -2.0129 0.3894
4.0000 -2.0012 0.3691
3.9831 -2.0121 0.3462
3.9793 -2.0081 0.3244
3.9787 -1.9999 0.3022
3.9730 -1.9976 0.2795
3.9807 -1.9790 0.2555
3.9738 -1.9778 0.2316
3.8874 -2.0658 0.1957
3.8845 -2.0602 0.1730
3.8838 -2.0515 0.1491
4.6384 -1.0056 -0.2403
4.5810 -1.0573 -0.2812
4.3268 -1.3612 -0.2723
4.1586 -1.5595 -0.2738
4.0869 -1.6450 -0.2718
4.0328 -1.7069 -0.2771
3.9125 -1.8560 -0.2596
3.8752 -1.8981 -0.2646
3.8373 -1.9427 -0.2651
3.7940 -1.9980 -0.2546
3.7697 -2.0233 -0.2634
3.7447 -2.0506 -0.2691
3.7172 -2.0834 -0.2681
3.6616 -2.1547 -0.2541
3.6258 -2.1939 -0.2620
3.5897 -2.2373 -0.2600
3.5622 -2.2666 -0.2682
3.5283 -2.3141 -0.2495
3.5065 -2.3374 -0.2559
3.4859 -2.3602 -0.2597
3.4752 -2.3738 -0.2570
3.4668 -2.3820 -0.2617
3.4569 -2.3954 -0.2575
3.4481 -2.4060 -0.2568
3.4406 -2.4132 -0.2609
3.4321 -2.4250 -0.2568
3.4245 -2.4340 -0.2565
3.4170 -2.4442 -0.2532
3.4104 -2.4512 -0.2554
3.4040 -2.4580 -0.2571
6.3044 0.3124 1.7858
4.0279 -1.9576 0.4449
3.9914 -1.9914 0.4171
3.9929 -1.9810 0.3970
3.9710 -1.9982 0.3732
3.9757 -1.9836 0.3527
3.9680 -1.9837 0.3304
3.9623 -1.9812 0.3079
3.9571 -1.9780 0.2851
3.9610 -1.9631 0.2614
3.9831 -1.9241 0.2349
3.8995 -2.0119 0.1960
3.8860 -2.0194 0.1743
4.5716 -0.9970 -0.2168
4.5612 -0.9837 -0.2784
4.4709 -1.0873 -0.2997
4.3330 -1.2655 -0.2854
4.2209 -1.4104 -0.2737
4.1494 -1.4973 -0.2793
4.0833 -1.5787 -0.2821
3.8988 -1.8175 -0.2619
3.8578 -1.8683 -0.2629
3.8104 -1.9323 -0.2516
3.7831 -1.9630 -0.2596
3.7599 -1.9874 -0.2703
3.6774 -2.0922 -0.2660
3.6514 -2.1274 -0.2596
3.6306 -2.1535 -0.2592
3.6106 -2.1793 -0.2572
3.5781 -2.2180 -0.2616
3.5632 -2.2359 -0.2633
3.5463 -2.2595 -0.2574
3.5336 -2.2742 -0.2601
3.5198 -2.2924 -0.2577
3.5082 -2.3062 -0.2595
3.4970 -2.3198 -0.2604
3.4854 -2.3354 -0.2578
3.4753 -2.3474 -0.2590
3.4654 -2.3600 -0.2585
3.4563 -2.3711 -0.2593
3.4467 -2.3848 -0.2553
3.4389 -2.3929 -0.2589
3.4301 -2.4057 -0.2545
3.4232 -2.4124 -0.2593
3.4157 -2.4223 -0.2580
3.4084 -2.4321 -0.2562
3.4017 -2.4405 -0.2561
3.3951 -2.4495 -0.2543
6.3563 0.5032 1.8688
6.3460 0.5231 1.7961
4.0203 -1.9281 0.4530
3.9908 -1.9546 0.4260
3.9690 -1.9722 0.4015
3.9664 -1.9659 0.3804
3.9580 -1.9668 0.3583
3.9571 -1.9581 0.3365
3.9431 -1.9659 0.3136
3.9417 -1.9573 0.2908
3.9489 -1.9369 0.2670
3.9706 -1.8962 0.2405
3.9737 -1.8796 0.2136
3.9824 -1.8549 0.1844
4.7680 -0.6634 -0.1532
4.5614 -0.9369 -0.1513
4.5211 -0.9676 -0.2000
4.5034 -0.9645 -0.2578
4.4634 -0.9958 -0.3045
4.3172 -1.1970 -0.2862
4.2176 -1.3300 -0.2829
3.9942 -1.6290 -0.2733
3.9367 -1.7067 -0.2693
3.8370 -1.8436 -0.2576
3.8036 -1.8856 -0.2622
3.7680 -1.9335 -0.2600
3.7413 -1.9662 -0.2657
3.7104 -2.0087 -0.2618
3.6647 -2.0657 -0.2688
3.6408 -2.0988 -0.2655
3.6185 -2.1301 -0.2616
3.5823 -2.1775 -0.2622
3.5641 -2.2035 -0.2578
3.5472 -2.2278 -0.2534
3.5352 -2.2408 -0.2596
3.5224 -2.2567 -0.2618
3.5098 -2.2731 -0.2623
3.4964 -2.2930 -0.2573
3.4751 -2.3201 -0.2597
3.4651 -2.3330 -0.2602
3.4538 -2.3516 -0.2521
3.4459 -2.3594 -0.2579
3.4376 -2.3692 -0.2603
3.4287 -2.3831 -0.2557
3.4204 -2.3956 -0.2524
3.4134 -2.4030 -0.2562
3.4068 -2.4097 -0.2607
3.3998 -2.4191 -0.2602
3.3929 -2.4298 -0.2567
3.3868 -2.4370 -0.2587
6.4350 0.7703 1.9009
3.9977 -1.9263 0.4776
3.9922 -1.9234 0.4562
3.9766 -1.9332 0.4323
3.9502 -1.9574 0.4067
3.9441 -1.9554 0.3853
3.9431 -1.9464 0.3642
3.9326 -1.9498 0.3416
3.9319 -1.9286 0.2966
3.9402 -1.9051 0.2726
3.9491 -1.8800 0.2469
3.9464 -1.8708 0.2209
5.1248 -0.0319 -0.1734
4.9958 -0.1865 -0.2244
4.5038 -0.9186 -0.1322
4.5002 -0.8923 -0.1956
4.4673 -0.9126 -0.2474
4.4015 -0.9880 -0.2804
4.2644 -1.1869 -0.2650
4.1917 -1.2821 -0.2778
4.0555 -1.4666 -0.2889
3.8347 -1.8253 -0.1864
3.8227 -1.8272 -0.2162
3.8160 -1.8187 -0.2524
3.7875 -1.8537 -0.2623
3.7559 -1.8963 -0.2651
3.6923 -1.9891 -0.2570
3.6667 -2.0250 -0.2564
3.6441 -2.0560 -0.2576
3.6043 -2.1101 -0.2606
3.5682 -2.1609 -0.2597
3.5503 -2.1883 -0.2548
3.5348 -2.2108 -0.2529
3.5230 -2.2241 -0.2594
3.5100 -2.2418 -0.2601
3.4839 -2.2820 -0.2525
3.4737 -2.2947 -0.2556
3.4638 -2.3074 -0.2579
3.4541 -2.3207 -0.2585
3.4447 -2.3339 -0.2584
3.4358 -2.3462 -0.2585
3.4274 -2.3577 -0.2590
3.4191 -2.3698 -0.2577
3.4116 -2.3797 -0.2590
3.4041 -2.3909 -0.2575
3.3967 -2.4034 -0.2531
3.3904 -2.4101 -0.2572
3.3839 -2.4197 -0.2562
3.3780 -2.4263 -0.2595
6.0006 0.4448 1.6663
4.0148 -1.8846 0.5335
3.9955 -1.8993 0.5076
3.9898 -1.8963 0.4862
3.9743 -1.9063 0.4619
3.9589 -1.9163 0.4380
3.9356 -1.9372 0.4128
3.9286 -1.9360 0.3912
3.9299 -1.9231 0.3704
3.9194 -1.9266 0.3477
3.9194 -1.9147 0.3255
3.9245 -1.8949 0.3026
3.9183 -1.8914 0.2787
3.9313 -1.8586 0.2530
3.9265 -1.8518 0.2272
5.0217 -0.0829 -0.0574
5.0155 -0.0473 -0.1413
4.8957 -0.1969 -0.1928
4.4497 -0.8630 -0.1788
3.8256 -1.7996 -0.1509
3.8091 -1.8106 -0.1760
3.8004 -1.8058 -0.2091
3.7902 -1.8036 -0.2414
3.7727 -1.8171 -0.2647
3.7375 -1.8705 -0.2620
3.6809 -1.9532 -0.2635
3.6306 -2.0297 -0.2595
3.6091 -2.0619 -0.2587
3.5905 -2.0882 -0.2608
3.5711 -2.1183 -0.2580
3.5556 -2.1395 -0.2614
3.5390 -2.1651 -0.2591
3.5234 -2.1898 -0.2562
3.4979 -2.2254 -0.2601
3.4862 -2.2418 -0.2618
3.4739 -2.2619 -0.2582
3.4636 -2.2757 -0.2607
3.4537 -2.2894 -0.2624
3.4435 -2.3060 -0.2596
3.4349 -2.3165 -0.2636
3.4251 -2.3351 -0.2561
3.4174 -2.3439 -0.2607
3.4018 -2.3678 -0.2590
3.3946 -2.3793 -0.2577
3.3878 -2.3884 -0.2591
3.3814 -2.3975 -0.2599
3.3751 -2.4066 -0.2603
3.3690 -2.4170 -0.2578
6.0675 0.6741 1.7586
5.8960 0.4947 1.6035
6.0402 0.7170 1.6092
5.9716 0.6684 1.5070
3.9752 -1.8743 0.4931
3.9658 -1.8760 0.4703
3.9491 -1.8880 0.4456
3.9228 -1.9140 0.4193
3.9169 -1.9109 0.3978
3.9064 -1.9144 0.3753
3.9034 -1.9067 0.3535
3.9070 -1.8752 0.3086
3.9041 -1.8661 0.2846
3.8974 -1.8626 0.2601
3.9000 -1.8437 0.2342
3.9112 -1.8096 0.2056
3.8799 -1.8128 0.1257
3.8583 -1.8156 0.0717
3.8508 -1.8109 0.0428
3.8295 -1.8316 0.0210
3.8273 -1.8165 -0.0116
3.8165 -1.8171 -0.0397
3.8173 -1.7945 -0.0771
3.8057 -1.7962 -0.1059
3.7859 -1.8150 -0.1271
3.7841 -1.7954 -0.1660
3.7768 -1.7870 -0.2007
3.7606 -1.7981 -0.2254
3.7489 -1.7991 -0.2557
3.7247 -1.8302 -0.2676
3.6951 -1.8761 -0.2683
3.6645 -1.9273 -0.2625
3.6458 -1.9501 -0.2738
3.6157 -2.0055 -0.2594
3.5979 -2.0294 -0.2661
3.5764 -2.0661 -0.2609
3.5600 -2.0896 -0.2647
3.5251 -2.1487 -0.2567
3.5105 -2.1723 -0.2556
3.4860 -2.2071 -0.2615
3.4734 -2.2286 -0.2585
3.4632 -2.2421 -0.2629
3.4526 -2.2586 -0.2631
3.4415 -2.2796 -0.2568
3.4322 -2.2935 -0.2578
3.4233 -2.3072 -0.2581
3.4144 -2.3231 -0.2546
3.4069 -2.3329 -0.2583
3.3992 -2.3448 -0.2584
3.3921 -2.3543 -0.2611
3.3849 -2.3676 -0.2578
3.3784 -2.3762 -0.2604
3.3719 -2.3877 -0.2581
3.3659 -2.3955 -0.2609
3.3602 -2.4024 -0.2645
5.9314 0.6917 1.6785
5.9432 0.7487 1.6181
6.3325 1.3211 1.7374
3.9324 -1.8689 0.4517
3.9053 -1.8973 0.4248
3.8992 -1.8940 0.4034
3.8900 -1.8956 0.3811
3.8926 -1.8783 0.3601
3.8889 -1.8706 0.3376
3.8946 -1.8470 0.3148
3.8912 -1.8377 0.2906
3.8810 -1.8396 0.2661
3.8712 -1.8406 0.2414
3.8629 -1.8389 0.2163
3.8601 -1.8271 0.1897
3.8559 -1.8173 0.1626
3.8470 -1.8157 0.1361
3.8293 -1.8305 0.1125
3.8231 -1.8236 0.0846
3.8166 -1.8168 0.0561
3.8076 -1.8146 0.0283
3.7993 -1.8106 -0.0004
3.7870 -1.8147 -0.0269
3.7841 -1.7984 -0.0609
3.7783 -1.7877 -0.0940
3.7563 -1.8129 -0.1123
3.7528 -1.7961 -0.1489
3.7451 -1.7882 -0.1824
3.7336 -1.7890 -0.2120
3.7216 -1.7907 -0.2414
3.6786 -1.8453 -0.2686
3.6456 -1.9070 -0.2574
3.6300 -1.9226 -0.2741
3.5841 -2.0020 -0.2688
3.5599 -2.0504 -0.2557
3.5447 -2.0718 -0.2617
3.5284 -2.0989 -0.2616
3.5137 -2.1224 -0.2630
3.4992 -2.1474 -0.2617
3.4859 -2.1697 -0.2613
3.4735 -2.1902 -0.2613
3.4620 -2.2090 -0.2619
3.4516 -2.2243 -0.2649
3.4403 -2.2468 -0.2592
3.4219 -2.2745 -0.2635
3.4132 -2.2886 -0.2641
3.4043 -2.3072 -0.2580
3.3965 -2.3195 -0.2590
3.3891 -2.3309 -0.2603
3.3820 -2.3430 -0.2600
3.3753 -2.3534 -0.2612
3.3687 -2.3653 -0.2596
3.3624 -2.3771 -0.2573
3.3566 -2.3850 -0.2602
6.2559 1.2546 1.9932
3.9024 -1.8571 0.4341
3.8870 -1.8684 0.4102
3.8823 -1.8623 0.3885
3.8756 -1.8591 0.3660
3.8779 -1.8406 0.3441
3.8729 -1.8337 0.3207
3.8661 -1.8298 0.2967
3.8606 -1.8231 0.2722
3.8503 -1.8250 0.2476
3.8404 -1.8259 0.2229
3.8334 -1.8213 0.1974
3.8272 -1.8148 0.1712
3.8089 -1.8317 0.1481
3.7882 -1.8540 0.1268
3.7962 -1.8181 0.0940
3.7908 -1.7867 0.0326
3.7798 -1.7880 0.0053
3.7691 -1.7885 -0.0224
3.7540 -1.7989 -0.0467
3.7429 -1.7740 -0.1135
3.7263 -1.7880 -0.1365
3.7161 -1.7859 -0.1665
3.7047 -1.7866 -0.1956
3.6965 -1.7785 -0.2296
3.6772 -1.8011 -0.2469
3.6566 -1.8288 -0.2599
3.6388 -1.8493 -0.2759
3.6140 -1.8939 -0.2749
3.5673 -1.9827 -0.2651
3.5300 -2.0514 -0.2607
3.4996 -2.1047 -0.2612
3.4726 -2.1530 -0.2600
3.4611 -2.1715 -0.2626
3.4498 -2.1915 -0.2627
3.4388 -2.2121 -0.2608
3.4286 -2.2309 -0.2596
3.4194 -2.2455 -0.2619
3.4106 -2.2600 -0.2635
3.4018 -2.2776 -0.2604
3.3930 -2.2983 -0.2525
3.3861 -2.3044 -0.2616
3.3788 -2.3176 -0.2611
3.3719 -2.3300 -0.2609
3.3652 -2.3422 -0.2601
3.3589 -2.3536 -0.2598
3.3530 -2.3625 -0.2622
3.3472 -2.3752 -0.2584
3.3417 -2.3848 -0.2586
3.8773 -1.8519 0.4379
3.8651 -1.8583 0.4149
3.8563 -1.8588 0.3926
3.8658 -1.8270 0.3731
3.8756 -1.7934 0.3519
3.8398 -1.8252 0.3026
3.8317 -1.8231 0.2786
3.8270 -1.8142 0.2541
3.8133 -1.8228 0.2300
3.8096 -1.8112 0.2044
3.7996 -1.8122 0.1794
3.7917 -1.8084 0.1536
3.7854 -1.8009 0.1267
3.7788 -1.7935 0.0992
3.7799 -1.7684 0.0669
3.7689 -1.7697 0.0399
3.7735 -1.7338 0.0020
3.7623 -1.7344 -0.0266
3.9146 -1.2867 -0.2523
3.7074 -1.7613 -0.1325
3.6924 -1.7718 -0.1568
3.6758 -1.7877 -0.1782
3.6664 -1.7828 -0.2096
3.6558 -1.7807 -0.2401
3.6404 -1.7938 -0.2621
3.6168 -1.8351 -0.2662
3.5937 -1.8779 -0.2670
3.5517 -1.9580 -0.2651
3.5343 -1.9893 -0.2672
3.5159 -2.0273 -0.2622
3.5010 -2.0537 -0.2643
3.4850 -2.0877 -0.2586
3.4723 -2.1095 -0.2614
3.4603 -2.1302 -0.2640
3.4367 -2.1779 -0.2593
3.4164 -2.2174 -0.2574
3.4075 -2.2323 -0.2599
3.3991 -2.2454 -0.2634
3.3905 -2.2642 -0.2596
3.3830 -2.2746 -0.2646
3.3754 -2.2907 -0.2621
3.3683 -2.3050 -0.2608
3.3615 -2.3201 -0.2576
3.3551 -2.3317 -0.2580
3.3432 -2.3516 -0.2613
3.3377 -2.3646 -0.2577
3.3324 -2.3752 -0.2568
4.5397 -0.8188 0.8860
4.5180 -0.8260 0.8391
4.5086 -0.8126 0.7976
3.8987 -1.7816 0.4757
3.8704 -1.8157 0.4467
3.8474 -1.8414 0.4205
3.8501 -1.8208 0.4007
3.8490 -1.8063 0.3792
3.8606 -1.7671 0.3585
3.8210 -1.8073 0.3085
3.8153 -1.8001 0.2846
3.8017 -1.8087 0.2606
3.8018 -1.7890 0.2351
3.7930 -1.7869 0.2100
3.7864 -1.7801 0.1840
3.7722 -1.7897 0.1598
3.7757 -1.7589 0.1291
3.7833 -1.7169 0.0944
3.7961 -1.6600 0.0539
3.7962 -1.6311 0.0170
3.8683 -1.2977 -0.2275
3.8482 -1.3093 -0.2644
3.6659 -1.7327 -0.1881
3.6471 -1.7562 -0.2061
3.6345 -1.7603 -0.2333
3.6183 -1.7772 -0.2533
3.5980 -1.8103 -0.2630
3.5761 -1.8521 -0.2653
3.5179 -1.9693 -0.2643
3.5017 -2.0010 -0.2650
3.4841 -2.0439 -0.2552
3.4714 -2.0654 -0.2602
3.4582 -2.0919 -0.2597
3.4455 -2.1200 -0.2564
3.4353 -2.1349 -0.2634
3.4132 -2.1867 -0.2535
3.4042 -2.2020 -0.2569
3.3957 -2.2164 -0.2604
3.3793 -2.2490 -0.2607
3.3718 -2.2630 -0.2620
3.3644 -2.2819 -0.2566
3.3575 -2.2973 -0.2543
3.3511 -2.3101 -0.2543
3.3450 -2.3179 -0.2601
3.3335 -2.3415 -0.2594
3.3281 -2.3515 -0.2604
4.4934 -0.8836 0.9926
4.4613 -0.9095 0.9418
4.4582 -0.8876 0.9077
4.4432 -0.8849 0.8664
3.8817 -1.7606 0.4822
3.8534 -1.7963 0.4529
3.8470 -1.7916 0.4309
3.8430 -1.7819 0.4091
3.8330 -1.7835 0.3856
3.8275 -1.7760 0.3627
3.8203 -1.7716 0.3390
3.8062 -1.7813 0.3147
3.7950 -1.7850 0.2906
3.7916 -1.7717 0.2660
3.7865 -1.7615 0.2408
3.7820 -1.7257 0.1865
3.7987 -1.6607 0.1516
3.8002 -1.6297 0.1183
3.7900 -1.6263 0.0883
3.7947 -1.5840 0.0496
3.7884 -1.5683 0.0148
3.7802 -1.5565 -0.0202
3.8298 -1.3381 -0.1547
3.8924 -1.1044 -0.2746
3.8376 -1.2184 -0.2778
3.7876 -1.3249 -0.2779
3.6302 -1.7199 -0.2071
3.6114 -1.7465 -0.2232
3.5972 -1.7571 -0.2466
3.5818 -1.7732 -0.2666
3.5591 -1.8223 -0.2658
3.5383 -1.8674 -0.2649
3.5031 -1.9401 -0.2676
3.4705 -2.0163 -0.2597
3.4573 -2.0427 -0.2617
3.4448 -2.0689 -0.2624
3.4218 -2.1181 -0.2621
3.4012 -2.1656 -0.2578
3.3920 -2.1856 -0.2572
3.3834 -2.2046 -0.2565
3.3754 -2.2200 -0.2586
3.3678 -2.2335 -0.2617
3.3535 -2.2680 -0.2571
3.3469 -2.2804 -0.2590
3.3407 -2.2985 -0.2531
3.3348 -2.3090 -0.2558
3.3291 -2.3210 -0.2558
3.3235 -2.3280 -0.2618
3.3187 -2.3449 -0.2539
4.5027 -0.8588 1.1229
4.4878 -0.8567 1.0833
4.4734 -0.8536 1.0436
4.4365 -0.8886 0.9893
3.8432 -1.7631 0.4613
3.8474 -1.7364 0.4423
3.8310 -1.7506 0.4167
3.8248 -1.7439 0.3937
3.8189 -1.7362 0.3703
3.8051 -1.7452 0.3455
3.7910 -1.7551 0.3209
3.7964 -1.7209 0.2968
3.7873 -1.7187 0.2714
3.8007 -1.6627 0.2433
3.7899 -1.6628 0.2162
3.7955 -1.6216 0.1849
3.7865 -1.5852 0.1221
3.7759 -1.5817 0.0915
3.7740 -1.5535 0.0555
3.7658 -1.5414 0.0215
3.7559 -1.5333 -0.0124
3.8364 -1.1981 -0.1799
3.8608 -1.0642 -0.2664
3.8168 -1.1513 -0.2810
3.7635 -1.2773 -0.2760
3.7223 -1.3687 -0.2788
3.6842 -1.4556 -0.2787
3.5895 -1.7290 -0.2150
3.5631 -1.7439 -0.2652
3.5223 -1.8343 -0.2681
3.4856 -1.9234 -0.2621
3.4563 -1.9890 -0.2634
3.4309 -2.0455 -0.2649
3.4082 -2.1011 -0.2608
3.3886 -2.1469 -0.2594
3.3799 -2.1655 -0.2609
3.3715 -2.1849 -0.2605
3.3562 -2.2171 -0.2635
3.3491 -2.2369 -0.2595
3.3424 -2.2496 -0.2624
3.3301 -2.2817 -0.2580
3.3190 -2.3098 -0.2548
3.3089 -2.3332 -0.2543
3.8384 -1.6969 0.4516
3.8024 -1.7115 0.3770
3.7923 -1.7121 0.3524
3.7883 -1.6982 0.3283
3.7573 -1.5096 0.0590
3.7294 -1.5566 0.0374
3.7262 -1.5271 -0.0006
3.8316 -1.0137 -0.2613
3.7973 -1.0718 -0.2874
3.7423 -1.2141 -0.2793
3.7044 -1.2995 -0.2867
3.6626 -1.4087 -0.2795
3.6297 -1.4889 -0.2798
3.5896 -1.6101 -0.2561
3.5698 -1.6445 -0.2703
3.5439 -1.7142 -0.2637
3.5251 -1.7528 -0.2712
3.5040 -1.8102 -0.2654
3.4873 -1.8472 -0.2693
3.4703 -1.8915 -0.2664
3.4549 -1.9308 -0.2647
3.4398 -1.9754 -0.2569
3.4274 -2.0038 -0.2588
3.4156 -2.0329 -0.2586
3.3946 -2.0803 -0.2625
3.3849 -2.1042 -0.2623
3.3760 -2.1215 -0.2667
3.3676 -2.1369 -0.2720
3.3591 -2.1685 -0.2610
3.3515 -2.1881 -0.2599
3.3444 -2.2039 -0.2616
3.3376 -2.2224 -0.2597
3.3312 -2.2389 -0.2588
3.3251 -2.2535 -0.2591
3.3190 -2.2627 -0.2649
3.3137 -2.2806 -0.2598
3.3085 -2.2941 -0.2591
3.3038 -2.3100 -0.2545
3.2988 -2.3189 -0.2580
3.2941 -2.3294 -0.2589
3.9489 -1.2940 0.4174
4.1687 -0.5072 0.2207
4.0481 -0.7830 0.1823
3.7534 -1.4632 0.0946
3.7177 -1.4954 0.0368
3.6972 -1.5216 0.0110
3.7182 -1.1567 -0.2797
3.6840 -1.2327 -0.2925
3.6050 -1.4605 -0.2735
3.5506 -1.6043 -0.2724
3.4835 -1.7995 -0.2547
3.4682 -1.8323 -0.2616
3.4536 -1.8648 -0.2669
3.4394 -1.9001 -0.2688
3.4243 -1.9522 -0.2571
3.4122 -1.9831 -0.2580
3.4009 -2.0118 -0.2588
3.3909 -2.0308 -0.2657
3.3714 -2.0835 -0.2643
3.3543 -2.1345 -0.2586
3.3393 -2.1746 -0.2578
3.3259 -2.2086 -0.2589
3.3199 -2.2264 -0.2572
3.3144 -2.2467 -0.2517
3.3082 -2.2524 -0.2615
3.3033 -2.2707 -0.2564
3.2982 -2.2835 -0.2569
3.2934 -2.2961 -0.2568
3.2884 -2.3043 -0.2616
3.2844 -2.3186 -0.2581
4.6080 0.2738 0.7689
4.4681 -0.0006 0.6642
4.0177 -0.9365 0.3729
4.0080 -0.9160 0.3314
4.0079 -0.8666 0.2886
3.8449 -1.2465 0.2187
3.8285 -1.2519 0.1834
3.8138 -1.2520 0.1475
3.8069 -1.2258 0.1082
3.6793 -1.4771 0.0137
3.6651 -1.4818 -0.0169
3.7736 -0.9004 -0.2534
3.7381 -0.9729 -0.2774
3.6918 -1.1032 -0.2779
3.6598 -1.1756 -0.2937
3.5876 -1.3896 -0.2852
3.5308 -1.5623 -0.2748
3.4531 -1.7829 -0.2743
3.4220 -1.8834 -0.2633
3.4084 -1.9307 -0.2558
3.3974 -1.9534 -0.2632
3.3861 -1.9885 -0.2603
3.3575 -2.0683 -0.2614
3.3268 -2.1535 -0.2628
3.3201 -2.1709 -0.2641
3.3029 -2.2289 -0.2561
3.2972 -2.2393 -0.2611
3.2923 -2.2552 -0.2594
3.2875 -2.2692 -0.2590
3.2826 -2.2803 -0.2612
3.2784 -2.2940 -0.2596
3.2741 -2.3050 -0.2608
4.2107 -0.4945 0.6049
3.8954 -1.2429 0.4344
3.7731 -1.2180 0.1194
3.7897 -1.1003 0.0667
3.6644 -1.4159 0.0134
3.6497 -1.4208 -0.0182
3.7039 -0.9403 -0.2665
3.6293 -1.1465 -0.2840
3.5987 -1.2279 -0.2937
3.5372 -1.4258 -0.2858
3.5115 -1.5104 -0.2811
3.4693 -1.6434 -0.2779
3.4482 -1.7314 -0.2596
3.4336 -1.7665 -0.2670
3.4044 -1.8708 -0.2553
3.3923 -1.9070 -0.2558
3.3710 -1.9628 -0.2632
3.3613 -1.9875 -0.2671
3.3435 -2.0520 -0.2593
3.3280 -2.0981 -0.2603
3.3142 -2.1378 -0.2624
3.3021 -2.1779 -0.2599
3.2968 -2.1992 -0.2558
3.2907 -2.2070 -0.2644
3.2864 -2.2299 -0.2566
3.2814 -2.2423 -0.2591
3.2721 -2.2678 -0.2613
3.2643 -2.2948 -0.2589
4.3476 -0.1598 0.8261
4.3342 -0.1341 0.7757
4.1844 -0.4761 0.6638
3.8607 -1.1990 0.4106
3.8410 -1.2155 0.3754
3.8212 -1.2331 0.3406
3.8033 -1.2450 0.3065
3.7859 -1.2557 0.2726
3.7499 -1.2296 0.1677
3.7355 -1.2284 0.1323
3.7451 -1.1291 0.0838
3.7360 -1.1000 0.0411
3.6695 -1.1010 -0.1170
3.6599 -1.0621 -0.1680
3.6683 -0.9162 -0.2531
3.6057 -1.0730 -0.2898
3.5725 -1.1801 -0.2919
3.5143 -1.3816 -0.2861
3.4867 -1.4959 -0.2698
3.4635 -1.5897 -0.2576
3.4468 -1.6343 -0.2654
3.4150 -1.7399 -0.2655
3.4013 -1.7825 -0.2676
3.3654 -1.9125 -0.2597
3.3554 -1.9429 -0.2617
3.3461 -1.9830 -0.2551
3.3292 -2.0286 -0.2625
3.3146 -2.0805 -0.2602
3.2957 -2.1449 -0.2591
3.2896 -2.1589 -0.2635
3.2846 -2.1806 -0.2597
3.2798 -2.1992 -0.2579
3.2750 -2.2148 -0.2582
3.2618 -2.2572 -0.2591
3.2577 -2.2696 -0.2600
4.3371 -0.3134 1.0492
4.3552 -0.2160 1.0282
4.3430 -0.1913 0.9833
4.2876 -0.2784 0.9090
4.2801 -0.2409 0.8666
4.2550 -0.2491 0.8127
4.2470 -0.2097 0.7678
4.1270 -0.4907 0.6676
3.7109 -1.2516 0.1800
3.6953 -1.2567 0.1464
3.7046 -1.0781 0.0516
3.6838 -1.0993 0.0162
3.6663 -1.1051 -0.0214
3.6557 -1.0737 -0.0671
3.6314 -1.1167 -0.0967
3.6117 -1.1355 -0.1309
3.6025 -0.9712 -0.2604
3.5777 -1.0184 -0.2881
3.5439 -1.1456 -0.2849
3.5147 -1.2549 -0.2825
3.4879 -1.3623 -0.2757
3.4646 -1.4552 -0.2701
3.4441 -1.5370 -0.2652
3.4256 -1.6139 -0.2586
3.4114 -1.6453 -0.2717
3.3707 -1.8015 -0.2657
3.3396 -1.9196 -0.2622
3.3307 -1.9492 -0.2639
3.3077 -2.0390 -0.2596
3.3006 -2.0578 -0.2641
3.2941 -2.0794 -0.2654
3.2830 -2.1283 -0.2597
3.2730 -2.1686 -0.2570
3.2676 -2.1816 -0.2611
3.2638 -2.2024 -0.2567
3.2553 -2.2319 -0.2575
3.2509 -2.2436 -0.2602
3.2470 -2.2562 -0.2612
2.9585 0.4612 1.0222
3.0194 0.3348 0.9884
3.0871 0.3340 0.9822
2.9667 0.4959 0.9574
3.0219 0.2940 0.9121
3.6703 1.5155 1.1053
1.5167 -1.9947 0.5468
1.5183 -1.9680 0.5515
1.5200 -1.9401 0.5563
1.5316 -1.8862 0.5651
3.0244 0.2534 0.8368
3.0766 0.1225 0.8095
3.1070 -0.1238 0.7631
1.4997 -1.9897 0.5212
1.5363 -1.9856 0.5194
1.4736 -1.8500 0.5448
2.9661 0.3075 0.7815
3.0310 0.2598 0.7697
3.0880 0.1699 0.7518
3.1522 0.1707 0.7476
1.5133 -2.0041 0.4904
1.4843 -1.8640 0.5107
1.5161 -1.8535 0.5102
2.9776 0.3890 0.7213
3.0293 0.1754 0.6899
3.0974 0.1979 0.6888
3.1566 0.1544 0.6795
3.2131 0.1122 0.6705
3.4315 -1.0658 0.5010
1.5034 -2.0037 0.4629
1.4883 -1.9662 0.4678
1.2835 -1.6446 0.5135
1.3865 -1.6834 0.5040
0.4617 -0.5326 0.6776
2.9720 0.2256 0.6307
3.0276 0.0941 0.6135
3.1097 0.2486 0.6261
3.1859 0.3184 0.6298
1.5017 -2.0085 0.4341
1.4926 -1.8827 0.4453
1.4232 -1.5368 0.4779
0.4476 -0.5319 0.6065
2.8538 -0.8541 0.4735
2.9653 0.0558 0.5464
3.0423 0.1856 0.5542
3.1197 0.2778 0.5586
3.4713 -0.7061 0.4591
3.5156 -0.6915 0.4584
3.5090 -0.8103 0.4486
3.4524 -1.0423 0.4312
3.4770 -1.0586 0.4287
1.3829 -1.5068 0.4404
0.4345 -0.5324 0.5342
0.5774 -0.5791 0.5262
0.9074 1.4424 0.6383
1.0888 1.3223 0.6245
1.3250 1.0304 0.5981
2.1800 1.9889 0.6262
2.3435 1.5704 0.5947
2.4627 1.4540 0.5833
2.5937 0.8968 0.5444
2.6980 0.2137 0.4988
2.8104 -0.9082 0.4259
2.8573 -0.8563 0.4274
2.9681 0.0191 0.4771
3.0513 0.2143 0.4861
3.1215 0.2374 0.4850
3.4491 -1.0652 0.3934
3.4825 -1.0597 0.3925
-0.3537 -0.0243 0.5010
1.1359 1.1971 0.5046
1.3787 0.8801 0.4862
1.4504 0.9959 0.4884
2.2708 1.2663 0.4756
2.4727 1.3811 0.4742
2.6211 0.3739 0.4330
2.7023 0.2198 0.4250
2.8130 -0.9292 0.3796
2.8603 -0.8675 0.3806
3.0629 0.2674 0.4168
3.1318 0.2671 0.4148
3.2103 0.3401 0.4153
3.4735 -1.0953 0.3551
1.3777 -1.7847 0.3519
0.4324 -0.9653 0.3803
0.2786 -0.3057 0.3913
1.1994 1.0318 0.3894
1.4428 0.7024 0.3807
1.4273 1.0568 0.3852
2.3077 0.9874 0.3671
2.4000 1.0593 0.3662
2.4518 1.7693 0.3737
2.6261 0.3548 0.3532
2.7054 0.3014 0.3510
2.7796 0.0873 0.3470
2.8655 -0.8388 0.3341
3.0558 0.1347 0.3422
3.1195 0.1143 0.3407
3.2502 0.5605 0.3435
0.4522 -0.9930 0.3156
0.5893 -1.0323 0.3145
0.2769 -0.2076 0.3073
1.4353 0.7154 0.2821
1.5058 0.8241 0.2799
2.1248 1.5737 0.2631
2.2733 1.3077 0.2649
2.3907 1.2057 0.2649
2.6428 0.0451 0.2772
2.7122 0.1600 0.2749
2.7816 -0.1895 0.2787
2.8237 -0.8055 0.2862
2.8685 -0.8503 0.2863
2.9238 -0.7303 0.2841
3.0603 0.1178 0.2715
3.1267 0.1191 0.2707
3.1825 0.0563 0.2709
3.3007 0.3778 0.2654
3.4285 0.6819 0.2600
3.4500 -1.0277 0.2820
0.4053 -0.8962 0.2471
0.4884 -0.8097 0.2435
0.4360 -0.6786 0.2386
1.0765 1.3132 0.1600
1.3193 1.0147 0.1708
1.4703 0.9204 0.1740
1.5988 0.8724 0.1755
1.6507 1.0745 0.1675
1.6399 1.5591 0.1489
1.7820 1.4877 0.1512
1.9271 1.3699 0.1553
2.0623 1.2596 0.1592
2.2006 1.0708 0.1660
2.2801 1.2820 0.1577
2.3973 1.1808 0.1612
2.6392 0.2390 0.1968
2.7169 0.1421 0.2003
2.7836 -0.3897 0.2205
2.8308 -0.7075 0.2326
2.8765 -0.7795 0.2353
2.9290 -0.7192 0.2328
3.0410 -0.1210 0.2094
3.1284 0.0809 0.2014
3.1899 0.0604 0.2020
3.2499 0.0414 0.2026
3.3370 0.1701 0.1973
3.4820 0.5426 0.1826
3.4826 -0.9615 0.2405
3.5531 -0.8737 0.2369
0.1888 -0.5633 0.1558
0.2447 -0.5193 0.1533
1.3507 1.2585 0.0451
2.1073 1.7428 0.0182
2.6451 0.1961 0.1206
2.7211 0.1721 0.1226
2.7894 -0.2562 0.1505
2.8866 -0.6792 0.1782
2.9248 -0.8183 0.1873
3.0335 -0.6874 0.1795
3.2420 -0.5855 0.1741
3.2901 -0.5803 0.1741
3.5539 -0.8000 0.1896
1.4039 -1.8671 0.2107
1.3756 -1.8117 0.2053
-0.7339 0.0946 0.0031
-0.2631 -0.1895 0.0354
1.1870 1.3474 -0.0830
1.4037 1.4793 -0.0918
1.6262 1.6142 -0.1009
1.8202 1.3291 -0.0724
2.0341 1.4537 -0.0806
2.1614 1.3885 -0.0729
2.6473 0.2521 0.0367
2.7259 0.1539 0.0467
2.8028 0.3564 0.0295
2.9480 -0.6005 0.1180
2.9804 -0.7713 0.1339
3.0181 -0.8385 0.1405
3.0781 -0.7391 0.1324
3.1153 -0.7873 0.1373
3.1895 -0.6387 0.1249
3.5175 0.6196 0.0158
3.4573 -0.9706 0.1587
3.5418 -0.8473 0.1487
3.5652 -0.8777 0.1518
3.5809 -0.9956 0.1627
1.3718 -1.8868 0.1761
1.3746 -1.8543 0.1724
1.3780 -1.8205 0.1685
0.2754 -0.5757 -0.0022
1.0056 1.1405 -0.1861
1.0335 1.3868 -0.2142
1.5180 0.7656 -0.1305
1.5086 1.1440 -0.1750
1.7070 0.8721 -0.1387
1.8495 1.2047 -0.1743
1.9858 1.1010 -0.1590
2.0668 1.2763 -0.1777
2.1755 1.3122 -0.1794
2.3005 1.2048 -0.1640
2.3971 1.3346 -0.1769
2.5563 0.5155 -0.0775
2.6514 0.2592 -0.0454
2.7303 0.1840 -0.0348
2.8112 0.5384 -0.0744
2.9002 0.6932 -0.0904
2.9747 0.5322 -0.0699
3.0187 -0.4745 0.0488
3.0400 -0.7120 0.0770
3.3110 0.2574 -0.0301
3.4038 0.3807 -0.0424
3.4786 0.4054 -0.0436
3.4631 -0.9719 0.1171
3.5032 -0.9587 0.1164
3.5364 -0.9615 0.1175
3.5656 -0.9719 0.1194
3.5938 -0.9826 0.1213
3.6252 -0.9849 0.1223
1.3506 -1.8454 0.1332
1.3915 -1.8371 0.1333
0.4899 -0.7798 -0.0473
-0.0414 0.3127 -0.2212
0.0303 0.3824 -0.2289
0.3352 0.6766 -0.2615
0.5240 0.5912 -0.2433
0.6039 0.6657 -0.2514
0.9639 0.6902 -0.2435
1.0867 0.6846 -0.2388
1.0758 0.9720 -0.2805
1.5639 0.6283 -0.2156
1.6248 0.7740 -0.2346
1.7364 0.7679 -0.2302
1.8552 0.7243 -0.2202
1.9607 0.7194 -0.2161
2.0642 0.7137 -0.2120
2.2267 0.9724 -0.2440
2.3450 0.8460 -0.2221
2.4309 0.9968 -0.2411
2.5439 0.7965 -0.2087
2.6565 0.2400 -0.1251
2.7343 0.2919 -0.1301
2.8093 0.1177 -0.1027
2.9598 0.2144 -0.1118
3.0024 -0.1107 -0.0637
3.0174 -0.5308 -0.0029
3.1266 -0.1252 -0.0577
3.4472 0.9508 -0.2022
3.4196 0.4152 -0.1261
3.5278 0.5806 -0.1464
3.8683 1.6475 -0.2890
4.0149 1.8393 -0.3119
4.1552 1.9871 -0.3287
3.5193 -0.9358 0.0712
3.5563 -0.9309 0.0717
3.5897 -0.9335 0.0732
3.6299 -0.9203 0.0725
3.6659 -0.9158 0.0730
0.3723 -0.8581 -0.1136
0.4766 -0.8643 -0.1083
0.5452 -0.8416 -0.1094
0.6614 -0.8626 -0.1011
0.5138 -0.6347 -0.1460
0.5342 -0.5562 -0.1586
0.4972 -0.4125 -0.1847
0.4130 -0.2053 -0.2235
0.2639 0.0949 -0.2809
0.3839 0.0960 -0.2762
0.4540 0.1576 -0.2839
0.5491 0.1889 -0.2854
0.6661 0.1890 -0.2806
0.8197 0.1305 -0.2644
0.9110 0.1606 -0.2658
0.9848 0.2203 -0.2730
1.0770 0.2507 -0.2744
1.2005 0.2207 -0.2643
1.3194 0.1913 -0.2544
1.3812 0.2802 -0.2671
1.4458 0.3722 -0.2802
1.5380 0.4026 -0.2817
1.6413 0.4013 -0.2772
1.7526 0.3684 -0.2671
1.8238 0.4615 -0.2801
1.9068 0.5242 -0.2874
1.9989 0.5546 -0.2889
2.0842 0.6201 -0.2966
2.1715 0.6853 -0.3042
2.2755 0.6457 -0.2932
2.3715 0.6420 -0.2887
2.4599 0.7065 -0.2961
2.5500 0.7736 -0.3039
2.6476 0.6634 -0.2811
2.7388 0.3826 -0.2294
2.8165 0.2210 -0.1986
2.8888 0.1482 -0.1832
2.9475 -0.0498 -0.1470
2.9851 -0.3565 -0.0930
3.0327 -0.4448 -0.0760
3.1418 -0.0637 -0.1367
3.3796 0.5377 -0.2298
3.4301 0.4233 -0.2082
3.4825 0.3439 -0.1925
3.6123 0.5873 -0.2288
3.7524 0.8342 -0.2653
3.4019 -0.8721 0.0121
3.4203 -0.9284 0.0225
3.4789 -0.8706 0.0150
3.5187 -0.8648 0.0156
-0.2450 -0.6506 -0.2604
-0.0165 -0.7332 -0.2326
0.2499 -0.8540 -0.1953
0.2017 -0.7346 -0.2214
0.3163 -0.7433 -0.2140
0.3899 -0.7191 -0.2152
0.6499 -0.8647 -0.1733
0.4438 -0.5815 -0.2398
0.4628 -0.4988 -0.2552
0.5603 -0.4925 -0.2516
0.7580 -0.5977 -0.2209
0.7673 -0.4997 -0.2399
0.8227 -0.3265 -0.2715
0.9188 -0.3217 -0.2677
1.0136 -0.3173 -0.2639
1.1205 -0.3337 -0.2553
1.3404 -0.2354 -0.2638
1.4409 -0.2529 -0.2554
1.5176 -0.2276 -0.2566
1.5943 -0.2023 -0.2578
1.6978 -0.2415 -0.2448
1.7803 -0.2370 -0.2416
1.8322 -0.1487 -0.2566
1.9222 -0.1675 -0.2483
2.0152 -0.2060 -0.2361
2.0660 -0.0953 -0.2555
2.1205 0.0218 -0.2760
2.2125 -0.0233 -0.2625
2.2923 -0.0207 -0.2591
2.3545 0.0989 -0.2797
2.4326 0.1246 -0.2809
2.5167 0.0770 -0.2673
2.5900 0.1507 -0.2783
2.6834 -0.3585 -0.1725
2.7469 -0.3706 -0.1670
2.8098 -0.3334 -0.1712
2.8653 -0.4720 -0.1409
2.9179 -0.5394 -0.1249
2.9706 -0.5623 -0.1178
3.0246 -0.5579 -0.1160
3.0819 -0.5256 -0.1195
3.3418 -0.0341 -0.2041
3.4755 0.2753 -0.2589
3.3548 -0.7867 -0.0541
3.4047 -0.7609 -0.0567
3.4174 -0.8455 -0.0393
3.4294 -0.9211 -0.0237
3.4750 -0.8988 -0.0258
3.5215 -0.8753 -0.0282
3.5386 -0.9223 -0.0180
4.1019 -0.0644 -0.1603
0.2003 -1.0504 -0.2309
0.5289 -1.2128 -0.1747
0.3345 -1.0061 -0.2330
0.3482 -0.9432 -0.2465
0.3631 -0.8777 -0.2604
0.3786 -0.8091 -0.2750
0.4684 -0.8010 -0.2716
0.6227 -0.8527 -0.2507
0.7950 -0.9282 -0.2235
0.7748 -0.8220 -0.2487
0.7994 -0.7544 -0.2626
0.8250 -0.6835 -0.2771
0.9248 -0.6926 -0.2692
0.9950 -0.6694 -0.2703
1.0781 -0.6626 -0.2669
1.1355 -0.6232 -0.2725
1.2175 -0.6166 -0.2691
1.2759 -0.5769 -0.2747
1.3568 -0.5707 -0.2713
1.4561 -0.5975 -0.2594
1.4962 -0.5248 -0.2735
1.5567 -0.4843 -0.2791
1.6441 -0.4965 -0.2711
1.6971 -0.4380 -0.2813
1.7749 -0.4329 -0.2778
1.8516 -0.4281 -0.2744
1.9268 -0.4228 -0.2711
1.9898 -0.3825 -0.2765
2.0743 -0.4131 -0.2646
2.1327 -0.3549 -0.2744
2.2055 -0.3504 -0.2711
2.2736 -0.3280 -0.2722
2.3323 -0.2492 -0.2865
2.4047 -0.2458 -0.2830
2.4717 -0.2032 -0.2887
2.5430 -0.2002 -0.2852
2.6213 -0.3436 -0.2481
2.6861 -0.3222 -0.2491
2.7505 -0.1902 -0.2752
2.8622 -0.6262 -0.1699
2.9280 -0.4671 -0.2020
2.9796 -0.5208 -0.1868
3.0439 -0.4432 -0.2006
3.1031 -0.7446 -0.1288
3.3137 -0.2005 -0.2397
3.3185 -0.4224 -0.1891
3.3113 -0.8134 -0.1010
3.3399 -0.8573 -0.0893
3.3758 -0.8711 -0.0841
3.4172 -0.8657 -0.0829
3.4778 -0.9093 -0.0694
3.5065 -0.9296 -0.0631
3.5449 -0.9241 -0.0621
3.6100 -0.8575 -0.0734
4.0808 -0.0276 -0.2335
4.0635 -0.1635 -0.2038
0.4727 -1.2473 -0.2352
0.5031 -1.2067 -0.2434
0.6148 -1.0905 -0.2654
0.6919 -1.0814 -0.2625
0.7407 -1.0490 -0.2674
0.7904 -1.0163 -0.2723
0.9051 -1.0437 -0.2575
0.9784 -1.0348 -0.2548
1.0396 -1.0146 -0.2557
1.1117 -1.0061 -0.2530
1.1837 -0.9987 -0.2499
1.2442 -0.9787 -0.2509
1.3046 -0.9588 -0.2518
1.3921 -0.9748 -0.2418
1.4255 -0.9190 -0.2537
1.4685 -0.8732 -0.2624
1.5378 -0.8657 -0.2596
1.6362 -0.9086 -0.2420
1.7019 -0.9012 -0.2393
1.7340 -0.8315 -0.2549
1.8541 -0.7919 -0.2568
1.9254 -0.7990 -0.2501
1.9944 -0.8048 -0.2439
2.0575 -0.7982 -0.2413
2.1197 -0.7920 -0.2386
2.1810 -0.7850 -0.2362
2.2384 -0.7661 -0.2371
2.2900 -0.7216 -0.2449
2.3429 -0.6756 -0.2530
2.3947 -0.6137 -0.2652
2.4588 -0.6232 -0.2585
2.5133 -0.5604 -0.2707
2.5713 -0.5097 -0.2797
2.6366 -0.5646 -0.2612
2.6958 -0.5450 -0.2622
2.7551 -0.5398 -0.2595
2.8086 -0.7319 -0.2068
2.8692 -0.5724 -0.2433
2.9284 -0.5254 -0.2513
2.9877 -0.4916 -0.2558
3.0458 -0.4724 -0.2567
3.1062 -0.4383 -0.2613
3.1401 -0.5615 -0.2276
3.1499 -0.7742 -0.1727
3.2141 -0.6899 -0.1898
3.2486 -0.7416 -0.1743
3.2704 -0.8302 -0.1502
3.3114 -0.8350 -0.1462
3.3609 -0.8095 -0.1493
3.4074 -0.7942 -0.1500
3.4504 -0.7892 -0.1484
3.4818 -0.8145 -0.1398
3.5699 -0.8822 -0.1165
3.6085 -0.8776 -0.1150
3.6685 -0.9016 -0.1048
3.6843 -0.9392 -0.0941
0.5911 -1.3385 -0.2659
0.6610 -1.3287 -0.2633
0.7052 -1.3009 -0.2677
0.7623 -1.2821 -0.2686
0.8311 -1.2726 -0.2660
0.9221 -1.2820 -0.2562
0.9778 -1.2637 -0.2571
1.0334 -1.2453 -0.2580
1.0891 -1.2270 -0.2588
1.1347 -1.1988 -0.2633
1.1907 -1.1803 -0.2641
1.2467 -1.1619 -0.2650
1.3207 -1.1638 -0.2587
1.3840 -1.1550 -0.2563
1.4390 -1.1369 -0.2571
1.4867 -1.1091 -0.2613
1.5420 -1.0908 -0.2622
1.5755 -1.0404 -0.2739
1.6318 -1.0218 -0.2748
1.6882 -1.0032 -0.2756
1.7507 -0.9957 -0.2729
1.8067 -0.9773 -0.2738
1.8789 -0.9919 -0.2640
1.9339 -0.9738 -0.2649
1.9934 -0.9663 -0.2624
2.0308 -0.9034 -0.2773
2.0951 -0.9085 -0.2708
2.1539 -0.9013 -0.2683
2.2057 -0.8721 -0.2726
2.2610 -0.8538 -0.2734
2.3163 -0.8356 -0.2743
2.3738 -0.8288 -0.2717
2.4307 -0.8221 -0.2692
2.4838 -0.7925 -0.2735
2.5362 -0.7500 -0.2815
2.5938 -0.7563 -0.2752
2.6494 -0.7501 -0.2726
2.7021 -0.6558 -0.2952
2.7587 -0.7980 -0.2505
2.8065 -0.9491 -0.2040
2.8674 -0.6914 -0.2723
2.9247 -0.6350 -0.2838
2.9787 -0.6294 -0.2812
3.0337 -0.6113 -0.2821
3.0887 -0.5931 -0.2829
3.1390 -0.6018 -0.2765
3.1712 -0.6954 -0.2475
3.1885 -0.8333 -0.2071
3.2413 -0.7966 -0.2133
3.2787 -0.8217 -0.2033
3.3173 -0.8363 -0.1962
3.3639 -0.8209 -0.1969
3.4105 -0.8056 -0.1976
3.4534 -0.8005 -0.1957
3.4921 -0.8060 -0.1912
3.5265 -0.8199 -0.1845
3.5558 -0.8436 -0.1755
3.7013 -0.8503 -0.1623
1.0698 -1.4128 -0.2638
1.1211 -1.3959 -0.2646
1.1724 -1.3790 -0.2654
1.2324 -1.3703 -0.2629
1.2911 -1.3610 -0.2607
1.3575 -1.3602 -0.2551
1.4148 -1.3513 -0.2529
1.4723 -1.3434 -0.2504
1.5219 -1.3271 -0.2511
1.5779 -1.3187 -0.2489
1.6144 -1.2856 -0.2560
1.6584 -1.2610 -0.2599
1.7365 -1.2855 -0.2454
1.8195 -1.2290 -0.2558
1.8691 -1.2126 -0.2566
1.9186 -1.1963 -0.2573
1.9763 -1.1964 -0.2523
2.0373 -1.2064 -0.2438
2.0819 -1.1816 -0.2476
2.1270 -1.1567 -0.2515
2.1822 -1.1586 -0.2461
2.2246 -1.1245 -0.2530
2.2761 -1.1176 -0.2507
2.3247 -1.1016 -0.2514
2.3690 -1.0669 -0.2584
2.4218 -1.0696 -0.2530
2.4687 -1.0441 -0.2568
2.5227 -1.0655 -0.2454
2.5694 -1.0400 -0.2493
2.6160 -1.0056 -0.2560
2.6631 -0.9610 -0.2658
2.7126 -0.9537 -0.2638
2.7616 -0.9576 -0.2583
2.8096 -0.9608 -0.2531
2.8616 -0.8744 -0.2755
2.9131 -0.8374 -0.2826
2.9613 -0.8415 -0.2771
3.0071 -0.8566 -0.2684
3.0611 -0.8087 -0.2787
3.1070 -0.8146 -0.2728
3.1479 -0.8403 -0.2612
3.1872 -0.8645 -0.2502
3.2320 -0.8587 -0.2480
3.2818 -0.8333 -0.2516
3.3320 -0.8077 -0.2553
3.3795 -0.7921 -0.2560
3.4203 -0.7967 -0.2510
3.4673 -0.7812 -0.2517
3.5221 -0.7450 -0.2582
3.5697 -0.7294 -0.2590
3.6264 -0.6916 -0.2658
3.6892 -0.6418 -0.2759
3.7225 -0.6599 -0.2673
3.7547 -0.6774 -0.2590
1.2418 -1.7487 -0.1892
1.2896 -1.7399 -0.1875
1.2133 -1.6394 -0.2294
1.3136 -1.6681 -0.2098
1.2587 -1.5218 -0.2652
1.3058 -1.5063 -0.2660
1.3600 -1.4974 -0.2637
1.3929 -1.4685 -0.2704
1.4469 -1.4597 -0.2682
1.4940 -1.4442 -0.2689
1.5535 -1.4425 -0.2637
1.6060 -1.4342 -0.2614
1.6294 -1.3906 -0.2741
1.7042 -1.4108 -0.2599
1.7813 -1.3585 -0.2703
1.8514 -1.3792 -0.2564
1.9097 -1.3849 -0.2488
2.0037 -1.3629 -0.2472
2.1286 -1.2968 -0.2577
2.1620 -1.2509 -0.2701
2.2084 -1.2356 -0.2709
2.2573 -1.2285 -0.2686
2.3516 -1.2064 -0.2670
2.3956 -1.1829 -0.2707
2.4417 -1.1677 -0.2714
2.4904 -1.1686 -0.2664
2.6280 -1.1322 -0.2655
2.6730 -1.1084 -0.2693
2.7181 -1.0676 -0.2788
2.7643 -1.0703 -0.2734
2.8110 -1.0280 -0.2834
2.8560 -1.0401 -0.2748
2.9034 -1.0065 -0.2817
2.9477 -1.0099 -0.2763
2.9973 -0.9666 -0.2863
3.0424 -0.9607 -0.2839
3.0888 -0.9454 -0.2846
3.1351 -0.9302 -0.2854
3.1814 -0.9149 -0.2861
3.2278 -0.8996 -0.2868
3.2741 -0.8843 -0.2875
3.3263 -0.8492 -0.2945
3.3731 -0.8338 -0.2952
3.4097 -0.8486 -0.2866
3.4521 -0.8436 -0.2842
3.5097 -0.7977 -0.2943
3.5562 -0.7824 -0.2950
3.5984 -0.7774 -0.2926
3.6402 -0.7726 -0.2902
3.6723 -0.7880 -0.2818
3.6945 -0.8215 -0.2682
1.1529 -1.7394 -0.2482
1.2032 -1.7308 -0.2461
1.2722 -1.7358 -0.2368
1.3072 -1.7173 -0.2399
1.4048 -1.7465 -0.2186
1.4089 -1.7045 -0.2338
1.3949 -1.6448 -0.2575
1.4624 -1.6522 -0.2475
1.5101 -1.6435 -0.2457
1.5297 -1.6083 -0.2567
1.6357 -1.6021 -0.2477
1.6576 -1.5661 -0.2587
1.7102 -1.5637 -0.2540
1.7753 -1.5778 -0.2417
1.8075 -1.5524 -0.2478
1.8410 -1.5275 -0.2534
1.8869 -1.5192 -0.2516
1.9510 -1.5397 -0.2371
1.9847 -1.5147 -0.2428
2.0192 -1.4895 -0.2485
2.0545 -1.4640 -0.2542
2.1111 -1.4800 -0.2422
2.1469 -1.4553 -0.2475
2.1882 -1.4417 -0.2482
2.2295 -1.4281 -0.2488
2.2682 -1.4074 -0.2524
2.3097 -1.3937 -0.2530
2.3656 -1.4298 -0.2336
2.3976 -1.3855 -0.2467
2.4299 -1.3333 -0.2627
2.4808 -1.3651 -0.2454
2.5194 -1.3385 -0.2512
2.5598 -1.3192 -0.2540
2.6010 -1.3056 -0.2546
2.6428 -1.2978 -0.2531
2.6846 -1.2979 -0.2486
2.7252 -1.2776 -0.2518
2.7662 -1.2512 -0.2572
2.8075 -1.2376 -0.2579
2.8497 -1.2088 -0.2641
2.8895 -1.2165 -0.2570
2.9346 -1.1670 -0.2706
2.9777 -1.1458 -0.2738
3.0224 -1.1163 -0.2800
3.0637 -1.1096 -0.2781
3.1062 -1.0956 -0.2788
3.1870 -1.0838 -0.2745
3.2357 -1.0460 -0.2834
3.2885 -0.9979 -0.2956
3.3263 -1.0012 -0.2903
3.3724 -0.9781 -0.2940
3.4095 -0.9807 -0.2890
3.4424 -0.9927 -0.2811
3.4847 -0.9787 -0.2817
3.5381 -0.9383 -0.2911
3.5810 -0.9242 -0.2917
3.5736 -1.0187 -0.2573
3.5950 -1.1106 -0.2208
3.6910 -0.9859 -0.2570
1.2206 -1.8306 -0.2515
1.2402 -1.8045 -0.2597
1.2804 -1.7913 -0.2603
1.3340 -1.7874 -0.2556
1.3609 -1.7648 -0.2616
1.4245 -1.7693 -0.2523
1.4640 -1.7563 -0.2529
1.4984 -1.7391 -0.2558
1.5381 -1.7260 -0.2564
1.5675 -1.7035 -0.2620
1.6075 -1.6903 -0.2627
1.6572 -1.6867 -0.2583
1.6969 -1.6736 -0.2589
1.7187 -1.6409 -0.2695
1.7762 -1.6475 -0.2602
1.8077 -1.6243 -0.2658
1.8477 -1.6111 -0.2664
1.8762 -1.5821 -0.2748
1.9206 -1.5743 -0.2727
1.9715 -1.5772 -0.2656
2.0114 -1.5641 -0.2662
2.1653 -1.4996 -0.2742
2.2545 -1.4957 -0.2653
2.2922 -1.4774 -0.2682
2.3301 -1.4590 -0.2712
2.3780 -1.4737 -0.2597
2.4187 -1.4672 -0.2575
2.4536 -1.4370 -0.2656
2.4883 -1.4000 -0.2764
2.5700 -1.3858 -0.2726
2.6516 -1.3904 -0.2612
2.6905 -1.3776 -0.2618
2.7684 -1.3145 -0.2780
2.8076 -1.3203 -0.2711
2.8478 -1.2943 -0.2769
2.8863 -1.2943 -0.2724
2.9286 -1.2548 -0.2833
2.9660 -1.2612 -0.2764
3.0065 -1.2420 -0.2794
3.0474 -1.2226 -0.2824
3.0888 -1.2021 -0.2858
3.1320 -1.1750 -0.2917
3.1636 -1.1961 -0.2795
3.2031 -1.1830 -0.2801
3.2404 -1.1776 -0.2779
3.2843 -1.1504 -0.2837
3.3290 -1.1229 -0.2896
3.3690 -1.1097 -0.2902
3.3951 -1.1325 -0.2780
3.4431 -1.0981 -0.2862
3.4798 -1.0918 -0.2844
3.4997 -1.1226 -0.2697
3.4862 -1.2214 -0.2315
3.5159 -1.2224 -0.2276
3.6974 -0.9887 -0.3005
1.3284 -1.9052 -0.2505
1.3654 -1.8930 -0.2511
1.4082 -1.8847 -0.2492
1.4346 -1.8653 -0.2543
1.4966 -1.8712 -0.2438
1.5384 -1.8633 -0.2419
1.5502 -1.8321 -0.2540
1.5779 -1.8122 -0.2591
1.6201 -1.8042 -0.2572
1.6833 -1.8155 -0.2442
1.7233 -1.8072 -0.2427
1.7594 -1.7953 -0.2433
1.7841 -1.7716 -0.2504
1.8240 -1.7633 -0.2490
1.8532 -1.7430 -0.2541
1.8936 -1.7355 -0.2522
1.9368 -1.7320 -0.2482
1.9539 -1.6941 -0.2624
1.9938 -1.6859 -0.2609
2.0921 -1.7013 -0.2417
2.1371 -1.7059 -0.2340
2.1634 -1.6778 -0.2428
2.1944 -1.6568 -0.2480
2.2265 -1.6365 -0.2527
2.2663 -1.6331 -0.2491
2.3060 -1.6308 -0.2451
2.3432 -1.6234 -0.2435
2.3773 -1.6073 -0.2462
2.4117 -1.5910 -0.2488
2.4475 -1.5792 -0.2494
2.4843 -1.5720 -0.2479
2.5190 -1.5557 -0.2505
2.5508 -1.5189 -0.2624
2.5906 -1.5321 -0.2516
2.6288 -1.5439 -0.2417
2.6625 -1.5132 -0.2506
2.6970 -1.4755 -0.2626
2.7333 -1.4587 -0.2653
2.7695 -1.4731 -0.2544
2.8050 -1.4712 -0.2508
2.8408 -1.4545 -0.2534
2.8779 -1.4266 -0.2608
2.9140 -1.4147 -0.2613
2.9456 -1.4346 -0.2487
2.9888 -1.3744 -0.2693
3.0232 -1.3739 -0.2652
3.0668 -1.3273 -0.2798
3.1011 -1.3267 -0.2757
3.1379 -1.3146 -0.2763
3.1680 -1.3261 -0.2674
3.2099 -1.2957 -0.2753
3.2426 -1.2957 -0.2711
3.2748 -1.2958 -0.2670
3.3063 -1.2961 -0.2628
3.3399 -1.2899 -0.2612
3.3830 -1.2601 -0.2687
3.4299 -1.2232 -0.2787
3.4578 -1.2306 -0.2720
3.4826 -1.2429 -0.2635
3.5154 -1.2370 -0.2619
3.5700 -1.1878 -0.2763
1.3731 -1.9729 -0.2552
1.4019 -1.9576 -0.2583
1.4521 -1.9556 -0.2523
1.4673 -1.9313 -0.2616
1.5177 -1.9301 -0.2552
1.5525 -1.9186 -0.2557
1.5954 -1.9132 -0.2523
1.6257 -1.8984 -0.2551
1.6478 -1.8766 -0.2622
1.6665 -1.8510 -0.2715
1.7267 -1.8612 -0.2584
1.7493 -1.8383 -0.2660
1.7845 -1.8267 -0.2666
1.8312 -1.8268 -0.2601
1.8687 -1.8183 -0.2589
2.0133 -1.7803 -0.2566
2.0450 -1.7650 -0.2594
2.0796 -1.7536 -0.2599
2.2526 -1.6966 -0.2626
2.2890 -1.6895 -0.2609
2.3251 -1.6824 -0.2592
2.5052 -1.6637 -0.2431
2.6008 -1.6012 -0.2591
2.6349 -1.5900 -0.2596
2.6692 -1.5825 -0.2583
2.7370 -1.5515 -0.2634
2.7713 -1.5305 -0.2685
2.8055 -1.5240 -0.2668
2.8395 -1.5177 -0.2650
2.8733 -1.5114 -0.2633
2.9428 -1.4788 -0.2689
2.9780 -1.4623 -0.2717
3.0114 -1.4561 -0.2700
3.0491 -1.4292 -0.2773
3.0839 -1.4177 -0.2779
3.1186 -1.4063 -0.2784
3.1518 -1.4002 -0.2767
3.1893 -1.3791 -0.2813
3.2209 -1.3774 -0.2778
3.2609 -1.3507 -0.2847
3.2959 -1.3391 -0.2852
3.3308 -1.3276 -0.2858
3.3635 -1.3217 -0.2840
3.4037 -1.2978 -0.2896
3.4331 -1.2987 -0.2851
3.4679 -1.2873 -0.2857
3.5005 -1.2804 -0.2844
3.5406 -1.2585 -0.2891
1.5600 -2.1158 -0.1968
1.4834 -2.0142 -0.2587
1.5515 -2.0254 -0.2430
1.5875 -2.0173 -0.2417
1.6110 -2.0009 -0.2463
1.6479 -1.9936 -0.2445
1.6719 -1.9770 -0.2492
1.6930 -1.9576 -0.2557
1.7511 -1.9298 -0.2609
1.7912 -1.9252 -0.2573
1.8239 -1.9144 -0.2578
1.8691 -1.9159 -0.2504
1.9049 -1.9089 -0.2485
1.9248 -1.8850 -0.2575
1.9633 -1.8810 -0.2538
2.0063 -1.8831 -0.2463
2.0334 -1.8665 -0.2506
2.0747 -1.8683 -0.2436
2.1042 -1.8547 -0.2459
2.1381 -1.8474 -0.2446
2.1659 -1.8305 -0.2488
2.1940 -1.8136 -0.2531
2.2350 -1.8193 -0.2442
2.2633 -1.8023 -0.2484
2.2920 -1.7851 -0.2527
2.3269 -1.7813 -0.2494
2.3587 -1.7708 -0.2499
2.3880 -1.7535 -0.2542
2.4223 -1.7499 -0.2509
2.4572 -1.7499 -0.2457
2.4868 -1.7324 -0.2500
2.5193 -1.7256 -0.2486
2.5509 -1.7152 -0.2491
2.5819 -1.7011 -0.2515
2.6132 -1.6869 -0.2539
2.6453 -1.6802 -0.2525
2.6779 -1.6819 -0.2468
2.7086 -1.6555 -0.2554
2.7404 -1.6488 -0.2540
2.7721 -1.6423 -0.2526
2.8042 -1.6201 -0.2588
2.8363 -1.6057 -0.2612
2.8680 -1.5991 -0.2598
2.8994 -1.5926 -0.2584
2.9312 -1.5821 -0.2589
2.9637 -1.5675 -0.2613
2.9940 -1.5652 -0.2579
3.0294 -1.5382 -0.2661
3.0585 -1.5402 -0.2609
3.0914 -1.5255 -0.2633
3.1245 -1.5107 -0.2657
3.1566 -1.5001 -0.2662
3.1857 -1.4982 -0.2628
3.2175 -1.4877 -0.2633
3.2943 -1.4336 -0.2789
3.3467 -1.4413 -0.2673
3.3724 -1.4444 -0.2619
3.4105 -1.4203 -0.2683
3.4522 -1.3902 -0.2770
3.4822 -1.3842 -0.2756
3.5144 -1.3735 -0.2761
1.5922 -2.1398 -0.2133
1.5567 -2.0933 -0.2436
1.5625 -2.0685 -0.2558
1.5976 -2.0607 -0.2543
1.6178 -2.0436 -0.2602
1.6595 -2.0403 -0.2553
1.6941 -2.0327 -0.2538
1.7151 -2.0153 -0.2597
1.7489 -2.0070 -0.2587
1.7774 -1.9948 -0.2607
1.8085 -1.9845 -0.2612
1.8483 -1.9819 -0.2562
1.8610 -1.9548 -0.2685
1.9331 -1.9435 -0.2631
1.9663 -1.9354 -0.2621
1.9973 -1.9251 -0.2626
2.0309 -1.9179 -0.2611
2.0643 -1.9107 -0.2596
2.0905 -1.8944 -0.2641
2.1281 -1.8935 -0.2586
2.1511 -1.8716 -0.2665
2.1822 -1.8613 -0.2670
2.2134 -1.8511 -0.2675
2.2493 -1.8497 -0.2625
2.2835 -1.8461 -0.2590
2.3462 -1.8292 -0.2580
2.5315 -1.7786 -0.2553
2.5631 -1.7759 -0.2518
2.5942 -1.7723 -0.2487
2.6511 -1.7249 -0.2647
2.6820 -1.7186 -0.2632
2.7431 -1.7060 -0.2601
2.7734 -1.6989 -0.2591
2.8042 -1.6744 -0.2671
2.8357 -1.6526 -0.2737
2.8655 -1.6542 -0.2681
2.8971 -1.6362 -0.2726
2.9268 -1.6340 -0.2691
2.9595 -1.6118 -0.2756
2.9919 -1.5945 -0.2797
3.0223 -1.5873 -0.2786
3.0513 -1.5853 -0.2750
3.0833 -1.5710 -0.2776
3.1143 -1.5608 -0.2780
3.1398 -1.5676 -0.2704
3.1689 -1.5619 -0.2688
3.2056 -1.5345 -0.2775
3.2673 -1.5142 -0.2784
3.3000 -1.4996 -0.2810
3.3344 -1.4815 -0.2850
3.3619 -1.4792 -0.2819
3.3928 -1.4690 -0.2824
3.4169 -1.4725 -0.2767
3.4523 -1.4532 -0.2813
1.6155 -2.1332 -0.2468
1.6445 -2.1236 -0.2473
1.6555 -2.1029 -0.2570
1.7024 -2.1045 -0.2482
1.7115 -2.0816 -0.2595
1.7576 -2.0835 -0.2506
1.7956 -2.0804 -0.2459
1.8304 -2.0756 -0.2427
1.8557 -2.0635 -0.2453
1.8763 -2.0472 -0.2509
1.9107 -2.0425 -0.2477
1.9524 -2.0448 -0.2393
1.9807 -2.0355 -0.2398
2.0063 -2.0233 -0.2423
2.0347 -2.0139 -0.2427
2.0482 -1.9877 -0.2552
2.0916 -1.9952 -0.2436
2.1164 -1.9813 -0.2472
2.1411 -1.9666 -0.2513
2.1737 -1.9624 -0.2481
2.2038 -1.9553 -0.2470
2.2289 -1.9404 -0.2511
2.2641 -1.9421 -0.2442
2.2951 -1.9376 -0.2415
2.3191 -1.9202 -0.2472
2.3491 -1.9141 -0.2455
2.3739 -1.8964 -0.2512
2.4045 -1.8920 -0.2485
2.4320 -1.8801 -0.2505
2.4577 -1.8622 -0.2563
2.4883 -1.8587 -0.2530
2.5160 -1.8458 -0.2556
2.5467 -1.8452 -0.2507
2.5741 -1.8304 -0.2544
2.6031 -1.8237 -0.2532
2.6313 -1.8116 -0.2553
2.6595 -1.7985 -0.2578
2.6887 -1.7955 -0.2546
2.7176 -1.7955 -0.2497
2.7457 -1.7739 -0.2571
2.7741 -1.7740 -0.2522
2.8028 -1.7579 -0.2564
2.8315 -1.7456 -0.2584
2.8601 -1.7362 -0.2588
2.8892 -1.7228 -0.2614
2.9184 -1.7103 -0.2635
2.9454 -1.7109 -0.2586
2.9768 -1.6873 -0.2665
3.0031 -1.6890 -0.2611
3.0269 -1.6992 -0.2513
3.0595 -1.6733 -0.2604
3.0880 -1.6639 -0.2608
3.1165 -1.6545 -0.2613
3.1487 -1.6344 -0.2671
3.1748 -1.6324 -0.2638
3.2167 -1.5883 -0.2815
3.2368 -1.6016 -0.2706
3.2704 -1.5810 -0.2764
3.2946 -1.5825 -0.2715
3.3199 -1.5808 -0.2682
3.3431 -1.5826 -0.2632
3.3715 -1.5733 -0.2637
3.4078 -1.5490 -0.2711
3.4322 -1.5476 -0.2678
1.6384 -2.1522 -0.2656
1.6873 -2.1548 -0.2552
1.7082 -2.1414 -0.2594
1.7431 -2.1364 -0.2560
1.7521 -2.1147 -0.2674
1.7897 -2.1117 -0.2624
1.8152 -2.1004 -0.2644
1.8599 -2.1036 -0.2545
1.8876 -2.0944 -0.2549
1.9081 -2.0792 -0.2603
1.9384 -2.0720 -0.2591
1.9641 -2.0608 -0.2612
1.9964 -2.0557 -0.2583
2.0200 -2.0423 -0.2620
2.0501 -2.0352 -0.2608
2.0799 -2.0282 -0.2596
2.1078 -2.0190 -0.2601
2.1392 -2.0143 -0.2572
2.1685 -2.0075 -0.2560
2.2237 -1.9893 -0.2568
2.3147 -1.9771 -0.2476
2.3455 -1.9755 -0.2431
2.3701 -1.9617 -0.2468
2.4013 -1.9627 -0.2406
2.4231 -1.9414 -0.2493
2.4474 -1.9249 -0.2547
2.4836 -1.9431 -0.2374
2.5036 -1.9121 -0.2523
2.5596 -1.9020 -0.2481
2.5876 -1.8985 -0.2452
2.6665 -1.8584 -0.2548
2.6946 -1.8632 -0.2469
2.7755 -1.8074 -0.2655
2.8021 -1.8193 -0.2536
2.8293 -1.8075 -0.2557
2.8564 -1.7986 -0.2561
2.8846 -1.7808 -0.2616
2.9128 -1.7659 -0.2654
2.9426 -1.7439 -0.2731
2.9686 -1.7438 -0.2685
2.9945 -1.7418 -0.2650
3.0238 -1.7256 -0.2693
3.0522 -1.7134 -0.2715
3.0799 -1.7042 -0.2719
3.1086 -1.6920 -0.2740
3.1411 -1.6690 -0.2818
