ply
format ascii 1.0
element vertex 2096
property float x
property float y
property float z
end_header
-0.7801 -4.0592 0.1438
-0.7589 -4.0527 0.1109
-0.7560 -4.0509 0.0370
-0.7520 -4.0492 -0.0003
-0.7423 -4.0460 -0.0368
-0.5971 -4.0021 -0.1842
-0.5009 -3.9744 -0.1814
-0.2976 -3.9156 -0.1887
-0.1815 -3.8821 -0.1874
-0.0048 -3.8311 -0.1869
0.0615 -3.8119 -0.1895
0.1227 -3.7943 -0.1891
0.1823 -3.7772 -0.1827
0.2283 -3.7639 -0.1832
0.2451 -3.7590 -0.1883
0.2663 -3.7529 -0.1873
0.2917 -3.7456 -0.1797
0.3105 -3.7402 -0.1786
0.3447 -3.7304 -0.1772
0.3684 -3.7234 -0.1868
0.3842 -3.7189 -0.1844
0.3975 -3.7150 -0.1847
0.4127 -3.7107 -0.1809
0.4228 -3.7077 -0.1847
0.4348 -3.7043 -0.1845
0.4484 -3.7004 -0.1802
0.4574 -3.6978 -0.1839
0.4668 -3.6950 -0.1861
0.4779 -3.6918 -0.1840
0.4852 -3.6897 -0.1894
0.4924 -3.6875 -0.1945
-0.7428 -4.0840 0.7021
-0.7528 -4.0870 0.6794
-0.7415 -4.0833 0.6260
-0.7400 -4.0827 0.5730
-0.7459 -4.0845 0.5467
-0.7223 -4.0770 0.5165
-0.7291 -4.0791 0.4893
-0.7255 -4.0779 0.4607
-0.7465 -4.0843 0.4327
-0.7595 -4.0882 0.4032
-0.7343 -4.0803 0.3724
-0.7168 -4.0747 0.3109
-0.7073 -4.0716 0.2799
-0.7291 -4.0783 0.2460
-0.7662 -4.0896 0.1742
-0.7452 -4.0830 0.1420
-0.7075 -4.0712 0.1129
-0.7601 -4.0873 0.0669
-0.7444 -4.0824 0.0329
-0.7193 -4.0744 -0.0369
-0.7141 -4.0726 -0.0743
-0.7161 -4.0731 -0.1147
-0.7114 -4.0715 -0.1537
-0.6613 -4.0559 -0.1756
-0.6028 -4.0377 -0.1920
-0.1885 -3.9093 -0.1949
-0.0047 -3.8523 -0.1891
0.0617 -3.8318 -0.1912
0.1272 -3.8114 -0.1864
0.1869 -3.7930 -0.1792
0.2068 -3.7868 -0.1830
0.2248 -3.7812 -0.1878
0.2715 -3.7667 -0.1816
0.2907 -3.7608 -0.1812
0.3096 -3.7549 -0.1800
0.3410 -3.7452 -0.1824
0.3705 -3.7360 -0.1834
0.3848 -3.7316 -0.1830
0.3940 -3.7287 -0.1898
0.4106 -3.7236 -0.1838
0.4248 -3.7192 -0.1804
0.4354 -3.7159 -0.1824
0.4439 -3.7132 -0.1878
0.4656 -3.7065 -0.1874
0.4773 -3.7029 -0.1839
0.4846 -3.7006 -0.1892
-0.7164 -4.1347 0.6882
-0.6947 -4.1269 0.6584
-0.6959 -4.1284 0.6334
-0.6919 -4.1278 0.6069
-0.6899 -4.1303 0.5266
-0.6948 -4.1335 0.4994
-0.6813 -4.1291 0.4701
-0.6917 -4.1346 0.4420
-0.6639 -4.1243 0.4117
-0.6415 -4.1174 0.3527
-0.6911 -4.1407 0.2892
-0.6567 -4.1276 0.2595
-0.6581 -4.1295 0.2270
-0.6635 -4.1331 0.1933
-0.6738 -4.1389 0.1579
-0.6901 -4.1473 0.1201
-0.7025 -4.1541 0.0816
-0.7029 -4.1557 0.0443
-0.6935 -4.1533 0.0087
-0.6830 -4.1504 -0.0269
-0.6673 -4.1453 -0.0613
-0.6309 -4.1346 -0.1685
-0.4638 -4.0651 -0.1751
-0.4053 -4.0410 -0.1842
-0.1481 -3.9334 -0.1752
-0.0780 -3.9047 -0.1894
0.0091 -3.8681 -0.1827
0.0818 -3.8375 -0.1774
0.1355 -3.8153 -0.1809
0.2297 -3.7760 -0.1822
0.2482 -3.7684 -0.1847
0.2707 -3.7588 -0.1809
0.2906 -3.7505 -0.1788
0.3100 -3.7422 -0.1759
0.3221 -3.7374 -0.1820
0.3401 -3.7298 -0.1785
0.3551 -3.7235 -0.1783
0.3684 -3.7180 -0.1796
0.3821 -3.7123 -0.1793
0.3975 -3.7057 -0.1750
0.4216 -3.6956 -0.1746
0.4318 -3.6914 -0.1767
0.4430 -3.6867 -0.1758
0.4516 -3.6833 -0.1795
0.4618 -3.6790 -0.1791
0.4712 -3.6751 -0.1795
0.4794 -3.6718 -0.1821
-0.7079 -4.1607 0.6987
-0.6895 -4.1596 0.5644
-0.6798 -4.1569 0.5357
-0.6664 -4.1525 0.5065
-0.6766 -4.1584 0.4792
-0.6677 -4.1560 0.4498
-0.6633 -4.1556 0.4204
-0.6552 -4.1536 0.3904
-0.6557 -4.1570 0.3294
-0.6670 -4.1654 0.2649
-0.6720 -4.1693 0.2313
-0.6787 -4.1741 0.1966
-0.6946 -4.1831 0.1594
-0.6793 -4.1781 0.1260
-0.6858 -4.1829 0.0883
-0.6755 -4.1802 0.0532
-0.6772 -4.1830 0.0148
-0.6714 -4.1824 -0.0225
-0.6674 -4.1826 -0.0609
-0.6622 -4.1824 -0.0996
-0.5665 -4.1446 -0.1851
-0.3813 -4.0625 -0.1764
-0.2641 -4.0112 -0.1850
-0.2108 -3.9878 -0.1877
-0.1427 -3.9573 -0.1779
-0.0597 -3.9210 -0.1835
0.0191 -3.8862 -0.1826
0.0891 -3.8552 -0.1795
0.1436 -3.8313 -0.1824
0.1697 -3.8198 -0.1824
0.1869 -3.8126 -0.1902
0.2157 -3.7995 -0.1840
0.2351 -3.7911 -0.1867
0.2599 -3.7799 -0.1815
0.2806 -3.7707 -0.1797
0.2945 -3.7649 -0.1854
0.3172 -3.7545 -0.1780
0.3463 -3.7419 -0.1821
0.3637 -3.7340 -0.1780
0.3768 -3.7283 -0.1795
0.3909 -3.7220 -0.1782
0.4011 -3.7178 -0.1830
0.4159 -3.7110 -0.1782
0.4262 -3.7066 -0.1809
0.4398 -3.7003 -0.1761
0.4479 -3.6970 -0.1815
0.4593 -3.6918 -0.1791
0.4683 -3.6880 -0.1813
0.4781 -3.6836 -0.1806
0.4867 -3.6799 -0.1820
0.4956 -3.6760 -0.1818
-0.6666 -4.1710 0.7260
-0.6540 -4.1669 0.6984
-0.6974 -4.1931 0.6042
-0.6744 -4.1844 0.5733
-0.6752 -4.1865 0.5458
-0.6955 -4.1976 0.5199
-0.6966 -4.2000 0.4909
-0.6632 -4.1864 0.4589
-0.6584 -4.1861 0.4291
-0.6691 -4.1930 0.3992
-0.6494 -4.1858 0.3682
-0.6608 -4.1972 0.2719
-0.6621 -4.2000 0.2382
-0.6672 -4.2046 0.2033
-0.6375 -4.1927 0.1724
-0.6586 -4.2050 0.1337
-0.6698 -4.2127 0.0949
-0.6702 -4.2153 0.0571
-0.6594 -4.2125 0.0213
-0.6435 -4.2073 -0.0135
-0.5298 -4.1645 -0.1722
-0.3835 -4.0969 -0.1818
-0.3196 -4.0674 -0.1855
-0.1376 -3.9823 -0.1809
-0.0958 -3.9631 -0.1850
-0.0531 -3.9433 -0.1860
0.0279 -3.9054 -0.1837
0.0607 -3.8902 -0.1851
0.0952 -3.8740 -0.1830
0.1544 -3.8463 -0.1814
0.1763 -3.8364 -0.1856
0.2283 -3.8118 -0.1805
0.2886 -3.7838 -0.1812
0.3065 -3.7755 -0.1815
0.3213 -3.7688 -0.1848
0.3405 -3.7596 -0.1806
0.3686 -3.7467 -0.1839
0.3853 -3.7386 -0.1793
0.4110 -3.7267 -0.1797
0.4238 -3.7207 -0.1785
0.4345 -3.7158 -0.1802
0.4468 -3.7099 -0.1778
0.4666 -3.7008 -0.1800
0.4765 -3.6962 -0.1798
0.4862 -3.6916 -0.1791
0.4941 -3.6881 -0.1819
0.5019 -3.6846 -0.1844
-0.6716 -4.2074 0.6904
-0.6597 -4.2057 0.6360
-0.6690 -4.2121 0.6111
-0.6696 -4.2144 0.5839
-0.6803 -4.2217 0.5575
-0.6711 -4.2194 0.5278
-0.6572 -4.2149 0.4975
-0.6433 -4.2104 0.4671
-0.6150 -4.1988 0.4360
-0.6343 -4.2105 0.4070
-0.6202 -4.2059 0.3762
-0.6455 -4.2256 0.2796
-0.6558 -4.2332 0.2449
-0.6470 -4.2341 0.1759
-0.6367 -4.2317 0.1416
-0.6053 -4.2186 0.1110
-0.6158 -4.2266 0.0720
-0.6272 -4.2508 -0.1737
-0.5271 -4.2016 -0.1741
-0.3092 -4.0953 -0.1850
-0.1933 -4.0386 -0.1892
-0.1012 -3.9938 -0.1959
-0.0016 -3.9441 -0.1856
0.0283 -3.9298 -0.1918
0.0671 -3.9106 -0.1885
0.1366 -3.8758 -0.1816
0.1625 -3.8633 -0.1834
0.1870 -3.8513 -0.1849
0.2403 -3.8246 -0.1778
0.2815 -3.8043 -0.1778
0.3343 -3.7785 -0.1791
0.3511 -3.7701 -0.1780
0.3632 -3.7645 -0.1830
0.3787 -3.7568 -0.1814
0.3915 -3.7506 -0.1833
0.4076 -3.7423 -0.1781
0.4181 -3.7374 -0.1820
0.4318 -3.7305 -0.1787
0.4550 -3.7189 -0.1772
0.4756 -3.7088 -0.1771
0.4848 -3.7044 -0.1782
0.4948 -3.6993 -0.1763
0.5021 -3.6960 -0.1805
0.5108 -3.6918 -0.1804
-0.6639 -4.2426 0.6222
-0.6652 -4.2457 0.5949
-0.6140 -4.2246 0.5316
-0.6183 -4.2293 0.5039
-0.6189 -4.2322 0.4750
-0.6433 -4.2473 0.4470
-0.6340 -4.2479 0.3848
-0.6290 -4.2510 0.3206
-0.6404 -4.2659 0.2177
-0.6510 -4.2747 0.1804
-0.6353 -4.2696 0.1461
-0.6411 -4.2760 0.1077
-0.6039 -4.2807 -0.1667
-0.4513 -4.2031 -0.1842
-0.2855 -4.1165 -0.1773
-0.1775 -4.0612 -0.1858
-0.0788 -4.0102 -0.1878
0.0078 -3.9652 -0.1866
0.0489 -3.9436 -0.1835
0.0808 -3.9273 -0.1858
0.1104 -3.9121 -0.1880
0.1986 -3.8660 -0.1833
0.2495 -3.8391 -0.1784
0.2701 -3.8285 -0.1792
0.2875 -3.8198 -0.1824
0.3059 -3.8103 -0.1831
0.3239 -3.8010 -0.1830
0.3767 -3.7729 -0.1754
0.3878 -3.7676 -0.1810
0.4016 -3.7605 -0.1809
0.4139 -3.7542 -0.1823
0.4288 -3.7461 -0.1777
0.4405 -3.7400 -0.1778
0.4531 -3.7332 -0.1751
0.4617 -3.7292 -0.1800
0.4728 -3.7233 -0.1786
0.4825 -3.7183 -0.1790
0.5015 -3.7085 -0.1786
0.5097 -3.7043 -0.1803
0.5173 -3.7006 -0.1830
-0.6532 -4.2656 0.6863
-0.6443 -4.2636 0.6578
-0.6263 -4.2596 0.6002
-0.6171 -4.2575 0.5710
-0.6555 -4.2808 0.5481
-0.6511 -4.2814 0.5181
-0.6621 -4.2935 0.4581
-0.6887 -4.3111 0.4276
-0.6232 -4.2787 0.3933
-0.6127 -4.2762 0.3613
-0.6226 -4.2849 0.3284
-0.6228 -4.2884 0.2949
-0.6127 -4.2862 0.2614
-0.6028 -4.2878 0.1921
-0.5971 -4.2882 0.1568
-0.6236 -4.3070 0.1148
-0.1638 -4.0856 -0.1839
-0.1227 -4.0639 -0.1919
-0.0723 -4.0362 -0.1909
0.0946 -3.9442 -0.1830
0.1524 -3.9130 -0.1866
0.2048 -3.8844 -0.1877
0.2760 -3.8451 -0.1841
0.2945 -3.8352 -0.1860
0.3177 -3.8219 -0.1800
0.3354 -3.8122 -0.1800
0.3659 -3.7958 -0.1832
0.3825 -3.7865 -0.1807
0.3964 -3.7790 -0.1815
0.4122 -3.7700 -0.1774
0.4243 -3.7635 -0.1789
0.4499 -3.7492 -0.1757
0.4677 -3.7404 -0.1851
0.4805 -3.7328 -0.1792
0.4897 -3.7279 -0.1810
0.5019 -3.7205 -0.1737
0.5092 -3.7170 -0.1783
0.5178 -3.7123 -0.1788
0.5257 -3.7082 -0.1803
-0.6581 -4.3025 0.7010
-0.6300 -4.2964 0.6131
-0.6117 -4.2894 0.5819
-0.6359 -4.3062 0.5570
-0.6562 -4.3245 0.4993
-0.6266 -4.3148 0.4345
-0.6468 -4.3300 0.4031
-0.6529 -4.3374 0.3699
-0.6475 -4.3381 0.3358
-0.6270 -4.3302 0.3020
-0.6164 -4.3280 0.2678
-0.6171 -4.3409 0.1582
-0.6281 -4.3518 0.1179
-0.3648 -4.2354 -0.1913
-0.1528 -4.1124 -0.1838
-0.1038 -4.0844 -0.1866
-0.0497 -4.0528 -0.1826
0.0728 -3.9821 -0.1817
0.1387 -3.9440 -0.1815
0.1681 -3.9271 -0.1814
0.1969 -3.9103 -0.1799
0.2662 -3.8707 -0.1826
0.2880 -3.8580 -0.1815
0.3081 -3.8463 -0.1810
0.3235 -3.8380 -0.1856
0.3597 -3.8168 -0.1827
0.3741 -3.8088 -0.1852
0.3937 -3.7966 -0.1771
0.4051 -3.7906 -0.1820
0.4163 -3.7846 -0.1864
0.4299 -3.7766 -0.1851
0.4453 -3.7670 -0.1787
0.4567 -3.7605 -0.1792
0.4688 -3.7533 -0.1769
0.4898 -3.7411 -0.1762
0.5002 -3.7349 -0.1744
0.5076 -3.7312 -0.1795
0.5167 -3.7260 -0.1793
0.5259 -3.7204 -0.1774
0.5329 -3.7169 -0.1815
-0.6416 -4.3186 0.7888
-0.6658 -4.3391 0.7440
-0.6145 -4.3165 0.6774
-0.6151 -4.3203 0.6505
-0.6197 -4.3265 0.6237
-0.6153 -4.3276 0.5946
-0.6246 -4.3368 0.5672
-0.6302 -4.3478 0.5077
-0.6257 -4.3491 0.4762
-0.6199 -4.3497 0.4441
-0.6150 -4.3509 0.4115
-0.5998 -4.3459 0.3784
-0.6103 -4.3566 0.3449
-0.5734 -4.3473 0.2426
-0.5889 -4.3616 0.2047
-0.6100 -4.3796 0.1641
-0.6101 -4.3847 0.1252
-0.3462 -4.2645 -0.1869
-0.1977 -4.1736 -0.1819
-0.0870 -4.1066 -0.1829
0.0777 -4.0071 -0.1872
0.2022 -3.9313 -0.1858
0.2568 -3.8973 -0.1795
0.3169 -3.8613 -0.1827
0.3368 -3.8489 -0.1806
0.3550 -3.8377 -0.1793
0.3700 -3.8289 -0.1817
0.3995 -3.8112 -0.1832
0.4151 -3.8013 -0.1804
0.4277 -3.7939 -0.1819
0.4379 -3.7883 -0.1869
0.4530 -3.7784 -0.1808
0.4667 -3.7694 -0.1760
0.4762 -3.7641 -0.1794
0.4864 -3.7580 -0.1800
0.4955 -3.7528 -0.1826
0.5057 -3.7464 -0.1811
0.5153 -3.7405 -0.1803
0.5225 -3.7367 -0.1852
0.5337 -3.7289 -0.1771
-0.6180 -4.3434 0.7712
-0.5680 -4.3283 0.6533
-0.5992 -4.3513 0.6326
-0.6293 -4.3823 0.5500
-0.5994 -4.3726 0.4847
-0.6085 -4.3828 0.4536
-0.5933 -4.3778 0.4204
-0.6083 -4.3922 0.3876
-0.6034 -4.3939 0.3535
-0.6029 -4.3986 0.3186
-0.5776 -4.3873 0.2845
-0.5563 -4.3785 0.2505
-0.5764 -4.3969 0.2119
-0.5812 -4.4054 0.1735
-0.5647 -4.4001 0.1376
-0.5536 -4.3983 0.1006
-0.1922 -4.2080 -0.1854
-0.0803 -4.1366 -0.1862
0.0177 -4.0733 -0.1822
0.0862 -4.0306 -0.1900
0.1589 -3.9832 -0.1836
0.2613 -3.9182 -0.1871
0.3047 -3.8904 -0.1867
0.3306 -3.8725 -0.1776
0.3495 -3.8603 -0.1765
0.3651 -3.8506 -0.1789
0.3798 -3.8416 -0.1814
0.4099 -3.8223 -0.1815
0.4231 -3.8141 -0.1828
0.4360 -3.8059 -0.1835
0.4520 -3.7946 -0.1761
0.4619 -3.7890 -0.1807
0.4738 -3.7811 -0.1793
0.4837 -3.7752 -0.1818
0.4947 -3.7679 -0.1804
0.5050 -3.7612 -0.1795
0.5141 -3.7555 -0.1805
0.5227 -3.7503 -0.1822
0.5318 -3.7443 -0.1811
0.5400 -3.7392 -0.1820
-0.6079 -4.3775 0.7574
-0.5897 -4.3702 0.7258
-0.5844 -4.3712 0.6978
-0.5747 -4.3693 0.6683
-0.5838 -4.3795 0.6427
-0.5935 -4.3902 0.6162
-0.7431 -4.4916 0.6125
-0.7095 -4.4750 0.5742
-0.6703 -4.4547 0.5360
-0.6078 -4.4188 0.4967
-0.6229 -4.4339 0.4654
-0.5917 -4.4185 0.4303
-0.5972 -4.4275 0.3969
-0.5710 -4.4154 0.3624
-0.5862 -4.4311 0.3273
-0.5859 -4.4366 0.2914
-0.5742 -4.4344 0.2556
-0.5842 -4.4535 0.1782
-0.5788 -4.4560 0.1394
-0.5670 -4.4541 0.1012
-0.5527 -4.4783 -0.1121
-0.5290 -4.4683 -0.1493
-0.4946 -4.4501 -0.1812
-0.3246 -4.3365 -0.1867
-0.1717 -4.2324 -0.1798
-0.0656 -4.1617 -0.1842
-0.0187 -4.1303 -0.1855
0.0222 -4.1031 -0.1881
0.1045 -4.0470 -0.1840
0.1718 -4.0014 -0.1821
0.2245 -3.9665 -0.1857
0.2511 -3.9482 -0.1840
0.2771 -3.9302 -0.1808
0.2954 -3.9187 -0.1856
0.3138 -3.9068 -0.1888
0.3381 -3.8893 -0.1818
0.3550 -3.8782 -0.1836
0.3726 -3.8662 -0.1829
0.3872 -3.8569 -0.1857
0.4055 -3.8437 -0.1804
0.4193 -3.8346 -0.1816
0.4313 -3.8270 -0.1851
0.4465 -3.8162 -0.1809
0.4593 -3.8074 -0.1800
0.4718 -3.7987 -0.1784
0.4822 -3.7920 -0.1804
0.4936 -3.7840 -0.1786
0.5039 -3.7771 -0.1784
0.5136 -3.7706 -0.1788
0.5230 -3.7643 -0.1787
0.5318 -3.7584 -0.1793
0.5400 -3.7531 -0.1807
0.5477 -3.7483 -0.1829
-0.6200 -4.4141 0.8290
-0.6647 -4.4477 0.8178
-0.6211 -4.4240 0.7769
-0.6259 -4.4319 0.7512
-0.6209 -4.4334 0.7221
-0.6157 -4.4349 0.6925
-0.6215 -4.4439 0.6650
-0.5917 -4.4341 0.5997
-0.6006 -4.4455 0.5707
-0.5903 -4.4439 0.5381
-0.5906 -4.4496 0.5064
-0.5847 -4.4513 0.4735
-0.6004 -4.4680 0.4412
-0.6004 -4.4740 0.4068
-0.5842 -4.4688 0.3715
-0.5891 -4.4785 0.3357
-0.5618 -4.4653 0.3004
-0.5829 -4.4937 0.2233
-0.5936 -4.5085 0.1823
-0.5822 -4.5073 0.1433
-0.5479 -4.4890 0.1087
-0.4733 -4.4858 -0.1756
-0.0533 -4.1894 -0.1841
-0.0086 -4.1582 -0.1871
0.1164 -4.0690 -0.1841
0.2599 -3.9678 -0.1871
0.3108 -3.9304 -0.1795
0.3299 -3.9170 -0.1810
0.3492 -3.9033 -0.1808
0.3648 -3.8930 -0.1846
0.3842 -3.8785 -0.1806
0.4025 -3.8647 -0.1763
0.4134 -3.8584 -0.1840
0.4304 -3.8454 -0.1788
0.4441 -3.8356 -0.1785
0.4547 -3.8290 -0.1834
0.4813 -3.8090 -0.1771
0.4911 -3.8026 -0.1804
0.5116 -3.7881 -0.1809
0.5215 -3.7810 -0.1803
0.5323 -3.7726 -0.1757
0.5398 -3.7680 -0.1800
0.5490 -3.7611 -0.1778
0.5568 -3.7557 -0.1788
0.5635 -3.7518 -0.1833
-0.5960 -4.4464 0.7851
-0.6000 -4.4651 0.7035
-0.6048 -4.4856 0.6157
-0.6040 -4.4910 0.5844
-0.5942 -4.4901 0.5512
-0.5729 -4.4808 0.5164
-0.5630 -4.4798 0.4828
-0.5621 -4.4856 0.4496
-0.5317 -4.4696 0.4145
-0.5350 -4.4787 0.3805
-0.5450 -4.4929 0.3453
-0.5648 -4.5220 0.2705
-0.6208 -4.5724 0.2259
-0.5741 -4.5443 0.1907
-0.5741 -4.5523 0.1494
-0.5671 -4.5549 0.1085
-0.4322 -4.5059 -0.1609
-0.2205 -4.3521 -0.1835
-0.1531 -4.3018 -0.1832
-0.1033 -4.2658 -0.1901
-0.0337 -4.2118 -0.1789
0.0021 -4.1868 -0.1885
0.0931 -4.1178 -0.1830
0.1560 -4.0723 -0.1906
0.2210 -4.0227 -0.1855
0.2532 -3.9975 -0.1790
0.2741 -3.9827 -0.1836
0.3002 -3.9625 -0.1796
0.3206 -3.9475 -0.1810
0.3568 -3.9213 -0.1855
0.3913 -3.8957 -0.1861
0.4259 -3.8686 -0.1792
0.4415 -3.8563 -0.1760
0.4531 -3.8483 -0.1797
0.4776 -3.8301 -0.1803
0.4892 -3.8214 -0.1801
0.5017 -3.8113 -0.1760
0.5111 -3.8048 -0.1788
0.5203 -3.7984 -0.1811
0.5307 -3.7901 -0.1784
0.5391 -3.7843 -0.1809
0.5476 -3.7782 -0.1818
0.5559 -3.7721 -0.1823
0.5640 -3.7660 -0.1823
0.5719 -3.7600 -0.1818
-0.6179 -4.5084 0.7812
-0.6080 -4.5072 0.7499
-0.5979 -4.5059 0.7184
-0.5878 -4.5046 0.6866
-0.5775 -4.5033 0.6546
-0.5623 -4.4983 0.6213
-0.5423 -4.4897 0.5872
-0.5469 -4.4997 0.5571
-0.5511 -4.5095 0.5259
-0.5547 -4.5192 0.4937
-0.5389 -4.5140 0.4590
-0.5283 -4.5130 0.4245
-0.5732 -4.5792 0.2775
-0.5608 -4.5775 0.2389
-0.5664 -4.5906 0.1976
-0.5771 -4.6082 0.1539
-0.5083 -4.5604 0.1241
-0.3832 -4.5280 -0.1896
-0.2117 -4.3922 -0.1855
-0.0818 -4.2898 -0.1841
0.0193 -4.2105 -0.1851
0.1009 -4.1468 -0.1874
0.2343 -4.0412 -0.1840
0.3097 -3.9815 -0.1822
0.3308 -3.9650 -0.1825
0.3674 -3.9369 -0.1860
0.3880 -3.9197 -0.1812
0.4041 -3.9072 -0.1819
0.4212 -3.8931 -0.1792
0.4365 -3.8809 -0.1780
0.4610 -3.8628 -0.1838
0.4743 -3.8521 -0.1822
0.4844 -3.8451 -0.1870
0.5104 -3.8225 -0.1769
0.5287 -3.8093 -0.1824
0.5485 -3.7928 -0.1778
0.5578 -3.7849 -0.1752
0.5646 -3.7807 -0.1805
0.5732 -3.7735 -0.1781
0.5797 -3.7693 -0.1828
-0.5549 -4.4922 0.8307
-0.5775 -4.5214 0.7852
-0.5968 -4.5491 0.7342
-0.5563 -4.5247 0.6940
-0.5508 -4.5272 0.6633
-0.5554 -4.5376 0.6342
-0.5291 -4.5312 0.5674
-0.5381 -4.5457 0.5369
-0.5223 -4.5405 0.5023
-0.5216 -4.5475 0.4689
-0.4950 -4.5338 0.4333
-0.5415 -4.6148 0.2478
-0.5077 -4.5952 0.2112
-0.5062 -4.6032 0.1705
-0.4994 -4.6070 0.1298
-0.4203 -4.6089 -0.1645
-0.3472 -4.5513 -0.1770
-0.0661 -4.3197 -0.1822
0.0349 -4.2362 -0.1831
0.1516 -4.1404 -0.1865
0.1815 -4.1166 -0.1904
0.2157 -4.0874 -0.1869
0.2467 -4.0611 -0.1839
0.2698 -4.0428 -0.1879
0.3398 -3.9845 -0.1862
0.3650 -3.9617 -0.1778
0.3802 -3.9503 -0.1832
0.3960 -3.9379 -0.1861
0.4128 -3.9239 -0.1855
0.4319 -3.9065 -0.1787
0.4433 -3.8985 -0.1851
0.4584 -3.8855 -0.1826
0.4709 -3.8754 -0.1839
0.4847 -3.8632 -0.1805
0.4954 -3.8550 -0.1834
0.5066 -3.8458 -0.1836
0.5171 -3.8372 -0.1842
0.5284 -3.8271 -0.1810
0.5369 -3.8209 -0.1847
0.5470 -3.8121 -0.1824
0.5554 -3.8055 -0.1841
0.5658 -3.7952 -0.1770
0.5734 -3.7893 -0.1788
0.5809 -3.7835 -0.1802
-0.5441 -4.5192 0.8699
-0.5663 -4.5495 0.8260
-0.5652 -4.5555 0.7983
-0.5803 -4.5744 0.7751
-0.5746 -4.5771 0.7444
-0.5496 -4.5644 0.7080
-0.5476 -4.5778 0.6474
-0.5273 -4.5689 0.6121
-0.5063 -4.5593 0.5770
-0.4804 -4.5536 0.5096
-0.4934 -4.5727 0.4780
-0.5006 -4.6239 0.2980
-0.5104 -4.6425 0.2578
-0.5037 -4.6467 0.2179
-0.4859 -4.6408 0.1789
-0.4841 -4.6497 0.1369
-0.4414 -4.6914 -0.1795
-0.3295 -4.5925 -0.1740
-0.0466 -4.3467 -0.1779
0.1674 -4.1615 -0.1837
0.2023 -4.1306 -0.1819
0.2307 -4.1064 -0.1842
0.2568 -4.0844 -0.1869
0.2827 -4.0619 -0.1873
0.3328 -4.0170 -0.1827
0.3729 -3.9822 -0.1834
0.3889 -3.9693 -0.1875
0.4113 -3.9475 -0.1784
0.4259 -3.9355 -0.1813
0.4401 -3.9236 -0.1834
0.4535 -3.9124 -0.1856
0.4686 -3.8984 -0.1824
0.4948 -3.8750 -0.1798
0.5049 -3.8671 -0.1838
0.5173 -3.8554 -0.1801
0.5376 -3.8379 -0.1809
0.5463 -3.8310 -0.1837
0.5564 -3.8214 -0.1804
0.5745 -3.8046 -0.1764
0.5812 -3.8002 -0.1819
0.5877 -3.7958 -0.1872
-0.5787 -4.5968 0.8762
-0.5499 -4.5807 0.8381
-0.5581 -4.6025 0.7854
-0.5073 -4.5835 0.6832
-0.5101 -4.5939 0.6540
-0.5186 -4.6096 0.6250
-0.5080 -4.6090 0.5913
-0.5041 -4.6326 0.4912
-0.5134 -4.6504 0.4570
-0.5220 -4.6680 0.4211
-0.5267 -4.6824 0.3837
-0.5147 -4.6818 0.3451
-0.5080 -4.6863 0.3060
-0.4902 -4.6805 0.2670
-0.4831 -4.6849 0.2268
-0.4546 -4.6689 0.1891
-0.4315 -4.6580 0.1511
-0.4605 -4.6980 0.1017
-0.4177 -4.7332 -0.1734
-0.3214 -4.6454 -0.1761
-0.2763 -4.6106 -0.2007
0.0067 -4.3474 -0.1888
0.1814 -4.1854 -0.1831
0.2464 -4.1250 -0.1810
0.2806 -4.0914 -0.1729
0.2953 -4.0818 -0.1873
0.3481 -4.0307 -0.1777
0.3832 -4.0006 -0.1857
0.4042 -3.9799 -0.1806
0.4207 -3.9650 -0.1815
0.4368 -3.9502 -0.1813
0.4512 -3.9374 -0.1828
0.4806 -3.9092 -0.1785
0.5047 -3.8875 -0.1801
0.5157 -3.8777 -0.1812
0.5264 -3.8680 -0.1818
0.5362 -3.8595 -0.1837
0.5463 -3.8500 -0.1829
0.5825 -3.8158 -0.1792
0.5899 -3.8095 -0.1813
0.5976 -3.8022 -0.1806
0.6039 -3.7978 -0.1856
-0.5313 -4.6187 0.8223
-0.5357 -4.6307 0.7958
-0.5110 -4.6176 0.7590
-0.5093 -4.6246 0.7296
-0.5081 -4.6322 0.6996
-0.4880 -4.6232 0.6642
-0.4723 -4.6180 0.6300
-0.4851 -4.6388 0.6014
-0.5105 -4.6917 0.5047
-0.5040 -4.6962 0.4683
-0.4916 -4.6951 0.4310
-0.4744 -4.6895 0.3932
-0.4727 -4.6990 0.3553
-0.4713 -4.7091 0.3164
-0.4430 -4.6928 0.2784
-0.4671 -4.7288 0.2353
-0.4760 -4.7502 0.1914
-0.4500 -4.7498 0.1073
-0.4779 -4.8217 -0.0456
-0.4113 -4.7954 -0.1759
0.0256 -4.3751 -0.1852
0.1135 -4.2912 -0.1891
0.1936 -4.2123 -0.1847
0.2609 -4.1456 -0.1794
0.3120 -4.0968 -0.1818
0.3589 -4.0509 -0.1799
0.3766 -4.0351 -0.1844
0.3994 -4.0110 -0.1779
0.4161 -3.9956 -0.1801
0.4314 -3.9815 -0.1828
0.4624 -3.9513 -0.1821
0.4764 -3.9377 -0.1821
0.4890 -3.9261 -0.1838
0.5141 -3.9013 -0.1822
0.5255 -3.8900 -0.1816
0.5379 -3.8765 -0.1762
0.5474 -3.8678 -0.1782
0.5558 -3.8611 -0.1828
0.5744 -3.8424 -0.1808
0.5832 -3.8336 -0.1794
0.5914 -3.8254 -0.1785
0.6060 -3.8121 -0.1813
0.6124 -3.8069 -0.1851
-0.5285 -4.6642 0.8401
-0.5085 -4.6550 0.8046
-0.5074 -4.6631 0.7757
-0.4962 -4.6620 0.7428
-0.4621 -4.6398 0.7032
-0.4553 -4.6429 0.6717
-0.4678 -4.6644 0.6443
-0.4855 -4.6912 0.6165
-0.5096 -4.7249 0.5881
-0.5082 -4.7344 0.5533
-0.5071 -4.7446 0.5177
-0.5166 -4.7656 0.4822
-0.4933 -4.7543 0.4429
-0.4756 -4.7485 0.4041
-0.4525 -4.7373 0.3653
-0.4349 -4.7316 0.3266
-0.4430 -4.7526 0.2862
-0.4350 -4.7574 0.2457
-0.4168 -4.7515 0.2058
-0.4245 -4.7735 0.1613
-0.4114 -4.7734 0.1193
-0.3479 -4.7179 0.0900
-0.3539 -4.7388 0.0433
-0.4161 -4.8745 -0.1841
-0.1531 -4.6084 -0.1916
0.0433 -4.4052 -0.1828
0.1281 -4.3206 -0.1890
0.1681 -4.2796 -0.1886
0.2064 -4.2397 -0.1860
0.2732 -4.1700 -0.1809
0.3242 -4.1185 -0.1830
0.3477 -4.0945 -0.1829
0.3696 -4.0721 -0.1827
0.3900 -4.0512 -0.1824
0.4435 -3.9963 -0.1816
0.4589 -3.9808 -0.1820
0.4727 -3.9673 -0.1840
0.4882 -3.9501 -0.1798
0.5008 -3.9376 -0.1808
0.5121 -3.9271 -0.1838
0.5240 -3.9148 -0.1833
0.5367 -3.9001 -0.1780
0.5461 -3.8917 -0.1818
0.5566 -3.8804 -0.1799
0.5670 -3.8686 -0.1762
0.5753 -3.8611 -0.1793
0.5836 -3.8531 -0.1809
0.5909 -3.8470 -0.1853
0.5997 -3.8368 -0.1813
0.6080 -3.8273 -0.1777
0.6149 -3.8208 -0.1796
0.6208 -3.8167 -0.1860
-0.4877 -4.6759 0.8436
-0.4615 -4.6700 0.7781
-0.4738 -4.6917 0.7535
-0.4486 -4.6774 0.7162
-0.4464 -4.6855 0.6857
-0.4749 -4.7467 0.5968
-0.5042 -4.7882 0.5675
-0.4607 -4.7558 0.5255
-0.4636 -4.7711 0.4900
-0.4720 -4.7926 0.4537
-0.4444 -4.7764 0.4142
-0.4266 -4.7706 0.3754
-0.4162 -4.7865 0.2962
-0.4135 -4.7978 0.2550
-0.3917 -4.8028 0.1719
-0.4045 -4.8329 0.1243
0.1009 -4.3959 -0.1877
0.2237 -4.2620 -0.1828
0.2499 -4.2363 -0.1902
0.3113 -4.1683 -0.1846
0.3615 -4.1133 -0.1817
0.3833 -4.0896 -0.1811
0.4032 -4.0682 -0.1811
0.4201 -4.0511 -0.1844
0.4400 -4.0281 -0.1795
0.4562 -4.0106 -0.1796
0.4697 -3.9974 -0.1835
0.4840 -3.9823 -0.1841
0.4974 -3.9679 -0.1845
0.5243 -3.9371 -0.1790
0.5344 -3.9277 -0.1833
0.5456 -3.9152 -0.1822
0.5562 -3.9035 -0.1813
0.5665 -3.8919 -0.1796
0.5744 -3.8854 -0.1855
0.5836 -3.8753 -0.1847
0.6006 -3.8565 -0.1833
0.6089 -3.8466 -0.1805
0.6155 -3.8411 -0.1853
0.6229 -3.8326 -0.1838
0.6301 -3.8242 -0.1818
-0.4652 -4.7043 0.8541
-0.4541 -4.7036 0.8222
-0.4704 -4.7302 0.8001
-0.4211 -4.7020 0.7251
-0.4466 -4.7391 0.7029
-0.4397 -4.7674 0.6053
-0.4376 -4.7777 0.5711
-0.4664 -4.8217 0.5407
-0.4539 -4.8217 0.5025
-0.4309 -4.8101 0.4631
-0.4336 -4.8271 0.4254
-0.4155 -4.8212 0.3858
-0.4044 -4.8383 0.3055
-0.4017 -4.8507 0.2636
-0.3952 -4.8757 0.1763
-0.3973 -4.8954 0.1295
-0.3521 -4.9325 -0.1095
-0.2897 -4.8908 -0.1884
0.0121 -4.5484 -0.1894
0.1167 -4.4289 -0.1875
0.3232 -4.1943 -0.1874
0.3743 -4.1344 -0.1824
0.4120 -4.0938 -0.1884
0.4521 -4.0450 -0.1795
0.4825 -4.0108 -0.1808
0.4964 -3.9953 -0.1815
0.5095 -3.9807 -0.1821
0.5231 -3.9641 -0.1792
0.5339 -3.9531 -0.1825
0.5450 -3.9409 -0.1833
0.5570 -3.9254 -0.1785
0.5660 -3.9167 -0.1827
0.5760 -3.9048 -0.1812
0.5852 -3.8943 -0.1811
0.5937 -3.8852 -0.1824
0.6098 -3.8672 -0.1835
0.6179 -3.8571 -0.1808
0.6246 -3.8509 -0.1846
0.6320 -3.8415 -0.1820
0.6383 -3.8354 -0.1850
-0.4198 -4.7315 0.8004
-0.4455 -4.7700 0.7813
-0.4432 -4.7795 0.7506
-0.4662 -4.8164 0.7270
-0.4370 -4.8105 0.6542
-0.4653 -4.8552 0.6272
-0.4476 -4.8494 0.5886
-0.4449 -4.8606 0.5524
-0.4226 -4.8497 0.5127
-0.4048 -4.8438 0.4737
-0.3969 -4.8497 0.4353
-0.3886 -4.8554 0.3963
-0.3801 -4.8611 0.3565
-0.4079 -4.9465 0.2260
-0.4163 -4.9757 0.1781
-0.3904 -4.9618 0.1349
-0.3986 -4.9921 0.0835
-0.3778 -4.9854 0.0382
-0.3512 -4.9707 -0.0050
-0.2639 -4.9367 -0.1824
0.0286 -4.5886 -0.1893
0.1364 -4.4572 -0.1839
0.2452 -4.3303 -0.1927
0.3405 -4.2120 -0.1828
0.4283 -4.1064 -0.1819
0.4470 -4.0834 -0.1806
0.4620 -4.0671 -0.1848
0.4779 -4.0481 -0.1849
0.4923 -4.0314 -0.1862
0.5080 -4.0106 -0.1815
0.5203 -3.9970 -0.1841
0.5335 -3.9800 -0.1814
0.5444 -3.9680 -0.1841
0.5664 -3.9410 -0.1826
0.5751 -3.9328 -0.1880
0.5950 -3.9064 -0.1818
0.6041 -3.8944 -0.1790
0.6111 -3.8885 -0.1854
0.6185 -3.8807 -0.1881
0.6271 -3.8677 -0.1811
0.6341 -3.8594 -0.1815
0.6407 -3.8524 -0.1838
0.6471 -3.8455 -0.1857
-0.4513 -4.7959 0.8899
-0.4544 -4.8113 0.8632
-0.4533 -4.8485 0.7736
-0.4411 -4.8483 0.7381
-0.4488 -4.8708 0.7083
-0.4367 -4.8713 0.6718
-0.4395 -4.8891 0.6385
-0.4063 -4.8651 0.5965
-0.3570 -4.8365 0.5179
-0.3685 -4.8659 0.4833
-0.3652 -4.8780 0.4456
-0.3662 -4.8958 0.4070
-0.3632 -4.9092 0.3670
-0.3711 -4.9556 0.2822
-0.3952 -5.0067 0.2347
-0.3751 -5.0001 0.1905
-0.3439 -4.9787 0.1487
-0.3239 -4.9722 0.1050
-0.3113 -5.0695 -0.1584
-0.2426 -4.9913 -0.1792
-0.0388 -4.7450 -0.2071
0.2638 -4.3538 -0.1891
0.3549 -4.2358 -0.1830
0.3751 -4.2129 -0.1894
0.4230 -4.1484 -0.1807
0.4405 -4.1277 -0.1840
0.4760 -4.0816 -0.1816
0.4918 -4.0615 -0.1810
0.5052 -4.0458 -0.1841
0.5201 -4.0253 -0.1805
0.5332 -4.0085 -0.1799
0.5561 -3.9804 -0.1820
0.5673 -3.9654 -0.1804
0.5873 -3.9401 -0.1804
0.6047 -3.9194 -0.1835
0.6135 -3.9071 -0.1810
0.6219 -3.8956 -0.1788
0.6292 -3.8870 -0.1804
0.6362 -3.8791 -0.1825
0.6429 -3.8719 -0.1854
0.6498 -3.8621 -0.1832
0.6559 -3.8557 -0.1864
-0.4601 -4.9033 0.8280
-0.4584 -4.9157 0.7961
-0.4257 -4.8921 0.7528
-0.4280 -4.9097 0.7213
-0.4157 -4.9103 0.6845
-0.3930 -4.8983 0.6447
-0.3805 -4.8988 0.6076
-0.3777 -4.9115 0.5719
-0.3744 -4.9241 0.5352
-0.3659 -4.9304 0.4969
-0.3777 -4.9636 0.4596
-0.3919 -5.0203 0.3782
-0.3836 -5.0293 0.3349
-0.3855 -5.0527 0.2899
-0.3817 -5.0690 0.2437
-0.3671 -5.0708 0.1977
-0.3464 -5.0640 0.1524
-0.2940 -5.0111 0.1151
-0.2630 -5.0615 -0.0834
-0.2625 -5.0874 -0.1405
-0.2156 -5.0395 -0.1730
-0.1624 -4.9798 -0.1981
-0.0080 -4.7725 -0.1971
0.4367 -4.1691 -0.1808
0.4697 -4.1283 -0.1883
0.5040 -4.0794 -0.1819
0.5182 -4.0604 -0.1821
0.5324 -4.0401 -0.1795
0.5563 -4.0089 -0.1812
0.5777 -3.9811 -0.1830
0.5872 -3.9695 -0.1856
0.5980 -3.9523 -0.1796
0.6064 -3.9424 -0.1827
0.6153 -3.9297 -0.1810
0.6235 -3.9186 -0.1808
0.6312 -3.9090 -0.1820
0.6385 -3.8994 -0.1826
0.6457 -3.8899 -0.1828
0.6524 -3.8812 -0.1835
0.6590 -3.8719 -0.1825
0.6650 -3.8654 -0.1858
-0.4559 -4.9172 0.9380
-0.4493 -4.9238 0.9060
-0.4424 -4.9304 0.8733
-0.4199 -4.9183 0.8336
-0.4220 -4.9683 0.7394
-0.3898 -4.9443 0.6960
-0.3771 -4.9448 0.6587
-0.3683 -4.9508 0.6221
-0.3504 -4.9449 0.5829
-0.3326 -4.9391 0.5438
-0.3199 -4.9404 0.5054
-0.3792 -5.0820 0.3899
-0.3757 -5.0991 0.3457
-0.3607 -5.1003 0.3008
-0.3349 -5.0858 0.2565
-0.3093 -5.0713 0.2127
-0.2837 -5.0812 0.1203
-0.2685 -5.0830 0.0736
-0.1834 -5.0809 -0.1639
-0.1395 -5.0341 -0.1950
-0.0025 -4.8461 -0.2076
0.1491 -4.6149 -0.1751
0.2250 -4.5137 -0.1882
0.2976 -4.4103 -0.1872
0.3593 -4.3205 -0.1828
0.4079 -4.2519 -0.1834
0.4484 -4.1954 -0.1855
0.4852 -4.1422 -0.1833
0.5021 -4.1171 -0.1810
0.5175 -4.0945 -0.1796
0.5436 -4.0589 -0.1825
0.5683 -4.0225 -0.1797
0.5887 -3.9955 -0.1837
0.5988 -3.9808 -0.1827
0.6084 -3.9661 -0.1808
0.6177 -3.9516 -0.1781
0.6254 -3.9430 -0.1827
0.6341 -3.9280 -0.1774
0.6415 -3.9182 -0.1786
0.6485 -3.9091 -0.1805
0.6553 -3.9001 -0.1818
0.6620 -3.8905 -0.1815
0.6684 -3.8810 -0.1806
0.6739 -3.8779 -0.1900
-0.4020 -4.8713 1.0142
-0.4038 -4.8873 0.9897
-0.4240 -4.9562 0.9179
-0.4168 -4.9630 0.8852
-0.4093 -4.9696 0.8518
-0.3971 -4.9705 0.8159
-0.3587 -4.9720 0.7060
-0.3548 -4.9847 0.6714
-0.3517 -4.9991 0.6360
-0.3423 -5.0886 0.4437
-0.3547 -5.1297 0.4017
-0.3398 -5.1312 0.3573
-0.3041 -5.1258 0.2677
-0.2786 -5.1112 0.2236
-0.2631 -5.1124 0.1780
-0.2426 -5.1057 0.1332
-0.2491 -5.2676 -0.1496
-0.0951 -5.0512 -0.1777
0.1674 -4.6552 -0.1747
0.2472 -4.5394 -0.1826
0.3146 -4.4403 -0.1868
0.3752 -4.3470 -0.1826
0.4228 -4.2761 -0.1837
0.4435 -4.2455 -0.1847
0.4629 -4.2168 -0.1854
0.4996 -4.1592 -0.1811
0.5147 -4.1375 -0.1828
0.5285 -4.1183 -0.1856
0.5424 -4.0969 -0.1849
0.5543 -4.0811 -0.1887
0.5666 -4.0624 -0.1883
0.5793 -4.0407 -0.1834
0.5904 -4.0231 -0.1817
0.5996 -4.0117 -0.1862
0.6102 -3.9928 -0.1808
0.6188 -3.9816 -0.1839
0.6275 -3.9682 -0.1834
0.6360 -3.9543 -0.1812
0.6436 -3.9441 -0.1833
0.6509 -3.9333 -0.1838
0.6582 -3.9211 -0.1816
0.6649 -3.9119 -0.1831
0.6715 -3.9006 -0.1806
0.6776 -3.8916 -0.1810
0.6834 -3.8856 -0.1857
-0.4111 -4.9886 0.9649
-0.4057 -5.0151 0.9042
-0.3856 -5.0238 0.8341
-0.3581 -5.0046 0.7914
-0.3549 -5.0188 0.7583
-0.3466 -5.0263 0.7225
-0.3379 -5.0336 0.6861
-0.3510 -5.1155 0.5807
-0.3527 -5.1407 0.5419
-0.3432 -5.1499 0.4999
-0.3286 -5.1517 0.4567
-0.3190 -5.1616 0.4133
-0.3091 -5.1714 0.3690
-0.3099 -5.1993 0.3233
-0.2778 -5.2932 0.0728
-0.2778 -5.3266 0.0153
-0.2249 -5.3354 -0.1455
0.0585 -4.9092 -0.1894
0.1098 -4.8322 -0.1980
0.1799 -4.7107 -0.1809
0.2671 -4.5712 -0.1802
0.2994 -4.5229 -0.1858
0.3329 -4.4692 -0.1852
0.3643 -4.4176 -0.1827
0.4156 -4.3363 -0.1835
0.4399 -4.2957 -0.1802
0.4574 -4.2719 -0.1872
0.4941 -4.2142 -0.1887
0.5286 -4.1550 -0.1816
0.5422 -4.1346 -0.1838
0.5560 -4.1120 -0.1827
0.5676 -4.0959 -0.1867
0.5803 -4.0736 -0.1831
0.5915 -4.0554 -0.1826
0.6021 -4.0382 -0.1820
0.6113 -4.0257 -0.1859
0.6209 -4.0095 -0.1844
0.6293 -3.9981 -0.1878
0.6385 -3.9798 -0.1817
0.6461 -3.9701 -0.1857
0.6535 -3.9597 -0.1881
0.6609 -3.9472 -0.1868
0.6680 -3.9347 -0.1848
0.6747 -3.9231 -0.1832
0.6809 -3.9145 -0.1854
0.6869 -3.9046 -0.1849
0.6927 -3.8947 -0.1839
-0.3749 -5.0426 0.9142
-0.3455 -5.0585 0.8091
-0.3276 -5.0527 0.7700
-0.3196 -5.0613 0.7344
-0.2970 -5.0487 0.6934
-0.3018 -5.0772 0.6608
-0.3377 -5.1782 0.5964
-0.3334 -5.1964 0.5560
-0.3187 -5.1983 0.5128
-0.3036 -5.2001 0.4692
-0.2986 -5.2187 0.4258
-0.3101 -5.2660 0.3812
-0.2602 -5.3705 0.0791
-0.2484 -5.3846 0.0244
-0.2531 -5.4319 -0.0386
-0.1918 -5.4314 -0.2038
-0.0672 -5.2092 -0.1858
0.0079 -5.0849 -0.1904
0.1167 -4.9135 -0.2111
0.2381 -4.6938 -0.1886
0.3228 -4.5439 -0.1782
0.3506 -4.5011 -0.1849
0.3804 -4.4500 -0.1842
0.4303 -4.3670 -0.1864
0.4715 -4.2995 -0.1902
0.4952 -4.2520 -0.1783
0.5087 -4.2356 -0.1887
0.5430 -4.1719 -0.1795
0.5570 -4.1478 -0.1791
0.5689 -4.1304 -0.1835
0.5928 -4.0896 -0.1829
0.6138 -4.0542 -0.1832
0.6325 -4.0226 -0.1833
0.6409 -4.0094 -0.1850
0.6497 -3.9915 -0.1800
0.6569 -3.9824 -0.1851
0.6644 -3.9687 -0.1836
0.6713 -3.9589 -0.1865
0.6780 -3.9485 -0.1879
0.6906 -3.9271 -0.1879
0.7021 -3.9069 -0.1867
-0.3490 -5.0771 0.9267
-0.3409 -5.0853 0.8931
-0.3101 -5.0807 0.8176
-0.3104 -5.1025 0.7861
-0.2922 -5.0966 0.7464
-0.2828 -5.1043 0.7098
-0.3172 -5.2070 0.6494
-0.3288 -5.2519 0.6139
-0.3137 -5.2539 0.5706
-0.2934 -5.2473 0.5260
-0.2730 -5.2406 0.4814
-0.2781 -5.2787 0.4387
-0.2089 -5.3855 0.0954
-0.1650 -5.5061 -0.2004
0.0222 -5.1659 -0.1963
0.1534 -4.9293 -0.1958
0.2612 -4.7275 -0.1845
0.3428 -4.5745 -0.1757
0.4007 -4.4726 -0.1793
0.4504 -4.3828 -0.1789
0.4921 -4.3072 -0.1781
0.5272 -4.2438 -0.1780
0.5828 -4.1458 -0.1811
0.5936 -4.1299 -0.1864
0.6051 -4.1083 -0.1851
0.6261 -4.0681 -0.1817
0.6437 -4.0399 -0.1868
0.6524 -4.0223 -0.1840
0.6603 -4.0089 -0.1851
0.6679 -3.9948 -0.1845
0.6752 -3.9800 -0.1821
0.6818 -3.9716 -0.1873
0.6947 -3.9434 -0.1800
0.7006 -3.9345 -0.1824
0.7062 -3.9241 -0.1821
-0.3441 -5.1029 1.0081
-0.3500 -5.1320 0.9836
-0.3275 -5.1190 0.9420
-0.2958 -5.0919 0.8959
-0.3148 -5.1429 0.8758
-0.3107 -5.1591 0.8427
-0.2923 -5.1531 0.8025
-0.3069 -5.2259 0.7410
-0.2826 -5.2379 0.6606
-0.2983 -5.2927 0.6268
-0.1948 -5.4772 0.1007
-0.1159 -5.5322 -0.1826
0.0518 -5.2159 -0.1903
0.2866 -4.7561 -0.1778
0.3595 -4.6171 -0.1791
0.4160 -4.5123 -0.1841
0.4660 -4.4143 -0.1815
0.5398 -4.2759 -0.1858
0.5697 -4.2181 -0.1853
0.5959 -4.1664 -0.1833
0.6068 -4.1484 -0.1873
0.6193 -4.1171 -0.1774
0.6288 -4.1020 -0.1817
0.6381 -4.0862 -0.1844
0.6474 -4.0672 -0.1828
0.6640 -4.0353 -0.1830
0.6716 -4.0216 -0.1843
0.6788 -4.0097 -0.1868
0.6859 -3.9938 -0.1836
0.6925 -3.9804 -0.1828
0.6988 -3.9688 -0.1833
0.7048 -3.9564 -0.1821
0.7160 -3.9344 -0.1813
0.7213 -3.9270 -0.1852
-0.3525 -5.1480 1.0972
-0.3318 -5.1585 1.0297
-0.3280 -5.1746 0.9995
-0.3008 -5.1542 0.9548
-0.2869 -5.1546 0.9180
-0.2967 -5.1941 0.8934
-0.2734 -5.1798 0.8508
-0.2781 -5.2127 0.8214
-0.2921 -5.2627 0.7945
-0.3078 -5.3173 0.7659
-0.2877 -5.3107 0.7220
-0.2777 -5.3223 0.6813
-0.2882 -5.3719 0.6456
-0.1635 -5.5373 0.1112
-0.1168 -5.5748 -0.0579
-0.0874 -5.5545 -0.1087
-0.0976 -5.6362 -0.1858
0.1280 -5.1898 -0.2059
0.2465 -4.9416 -0.1990
0.3122 -4.7849 -0.1711
0.3404 -4.7386 -0.1856
0.3744 -4.6697 -0.1866
0.4075 -4.5987 -0.1826
0.5013 -4.4114 -0.1888
0.5402 -4.3261 -0.1819
0.5706 -4.2659 -0.1844
0.5850 -4.2348 -0.1823
0.5976 -4.2101 -0.1837
0.6207 -4.1638 -0.1850
0.6316 -4.1396 -0.1827
0.6415 -4.1190 -0.1824
0.6504 -4.1037 -0.1862
0.6594 -4.0843 -0.1849
0.6674 -4.0710 -0.1889
0.6758 -4.0476 -0.1810
0.6831 -4.0345 -0.1834
0.6902 -4.0190 -0.1821
0.6968 -4.0069 -0.1841
0.7032 -3.9933 -0.1834
0.7093 -3.9839 -0.1873
0.7151 -3.9696 -0.1842
0.7207 -3.9596 -0.1860
0.7258 -3.9447 -0.1804
-0.2829 -5.1356 1.0540
-0.3051 -5.1938 1.0429
-0.2873 -5.1880 1.0039
-0.2606 -5.1674 0.9595
-0.2517 -5.1764 0.9260
-0.2678 -5.3108 0.8100
-0.2674 -5.3395 0.7752
-0.2723 -5.3793 0.7411
-0.2621 -5.3921 0.6998
-0.0431 -5.6494 -0.1645
0.1609 -5.2302 -0.1972
0.2572 -5.0339 -0.2146
0.3320 -4.8345 -0.1729
0.3604 -4.7845 -0.1872
0.4225 -4.6521 -0.1916
0.4782 -4.5226 -0.1831
0.5229 -4.4188 -0.1762
0.5399 -4.3852 -0.1804
0.6116 -4.2326 -0.1860
0.6343 -4.1828 -0.1858
0.6545 -4.1354 -0.1822
0.6721 -4.0948 -0.1799
0.6875 -4.0643 -0.1836
0.6946 -4.0501 -0.1853
0.7015 -4.0325 -0.1824
0.7079 -4.0177 -0.1815
0.7140 -4.0038 -0.1809
0.7199 -3.9909 -0.1807
0.7255 -3.9805 -0.1831
0.7307 -3.9678 -0.1816
0.7360 -3.9593 -0.1851
0.7413 -3.9541 -0.1928
-0.2443 -5.1484 1.0576
-0.2776 -5.2283 1.0557
-0.2428 -5.1934 1.0053
-0.2161 -5.1969 0.9335
-0.2025 -5.1986 0.8972
-0.2478 -5.3690 0.8281
-0.2518 -5.4088 0.7954
-0.2219 -5.3833 0.7469
-0.2111 -5.3955 0.7062
-0.0127 -5.7311 -0.1603
0.0555 -5.5899 -0.1808
0.1916 -5.2797 -0.1912
0.2966 -5.0355 -0.1941
0.3832 -4.8236 -0.1852
0.4240 -4.7141 -0.1705
0.4474 -4.6698 -0.1819
0.4957 -4.5605 -0.1864
0.5394 -4.4509 -0.1790
0.5722 -4.3790 -0.1846
0.6266 -4.2510 -0.1846
0.6481 -4.2029 -0.1873
0.6676 -4.1537 -0.1836
0.6762 -4.1360 -0.1862
0.6845 -4.1141 -0.1836
0.6922 -4.0958 -0.1835
0.6995 -4.0786 -0.1834
0.7064 -4.0641 -0.1853
0.7130 -4.0480 -0.1845
0.7250 -4.0169 -0.1815
0.7360 -3.9915 -0.1819
0.7412 -3.9810 -0.1838
0.7512 -3.9629 -0.1896
-0.2226 -5.1894 1.0735
-0.2129 -5.1970 1.0415
-0.2162 -5.2287 1.0183
-0.1979 -5.3073 0.8944
-0.2160 -5.4408 0.8070
-0.0363 -5.7067 0.0916
-0.0347 -5.7674 0.0273
-0.0042 -5.8922 -0.1735
0.0941 -5.6407 -0.1704
0.2069 -5.3890 -0.2034
0.2690 -5.2267 -0.1980
0.3629 -4.9865 -0.1951
0.4451 -4.7537 -0.1703
0.4680 -4.7076 -0.1819
0.5894 -4.4018 -0.1830
0.6422 -4.2650 -0.1795
0.6527 -4.2418 -0.1827
0.6627 -4.2178 -0.1840
0.6810 -4.1732 -0.1856
0.6893 -4.1525 -0.1861
0.6973 -4.1310 -0.1846
0.7047 -4.1142 -0.1866
0.7183 -4.0747 -0.1814
0.7306 -4.0473 -0.1852
0.7364 -4.0346 -0.1871
0.7416 -4.0176 -0.1832
0.7469 -4.0069 -0.1859
0.7518 -3.9945 -0.1860
0.7562 -3.9796 -0.1820
0.7615 -3.9752 -0.1910
-0.2137 -5.3111 1.0496
-0.1995 -5.3129 1.0126
-0.1730 -5.3532 0.9101
-0.0155 -5.8155 0.0972
0.0695 -5.8413 -0.1375
0.1262 -5.7184 -0.1663
0.1741 -5.6205 -0.1959
0.3831 -5.0579 -0.2023
0.4909 -4.7372 -0.1777
0.5124 -4.6886 -0.1867
0.5559 -4.5672 -0.1841
0.5909 -4.4726 -0.1849
0.6070 -4.4249 -0.1813
0.6572 -4.2874 -0.1808
0.6676 -4.2600 -0.1814
0.6771 -4.2366 -0.1838
0.6861 -4.2170 -0.1882
0.7027 -4.1672 -0.1842
0.7173 -4.1246 -0.1816
0.7364 -4.0749 -0.1837
0.7422 -4.0610 -0.1855
0.7527 -4.0308 -0.1839
0.7623 -4.0055 -0.1848
0.7718 -3.9867 -0.1912
-0.1698 -5.3159 1.0507
-0.1439 -5.3919 0.9236
-0.1456 -5.4314 0.8949
0.0461 -5.7976 0.1180
0.1486 -5.8438 -0.1726
0.1944 -5.7491 -0.2063
0.3228 -5.3609 -0.1982
0.4139 -5.0854 -0.1923
0.5370 -4.7027 -0.1757
0.5598 -4.6288 -0.1702
0.5751 -4.6020 -0.1856
0.5947 -4.5339 -0.1769
0.6084 -4.5086 -0.1895
0.6377 -4.4155 -0.1839
0.6826 -4.2804 -0.1816
0.7005 -4.2309 -0.1843
0.7163 -4.1859 -0.1856
0.7301 -4.1396 -0.1810
0.7427 -4.1070 -0.1848
0.7482 -4.0872 -0.1818
0.7537 -4.0721 -0.1827
0.7593 -4.0608 -0.1869
0.7641 -4.0460 -0.1865
0.7681 -4.0266 -0.1802
0.7725 -4.0138 -0.1804
0.7773 -4.0047 -0.1844
-0.1510 -5.4049 1.0461
-0.1651 -5.4708 1.0303
-0.1606 -5.5365 0.9694
-0.1579 -5.5707 0.9368
0.0968 -6.2021 -0.1636
0.2436 -5.7608 -0.1854
0.3571 -5.4024 -0.1893
0.4388 -5.1479 -0.1947
0.5116 -4.8837 -0.1710
0.5552 -4.6679 -0.1132
0.5726 -4.6262 -0.1237
0.5841 -4.6283 -0.1533
0.5964 -4.6243 -0.1802
0.6280 -4.5283 -0.1842
0.6552 -4.4405 -0.1836
0.6781 -4.3698 -0.1856
0.6979 -4.3068 -0.1859
0.7150 -4.2477 -0.1827
0.7301 -4.2019 -0.1845
0.7368 -4.1783 -0.1830
0.7436 -4.1643 -0.1890
0.7493 -4.1382 -0.1829
0.7552 -4.1216 -0.1846
0.7659 -4.0889 -0.1858
0.7708 -4.0737 -0.1863
0.7751 -4.0557 -0.1830
0.7789 -4.0379 -0.1788
0.7842 -4.0313 -0.1867
0.7881 -4.0174 -0.1855
-0.1223 -5.4435 1.0602
-0.1270 -5.4920 1.0381
-0.1282 -5.5343 1.0118
-0.1133 -5.5823 0.9426
-0.1056 -5.6078 0.9065
0.1356 -6.3078 -0.1585
0.2758 -5.8566 -0.1852
0.3317 -5.6736 -0.1938
0.3916 -5.4454 -0.1807
0.4199 -5.3902 -0.2108
0.6021 -4.6867 -0.1646
0.6169 -4.6569 -0.1798
0.6321 -4.6130 -0.1862
0.6468 -4.5633 -0.1873
0.6730 -4.4659 -0.1832
0.6841 -4.4373 -0.1902
0.7045 -4.3627 -0.1880
0.7506 -4.1979 -0.1854
0.7566 -4.1750 -0.1840
0.7621 -4.1522 -0.1815
0.7677 -4.1354 -0.1834
0.7733 -4.1216 -0.1874
0.7824 -4.0857 -0.1846
0.7866 -4.0693 -0.1835
0.7903 -4.0521 -0.1806
0.7996 -4.0331 -0.1898
0.8033 -4.0209 -0.1904
-0.0744 -5.4763 1.0331
-0.1056 -5.5960 1.0330
-0.0570 -5.6077 0.9097
0.1410 -6.3125 -0.0033
0.3198 -5.8960 -0.1710
0.3644 -5.7617 -0.1938
0.4237 -5.5080 -0.1772
0.4502 -5.4605 -0.2109
0.6204 -4.7643 -0.1835
0.6525 -4.6454 -0.1862
0.6796 -4.5352 -0.1822
0.7019 -4.4604 -0.1888
0.7211 -4.3825 -0.1861
0.7375 -4.3168 -0.1843
0.7448 -4.2868 -0.1830
0.7515 -4.2580 -0.1812
0.7643 -4.2129 -0.1835
0.7752 -4.1684 -0.1818
0.7805 -4.1513 -0.1840
0.7857 -4.1353 -0.1863
0.7901 -4.1164 -0.1850
0.7936 -4.0948 -0.1800
0.8019 -4.0665 -0.1823
0.8100 -4.0424 -0.1864
0.8152 -4.0376 -0.1960
-0.0555 -5.5430 1.0568
-0.0662 -5.6168 1.0410
-0.0698 -5.6745 1.0170
-0.0301 -5.6144 0.9567
-0.0443 -5.7060 0.9389
-0.0393 -5.7463 0.9045
0.1121 -6.4850 0.1319
0.1466 -6.4528 0.0682
0.1684 -6.4876 -0.0029
0.1989 -6.4776 -0.0695
0.3457 -6.0618 -0.1844
0.3968 -5.8680 -0.1971
0.4512 -5.6175 -0.1857
0.4864 -5.4928 -0.1992
0.6251 -4.6835 -0.0744
0.6432 -4.7981 -0.1815
0.6737 -4.6718 -0.1829
0.6987 -4.5756 -0.1884
0.7199 -4.4785 -0.1842
0.7379 -4.4056 -0.1861
0.7535 -4.3408 -0.1865
0.7668 -4.2830 -0.1858
0.7787 -4.2340 -0.1866
0.7890 -4.1887 -0.1856
0.7977 -4.1460 -0.1824
0.8067 -4.1148 -0.1860
0.8108 -4.0999 -0.1874
0.8143 -4.0840 -0.1870
0.8170 -4.0653 -0.1828
0.8217 -4.0575 -0.1895
1.6726 -4.1290 0.5889
1.6574 -4.1392 0.5900
1.2687 -3.9980 0.5127
1.2576 -4.0009 0.5123
1.6736 -4.1288 0.5720
1.6566 -4.1362 0.5721
1.6406 -4.1455 0.5728
1.4737 -4.0553 0.5352
1.3513 -4.0162 0.5141
1.3386 -4.0162 0.5129
1.2900 -4.0049 0.5055
1.2786 -4.0055 0.5046
1.2675 -4.0014 0.5026
1.2566 -4.0008 0.5014
1.2457 -4.0024 0.5007
1.2348 -4.0040 0.5001
1.2243 -4.0044 0.4991
1.2139 -4.0047 0.4982
1.2032 -4.0074 0.4979
1.1925 -4.0102 0.4975
1.1833 -4.0065 0.4957
1.1729 -4.0092 0.4954
1.1632 -4.0092 0.4945
1.1526 -4.0131 0.4944
1.1436 -4.0117 0.4932
1.1335 -4.0142 0.4928
1.1239 -4.0154 0.4922
1.1139 -4.0179 0.4918
1.1055 -4.0163 0.4906
1.0660 -4.0969 0.5061
1.0520 -4.1066 0.5071
1.6558 -4.1331 0.5541
1.6429 -4.1483 0.5563
1.4557 -4.0478 0.5181
1.4220 -4.0335 0.5120
1.3643 -4.0211 0.5042
1.3507 -4.0168 0.5021
1.3377 -4.0134 0.5003
1.3252 -4.0134 0.4991
1.3128 -4.0098 0.4973
1.3008 -4.0061 0.4954
1.2891 -4.0046 0.4941
1.2776 -4.0076 0.4937
1.2663 -4.0059 0.4924
1.2553 -4.0042 0.4910
1.2443 -4.0059 0.4904
1.2336 -4.0051 0.4893
1.2229 -4.0056 0.4885
1.2127 -4.0047 0.4874
1.2019 -4.0074 0.4871
1.1912 -4.0102 0.4867
1.1814 -4.0091 0.4856
1.1715 -4.0093 0.4848
1.1605 -4.0144 0.4850
1.1515 -4.0119 0.4836
1.1409 -4.0158 0.4835
1.1315 -4.0158 0.4827
1.1218 -4.0170 0.4821
1.1118 -4.0195 0.4818
1.6232 -4.1497 0.5374
1.4954 -4.0711 0.5120
1.3639 -4.0226 0.4921
1.3244 -4.0129 0.4870
1.3121 -4.0116 0.4858
1.3000 -4.0126 0.4850
1.2881 -4.0123 0.4841
1.2766 -4.0073 0.4822
1.2650 -4.0115 0.4821
1.2538 -4.0099 0.4809
1.2434 -4.0033 0.4788
1.2322 -4.0074 0.4787
1.2207 -4.0127 0.4788
1.2108 -4.0083 0.4771
1.2002 -4.0099 0.4766
1.1897 -4.0114 0.4761
1.1792 -4.0129 0.4755
1.1686 -4.0156 0.4752
1.1583 -4.0171 0.4747
1.1482 -4.0185 0.4741
1.1382 -4.0198 0.4736
1.1299 -4.0160 0.4722
1.1197 -4.0185 0.4719
1.1101 -4.0197 0.4714
2.0325 -4.2427 0.5648
1.6575 -4.1327 0.5192
1.6243 -4.1505 0.5199
1.5000 -4.0839 0.4997
1.4424 -4.0570 0.4909
1.4240 -4.0443 0.4874
1.4086 -4.0419 0.4859
1.3940 -4.0415 0.4848
1.3784 -4.0323 0.4822
1.3641 -4.0284 0.4805
1.3241 -4.0201 0.4762
1.3114 -4.0168 0.4747
1.2992 -4.0144 0.4734
1.2754 -4.0151 0.4719
1.2639 -4.0124 0.4706
1.2525 -4.0131 0.4699
1.2412 -4.0138 0.4692
1.2303 -4.0132 0.4684
1.2197 -4.0114 0.4673
1.2090 -4.0118 0.4666
1.1982 -4.0135 0.4661
1.1876 -4.0151 0.4656
1.1767 -4.0179 0.4653
1.1662 -4.0194 0.4649
1.1572 -4.0159 0.4636
1.1460 -4.0211 0.4637
1.1354 -4.0238 0.4634
1.1270 -4.0200 0.4622
1.1167 -4.0226 0.4619
1.1074 -4.0226 0.4612
1.9398 -4.3555 0.5523
1.6875 -4.1445 0.5051
1.6496 -4.1560 0.5044
1.6042 -4.1510 0.5008
1.5695 -4.1194 0.4940
1.5225 -4.0968 0.4877
1.5006 -4.0855 0.4846
1.4613 -4.0680 0.4795
1.4254 -4.0516 0.4749
1.3936 -4.0416 0.4714
1.3782 -4.0347 0.4694
1.3501 -4.0291 0.4668
1.3366 -4.0260 0.4655
1.3108 -4.0230 0.4634
1.2984 -4.0230 0.4626
1.2862 -4.0183 0.4612
1.2744 -4.0158 0.4601
1.2628 -4.0144 0.4591
1.2513 -4.0151 0.4585
1.2400 -4.0147 0.4578
1.2288 -4.0154 0.4572
1.2180 -4.0148 0.4564
1.2068 -4.0177 0.4561
1.1965 -4.0158 0.4552
1.1855 -4.0187 0.4549
1.1739 -4.0240 0.4550
1.1645 -4.0206 0.4539
1.1534 -4.0247 0.4538
1.1433 -4.0249 0.4532
1.1338 -4.0239 0.4525
1.1237 -4.0253 0.4520
1.1155 -4.0215 0.4510
1.1071 -4.0188 0.4500
3.0091 -4.5258 0.6059
2.0546 -4.2576 0.5206
1.7164 -4.1518 0.4890
1.6985 -4.1606 0.4892
1.6763 -4.1619 0.4881
1.6559 -4.1659 0.4875
1.6347 -4.1680 0.4867
1.6101 -4.1623 0.4846
1.5477 -4.1128 0.4750
1.5023 -4.0899 0.4697
1.4820 -4.0815 0.4675
1.4444 -4.0659 0.4636
1.4270 -4.0598 0.4619
1.3936 -4.0438 0.4580
1.3786 -4.0402 0.4568
1.3638 -4.0354 0.4554
1.3358 -4.0253 0.4526
1.2974 -4.0190 0.4497
1.2852 -4.0224 0.4495
1.2731 -4.0222 0.4488
1.2385 -4.0179 0.4464
1.2269 -4.0210 0.4462
1.2161 -4.0193 0.4454
1.2049 -4.0211 0.4450
1.1938 -4.0229 0.4446
1.1828 -4.0247 0.4442
1.1606 -4.0305 0.4438
1.1505 -4.0297 0.4431
1.1411 -4.0275 0.4423
1.1311 -4.0277 0.4418
1.1225 -4.0241 0.4409
1.1143 -4.0203 0.4400
1.1040 -4.0229 0.4397
2.0054 -4.2368 0.4917
1.7998 -4.1637 0.4749
1.7721 -4.1603 0.4733
1.6937 -4.1507 0.4687
1.6749 -4.1576 0.4686
1.6575 -4.1673 0.4688
1.6386 -4.1742 0.4686
1.6119 -4.1648 0.4664
1.5481 -4.1130 0.4583
1.5299 -4.1151 0.4577
1.4835 -4.0860 0.4526
1.4653 -4.0826 0.4514
1.4457 -4.0718 0.4494
1.3640 -4.0410 0.4426
1.3497 -4.0383 0.4417
1.3224 -4.0315 0.4397
1.3093 -4.0284 0.4388
1.2842 -4.0218 0.4370
1.2720 -4.0240 0.4367
1.2138 -4.0262 0.4342
1.2030 -4.0245 0.4336
1.1913 -4.0287 0.4335
1.1476 -4.0346 0.4321
1.1384 -4.0312 0.4313
1.1295 -4.0277 0.4306
1.1217 -4.0216 0.4296
1.1126 -4.0204 0.4290
1.9839 -4.2442 0.4675
1.7801 -4.1691 0.4542
1.6357 -4.1670 0.4487
1.5513 -4.1198 0.4419
1.5309 -4.1172 0.4410
1.4842 -4.0885 0.4370
1.4451 -4.0704 0.4342
1.4288 -4.0697 0.4335
1.3932 -4.0470 0.4304
1.3496 -4.0439 0.4286
1.3216 -4.0318 0.4266
1.3085 -4.0332 0.4263
1.2707 -4.0292 0.4246
1.2588 -4.0257 0.4238
1.2125 -4.0258 0.4222
1.1897 -4.0297 0.4216
1.1782 -4.0328 0.4214
1.1677 -4.0322 0.4210
1.1567 -4.0339 0.4207
1.1465 -4.0332 0.4203
1.1365 -4.0324 0.4199
1.1290 -4.0239 0.4189
1.1205 -4.0204 0.4183
1.1100 -4.0231 0.4182
0.4135 -5.7796 0.5290
1.7412 -4.1837 0.4332
1.7181 -4.1865 0.4327
1.6343 -4.1628 0.4291
1.6155 -4.1696 0.4290
1.5915 -4.1650 0.4280
1.5536 -4.1246 0.4248
1.5319 -4.1192 0.4239
1.3643 -4.0539 0.4158
1.2947 -4.0350 0.4128
1.2820 -4.0330 0.4123
1.1891 -4.0258 0.4094
1.1530 -4.0423 0.4092
1.1435 -4.0380 0.4087
1.1341 -4.0347 0.4083
1.1262 -4.0277 0.4077
1.1175 -4.0242 0.4073
1.1083 -4.0231 0.4070
1.7128 -4.1756 0.4116
1.6991 -4.1938 0.4118
1.6688 -4.1828 0.4109
1.6118 -4.1606 0.4092
1.5918 -4.1646 0.4090
1.5343 -4.1250 0.4067
1.2938 -4.0354 0.3996
1.2687 -4.0269 0.3988
1.1968 -4.0365 0.3977
1.1762 -4.0286 0.3971
1.1630 -4.0389 0.3972
1.1521 -4.0396 0.3970
1.1406 -4.0427 0.3969
1.1325 -4.0346 0.3965
1.1242 -4.0288 0.3961
1.1159 -4.0242 0.3959
1.1052 -4.0270 0.3957
1.6699 -4.1829 0.3905
1.5363 -4.1298 0.3889
1.5135 -4.2507 0.3892
1.2676 -4.0285 0.3859
1.2424 -4.0365 0.3856
1.1948 -4.0396 0.3852
1.1610 -4.0410 0.3849
1.1502 -4.0405 0.3847
1.1377 -4.0473 0.3846
1.1302 -4.0369 0.3845
1.1218 -4.0312 0.3844
1.1129 -4.0279 0.3843
1.1021 -4.0307 0.3842
0.3518 -5.7763 0.3838
1.2787 -4.0397 0.3725
1.2660 -4.0378 0.3725
1.2530 -4.0436 0.3724
1.1922 -4.0462 0.3723
1.1694 -4.0458 0.3723
1.1580 -4.0467 0.3722
1.1290 -4.0355 0.3724
1.1205 -4.0299 0.3726
1.1112 -4.0278 0.3726
1.0995 -4.0332 0.3725
2.2949 -4.9328 0.3085
1.5384 -4.1341 0.3522
1.4920 -4.1132 0.3535
1.2779 -4.0334 0.3591
1.2649 -4.0382 0.3590
1.2519 -4.0429 0.3588
1.2396 -4.0398 0.3591
1.2037 -4.0388 0.3594
1.1914 -4.0422 0.3594
1.1807 -4.0385 0.3596
1.1687 -4.0418 0.3596
1.1565 -4.0463 0.3595
1.1446 -4.0495 0.3594
1.1277 -4.0340 0.3603
1.1173 -4.0346 0.3604
1.1069 -4.0351 0.3604
0.6854 -5.0087 0.3186
3.3850 -5.3377 0.2133
1.9876 -4.2625 0.3161
1.3593 -5.0818 0.2680
1.3200 -5.1175 0.2661
1.1907 -4.0382 0.3466
1.1788 -4.0404 0.3466
1.1667 -4.0437 0.3466
1.1269 -4.0314 0.3482
1.1127 -4.0430 0.3476
1.1018 -4.0448 0.3477
1.8320 -4.1836 0.3015
1.5647 -4.1465 0.3125
1.1222 -4.0408 0.3350
1.1127 -4.0378 0.3355
1.1013 -4.0409 0.3356
2.4782 -4.6755 0.1927
1.8369 -4.1869 0.2775
1.8036 -4.1799 0.2796
1.7795 -4.1844 0.2800
1.7579 -4.1923 0.2798
1.5473 -4.1555 0.2922
1.4604 -4.0695 0.3061
1.4408 -4.0607 0.3080
1.4225 -4.0536 0.3095
1.4046 -4.0452 0.3112
1.3725 -4.0368 0.3135
1.3570 -4.0307 0.3148
1.3146 -4.0281 0.3167
1.3011 -4.0277 0.3172
1.2749 -4.0256 0.3185
1.2624 -4.0228 0.3193
1.2498 -4.0242 0.3196
1.2375 -4.0244 0.3200
1.1190 -4.0453 0.3218
1.1081 -4.0460 0.3221
2.5091 -4.5476 0.1676
2.0044 -4.3088 0.2274
1.9339 -4.2660 0.2372
1.8217 -4.2015 0.2522
1.7933 -4.2013 0.2536
1.7688 -4.2060 0.2540
1.7434 -4.2089 0.2548
1.6868 -4.2022 0.2584
1.5746 -4.1682 0.2688
1.5498 -4.1614 0.2710
1.5347 -4.1795 0.2690
1.5103 -4.1705 0.2715
1.4389 -4.0543 0.2925
1.4198 -4.0433 0.2950
1.4028 -4.0379 0.2966
1.3567 -4.0336 0.2994
1.3275 -4.0263 0.3019
1.3135 -4.0219 0.3032
1.3001 -4.0237 0.3036
1.2869 -4.0232 0.3043
1.2613 -4.0209 0.3058
1.2490 -4.0191 0.3067
1.2365 -4.0226 0.3067
1.2238 -4.0272 0.3066
1.2116 -4.0285 0.3070
1.1994 -4.0308 0.3072
1.1162 -4.0485 0.3084
1.1043 -4.0517 0.3085
0.8383 -4.6406 0.2316
0.8012 -4.6309 0.2348
4.0866 -5.3646 -0.1085
4.1519 -5.4874 -0.1341
3.9026 -5.7414 -0.1655
3.9900 -5.9221 -0.2028
4.0347 -6.0765 -0.2329
1.7940 -4.1996 0.2298
1.7660 -4.1993 0.2314
1.7439 -4.2073 0.2312
1.7178 -4.2085 0.2325
1.6910 -4.2077 0.2341
1.6740 -4.2244 0.2321
1.6443 -4.2164 0.2352
1.6221 -4.2224 0.2354
1.5519 -4.1663 0.2494
1.5222 -4.1436 0.2552
1.4978 -4.1315 0.2587
1.4736 -4.1163 0.2628
1.4521 -4.1063 0.2658
1.4310 -4.0941 0.2692
1.1224 -4.0577 0.2932
1.1137 -4.0504 0.2950
1.1018 -4.0537 0.2951
0.8513 -4.5982 0.2119
0.8275 -4.6069 0.2116
0.8059 -4.6105 0.2122
0.7783 -4.6279 0.2107
4.2514 -5.3100 -0.1875
4.2744 -5.3983 -0.2073
3.9943 -5.2902 -0.1663
2.6347 -4.5473 0.0776
3.7077 -5.6556 -0.2226
1.5558 -4.1756 0.2263
1.5338 -4.1763 0.2276
1.4303 -4.0923 0.2518
1.4106 -4.0817 0.2553
1.3916 -4.0699 0.2590
1.3742 -4.0617 0.2619
1.3583 -4.0602 0.2632
1.3427 -4.0576 0.2648
1.3277 -4.0589 0.2655
1.3130 -4.0601 0.2663
1.2984 -4.0591 0.2674
1.2842 -4.0581 0.2686
1.2704 -4.0548 0.2702
1.2567 -4.0556 0.2710
1.1502 -4.0777 0.2735
1.1365 -4.0837 0.2732
1.1223 -4.0910 0.2726
2.6489 -4.5518 0.0326
1.5456 -4.2094 0.1975
1.5285 -4.2280 0.1945
1.3579 -4.0628 0.2463
1.3421 -4.0602 0.2481
1.3268 -4.0575 0.2499
1.3119 -4.0568 0.2512
1.2973 -4.0517 0.2535
1.2832 -4.0517 0.2546
1.2696 -4.0463 0.2569
1.2559 -4.0492 0.2573
1.2422 -4.0532 0.2574
1.2292 -4.0517 0.2588
1.2165 -4.0501 0.2601
1.2030 -4.0550 0.2600
1.1898 -4.0588 0.2601
1.1768 -4.0615 0.2605
1.1642 -4.0630 0.2611
1.1244 -4.0775 0.2608
1.1052 -4.0648 0.2652
1.0933 -4.0671 0.2656
3.3970 -4.8187 -0.1462
2.8518 -4.5161 -0.0194
2.7089 -4.4614 0.0074
2.6002 -4.5523 -0.0069
2.5727 -4.5767 -0.0110
2.5551 -4.6108 -0.0184
2.5838 -4.6896 -0.0416
2.5321 -5.0390 -0.1288
2.4607 -5.0312 -0.1205
2.2069 -4.8422 -0.0488
2.1132 -4.7788 -0.0240
1.8174 -4.4266 0.0942
1.7718 -4.4052 0.1038
1.8912 -4.7169 0.0116
1.8610 -4.7454 0.0067
1.3116 -4.0789 0.2295
1.2284 -4.0465 0.2452
1.2160 -4.0438 0.2470
1.2020 -4.0520 0.2461
1.1888 -4.0558 0.2462
1.1751 -4.0618 0.2458
1.1622 -4.0644 0.2463
1.1500 -4.0648 0.2472
1.1376 -4.0662 0.2479
1.1244 -4.0710 0.2478
1.1027 -4.0666 0.2509
0.2480 -6.0296 -0.1899
0.1229 -6.1019 -0.1980
0.0668 -6.1223 -0.1985
2.7400 -4.3985 -0.0196
2.6021 -4.4599 -0.0240
2.5594 -4.4694 -0.0226
2.5869 -4.5348 -0.0444
2.6282 -4.6167 -0.0722
2.6112 -4.6535 -0.0813
