ply
format ascii 1.0
element vertex 2100
property float x
property float y
property float z
end_header
2.0585 -2.3299 -0.1302
2.1374 -2.3792 -0.1288
2.2026 -2.4209 -0.1298
2.2657 -2.4603 -0.1283
2.3311 -2.4990 -0.1219
2.3751 -2.5279 -0.1246
2.5065 -2.6083 -0.1178
2.5348 -2.6279 -0.1217
2.5707 -2.6492 -0.1182
2.6012 -2.6679 -0.1169
2.6256 -2.6842 -0.1188
2.6498 -2.6998 -0.1194
2.6774 -2.7156 -0.1157
2.6928 -2.7278 -0.1214
2.7175 -2.7418 -0.1174
2.7404 -2.7547 -0.1137
2.7513 -2.7646 -0.1208
2.7757 -2.7769 -0.1131
2.7865 -2.7860 -0.1187
2.8022 -2.7957 -0.1181
2.8171 -2.8049 -0.1176
2.8318 -2.8137 -0.1163
2.8432 -2.8217 -0.1182
2.8611 -2.8301 -0.1113
2.8682 -2.8370 -0.1171
2.8785 -2.8440 -0.1182
2.8937 -2.8511 -0.1121
2.9015 -2.8574 -0.1154
0.0440 -0.7855 0.7926
1.1739 -1.6776 0.2743
-0.1085 -1.0670 -0.0989
0.1665 -1.2494 -0.1419
1.1932 -1.8330 -0.0698
1.1414 -1.8323 -0.1423
1.5655 -2.0792 -0.1265
1.9138 -2.2898 -0.1321
2.0821 -2.3910 -0.1335
2.1969 -2.4506 -0.1120
2.2487 -2.4837 -0.1170
2.3470 -2.5443 -0.1215
2.4052 -2.5760 -0.1141
2.4371 -2.5976 -0.1202
2.5005 -2.6386 -0.1274
2.5695 -2.6780 -0.1232
2.6032 -2.6963 -0.1187
2.6263 -2.7111 -0.1211
2.6781 -2.7403 -0.1168
2.7190 -2.7648 -0.1169
2.7380 -2.7760 -0.1166
2.7560 -2.7866 -0.1162
2.7730 -2.7966 -0.1157
2.7866 -2.8057 -0.1180
2.8009 -2.8145 -0.1187
2.8168 -2.8232 -0.1166
2.8344 -2.8316 -0.1117
2.8468 -2.8391 -0.1120
2.8705 -2.8532 -0.1117
2.8785 -2.8596 -0.1156
1.1278 -1.5990 0.5709
1.0612 -1.5839 0.5176
1.2382 -1.7316 0.4040
1.3154 -1.8405 0.2489
0.2180 -1.3684 -0.0994
0.9933 -1.8016 -0.0899
1.4718 -2.0677 -0.0811
1.5914 -2.1408 -0.0943
1.6485 -2.1847 -0.1223
1.8693 -2.3114 -0.1276
1.9280 -2.3511 -0.1430
2.0497 -2.4130 -0.1270
2.2135 -2.5004 -0.1152
2.3076 -2.5573 -0.1246
2.4025 -2.6103 -0.1231
2.4837 -2.6550 -0.1204
2.5488 -2.6917 -0.1206
2.6059 -2.7236 -0.1198
2.6598 -2.7521 -0.1154
2.6990 -2.7755 -0.1184
2.7201 -2.7867 -0.1167
2.7394 -2.7972 -0.1157
2.7690 -2.8155 -0.1198
2.7999 -2.8326 -0.1189
2.8288 -2.8480 -0.1168
2.8423 -2.8552 -0.1157
2.8574 -2.8620 -0.1117
2.8630 -2.8682 -0.1190
2.8771 -2.8745 -0.1148
2.8843 -2.8803 -0.1191
-0.1936 -1.0359 0.4078
1.3364 -1.9303 0.2166
1.2737 -1.9902 -0.0031
1.3611 -2.0505 -0.0358
1.3197 -2.0552 -0.0988
1.5208 -2.1799 -0.1405
1.8184 -2.3314 -0.1250
1.8851 -2.3727 -0.1386
2.0266 -2.4384 -0.1164
2.0725 -2.4688 -0.1305
2.1655 -2.5135 -0.1192
2.2175 -2.5432 -0.1241
2.2852 -2.5764 -0.1177
2.3869 -2.6289 -0.1140
2.4023 -2.6440 -0.1303
2.4568 -2.6687 -0.1202
2.4869 -2.6862 -0.1238
2.5353 -2.7072 -0.1126
2.5567 -2.7213 -0.1189
2.5872 -2.7367 -0.1170
2.6002 -2.7480 -0.1276
2.6313 -2.7623 -0.1223
2.6532 -2.7744 -0.1232
2.6759 -2.7860 -0.1222
2.7191 -2.8074 -0.1186
2.7388 -2.8171 -0.1168
2.7565 -2.8262 -0.1159
2.7881 -2.8427 -0.1152
2.8003 -2.8501 -0.1177
2.8159 -2.8575 -0.1154
2.8261 -2.8643 -0.1186
2.8398 -2.8709 -0.1170
2.8499 -2.8771 -0.1191
2.8609 -2.8831 -0.1195
2.8709 -2.8889 -0.1206
1.5163 -1.8777 0.6944
1.5022 -1.8884 0.6529
1.4996 -2.0398 0.2959
1.2998 -1.9898 0.1789
1.0558 -1.9056 0.0904
1.2551 -2.0374 0.0153
1.1011 -1.9982 -0.0733
1.0484 -2.0022 -0.1443
1.3058 -2.1251 -0.1306
1.6142 -2.2803 -0.1325
1.7287 -2.3390 -0.1359
1.8232 -2.3885 -0.1412
1.9512 -2.4468 -0.1276
2.0554 -2.4947 -0.1179
2.1242 -2.5298 -0.1193
2.1976 -2.5646 -0.1148
2.2388 -2.5889 -0.1234
2.3029 -2.6183 -0.1172
2.3901 -2.6629 -0.1195
2.4621 -2.7002 -0.1226
2.5088 -2.7199 -0.1139
2.5316 -2.7338 -0.1199
2.5590 -2.7481 -0.1213
2.5825 -2.7611 -0.1242
2.6414 -2.7872 -0.1163
2.6627 -2.7982 -0.1171
2.6894 -2.8093 -0.1117
2.7050 -2.8186 -0.1153
2.7250 -2.8280 -0.1137
2.7593 -2.8449 -0.1132
2.7699 -2.8524 -0.1183
2.7915 -2.8601 -0.1111
2.8151 -2.8737 -0.1152
2.8273 -2.8800 -0.1158
2.8385 -2.8861 -0.1169
2.8470 -2.8920 -0.1208
2.8563 -2.8977 -0.1231
-0.1896 -0.5316 2.0799
1.5211 -1.9486 0.6572
1.4315 -1.9208 0.6238
1.4359 -1.9424 0.5786
1.4624 -2.0716 0.3074
1.4076 -2.0676 0.2566
1.2705 -2.0304 0.1932
1.1636 -2.0086 0.1270
1.0440 -1.9842 0.0531
1.1203 -2.0383 0.0107
1.0842 -2.0486 -0.0526
1.0463 -2.0592 -0.1186
1.1763 -2.1301 -0.1413
1.5615 -2.3051 -0.1270
1.6495 -2.3528 -0.1416
1.7580 -2.4049 -0.1441
1.8828 -2.4595 -0.1346
1.9842 -2.5047 -0.1287
2.1434 -2.5768 -0.1222
2.2363 -2.6258 -0.1346
2.3654 -2.6787 -0.1163
2.4351 -2.7141 -0.1226
2.4731 -2.7313 -0.1209
2.5051 -2.7466 -0.1215
2.5379 -2.7613 -0.1197
2.5619 -2.7739 -0.1229
2.6268 -2.7997 -0.1118
2.6616 -2.8195 -0.1199
2.6794 -2.8289 -0.1223
2.7084 -2.8387 -0.1133
2.7250 -2.8470 -0.1145
2.7434 -2.8551 -0.1131
2.7706 -2.8697 -0.1174
2.7851 -2.8766 -0.1175
2.7995 -2.8831 -0.1169
2.8165 -2.8892 -0.1125
2.8252 -2.8952 -0.1169
2.8357 -2.9009 -0.1187
2.8443 -2.9064 -0.1223
1.4857 -1.9788 0.6681
1.4276 -2.0264 0.4990
1.4004 -2.1131 0.2712
1.2645 -2.0796 0.2099
1.1663 -2.1555 -0.0653
1.0915 -2.1541 -0.1383
1.4795 -2.3218 -0.1300
1.5653 -2.3673 -0.1477
1.7035 -2.4260 -0.1423
1.8096 -2.4729 -0.1423
1.9415 -2.5242 -0.1264
2.0154 -2.5581 -0.1293
2.0859 -2.5896 -0.1301
2.2269 -2.6479 -0.1210
2.3376 -2.6940 -0.1147
2.4117 -2.7291 -0.1200
2.4782 -2.7597 -0.1229
2.5421 -2.7870 -0.1209
2.6025 -2.8111 -0.1150
2.6373 -2.8226 -0.1059
2.6439 -2.8311 -0.1189
2.6659 -2.8405 -0.1181
2.6829 -2.8491 -0.1206
2.7226 -2.8653 -0.1177
2.7355 -2.8726 -0.1214
2.7484 -2.8797 -0.1245
2.7718 -2.8863 -0.1160
2.7827 -2.8927 -0.1196
2.7963 -2.8987 -0.1196
2.8061 -2.9046 -0.1233
2.8244 -2.9098 -0.1166
1.5209 -2.0422 0.6696
1.4126 -2.1643 0.2867
1.3247 -2.1515 0.2327
0.6475 -1.9851 -0.0284
1.1232 -2.1923 -0.0520
1.0321 -2.1878 -0.1281
1.1971 -2.2609 -0.1393
1.6999 -2.4614 -0.1221
1.7729 -2.4974 -0.1352
1.8807 -2.5401 -0.1309
1.9931 -2.5816 -0.1194
2.0567 -2.6100 -0.1242
2.1334 -2.6398 -0.1197
2.2087 -2.6676 -0.1121
2.2338 -2.6845 -0.1271
2.3003 -2.7081 -0.1181
2.3413 -2.7261 -0.1205
2.3841 -2.7435 -0.1198
2.5001 -2.7886 -0.1131
2.5211 -2.8001 -0.1195
2.5817 -2.8233 -0.1151
2.6851 -2.8682 -0.1201
2.6964 -2.8758 -0.1266
2.7253 -2.8830 -0.1157
2.7414 -2.8897 -0.1159
2.7584 -2.8961 -0.1144
2.7782 -2.9020 -0.1091
2.7834 -2.9082 -0.1183
2.7934 -2.9139 -0.1221
2.8092 -2.9190 -0.1188
1.5289 -2.0900 0.6743
1.3508 -2.1669 0.3419
1.3248 -2.1776 0.2946
1.3704 -2.2137 0.2525
1.2906 -2.2068 0.1977
0.4857 -1.9659 0.0367
0.4492 -1.9837 -0.0363
1.1325 -2.2444 -0.0275
1.0447 -2.2425 -0.1006
1.1170 -2.2861 -0.1364
1.3227 -2.3633 -0.1308
1.4851 -2.4253 -0.1288
1.5992 -2.4723 -0.1352
1.7149 -2.5172 -0.1356
1.8280 -2.5592 -0.1314
1.9111 -2.5925 -0.1340
2.0180 -2.6288 -0.1224
2.1015 -2.6584 -0.1162
2.1501 -2.6801 -0.1229
2.2152 -2.7036 -0.1188
2.2686 -2.7238 -0.1179
2.2969 -2.7394 -0.1284
2.3892 -2.7729 -0.1235
2.4262 -2.7873 -0.1234
2.4601 -2.8005 -0.1237
2.5122 -2.8145 -0.1096
2.5314 -2.8249 -0.1165
2.5808 -2.8452 -0.1192
2.6247 -2.8632 -0.1214
2.6525 -2.8715 -0.1159
2.6752 -2.8793 -0.1135
2.6907 -2.8865 -0.1163
2.7052 -2.8935 -0.1194
2.7430 -2.9061 -0.1148
2.7543 -2.9122 -0.1188
2.7625 -2.9183 -0.1253
2.7806 -2.9233 -0.1209
2.7977 -2.9281 -0.1167
1.3360 -5.6668 1.0611
1.3591 -5.5679 1.0491
1.3818 -5.4721 1.0375
1.2952 -5.2763 1.0455
1.2702 -5.2287 1.0484
1.3537 -5.0888 1.0192
1.4185 -4.9708 0.9959
-1.1462 -3.3584 1.5066
-1.2751 -3.2453 1.5302
0.6908 -2.8665 1.0335
0.7582 -2.8270 1.0147
0.7610 -2.7730 1.0105
0.2047 -1.9259 1.0889
0.1444 -1.8351 1.0974
1.3612 -5.5784 0.9944
1.4070 -5.4574 0.9772
1.3709 -5.4247 0.9830
1.2580 -5.1788 0.9928
1.4312 -4.9687 0.9425
-0.3560 -5.3604 1.3539
-0.1793 -5.0594 1.2975
-0.8597 -3.2608 1.3370
0.7695 -2.8794 0.9605
0.7402 -2.8165 0.9631
0.7438 -2.7621 0.9590
0.5796 -2.6578 0.9884
-0.9621 -1.6616 1.2630
-0.8582 -1.6224 1.2381
-0.5077 -1.7035 1.1669
0.1754 -1.9005 1.0305
0.2486 -1.8787 1.0134
1.3386 -5.6165 0.9453
1.2340 -5.2807 0.9471
1.3214 -5.1344 0.9221
1.4852 -4.9329 0.8793
1.4425 -4.9048 0.8860
-0.6253 -5.2717 1.3066
-0.6588 -4.0644 1.2466
-1.2522 -3.3456 1.3220
0.7649 -2.9290 0.9085
0.7671 -2.8732 0.9050
0.7541 -2.8142 0.9043
0.7258 -2.7508 0.9063
-0.7760 -1.7282 1.1408
-0.7960 -1.6371 1.1397
-0.5915 -1.6515 1.1009
0.0676 -1.8978 0.9868
0.1915 -1.8978 0.9628
1.4234 -5.5354 0.8698
1.4785 -5.0094 0.8342
1.4351 -4.9820 0.8403
1.4232 -4.9278 0.8396
2.0221 -4.2891 0.7060
1.9956 -4.2237 0.7072
2.0171 -4.1712 0.7010
1.9394 -4.1727 0.7142
-1.0211 -3.3471 1.1762
-0.9021 -3.2480 1.1511
-0.7480 -3.1586 1.1204
-0.6460 -3.0723 1.0988
0.6587 -2.9601 0.8715
0.7628 -2.9232 0.8519
0.8576 -2.8893 0.8341
0.8882 -2.8434 0.8266
0.7551 -2.7528 0.8448
0.7893 -2.7082 0.8367
0.7292 -2.6347 0.8433
-0.6403 -1.7741 1.0331
-0.6597 -1.6855 1.0320
-0.7171 -1.5790 1.0365
0.0351 -1.8706 0.9232
0.0923 -1.8359 0.9117
1.4703 -5.4958 0.8059
1.3661 -5.5386 0.8231
1.3406 -5.4922 0.8247
1.3024 -5.4576 0.8288
1.2891 -5.3971 0.8280
1.5704 -5.0001 0.7692
1.5113 -4.9899 0.7774
1.4479 -4.9799 0.7862
1.4360 -4.9256 0.7855
2.0232 -4.3339 0.6735
2.0104 -4.3008 0.6738
2.0073 -4.2614 0.6726
1.9945 -4.2280 0.6729
1.6054 -4.1979 0.7284
1.4518 -4.2101 0.7513
1.5681 -4.1124 0.7300
-1.2533 -3.3352 1.1072
-1.1428 -3.1217 1.0816
0.6392 -2.9509 0.8138
0.8389 -2.9345 0.7840
0.8111 -2.8725 0.7853
0.8284 -2.8218 0.7805
0.8309 -2.7682 0.7777
0.8182 -2.7106 0.7770
0.8209 -2.6581 0.7743
0.6651 -2.5503 0.7922
0.5459 -2.4502 0.8052
-0.0108 -2.1042 0.8710
-0.8744 -1.5744 0.9735
0.1711 -1.9269 0.8366
0.1090 -1.8332 0.8414
2.4622 -4.4878 0.5911
2.4521 -4.4667 0.5915
2.4394 -4.4484 0.5923
2.4284 -4.4277 0.5928
2.3840 -4.4085 0.5975
2.3619 -4.3970 0.5997
1.5904 -4.9301 0.7145
1.5701 -4.8870 0.7153
1.4599 -4.9147 0.7298
2.0095 -4.3056 0.6390
2.0015 -4.2690 0.6386
2.0031 -4.2266 0.6367
1.9903 -4.1929 0.6369
1.5915 -4.2070 0.6860
1.5105 -4.1890 0.6952
1.5359 -4.1268 0.6896
1.5073 -4.0854 0.6915
1.1356 -4.0297 0.7346
-0.9707 -3.3388 0.9638
-0.3809 -2.9131 0.8753
0.6851 -3.0148 0.7496
0.7065 -2.9588 0.7448
0.8675 -2.9355 0.7242
0.8697 -2.8812 0.7218
0.8421 -2.8196 0.7228
0.8595 -2.7703 0.7187
0.8015 -2.6989 0.7230
0.7735 -2.6355 0.7239
0.7606 -2.5768 0.7232
0.7478 -2.5182 0.7224
0.6362 -2.4202 0.7322
0.2712 -2.2119 0.7684
-0.5275 -1.7983 0.8494
0.2766 -1.9688 0.7582
0.1257 -1.8304 0.7712
0.3529 -1.8910 0.7459
0.3782 -1.8480 0.7411
2.0585 -4.3599 0.6005
2.0506 -4.3239 0.6000
2.0212 -4.2195 0.5993
1.5592 -4.2241 0.6444
1.5113 -4.1385 0.6461
1.1747 -4.0208 0.6749
0.8731 -3.1573 0.6749
0.9193 -3.1071 0.6687
0.9212 -3.0517 0.6667
0.9086 -2.9941 0.6659
0.8959 -2.9365 0.6652
0.7920 -2.8563 0.6726
0.8856 -2.8253 0.6625
0.8731 -2.7681 0.6617
0.8454 -2.7061 0.6623
0.7710 -2.6277 0.6669
0.7745 -2.5745 0.6648
0.7769 -2.5217 0.6627
0.6837 -2.4311 0.6687
-0.4377 -1.8256 0.7572
0.5204 -2.1932 0.6765
0.6177 -2.1302 0.6649
0.4216 -1.9741 0.6787
0.4651 -1.9411 0.6734
0.6286 -1.9781 0.6587
0.8310 -2.0446 0.6413
1.3531 -6.1513 0.6672
1.2264 -6.2390 0.6789
1.9414 -5.1604 0.5966
1.9800 -5.0578 0.5908
1.9092 -4.7689 0.5878
2.0349 -4.3394 0.5665
1.5793 -4.2184 0.5960
1.5246 -4.1889 0.5991
1.0442 -3.0692 0.6020
0.9264 -2.8840 0.6052
0.8546 -2.8110 0.6084
0.8419 -2.7526 0.6076
0.7507 -2.6695 0.6118
0.7050 -2.5983 0.6131
0.8186 -2.5832 0.6045
0.8516 -2.5427 0.6009
1.2721 -6.1961 0.6088
1.9142 -5.2065 0.5559
1.9757 -4.7626 0.5429
1.9068 -4.7790 0.5465
1.8389 -4.7901 0.5499
1.7496 -4.8156 0.5547
1.7546 -4.7557 0.5531
1.6951 -4.6931 0.5545
1.7470 -4.5994 0.5499
2.0140 -4.3588 0.5318
2.0355 -4.3013 0.5295
1.8380 -4.1974 0.5364
1.5381 -4.2397 0.5515
1.5625 -4.1761 0.5489
0.4960 -3.0984 0.5745
1.0317 -3.0623 0.5484
0.9503 -2.9926 0.5507
0.9377 -2.9353 0.5499
0.9252 -2.8781 0.5492
0.8230 -2.7962 0.5522
0.7781 -2.7273 0.5527
0.5746 -2.6062 0.5595
0.4636 -2.5083 0.5625
0.4489 -2.4413 0.5616
0.5320 -2.4120 0.5571
0.6142 -2.3299 0.5513
0.6993 -2.1005 0.5421
0.7180 -2.0593 0.5402
0.6407 -1.9644 0.5417
0.5591 -1.8644 0.5433
1.2589 -6.3223 0.5449
1.3294 -6.1366 0.5402
1.5757 -5.3711 0.5216
1.3623 -5.5331 0.5290
1.5715 -5.2407 0.5195
1.5700 -5.1760 0.5184
1.6772 -5.0077 0.5132
1.7560 -4.8745 0.5092
1.4609 -5.0793 0.5191
1.3924 -5.0709 0.5204
1.4695 -4.9398 0.5165
1.4882 -4.8607 0.5147
2.0073 -4.3683 0.4950
1.5671 -4.2301 0.5021
1.5389 -4.1886 0.5020
1.1365 -4.0972 0.5091
0.6117 -3.1091 0.5033
0.9782 -2.9933 0.4934
0.9241 -2.8721 0.4925
0.8822 -2.8064 0.4922
0.7265 -2.7052 0.4939
0.2640 -2.4313 0.4991
-0.6036 -1.9617 0.5097
0.2398 -2.2242 0.4960
0.2007 -2.1425 0.4955
0.0355 -2.0026 0.4966
-0.0343 -1.9017 0.4964
0.1851 -1.8782 0.4912
0.4480 -1.9562 0.4869
0.0563 -1.6817 0.4906
0.0402 -1.6084 0.4897
1.2746 -6.2310 0.4757
1.3768 -5.5307 0.4680
1.7307 -4.9654 0.4629
1.7279 -4.9092 0.4622
1.4841 -5.0020 0.4623
1.3576 -5.0398 0.4622
1.9962 -4.3811 0.4572
1.8129 -4.2169 0.4545
1.5766 -4.1759 0.4530
1.1090 -4.2368 0.4518
1.0956 -4.1759 0.4510
1.0823 -4.1149 0.4502
0.4876 -3.0873 0.4358
0.5736 -3.0331 0.4355
0.7759 -3.0055 0.4360
0.9630 -2.9851 0.4366
0.9215 -2.9207 0.4357
0.9087 -2.8624 0.4349
0.9251 -2.8123 0.4344
0.8978 -2.7502 0.4336
0.6052 -2.6011 0.4306
0.3699 -2.4594 0.4280
-0.5995 -2.0362 0.4189
-0.4011 -2.0290 0.4197
0.1618 -2.1822 0.4238
-0.1511 -1.9791 0.4202
-0.3571 -1.8122 0.4173
-0.2220 -1.6554 0.4161
-0.3985 -1.4889 0.4134
0.0220 -1.6500 0.4171
-0.1571 -1.4811 0.4143
-0.2627 -1.3499 0.4124
1.4115 -5.9779 0.4101
1.5269 -5.7462 0.4123
1.5788 -5.6057 0.4130
1.5126 -5.6140 0.4111
1.4773 -5.5817 0.4098
1.4291 -5.5621 0.4082
1.3407 -5.5835 0.4057
1.4612 -5.3793 0.4081
1.3773 -5.3925 0.4056
1.7423 -4.9635 0.4142
1.7394 -4.9073 0.4138
1.6876 -4.8955 0.4122
1.5482 -4.9559 0.4083
1.4850 -4.9442 0.4063
1.4835 -4.8803 0.4059
2.0252 -4.3653 0.4193
1.9914 -4.3446 0.4181
1.8417 -4.2056 0.4128
1.5837 -4.2831 0.4054
1.5152 -4.2043 0.4028
1.4752 -4.1650 0.4014
1.2165 -4.2014 0.3937
1.1647 -4.1557 0.3919
1.1379 -4.1004 0.3907
0.4190 -3.0726 0.3628
0.9640 -2.9252 0.3785
0.9369 -2.8639 0.3773
0.9242 -2.8059 0.3766
0.8667 -2.7342 0.3744
0.7591 -2.6441 0.3706
0.7456 -2.5827 0.3699
0.6328 -2.4261 0.3655
-0.0014 -2.1039 0.3443
-0.5253 -1.8034 0.3266
-0.8207 -1.5863 0.3164
1.4610 -5.8485 0.3490
1.3051 -5.9670 0.3401
1.4058 -5.5259 0.3458
1.4522 -5.4011 0.3484
1.7017 -4.9516 0.3626
1.7940 -4.8082 0.3678
1.5705 -4.9455 0.3551
1.4093 -5.0155 0.3459
2.0297 -4.3671 0.3812
1.9066 -4.3598 0.3742
1.8856 -4.3258 0.3730
1.8765 -4.2840 0.3725
1.8423 -4.2560 0.3705
1.7713 -4.2452 0.3665
1.6864 -4.2372 0.3616
1.5930 -4.2282 0.3563
1.5186 -4.2059 0.3521
1.4777 -4.1667 0.3498
1.4462 -4.1223 0.3480
0.9920 -4.1453 0.3221
0.3912 -3.0634 0.2878
0.6445 -3.0342 0.3022
0.7892 -2.9975 0.3105
0.8724 -2.9553 0.3152
0.8438 -2.8911 0.3136
0.9065 -2.8500 0.3171
1.0077 -2.8236 0.3229
0.9820 -2.7632 0.3214
0.8531 -2.6680 0.3141
0.8705 -2.6194 0.3151
0.6617 -2.4870 0.3032
0.5932 -2.4018 0.2993
-0.0665 -2.0657 0.2617
-0.7364 -1.6971 0.2235
-0.9737 -1.5011 0.2100
-0.5808 -1.6013 0.2324
-0.0515 -1.7879 0.2625
0.2269 -1.7404 0.2784
1.1321 -2.1680 0.3299
1.8619 -4.7548 0.3261
1.8622 -4.6478 0.3268
2.0161 -4.4272 0.3410
2.0236 -4.3765 0.3419
2.0151 -4.3379 0.3414
1.9633 -4.3275 0.3371
1.8076 -4.3283 0.3241
1.5798 -4.2923 0.3052
1.5595 -4.2466 0.3038
1.4719 -4.2285 0.2965
1.1522 -4.2296 0.2697
0.6069 -2.9570 0.2314
0.7567 -2.9247 0.2442
0.8735 -2.8923 0.2542
0.8909 -2.8399 0.2559
0.8623 -2.7756 0.2539
0.8646 -2.7203 0.2544
0.8359 -2.6553 0.2524
0.7074 -2.5539 0.2422
0.6936 -2.4909 0.2414
0.4726 -2.3447 0.2238
-0.9977 -1.6600 0.1046
-0.4118 -1.8279 0.1527
-0.3967 -1.7555 0.1544
-0.5974 -1.5791 0.1386
1.2078 -2.2468 0.2859
1.1973 -2.1989 0.2853
1.8341 -4.8442 0.2759
1.8161 -4.8045 0.2744
2.0043 -4.4418 0.2995
1.9619 -4.4264 0.2950
1.9414 -4.3936 0.2931
1.8831 -4.3848 0.2867
1.7762 -4.3511 0.2753
1.3322 -4.2906 0.2267
0.0253 -2.9183 0.0978
0.2827 -2.8151 0.1276
0.7263 -2.7898 0.1771
0.6947 -2.7204 0.1744
0.7158 -2.6668 0.1774
0.5135 -2.5394 0.1565
0.5775 -2.4993 0.1640
0.6200 -2.4546 0.1693
0.5483 -2.3662 0.1624
-0.9494 -1.5737 0.0055
-0.8379 -1.5346 0.0183
-0.8596 -1.4358 0.0171
-0.6340 -1.4639 0.0418
-0.0220 -1.6402 0.1076
1.1873 -2.2260 0.2349
1.1980 -2.1905 0.2365
2.5796 -4.2519 0.3416
2.5671 -4.2365 0.3402
1.8080 -4.8779 0.2236
1.1457 -5.3466 0.1235
1.9548 -4.5343 0.2501
1.9971 -4.4529 0.2574
1.8996 -4.4775 0.2434
1.8778 -4.4430 0.2410
1.1058 -4.6769 0.1299
1.0448 -4.6355 0.1222
1.1378 -4.3764 0.1397
-0.4764 -4.8211 -0.0918
-0.5450 -4.7266 -0.0996
-0.6151 -4.6298 -0.1076
-0.5039 -4.4818 -0.0895
-0.2825 -4.3157 -0.0559
-0.1926 -4.1915 -0.0413
-0.3660 -4.1208 -0.0640
-0.5551 -4.0437 -0.0888
-0.6917 -3.8387 -0.1041
-0.7629 -3.7326 -0.1121
-0.6486 -3.6169 -0.0942
-0.5419 -3.5090 -0.0775
-0.4418 -3.4079 -0.0618
-0.3115 -3.3146 -0.0421
-0.5260 -3.2053 -0.0699
-0.1052 -2.8891 -0.0060
0.0842 -2.8425 0.0211
0.3949 -2.8329 0.0643
0.6092 -2.8156 0.0943
0.0959 -2.5377 0.0281
0.5042 -2.5924 0.0837
0.4262 -2.5015 0.0745
0.4947 -2.4610 0.0847
0.6354 -2.4520 0.1044
0.6211 -2.3869 0.1036
-0.5688 -1.8156 -0.0511
-0.7929 -1.6295 -0.0788
-0.7714 -1.5512 -0.0744
-0.6694 -1.5146 -0.0597
-0.4638 -1.5369 -0.0316
-0.1152 -1.5748 0.0160
1.0619 -2.0971 0.1698
2.5762 -4.2611 0.3166
1.7968 -4.8977 0.1717
0.6186 -5.8252 -0.0466
0.9241 -5.4642 0.0129
1.6867 -4.5250 0.1623
0.6601 -5.0219 -0.0205
1.0429 -4.7181 0.0505
1.1369 -4.5929 0.0691
1.0130 -4.5820 0.0488
1.0781 -4.4773 0.0621
1.1526 -4.3739 0.0770
1.1528 -4.3054 0.0787
0.0824 -4.5241 -0.1047
-0.0368 -4.4606 -0.1230
-0.0578 -4.3648 -0.1243
0.0212 -4.2452 -0.1082
0.0009 -4.1522 -0.1094
-0.0526 -4.0652 -0.1162
-0.0399 -3.9663 -0.1117
-0.1628 -3.8857 -0.1303
-0.2185 -3.7931 -0.1373
-0.2398 -3.6964 -0.1385
-0.2610 -3.5996 -0.1398
-0.2105 -3.5022 -0.1290
-0.1967 -3.4080 -0.1245
-0.2173 -3.3141 -0.1257
-0.3098 -3.2151 -0.1387
-0.2936 -3.1229 -0.1338
-0.1095 -3.0533 -0.1015
0.3764 -2.9659 -0.0185
0.4730 -2.9128 -0.0012
0.5614 -2.8634 0.0147
0.5664 -2.7983 0.0171
0.4898 -2.7121 0.0064
0.4742 -2.6410 0.0055
0.2017 -2.4877 -0.0362
0.3543 -2.4683 -0.0103
0.4483 -2.4353 0.0061
0.6176 -2.3765 0.0357
-0.0187 -2.0410 -0.0622
-0.0657 -1.9467 -0.0677
-0.1129 -1.8510 -0.0733
-0.1924 -1.7380 -0.0838
0.0223 -1.7756 -0.0490
-0.2213 -1.3569 -0.0795
1.4526 -5.4657 0.0368
1.4636 -5.3782 0.0416
1.7453 -4.9570 0.1091
1.7901 -4.8542 0.1210
1.2799 -5.1731 0.0120
1.3323 -5.0541 0.0258
1.3056 -5.0016 0.0222
1.2235 -4.9891 0.0066
1.6817 -4.5341 0.1095
1.1361 -4.7464 -0.0032
1.1520 -4.6632 0.0025
1.2369 -4.5457 0.0225
1.2886 -4.4514 0.0354
1.3256 -4.3681 0.0451
1.2999 -4.3149 0.0417
1.2999 -4.2507 0.0437
1.3932 -4.1536 0.0648
1.0970 -4.1920 0.0059
0.9056 -4.1813 -0.0310
0.7614 -4.1469 -0.0581
0.5324 -4.1250 -0.1020
0.4920 -4.0509 -0.1076
0.4746 -3.9713 -0.1086
0.3578 -3.9066 -0.1294
0.2869 -3.8306 -0.1409
0.2685 -3.7468 -0.1420
0.3116 -3.5763 -0.1285
0.3940 -3.4938 -0.1099
0.3020 -3.4135 -0.1254
0.4037 -3.1114 -0.0965
0.4337 -3.0421 -0.0886
0.3221 -2.9503 -0.1076
0.4460 -2.9010 -0.0819
0.4521 -2.8321 -0.0787
0.5221 -2.7804 -0.0635
0.3739 -2.6728 -0.0891
0.4264 -2.6189 -0.0773
0.5122 -2.3865 -0.0536
0.4130 -2.2826 -0.0697
0.1350 -2.0967 -0.1183
0.1951 -2.0545 -0.1053
0.1010 -1.9415 -0.1202
0.0840 -1.8639 -0.1212
0.0408 -1.7726 -0.1269
1.0604 -2.1677 0.0598
1.3422 -5.7675 -0.0637
1.2397 -5.8009 -0.0878
1.2838 -5.6653 -0.0730
1.0955 -5.7810 -0.1193
1.2687 -5.5143 -0.0709
1.7490 -4.9630 0.0565
1.8091 -4.8453 0.0742
1.7091 -4.8767 0.0507
1.6255 -4.8872 0.0317
1.4681 -4.9525 -0.0059
1.2532 -5.0517 -0.0575
1.7607 -4.5424 0.0744
1.7658 -4.4837 0.0777
1.7554 -4.4361 0.0771
1.6628 -4.4376 0.0564
1.4658 -4.3682 0.0149
1.3150 -4.3771 -0.0191
1.2636 -4.3341 -0.0290
1.1107 -4.3289 -0.0630
1.0345 -4.2867 -0.0785
1.3597 -4.1073 0.0007
1.3117 -4.0614 -0.0084
0.8917 -4.0405 -0.1015
0.8403 -3.9790 -0.1107
0.7884 -3.9155 -0.1200
0.7728 -3.8444 -0.1209
0.7377 -3.7756 -0.1262
0.7220 -3.7039 -0.1271
0.6669 -3.6347 -0.1369
0.6708 -3.5613 -0.1334
0.6550 -3.4891 -0.1343
0.6792 -3.4177 -0.1262
0.6828 -3.3475 -0.1229
0.6481 -3.2754 -0.1280
0.6121 -3.2023 -0.1334
0.5553 -3.1254 -0.1433
0.5806 -3.0589 -0.1352
0.6055 -2.9945 -0.1273
0.5900 -2.9239 -0.1282
0.7984 -2.9045 -0.0809
0.6193 -2.7980 -0.1171
0.5021 -2.7006 -0.1397
0.4650 -2.6225 -0.1452
0.4922 -2.5643 -0.1370
0.5977 -2.5354 -0.1123
0.8307 -2.5598 -0.0612
0.5876 -2.4072 -0.1099
0.4078 -2.2706 -0.1451
0.3700 -2.1892 -0.1506
0.3764 -2.1273 -0.1469
0.4043 -2.0768 -0.1388
0.3450 -1.9839 -0.1487
0.3067 -1.9003 -0.1542
0.2908 -1.8281 -0.1551
1.0970 -2.1800 0.0122
1.0613 -2.1129 0.0066
1.8166 -4.9065 0.0221
1.8354 -4.8294 0.0301
1.8472 -4.7611 0.0360
1.7017 -4.8303 -0.0037
1.7575 -4.7231 0.0150
1.8160 -4.6189 0.0342
1.7979 -4.5772 0.0314
1.7875 -4.5295 0.0308
1.7771 -4.4819 0.0302
1.7588 -4.4392 0.0275
1.7562 -4.3865 0.0291
1.7536 -4.3344 0.0306
1.7513 -4.2827 0.0323
1.6157 -4.2979 -0.0026
1.4227 -4.3313 -0.0528
1.2906 -4.3263 -0.0859
1.2117 -4.2922 -0.1044
1.2247 -4.2203 -0.0980
1.2381 -4.1500 -0.0916
1.2509 -4.0183 -0.0828
1.1144 -3.9884 -0.1159
1.1575 -3.9135 -0.1019
1.1984 -3.8424 -0.0885
1.2113 -3.7787 -0.0825
1.1026 -3.7311 -0.1079
1.0618 -3.6084 -0.1130
1.0325 -3.5468 -0.1177
1.0633 -3.4839 -0.1073
1.0349 -3.4222 -0.1118
1.0073 -3.3598 -0.1161
0.9624 -3.2952 -0.1247
0.9638 -3.2338 -0.1217
0.9961 -3.1771 -0.1111
0.9672 -3.1134 -0.1157
0.9537 -3.0516 -0.1164
0.9713 -2.9962 -0.1096
0.9872 -2.9420 -0.1033
0.9446 -2.8743 -0.1112
0.8678 -2.7956 -0.1272
0.8381 -2.7281 -0.1318
0.7912 -2.6542 -0.1405
0.8266 -2.6078 -0.1295
0.9383 -2.5923 -0.1007
0.8318 -2.4956 -0.1234
0.8182 -2.4338 -0.1242
0.7212 -2.3349 -0.1445
0.7072 -2.2710 -0.1453
0.7109 -2.2159 -0.1420
0.9515 -2.1821 -0.0798
0.9675 -2.1419 -0.0740
1.8719 -4.8613 -0.0124
1.8614 -4.8136 -0.0130
1.8658 -4.7525 -0.0088
1.8480 -4.7118 -0.0118
1.7367 -4.7481 -0.0449
1.5980 -4.7983 -0.0865
1.5665 -4.7580 -0.0934
1.8967 -4.4576 0.0145
1.8398 -4.4451 -0.0010
1.6725 -4.4999 -0.0508
1.4856 -4.5553 -0.1062
1.5660 -4.4458 -0.0782
1.7041 -4.2577 -0.0300
1.6854 -4.2128 -0.0330
1.5289 -4.2270 -0.0779
1.3650 -4.2344 -0.1244
1.3642 -4.1721 -0.1216
1.3396 -4.1185 -0.1259
1.3509 -4.0533 -0.1195
1.3021 -4.0058 -0.1309
1.3839 -3.9249 -0.1039
1.2888 -3.8867 -0.1288
1.2761 -3.8287 -0.1295
1.3006 -3.7652 -0.1195
1.2996 -3.7069 -0.1169
1.2756 -3.6514 -0.1209
1.2505 -3.5953 -0.1252
1.2253 -3.5385 -0.1296
1.1998 -3.4809 -0.1339
1.1614 -3.4224 -0.1419
1.2003 -3.3663 -0.1281
1.1748 -3.3081 -0.1325
1.1752 -3.2518 -0.1296
1.1363 -3.1911 -0.1376
1.1236 -3.1332 -0.1383
1.1109 -3.0752 -0.1390
1.1250 -3.0229 -0.1324
1.1509 -2.9746 -0.1228
1.1135 -2.9119 -0.1302
1.0874 -2.8511 -0.1346
1.0336 -2.7812 -0.1463
1.0347 -2.7275 -0.1434
1.0359 -2.6744 -0.1404
1.0232 -2.6168 -0.1412
0.9965 -2.5536 -0.1456
0.9838 -2.4956 -0.1463
0.9853 -2.4440 -0.1433
0.9727 -2.3864 -0.1441
0.9601 -2.3288 -0.1448
0.9897 -2.2930 -0.1347
1.0956 -2.3000 -0.1051
1.0715 -2.2394 -0.1090
0.9096 -2.0984 -0.1477
0.8969 -2.0408 -0.1484
0.8695 -1.9740 -0.1528
0.8419 -1.9065 -0.1573
1.7857 -5.1471 -0.1063
1.9733 -4.8243 -0.0298
1.9177 -4.8250 -0.0472
1.8873 -4.7978 -0.0551
1.8027 -4.8185 -0.0826
1.7992 -4.7624 -0.0806
1.7487 -4.7461 -0.0954
1.7034 -4.7225 -0.1082
1.9926 -4.3945 0.0002
1.8072 -4.4729 -0.0620
1.6665 -4.5095 -0.1079
1.6371 -4.4690 -0.1148
1.5292 -4.4721 -0.1486
1.6326 -4.3548 -0.1098
1.7077 -4.2598 -0.0811
1.6721 -4.2225 -0.0901
1.7184 -4.1480 -0.0715
1.5964 -4.1448 -0.1094
1.5670 -4.1002 -0.1161
1.5556 -4.0483 -0.1167
1.5534 -3.9937 -0.1144
1.5421 -3.9421 -0.1150
1.5308 -3.8905 -0.1156
1.4999 -3.8430 -0.1227
1.4884 -3.7909 -0.1233
1.4969 -3.7357 -0.1176
1.5333 -3.6785 -0.1031
1.4944 -3.6308 -0.1125
1.5002 -3.5278 -0.1049
1.4795 -3.4777 -0.1086
1.4497 -3.4267 -0.1151
1.4385 -3.3757 -0.1157
1.4761 -3.3286 -0.1014
1.3951 -3.2715 -0.1234
1.3939 -3.2212 -0.1210
1.3938 -3.1717 -0.1183
1.3510 -3.1148 -0.1284
1.3396 -3.0630 -0.1291
1.3283 -3.0111 -0.1297
1.3491 -2.9676 -0.1208
1.3055 -2.9074 -0.1311
1.2721 -2.8487 -0.1382
1.2606 -2.7962 -0.1389
1.2374 -2.7396 -0.1429
1.2259 -2.6869 -0.1436
1.2146 -2.5865 -0.1415
1.2031 -2.5340 -0.1421
1.1918 -2.3888 -0.1376
1.2260 -2.3615 -0.1254
1.2472 -2.3290 -0.1170
1.1802 -2.2463 -0.1333
1.1463 -2.1813 -0.1402
1.1350 -2.1295 -0.1408
2.1672 -4.7764 -0.0089
2.0949 -4.7572 -0.0324
2.0021 -4.8035 -0.0671
1.8944 -4.8575 -0.1073
1.9762 -4.7211 -0.0708
1.9414 -4.6997 -0.0813
1.8777 -4.7016 -0.1033
1.8378 -4.6793 -0.1155
1.8347 -4.6252 -0.1132
2.0599 -4.3978 -0.0220
1.8573 -4.4978 -0.0975
1.8184 -4.4710 -0.1091
1.7927 -4.4336 -0.1156
1.7745 -4.3904 -0.1191
1.7639 -4.3422 -0.1197
1.7534 -4.2941 -0.1203
1.7350 -4.2499 -0.1239
1.7243 -4.2015 -0.1245
1.8051 -4.1132 -0.0914
1.7192 -4.0982 -0.1198
1.6682 -4.0653 -0.1352
1.6738 -4.0106 -0.1299
1.6795 -3.9570 -0.1246
1.6607 -3.9111 -0.1282
1.6418 -3.8647 -0.1317
1.6562 -3.8108 -0.1234
1.6541 -3.7614 -0.1211
1.6521 -3.7125 -0.1187
1.6332 -3.6661 -0.1223
1.5970 -3.6207 -0.1318
1.6123 -3.5707 -0.1235
1.6019 -3.5231 -0.1241
1.5546 -3.4271 -0.1342
1.5617 -3.3796 -0.1288
1.5690 -3.3332 -0.1234
1.5407 -3.2838 -0.1301
1.5211 -3.2347 -0.1337
1.5197 -3.1880 -0.1313
1.5000 -3.1384 -0.1349
1.5262 -3.0981 -0.1234
1.4882 -3.0443 -0.1331
1.4869 -2.9988 -0.1306
1.5035 -2.9590 -0.1225
1.4660 -2.9035 -0.1318
1.4556 -2.8559 -0.1324
1.4261 -2.8013 -0.1391
1.4060 -2.7495 -0.1427
1.3762 -2.6932 -0.1494
1.3655 -2.6443 -0.1501
1.3839 -2.6087 -0.1415
1.4027 -2.5746 -0.1330
1.3628 -2.5124 -0.1427
1.3621 -2.4694 -0.1403
1.3616 -2.4269 -0.1378
1.3611 -2.3849 -0.1354
1.3407 -2.3316 -0.1390
1.3201 -2.2778 -0.1427
1.2995 -2.2235 -0.1464
1.2991 -2.1820 -0.1439
2.0681 -4.9583 -0.1013
2.1573 -4.7975 -0.0569
2.1339 -4.7741 -0.0640
2.0946 -4.7667 -0.0781
2.0525 -4.7597 -0.0933
2.0028 -4.7575 -0.1117
2.0393 -4.6685 -0.0920
2.0011 -4.6526 -0.1051
1.9915 -4.6089 -0.1057
2.0112 -4.5404 -0.0936
1.9846 -4.5116 -0.1015
2.0801 -4.3879 -0.0574
1.9532 -4.4342 -0.1079
1.9117 -4.3110 -0.1148
1.9337 -4.2486 -0.1023
1.8993 -4.2191 -0.1131
1.8897 -4.1752 -0.1136
1.8993 -4.1223 -0.1064
1.8836 -4.0817 -0.1094
1.8865 -4.0332 -0.1050
1.8708 -3.9925 -0.1080
1.8209 -3.9629 -0.1246
1.8320 -3.9120 -0.1169
1.8360 -3.8644 -0.1121
1.8393 -3.8179 -0.1077
1.8096 -3.7791 -0.1161
1.8409 -3.7281 -0.1009
1.8044 -3.6896 -0.1118
1.7667 -3.6497 -0.1231
1.7646 -3.6050 -0.1208
1.7893 -3.5591 -0.1084
1.7943 -3.5157 -0.1036
1.7908 -3.4733 -0.1019
1.7407 -3.4299 -0.1176
1.7791 -3.3890 -0.1005
1.7138 -3.3423 -0.1216
1.7398 -3.3025 -0.1091
1.6877 -3.2540 -0.1252
1.6701 -3.2088 -0.1287
1.6741 -3.1257 -0.1214
1.6411 -3.0766 -0.1303
1.6161 -3.0284 -0.1363
1.6372 -2.9929 -0.1260
1.6012 -2.8592 -0.1302
1.5989 -2.8182 -0.1282
1.5563 -2.7206 -0.1373
1.5196 -2.6237 -0.1443
1.5435 -2.5960 -0.1335
1.5223 -2.4688 -0.1326
1.5372 -2.4396 -0.1250
1.4954 -2.3767 -0.1362
2.2169 -4.7361 -0.0720
2.2131 -4.6925 -0.0703
2.1399 -4.7259 -0.1024
2.1054 -4.7126 -0.1153
2.0807 -4.6872 -0.1234
2.0825 -4.6345 -0.1186
2.0679 -4.5982 -0.1218
2.0643 -4.5514 -0.1196
2.0601 -4.5058 -0.1179
2.0461 -4.4684 -0.1207
2.1141 -4.3674 -0.0856
2.0404 -4.3288 -0.1124
2.0315 -4.2880 -0.1129
2.0057 -4.2576 -0.1210
2.0025 -4.2128 -0.1189
2.0158 -4.1594 -0.1095
1.9845 -4.1304 -0.1199
1.9755 -4.0892 -0.1204
1.9428 -4.0584 -0.1313
1.9460 -4.0115 -0.1264
1.9546 -3.9634 -0.1193
1.9331 -3.9266 -0.1252
1.9186 -3.8869 -0.1280
1.9213 -3.8422 -0.1235
1.9123 -3.8010 -0.1240
1.9032 -3.7598 -0.1246
1.9062 -3.7165 -0.1201
1.9028 -3.6748 -0.1183
1.8827 -3.6355 -0.1234
1.8671 -3.5951 -0.1266
1.8704 -3.5532 -0.1221
1.8234 -3.5135 -0.1381
1.8525 -3.4716 -0.1232
1.8310 -3.4304 -0.1287
1.8472 -3.3907 -0.1191
1.8061 -3.3475 -0.1325
1.8108 -3.3076 -0.1275
1.7949 -3.2657 -0.1308
1.8048 -3.2277 -0.1239
1.8029 -3.1883 -0.1217
1.7608 -3.1406 -0.1351
1.7659 -3.1027 -0.1301
1.7630 -3.0634 -0.1283
1.7408 -3.0187 -0.1339
1.7039 -2.9686 -0.1450
1.7300 -2.9388 -0.1322
1.7335 -2.9024 -0.1280
1.7183 -2.8593 -0.1308
1.7093 -2.8185 -0.1314
1.6940 -2.7749 -0.1342
1.6701 -2.7270 -0.1402
1.6761 -2.6929 -0.1353
1.6736 -2.6552 -0.1334
1.6581 -2.6109 -0.1363
1.6491 -2.5699 -0.1368
1.6610 -2.5410 -0.1298
1.6521 -2.5005 -0.1303
1.6432 -2.4600 -0.1308
1.6344 -2.4196 -0.1313
1.6042 -2.3650 -0.1394
2.4224 -4.3457 0.0076
2.3026 -4.3854 -0.0478
2.1451 -4.4397 -0.1209
2.1681 -4.3752 -0.1056
2.1599 -4.3375 -0.1061
2.1606 -4.2931 -0.1021
2.1656 -4.2465 -0.0960
2.1351 -4.2243 -0.1075
2.1360 -4.1809 -0.1035
2.1143 -4.1514 -0.1105
2.1196 -4.1061 -0.1044
2.1114 -4.0687 -0.1049
2.1032 -4.0312 -0.1053
2.1104 -3.9468 -0.0952
2.0883 -3.9154 -0.1022
2.0562 -3.8864 -0.1138
2.0426 -3.8502 -0.1167
2.0683 -3.8028 -0.1016
2.0702 -3.7634 -0.0975
2.0476 -3.7298 -0.1046
2.0395 -3.6927 -0.1050
2.0313 -3.6556 -0.1055
2.0278 -3.6180 -0.1039
2.0048 -3.5823 -0.1110
2.0022 -3.5446 -0.1090
1.9780 -3.5078 -0.1165
1.9906 -3.4701 -0.1078
1.9461 -3.4319 -0.1241
1.9532 -3.3946 -0.1179
1.9507 -3.3574 -0.1159
1.9425 -3.3199 -0.1164
1.9343 -3.2823 -0.1168
1.9260 -3.2448 -0.1173
1.9287 -3.2093 -0.1132
1.9096 -3.1697 -0.1182
1.8953 -3.1306 -0.1212
1.8820 -3.0915 -0.1238
1.8849 -3.0570 -0.1197
1.8418 -3.0082 -0.1344
1.8334 -2.9697 -0.1348
1.8426 -2.9378 -0.1282
1.8457 -2.9043 -0.1241
1.8374 -2.8666 -0.1245
1.8291 -2.8289 -0.1250
1.8156 -2.7887 -0.1276
1.8009 -2.7477 -0.1306
1.8161 -2.7218 -0.1218
1.7961 -2.6780 -0.1269
1.7824 -2.6373 -0.1295
1.7981 -2.6134 -0.1207
1.7779 -2.5689 -0.1258
1.7817 -2.5389 -0.1216
1.7669 -2.4973 -0.1246
1.7532 -2.4562 -0.1272
2.3169 -4.5895 -0.0971
2.2872 -4.5791 -0.1101
2.2756 -4.5474 -0.1127
2.2677 -4.5114 -0.1131
2.3219 -4.4141 -0.0790
2.3576 -4.3396 -0.0556
2.2590 -4.3900 -0.1063
2.2362 -4.3676 -0.1149
2.2155 -4.3422 -0.1223
2.2156 -4.2995 -0.1184
2.2239 -4.2513 -0.1102
2.2120 -4.2186 -0.1128
2.2009 -4.1851 -0.1150
2.1714 -4.1628 -0.1268
2.1676 -4.1238 -0.1251
2.1773 -4.0776 -0.1164
2.1652 -4.0440 -0.1190
2.1650 -4.0043 -0.1155
2.1443 -3.9744 -0.1225
2.1147 -3.9471 -0.1339
2.1241 -3.9038 -0.1256
2.1337 -3.8615 -0.1173
2.1259 -3.8258 -0.1178
2.1314 -3.7864 -0.1116
2.1407 -3.7470 -0.1037
2.1114 -3.7168 -0.1147
2.0864 -3.6844 -0.1235
2.0730 -3.6493 -0.1266
2.0835 -3.6110 -0.1183
2.0850 -3.5746 -0.1143
2.0618 -3.4687 -0.1156
2.0360 -3.4329 -0.1245
2.0320 -3.3973 -0.1231
2.0289 -3.3620 -0.1214
2.0018 -3.3242 -0.1307
1.9997 -3.2889 -0.1285
2.0006 -3.2544 -0.1249
1.9977 -3.2197 -0.1232
1.9850 -3.1830 -0.1258
1.9572 -3.1423 -0.1352
1.9693 -3.1116 -0.1267
1.9666 -3.0774 -0.1250
1.9537 -3.0402 -0.1276
1.9458 -3.0045 -0.1281
1.9226 -2.9630 -0.1352
1.9354 -2.9351 -0.1267
1.9224 -2.8973 -0.1294
1.9145 -2.8616 -0.1299
1.9025 -2.8239 -0.1321
1.9095 -2.7955 -0.1263
1.8751 -2.7462 -0.1380
1.8789 -2.7165 -0.1335
1.8538 -2.6710 -0.1411
1.8513 -2.6379 -0.1393
1.8499 -2.6057 -0.1371
1.8475 -2.5732 -0.1353
1.8496 -2.5438 -0.1317
2.4079 -4.6572 -0.0973
2.3846 -4.6452 -0.1078
2.3538 -4.6414 -0.1229
2.3728 -4.5743 -0.1068
2.3528 -4.5557 -0.1150
2.3484 -4.5183 -0.1136
2.3546 -4.4696 -0.1058
2.3534 -4.4298 -0.1025
2.3807 -4.3622 -0.0823
2.3683 -4.3354 -0.0859
2.3182 -4.3424 -0.1116
2.2856 -4.3306 -0.1268
2.2993 -4.2389 -0.1110
2.2920 -4.2054 -0.1115
2.2814 -4.1741 -0.1137
2.2633 -4.1089 -0.1164
2.2841 -4.0585 -0.1011
2.2661 -4.0317 -0.1075
2.2697 -3.9928 -0.1019
2.2558 -3.9632 -0.1061
2.2374 -3.9352 -0.1125
2.2413 -3.8972 -0.1069
2.2072 -3.8742 -0.1217
2.2338 -3.8287 -0.1040
2.2081 -3.8016 -0.1142
2.2194 -3.7630 -0.1048
2.2050 -3.6974 -0.1057
2.1824 -3.6673 -0.1140
2.2015 -3.6301 -0.1009
2.2026 -3.5966 -0.0971
2.1909 -3.5648 -0.0998
2.1801 -3.5326 -0.1021
2.1730 -3.5001 -0.1025
2.1621 -3.4676 -0.1048
2.1474 -3.4348 -0.1090
2.1117 -3.4002 -0.1235
2.1531 -3.3709 -0.0999
2.1460 -3.3387 -0.1003
2.1225 -3.3040 -0.1087
2.1270 -3.2733 -0.1035
2.1003 -3.2370 -0.1133
2.0931 -3.2041 -0.1137
2.0819 -3.1702 -0.1160
2.0866 -3.1405 -0.1108
2.0755 -3.1065 -0.1131
2.0763 -3.0764 -0.1097
2.0773 -3.0466 -0.1063
2.0621 -3.0111 -0.1105
2.0426 -2.9736 -0.1166
2.0478 -2.9459 -0.1113
2.0281 -2.9077 -0.1174
1.9979 -2.8638 -0.1283
2.0179 -2.8439 -0.1164
2.0192 -2.8155 -0.1130
1.9811 -2.7661 -0.1272
1.9920 -2.7430 -0.1195
1.9568 -2.6936 -0.1323
1.9635 -2.6685 -0.1266
1.9464 -2.6290 -0.1313
1.9588 -2.6084 -0.1231
1.9515 -2.5754 -0.1235
2.4300 -4.6362 -0.1206
2.4323 -4.5913 -0.1147
2.4187 -4.5675 -0.1194
2.4182 -4.5270 -0.1155
2.4141 -4.4913 -0.1139
2.4123 -4.4534 -0.1109
2.3940 -4.4338 -0.1186
2.3870 -4.4016 -0.1190
2.3829 -4.3663 -0.1175
2.3759 -4.3341 -0.1179
2.3720 -4.2992 -0.1164
2.3587 -4.2726 -0.1207
2.3579 -4.2351 -0.1172
2.3342 -4.2163 -0.1278
2.3375 -4.1759 -0.1219
2.3304 -4.1436 -0.1223
2.3266 -4.1092 -0.1207
2.3318 -4.0693 -0.1138
2.3215 -4.0395 -0.1161
2.3021 -4.0146 -0.1239
2.3017 -3.9789 -0.1204
2.3040 -3.9424 -0.1154
2.2936 -3.9122 -0.1177
2.2832 -3.8817 -0.1201
2.2900 -3.8446 -0.1126
2.2622 -3.7859 -0.1213
2.2378 -3.6575 -0.1209
2.2202 -3.5942 -0.1237
2.2169 -3.5620 -0.1221
2.2062 -3.5303 -0.1245
2.2034 -3.4665 -0.1194
2.2002 -3.4350 -0.1178
2.2046 -3.4042 -0.1122
2.1788 -3.3713 -0.1226
2.1910 -3.3418 -0.1130
2.1773 -3.2795 -0.1138
2.1627 -3.2467 -0.1182
2.1440 -3.2127 -0.1245
2.1292 -3.1789 -0.1289
2.1231 -3.1175 -0.1257
2.1162 -3.0857 -0.1261
2.1052 -3.0526 -0.1285
2.0779 -3.0130 -0.1390
2.0708 -2.9806 -0.1394
2.0843 -2.9571 -0.1297
2.0814 -2.9271 -0.1281
2.0745 -2.8954 -0.1285
2.0717 -2.8658 -0.1269
2.0494 -2.7979 -0.1317
2.0466 -2.7685 -0.1301
2.0397 -2.7368 -0.1305
2.0284 -2.7024 -0.1329
2.0214 -2.6705 -0.1333
2.0188 -2.6416 -0.1317
2.4681 -4.5123 -0.1220
2.4672 -4.4743 -0.1183
2.4612 -4.4047 -0.1139
2.4627 -4.3654 -0.1086
2.4509 -4.3410 -0.1126
2.4496 -4.3054 -0.1094
2.4323 -4.2857 -0.1170
2.4395 -4.2426 -0.1081
2.4330 -4.2127 -0.1085
2.4178 -4.1900 -0.1145
2.4222 -4.1511 -0.1077
2.4292 -4.1111 -0.0993
2.4068 -4.0932 -0.1100
2.4026 -4.0616 -0.1088
2.3961 -4.0318 -0.1092
2.3871 -4.0035 -0.1111
2.3855 -3.9708 -0.1084
2.3790 -3.9411 -0.1087
2.3842 -3.9057 -0.1018
2.3752 -3.8775 -0.1038
2.3623 -3.8187 -0.1045
2.3696 -3.7845 -0.0966
2.3494 -3.7598 -0.1052
2.3456 -3.7297 -0.1040
2.3479 -3.6982 -0.0992
2.3354 -3.6704 -0.1032
2.3174 -3.6433 -0.1104
2.3046 -3.6146 -0.1144
2.3134 -3.5830 -0.1059
2.2979 -3.5544 -0.1115
2.2978 -3.5245 -0.1082
2.3033 -3.4948 -0.1018
2.2784 -3.4656 -0.1126
2.2841 -3.4364 -0.1062
2.2683 -3.4066 -0.1118
2.2656 -3.3774 -0.1100
2.2487 -3.3467 -0.1162
2.2488 -3.3180 -0.1129
2.2491 -3.2896 -0.1096
2.2456 -3.2609 -0.1084
2.2362 -3.2310 -0.1103
2.2161 -3.1981 -0.1181
2.2263 -3.1731 -0.1095
2.2031 -3.1386 -0.1188
2.2075 -3.1126 -0.1134
2.2111 -3.0868 -0.1085
2.1906 -3.0522 -0.1162
2.1983 -3.0285 -0.1092
2.1578 -2.9575 -0.1242
2.1688 -2.9361 -0.1156
2.1447 -2.8977 -0.1250
2.1517 -2.8750 -0.1185
2.1347 -2.8397 -0.1241
2.1250 -2.8081 -0.1261
2.1185 -2.7782 -0.1265
2.1226 -2.7549 -0.1215
2.1161 -2.7253 -0.1219
2.1021 -2.6907 -0.1260
2.5332 -4.5108 -0.1179
2.5289 -4.4789 -0.1167
2.5183 -4.4555 -0.1203
2.5213 -4.4146 -0.1136
2.5120 -4.3893 -0.1161
2.5035 -4.3629 -0.1181
2.4949 -4.3364 -0.1201
2.4886 -4.3074 -0.1205
2.4920 -4.2684 -0.1138
2.4781 -4.2470 -0.1196
2.4771 -4.2131 -0.1161
2.4654 -4.1891 -0.1203
2.4645 -4.1555 -0.1169
2.4605 -4.1249 -0.1156
2.4518 -4.0979 -0.1176
2.4424 -4.0714 -0.1201
2.4360 -4.0425 -0.1205
2.4339 -3.9784 -0.1141
2.4214 -3.9213 -0.1148
2.4001 -3.8367 -0.1176
2.3964 -3.8072 -0.1163
2.3531 -3.4926 -0.1048
2.3185 -3.4647 -0.1222
2.3270 -3.4366 -0.1138
2.3209 -3.4084 -0.1141
2.3288 -3.3815 -0.1062
2.3255 -3.3541 -0.1049
2.3137 -3.3256 -0.1086
2.3019 -3.2967 -0.1122
2.2957 -3.2687 -0.1126
2.2679 -3.2086 -0.1222
2.2646 -3.1810 -0.1208
2.2244 -3.1148 -0.1371
2.2340 -3.0915 -0.1286
2.2335 -3.0391 -0.1226
2.1988 -2.9982 -0.1386
2.1930 -2.8671 -0.1264
2.1836 -2.8368 -0.1285
2.1742 -2.8063 -0.1305
2.1615 -2.7737 -0.1342
2.1477 -2.7401 -0.1385
2.1651 -2.7270 -0.1265
2.5730 -4.4272 -0.1155
2.5648 -4.4024 -0.1175
2.5652 -4.3667 -0.1128
2.5592 -4.3393 -0.1131
2.5467 -4.3196 -0.1186
2.5472 -4.2846 -0.1138
2.5346 -4.2644 -0.1193
2.5330 -4.2322 -0.1162
2.5307 -4.2011 -0.1137
2.5270 -4.1717 -0.1123
2.5233 -4.1424 -0.1110
2.5174 -4.1153 -0.1113
2.5091 -4.0900 -0.1134
2.5125 -4.0556 -0.1069
2.5129 -4.0242 -0.1026
2.5118 -3.9942 -0.0995
2.5012 -3.9708 -0.1033
2.4953 -3.9441 -0.1036
2.4632 -3.9016 -0.1186
2.4827 -3.8617 -0.1012
2.4769 -3.8352 -0.1015
2.4594 -3.8136 -0.1099
2.4485 -3.7886 -0.1137
2.4612 -3.7551 -0.1014
2.4427 -3.7041 -0.1066
2.4380 -3.6493 -0.1027
2.4304 -3.6231 -0.1042
2.4167 -3.5978 -0.1097
2.4206 -3.5699 -0.1037
2.4049 -3.5443 -0.1104
2.3946 -3.5178 -0.1136
2.3987 -3.4907 -0.1076
2.3828 -3.4640 -0.1143
2.3898 -3.4376 -0.1065
2.3728 -3.4103 -0.1138
2.3725 -3.3840 -0.1107
2.3695 -3.3577 -0.1093
2.3665 -3.3315 -0.1079
2.3446 -3.3021 -0.1181
2.3492 -3.2773 -0.1120
2.3404 -3.2500 -0.1141
2.3433 -3.2255 -0.1092
2.3316 -3.1973 -0.1130
2.3179 -3.1682 -0.1180
2.3140 -3.1420 -0.1172
2.3170 -3.1184 -0.1123
2.3003 -3.0875 -0.1190
2.2994 -3.0627 -0.1164
2.3026 -3.0400 -0.1115
2.2907 -3.0106 -0.1154
2.2818 -2.9824 -0.1174
2.2584 -2.9467 -0.1277
2.2669 -2.9273 -0.1199
2.2496 -2.8940 -0.1267
2.2531 -2.8724 -0.1217
2.2440 -2.8436 -0.1238
2.2434 -2.8199 -0.1212
2.2354 -2.7917 -0.1227
2.2349 -2.7684 -0.1201
2.2236 -2.7379 -0.1234
2.6050 -4.3569 -0.1165
2.6007 -4.3288 -0.1156
2.5935 -4.3043 -0.1172
2.5877 -4.2780 -0.1175
2.5856 -4.2477 -0.1148
2.5777 -4.2239 -0.1170
2.5719 -4.1976 -0.1173
2.5647 -4.1729 -0.1188
2.5649 -4.1409 -0.1144
2.5592 -4.1149 -0.1147
2.5451 -4.0960 -0.1216
2.5531 -4.0584 -0.1112
2.5335 -4.0432 -0.1223
2.5254 -4.0186 -0.1244
2.5243 -3.9889 -0.1211
2.5192 -3.9324 -0.1170
2.4923 -3.8014 -0.1174
2.4792 -3.7499 -0.1193
2.4794 -3.7220 -0.1154
2.4695 -3.6973 -0.1187
2.4663 -3.6707 -0.1172
2.4493 -3.5929 -0.1182
2.4480 -3.5664 -0.1155
2.4424 -3.5406 -0.1159
2.4367 -3.5148 -0.1162
2.4372 -3.4634 -0.1089
2.4233 -3.4123 -0.1114
2.4204 -3.3871 -0.1099
2.3830 -3.2821 -0.1209
2.3649 -3.2286 -0.1258
2.3611 -3.2031 -0.1249
2.3554 -3.1770 -0.1253
2.3526 -3.1520 -0.1238
2.3470 -3.1261 -0.1241
2.3333 -3.0970 -0.1293
2.3167 -3.0663 -0.1363
2.3219 -3.0447 -0.1300
2.3242 -3.0224 -0.1254
2.3074 -2.9909 -0.1325
2.3098 -2.9689 -0.1279
2.2959 -2.9385 -0.1331
2.3035 -2.9198 -0.1255
2.2979 -2.8940 -0.1258
2.2870 -2.8649 -0.1292
2.2949 -2.8476 -0.1215
2.2840 -2.8184 -0.1249
2.2731 -2.7890 -0.1283
2.2588 -2.7571 -0.1336
2.7484 -4.2282 -0.0278
2.6411 -4.3161 -0.1159
2.6307 -4.2973 -0.1206
2.6287 -4.2676 -0.1178
2.6282 -4.2366 -0.1138
2.6263 -4.2075 -0.1110
2.6172 -4.1866 -0.1144
2.6154 -4.1579 -0.1116
2.6151 -4.1279 -0.1075
2.6060 -4.1068 -0.1110
2.6043 -4.0786 -0.1082
2.6027 -4.0507 -0.1054
2.5806 -4.0399 -0.1194
2.5804 -4.0107 -0.1154
2.5842 -3.9789 -0.1082
2.5789 -3.9543 -0.1085
2.5640 -3.9359 -0.1163
2.5570 -3.9120 -0.1179
2.5627 -3.8806 -0.1094
2.5557 -3.8569 -0.1110
2.5600 -3.8274 -0.1037
2.5490 -3.8057 -0.1084
2.5378 -3.7836 -0.1131
2.5382 -3.7567 -0.1090
2.5420 -3.7290 -0.1024
2.5149 -3.7117 -0.1191
2.5179 -3.6844 -0.1131
2.5227 -3.6572 -0.1059
2.5131 -3.6338 -0.1093
2.5120 -3.6086 -0.1065
2.4945 -3.5861 -0.1156
2.4909 -3.5612 -0.1147
2.4961 -3.5357 -0.1074
2.4943 -3.5112 -0.1052
2.4791 -3.4872 -0.1124
2.4630 -3.4626 -0.1203
2.4720 -3.4383 -0.1105
2.4694 -3.4141 -0.1089
2.4595 -3.3894 -0.1124
2.4495 -3.3643 -0.1159
2.4441 -3.3397 -0.1162
2.4500 -3.3172 -0.1089
2.4362 -3.2912 -0.1149
2.4280 -3.2660 -0.1171
2.4426 -3.2468 -0.1041
2.4105 -3.2148 -0.1222
2.4002 -3.1885 -0.1257
2.4113 -3.1693 -0.1152
2.4108 -3.1467 -0.1123
2.3937 -3.1177 -0.1202
2.3863 -3.0922 -0.1218
2.3828 -3.0684 -0.1209
2.3845 -3.0471 -0.1167
2.3700 -3.0181 -0.1228
2.3666 -2.9945 -0.1218
2.3704 -2.9749 -0.1163
2.3558 -2.9452 -0.1224
2.3649 -2.9292 -0.1137
2.3378 -2.8914 -0.1275
2.3375 -2.8699 -0.1246
2.3395 -2.8501 -0.1204
2.3341 -2.8256 -0.1207
2.3362 -2.8064 -0.1166
2.7521 -4.2293 -0.0502
2.7304 -4.2318 -0.0667
2.6670 -4.2883 -0.1221
2.6617 -4.2640 -0.1224
2.6641 -4.2302 -0.1156
2.6524 -4.2137 -0.1217
2.6471 -4.1895 -0.1220
2.6547 -4.1511 -0.1106
2.6341 -4.1138 -0.1204
2.6339 -4.0560 -0.1118
2.6272 -4.0335 -0.1134
2.6167 -3.9859 -0.1140
2.5993 -3.9712 -0.1248
2.6024 -3.9410 -0.1179
2.5941 -3.9191 -0.1208
2.5849 -3.8974 -0.1244
2.5938 -3.8650 -0.1129
2.5906 -3.8140 -0.1076
2.5782 -3.7939 -0.1138
2.5568 -3.7248 -0.1193
2.5766 -3.6685 -0.0962
2.5546 -3.6252 -0.1060
2.5444 -3.6029 -0.1103
2.5366 -3.5798 -0.1125
2.5291 -3.5088 -0.1075
2.5108 -3.4621 -0.1140
2.5192 -3.4391 -0.1044
2.4981 -3.3917 -0.1129
2.4984 -3.3690 -0.1092
2.4896 -3.3451 -0.1122
2.4780 -3.2758 -0.1104
2.4587 -3.2487 -0.1207
2.4697 -3.2298 -0.1097
2.4502 -3.2019 -0.1199
2.4418 -3.1553 -0.1192
2.4347 -3.1309 -0.1208
2.4236 -3.1047 -0.1251
2.4243 -3.0836 -0.1214
2.4281 -3.0643 -0.1157
2.4209 -3.0399 -0.1173
2.4076 -2.9913 -0.1199
2.3943 -2.9630 -0.1256
2.3870 -2.9380 -0.1272
2.3839 -2.9155 -0.1262
2.3828 -2.8944 -0.1238
2.3714 -2.8666 -0.1281
2.3630 -2.8406 -0.1304
2.3578 -2.8167 -0.1307
2.7684 -4.2680 -0.0689
2.7144 -4.2311 -0.1051
2.7053 -4.2138 -0.1094
2.7030 -4.1876 -0.1070
2.6911 -4.1733 -0.1141
2.6945 -4.1406 -0.1062
2.6810 -4.1274 -0.1146
2.6760 -4.1044 -0.1149
2.6767 -4.0756 -0.1098
2.6732 -4.0514 -0.1087
2.6682 -4.0287 -0.1090
2.6603 -4.0086 -0.1120
2.6583 -3.9834 -0.1096
2.6518 -3.9619 -0.1112
2.6438 -3.9414 -0.1142
2.6418 -3.9164 -0.1118
2.6368 -3.8936 -0.1121
2.6287 -3.8728 -0.1151
2.6316 -3.8454 -0.1085
2.6250 -3.8237 -0.1102
2.6249 -3.7986 -0.1064
2.6134 -3.7544 -0.1083
2.6036 -3.7338 -0.1127
2.5986 -3.7111 -0.1130
2.5903 -3.6895 -0.1160
2.5903 -3.6652 -0.1122
2.5786 -3.6443 -0.1180
2.5821 -3.6196 -0.1114
2.5703 -3.5983 -0.1172
2.5739 -3.5742 -0.1106
2.5724 -3.5513 -0.1081
2.5623 -3.5293 -0.1125
2.5573 -3.5067 -0.1128
2.5471 -3.4842 -0.1172
2.5492 -3.4616 -0.1120
2.5496 -3.4393 -0.1081
2.5447 -3.4169 -0.1084
2.5398 -3.3946 -0.1087
2.5222 -3.3705 -0.1186
2.5263 -3.3493 -0.1120
2.5288 -3.3282 -0.1068
2.5165 -3.3043 -0.1126
2.5134 -3.2823 -0.1115
2.4991 -3.2573 -0.1187
2.4847 -3.2318 -0.1259
2.4968 -3.2144 -0.1137
2.4842 -3.1892 -0.1195
2.4850 -3.1688 -0.1157
2.4723 -3.1431 -0.1215
2.4673 -3.1203 -0.1218
2.4643 -3.0985 -0.1207
2.4554 -3.0739 -0.1237
2.4524 -3.0521 -0.1226
2.4474 -3.0293 -0.1229
2.4464 -3.0088 -0.1204
2.4435 -2.9874 -0.1193
2.4426 -2.9673 -0.1168
2.4315 -2.9409 -0.1213
2.4286 -2.9197 -0.1202
2.4112 -2.8887 -0.1288
2.4125 -2.8701 -0.1249
2.4075 -2.8474 -0.1252
2.7305 -4.2155 -0.1164
2.7243 -4.1951 -0.1180
2.7153 -4.1780 -0.1225
2.7145 -4.1506 -0.1186
2.7068 -4.1316 -0.1217
2.7013 -4.0823 -0.1180
2.6907 -4.0659 -0.1240
2.6887 -4.0407 -0.1214
2.6911 -4.0117 -0.1146
2.6819 -3.9935 -0.1191
2.6770 -3.9713 -0.1194
2.6721 -3.9491 -0.1197
2.6733 -3.9224 -0.1143
2.6560 -3.8836 -0.1220
2.6494 -3.8373 -0.1197
2.6381 -3.7938 -0.1217
2.6235 -3.7272 -0.1225
2.6170 -3.7056 -0.1242
2.6196 -3.6575 -0.1141
2.6115 -3.6365 -0.1172
2.6067 -3.6146 -0.1175
2.6069 -3.5917 -0.1135
2.6081 -3.5691 -0.1087
2.6008 -3.5478 -0.1112
2.5926 -3.5264 -0.1143
2.5957 -3.5042 -0.1081
2.5783 -3.4610 -0.1151
2.5815 -3.4396 -0.1089
2.5705 -3.4176 -0.1142
2.5586 -3.3951 -0.1202
2.5673 -3.3750 -0.1098
2.5581 -3.3527 -0.1136
2.5460 -3.3296 -0.1196
2.5124 -3.1966 -0.1249
2.5105 -3.1756 -0.1230
2.4970 -3.1501 -0.1297
2.4960 -3.1296 -0.1271
2.4951 -3.0898 -0.1212
2.4963 -3.0710 -0.1171
2.4925 -3.0498 -0.1167
2.4738 -3.0203 -0.1271
2.4820 -3.0060 -0.1180
2.4753 -2.9830 -0.1197
2.4596 -2.9356 -0.1246
2.4568 -2.9151 -0.1234
2.4448 -2.8881 -0.1287
2.4379 -2.8646 -0.1305
2.7844 -4.2854 -0.1093
2.7842 -4.2570 -0.1045
2.7685 -4.2249 -0.1123
2.7705 -4.1941 -0.1053
2.7679 -4.1704 -0.1034
2.7599 -4.1540 -0.1073
2.7553 -4.1330 -0.1075
2.7535 -4.1086 -0.1049
2.7454 -4.0918 -0.1088
2.7408 -4.0707 -0.1091
2.7319 -4.0542 -0.1137
2.7266 -4.0338 -0.1147
2.7291 -4.0055 -0.1077
2.7194 -3.9893 -0.1131
2.7185 -3.9649 -0.1097
2.7153 -3.9426 -0.1085
2.7041 -3.9270 -0.1153
2.7024 -3.9035 -0.1127
2.7015 -3.8798 -0.1092
2.6947 -3.8603 -0.1117
2.6870 -3.8412 -0.1149
2.6839 -3.8192 -0.1137
2.6855 -3.7947 -0.1081
2.6801 -3.7742 -0.1091
2.6716 -3.7551 -0.1130
2.6749 -3.7306 -0.1059
2.6648 -3.7121 -0.1114
2.6602 -3.6911 -0.1116
2.6580 -3.6694 -0.1097
2.6453 -3.6509 -0.1173
2.6390 -3.6301 -0.1191
2.6493 -3.6057 -0.1060
2.6355 -3.5866 -0.1144
2.6326 -3.5654 -0.1132
2.6306 -3.5441 -0.1112
2.6311 -3.5228 -0.1070
2.6292 -3.5020 -0.1051
2.6142 -3.4815 -0.1143
2.6123 -3.4606 -0.1123
2.6033 -3.4395 -0.1163
2.6031 -3.4189 -0.1128
2.5959 -3.3977 -0.1153
2.5931 -3.3770 -0.1141
2.5885 -3.3561 -0.1143
2.5757 -3.3336 -0.1213
2.5711 -3.3124 -0.1216
2.5729 -3.2929 -0.1166
2.5748 -3.2738 -0.1117
2.5721 -3.2536 -0.1104
2.5638 -3.2316 -0.1137
2.5460 -3.2060 -0.1244
2.5433 -3.1855 -0.1232
2.5472 -3.1680 -0.1167
2.5378 -3.1449 -0.1207
2.5449 -3.1293 -0.1120
2.5228 -3.1000 -0.1257
2.5299 -3.0849 -0.1170
2.5204 -3.0613 -0.1210
2.5148 -3.0397 -0.1220
2.5182 -3.0234 -0.1163
2.5086 -2.9995 -0.1203
2.5019 -2.9772 -0.1221
2.4994 -2.9576 -0.1208
2.4979 -2.9387 -0.1188
2.4799 -2.9084 -0.1289
2.4763 -2.8879 -0.1284
2.8007 -4.2377 -0.1117
2.7872 -4.1763 -0.1125
2.7808 -4.1586 -0.1151
2.7672 -4.0969 -0.1158
2.7513 -4.0126 -0.1146
2.7447 -3.9942 -0.1171
2.7473 -3.9428 -0.1054
2.7229 -3.8672 -0.1133
2.7112 -3.7824 -0.1082
2.7092 -3.7610 -0.1062
2.6941 -3.7237 -0.1128
2.6748 -3.6004 -0.1074
2.6671 -3.5810 -0.1108
2.6627 -3.5609 -0.1110
2.6566 -3.5409 -0.1128
2.6505 -3.5209 -0.1146
2.6477 -3.5006 -0.1133
2.6450 -3.4803 -0.1120
2.6292 -3.4397 -0.1187
2.6300 -3.4198 -0.1143
2.6300 -3.4001 -0.1107
2.6265 -3.3802 -0.1102
2.6221 -3.3601 -0.1105
2.6123 -3.3390 -0.1153
2.6106 -3.3195 -0.1133
2.6046 -3.2800 -0.1115
2.5965 -3.2589 -0.1148
2.5883 -3.2375 -0.1182
2.5811 -3.2162 -0.1207
2.5788 -3.1783 -0.1158
2.5696 -3.1561 -0.1200
2.5729 -3.1394 -0.1140
2.5636 -3.1170 -0.1181
2.5641 -3.0993 -0.1145
2.5597 -3.0793 -0.1148
2.5484 -3.0553 -0.1204
2.5479 -3.0374 -0.1176
2.5415 -3.0160 -0.1194
2.5371 -2.9958 -0.1197
2.5246 -2.9702 -0.1261
2.5221 -2.9512 -0.1248
4.2024 -3.9048 -0.1128
4.1766 -3.7852 -0.1142
4.1667 -3.7625 -0.1099
4.1255 -3.6024 -0.1056
4.1283 -3.5845 -0.1120
4.1154 -3.5442 -0.1086
4.1155 -3.5252 -0.1127
4.1069 -3.5049 -0.1091
4.0976 -3.4849 -0.1047
4.1010 -3.4658 -0.1119
4.0858 -3.4459 -0.1021
4.0900 -3.4264 -0.1101
4.0808 -3.4070 -0.1056
4.0832 -3.3870 -0.1121
4.0789 -3.3673 -0.1123
4.0682 -3.3486 -0.1063
4.0664 -3.3286 -0.1089
4.0686 -3.3077 -0.1154
4.0572 -3.2897 -0.1086
4.0530 -3.2702 -0.1088
4.0495 -3.2504 -0.1098
4.0407 -3.2325 -0.1054
4.0449 -3.2097 -0.1142
4.0369 -3.1917 -0.1106
4.0364 -3.1703 -0.1147
4.0284 -3.1526 -0.1110
4.0242 -3.1330 -0.1113
4.0222 -3.1121 -0.1138
4.0173 -3.0930 -0.1133
4.0174 -3.0703 -0.1182
4.0117 -3.0516 -0.1169
4.0046 -3.0341 -0.1140
4.0010 -3.0139 -0.1150
3.9982 -2.9931 -0.1168
3.9919 -2.9753 -0.1147
3.9876 -2.9557 -0.1149
3.9862 -2.9333 -0.1183
3.9792 -2.9164 -0.1154
3.9716 -2.9006 -0.1117
3.9694 -2.8788 -0.1143
3.9652 -2.8592 -0.1146
3.9629 -2.8372 -0.1171
3.9600 -2.8158 -0.1189
3.9545 -2.7979 -0.1176
3.9521 -2.7755 -0.1202
3.9441 -2.7614 -0.1157
3.9392 -2.7428 -0.1152
3.9350 -2.7233 -0.1154
3.9308 -2.7038 -0.1157
3.9272 -2.6832 -0.1167
3.9230 -2.6636 -0.1169
3.9188 -2.6441 -0.1171
4.2477 -3.9473 -0.1196
4.2481 -3.9296 -0.1235
4.2387 -3.9054 -0.1201
4.2371 -3.8863 -0.1226
4.2210 -3.8586 -0.1139
4.2213 -3.8406 -0.1179
4.2095 -3.7975 -0.1161
4.2116 -3.7799 -0.1216
4.1718 -3.6504 -0.1127
4.1782 -3.6330 -0.1219
4.1559 -3.5686 -0.1152
4.1427 -3.5465 -0.1080
4.1433 -3.4866 -0.1206
4.1290 -3.4244 -0.1206
4.1082 -3.3631 -0.1147
4.1013 -3.3429 -0.1127
4.0853 -3.3037 -0.1064
4.0829 -3.2616 -0.1129
4.0785 -3.2412 -0.1131
4.0702 -3.2223 -0.1096
4.0620 -3.2036 -0.1061
4.0632 -3.1586 -0.1164
4.0596 -3.1377 -0.1174
4.0446 -3.1232 -0.1071
4.0366 -3.1053 -0.1036
4.0360 -3.0830 -0.1076
4.0397 -3.0573 -0.1161
4.0287 -3.0417 -0.1096
4.0215 -3.0238 -0.1068
4.0229 -2.9990 -0.1131
4.0164 -2.9806 -0.1110
4.0191 -2.9540 -0.1188
4.0126 -2.9355 -0.1168
4.0054 -2.9180 -0.1140
4.0004 -2.8984 -0.1135
3.9940 -2.8804 -0.1115
3.9816 -2.8191 -0.1130
3.9781 -2.7717 -0.1195
3.9685 -2.7586 -0.1137
3.9649 -2.7104 -0.1203
3.9586 -2.6930 -0.1182
3.9511 -2.6503 -0.1202
3.9491 -2.6256 -0.1235
4.2538 -3.8727 -0.1136
4.2453 -3.8491 -0.1110
4.2475 -3.8313 -0.1162
4.2223 -3.7425 -0.1123
4.2177 -3.7211 -0.1125
4.2021 -3.6566 -0.1119
4.1912 -3.6335 -0.1071
4.1812 -3.6111 -0.1030
4.1839 -3.5917 -0.1090
4.1731 -3.5694 -0.1043
4.1748 -3.5495 -0.1095
4.1719 -3.5286 -0.1112
4.1674 -3.5074 -0.1115
4.1593 -3.4859 -0.1089
4.1496 -3.4646 -0.1048
4.1494 -3.4437 -0.1087
4.1508 -3.4226 -0.1140
4.1445 -3.4014 -0.1128
4.1383 -3.3804 -0.1116
4.1312 -3.3595 -0.1097
4.1275 -3.3383 -0.1106
4.1262 -3.3166 -0.1138
4.1144 -3.2971 -0.1075
4.1098 -3.2761 -0.1078
4.1029 -3.2559 -0.1059
4.1008 -3.2342 -0.1083
4.1073 -3.2092 -0.1187
4.0927 -3.1690 -0.1141
