ply
format ascii 1.0
element vertex 2148
property float x
property float y
property float z
end_header
0.8656 0.6266 -0.3243
0.8728 0.6179 -0.3247
0.8796 0.6099 -0.3257
0.8866 0.6009 -0.3238
0.8931 0.5926 -0.3227
0.8991 0.5854 -0.3235
-0.9545 2.5578 0.3574
-0.9280 2.5569 0.2289
-0.8729 2.5081 0.1647
-0.8322 2.4756 0.1015
-1.1813 2.9436 -0.1694
-0.8453 2.5744 -0.2569
-0.8159 2.5565 -0.3263
-0.6923 2.4215 -0.3622
-0.3369 2.0085 -0.3588
-0.0878 1.7185 -0.3535
0.0245 1.5855 -0.3420
0.0956 1.5043 -0.3473
0.2336 1.3432 -0.3425
0.3432 1.2147 -0.3367
0.3994 1.1466 -0.3242
0.4335 1.1080 -0.3286
0.4712 1.0637 -0.3259
0.4941 1.0397 -0.3366
0.5345 0.9896 -0.3232
0.5555 0.9672 -0.3311
0.6074 0.9057 -0.3257
0.6511 0.8541 -0.3215
0.6670 0.8368 -0.3262
0.6853 0.8151 -0.3244
0.7164 0.7792 -0.3253
0.7309 0.7623 -0.3250
0.7440 0.7475 -0.3263
0.7580 0.7305 -0.3232
0.7699 0.7168 -0.3236
0.7822 0.7021 -0.3214
0.7927 0.6900 -0.3221
0.8021 0.6799 -0.3252
0.8109 0.6704 -0.3287
0.8212 0.6577 -0.3254
0.8307 0.6463 -0.3235
0.8390 0.6368 -0.3242
0.8466 0.6285 -0.3266
0.8558 0.6165 -0.3204
0.8624 0.6096 -0.3241
0.8705 0.5990 -0.3189
0.8766 0.5929 -0.3230
0.8830 0.5858 -0.3242
0.8892 0.5788 -0.3250
-0.8898 2.3982 0.2748
-0.8639 2.3824 0.2137
-0.8916 2.4398 0.0856
-1.1651 2.7620 -0.0121
-1.1523 2.7639 -0.0891
-1.0224 2.6657 -0.3043
-0.9262 2.5708 -0.3577
-0.1185 1.6798 -0.3587
0.1663 1.3601 -0.3324
0.2258 1.2946 -0.3331
0.3287 1.1809 -0.3325
0.3699 1.1360 -0.3347
0.4189 1.0798 -0.3251
0.4534 1.0419 -0.3260
0.4783 1.0163 -0.3346
0.5106 0.9801 -0.3320
0.5434 0.9425 -0.3253
0.5920 0.8889 -0.3253
0.6135 0.8654 -0.3258
0.6347 0.8415 -0.3241
0.6716 0.8007 -0.3234
0.6878 0.7829 -0.3240
0.7048 0.7636 -0.3211
0.7181 0.7495 -0.3239
0.7319 0.7344 -0.3241
0.7560 0.7084 -0.3274
0.7687 0.6939 -0.3250
0.7803 0.6809 -0.3237
0.7895 0.6715 -0.3276
0.7995 0.6605 -0.3280
0.8117 0.6452 -0.3192
0.8202 0.6363 -0.3213
0.8273 0.6297 -0.3273
0.8362 0.6194 -0.3251
0.8446 0.6098 -0.3234
0.8520 0.6019 -0.3246
0.8594 0.5937 -0.3242
0.8664 0.5861 -0.3245
0.8731 0.5786 -0.3244
0.8789 0.5732 -0.3290
-0.9761 2.4065 0.1976
-0.9357 2.3756 0.1355
-1.0094 2.4662 0.0648
-1.0167 2.5140 -0.1495
-0.9275 2.4305 -0.2046
-0.9901 2.5134 -0.2957
-0.9605 2.4954 -0.3656
-0.4773 1.9827 -0.3392
-0.1482 1.6416 -0.3637
-0.0187 1.5017 -0.3434
0.0606 1.4184 -0.3435
0.1469 1.3256 -0.3323
0.1709 1.3054 -0.3593
0.2680 1.1974 -0.3273
0.3085 1.1561 -0.3339
0.3456 1.1183 -0.3401
0.3980 1.0611 -0.3284
0.4253 1.0340 -0.3373
0.4616 0.9953 -0.3341
0.5043 0.9478 -0.3199
0.5240 0.9288 -0.3295
0.5814 0.8665 -0.3186
0.5985 0.8498 -0.3257
0.6148 0.8341 -0.3325
0.6389 0.8072 -0.3247
0.6588 0.7858 -0.3215
0.6732 0.7714 -0.3259
0.7060 0.7362 -0.3218
0.7160 0.7273 -0.3307
0.7330 0.7080 -0.3226
0.7463 0.6936 -0.3207
0.7570 0.6829 -0.3238
0.7671 0.6730 -0.3272
0.7791 0.6598 -0.3240
0.7907 0.6468 -0.3199
0.7990 0.6390 -0.3245
0.8084 0.6292 -0.3244
0.8175 0.6194 -0.3237
0.8266 0.6094 -0.3213
0.8338 0.6026 -0.3252
0.8422 0.5933 -0.3228
0.8574 0.5767 -0.3199
0.8694 0.5656 -0.3278
-1.0643 2.4010 0.1812
-1.0984 2.4463 0.1141
-1.1862 2.5469 0.0382
-1.2278 2.6014 -0.0399
-1.0940 2.4767 -0.0954
-1.0981 2.4932 -0.1700
-0.9896 2.3931 -0.2213
-0.9759 2.3911 -0.2919
-0.9475 2.3738 -0.3591
-0.6750 2.0981 -0.3417
-0.0600 1.4845 -0.3559
0.1222 1.2987 -0.3362
0.2400 1.1805 -0.3348
0.3322 1.0884 -0.3360
0.4138 1.0059 -0.3316
0.4393 0.9818 -0.3401
0.4730 0.9476 -0.3373
0.5360 0.8828 -0.3272
0.5814 0.8377 -0.3291
0.6059 0.8122 -0.3238
0.6249 0.7933 -0.3246
0.6444 0.7735 -0.3226
0.6596 0.7589 -0.3260
0.6911 0.7272 -0.3258
0.7181 0.7006 -0.3282
0.7339 0.6837 -0.3215
0.7453 0.6726 -0.3234
0.7563 0.6617 -0.3247
0.7679 0.6499 -0.3233
0.7879 0.6301 -0.3246
0.7979 0.6199 -0.3232
0.8059 0.6125 -0.3268
0.8150 0.6031 -0.3255
0.8249 0.5923 -0.3199
0.8329 0.5843 -0.3197
0.8404 0.5768 -0.3201
0.8471 0.5705 -0.3226
-1.1394 2.3803 0.1648
-1.1930 2.4416 0.0956
-1.1082 2.3900 -0.1045
-1.1117 2.4040 -0.1774
-1.0052 2.3096 -0.2272
-0.9205 2.2359 -0.2771
-0.9219 2.2478 -0.3489
-0.5586 1.9022 -0.3587
-0.2612 1.6164 -0.3476
-0.0821 1.4468 -0.3575
0.0980 1.2722 -0.3399
0.2272 1.1474 -0.3309
0.4021 0.9797 -0.3267
0.4333 0.9503 -0.3292
0.4665 0.9182 -0.3267
0.5156 0.8724 -0.3338
0.5712 0.8176 -0.3230
0.5912 0.7987 -0.3247
0.6107 0.7802 -0.3252
0.6322 0.7590 -0.3205
0.6491 0.7429 -0.3211
0.6609 0.7328 -0.3292
0.6957 0.6983 -0.3204
0.7062 0.6893 -0.3273
0.7341 0.6619 -0.3221
0.7553 0.6423 -0.3266
0.7777 0.6202 -0.3224
0.7872 0.6113 -0.3230
0.7961 0.6029 -0.3243
0.8038 0.5963 -0.3285
0.8133 0.5867 -0.3252
0.8235 0.5758 -0.3177
0.8308 0.5691 -0.3193
0.8365 0.5647 -0.3267
0.8435 0.5581 -0.3275
0.8501 0.5521 -0.3293
-1.2154 2.3590 0.1482
-1.2502 2.4176 -0.0612
-1.1534 2.3367 -0.1184
-1.1254 2.3196 -0.1846
-1.0974 2.3025 -0.2507
-1.0856 2.3009 -0.3213
-0.5519 1.8179 -0.3506
-0.2708 1.5607 -0.3440
-0.0667 1.3739 -0.3388
0.0112 1.3029 -0.3393
0.0736 1.2466 -0.3439
0.2129 1.1176 -0.3286
0.3107 1.0280 -0.3251
0.3894 0.9560 -0.3234
0.4176 0.9309 -0.3289
0.4512 0.9001 -0.3265
0.5053 0.8509 -0.3280
0.5320 0.8263 -0.3257
0.5546 0.8057 -0.3262
0.5800 0.7819 -0.3209
0.6030 0.7602 -0.3163
0.6188 0.7465 -0.3208
0.6321 0.7352 -0.3278
0.6486 0.7202 -0.3282
0.6658 0.7043 -0.3258
0.6825 0.6886 -0.3224
0.6964 0.6760 -0.3226
0.7209 0.6539 -0.3256
0.7460 0.6305 -0.3217
0.7670 0.6115 -0.3223
0.7767 0.6027 -0.3228
0.7843 0.5965 -0.3285
0.7943 0.5870 -0.3257
0.8059 0.5753 -0.3163
0.8125 0.5699 -0.3218
0.8207 0.5623 -0.3208
0.8274 0.5567 -0.3244
0.8337 0.5515 -0.3290
0.8414 0.5442 -0.3267
-1.3693 2.4284 -0.0857
-1.2092 2.3104 -0.2789
-1.2149 2.3238 -0.3559
-0.7562 1.9245 -0.3576
-0.4428 1.6515 -0.3587
-0.1202 1.3705 -0.3583
0.0058 1.2579 -0.3323
0.0602 1.2114 -0.3412
0.2472 1.0470 -0.3271
0.3306 0.9745 -0.3288
0.3654 0.9445 -0.3311
0.4056 0.9088 -0.3254
0.4630 0.8591 -0.3287
0.4851 0.8406 -0.3345
0.5207 0.8082 -0.3220
0.5433 0.7886 -0.3228
0.5630 0.7717 -0.3254
0.5796 0.7578 -0.3309
0.6007 0.7392 -0.3283
0.6202 0.7219 -0.3261
0.6387 0.7055 -0.3235
0.6537 0.6927 -0.3253
0.6865 0.6634 -0.3188
0.6979 0.6538 -0.3228
0.7115 0.6418 -0.3212
0.7358 0.6205 -0.3198
0.7454 0.6126 -0.3235
0.7543 0.6053 -0.3277
0.7659 0.5947 -0.3237
0.7760 0.5858 -0.3224
0.7847 0.5784 -0.3240
0.7932 0.5711 -0.3252
0.8011 0.5644 -0.3271
0.8096 0.5569 -0.3261
0.8175 0.5500 -0.3259
0.8259 0.5423 -0.3226
-1.3229 2.2947 -0.0877
-0.7306 1.8259 -0.3453
-0.4328 1.5782 -0.3483
-0.1715 1.3590 -0.3298
-0.0097 1.2244 -0.3315
0.0335 1.1899 -0.3471
0.1059 1.1290 -0.3409
0.2261 1.0280 -0.3308
0.2662 0.9949 -0.3348
0.3095 0.9587 -0.3333
0.3904 0.8906 -0.3254
0.5045 0.7956 -0.3247
0.5252 0.7787 -0.3282
0.5461 0.7614 -0.3300
0.5700 0.7412 -0.3258
0.5910 0.7235 -0.3235
0.6053 0.7121 -0.3293
0.6281 0.6922 -0.3206
0.6407 0.6823 -0.3265
0.6536 0.6720 -0.3309
0.6744 0.6536 -0.3196
0.6886 0.6417 -0.3185
0.6980 0.6345 -0.3257
0.7107 0.6240 -0.3253
0.7226 0.6141 -0.3252
0.7346 0.6038 -0.3235
0.7464 0.5938 -0.3210
0.7548 0.5873 -0.3257
0.7648 0.5790 -0.3254
0.7741 0.5712 -0.3258
0.7844 0.5623 -0.3221
0.8022 0.5471 -0.3189
0.8080 0.5430 -0.3261
0.8156 0.5367 -0.3266
-1.2205 2.1463 -0.3574
-0.4597 1.5402 -0.3534
-0.2389 1.3644 -0.3548
-0.1707 1.3111 -0.3667
-0.0257 1.1928 -0.3313
0.0902 1.1013 -0.3404
0.1349 1.0663 -0.3482
0.1988 1.0146 -0.3391
0.2997 0.9334 -0.3284
0.3695 0.8781 -0.3310
0.4304 0.8297 -0.3324
0.4847 0.7864 -0.3317
0.5347 0.7463 -0.3275
0.5782 0.7113 -0.3236
0.5934 0.6996 -0.3283
0.6151 0.6818 -0.3219
0.6307 0.6695 -0.3231
0.6454 0.6579 -0.3245
0.6749 0.6343 -0.3230
0.6876 0.6242 -0.3241
0.6980 0.6163 -0.3287
0.7122 0.6047 -0.3243
0.7226 0.5966 -0.3267
0.7347 0.5868 -0.3241
0.7446 0.5789 -0.3254
0.7562 0.5694 -0.3215
0.7643 0.5632 -0.3252
0.7745 0.5549 -0.3225
0.7814 0.5498 -0.3279
0.7916 0.5414 -0.3229
0.7994 0.5352 -0.3237
0.8079 0.5282 -0.3214
0.8146 0.5231 -0.3240
-1.0518 1.9309 -0.3123
-0.4940 1.5091 -0.3616
-0.2421 1.3164 -0.3488
-0.0407 1.1618 -0.3309
0.0683 1.0795 -0.3440
0.1810 0.9935 -0.3405
0.2815 0.9163 -0.3310
0.3243 0.8834 -0.3270
0.3585 0.8574 -0.3277
0.4205 0.8102 -0.3280
0.4686 0.7739 -0.3343
0.5268 0.7287 -0.3210
0.5430 0.7168 -0.3272
0.5650 0.6998 -0.3244
0.5841 0.6852 -0.3238
0.5999 0.6734 -0.3267
0.6338 0.6475 -0.3245
0.6496 0.6353 -0.3230
0.6612 0.6268 -0.3276
0.6742 0.6169 -0.3286
0.6853 0.6087 -0.3321
0.7030 0.5945 -0.3212
0.7151 0.5852 -0.3201
0.7245 0.5783 -0.3239
0.7341 0.5711 -0.3262
0.7464 0.5614 -0.3210
0.7571 0.5532 -0.3187
0.7638 0.5485 -0.3254
0.7726 0.5418 -0.3257
0.7809 0.5356 -0.3269
0.7893 0.5291 -0.3264
0.7980 0.5223 -0.3241
-1.0376 1.8470 -0.3085
-1.0004 1.8225 -0.3612
-0.1305 1.1865 -0.3297
-0.0871 1.1558 -0.3478
0.0500 1.0556 -0.3455
0.1207 1.0036 -0.3364
0.1614 0.9743 -0.3434
0.2277 0.9252 -0.3287
0.2687 0.8953 -0.3293
0.3146 0.8615 -0.3229
0.3379 0.8450 -0.3332
0.4056 0.7954 -0.3289
0.4384 0.7713 -0.3242
0.4649 0.7519 -0.3235
0.4822 0.7397 -0.3315
0.5295 0.7050 -0.3283
0.5858 0.6641 -0.3297
0.6082 0.6474 -0.3216
0.6235 0.6362 -0.3225
0.6373 0.6263 -0.3247
0.6491 0.6179 -0.3291
0.6652 0.6059 -0.3249
0.6776 0.5969 -0.3261
0.6909 0.5872 -0.3245
0.7017 0.5794 -0.3266
0.7144 0.5700 -0.3237
0.7237 0.5634 -0.3270
0.7448 0.5479 -0.3251
0.7545 0.5408 -0.3246
0.7631 0.5346 -0.3261
0.7810 0.5214 -0.3239
-0.9650 1.7286 -0.3490
-0.3762 1.3175 -0.3502
-0.1621 1.1675 -0.3382
-0.0096 1.0608 -0.3347
0.0193 1.0414 -0.3549
0.0982 0.9858 -0.3412
0.1516 0.9485 -0.3397
0.2046 0.9113 -0.3349
0.2990 0.8450 -0.3242
0.3620 0.8011 -0.3285
0.4246 0.7573 -0.3247
0.5176 0.6924 -0.3276
0.5413 0.6757 -0.3234
0.5645 0.6593 -0.3179
0.5762 0.6514 -0.3265
0.5979 0.6360 -0.3198
0.6110 0.6270 -0.3243
0.6251 0.6173 -0.3263
0.6407 0.6063 -0.3247
0.6542 0.5969 -0.3253
0.6698 0.5859 -0.3210
0.6804 0.5786 -0.3245
0.6942 0.5688 -0.3210
0.7055 0.5609 -0.3212
0.7155 0.5540 -0.3231
0.7259 0.5468 -0.3234
0.7339 0.5413 -0.3280
0.7449 0.5336 -0.3250
0.7556 0.5260 -0.3214
0.7701 0.5161 -0.3292
0.7797 0.5093 -0.3254
0.7864 0.5048 -0.3291
-1.4545 1.9851 -0.0780
-1.0272 1.7066 -0.3660
-0.1668 1.1302 -0.3334
-0.0275 1.0370 -0.3365
0.0890 0.9591 -0.3375
0.2505 0.8507 -0.3213
0.2805 0.8308 -0.3278
0.3820 0.7628 -0.3257
0.4066 0.7464 -0.3295
0.4587 0.7116 -0.3290
0.4861 0.6931 -0.3245
0.5087 0.6780 -0.3235
0.5484 0.6514 -0.3236
0.5637 0.6413 -0.3276
0.5794 0.6309 -0.3301
0.6025 0.6152 -0.3203
0.6181 0.6047 -0.3201
0.6470 0.5853 -0.3194
0.6611 0.5759 -0.3180
0.6707 0.5696 -0.3234
0.6952 0.5532 -0.3220
0.7048 0.5468 -0.3250
0.7138 0.5410 -0.3287
0.7268 0.5321 -0.3225
0.7364 0.5257 -0.3229
0.7453 0.5198 -0.3241
0.7530 0.5147 -0.3275
0.7640 0.5072 -0.3214
0.7694 0.5037 -0.3293
0.7762 0.4993 -0.3331
-1.2720 1.7965 -0.0622
-0.5001 1.3054 -0.3437
-0.3821 1.2298 -0.3414
-0.2110 1.1202 -0.3482
-0.1091 1.0547 -0.3357
0.0757 0.9363 -0.3367
0.1354 0.8979 -0.3309
0.1741 0.8732 -0.3362
0.2985 0.7934 -0.3313
0.3419 0.7654 -0.3225
0.3933 0.7326 -0.3299
0.4336 0.7066 -0.3163
0.4464 0.6985 -0.3288
0.4902 0.6705 -0.3311
0.5136 0.6554 -0.3281
0.5365 0.6407 -0.3240
0.5755 0.6157 -0.3198
0.5937 0.6040 -0.3172
0.6030 0.5981 -0.3266
0.6359 0.5770 -0.3206
0.6477 0.5694 -0.3233
0.6581 0.5628 -0.3277
0.6744 0.5523 -0.3206
0.6814 0.5479 -0.3296
0.6959 0.5385 -0.3233
0.7084 0.5305 -0.3198
0.7166 0.5252 -0.3242
0.7259 0.5193 -0.3257
0.7344 0.5139 -0.3281
0.7459 0.5064 -0.3225
0.7531 0.5019 -0.3267
0.7611 0.4968 -0.3279
0.7675 0.4927 -0.3329
-1.2021 1.5743 0.6457
-1.2189 1.5816 0.6060
-1.1992 1.5698 0.5595
-1.2269 1.5827 0.5190
-1.2762 1.6051 0.4319
-1.2791 1.6015 0.2849
-1.2979 1.6094 0.2340
-1.3037 1.6106 0.1816
-1.2409 1.5765 0.1308
-1.2735 1.5914 0.0756
-1.2652 1.5852 0.0215
-1.2566 1.5789 -0.0333
-1.2478 1.5724 -0.0887
-0.5676 1.2149 -0.2931
-0.4874 1.1729 -0.3108
-0.3952 1.1251 -0.3200
-0.0770 0.9606 -0.3345
0.1816 0.8280 -0.3165
0.2521 0.7913 -0.3271
0.3242 0.7541 -0.3284
0.3741 0.7289 -0.3140
0.4001 0.7154 -0.3174
0.4257 0.7021 -0.3198
0.4500 0.6895 -0.3218
0.5012 0.6632 -0.3184
0.5211 0.6529 -0.3206
0.5414 0.6424 -0.3209
0.5576 0.6339 -0.3249
0.5801 0.6225 -0.3199
0.5971 0.6137 -0.3204
0.6159 0.6041 -0.3173
0.6302 0.5967 -0.3193
0.6449 0.5892 -0.3196
0.6579 0.5824 -0.3214
0.6727 0.5748 -0.3194
0.6834 0.5692 -0.3233
0.6996 0.5611 -0.3167
0.7216 0.5497 -0.3185
0.7320 0.5443 -0.3193
0.7440 0.5382 -0.3160
0.7522 0.5338 -0.3196
0.7632 0.5283 -0.3164
0.7711 0.5241 -0.3193
0.7789 0.5200 -0.3219
0.7866 0.5160 -0.3241
-1.2795 1.5663 0.7578
-1.2230 1.5362 0.7034
-1.2664 1.5500 0.5365
-1.3117 1.5703 0.4957
-1.4024 1.6130 0.4564
-1.3024 1.5591 0.3491
-1.3080 1.5596 0.2989
-1.3277 1.5669 0.2477
-1.3199 1.5608 0.1950
-1.3262 1.5614 0.1410
-1.2753 1.5341 0.0893
-1.2530 1.5208 0.0364
-1.2873 1.5349 -0.0226
-1.2496 1.5141 -0.0748
-1.1997 1.4874 -0.1243
-0.5153 1.1532 -0.0950
-0.4305 1.1107 -0.1159
-0.5038 1.1439 -0.1752
-0.4877 1.1343 -0.2132
-0.4580 1.1182 -0.2467
-0.4887 1.1309 -0.3008
-0.4454 1.1084 -0.3293
0.0441 0.8683 -0.3303
0.1431 0.8195 -0.3349
0.2530 0.7663 -0.3201
0.3168 0.7347 -0.3284
0.4243 0.6826 -0.3158
0.4494 0.6702 -0.3172
0.4860 0.6517 -0.3298
0.5130 0.6387 -0.3248
0.5334 0.6286 -0.3256
0.5789 0.6067 -0.3170
0.6154 0.5889 -0.3137
0.6283 0.5825 -0.3177
0.6396 0.5767 -0.3233
0.6582 0.5679 -0.3170
0.6670 0.5632 -0.3247
0.6842 0.5550 -0.3179
0.6946 0.5498 -0.3214
0.7081 0.5433 -0.3188
0.7187 0.5380 -0.3202
0.7322 0.5316 -0.3152
0.7394 0.5278 -0.3217
0.7600 0.5178 -0.3201
0.7691 0.5133 -0.3205
0.7786 0.5087 -0.3192
0.7868 0.5047 -0.3201
-1.2369 1.4924 0.7179
-1.2296 1.4866 0.6742
-1.2342 1.4864 0.6323
-1.2681 1.4975 0.5490
-1.3005 1.5103 0.5070
-1.3256 1.5167 0.4132
-1.3315 1.5167 0.3638
-1.3098 1.5037 0.3123
-1.3586 1.5236 0.2617
-1.2852 1.4836 0.1562
-1.2630 1.4703 0.1037
-1.3271 1.4969 0.0444
-1.3041 1.4831 -0.0101
-1.1447 1.4069 -0.0472
-0.4776 1.0949 -0.0773
-0.4815 1.0945 -0.1182
-0.4719 1.0879 -0.1568
-0.4821 1.0901 -0.2014
-0.4730 1.0837 -0.2413
-0.4959 1.0914 -0.2928
-0.4602 1.0731 -0.3245
-0.2575 0.9786 -0.3268
-0.1066 0.9081 -0.3330
-0.0346 0.8747 -0.3319
0.0856 0.8188 -0.3315
0.1493 0.7896 -0.3239
0.1944 0.7685 -0.3251
0.2343 0.7498 -0.3273
0.3061 0.7162 -0.3310
0.3505 0.6961 -0.3226
0.3834 0.6808 -0.3212
0.4092 0.6687 -0.3243
0.4385 0.6551 -0.3225
0.4602 0.6448 -0.3264
0.5328 0.6113 -0.3214
0.5755 0.5918 -0.3168
0.5890 0.5852 -0.3224
0.6058 0.5773 -0.3226
0.6223 0.5697 -0.3221
0.6378 0.5625 -0.3218
0.6530 0.5555 -0.3209
0.6679 0.5486 -0.3192
0.6838 0.5415 -0.3146
0.6916 0.5374 -0.3227
0.7038 0.5317 -0.3225
0.7152 0.5264 -0.3230
0.7300 0.5199 -0.3158
0.7384 0.5158 -0.3200
0.7497 0.5107 -0.3176
0.7602 0.5059 -0.3160
0.7693 0.5016 -0.3164
0.7760 0.4982 -0.3218
0.7837 0.4945 -0.3242
-1.2651 1.4460 0.6057
-1.2859 1.4430 0.4229
-1.3333 1.4608 0.3772
-1.3682 1.4729 0.3280
-1.3313 1.4532 0.2748
-1.3380 1.4526 0.2222
-1.3156 1.4392 0.1691
-1.3073 1.4320 0.1152
-1.3139 1.4312 0.0596
-1.3060 1.4240 0.0040
-1.1983 1.3737 -0.0403
-0.5662 1.0926 -0.0852
-0.4828 1.0544 -0.1087
-0.4994 1.0587 -0.1538
-0.4645 1.0412 -0.1863
-0.4488 1.0318 -0.2236
-0.4642 1.0354 -0.2715
-0.4481 1.0258 -0.3096
-0.2493 0.9380 -0.3139
-0.2155 0.9216 -0.3385
-0.1279 0.8832 -0.3352
0.1361 0.7677 -0.3253
0.1805 0.7480 -0.3277
0.2318 0.7258 -0.3226
0.2685 0.7095 -0.3252
0.3070 0.6926 -0.3242
0.3448 0.6762 -0.3215
0.3746 0.6630 -0.3233
0.3981 0.6522 -0.3290
0.4308 0.6382 -0.3246
0.4628 0.6245 -0.3187
0.4810 0.6161 -0.3250
0.5042 0.6058 -0.3247
0.5338 0.5934 -0.3156
0.5531 0.5849 -0.3165
0.5884 0.5692 -0.3186
0.6218 0.5545 -0.3185
0.6366 0.5480 -0.3193
0.6518 0.5413 -0.3185
0.6634 0.5360 -0.3222
0.6807 0.5288 -0.3157
0.6893 0.5246 -0.3228
0.7009 0.5194 -0.3239
0.7259 0.5086 -0.3199
0.7368 0.5039 -0.3195
0.7487 0.4989 -0.3160
0.7689 0.4901 -0.3137
0.7751 0.4870 -0.3204
0.7839 0.4831 -0.3202
-1.3569 1.4180 0.4421
-1.3775 1.4227 0.3934
-1.3417 1.4038 0.3403
-1.3915 1.4206 0.2899
-1.3110 1.3830 0.2359
-1.3174 1.3816 0.1828
-1.2808 1.3624 0.1302
-1.2726 1.3548 0.0765
-1.2929 1.3589 0.0194
-1.2849 1.3512 -0.0365
-1.1266 1.2828 -0.0720
-0.8402 1.1635 -0.0792
-0.5034 1.0220 -0.1034
-0.4936 1.0150 -0.1423
-0.4718 1.0031 -0.1783
-0.4596 0.9918 -0.2597
-0.4494 0.9845 -0.2997
-0.2316 0.8913 -0.3368
-0.0649 0.8226 -0.3316
0.1675 0.7264 -0.3295
0.2601 0.6884 -0.3251
0.2954 0.6736 -0.3272
0.3400 0.6557 -0.3196
0.3706 0.6429 -0.3211
0.4031 0.6296 -0.3190
0.4496 0.6097 -0.3266
0.4796 0.5976 -0.3213
0.5067 0.5867 -0.3170
0.5235 0.5794 -0.3226
0.5400 0.5722 -0.3274
0.5664 0.5618 -0.3190
0.5822 0.5550 -0.3222
0.6027 0.5469 -0.3180
0.6192 0.5400 -0.3178
0.6507 0.5271 -0.3161
0.6617 0.5222 -0.3209
0.6757 0.5164 -0.3200
0.6901 0.5107 -0.3174
0.7030 0.5054 -0.3163
0.7150 0.5005 -0.3157
0.7224 0.4968 -0.3228
0.7358 0.4917 -0.3177
0.7448 0.4877 -0.3205
0.7559 0.4833 -0.3179
0.7668 0.4791 -0.3148
0.7736 0.4758 -0.3203
0.7813 0.4724 -0.3228
-1.4165 1.3851 0.4610
-1.3793 1.3658 0.4070
-1.3866 1.3642 0.3561
-1.3788 1.3565 0.3034
-1.3562 1.3431 0.2499
-1.3932 1.3527 0.1955
-1.3110 1.3161 0.1429
-1.3469 1.3250 0.0858
-1.2948 1.3002 0.0334
-1.2571 1.2809 -0.0191
-1.2071 1.2570 -0.0693
-1.0454 1.1914 -0.1002
-0.5047 0.9815 -0.0937
-0.5020 0.9768 -0.1343
-0.4805 0.9578 -0.2562
-0.4575 0.9456 -0.2923
-0.3860 0.9163 -0.3092
-0.2523 0.8619 -0.3369
0.0571 0.7424 -0.3263
0.1502 0.7054 -0.3340
0.2534 0.6662 -0.3237
0.2805 0.6549 -0.3326
0.3944 0.6115 -0.3213
0.4443 0.5916 -0.3266
0.4909 0.5733 -0.3292
0.5169 0.5635 -0.3251
0.5394 0.5549 -0.3233
0.5788 0.5397 -0.3220
0.6131 0.5263 -0.3219
0.6462 0.5137 -0.3187
0.6605 0.5081 -0.3186
0.6733 0.5031 -0.3199
0.6852 0.4983 -0.3218
0.7000 0.4928 -0.3176
0.7202 0.4845 -0.3233
0.7342 0.4796 -0.3172
0.7420 0.4761 -0.3225
0.7555 0.4715 -0.3151
0.7636 0.4680 -0.3184
0.7726 0.4645 -0.3188
0.7821 0.4609 -0.3175
-1.3682 1.3139 0.5186
-1.3327 1.2958 0.4659
-1.3673 1.3038 0.4195
-1.3453 1.2907 0.3673
-1.3660 1.2932 0.3166
-1.3012 1.2643 0.2628
-1.3211 1.2664 0.2103
-1.3129 1.2581 0.1567
-1.3488 1.2656 0.1000
-1.3256 1.2518 0.0452
-1.2589 1.2225 -0.0052
-1.2793 1.2241 -0.0646
-0.4962 0.9335 -0.1229
-0.4873 0.9264 -0.1623
-0.4645 0.9145 -0.1981
-0.4886 0.9184 -0.2484
-0.4656 0.9064 -0.2847
-0.4560 0.8989 -0.3257
-0.1016 0.7691 -0.3338
0.1563 0.6764 -0.3231
0.2348 0.6471 -0.3308
0.2780 0.6316 -0.3282
0.3546 0.6042 -0.3233
0.3864 0.5927 -0.3227
0.4421 0.5724 -0.3234
0.4949 0.5535 -0.3199
0.5156 0.5458 -0.3217
0.5337 0.5389 -0.3252
0.5573 0.5307 -0.3209
0.5754 0.5241 -0.3218
0.6084 0.5118 -0.3240
0.6290 0.5050 -0.3176
0.6450 0.4993 -0.3163
0.6683 0.4900 -0.3241
0.6854 0.4845 -0.3175
0.6964 0.4802 -0.3200
0.7104 0.4755 -0.3164
0.7198 0.4717 -0.3203
0.7326 0.4674 -0.3166
0.7410 0.4639 -0.3208
0.7511 0.4602 -0.3210
0.7621 0.4565 -0.3182
0.7723 0.4530 -0.3161
0.7795 0.4500 -0.3201
-1.3700 1.2584 0.5319
-1.4352 1.2758 0.4899
-1.3978 1.2572 0.4354
-1.3471 1.2341 0.3808
-1.3679 1.2356 0.3304
-1.3309 1.2173 0.2769
-1.3517 1.2185 0.2240
-1.4044 1.2303 0.1683
-1.3063 1.1914 0.1163
-1.2986 1.1828 0.0614
-1.3192 1.1834 0.0030
-1.2812 1.1647 -0.0504
-0.5248 0.9013 -0.1193
-0.5016 0.8895 -0.1558
-0.4796 0.8780 -0.1923
-0.4908 0.8670 -0.3281
-0.2696 0.7924 -0.3258
-0.2015 0.7683 -0.3353
-0.0311 0.7118 -0.3253
0.0311 0.6907 -0.3260
0.1891 0.6373 -0.3257
0.2298 0.6233 -0.3279
0.2773 0.6078 -0.3225
0.3114 0.5960 -0.3248
0.3522 0.5828 -0.3194
0.3729 0.5748 -0.3290
0.4099 0.5629 -0.3225
0.4708 0.5432 -0.3150
0.4912 0.5359 -0.3187
0.5074 0.5296 -0.3258
0.5316 0.5218 -0.3228
0.5509 0.5151 -0.3239
0.5741 0.5078 -0.3188
0.5919 0.5018 -0.3190
0.6086 0.4961 -0.3194
0.6271 0.4902 -0.3160
0.6398 0.4855 -0.3199
0.6543 0.4806 -0.3201
0.6658 0.4762 -0.3239
0.6837 0.4710 -0.3164
0.7081 0.4627 -0.3167
0.7188 0.4589 -0.3184
0.7298 0.4552 -0.3184
0.7401 0.4517 -0.3191
0.7507 0.4482 -0.3181
0.7691 0.4418 -0.3198
-1.3269 1.1644 0.3420
-1.4075 1.1836 0.2926
-1.3690 1.1650 0.2380
-1.3308 1.1466 0.1841
-1.3829 1.1561 0.1271
-1.3294 1.1329 0.0735
-1.3360 1.1280 0.0160
-1.3283 1.1188 -0.0414
-1.2172 1.0788 -0.0851
-1.1677 1.0574 -0.1344
-0.4797 0.8465 -0.0992
-0.4710 0.8391 -0.1381
-0.4938 0.8405 -0.1860
-0.4913 0.8346 -0.2285
-0.3923 0.7921 -0.3246
-0.2313 0.7400 -0.3399
-0.0637 0.6882 -0.3344
0.0806 0.6444 -0.3234
0.1771 0.6139 -0.3270
0.2205 0.6002 -0.3279
0.2589 0.5879 -0.3300
0.3442 0.5625 -0.3203
0.3778 0.5521 -0.3190
0.4045 0.5434 -0.3220
0.4338 0.5344 -0.3208
0.4563 0.5269 -0.3244
0.5016 0.5124 -0.3272
0.5540 0.4974 -0.3155
0.5707 0.4918 -0.3185
0.5885 0.4862 -0.3189
0.6239 0.4755 -0.3163
0.6531 0.4662 -0.3177
0.6654 0.4620 -0.3205
0.6800 0.4577 -0.3185
0.6924 0.4537 -0.3192
0.7052 0.4499 -0.3181
0.7153 0.4464 -0.3211
0.7282 0.4427 -0.3177
0.7379 0.4394 -0.3197
0.7491 0.4362 -0.3177
0.7590 0.4331 -0.3176
0.7693 0.4301 -0.3157
-1.2205 1.0760 0.3496
-1.3346 1.1028 0.3042
-1.4163 1.1194 0.2524
-1.3042 1.0802 0.1984
-1.2959 1.0708 0.1447
-1.2873 1.0612 0.0903
-1.3230 1.0637 0.0316
-1.2566 1.0381 -0.0189
-1.2483 1.0283 -0.0751
-1.1561 0.9962 -0.1185
-0.4880 0.8081 -0.0911
-0.4783 0.8003 -0.1299
-0.4238 0.7589 -0.3267
-0.2427 0.7057 -0.3357
-0.0729 0.6576 -0.3309
0.1641 0.5899 -0.3286
0.2640 0.5625 -0.3198
0.3385 0.5412 -0.3190
0.3950 0.5242 -0.3249
0.4205 0.5165 -0.3279
0.4518 0.5081 -0.3236
0.4747 0.5012 -0.3258
0.4980 0.4945 -0.3261
0.5245 0.4875 -0.3212
0.5476 0.4813 -0.3184
0.5830 0.4707 -0.3215
0.6013 0.4656 -0.3204
0.6199 0.4606 -0.3176
0.6507 0.4519 -0.3173
0.6649 0.4478 -0.3171
0.6782 0.4439 -0.3174
0.6888 0.4404 -0.3214
0.7010 0.4368 -0.3217
0.7155 0.4333 -0.3168
0.7254 0.4302 -0.3194
0.7458 0.4241 -0.3209
0.7569 0.4212 -0.3185
0.7655 0.4185 -0.3206
-1.2222 1.0220 0.3625
-1.3364 1.0455 0.3179
-1.4027 1.0555 0.2664
-1.3346 1.0300 0.2119
-1.3716 1.0318 0.1563
-1.3192 1.0105 0.1026
-1.2813 0.9930 0.0493
-1.3470 1.0012 -0.0140
-1.2502 0.9693 -0.0610
-1.1714 0.9422 -0.1069
-0.5358 0.7785 -0.0911
-0.5126 0.7672 -0.1279
-0.4318 0.7190 -0.3193
-0.2383 0.6677 -0.3245
0.0426 0.5935 -0.3307
0.1607 0.5636 -0.3239
0.2430 0.5415 -0.3288
0.2843 0.5309 -0.3275
0.3362 0.5191 -0.3150
0.3936 0.5033 -0.3206
0.4175 0.4964 -0.3253
0.4488 0.4888 -0.3213
0.4710 0.4826 -0.3244
0.4951 0.4763 -0.3242
0.5412 0.4647 -0.3212
0.5595 0.4597 -0.3230
0.5797 0.4546 -0.3213
0.5945 0.4502 -0.3251
0.6153 0.4456 -0.3197
0.6322 0.4414 -0.3182
0.6462 0.4375 -0.3199
0.6746 0.4301 -0.3194
0.6871 0.4267 -0.3203
0.7120 0.4204 -0.3194
0.7231 0.4174 -0.3199
0.7353 0.4146 -0.3174
0.7443 0.4118 -0.3204
0.7565 0.4093 -0.3156
0.7646 0.4067 -0.3191
-1.3528 0.9918 0.3322
-1.3447 0.9818 0.2793
-1.4121 0.9895 0.2257
-1.4528 0.9903 0.1686
-1.3652 0.9615 0.1146
-1.3120 0.9408 0.0612
-1.2603 0.9207 0.0091
-1.3565 0.9328 -0.0596
-0.5443 0.7383 -0.0826
-0.5350 0.7299 -0.1228
-0.5245 0.7213 -0.1631
-0.5512 0.7198 -0.2144
-0.5556 0.7137 -0.2611
-0.6402 0.7220 -0.3366
-0.4929 0.6881 -0.3317
-0.3560 0.6573 -0.3231
-0.2756 0.6371 -0.3315
-0.2013 0.6185 -0.3384
-0.0327 0.5802 -0.3296
0.0328 0.5650 -0.3286
0.0803 0.5529 -0.3347
0.1916 0.5278 -0.3278
0.2363 0.5174 -0.3271
0.2660 0.5092 -0.3350
0.3474 0.4912 -0.3276
0.3881 0.4828 -0.3199
0.4168 0.4759 -0.3204
0.4466 0.4693 -0.3181
0.4681 0.4636 -0.3222
0.4885 0.4582 -0.3262
0.5107 0.4529 -0.3269
0.5362 0.4476 -0.3222
0.5582 0.4428 -0.3199
0.5777 0.4383 -0.3192
0.5933 0.4342 -0.3222
0.6148 0.4301 -0.3160
0.6277 0.4264 -0.3205
0.6600 0.4193 -0.3165
0.6722 0.4161 -0.3192
0.6860 0.4130 -0.3181
0.6964 0.4100 -0.3220
0.7115 0.4073 -0.3163
0.7227 0.4046 -0.3168
0.7325 0.4019 -0.3191
0.7433 0.3994 -0.3187
0.7521 0.3969 -0.3214
0.7614 0.3946 -0.3225
0.7716 0.3925 -0.3207
-1.2975 0.9218 0.3431
-1.3466 0.9239 0.2932
-1.3240 0.9104 0.2397
-1.3602 0.9090 0.1851
-1.3833 0.9045 0.1283
-1.3288 0.8843 0.0744
-1.3055 0.8704 0.0192
-1.3125 0.8622 -0.0395
-0.8742 0.7629 -0.0861
-0.5314 0.6939 -0.0698
-0.7290 0.6886 -0.3547
-0.1933 0.5813 -0.3256
-0.0552 0.5511 -0.3334
0.0820 0.5236 -0.3262
0.1839 0.5023 -0.3261
0.2728 0.4842 -0.3236
0.3076 0.4765 -0.3257
0.3386 0.4695 -0.3290
0.4067 0.4560 -0.3242
0.4405 0.4499 -0.3186
0.4629 0.4446 -0.3223
0.4826 0.4397 -0.3273
0.5094 0.4347 -0.3234
0.5327 0.4301 -0.3215
0.5519 0.4259 -0.3228
0.5715 0.4219 -0.3224
0.5921 0.4181 -0.3193
0.6074 0.4145 -0.3218
0.6251 0.4111 -0.3198
0.6419 0.4079 -0.3179
0.6543 0.4047 -0.3213
0.6810 0.3990 -0.3224
0.6959 0.3964 -0.3187
0.7086 0.3940 -0.3177
0.7327 0.3894 -0.3150
0.7441 0.3873 -0.3133
0.7512 0.3847 -0.3198
0.7616 0.3828 -0.3184
0.7712 0.3808 -0.3179
-1.3139 0.8684 0.3573
-1.4239 0.8802 0.3095
-1.3852 0.8634 0.2541
-1.3925 0.8551 0.1989
-1.3540 0.8384 0.1439
-1.3307 0.8245 0.0887
-1.3222 0.8131 0.0322
-1.2266 0.7872 -0.0155
-0.5704 0.6654 -0.0251
-0.5469 0.6546 -0.0626
-0.7681 0.6439 -0.3552
-0.6163 0.6163 -0.3544
-0.4393 0.5871 -0.3356
-0.2275 0.5490 -0.3321
-0.0562 0.5187 -0.3257
0.0697 0.4956 -0.3260
0.1763 0.4764 -0.3244
0.2628 0.4605 -0.3246
0.2945 0.4538 -0.3298
0.3363 0.4470 -0.3250
0.3739 0.4408 -0.3209
0.4060 0.4352 -0.3192
0.4530 0.4253 -0.3269
0.4812 0.4207 -0.3236
0.5051 0.4164 -0.3231
0.5484 0.4087 -0.3222
0.5673 0.4051 -0.3229
0.5831 0.4016 -0.3265
0.6048 0.3986 -0.3209
0.6246 0.3958 -0.3161
0.6518 0.3900 -0.3209
0.6686 0.3876 -0.3167
0.6793 0.3849 -0.3212
0.6936 0.3827 -0.3188
0.7045 0.3803 -0.3213
0.7176 0.3783 -0.3187
0.7287 0.3762 -0.3190
0.7413 0.3746 -0.3152
0.7525 0.3729 -0.3132
0.7595 0.3705 -0.3194
0.7692 0.3688 -0.3190
-1.3437 0.8165 0.3725
-1.3647 0.8103 0.3214
-1.3728 0.8017 0.2681
-1.3498 0.7879 0.2135
-1.3559 0.7786 0.1581
-1.2888 0.7582 0.1053
-0.5457 0.6275 0.0292
-0.5646 0.6224 -0.0140
-1.1462 0.6533 -0.3388
-0.6178 0.5696 -0.3433
-0.4463 0.5456 -0.3278
0.0627 0.4667 -0.3226
0.1166 0.4580 -0.3235
0.1609 0.4503 -0.3276
0.2595 0.4361 -0.3207
0.2864 0.4302 -0.3299
0.4268 0.4099 -0.3209
0.4555 0.4057 -0.3191
0.4783 0.4017 -0.3215
0.4962 0.3977 -0.3277
0.5264 0.3946 -0.3189
0.5464 0.3913 -0.3198
0.5675 0.3883 -0.3180
0.5825 0.3851 -0.3226
0.6022 0.3825 -0.3199
0.6187 0.3799 -0.3202
0.6342 0.3774 -0.3207
0.6669 0.3732 -0.3154
0.6776 0.3707 -0.3200
0.6925 0.3690 -0.3166
0.7041 0.3669 -0.3181
0.7172 0.3653 -0.3156
0.7277 0.3634 -0.3171
0.7374 0.3614 -0.3194
0.7481 0.3598 -0.3188
0.7597 0.3587 -0.3153
-1.3175 0.7552 0.3843
-1.3088 0.7439 0.3327
-1.4044 0.7466 0.2828
-1.3517 0.7289 0.2276
-0.5714 0.6048 0.1150
-0.5912 0.5992 0.0740
-1.1766 0.5958 -0.3318
-1.0849 0.5766 -0.3683
-0.6869 0.5272 -0.3554
-0.3996 0.4919 -0.3438
-0.0244 0.4459 -0.3286
0.0371 0.4377 -0.3297
0.0905 0.4302 -0.3322
0.1917 0.4171 -0.3316
0.2487 0.4115 -0.3221
0.2823 0.4062 -0.3267
0.3218 0.4015 -0.3247
0.4167 0.3890 -0.3249
0.4956 0.3790 -0.3232
0.5184 0.3761 -0.3230
0.5408 0.3734 -0.3217
0.5598 0.3707 -0.3229
0.5792 0.3683 -0.3223
0.6003 0.3664 -0.3180
0.6344 0.3623 -0.3161
0.6456 0.3597 -0.3220
0.6618 0.3581 -0.3192
0.6746 0.3561 -0.3209
0.6896 0.3548 -0.3177
0.7137 0.3515 -0.3182
0.7358 0.3485 -0.3188
0.7454 0.3469 -0.3207
0.7559 0.3457 -0.3198
-1.1905 0.6733 0.3402
-0.5931 0.5896 0.2374
-0.5915 0.5817 0.2002
-0.5939 0.5659 0.1234
-1.3423 0.6094 -0.0429
-1.0868 0.5179 -0.3543
-0.7247 0.4798 -0.3560
-0.4205 0.4511 -0.3417
-0.1885 0.4300 -0.3266
-0.0396 0.4141 -0.3286
0.0870 0.4013 -0.3268
0.1976 0.3910 -0.3207
0.2815 0.3822 -0.3210
0.3445 0.3741 -0.3283
0.4114 0.3680 -0.3243
0.4372 0.3648 -0.3263
0.4626 0.3620 -0.3271
0.4943 0.3603 -0.3196
0.5208 0.3584 -0.3154
0.5402 0.3559 -0.3175
0.5607 0.3539 -0.3170
0.5787 0.3518 -0.3183
0.5921 0.3491 -0.3244
0.6285 0.3462 -0.3203
0.6444 0.3447 -0.3194
0.6588 0.3431 -0.3198
0.6728 0.3417 -0.3196
0.6841 0.3398 -0.3230
0.7121 0.3381 -0.3173
0.7233 0.3368 -0.3179
0.7336 0.3354 -0.3193
0.7444 0.3343 -0.3190
0.7543 0.3332 -0.3194
-0.5232 0.5663 0.3486
-0.4965 0.5565 0.3136
-0.5626 0.5548 0.2823
-0.6806 0.5565 0.2480
-0.5632 0.5309 0.1730
-1.3131 0.5459 -0.0248
-0.9433 0.4441 -0.3577
-0.7263 0.4302 -0.3442
-0.4414 0.4091 -0.3394
-0.2379 0.3931 -0.3401
-0.0478 0.3817 -0.3247
0.0687 0.3714 -0.3302
0.1849 0.3640 -0.3224
0.2709 0.3573 -0.3227
0.3438 0.3516 -0.3229
0.3708 0.3484 -0.3278
0.4021 0.3461 -0.3272
0.4351 0.3444 -0.3229
0.4635 0.3427 -0.3209
0.5113 0.3390 -0.3209
0.5544 0.3358 -0.3199
0.5951 0.3335 -0.3159
0.6286 0.3310 -0.3156
0.6439 0.3297 -0.3158
0.6550 0.3277 -0.3215
0.6691 0.3266 -0.3214
0.6849 0.3262 -0.3176
0.6972 0.3250 -0.3184
0.7080 0.3237 -0.3208
0.7210 0.3232 -0.3183
0.7326 0.3225 -0.3174
0.7422 0.3213 -0.3196
0.7517 0.3201 -0.3214
-0.5739 0.5326 0.3617
-0.5790 0.5250 0.3275
-1.0188 0.4999 0.1206
-1.0920 0.4908 0.0652
-1.2849 0.4841 -0.0071
-1.2193 0.4691 -0.0573
-1.2237 0.4558 -0.1160
-1.2004 0.4419 -0.1712
-0.9682 0.3885 -0.3513
-0.7565 0.3799 -0.3416
-0.4558 0.3661 -0.3343
-0.3690 0.3593 -0.3447
0.0495 0.3403 -0.3339
0.1680 0.3359 -0.3267
0.2195 0.3341 -0.3230
0.2585 0.3315 -0.3254
0.2894 0.3285 -0.3317
0.3334 0.3277 -0.3255
0.3733 0.3269 -0.3198
0.3944 0.3238 -0.3286
0.4205 0.3219 -0.3314
0.4576 0.3222 -0.3216
0.5122 0.3209 -0.3149
0.5311 0.3192 -0.3184
0.5474 0.3171 -0.3236
0.5677 0.3163 -0.3228
0.5917 0.3167 -0.3157
0.6091 0.3158 -0.3157
0.6221 0.3140 -0.3207
0.6381 0.3133 -0.3202
0.6506 0.3117 -0.3240
0.6693 0.3124 -0.3170
0.6787 0.3103 -0.3238
0.6930 0.3101 -0.3216
0.7051 0.3094 -0.3221
0.7182 0.3093 -0.3197
0.7287 0.3083 -0.3214
0.7395 0.3078 -0.3214
0.7490 0.3069 -0.3233
-0.6899 0.5168 0.4529
-0.6105 0.5042 0.4085
-1.3733 0.4662 0.1736
-1.2753 0.4511 0.1211
-1.1705 0.4368 0.0728
-1.1609 0.4237 0.0194
-1.0883 0.4107 -0.0270
-1.0300 0.3982 -0.0729
-0.9966 0.3857 -0.1211
-0.8267 0.3518 -0.2439
-0.7485 0.3299 -0.3265
-0.6402 0.3235 -0.3421
-0.3953 0.3167 -0.3451
-0.1879 0.3131 -0.3387
-0.0337 0.3097 -0.3372
0.1041 0.3086 -0.3276
0.2919 0.3050 -0.3234
0.3623 0.3033 -0.3235
0.3937 0.3025 -0.3235
0.4214 0.3014 -0.3249
0.4797 0.3013 -0.3194
0.5042 0.3009 -0.3186
0.5239 0.2997 -0.3216
0.5454 0.2993 -0.3211
0.5671 0.2993 -0.3188
0.5884 0.2996 -0.3154
0.6045 0.2987 -0.3175
0.6222 0.2986 -0.3160
0.6350 0.2972 -0.3205
0.6501 0.2969 -0.3205
0.6663 0.2971 -0.3177
0.6795 0.2967 -0.3183
0.6913 0.2958 -0.3205
0.7028 0.2952 -0.3222
0.7154 0.2951 -0.3211
0.7294 0.2960 -0.3160
0.7379 0.2946 -0.3207
0.7492 0.2948 -0.3191
0.7574 0.2936 -0.3231
-1.0829 0.3819 0.0921
-0.9274 0.3726 0.0541
-0.8664 0.3621 0.0121
-0.8777 0.3494 -0.0381
-0.8580 0.3377 -0.0847
-0.7511 0.3056 -0.2124
-0.6672 0.2736 -0.3394
-0.4095 0.2739 -0.3404
-0.2026 0.2753 -0.3364
-0.1303 0.2743 -0.3412
-0.0532 0.2749 -0.3394
0.0799 0.2763 -0.3348
0.2019 0.2799 -0.3216
0.2780 0.2785 -0.3277
0.3536 0.2794 -0.3249
0.4215 0.2809 -0.3193
0.4448 0.2799 -0.3234
0.4723 0.2804 -0.3218
0.5160 0.2796 -0.3255
0.5609 0.2806 -0.3218
0.5809 0.2810 -0.3205
0.5998 0.2813 -0.3192
0.6305 0.2805 -0.3227
0.6470 0.2810 -0.3209
0.6600 0.2804 -0.3235
0.6765 0.2815 -0.3192
0.6902 0.2817 -0.3183
0.7030 0.2819 -0.3179
0.7143 0.2816 -0.3191
0.7278 0.2826 -0.3152
0.7393 0.2829 -0.3142
0.7471 0.2815 -0.3198
0.7564 0.2811 -0.3214
-0.8289 0.3270 0.0746
-0.7916 0.3169 0.0322
-0.7823 0.3052 -0.0130
-0.7636 0.2941 -0.0572
-0.7820 0.2800 -0.1083
-0.7718 0.2679 -0.1553
-0.7713 0.2547 -0.2052
-0.6773 0.2243 -0.3307
-0.5835 0.2223 -0.3484
-0.4497 0.2269 -0.3457
-0.0508 0.2426 -0.3297
0.0669 0.2446 -0.3350
0.1271 0.2472 -0.3317
0.1902 0.2514 -0.3227
0.2287 0.2514 -0.3272
0.2699 0.2525 -0.3274
0.3449 0.2550 -0.3262
0.3844 0.2577 -0.3202
0.4146 0.2586 -0.3201
0.4396 0.2585 -0.3230
0.4603 0.2576 -0.3287
0.5125 0.2603 -0.3244
0.5327 0.2604 -0.3263
0.5589 0.2629 -0.3194
0.5951 0.2636 -0.3209
0.6280 0.2643 -0.3219
0.6439 0.2649 -0.3213
0.6576 0.2648 -0.3230
0.6735 0.2661 -0.3200
0.6885 0.2673 -0.3171
0.7001 0.2671 -0.3190
0.7109 0.2668 -0.3215
0.7250 0.2684 -0.3167
0.7336 0.2674 -0.3217
0.7467 0.2690 -0.3168
0.7543 0.2678 -0.3222
-1.5995 0.2718 0.2159
-1.5375 0.2587 0.1558
-1.0389 0.2768 0.1205
-0.8023 0.2811 0.0883
-0.7663 0.2715 0.0463
-0.7654 0.2590 0.0008
-0.7652 0.2462 -0.0457
-0.7735 0.2322 -0.0948
-0.7734 0.2188 -0.1436
-0.7729 0.2051 -0.1933
-0.7632 0.1923 -0.2417
-0.6969 0.1731 -0.3249
-0.4650 0.1816 -0.3409
-0.3529 0.1878 -0.3411
-0.1460 0.2021 -0.3311
-0.0033 0.2097 -0.3323
0.1228 0.2182 -0.3271
0.1725 0.2208 -0.3276
0.2279 0.2257 -0.3211
0.3394 0.2309 -0.3248
0.3774 0.2342 -0.3205
0.4054 0.2351 -0.3229
0.4320 0.2360 -0.3248
0.4604 0.2381 -0.3232
0.4838 0.2389 -0.3250
0.5067 0.2400 -0.3257
0.5357 0.2438 -0.3178
0.5534 0.2438 -0.3213
0.5742 0.2454 -0.3197
0.5898 0.2452 -0.3234
0.6098 0.2473 -0.3199
0.6248 0.2475 -0.3221
0.6395 0.2479 -0.3237
0.6558 0.2494 -0.3215
0.6718 0.2511 -0.3186
0.6862 0.2524 -0.3170
0.6991 0.2531 -0.3169
0.7092 0.2527 -0.3206
0.7205 0.2530 -0.3216
0.7309 0.2531 -0.3233
0.7440 0.2552 -0.3186
0.7522 0.2544 -0.3229
-1.6078 0.2225 0.2923
-1.5822 0.2072 0.2317
-1.6312 0.1853 0.1694
-1.0069 0.2270 0.1347
-0.8132 0.2327 0.0989
-0.7854 0.2227 0.0558
-0.7945 0.2084 0.0087
-0.7849 0.1961 -0.0370
-0.7751 0.1836 -0.0832
-0.7750 0.1697 -0.1319
-0.7843 0.1540 -0.1837
-0.7259 0.1192 -0.3220
-0.5865 0.1295 -0.3263
-0.3597 0.1461 -0.3337
-0.1730 0.1612 -0.3351
-0.0078 0.1773 -0.3266
0.1082 0.1862 -0.3288
0.1590 0.1903 -0.3294
0.2188 0.1977 -0.3207
0.2617 0.2013 -0.3205
0.2981 0.2037 -0.3227
0.3681 0.2095 -0.3228
0.3899 0.2088 -0.3313
0.4252 0.2133 -0.3258
0.4598 0.2183 -0.3185
0.4810 0.2188 -0.3227
0.5286 0.2233 -0.3210
0.5492 0.2248 -0.3214
0.5701 0.2270 -0.3200
0.6059 0.2297 -0.3207
0.6243 0.2319 -0.3184
0.6390 0.2327 -0.3200
0.6540 0.2339 -0.3200
0.6688 0.2353 -0.3193
0.6845 0.2377 -0.3158
0.6974 0.2387 -0.3158
0.7070 0.2381 -0.3207
0.7182 0.2387 -0.3219
0.7304 0.2402 -0.3202
0.7418 0.2414 -0.3191
0.7524 0.2424 -0.3187
-1.7124 0.1648 0.3727
-1.7263 0.1451 0.3115
-1.7599 0.1226 0.2486
-1.6728 0.1131 0.1848
-1.1278 0.1603 0.1424
-0.8524 0.1803 0.1078
-0.8241 0.1702 0.0638
-0.8053 0.1590 0.0192
-0.8057 0.1448 -0.0282
-0.7957 0.1320 -0.0748
-0.7676 0.1220 -0.1184
-0.7486 0.1107 -0.1635
-0.6902 0.0614 -0.3500
-0.3986 0.0967 -0.3391
-0.1930 0.1204 -0.3353
-0.0376 0.1377 -0.3346
0.0851 0.1509 -0.3354
0.1607 0.1635 -0.3212
0.2088 0.1689 -0.3208
0.2470 0.1719 -0.3247
0.2828 0.1748 -0.3282
0.3610 0.1850 -0.3229
0.4192 0.1905 -0.3259
0.4796 0.1992 -0.3189
0.5026 0.2014 -0.3200
0.5244 0.2036 -0.3208
0.5654 0.2080 -0.3212
0.5846 0.2102 -0.3209
0.6020 0.2119 -0.3215
0.6218 0.2153 -0.3175
0.6365 0.2163 -0.3193
0.6490 0.2165 -0.3235
0.6670 0.2201 -0.3179
0.6796 0.2209 -0.3198
0.6920 0.2219 -0.3211
0.7053 0.2238 -0.3197
0.7148 0.2234 -0.3243
0.7271 0.2252 -0.3229
0.7397 0.2276 -0.3197
-1.5800 0.0578 0.2022
-0.9250 0.1206 0.1153
-0.8257 0.1219 0.0753
-0.7976 0.1122 0.0317
-0.7789 0.1010 -0.0127
-0.9359 -0.0106 -0.3033
-0.6477 0.0226 -0.3235
-0.0422 0.1040 -0.3287
0.0867 0.1223 -0.3269
0.1471 0.1318 -0.3227
0.1896 0.1363 -0.3270
0.2182 0.1366 -0.3388
0.2836 0.1510 -0.3211
0.3492 0.1582 -0.3268
0.3823 0.1629 -0.3264
0.4131 0.1673 -0.3259
0.4715 0.1765 -0.3220
0.5195 0.1833 -0.3214
0.5366 0.1840 -0.3265
0.5620 0.1893 -0.3206
0.5819 0.1924 -0.3196
0.5987 0.1941 -0.3213
0.6172 0.1973 -0.3194
0.6320 0.1987 -0.3215
0.6491 0.2018 -0.3189
0.6595 0.2011 -0.3256
0.6897 0.2067 -0.3210
0.7031 0.2089 -0.3197
0.7162 0.2113 -0.3178
0.7279 0.2130 -0.3175
0.7381 0.2140 -0.3190
0.7476 0.2146 -0.3212
-1.5822 -0.0084 0.2180
-1.5743 -0.0269 0.1564
-0.8272 0.0735 0.0869
-0.7991 0.0641 0.0432
-0.7804 0.0529 -0.0012
-0.7019 -0.0396 -0.3292
-0.3368 0.0177 -0.3375
-0.0158 0.0687 -0.3429
0.1846 0.1079 -0.3234
0.2264 0.1139 -0.3261
0.2755 0.1237 -0.3208
0.3036 0.1257 -0.3289
0.3469 0.1348 -0.3227
0.3769 0.1389 -0.3253
0.4102 0.1451 -0.3230
0.4389 0.1499 -0.3227
0.4694 0.1562 -0.3188
0.4844 0.1553 -0.3291
0.5080 0.1592 -0.3291
0.5354 0.1656 -0.3231
0.5572 0.1697 -0.3216
0.5730 0.1708 -0.3262
0.5914 0.1737 -0.3265
0.6140 0.1798 -0.3194
0.6275 0.1806 -0.3235
0.6454 0.1846 -0.3202
0.6565 0.1846 -0.3261
0.6724 0.1881 -0.3233
0.7014 0.1944 -0.3186
0.7140 0.1966 -0.3179
0.7257 0.1986 -0.3178
0.7354 0.1993 -0.3206
0.7461 0.2011 -0.3206
-1.8034 -0.1164 0.2342
-1.6717 -0.1125 0.1702
-0.8775 0.0147 0.0950
-0.8192 0.0118 0.0529
-0.8002 0.0005 0.0080
-0.7913 -0.0132 -0.0383
-0.7912 -0.0293 -0.0867
-0.9394 -0.1210 -0.2769
-0.9408 -0.1405 -0.3345
-0.7223 -0.0949 -0.3234
-0.5985 -0.0744 -0.3333
-0.3799 -0.0365 -0.3452
-0.1778 0.0037 -0.3407
-0.0246 0.0335 -0.3395
0.1132 0.0633 -0.3295
0.2058 0.0796 -0.3337
0.2932 0.0973 -0.3307
0.3762 0.1168 -0.3200
0.4041 0.1212 -0.3228
0.4284 0.1244 -0.3273
0.4838 0.1360 -0.3245
0.5326 0.1464 -0.3213
0.5524 0.1497 -0.3226
0.5704 0.1525 -0.3248
0.5922 0.1580 -0.3207
0.6101 0.1616 -0.3202
0.6403 0.1663 -0.3235
0.6579 0.1710 -0.3195
0.6713 0.1731 -0.3209
0.6838 0.1749 -0.3227
0.6979 0.1783 -0.3207
0.7117 0.1818 -0.3181
0.7247 0.1850 -0.3158
0.7327 0.1845 -0.3221
-1.6878 -0.1411 0.3130
-1.7415 -0.1743 0.2508
-1.7353 -0.1954 0.1857
-1.3660 -0.1323 0.1341
-0.8895 -0.0375 0.1061
-0.8207 -0.0368 0.0645
-0.8211 -0.0531 0.0174
-0.8311 -0.0723 -0.0321
-0.8017 -0.0812 -0.0765
-0.8021 -0.0984 -0.1261
-0.0256 0.0010 -0.3317
0.1503 0.0395 -0.3318
0.2025 0.0519 -0.3291
0.2867 0.0703 -0.3293
0.3653 0.0895 -0.3235
0.4178 0.0982 -0.3317
0.4508 0.1072 -0.3266
0.4772 0.1132 -0.3260
0.5306 0.1274 -0.3186
0.5526 0.1326 -0.3176
0.5678 0.1339 -0.3233
0.5862 0.1377 -0.3240
0.6049 0.1422 -0.3228
0.6239 0.1474 -0.3198
0.6372 0.1490 -0.3237
0.6497 0.1503 -0.3280
0.6670 0.1556 -0.3236
0.6840 0.1611 -0.3183
0.6963 0.1634 -0.3196
0.7166 0.1652 -0.3273
0.7323 0.1715 -0.3190
0.7407 0.1716 -0.3240
-1.6942 0.1274 1.2772
-1.7569 -0.2025 0.3946
-1.7505 -0.2234 0.3316
-1.7437 -0.2445 0.2676
-1.7164 -0.2608 0.2028
-1.5548 -0.2424 0.1426
-0.8819 -0.1018 0.0711
-0.8328 -0.1051 0.0280
-0.8327 -0.1222 -0.0202
-0.9294 -0.2073 -0.1920
-0.9777 -0.2431 -0.2591
-0.9215 -0.2443 -0.3016
-0.6612 -0.1905 -0.3308
-0.0449 -0.0395 -0.3337
0.0800 -0.0090 -0.3347
0.1469 0.0103 -0.3267
0.1851 0.0171 -0.3340
0.2365 0.0313 -0.3297
0.3297 0.0583 -0.3185
0.3568 0.0628 -0.3248
0.3911 0.0719 -0.3230
0.4240 0.0810 -0.3202
0.4729 0.0913 -0.3252
0.5200 0.1027 -0.3257
0.5822 0.1185 -0.3244
0.5989 0.1220 -0.3263
0.6174 0.1272 -0.3246
0.6348 0.1320 -0.3229
0.6666 0.1409 -0.3201
0.6829 0.1464 -0.3159
0.6934 0.1473 -0.3205
0.7067 0.1511 -0.3193
0.7155 0.1512 -0.3252
0.7295 0.1563 -0.3205
0.7392 0.1577 -0.3232
-1.6656 -0.2932 0.2827
-1.7399 -0.3368 0.2195
-1.8194 -0.3837 0.1513
-0.8629 -0.1458 0.0847
-0.8344 -0.1545 0.0398
-0.8242 -0.1689 -0.0070
-1.0063 -0.3305 -0.3106
-0.8791 -0.3037 -0.3326
-0.6534 -0.2357 -0.3161
-0.5690 -0.2204 -0.3374
-0.3551 -0.1658 -0.3485
-0.0004 -0.0646 -0.3380
0.1276 -0.0272 -0.3317
0.2267 0.0007 -0.3299
0.3082 0.0232 -0.3294
0.4142 0.0544 -0.3237
0.4420 0.0619 -0.3243
0.4723 0.0716 -0.3205
0.4887 0.0728 -0.3293
0.5408 0.0899 -0.3217
0.5789 0.0996 -0.3239
0.5977 0.1050 -0.3232
0.6162 0.1106 -0.3217
0.6310 0.1138 -0.3240
0.6487 0.1199 -0.3207
0.6686 0.1284 -0.3125
0.6806 0.1305 -0.3156
0.6892 0.1300 -0.3236
0.7044 0.1357 -0.3193
0.7157 0.1382 -0.3208
0.7274 0.1414 -0.3208
0.7359 0.1419 -0.3260
-1.7421 -0.4075 0.2364
-1.7356 -0.4305 0.1707
-0.8954 -0.2056 0.0943
-0.8554 -0.2104 0.0497
-0.8460 -0.2255 0.0024
-0.9813 -0.3555 -0.2323
-0.9833 -0.3782 -0.2904
-0.9035 -0.3677 -0.3262
-0.3627 -0.2100 -0.3412
0.0020 -0.0949 -0.3284
0.1124 -0.0636 -0.3338
0.2127 -0.0329 -0.3329
0.3035 -0.0032 -0.3268
0.3673 0.0140 -0.3322
0.4399 0.0403 -0.3208
0.4881 0.0534 -0.3246
0.5395 0.0714 -0.3182
0.5735 0.0787 -0.3260
0.5945 0.0862 -0.3229
0.6143 0.0935 -0.3197
0.6292 0.0970 -0.3222
0.6463 0.1030 -0.3200
0.6605 0.1069 -0.3211
0.6776 0.1139 -0.3163
0.7003 0.1184 -0.3225
0.7135 0.1229 -0.3209
0.7252 0.1264 -0.3210
-1.7656 -0.4852 0.2534
-1.7589 -0.5088 0.1873
-0.9496 -0.2747 0.1030
-0.8182 -0.2462 0.0651
-0.8274 -0.2682 0.0167
-0.9715 -0.4069 -0.2163
-0.9975 -0.4404 -0.2799
-0.9393 -0.4379 -0.3226
-0.6644 -0.3567 -0.3469
-0.1739 -0.1893 -0.3330
-0.0206 -0.1386 -0.3325
0.1005 -0.0990 -0.3336
0.1502 -0.0835 -0.3358
0.2021 -0.0654 -0.3334
0.2457 -0.0512 -0.3339
0.4339 0.0160 -0.3210
0.4846 0.0319 -0.3231
0.5311 0.0473 -0.3230
0.5522 0.0543 -0.3229
0.5695 0.0587 -0.3262
0.5906 0.0667 -0.3234
0.6051 0.0698 -0.3278
0.6247 0.0777 -0.3241
0.6588 0.0908 -0.3195
0.6709 0.0933 -0.3231
0.7005 0.1051 -0.3181
0.7119 0.1081 -0.3199
0.7248 0.1132 -0.3179
0.7328 0.1133 -0.3244
-1.8105 -0.5714 0.2711
-1.8044 -0.5962 0.2041
-1.7541 -0.6051 0.1375
-1.1421 -0.3993 0.1044
-0.9637 -0.3514 0.0648
-0.9654 -0.3726 0.0137
-0.9931 -0.4267 -0.0959
-0.9950 -0.4498 -0.1513
-1.0091 -0.4787 -0.2107
-0.6928 -0.4193 -0.3442
-0.5791 -0.3833 -0.3559
0.0904 -0.1341 -0.3322
0.1493 -0.1117 -0.3291
0.2037 -0.0908 -0.3253
0.2319 -0.0854 -0.3371
0.2812 -0.0654 -0.3313
0.3129 -0.0561 -0.3363
0.3953 -0.0215 -0.3237
0.4272 -0.0093 -0.3217
0.4803 0.0095 -0.3223
0.5038 0.0176 -0.3230
0.5241 0.0237 -0.3259
0.5454 0.0312 -0.3263
0.5887 0.0487 -0.3212
0.6026 0.0515 -0.3267
0.6209 0.0587 -0.3250
0.6557 0.0733 -0.3199
0.6692 0.0774 -0.3216
0.6823 0.0816 -0.3228
0.6976 0.0886 -0.3190
0.7108 0.0939 -0.3178
0.7214 0.0966 -0.3203
0.7318 0.0995 -0.3224
-1.7915 -0.6357 0.2879
-1.8973 -0.7042 0.2213
-1.8451 -0.7126 0.1524
-1.1707 -0.4671 0.1166
-1.0839 -0.4536 0.0683
-1.0257 -0.4510 0.0205
-1.0284 -0.4744 -0.0333
-1.0552 -0.5091 -0.0921
-0.1305 -0.2525 -0.3338
0.0182 -0.1940 -0.3312
0.1160 -0.1611 -0.3430
0.1913 -0.1252 -0.3267
0.2375 -0.1072 -0.3262
0.3145 -0.0785 -0.3287
0.3527 -0.0629 -0.3266
0.3862 -0.0497 -0.3260
0.4967 -0.0069 -0.3255
0.5462 0.0144 -0.3203
0.5663 0.0221 -0.3205
0.5854 0.0294 -0.3207
0.6171 0.0395 -0.3258
0.6533 0.0562 -0.3193
0.6668 0.0606 -0.3212
0.6812 0.0665 -0.3204
0.6948 0.0719 -0.3199
0.7074 0.0768 -0.3199
0.7175 0.0791 -0.3238
0.7279 0.0822 -0.3261
-1.8533 -0.7603 0.2391
-1.8245 -0.7775 0.1707
-1.4629 -0.6506 0.1173
-0.9896 -0.4668 0.0884
-0.9921 -0.4898 0.0370
-1.0061 -0.5187 -0.0171
-1.0452 -0.5604 -0.0768
-1.0349 -0.5793 -0.1310
-1.0253 -0.5988 -0.1861
-1.0155 -0.6186 -0.2419
-0.9930 -0.6320 -0.2950
-0.5903 -0.4827 -0.3362
-0.3518 -0.3855 -0.3399
-0.1727 -0.3136 -0.3452
0.0035 -0.2346 -0.3312
0.1200 -0.1870 -0.3329
0.2197 -0.1454 -0.3321
0.3059 -0.1085 -0.3292
0.3747 -0.0804 -0.3302
0.4363 -0.0543 -0.3289
0.4925 -0.0293 -0.3248
0.5814 0.0091 -0.3211
0.5975 0.0145 -0.3242
0.6172 0.0240 -0.3211
0.6516 0.0397 -0.3176
0.6644 0.0437 -0.3206
0.6801 0.0514 -0.3179
0.6925 0.0557 -0.3197
0.7046 0.0602 -0.3210
0.7176 0.0663 -0.3194
0.7258 0.0667 -0.3263
-1.0261 -0.5365 0.0989
-1.0414 -0.5667 0.0456
-1.0319 -0.5855 -0.0068
-1.0222 -0.6044 -0.0598
-1.0122 -0.6235 -0.1133
-1.0271 -0.6561 -0.1725
-1.0298 -0.6829 -0.2309
-1.0195 -0.7032 -0.2876
-0.9846 -0.7099 -0.3379
-0.4033 -0.4582 -0.3506
-0.3078 -0.4180 -0.3554
-0.0154 -0.2790 -0.3334
0.1024 -0.2281 -0.3363
0.2091 -0.1793 -0.3326
0.2548 -0.1585 -0.3313
0.2925 -0.1427 -0.3333
0.4334 -0.0772 -0.3261
0.4622 -0.0638 -0.3246
0.4875 -0.0527 -0.3248
0.5324 -0.0336 -0.3265
0.5541 -0.0236 -0.3258
0.5775 -0.0114 -0.3213
0.6134 0.0043 -0.3218
0.6466 0.0195 -0.3208
0.6627 0.0273 -0.3191
0.6760 0.0325 -0.3206
0.7011 0.0426 -0.3230
0.7154 0.0505 -0.3195
-1.1671 -0.6600 0.1039
-1.1314 -0.6667 0.0515
-1.0828 -0.6666 0.0011
-1.0607 -0.6798 -0.0514
-1.0513 -0.7000 -0.1060
-1.0542 -0.7274 -0.1636
-1.0576 -0.7556 -0.2228
-1.0118 -0.7830 -0.3311
-0.1891 -0.3969 -0.3342
0.1040 -0.2560 -0.3277
0.1460 -0.2396 -0.3352
0.2972 -0.1630 -0.3231
0.3980 -0.1167 -0.3257
0.4593 -0.0861 -0.3220
0.4832 -0.0757 -0.3239
0.5081 -0.0637 -0.3232
0.5282 -0.0555 -0.3262
0.5563 -0.0387 -0.3181
0.5735 -0.0321 -0.3216
0.5937 -0.0218 -0.3198
0.6102 -0.0149 -0.3216
0.6290 -0.0048 -0.3189
0.6461 0.0041 -0.3171
0.6610 0.0109 -0.3175
0.6730 0.0149 -0.3212
0.6830 0.0167 -0.3275
0.6965 0.0233 -0.3271
0.7103 0.0307 -0.3250
-1.1200 -0.7173 0.0662
-1.0726 -0.7169 0.0159
-1.0625 -0.7367 -0.0378
-1.5017 -1.0784 -0.3022
-0.5682 -0.6312 -0.3431
-0.1299 -0.4095 -0.3370
0.0972 -0.2902 -0.3241
0.1451 -0.2682 -0.3283
0.2339 -0.2260 -0.3329
0.3255 -0.1762 -0.3242
0.3958 -0.1400 -0.3219
0.4498 -0.1149 -0.3259
0.4989 -0.0914 -0.3281
0.5291 -0.0727 -0.3201
0.5509 -0.0616 -0.3197
0.5709 -0.0517 -0.3200
0.5905 -0.0416 -0.3193
0.6064 -0.0350 -0.3222
0.6252 -0.0245 -0.3197
0.6411 -0.0167 -0.3201
0.6560 -0.0096 -0.3208
0.6868 0.0077 -0.3168
-1.8490 -2.2491 1.1190
-0.5056 -1.2053 0.6888
-0.2439 -0.9904 0.5784
2.6277 -5.5441 1.0642
0.7771 -3.1139 0.8065
0.7201 -3.0241 0.7962
-1.4694 -3.6813 1.0654
-1.2406 -3.0560 0.9468
-1.0849 -2.7356 0.8832
0.3631 -0.9981 0.4934
-0.5916 -1.2468 0.6046
-0.2859 -1.0101 0.5435
0.7875 -3.0985 0.7293
0.7006 -3.1360 0.7399
0.6090 -3.1769 0.7514
-1.1521 -3.4557 0.8999
1.5509 -2.1936 0.5082
1.3817 -2.0632 0.5010
0.8212 -3.3743 0.6857
0.7926 -3.1083 0.6553
0.7232 -3.0684 0.6539
0.6472 -3.0541 0.6560
0.5551 -3.0917 0.6651
0.3459 -2.5346 0.6087
-0.7031 -1.4970 0.5365
-0.3529 -1.0878 0.4702
2.4446 -5.1920 0.7221
0.4095 -2.3935 0.5235
0.5034 -1.8882 0.4705
0.4718 -1.8275 0.4658
0.3115 -1.8812 0.4770
0.2393 -1.7789 0.4696
0.1744 -1.7720 0.4713
0.6428 -0.6611 0.3452
1.4359 -1.9610 0.3997
0.8322 -1.6417 0.3902
0.6388 -1.5111 0.3850
0.5908 -1.5028 0.3855
0.5505 -1.4797 0.3847
0.5147 -1.4494 0.3833
0.4794 -1.4194 0.3819
0.3687 -1.4150 0.3843
0.3276 -1.3914 0.3835
0.2866 -1.3678 0.3827
0.2343 -1.3570 0.3831
0.1863 -1.3403 0.3830
0.3896 -1.0644 0.3572
0.4212 -0.9811 0.3501
-0.3618 -1.1339 0.3807
-0.5518 -1.1975 0.3902
2.4496 -5.0379 0.5086
2.1946 -4.9910 0.5090
1.4006 -2.0257 0.3596
1.3586 -2.0111 0.3593
0.8603 -4.5492 0.5007
0.8904 -3.6261 0.4510
0.8932 -3.1018 0.4229
0.8914 -2.7212 0.4026
0.9297 -1.8078 0.3533
0.8758 -1.8200 0.3546
0.8288 -1.8050 0.3543
0.7850 -1.7798 0.3535
0.7261 -1.7928 0.3549
0.6813 -1.7670 0.3540
0.6534 -1.7041 0.3510
0.6055 -1.6873 0.3506
0.5566 -1.6712 0.3503
0.5406 -1.5948 0.3464
0.2861 -1.6130 0.3503
0.1845 -1.6603 0.3540
0.1361 -1.6324 0.3531
0.1106 -1.5770 0.3504
-0.3940 -1.1487 0.3333
2.1314 -5.0286 0.4068
1.4074 -1.9761 0.3116
1.3645 -2.0123 0.3126
1.3230 -1.9777 0.3115
0.9443 -2.8483 0.3378
0.8536 -2.9477 0.3407
0.8115 -2.7958 0.3359
0.7573 -2.7169 0.3334
0.6642 -2.7875 0.3355
0.7367 -1.9222 0.3089
0.5094 -2.1806 0.3165
0.4341 -2.1921 0.3168
0.4537 -1.8717 0.3069
0.4224 -1.8095 0.3049
0.3344 -1.8472 0.3060
0.0888 -1.6905 0.3008
0.0464 -1.5659 0.2968
0.3872 -1.1186 0.2836
0.6501 -0.6814 0.2705
-0.1732 -1.2152 0.2857
-0.3482 -1.2853 0.2876
-0.4709 -1.3102 0.2882
-0.3907 -1.1964 0.2848
-0.4368 -1.1699 0.2839
2.1298 -4.8964 0.2995
1.8874 -5.1365 0.2978
1.7029 -5.3435 0.2967
1.3721 -1.9633 0.2651
1.3261 -2.0306 0.2650
0.9053 -3.1227 0.2674
0.8682 -2.9092 0.2652
0.7861 -2.9415 0.2642
0.7293 -2.8555 0.2627
0.6621 -2.8168 0.2614
0.4967 -3.1048 0.2613
0.7593 -1.8683 0.2554
0.4337 -2.5586 0.2560
0.2867 -2.5239 0.2536
0.1396 -2.6540 0.2525
-0.1788 -2.7164 0.2483
0.1357 -1.6295 0.2443
-0.0251 -1.7351 0.2428
-0.3575 -1.2261 0.2338
-0.3540 -1.1665 0.2334
-0.4831 -1.1930 0.2317
2.1944 -5.2243 0.1917
2.0579 -4.8760 0.1932
1.9585 -4.7693 0.1920
1.8913 -4.9934 0.1867
1.8111 -5.1806 0.1816
1.7189 -5.3196 0.1769
1.4201 -1.8933 0.2210
1.3796 -1.9066 0.2196
1.3320 -2.0312 0.2164
0.9583 -3.3470 0.1857
0.9286 -3.0306 0.1898
0.8115 -2.8561 0.1891
0.7393 -2.8405 0.1874
0.6722 -2.8019 0.1861
0.6245 -2.6979 0.1863
0.7429 -1.9235 0.2015
0.3621 -2.5470 0.1813
0.6738 -0.7266 0.2179
0.6764 -0.6880 0.2186
-0.1576 -1.2537 0.1865
-0.2300 -1.2485 0.1845
-0.2394 -1.1960 0.1851
-0.2478 -1.1452 0.1856
-0.2916 -1.1200 0.1848
2.4005 -5.8132 0.0646
2.2909 -5.7502 0.0625
2.1265 -5.2705 0.0743
2.0040 -5.0279 0.0786
1.8847 -4.7474 0.0846
1.7236 -5.0985 0.0642
1.3856 -1.8976 0.1745
1.3400 -1.9908 0.1690
1.2930 -2.0282 0.1656
1.0824 -3.0439 0.1173
1.0214 -2.9562 0.1182
0.9766 -2.7841 0.1230
0.8838 -2.9028 0.1146
0.8405 -2.7526 0.1186
0.7494 -2.8255 0.1120
0.6882 -2.7646 0.1118
0.6406 -2.6622 0.1138
0.5034 -2.3995 0.1183
0.8459 -0.8204 0.1939
0.7558 -0.7171 0.1941
0.7326 -0.7037 0.1937
0.7010 -0.6985 0.1926
0.6666 -0.6951 0.1913
-0.1399 -1.2979 0.1343
-0.1954 -1.2789 0.1327
-0.2417 -1.2523 0.1318
-0.8981 -1.5094 0.0946
-1.0281 -1.5189 0.0888
2.4170 -5.7888 -0.0584
1.8274 -4.9519 -0.0385
1.3898 -1.9748 0.1238
1.3472 -1.9608 0.1223
1.3010 -1.9970 0.1175
1.2535 -2.0151 0.1138
1.2041 -2.0332 0.1099
0.5841 -2.8725 0.0230
0.3650 -2.5581 0.0306
0.2778 -2.3858 0.0366
0.8334 -0.8895 0.1611
0.8033 -0.8803 0.1600
0.7649 -0.8815 0.1578
0.7444 -0.8116 0.1610
0.7402 -0.7323 0.1658
0.7163 -0.7186 0.1653
-0.2848 -1.4132 0.0664
-0.5129 -1.5241 0.0469
-1.3943 -1.8234 -0.0206
-1.6833 -1.9154 -0.0424
-1.7912 -1.8883 -0.0467
-1.8093 -1.8092 -0.0427
-1.9169 -1.7811 -0.0469
-2.0602 -1.7696 -0.0541
-2.1084 -1.4744 -0.0383
-2.1912 -1.3651 -0.0360
