ply
format ascii 1.0
element vertex 2108
property float x
property float y
property float z
end_header
3.7910 -2.8253 -0.2584
3.7515 -2.8220 -0.2610
3.7314 -2.8198 -0.2596
3.7143 -2.8184 -0.2610
3.6787 -2.8143 -0.2576
3.6465 -2.8105 -0.2538
3.6325 -2.8090 -0.2534
3.6228 -2.8094 -0.2599
3.6116 -2.8089 -0.2628
3.5978 -2.8069 -0.2596
3.5849 -2.8051 -0.2568
3.5723 -2.8032 -0.2534
3.5631 -2.8030 -0.2565
3.5531 -2.8021 -0.2569
3.5438 -2.8014 -0.2580
8.0075 -2.7218 1.8103
7.9650 -2.7355 1.7197
8.0430 -2.7969 1.4160
8.0510 -2.8129 1.3319
8.1127 -2.8311 1.2567
7.5791 -2.8433 0.9869
7.9201 -2.8737 0.9521
7.8238 -2.8861 0.8480
7.6324 -2.8932 0.7362
6.1067 -2.8256 0.5213
5.7817 -2.8173 0.4422
7.3688 -3.0512 -0.2224
7.1490 -3.0489 -0.2936
5.8158 -2.9422 -0.2229
5.7001 -2.9418 -0.2650
5.4353 -2.9228 -0.2629
5.0856 -2.9004 -0.2749
4.9257 -2.8888 -0.2725
4.8104 -2.8818 -0.2785
4.7012 -2.8745 -0.2809
4.5843 -2.8650 -0.2738
4.4880 -2.8575 -0.2700
4.4070 -2.8516 -0.2686
4.3488 -2.8487 -0.2751
4.2547 -2.8388 -0.2572
4.2087 -2.8367 -0.2634
4.1561 -2.8329 -0.2627
4.1163 -2.8310 -0.2678
4.0617 -2.8257 -0.2595
4.0253 -2.8235 -0.2619
3.9880 -2.8208 -0.2614
3.9563 -2.8189 -0.2633
3.9236 -2.8165 -0.2624
3.8886 -2.8130 -0.2570
3.7958 -2.8079 -0.2644
3.7698 -2.8050 -0.2587
3.7479 -2.8030 -0.2562
3.7173 -2.8024 -0.2648
3.6953 -2.7996 -0.2577
3.6777 -2.7979 -0.2552
3.6505 -2.7967 -0.2593
3.6357 -2.7954 -0.2578
3.6219 -2.7942 -0.2567
3.6113 -2.7942 -0.2605
3.6003 -2.7938 -0.2627
3.5851 -2.7914 -0.2552
3.5746 -2.7908 -0.2564
3.5660 -2.7910 -0.2607
3.5533 -2.7891 -0.2548
8.8208 -2.6018 2.1289
8.0756 -2.6246 1.8028
7.7353 -2.7501 0.9855
7.8379 -2.7672 0.9129
8.1704 -2.7909 0.8615
7.7955 -2.9744 -0.3016
7.2105 -2.9522 -0.3243
5.8104 -2.8742 -0.2350
5.6315 -2.8706 -0.2610
5.3812 -2.8592 -0.2594
5.0662 -2.8482 -0.2774
4.7839 -2.8352 -0.2752
4.5667 -2.8248 -0.2716
4.4097 -2.8183 -0.2746
4.2602 -2.8098 -0.2641
4.1638 -2.8067 -0.2708
4.1020 -2.8021 -0.2603
4.0565 -2.7997 -0.2580
4.0314 -2.8004 -0.2689
3.9859 -2.7971 -0.2615
3.9455 -2.7943 -0.2554
3.9160 -2.7932 -0.2567
3.8634 -2.7914 -0.2599
3.8144 -2.7892 -0.2601
3.7661 -2.7860 -0.2542
3.7329 -2.7857 -0.2611
3.7144 -2.7847 -0.2602
3.6917 -2.7823 -0.2517
3.6652 -2.7823 -0.2585
3.6507 -2.7816 -0.2586
3.6372 -2.7811 -0.2590
3.6227 -2.7800 -0.2567
3.6092 -2.7791 -0.2547
3.5977 -2.7787 -0.2556
3.5875 -2.7787 -0.2583
3.5765 -2.7782 -0.2581
3.5667 -2.7781 -0.2600
3.5545 -2.7767 -0.2552
3.5468 -2.7772 -0.2599
7.9416 -2.5196 1.8068
7.8086 -2.5357 1.6903
7.8074 -2.6653 0.8818
7.3638 -2.6789 0.7427
6.3087 -2.6869 0.5645
6.0170 -2.6944 0.4819
5.9185 -2.7024 0.4198
6.0164 -2.7129 0.3661
6.4886 -2.7429 0.2371
6.7700 -2.7620 0.1525
7.5954 -2.7997 0.0178
7.2312 -2.8352 -0.2480
6.8433 -2.8336 -0.2851
6.1022 -2.8233 -0.3118
5.5109 -2.8008 -0.2435
5.3433 -2.8001 -0.2595
5.0483 -2.7976 -0.2800
4.7597 -2.7908 -0.2726
4.6531 -2.7888 -0.2732
4.5442 -2.7857 -0.2668
4.4667 -2.7846 -0.2698
4.4007 -2.7841 -0.2745
4.3104 -2.7803 -0.2619
4.2457 -2.7786 -0.2591
4.1979 -2.7783 -0.2632
4.1493 -2.7775 -0.2641
4.0611 -2.7757 -0.2637
3.9870 -2.7743 -0.2642
3.9551 -2.7739 -0.2654
3.9199 -2.7726 -0.2616
3.8663 -2.7719 -0.2638
3.8120 -2.7699 -0.2579
3.7722 -2.7697 -0.2617
3.7480 -2.7684 -0.2561
3.7284 -2.7678 -0.2548
3.7134 -2.7680 -0.2583
3.7006 -2.7687 -0.2641
3.6834 -2.7681 -0.2624
3.6692 -2.7681 -0.2641
3.6392 -2.7671 -0.2613
3.6235 -2.7660 -0.2566
3.6111 -2.7658 -0.2568
3.6007 -2.7661 -0.2598
3.5911 -2.7665 -0.2637
3.5761 -2.7648 -0.2551
3.5658 -2.7647 -0.2555
3.5563 -2.7647 -0.2568
3.5464 -2.7645 -0.2563
8.2513 -2.3988 1.9566
7.8666 -2.4309 1.7543
7.5469 -2.5588 0.9052
7.3811 -2.5751 0.8017
6.9141 -2.5969 0.6714
6.4616 -2.6159 0.5598
5.9474 -2.6414 0.4059
6.5032 -2.6664 0.2187
6.4949 -2.6773 0.1457
6.8310 -2.7286 -0.2117
6.7918 -2.7413 -0.2953
6.2673 -2.7423 -0.2838
5.9489 -2.7452 -0.2921
5.5504 -2.7432 -0.2647
5.4026 -2.7472 -0.2863
5.0487 -2.7494 -0.2886
4.8893 -2.7493 -0.2823
4.7675 -2.7500 -0.2825
4.6436 -2.7496 -0.2751
4.5279 -2.7486 -0.2647
4.4366 -2.7484 -0.2597
4.3916 -2.7507 -0.2741
4.3126 -2.7501 -0.2671
4.2511 -2.7502 -0.2659
4.1909 -2.7500 -0.2620
4.1518 -2.7512 -0.2686
4.0449 -2.7495 -0.2537
3.9799 -2.7508 -0.2600
3.9496 -2.7513 -0.2621
3.9145 -2.7508 -0.2578
3.8847 -2.7507 -0.2564
3.8677 -2.7523 -0.2661
3.8421 -2.7523 -0.2655
3.8103 -2.7511 -0.2564
3.7916 -2.7518 -0.2602
3.7683 -2.7515 -0.2570
3.7356 -2.7527 -0.2642
3.6968 -2.7520 -0.2579
3.6669 -2.7523 -0.2593
3.6523 -2.7524 -0.2590
3.6388 -2.7525 -0.2592
3.6148 -2.7530 -0.2622
3.6026 -2.7530 -0.2618
3.5912 -2.7531 -0.2620
3.5790 -2.7528 -0.2593
3.5670 -2.7524 -0.2560
3.5491 -2.7531 -0.2604
8.2702 -2.3001 1.9328
7.9295 -2.3358 1.7465
7.7410 -2.4449 0.9918
7.7920 -2.4541 0.9141
6.9979 -2.5026 0.7319
6.5319 -2.5329 0.6123
6.5507 -2.5411 0.5485
5.8833 -2.5754 0.4426
6.3489 -2.5848 0.2734
6.2266 -2.5973 0.2088
6.4842 -2.6007 0.1285
6.7345 -2.6061 0.0352
6.8919 -2.6148 -0.0625
7.1084 -2.6241 -0.1770
6.8831 -2.6392 -0.2384
6.2571 -2.6659 -0.2973
5.8483 -2.6760 -0.2828
5.4917 -2.6836 -0.2610
5.0060 -2.7010 -0.2823
4.8542 -2.7047 -0.2767
4.7133 -2.7076 -0.2673
4.6037 -2.7104 -0.2637
4.5346 -2.7137 -0.2731
4.4429 -2.7157 -0.2676
4.3759 -2.7180 -0.2701
4.2565 -2.7219 -0.2727
4.1292 -2.7234 -0.2561
4.0808 -2.7244 -0.2528
4.0493 -2.7262 -0.2594
3.9809 -2.7287 -0.2625
3.9433 -2.7292 -0.2579
3.9231 -2.7310 -0.2671
3.8884 -2.7312 -0.2611
3.8576 -2.7315 -0.2565
3.7927 -2.7342 -0.2618
3.7751 -2.7352 -0.2655
3.7486 -2.7348 -0.2567
3.7310 -2.7355 -0.2577
3.7017 -2.7373 -0.2645
3.6612 -2.7364 -0.2493
3.6506 -2.7375 -0.2550
3.6376 -2.7380 -0.2559
3.6249 -2.7384 -0.2564
3.6125 -2.7388 -0.2562
3.6009 -2.7392 -0.2567
3.5890 -2.7394 -0.2555
3.5802 -2.7402 -0.2598
3.5682 -2.7401 -0.2564
3.5591 -2.7407 -0.2586
3.5498 -2.7411 -0.2593
8.2364 -2.2064 1.8919
7.5797 -2.3614 0.9412
7.7170 -2.3620 0.8779
6.9496 -2.4250 0.7049
6.5206 -2.4623 0.5925
6.6492 -2.4982 0.2526
6.2624 -2.5267 0.1912
6.5801 -2.5204 0.1053
6.8793 -2.5170 0.0046
6.9088 -2.5266 -0.0837
6.7071 -2.5452 -0.1455
6.5739 -2.5709 -0.2928
6.1100 -2.5945 -0.2822
5.7558 -2.6126 -0.2742
5.4620 -2.6271 -0.2642
5.3385 -2.6368 -0.2886
5.1645 -2.6465 -0.2912
4.8138 -2.6625 -0.2686
4.7035 -2.6686 -0.2696
4.5955 -2.6739 -0.2658
4.5319 -2.6788 -0.2771
4.4528 -2.6830 -0.2773
4.3709 -2.6867 -0.2717
4.3014 -2.6901 -0.2685
4.2531 -2.6934 -0.2741
4.1881 -2.6959 -0.2664
4.1505 -2.6988 -0.2734
4.0939 -2.7008 -0.2647
4.0178 -2.7050 -0.2661
3.9472 -2.7084 -0.2630
3.8906 -2.7116 -0.2642
3.8363 -2.7141 -0.2606
3.7696 -2.7175 -0.2588
3.7502 -2.7185 -0.2587
3.7340 -2.7197 -0.2615
3.7168 -2.7207 -0.2617
3.7019 -2.7218 -0.2642
3.6853 -2.7225 -0.2630
3.6665 -2.7228 -0.2568
3.6500 -2.7232 -0.2529
3.6390 -2.7243 -0.2570
3.6281 -2.7253 -0.2607
3.6144 -2.7257 -0.2582
3.6022 -2.7263 -0.2574
3.5902 -2.7268 -0.2561
3.5797 -2.7274 -0.2566
3.5597 -2.7286 -0.2576
3.5503 -2.7292 -0.2582
7.5974 -2.2687 0.9188
7.5566 -2.2819 0.8318
7.2028 -2.3231 0.7111
6.3685 -2.4051 0.5607
6.3448 -2.4516 0.1716
6.5951 -2.4420 0.0864
6.9302 -2.4281 -0.0192
6.8249 -2.4448 -0.0939
6.8532 -2.4529 -0.1833
6.3958 -2.4991 -0.2768
6.0389 -2.5273 -0.2815
5.4727 -2.5708 -0.2778
5.3366 -2.5837 -0.2980
5.0790 -2.6007 -0.2726
4.9268 -2.6123 -0.2705
4.8158 -2.6216 -0.2763
4.7167 -2.6298 -0.2813
4.5776 -2.6386 -0.2635
4.5121 -2.6447 -0.2729
4.4470 -2.6505 -0.2791
4.3630 -2.6562 -0.2716
4.2771 -2.6613 -0.2582
4.1878 -2.6695 -0.2693
4.0762 -2.6764 -0.2543
4.0455 -2.6795 -0.2608
4.0171 -2.6825 -0.2675
3.9350 -2.6873 -0.2534
3.8833 -2.6918 -0.2581
3.8570 -2.6938 -0.2575
3.8290 -2.6955 -0.2534
3.8099 -2.6974 -0.2573
3.7956 -2.6995 -0.2657
3.7504 -2.7022 -0.2589
3.7149 -2.7049 -0.2586
3.6980 -2.7061 -0.2578
3.6848 -2.7076 -0.2614
3.6685 -2.7086 -0.2592
3.6513 -2.7093 -0.2541
3.6396 -2.7106 -0.2569
3.6250 -2.7113 -0.2537
3.6169 -2.7128 -0.2613
3.6028 -2.7134 -0.2569
3.5908 -2.7142 -0.2554
3.5802 -2.7150 -0.2558
3.5614 -2.7169 -0.2592
3.5547 -2.7182 -0.2661
7.6560 -2.1628 0.9835
7.6152 -2.1760 0.8965
6.3431 -2.3744 0.2227
6.4312 -2.3729 0.1509
6.6967 -2.3554 0.0616
6.6901 -2.3642 -0.0166
6.5410 -2.3858 -0.0797
6.5337 -2.3945 -0.1572
6.7981 -2.3807 -0.2809
6.4916 -2.4147 -0.3110
6.0522 -2.4578 -0.2982
5.4578 -2.5164 -0.2844
4.8099 -2.5814 -0.2809
4.7008 -2.5924 -0.2809
4.5987 -2.6025 -0.2785
4.4149 -2.6199 -0.2672
4.2798 -2.6331 -0.2635
4.2071 -2.6394 -0.2527
4.1716 -2.6439 -0.2617
4.0885 -2.6527 -0.2657
4.0180 -2.6603 -0.2701
3.9718 -2.6639 -0.2598
3.9397 -2.6670 -0.2591
3.9090 -2.6700 -0.2576
3.8790 -2.6727 -0.2548
3.8301 -2.6777 -0.2552
3.8087 -2.6800 -0.2563
3.7929 -2.6822 -0.2627
3.7693 -2.6842 -0.2586
3.7463 -2.6860 -0.2534
3.7185 -2.6898 -0.2632
3.6974 -2.6912 -0.2563
3.6795 -2.6926 -0.2525
3.6566 -2.6959 -0.2617
3.6409 -2.6971 -0.2579
3.6307 -2.6986 -0.2625
3.6169 -2.6997 -0.2598
3.6046 -2.7008 -0.2587
3.5820 -2.7030 -0.2575
3.5733 -2.7042 -0.2612
3.5636 -2.7053 -0.2620
7.7052 -2.0367 1.2794
6.4477 -2.2564 0.5940
6.2225 -2.2917 0.5148
6.2554 -2.2929 0.4580
6.5952 -2.2616 0.3407
6.5891 -2.2689 0.2705
6.4776 -2.2891 0.2021
6.3255 -2.3138 0.1394
6.4941 -2.3214 -0.1683
6.7497 -2.3011 -0.2907
6.4256 -2.3435 -0.3143
6.0052 -2.3945 -0.3016
5.6938 -2.4326 -0.2955
5.4177 -2.4657 -0.2839
4.7604 -2.5458 -0.2683
4.6856 -2.5563 -0.2807
4.5911 -2.5680 -0.2805
4.4985 -2.5791 -0.2763
4.4134 -2.5891 -0.2709
4.3375 -2.5981 -0.2658
4.2788 -2.6054 -0.2665
4.2230 -2.6123 -0.2658
4.1738 -2.6184 -0.2662
4.1247 -2.6243 -0.2638
4.0070 -2.6388 -0.2631
3.9775 -2.6428 -0.2663
3.8826 -2.6539 -0.2594
3.8594 -2.6570 -0.2616
3.8358 -2.6600 -0.2619
3.8112 -2.6628 -0.2596
3.7909 -2.6654 -0.2606
3.7629 -2.6680 -0.2507
3.7478 -2.6703 -0.2553
3.7150 -2.6746 -0.2580
3.6988 -2.6766 -0.2578
3.6842 -2.6785 -0.2590
3.6686 -2.6803 -0.2574
3.6533 -2.6820 -0.2552
3.6415 -2.6837 -0.2578
3.6300 -2.6853 -0.2600
3.6181 -2.6868 -0.2605
3.6039 -2.6882 -0.2558
3.5943 -2.6896 -0.2589
3.5843 -2.6910 -0.2604
3.5619 -2.6934 -0.2557
3.5552 -2.6948 -0.2625
7.4464 -2.0494 0.5017
7.3260 -2.0743 0.4132
6.9981 -2.1296 0.3262
6.7683 -2.1758 0.1749
6.9199 -2.1606 0.0894
7.1633 -2.1405 -0.1012
7.2806 -2.1320 -0.2073
6.6211 -2.2286 -0.2039
6.2653 -2.2886 -0.2978
5.9788 -2.3315 -0.3091
5.1740 -2.4471 -0.2770
4.4637 -2.5503 -0.2642
4.3403 -2.5690 -0.2713
4.2354 -2.5849 -0.2767
4.1580 -2.5948 -0.2587
4.1276 -2.6000 -0.2685
4.0294 -2.6133 -0.2546
4.0095 -2.6173 -0.2669
3.9698 -2.6226 -0.2613
3.9043 -2.6318 -0.2555
3.8486 -2.6396 -0.2512
3.8400 -2.6421 -0.2671
3.8107 -2.6458 -0.2594
3.7918 -2.6488 -0.2619
3.7704 -2.6518 -0.2600
3.7338 -2.6572 -0.2602
3.7158 -2.6597 -0.2586
3.7002 -2.6620 -0.2593
3.6842 -2.6643 -0.2582
3.6719 -2.6664 -0.2619
3.6572 -2.6685 -0.2606
3.6441 -2.6704 -0.2610
3.6299 -2.6723 -0.2585
3.6180 -2.6741 -0.2589
3.5942 -2.6774 -0.2569
3.5818 -2.6789 -0.2533
3.5658 -2.6820 -0.2623
7.5486 -1.9430 0.4834
7.3432 -1.9843 0.3915
7.3831 -1.9836 0.3073
7.5540 -1.9611 0.2174
7.3417 -2.0031 0.1335
7.1098 -2.0477 0.0584
7.4264 -2.0022 -0.0546
7.3004 -2.0294 -0.1363
7.0657 -2.0737 -0.1996
6.6950 -2.1388 -0.2325
6.4623 -2.1812 -0.2738
6.2102 -2.2258 -0.3013
5.8272 -2.2897 -0.2871
5.5544 -2.3355 -0.2828
4.8712 -2.4509 -0.2796
4.6349 -2.4903 -0.2708
4.3234 -2.5427 -0.2658
4.2223 -2.5603 -0.2717
4.1108 -2.5782 -0.2593
4.0405 -2.5906 -0.2653
3.8981 -2.6136 -0.2508
3.8552 -2.6215 -0.2588
3.8155 -2.6287 -0.2652
3.7897 -2.6326 -0.2596
3.7660 -2.6363 -0.2547
3.7346 -2.6420 -0.2609
3.7172 -2.6449 -0.2602
3.6987 -2.6478 -0.2566
3.6834 -2.6504 -0.2564
3.6712 -2.6527 -0.2598
3.6571 -2.6551 -0.2595
3.6466 -2.6572 -0.2642
3.6173 -2.6616 -0.2561
3.5971 -2.6653 -0.2611
3.5859 -2.6671 -0.2599
3.5754 -2.6689 -0.2595
3.5545 -2.6722 -0.2559
7.2433 -1.9219 0.2855
7.6174 -1.8560 0.1931
7.2030 -1.9399 0.1182
7.2400 -1.9382 0.0295
7.2000 -1.9511 -0.0558
7.2777 -1.9423 -0.1545
7.1961 -1.9630 -0.2368
7.0067 -2.0031 -0.2999
6.1154 -2.1735 -0.2957
5.7887 -2.2357 -0.2903
5.5249 -2.2859 -0.2858
4.4682 -2.4876 -0.2757
4.3138 -2.5165 -0.2642
4.2200 -2.5350 -0.2734
4.1136 -2.5548 -0.2638
4.0308 -2.5704 -0.2598
3.9598 -2.5837 -0.2559
3.9075 -2.5941 -0.2608
3.8547 -2.6041 -0.2590
3.8294 -2.6087 -0.2568
3.8118 -2.6124 -0.2614
3.7675 -2.6206 -0.2566
3.7501 -2.6240 -0.2580
3.7360 -2.6270 -0.2626
3.7057 -2.6330 -0.2663
3.6847 -2.6365 -0.2576
3.6683 -2.6395 -0.2544
3.6550 -2.6420 -0.2550
3.6465 -2.6441 -0.2628
3.6171 -2.6492 -0.2543
3.6073 -2.6513 -0.2575
3.5952 -2.6535 -0.2553
3.5881 -2.6553 -0.2627
3.5656 -2.6593 -0.2574
7.3775 -1.8087 0.2634
7.5910 -1.7679 0.1708
7.2974 -1.8345 0.0928
7.4618 -1.8045 -0.0073
7.4634 -1.8090 -0.1012
7.3366 -1.8401 -0.1819
7.1756 -1.8782 -0.2537
6.0076 -2.1290 -0.2862
5.7833 -2.1775 -0.3010
5.4704 -2.2433 -0.2818
4.3192 -2.4883 -0.2710
4.2028 -2.5129 -0.2656
4.1477 -2.5243 -0.2602
3.9951 -2.5569 -0.2604
3.9405 -2.5689 -0.2667
3.9078 -2.5756 -0.2622
3.8749 -2.5823 -0.2555
3.8173 -2.5952 -0.2681
3.7667 -2.6054 -0.2557
3.7501 -2.6090 -0.2579
3.7316 -2.6129 -0.2564
3.7156 -2.6163 -0.2572
3.7014 -2.6195 -0.2594
3.6853 -2.6228 -0.2578
3.6689 -2.6262 -0.2544
3.6595 -2.6285 -0.2615
3.6430 -2.6318 -0.2557
3.6201 -2.6368 -0.2585
3.6102 -2.6390 -0.2616
3.5993 -2.6414 -0.2619
3.5874 -2.6438 -0.2592
3.5769 -2.6460 -0.2586
7.5118 -1.6732 0.6606
7.5975 -1.6561 0.5855
7.5571 -1.6692 0.4994
7.6906 -1.6411 0.4182
7.3949 -1.7178 0.2415
7.3549 -1.7307 0.1562
7.4798 -1.7052 0.0617
7.5687 -1.6884 -0.0372
7.2348 -1.7694 -0.0996
5.7462 -2.1273 -0.3037
5.4679 -2.1922 -0.2913
4.8539 -2.3365 -0.2936
4.5062 -2.4170 -0.2668
4.4412 -2.4325 -0.2713
4.3785 -2.4473 -0.2736
4.2283 -2.4818 -0.2535
4.1523 -2.5001 -0.2660
3.9886 -2.5382 -0.2568
3.8800 -2.5639 -0.2615
3.8517 -2.5704 -0.2574
3.8280 -2.5759 -0.2563
3.8080 -2.5807 -0.2579
3.7828 -2.5863 -0.2522
3.7667 -2.5903 -0.2557
3.7508 -2.5941 -0.2586
3.7169 -2.6021 -0.2586
3.7005 -2.6059 -0.2575
3.6858 -2.6093 -0.2579
3.6694 -2.6131 -0.2544
3.6546 -2.6164 -0.2524
3.6442 -2.6191 -0.2566
3.6306 -2.6222 -0.2545
3.6212 -2.6246 -0.2591
3.5979 -2.6300 -0.2573
3.5884 -2.6323 -0.2595
3.5760 -2.6350 -0.2548
3.5675 -2.6371 -0.2575
3.5597 -2.6391 -0.2613
7.4914 -1.5988 0.4737
7.4923 -1.6011 0.3902
7.4121 -1.6243 0.3048
7.4123 -1.6269 0.2196
7.2551 -1.6697 0.1389
7.5405 -1.5998 0.0363
7.6800 -1.5673 -0.0685
5.6521 -2.0936 -0.2916
5.2415 -2.1987 -0.2899
4.9282 -2.2787 -0.2833
4.6892 -2.3397 -0.2764
4.5566 -2.3731 -0.2580
4.3705 -2.4212 -0.2733
4.2465 -2.4528 -0.2678
4.1376 -2.4804 -0.2587
4.0655 -2.4991 -0.2645
4.0220 -2.5101 -0.2587
3.9881 -2.5187 -0.2581
3.9318 -2.5332 -0.2614
3.9058 -2.5399 -0.2625
3.8710 -2.5486 -0.2535
3.8289 -2.5595 -0.2578
3.7906 -2.5694 -0.2616
3.7650 -2.5757 -0.2537
3.7469 -2.5804 -0.2535
3.7160 -2.5884 -0.2570
3.7018 -2.5921 -0.2588
3.6899 -2.5953 -0.2634
3.6564 -2.6036 -0.2544
3.6466 -2.6062 -0.2596
3.6343 -2.6094 -0.2599
3.6184 -2.6132 -0.2524
3.6092 -2.6157 -0.2565
3.6007 -2.6180 -0.2614
3.5894 -2.6209 -0.2598
3.5800 -2.6233 -0.2615
3.5703 -2.6258 -0.2615
3.5624 -2.6280 -0.2653
7.1704 -1.6012 0.5147
7.2753 -1.5736 0.4431
7.3886 -1.5439 0.3661
7.5113 -1.5116 0.2829
7.3897 -1.5471 0.1986
7.5145 -1.5145 0.1069
7.4732 -1.5277 0.0190
7.4743 -1.5294 -0.0727
7.4746 -1.5313 -0.1661
6.5983 -1.7769 -0.2995
5.7646 -2.0073 -0.2692
5.5384 -2.0701 -0.2736
5.3359 -2.1262 -0.2742
5.1823 -2.1689 -0.2804
4.9225 -2.2411 -0.2883
4.6961 -2.3037 -0.2850
4.5025 -2.3571 -0.2746
4.3702 -2.3939 -0.2771
4.2334 -2.4315 -0.2631
4.1854 -2.4448 -0.2634
4.0625 -2.4789 -0.2644
3.9947 -2.4977 -0.2652
3.9509 -2.5096 -0.2541
3.9261 -2.5165 -0.2574
3.8803 -2.5293 -0.2636
3.8568 -2.5359 -0.2641
3.8386 -2.5410 -0.2689
3.7842 -2.5558 -0.2542
3.7687 -2.5601 -0.2584
3.7536 -2.5644 -0.2620
3.7386 -2.5686 -0.2651
3.7158 -2.5747 -0.2563
3.6868 -2.5828 -0.2581
3.6696 -2.5875 -0.2531
3.6596 -2.5904 -0.2586
3.6470 -2.5939 -0.2593
3.6327 -2.5978 -0.2558
3.6220 -2.6008 -0.2578
3.6115 -2.6037 -0.2593
3.5903 -2.6096 -0.2600
3.5792 -2.6126 -0.2577
3.5706 -2.6151 -0.2602
6.8227 -1.4297 0.8580
6.9342 -1.3860 0.8097
6.9607 -1.3744 0.7454
6.8971 -1.3969 0.6691
6.9444 -1.3723 0.3839
6.9725 -1.3598 0.3078
7.1777 -1.2796 0.2259
7.3722 -1.2032 0.1338
7.2514 -1.2474 0.0507
7.0622 -1.3180 -0.0228
7.1714 -1.2740 -0.1217
7.1701 -1.2724 -0.2131
6.9818 -1.3428 -0.2770
6.1659 -1.6541 -0.2913
5.5321 -1.8964 -0.2751
4.8617 -2.1525 -0.2718
4.6484 -2.2340 -0.2709
4.2634 -2.3813 -0.2550
4.2118 -2.4010 -0.2548
4.1285 -2.4327 -0.2597
4.0100 -2.4781 -0.2544
3.9791 -2.4899 -0.2552
3.9488 -2.5014 -0.2546
3.8655 -2.5334 -0.2494
3.8485 -2.5397 -0.2557
3.8248 -2.5488 -0.2535
3.8024 -2.5574 -0.2512
3.7887 -2.5625 -0.2580
3.7678 -2.5705 -0.2549
3.7474 -2.5784 -0.2508
3.7324 -2.5841 -0.2527
3.7176 -2.5897 -0.2541
3.7039 -2.5949 -0.2559
3.6884 -2.6009 -0.2540
3.6765 -2.6054 -0.2568
3.6602 -2.6117 -0.2513
3.6389 -2.6197 -0.2567
3.6242 -2.6255 -0.2504
3.6135 -2.6295 -0.2507
3.6042 -2.6330 -0.2530
3.5939 -2.6370 -0.2524
3.5832 -2.6411 -0.2501
3.5739 -2.6447 -0.2500
3.5675 -2.6470 -0.2562
6.8967 -1.3354 1.1511
7.1372 -1.2377 1.1433
6.9779 -1.2989 1.0431
6.9748 -1.2979 0.9770
6.8812 -1.3330 0.8943
7.0233 -1.2667 0.6348
7.0198 -1.2656 0.5602
7.0852 -1.2367 0.4878
7.1171 -1.2212 0.4100
7.1881 -1.1897 0.3297
7.1493 -1.2026 0.2460
7.2238 -1.1695 0.1584
7.1456 -1.1983 0.0744
7.1060 -1.2115 -0.0110
7.1037 -1.2094 -0.1003
7.0637 -1.2227 -0.1865
6.9162 -1.2801 -0.2562
6.1138 -1.6043 -0.2748
5.8699 -1.7025 -0.2917
5.6008 -1.8115 -0.2906
5.3109 -1.9296 -0.2700
5.1365 -2.0002 -0.2709
4.8936 -2.0980 -0.2854
4.6364 -2.2028 -0.2688
4.4488 -2.2791 -0.2585
4.3237 -2.3296 -0.2625
4.2098 -2.3758 -0.2597
4.1145 -2.4145 -0.2567
4.0315 -2.4483 -0.2519
3.9060 -2.4992 -0.2492
3.8876 -2.5064 -0.2566
3.8594 -2.5179 -0.2527
3.8388 -2.5262 -0.2551
3.8177 -2.5347 -0.2557
3.7993 -2.5421 -0.2581
3.7762 -2.5516 -0.2534
3.7571 -2.5594 -0.2522
3.7406 -2.5660 -0.2531
3.7257 -2.5720 -0.2553
3.7078 -2.5793 -0.2518
3.6942 -2.5848 -0.2537
3.6829 -2.5892 -0.2583
3.6673 -2.5957 -0.2548
3.6532 -2.6014 -0.2527
3.6413 -2.6062 -0.2535
3.6279 -2.6118 -0.2503
3.6054 -2.6209 -0.2491
3.5962 -2.6246 -0.2515
3.5872 -2.6281 -0.2536
3.5778 -2.6319 -0.2540
3.5691 -2.6354 -0.2554
3.5600 -2.6391 -0.2550
7.0549 -1.2007 1.3484
7.0789 -1.1820 1.1617
6.9817 -1.2198 1.0739
6.8583 -1.2686 0.9833
6.9692 -1.2128 0.7988
7.2033 -1.1070 0.6779
7.0257 -1.1790 0.5848
7.0911 -1.1476 0.5116
7.0533 -1.1602 0.4303
7.4841 -0.9721 0.3560
7.1962 -1.0915 0.2660
7.1951 -1.0881 0.1787
7.0423 -1.1500 0.0975
7.0390 -1.1475 0.0102
7.2302 -1.0606 -0.0985
7.1092 -1.1089 -0.1793
7.0679 -1.1226 -0.2682
6.0205 -1.5727 -0.2500
5.8933 -1.6253 -0.2930
5.1200 -1.9582 -0.2656
4.5338 -2.2097 -0.2660
4.4603 -2.2411 -0.2687
4.2671 -2.3239 -0.2688
4.2028 -2.3519 -0.2615
4.1630 -2.3687 -0.2669
4.1155 -2.3891 -0.2646
4.0774 -2.4054 -0.2665
4.0367 -2.4230 -0.2640
3.9888 -2.4440 -0.2528
3.9612 -2.4557 -0.2564
3.9029 -2.4807 -0.2555
3.8815 -2.4897 -0.2602
3.8598 -2.4989 -0.2632
3.8067 -2.5221 -0.2535
3.7687 -2.5383 -0.2551
3.7492 -2.5468 -0.2533
3.7329 -2.5537 -0.2544
3.7162 -2.5609 -0.2539
3.7019 -2.5670 -0.2556
3.6884 -2.5726 -0.2577
3.6727 -2.5795 -0.2551
3.6568 -2.5865 -0.2506
3.6461 -2.5910 -0.2542
3.6331 -2.5966 -0.2528
3.6240 -2.6003 -0.2579
3.6099 -2.6066 -0.2519
3.6000 -2.6108 -0.2536
3.5887 -2.6157 -0.2513
3.5792 -2.6197 -0.2522
3.5715 -2.6228 -0.2566
3.5624 -2.6267 -0.2567
3.5535 -2.6306 -0.2565
7.1574 -1.0773 1.4130
6.9347 -1.1712 1.2860
7.0237 -1.1286 1.2464
6.9583 -1.1537 1.1651
6.9553 -1.1514 1.0990
7.0152 -1.1211 1.0446
6.8869 -1.1741 0.9516
6.8826 -1.1721 0.8829
6.9420 -1.1418 0.8224
6.9700 -1.1252 0.7541
7.3287 -0.9604 0.7186
6.9302 -1.1347 0.6015
7.3695 -0.9325 0.5540
7.2876 -0.9646 0.4633
7.2468 -0.9782 0.3753
7.1672 -1.0093 0.2874
7.0152 -1.0735 0.2030
6.9403 -1.1029 0.1202
6.9721 -1.0834 0.0314
7.0055 -1.0630 -0.0610
7.0017 -1.0596 -0.1526
6.9609 -1.0732 -0.2406
6.1383 -1.4450 -0.2677
5.8629 -1.5692 -0.2817
5.3126 -1.8198 -0.2681
5.0844 -1.9242 -0.2544
4.9938 -1.9641 -0.2757
4.6034 -2.1422 -0.2609
4.5302 -2.1750 -0.2683
4.3849 -2.2408 -0.2716
4.3083 -2.2759 -0.2648
4.2516 -2.3016 -0.2655
4.0454 -2.3961 -0.2496
4.0137 -2.4103 -0.2535
3.9255 -2.4500 -0.2600
3.8947 -2.4641 -0.2571
3.8684 -2.4761 -0.2566
3.8441 -2.4871 -0.2565
3.8232 -2.4965 -0.2586
3.7764 -2.5181 -0.2522
3.7582 -2.5263 -0.2532
3.7391 -2.5351 -0.2515
3.7263 -2.5405 -0.2576
3.7066 -2.5498 -0.2524
3.6918 -2.5564 -0.2532
3.6755 -2.5640 -0.2503
3.6644 -2.5688 -0.2550
3.6505 -2.5751 -0.2539
3.6387 -2.5804 -0.2555
3.6266 -2.5859 -0.2555
3.6152 -2.5910 -0.2561
3.6036 -2.5964 -0.2549
3.5911 -2.6023 -0.2508
3.5816 -2.6065 -0.2523
3.5728 -2.6104 -0.2545
3.5611 -2.6160 -0.2487
3.5542 -2.6188 -0.2541
3.5449 -2.6231 -0.2526
6.8788 -1.1178 1.3037
6.9052 -1.1014 1.2484
6.9010 -1.0989 1.1833
6.8671 -1.1102 1.1102
6.8632 -1.1075 1.0436
6.8898 -1.0905 0.9817
6.9175 -1.0728 0.9176
6.8821 -1.0846 0.8413
6.9091 -1.0669 0.7734
7.0745 -0.9838 0.7187
7.0012 -1.0131 0.6333
7.0689 -0.9756 0.5595
6.9945 -1.0054 0.4741
6.8880 -1.0507 0.3893
6.7861 -1.0940 0.3077
6.9844 -0.9931 0.2234
7.0180 -0.9709 0.1348
7.0144 -0.9665 0.0452
6.9372 -0.9977 -0.0394
7.0457 -0.9384 -0.1441
7.0818 -0.9141 -0.2462
6.8510 -1.0208 -0.3067
6.1512 -1.3596 -0.2638
5.8681 -1.4945 -0.2784
5.3676 -1.7344 -0.2825
5.0763 -1.8764 -0.2517
4.9680 -1.9273 -0.2678
4.7061 -2.0532 -0.2645
4.5177 -2.1435 -0.2664
4.3651 -2.2168 -0.2661
4.2308 -2.2817 -0.2589
4.1803 -2.3059 -0.2601
4.1334 -2.3283 -0.2607
4.0811 -2.3539 -0.2544
4.0538 -2.3663 -0.2642
4.0066 -2.3895 -0.2561
3.9736 -2.4053 -0.2571
3.9444 -2.4192 -0.2594
3.9158 -2.4328 -0.2604
3.8582 -2.4608 -0.2560
3.8136 -2.4820 -0.2586
3.7927 -2.4920 -0.2592
3.7703 -2.5030 -0.2562
3.7328 -2.5210 -0.2553
3.7156 -2.5293 -0.2550
3.6988 -2.5374 -0.2538
3.6836 -2.5447 -0.2538
3.6705 -2.5508 -0.2563
3.6566 -2.5576 -0.2560
3.6429 -2.5642 -0.2551
3.6301 -2.5704 -0.2547
3.6153 -2.5778 -0.2491
3.6053 -2.5824 -0.2519
3.5961 -2.5866 -0.2556
3.5833 -2.5931 -0.2504
3.5744 -2.5972 -0.2532
3.5642 -2.6022 -0.2518
3.5557 -2.6061 -0.2538
3.5459 -2.6110 -0.2515
3.5387 -2.6142 -0.2553
6.9385 -1.0034 1.2914
6.8739 -1.0295 1.2093
6.8396 -1.0408 1.1356
6.8658 -1.0227 1.0753
6.8614 -1.0193 1.0065
6.8263 -1.0310 0.9309
6.8532 -1.0120 0.8653
6.8800 -0.9929 0.7973
6.9752 -0.9396 0.7349
6.8395 -1.0010 0.6437
6.7400 -1.0446 0.5597
6.8619 -0.9772 0.4909
7.0710 -0.8652 0.4178
6.8866 -0.9516 0.3292
6.9532 -0.9109 0.2441
6.8089 -0.9774 0.1618
6.9454 -0.9005 0.0671
6.7312 -1.0032 -0.0056
6.8284 -0.9458 -0.1049
6.7880 -0.9593 -0.1920
6.6471 -1.0250 -0.2622
6.0954 -1.3062 -0.2461
5.8749 -1.4156 -0.2752
5.6818 -1.5115 -0.3003
5.4149 -1.6473 -0.2946
5.0864 -1.8172 -0.2548
4.9666 -1.8768 -0.2683
4.7194 -2.0018 -0.2728
4.5194 -2.1034 -0.2715
4.2239 -2.2541 -0.2611
4.1279 -2.3025 -0.2644
3.9635 -2.3864 -0.2574
3.9065 -2.4150 -0.2613
3.8442 -2.4474 -0.2516
3.7612 -2.4891 -0.2567
3.7454 -2.4968 -0.2609
3.7249 -2.5075 -0.2571
3.6896 -2.5257 -0.2532
3.6582 -2.5419 -0.2498
3.6463 -2.5477 -0.2527
3.6334 -2.5542 -0.2530
3.6236 -2.5588 -0.2581
3.6107 -2.5655 -0.2562
3.5858 -2.5785 -0.2503
3.5754 -2.5839 -0.2500
3.5651 -2.5891 -0.2492
3.5566 -2.5933 -0.2516
3.5482 -2.5974 -0.2537
3.5391 -2.6021 -0.2528
3.5297 -2.6070 -0.2501
7.2539 -0.7772 1.6250
6.8295 -0.9852 1.4198
6.6315 -1.0796 1.2976
6.8160 -0.9742 1.2276
6.8418 -0.9549 1.1689
6.8686 -0.9348 1.1082
6.7422 -0.9935 1.0126
6.7670 -0.9743 0.9497
6.9530 -0.8711 0.9120
6.9491 -0.8660 0.8364
6.8142 -0.9295 0.7425
6.7457 -0.9583 0.6600
6.7932 -0.9113 0.4311
6.7226 -0.9413 0.3484
6.7821 -0.9017 0.2663
6.8814 -0.8402 0.1781
6.9128 -0.8148 0.0868
6.7655 -0.8861 0.0068
6.7890 -0.8560 -0.1798
6.6127 -0.9441 -0.2464
5.8229 -1.3659 -0.2587
5.6332 -1.4650 -0.2849
5.4392 -1.5674 -0.3001
4.9566 -1.8291 -0.2659
4.8640 -1.8770 -0.2841
4.7255 -1.9517 -0.2783
4.4833 -2.0832 -0.2585
4.4334 -2.1085 -0.2744
4.3572 -2.1494 -0.2730
4.2132 -2.2277 -0.2611
4.1062 -2.2854 -0.2565
3.9487 -2.3700 -0.2535
3.9147 -2.3885 -0.2509
3.8635 -2.4154 -0.2560
3.8404 -2.4275 -0.2587
3.7952 -2.4516 -0.2600
3.7307 -2.4868 -0.2535
3.7180 -2.4929 -0.2607
3.6814 -2.5131 -0.2545
3.6661 -2.5213 -0.2539
3.6494 -2.5306 -0.2496
3.6365 -2.5375 -0.2505
3.6244 -2.5438 -0.2519
3.6115 -2.5508 -0.2506
3.6031 -2.5547 -0.2576
3.5887 -2.5631 -0.2506
3.5802 -2.5672 -0.2556
3.5688 -2.5735 -0.2531
3.5573 -2.5800 -0.2488
3.5494 -2.5839 -0.2526
3.5411 -2.5882 -0.2548
3.5325 -2.5927 -0.2553
3.5246 -2.5968 -0.2568
6.9222 -0.8524 1.4875
6.7969 -0.9120 1.3839
6.6781 -0.9685 1.2855
6.5913 -1.0082 1.1993
6.9318 -0.8036 1.0859
7.1365 -0.6674 0.8966
4.7378 -1.9719 0.4230
6.7610 -0.8317 0.4530
6.6906 -0.8624 0.3694
6.8890 -0.7414 0.2868
6.6144 -0.8877 0.2051
6.8787 -0.7278 0.1071
6.6646 -0.8406 0.0309
6.6918 -0.8152 -0.0616
6.6513 -0.8287 -0.1487
6.6780 -0.8030 -0.2467
5.8280 -1.2825 -0.2549
5.6509 -1.3791 -0.2862
5.1405 -1.6691 -0.2718
4.9376 -1.7851 -0.2604
4.8447 -1.8356 -0.2789
4.5950 -1.9774 -0.2718
4.4833 -2.0415 -0.2631
4.4076 -2.0839 -0.2663
4.3120 -2.1393 -0.2535
4.2599 -2.1680 -0.2607
4.2082 -2.1968 -0.2649
4.0892 -2.2654 -0.2521
4.0635 -2.2784 -0.2657
3.9367 -2.3516 -0.2523
3.9053 -2.3693 -0.2521
3.8850 -2.3799 -0.2609
3.8616 -2.3926 -0.2652
3.8105 -2.4216 -0.2637
3.7399 -2.4626 -0.2539
3.7252 -2.4703 -0.2594
3.7066 -2.4810 -0.2578
3.6867 -2.4928 -0.2526
3.6725 -2.5006 -0.2548
3.6563 -2.5100 -0.2525
3.6289 -2.5255 -0.2524
3.6022 -2.5410 -0.2486
3.5919 -2.5466 -0.2512
3.5812 -2.5525 -0.2522
3.5704 -2.5587 -0.2515
3.5616 -2.5632 -0.2550
3.5517 -2.5689 -0.2545
3.5411 -2.5753 -0.2511
3.5338 -2.5789 -0.2559
3.5250 -2.5839 -0.2552
6.7396 -0.8572 1.4020
4.7014 -1.9532 0.4301
6.7561 -0.7239 0.3936
6.8916 -0.6327 0.3090
6.8146 -0.6678 0.2199
7.0813 -0.4961 0.1164
6.5976 -0.7766 0.0521
6.5902 -0.7701 -0.0365
6.5830 -0.7633 -0.1270
5.8739 -1.1698 -0.2597
5.6880 -1.2766 -0.2921
5.1646 -1.5902 -0.2793
4.8407 -1.7832 -0.2797
4.5927 -1.9317 -0.2748
4.4026 -2.0456 -0.2692
4.3157 -2.0984 -0.2617
4.2580 -2.1322 -0.2663
4.1577 -2.1910 -0.2748
4.0525 -2.2547 -0.2661
3.9658 -2.3074 -0.2581
3.8997 -2.3469 -0.2572
3.8655 -2.3680 -0.2518
3.8453 -2.3791 -0.2590
3.8228 -2.3921 -0.2624
3.7921 -2.4115 -0.2538
3.7757 -2.4203 -0.2611
3.7543 -2.4332 -0.2604
3.7163 -2.4558 -0.2607
3.6986 -2.4664 -0.2604
3.6808 -2.4773 -0.2582
3.6661 -2.4858 -0.2598
3.6502 -2.4956 -0.2578
3.6195 -2.5147 -0.2512
3.6072 -2.5219 -0.2519
3.5948 -2.5294 -0.2509
3.5851 -2.5348 -0.2547
3.5764 -2.5392 -0.2605
3.5634 -2.5477 -0.2543
3.5547 -2.5525 -0.2580
3.5462 -2.5571 -0.2614
3.5354 -2.5641 -0.2569
3.5256 -2.5702 -0.2544
6.7997 -0.7341 1.4599
6.8887 -0.6732 1.4239
7.0157 -0.5796 1.3232
6.9088 -0.6329 1.2224
6.7432 -0.7216 1.1103
6.7381 -0.7149 1.0388
6.8528 -0.6150 0.8363
4.6272 -1.9542 0.4027
6.6566 -0.6802 0.4136
6.6827 -0.6523 0.3298
6.7101 -0.6230 0.2425
6.6693 -0.6366 0.1545
6.6623 -0.6286 0.0642
6.5876 -0.6637 -0.0214
6.5468 -0.6773 -0.1094
6.5059 -0.6909 -0.1974
6.4972 -0.6834 -0.2914
5.2653 -1.4639 -0.2464
5.1562 -1.5283 -0.2766
4.8608 -1.7121 -0.2898
4.7273 -1.7962 -0.2890
4.6018 -1.8758 -0.2833
4.3919 -2.0097 -0.2692
4.2317 -2.1121 -0.2570
4.1312 -2.1742 -0.2644
4.0390 -2.2322 -0.2645
3.8836 -2.3315 -0.2521
3.8101 -2.3766 -0.2600
3.7861 -2.3918 -0.2594
3.7669 -2.4034 -0.2632
3.7452 -2.4172 -0.2619
3.7022 -2.4453 -0.2542
3.6712 -2.4642 -0.2582
3.6385 -2.4854 -0.2533
3.6110 -2.5029 -0.2520
3.5985 -2.5108 -0.2518
3.5848 -2.5199 -0.2477
3.5762 -2.5245 -0.2538
3.5654 -2.5313 -0.2540
3.5553 -2.5375 -0.2548
3.5455 -2.5436 -0.2551
3.5359 -2.5497 -0.2549
3.5265 -2.5557 -0.2541
3.5178 -2.5612 -0.2542
3.5096 -2.5662 -0.2550
7.0368 -0.5176 1.7173
6.7403 -0.6774 1.4787
6.7959 -0.6336 1.4330
6.7000 -0.6824 1.3367
6.7863 -0.6190 1.2958
6.7495 -0.6312 1.2167
6.7128 -0.6434 1.1376
6.7695 -0.5970 1.0799
7.0087 -0.4349 1.0563
7.0009 -0.4150 0.8924
4.5654 -1.9540 0.4072
6.4974 -0.6777 0.4306
6.7163 -0.5208 0.3530
6.7449 -0.4881 0.2635
6.6674 -0.5258 0.1740
6.6607 -0.5161 0.0820
6.3941 -0.6820 0.0119
6.6105 -0.5209 -0.1037
6.6379 -0.4871 -0.2061
5.8449 -1.0069 -0.2422
5.6367 -1.1402 -0.2722
5.2337 -1.4128 -0.2359
5.1139 -1.4879 -0.2632
4.9495 -1.5961 -0.2682
4.8486 -1.6600 -0.2876
4.6739 -1.7784 -0.2699
4.5762 -1.8422 -0.2760
4.3736 -1.9780 -0.2653
4.0915 -2.1682 -0.2443
4.0660 -2.1826 -0.2606
4.0216 -2.2120 -0.2601
3.9436 -2.2639 -0.2587
3.9194 -2.2786 -0.2680
3.8251 -2.3421 -0.2609
3.8033 -2.3559 -0.2650
3.7790 -2.3721 -0.2641
3.7525 -2.3907 -0.2580
3.6936 -2.4299 -0.2563
3.6604 -2.4519 -0.2562
3.6442 -2.4629 -0.2544
3.6279 -2.4743 -0.2507
3.6033 -2.4900 -0.2547
3.5896 -2.4996 -0.2516
3.5789 -2.5062 -0.2542
3.5575 -2.5202 -0.2554
3.5459 -2.5285 -0.2518
3.5355 -2.5357 -0.2498
3.5265 -2.5415 -0.2508
3.5173 -2.5477 -0.2501
3.5091 -2.5529 -0.2514
3.5018 -2.5572 -0.2549
3.4944 -2.5619 -0.2567
6.7768 -0.5706 1.5961
6.7410 -0.5825 1.5191
6.7976 -0.5352 1.4737
6.7294 -0.5677 1.3844
6.6930 -0.5798 1.3060
6.7812 -0.5109 1.2628
6.8771 -0.4361 1.2164
6.9076 -0.4033 1.1487
4.8183 -1.7358 0.4062
6.7159 -0.4061 0.3768
6.7449 -0.3703 0.2859
6.7384 -0.3590 0.1921
6.5228 -0.4952 0.1084
6.4184 -0.5540 0.0250
6.3780 -0.5674 -0.0621
6.3376 -0.5808 -0.1492
6.1281 -0.7175 -0.2060
5.8086 -0.9366 -0.2285
5.3334 -1.2742 -0.1940
5.1531 -1.3971 -0.2117
5.1394 -1.3966 -0.2711
4.7144 -1.6989 -0.2382
4.6670 -1.7265 -0.2706
4.5230 -1.8295 -0.2559
4.3586 -1.9430 -0.2633
4.1167 -2.1229 -0.1985
4.0739 -2.1517 -0.2051
4.0556 -2.1608 -0.2266
4.0497 -2.1597 -0.2573
4.0055 -2.1906 -0.2567
3.9367 -2.2375 -0.2634
3.9096 -2.2554 -0.2701
3.8376 -2.3077 -0.2577
3.8157 -2.3221 -0.2631
3.7895 -2.3406 -0.2617
3.7646 -2.3584 -0.2596
3.7404 -2.3759 -0.2560
3.7245 -2.3859 -0.2623
3.7040 -2.4005 -0.2605
3.6684 -2.4255 -0.2595
3.6521 -2.4370 -0.2589
3.6342 -2.4504 -0.2536
3.5931 -2.4793 -0.2524
3.5841 -2.4843 -0.2598
3.5714 -2.4936 -0.2573
3.5577 -2.5043 -0.2508
3.5490 -2.5095 -0.2557
3.5369 -2.5190 -0.2500
3.5282 -2.5246 -0.2527
3.5189 -2.5310 -0.2527
3.5103 -2.5369 -0.2534
3.5022 -2.5423 -0.2549
3.4933 -2.5490 -0.2521
3.4866 -2.5529 -0.2566
6.8134 -0.4606 1.7174
6.7164 -0.5129 1.6153
6.7407 -0.4848 1.5607
6.6157 -0.5561 1.4509
6.6380 -0.5291 1.3939
6.6315 -0.5211 1.3255
6.5951 -0.5331 1.2471
6.6486 -0.4837 1.1932
6.7052 -0.4314 1.1362
6.5604 -0.3660 0.2178
6.5183 -0.3800 0.1271
6.4431 -0.4188 0.0390
6.2505 -0.5468 -0.0338
6.2692 -0.5155 -0.1276
6.1996 -0.5514 -0.2095
5.7303 -0.8973 -0.2058
4.6799 -1.6659 -0.2272
4.6595 -1.6727 -0.2712
4.4452 -1.8305 -0.2702
4.0905 -2.1067 -0.1886
4.0587 -2.1209 -0.2377
4.0463 -2.1250 -0.2645
3.9879 -2.1702 -0.2522
3.9624 -2.1867 -0.2645
3.9329 -2.2071 -0.2715
3.8563 -2.2656 -0.2596
3.8352 -2.2796 -0.2682
3.7762 -2.3246 -0.2591
3.7557 -2.3391 -0.2625
3.7314 -2.3577 -0.2586
3.6909 -2.3879 -0.2563
3.6761 -2.3980 -0.2611
3.6581 -2.4116 -0.2591
3.6401 -2.4256 -0.2550
3.6235 -2.4383 -0.2518
3.5955 -2.4593 -0.2501
3.5837 -2.4676 -0.2520
3.5714 -2.4767 -0.2513
3.5611 -2.4838 -0.2541
3.5490 -2.4933 -0.2509
3.5392 -2.5002 -0.2526
3.5289 -2.5080 -0.2515
3.5095 -2.5228 -0.2486
3.5017 -2.5279 -0.2518
3.4931 -2.5344 -0.2509
3.4860 -2.5390 -0.2545
3.4769 -2.5467 -0.2488
6.8155 -0.3581 1.7639
6.6852 -0.4349 1.6462
6.9407 -0.2441 1.6811
7.0849 -0.1288 1.6638
6.8622 -0.2702 1.5121
6.7234 -0.3537 1.3951
6.7171 -0.3437 1.3226
6.5854 -0.4233 1.2133
6.9527 -0.1440 1.2388
6.9105 -0.1580 1.1480
6.5329 -0.4170 0.9845
4.5154 -1.8732 0.4625
4.4226 -1.9367 0.4219
5.3501 -1.1846 0.2596
5.2845 -1.2239 0.2035
5.0764 -1.3764 0.1607
4.9939 -1.4311 0.1157
5.0917 -1.3051 -0.1285
4.6387 -1.6387 -0.2137
4.6513 -1.6169 -0.2717
4.5671 -1.6792 -0.2865
4.4395 -1.7808 -0.2733
4.4019 -1.8042 -0.3011
4.0693 -2.0864 -0.1819
4.1117 -2.0400 -0.2478
4.0298 -2.1007 -0.2614
3.9796 -2.1407 -0.2557
3.9500 -2.1619 -0.2647
3.9186 -2.1852 -0.2698
3.8797 -2.2164 -0.2645
3.8131 -2.2697 -0.2563
3.7868 -2.2901 -0.2561
3.7628 -2.3086 -0.2565
3.7400 -2.3263 -0.2564
3.7184 -2.3432 -0.2557
3.6818 -2.3709 -0.2587
3.6637 -2.3851 -0.2579
3.6475 -2.3975 -0.2586
3.6299 -2.4119 -0.2548
3.6151 -2.4235 -0.2546
3.6029 -2.4322 -0.2582
3.5883 -2.4440 -0.2553
3.5630 -2.4641 -0.2531
3.5512 -2.4735 -0.2519
3.5417 -2.4802 -0.2553
3.5313 -2.4883 -0.2550
3.5201 -2.4979 -0.2507
3.5124 -2.5028 -0.2560
3.5034 -2.5096 -0.2563
3.4853 -2.5246 -0.2518
3.4777 -2.5302 -0.2530
3.4706 -2.5353 -0.2551
7.4806 0.2418 2.0241
7.6298 0.3681 2.0038
7.1316 0.0230 1.7302
6.5921 -0.2608 1.0331
6.5525 -0.2740 0.9477
4.4563 -1.8704 0.4365
4.9850 -1.4242 0.3718
5.1819 -1.2418 0.2752
5.0461 -1.3296 0.1728
4.9272 -1.4172 0.1309
4.9885 -1.3537 0.0708
5.0596 -1.2533 -0.1174
4.8931 -1.3854 -0.1345
4.6174 -1.5940 -0.2079
4.6368 -1.5644 -0.2696
4.3091 -1.8450 -0.2112
4.2887 -1.8543 -0.2441
4.0592 -2.0554 -0.1826
4.0992 -2.0081 -0.2480
4.0609 -2.0370 -0.2585
4.0235 -2.0656 -0.2671
3.9371 -2.1366 -0.2647
3.8699 -2.1909 -0.2675
3.8323 -2.2233 -0.2598
3.8090 -2.2410 -0.2657
3.7760 -2.2698 -0.2573
3.7562 -2.2847 -0.2632
3.7306 -2.3065 -0.2592
3.7073 -2.3262 -0.2558
3.6709 -2.3554 -0.2586
3.6550 -2.3677 -0.2614
3.6377 -2.3821 -0.2598
3.6196 -2.3981 -0.2546
3.6038 -2.4117 -0.2518
3.5909 -2.4217 -0.2536
3.5780 -2.4323 -0.2537
3.5658 -2.4421 -0.2541
3.5547 -2.4508 -0.2558
3.5421 -2.4620 -0.2517
3.5338 -2.4673 -0.2585
3.5221 -2.4778 -0.2541
3.5112 -2.4876 -0.2499
3.5029 -2.4937 -0.2530
3.4945 -2.5003 -0.2546
3.4854 -2.5083 -0.2521
3.4783 -2.5131 -0.2563
3.4693 -2.5215 -0.2515
6.7852 -0.1672 1.8464
4.4438 -1.8378 0.4457
4.4180 -1.8521 0.4134
5.0258 -1.2732 0.1843
4.0772 -2.0732 0.1197
4.6426 -1.5035 -0.2207
4.6211 -1.5107 -0.2671
4.2413 -1.8584 -0.1812
4.0466 -2.0257 -0.1818
4.0941 -1.9672 -0.2539
4.0525 -2.0008 -0.2625
4.0120 -2.0341 -0.2688
3.9538 -2.0873 -0.2559
3.9175 -2.1179 -0.2585
3.8856 -2.1443 -0.2626
3.8573 -2.1674 -0.2678
3.8233 -2.1976 -0.2639
3.7923 -2.2251 -0.2605
3.7669 -2.2467 -0.2612
3.7397 -2.2712 -0.2569
3.7158 -2.2923 -0.2545
3.6950 -2.3103 -0.2544
3.6819 -2.3190 -0.2647
3.6420 -2.3552 -0.2572
3.6234 -2.3724 -0.2524
3.5810 -2.4085 -0.2537
3.5688 -2.4187 -0.2550
3.5448 -2.4394 -0.2545
3.5346 -2.4477 -0.2567
3.5132 -2.4667 -0.2542
3.5019 -2.4779 -0.2480
3.4938 -2.4841 -0.2512
3.4772 -2.4980 -0.2528
3.4704 -2.5025 -0.2583
3.4625 -2.5095 -0.2574
4.7211 -1.5629 0.5349
4.1604 -2.0077 0.2974
4.1960 -1.9684 0.2709
4.0553 -2.0781 0.2039
4.0211 -2.1039 0.1844
4.0144 -2.1038 0.1611
4.0156 -2.0959 0.1357
4.1042 -2.0022 0.0854
4.2045 -1.8440 -0.1672
4.0201 -2.0194 -0.1359
4.0679 -1.9472 -0.2446
4.0344 -1.9737 -0.2590
3.9408 -2.0593 -0.2562
3.9063 -2.0894 -0.2606
3.8700 -2.1224 -0.2600
3.8380 -2.1512 -0.2608
3.8037 -2.1835 -0.2559
3.7549 -2.2263 -0.2615
3.7039 -2.2745 -0.2542
3.6660 -2.3080 -0.2572
3.6502 -2.3212 -0.2614
3.6302 -2.3409 -0.2556
3.6017 -2.3653 -0.2609
3.5873 -2.3784 -0.2606
3.5687 -2.3986 -0.2482
3.5476 -2.4154 -0.2570
3.5355 -2.4269 -0.2551
3.5234 -2.4388 -0.2514
3.5133 -2.4477 -0.2520
3.5042 -2.4554 -0.2543
3.4851 -2.4734 -0.2516
3.4773 -2.4797 -0.2545
3.4686 -2.4882 -0.2523
3.4612 -2.4944 -0.2543
3.4537 -2.5011 -0.2546
4.6428 -1.5763 0.5358
4.0887 -2.0577 0.3703
4.0921 -2.0482 0.3487
4.0895 -2.0441 0.3261
4.0072 -2.0902 0.2133
4.0417 -2.0487 0.1840
4.0364 -2.0466 0.1590
4.1023 -1.9628 0.0869
4.0918 -1.9648 0.0590
4.7089 -1.2852 -0.2535
4.0055 -1.9915 -0.1335
4.0303 -1.9292 -0.2672
3.9726 -1.9867 -0.2589
3.9343 -2.0220 -0.2632
3.8625 -2.0896 -0.2665
3.7919 -2.1597 -0.2572
3.7339 -2.2173 -0.2497
3.7165 -2.2315 -0.2583
3.6967 -2.2493 -0.2617
3.6740 -2.2721 -0.2580
3.6563 -2.2883 -0.2604
3.6212 -2.3221 -0.2597
3.5866 -2.3577 -0.2509
3.5619 -2.3796 -0.2565
3.5361 -2.4054 -0.2525
3.5253 -2.4154 -0.2537
3.5158 -2.4234 -0.2572
3.5049 -2.4344 -0.2551
3.4962 -2.4417 -0.2586
3.4759 -2.4637 -0.2497
3.4684 -2.4696 -0.2538
3.4597 -2.4789 -0.2505
3.4529 -2.4841 -0.2550
3.4458 -2.4904 -0.2567
3.4384 -2.4978 -0.2556
6.6159 0.0580 1.8552
4.0281 -2.1325 0.5311
4.0194 -2.1354 0.5123
4.0107 -2.1383 0.4935
4.0055 -2.0786 0.2859
3.9856 -2.0919 0.2645
4.1079 -1.9587 0.2325
4.0828 -1.9764 0.2081
4.0645 -1.9871 0.1835
3.9957 -2.0518 0.1692
4.6444 -1.2544 -0.2923
4.0093 -1.9403 -0.1434
4.0550 -1.8590 -0.2563
4.0066 -1.9066 -0.2597
3.9705 -1.9398 -0.2699
3.9221 -1.9900 -0.2652
3.8887 -2.0218 -0.2711
3.8456 -2.0676 -0.2632
3.8168 -2.0952 -0.2675
3.7307 -2.1833 -0.2632
3.7017 -2.2152 -0.2547
3.6841 -2.2308 -0.2612
3.6670 -2.2463 -0.2667
3.6487 -2.2643 -0.2682
3.6273 -2.2879 -0.2614
3.5943 -2.3216 -0.2598
3.5808 -2.3344 -0.2625
3.5521 -2.3646 -0.2583
3.5398 -2.3769 -0.2584
3.5178 -2.3982 -0.2611
3.5063 -2.4108 -0.2579
3.4949 -2.4239 -0.2529
3.4866 -2.4308 -0.2575
3.4766 -2.4419 -0.2541
3.4693 -2.4474 -0.2601
3.4607 -2.4565 -0.2588
3.4519 -2.4666 -0.2546
3.4439 -2.4755 -0.2521
3.4367 -2.4825 -0.2527
6.3932 0.0014 1.7363
4.1544 -1.9924 0.6057
4.1315 -2.0076 0.5787
4.1133 -2.0186 0.5539
4.1048 -2.0203 0.5326
4.0895 -2.0286 0.5091
4.0735 -2.0377 0.4858
4.0567 -2.0476 0.4626
3.9982 -2.0991 0.4309
3.9727 -2.1184 0.4080
3.9693 -2.1157 0.3895
3.9688 -2.1099 0.3709
3.9697 -2.1026 0.3520
3.9650 -2.1009 0.3321
3.9834 -2.0747 0.3126
4.1303 -1.9023 0.2638
4.1199 -1.9041 0.2366
4.1101 -1.9052 0.2092
3.9848 -2.0347 0.1987
3.9481 -2.0675 0.1805
3.9472 -2.0602 0.1561
4.5744 -1.2515 -0.2660
4.0112 -1.9006 -0.1146
3.9955 -1.9080 -0.1420
4.0037 -1.8841 -0.1867
4.0404 -1.8215 -0.2566
3.9920 -1.8718 -0.2600
3.9560 -1.9065 -0.2704
3.8779 -1.9878 -0.2752
3.8275 -2.0468 -0.2587
3.8041 -2.0681 -0.2691
3.7159 -2.1647 -0.2606
3.6923 -2.1899 -0.2600
3.6717 -2.2114 -0.2613
3.6540 -2.2286 -0.2656
3.6279 -2.2612 -0.2514
3.6172 -2.2680 -0.2648
3.5989 -2.2887 -0.2609
3.5827 -2.3065 -0.2590
3.5671 -2.3242 -0.2559
3.5519 -2.3417 -0.2517
3.5402 -2.3532 -0.2545
3.5282 -2.3659 -0.2547
3.5172 -2.3771 -0.2560
3.5065 -2.3883 -0.2567
3.4956 -2.4006 -0.2546
3.4858 -2.4109 -0.2547
3.4774 -2.4185 -0.2585
3.4682 -2.4287 -0.2575
3.4597 -2.4374 -0.2581
3.4507 -2.4486 -0.2535
3.4428 -2.4571 -0.2529
3.4356 -2.4644 -0.2540
3.4289 -2.4704 -0.2572
3.4214 -2.4800 -0.2525
4.1302 -1.9886 0.6265
4.1031 -2.0083 0.5978
4.0949 -2.0099 0.5769
4.0732 -2.0183 0.5332
4.0615 -2.0233 0.5112
4.0532 -2.0249 0.4902
4.0448 -2.0266 0.4691
4.0348 -2.0299 0.4476
4.0280 -2.0299 0.4266
4.0180 -2.0332 0.4050
4.0079 -2.0366 0.3833
4.0115 -2.0252 0.3631
4.0117 -2.0171 0.3417
4.0093 -2.0117 0.3196
4.0045 -2.0087 0.2969
4.0364 -1.9550 0.2475
3.9247 -2.0580 0.1871
3.9191 -2.0558 0.1641
3.9268 -2.0374 0.1372
3.9907 -1.8759 -0.1088
3.9685 -1.8924 -0.1318
3.9552 -1.8968 -0.1605
3.9440 -1.8983 -0.1908
3.9465 -1.8798 -0.2335
3.9368 -1.8785 -0.2668
3.8932 -1.9276 -0.2660
3.8472 -1.9821 -0.2580
3.8093 -2.0259 -0.2541
3.7864 -2.0477 -0.2648
3.7340 -2.1043 -0.2704
3.7030 -2.1424 -0.2612
3.6743 -2.1781 -0.2515
3.6351 -2.2212 -0.2536
3.6178 -2.2400 -0.2552
3.6031 -2.2545 -0.2604
3.5717 -2.2899 -0.2598
3.5413 -2.3267 -0.2522
3.5307 -2.3365 -0.2579
3.5190 -2.3495 -0.2585
3.4965 -2.3751 -0.2571
3.4866 -2.3858 -0.2582
3.4756 -2.4002 -0.2525
3.4671 -2.4087 -0.2553
3.4592 -2.4159 -0.2597
3.4499 -2.4280 -0.2550
3.4420 -2.4369 -0.2550
3.4341 -2.4464 -0.2534
3.4268 -2.4545 -0.2535
3.4203 -2.4606 -0.2567
3.4137 -2.4673 -0.2584
4.0778 -2.0075 0.6165
4.0715 -2.0072 0.5969
4.0634 -2.0087 0.5765
4.0486 -2.0172 0.5535
4.0405 -2.0187 0.5331
4.0356 -2.0167 0.5137
4.0291 -2.0165 0.4934
4.0176 -2.0215 0.4717
4.0117 -2.0205 0.4514
4.0079 -2.0170 0.4314
3.9894 -2.0220 0.3885
3.9845 -2.0195 0.3675
3.9890 -2.0061 0.3469
3.9736 -2.0154 0.3244
3.9697 -2.0114 0.3024
3.9628 -2.0107 0.2799
3.9700 -1.9929 0.2564
3.9673 -1.9866 0.2325
3.9269 -2.0268 0.2132
3.9004 -2.0504 0.1938
3.8935 -2.0497 0.1714
4.0061 -1.8439 -0.0134
3.9881 -1.8546 -0.0400
3.9792 -1.8528 -0.0712
3.9739 -1.8457 -0.1053
3.9544 -1.8586 -0.1306
3.8945 -1.9319 -0.1243
3.8675 -1.9581 -0.1389
3.8510 -1.9689 -0.1610
3.8347 -1.9797 -0.1826
3.8237 -1.9667 -0.2483
3.7937 -2.0004 -0.2528
3.7672 -2.0294 -0.2587
3.7402 -2.0603 -0.2611
3.7170 -2.0858 -0.2660
3.6657 -2.1491 -0.2592
3.6257 -2.1962 -0.2597
3.6051 -2.2227 -0.2544
3.5908 -2.2375 -0.2598
3.5623 -2.2689 -0.2655
3.5317 -2.3088 -0.2562
3.5075 -2.3376 -0.2557
3.4972 -2.3487 -0.2583
3.4854 -2.3645 -0.2536
3.4763 -2.3740 -0.2567
3.4678 -2.3822 -0.2614
3.4579 -2.3956 -0.2573
3.4493 -2.4055 -0.2576
3.4414 -2.4141 -0.2596
3.4327 -2.4265 -0.2542
3.4259 -2.4329 -0.2585
3.4183 -2.4431 -0.2553
3.4114 -2.4513 -0.2551
3.4050 -2.4582 -0.2568
4.0302 -2.0108 0.5749
4.0288 -2.0050 0.5575
4.0224 -2.0047 0.5378
4.0158 -2.0044 0.5179
4.0092 -2.0041 0.4977
3.9994 -2.0074 0.4766
3.9926 -2.0072 0.4562
3.9767 -2.0174 0.4335
3.9699 -2.0172 0.4130
3.9615 -2.0187 0.3921
3.9610 -2.0109 0.3721
3.9552 -2.0091 0.3509
3.9486 -2.0082 0.3294
3.9487 -1.9988 0.3078
3.9404 -1.9997 0.2856
3.9374 -1.9940 0.2629
3.9269 -1.9974 0.2404
3.8992 -2.0233 0.2201
3.8685 -2.0441 0.1786
3.9468 -1.8751 0.0110
3.9571 -1.8142 -0.1021
3.9433 -1.8187 -0.1317
3.9256 -1.8296 -0.1582
3.9158 -1.8279 -0.1910
3.7860 -2.0084 -0.1475
3.7713 -2.0182 -0.1676
3.7523 -2.0356 -0.1822
3.7330 -2.0544 -0.1948
3.7306 -2.0428 -0.2290
3.7146 -2.0562 -0.2447
3.6984 -2.0703 -0.2591
3.6799 -2.0894 -0.2684
3.6516 -2.1291 -0.2580
3.6302 -2.1567 -0.2562
3.6112 -2.1803 -0.2563
3.5966 -2.1957 -0.2631
3.5775 -2.2218 -0.2576
3.5473 -2.2597 -0.2572
3.5337 -2.2766 -0.2574
3.5217 -2.2905 -0.2600
3.5095 -2.3057 -0.2601
3.4982 -2.3193 -0.2611
3.4866 -2.3349 -0.2585
3.4766 -2.3469 -0.2597
3.4662 -2.3609 -0.2573
3.4571 -2.3719 -0.2580
3.4477 -2.3850 -0.2550
3.4395 -2.3945 -0.2565
3.4312 -2.4059 -0.2542
3.4243 -2.4119 -0.2601
3.4165 -2.4232 -0.2566
3.4094 -2.4323 -0.2559
3.4027 -2.4407 -0.2558
3.3963 -2.4484 -0.2564
4.0235 -1.9921 0.6006
4.0091 -2.0008 0.5779
4.0060 -1.9967 0.5600
4.0027 -1.9926 0.5418
3.9977 -1.9904 0.5225
3.9895 -1.9918 0.5020
3.9858 -1.9879 0.4827
3.9616 -1.9998 0.4391
3.9463 -2.0010 0.3976
3.9364 -2.0043 0.3763
3.9341 -1.9980 0.3559
3.9342 -1.9883 0.3350
3.9227 -1.9934 0.3130
3.9112 -1.9985 0.2912
3.9081 -1.9925 0.2690
3.9067 -1.9839 0.2462
3.8962 -1.9874 0.2237
3.8525 -2.0373 0.2069
3.8392 -2.0456 0.1866
3.8376 -2.0371 0.1635
3.9238 -1.8719 0.0511
3.9200 -1.8629 0.0204
3.9127 -1.8589 -0.0095
3.9259 -1.7869 -0.1286
3.9144 -1.7875 -0.1604
3.9418 -1.7210 -0.2266
3.9268 -1.7260 -0.2589
3.8916 -1.7674 -0.2702
3.7092 -2.0315 -0.2187
3.6950 -2.0420 -0.2366
3.6825 -2.0494 -0.2565
3.6643 -2.0690 -0.2661
3.6411 -2.1005 -0.2640
3.6195 -2.1303 -0.2615
3.6022 -2.1515 -0.2649
3.5842 -2.1755 -0.2643
3.5639 -2.2067 -0.2546
3.5488 -2.2265 -0.2547
3.5367 -2.2395 -0.2610
3.5218 -2.2613 -0.2566
3.5103 -2.2747 -0.2603
3.4977 -2.2925 -0.2580
3.4872 -2.3050 -0.2610
3.4757 -2.3217 -0.2576
3.4665 -2.3318 -0.2619
3.4556 -2.3489 -0.2558
3.4467 -2.3603 -0.2567
3.4381 -2.3715 -0.2569
3.4289 -2.3868 -0.2501
3.4217 -2.3944 -0.2543
3.4146 -2.4025 -0.2570
3.4078 -2.4099 -0.2604
3.4008 -2.4193 -0.2599
3.3940 -2.4293 -0.2577
3.3880 -2.4358 -0.2609
4.0074 -1.9767 0.6058
4.0058 -1.9705 0.5887
3.9945 -1.9756 0.5672
3.9817 -1.9825 0.5451
3.9752 -1.9820 0.5255
3.9745 -1.9742 0.5078
3.9661 -1.9756 0.4871
3.9520 -1.9844 0.4647
3.9367 -1.9854 0.4236
3.9296 -1.9851 0.4029
3.9217 -1.9857 0.3819
3.9132 -1.9872 0.3607
3.9059 -1.9870 0.3396
3.8946 -1.9920 0.3180
3.8859 -1.9936 0.2965
3.8827 -1.9873 0.2748
3.8805 -1.9793 0.2524
3.8691 -1.9844 0.2304
3.8348 -2.0233 0.2124
3.8193 -2.0351 0.1926
3.8153 -2.0298 0.1703
3.8650 -1.9409 0.1306
3.8852 -1.8954 0.0954
3.8961 -1.8630 0.0606
3.8952 -1.8485 0.0288
3.8933 -1.8351 -0.0038
3.8813 -1.7822 -0.1451
3.8938 -1.7385 -0.1982
3.9058 -1.6937 -0.2551
3.8764 -1.7262 -0.2724
3.8383 -1.7770 -0.2770
3.7845 -1.8619 -0.2572
3.7597 -1.8909 -0.2686
3.6926 -1.9909 -0.2557
3.6758 -2.0071 -0.2701
3.6445 -2.0577 -0.2562
3.6053 -2.1103 -0.2604
3.5701 -2.1588 -0.2617
3.5513 -2.1885 -0.2546
3.5350 -2.2133 -0.2504
3.5232 -2.2266 -0.2568
3.5100 -2.2450 -0.2566
3.4851 -2.2814 -0.2532
3.4753 -2.2927 -0.2580
3.4648 -2.3076 -0.2576
3.4551 -2.3209 -0.2583
3.4450 -2.3370 -0.2542
3.4366 -2.3471 -0.2573
3.4282 -2.3586 -0.2577
3.4200 -2.3707 -0.2564
3.4124 -2.3813 -0.2566
3.4052 -2.3903 -0.2584
3.3974 -2.4057 -0.2495
3.3913 -2.4110 -0.2558
3.3849 -2.4206 -0.2548
3.3790 -2.4265 -0.2592
3.9933 -1.9751 0.6429
3.9920 -1.9686 0.6270
3.9849 -1.9688 0.6078
3.9878 -1.9568 0.5932
3.9797 -1.9581 0.5730
3.9760 -1.9537 0.5546
3.9618 -1.9626 0.5318
3.9535 -1.9640 0.5114
3.9495 -1.9597 0.4924
3.9369 -1.9667 0.4703
3.9089 -1.9746 0.4074
3.9030 -1.9724 0.3869
3.8931 -1.9757 0.3656
3.8864 -1.9745 0.3447
3.8815 -1.9705 0.3235
3.8702 -1.9757 0.3019
3.8668 -1.9691 0.2802
3.8632 -1.9627 0.2579
3.8581 -1.9581 0.2352
3.8206 -2.0040 0.2172
3.8019 -2.0213 0.1979
3.7945 -2.0210 0.1767
3.8607 -1.8843 0.1034
3.7901 -1.9592 0.0482
3.8713 -1.7772 -0.0689
3.8581 -1.7600 -0.1378
3.8495 -1.7546 -0.1720
3.8588 -1.7125 -0.2253
3.8499 -1.7058 -0.2627
3.8162 -1.7510 -0.2714
3.7722 -1.8206 -0.2627
3.7422 -1.8625 -0.2671
3.7132 -1.9041 -0.2693
3.6867 -1.9421 -0.2714
3.6306 -2.0323 -0.2575
3.6107 -2.0605 -0.2599
3.5921 -2.0869 -0.2620
3.5741 -2.1130 -0.2627
3.5569 -2.1389 -0.2619
3.5244 -2.1900 -0.2560
3.5130 -2.2028 -0.2636
3.4996 -2.2232 -0.2623
3.4872 -2.2420 -0.2616
3.4745 -2.2636 -0.2563
3.4648 -2.2751 -0.2614
3.4540 -2.2926 -0.2585
3.4359 -2.3167 -0.2634
3.4264 -2.3338 -0.2578
3.4184 -2.3440 -0.2605
3.4099 -2.3594 -0.2552
3.4031 -2.3665 -0.2609
3.3887 -2.3901 -0.2566
3.3821 -2.3999 -0.2563
3.3760 -2.4082 -0.2577
3.3701 -2.4150 -0.2612
3.9781 -1.9418 0.6176
3.9745 -1.9372 0.5998
3.9678 -1.9366 0.5803
3.9610 -1.9360 0.5605
3.9511 -1.9392 0.5394
3.9371 -1.9482 0.5167
3.9406 -1.9334 0.5003
3.9320 -1.9348 0.4793
3.9008 -1.9466 0.4145
3.8895 -1.9518 0.3928
3.8765 -1.9597 0.3709
3.8629 -1.9686 0.3492
3.8567 -1.9663 0.3284
3.8468 -1.9696 0.3071
3.8497 -1.9528 0.2856
3.8481 -1.9425 0.2633
3.8395 -1.9432 0.2409
3.8144 -1.9710 0.2209
3.7825 -2.0111 0.2038
3.7792 -2.0036 0.1816
3.8427 -1.8456 0.0789
3.8469 -1.8197 0.0452
3.8318 -1.8290 0.0203
4.1230 -1.2156 -0.2558
4.0946 -1.2380 -0.2942
3.8277 -1.7288 -0.1662
3.8241 -1.7113 -0.2068
3.8232 -1.6863 -0.2527
3.8020 -1.7063 -0.2758
3.7582 -1.7800 -0.2668
3.7292 -1.8221 -0.2727
3.6952 -1.8787 -0.2666
3.6443 -1.9569 -0.2690
3.6197 -1.9975 -0.2654
3.5785 -2.0631 -0.2635
3.5618 -2.0874 -0.2667
3.5422 -2.1227 -0.2586
3.5266 -2.1473 -0.2580
3.5115 -2.1725 -0.2554
3.4996 -2.1880 -0.2608
3.4871 -2.2073 -0.2614
3.4748 -2.2272 -0.2600
3.4642 -2.2423 -0.2627
3.4534 -2.2596 -0.2620
3.4423 -2.2805 -0.2557
3.4335 -2.2921 -0.2595
3.4246 -2.3059 -0.2598
3.4159 -2.3203 -0.2583
3.4082 -2.3308 -0.2612
3.4002 -2.3450 -0.2582
3.3929 -2.3560 -0.2588
3.3861 -2.3655 -0.2609
3.3795 -2.3756 -0.2613
3.3730 -2.3872 -0.2590
3.3668 -2.3971 -0.2583
3.3612 -2.4026 -0.2642
3.9431 -1.9512 0.6127
3.9552 -1.9255 0.6035
3.9556 -1.9149 0.5876
3.9508 -1.9113 0.5687
3.9451 -1.9087 0.5491
3.9351 -1.9120 0.5276
3.9305 -1.9076 0.5081
3.9265 -1.9022 0.4884
3.9196 -1.9008 0.4675
3.8902 -1.9210 0.4213
3.8727 -1.9357 0.3981
3.8598 -1.9438 0.3762
3.8463 -1.9527 0.3545
3.8388 -1.9522 0.3335
3.8376 -1.9415 0.3127
3.8298 -1.9411 0.2910
3.8225 -1.9398 0.2692
3.8241 -1.9228 0.2462
3.7943 -1.9603 0.2267
3.7684 -1.9920 0.2085
3.7618 -1.9898 0.1870
3.7590 -1.9802 0.1640
3.7837 -1.9183 0.1300
3.8211 -1.8290 0.0859
3.8134 -1.8249 0.0583
4.0675 -1.1891 -0.2892
3.8043 -1.7063 -0.1587
3.7904 -1.7109 -0.1887
3.7986 -1.6627 -0.2449
3.7776 -1.6831 -0.2681
3.7328 -1.7651 -0.2558
3.7051 -1.8072 -0.2622
3.6806 -1.8429 -0.2702
3.6263 -1.9363 -0.2647
3.5832 -2.0081 -0.2643
3.5634 -2.0422 -0.2622
3.5462 -2.0704 -0.2630
3.5302 -2.0966 -0.2636
3.5148 -2.1226 -0.2629
3.4877 -2.1666 -0.2643
3.4742 -2.1920 -0.2595
3.4637 -2.2059 -0.2651
3.4526 -2.2245 -0.2647
3.4408 -2.2494 -0.2563
3.4319 -2.2613 -0.2610
3.4227 -2.2763 -0.2614
3.4057 -2.3043 -0.2618
3.3977 -2.3182 -0.2608
3.3902 -2.3303 -0.2611
3.3830 -2.3432 -0.2598
3.3761 -2.3559 -0.2577
3.3697 -2.3647 -0.2605
3.3634 -2.3773 -0.2571
3.9234 -1.9513 0.6300
3.9223 -1.9432 0.6149
3.9360 -1.9139 0.6072
3.9468 -1.8880 0.5968
3.9437 -1.8813 0.5786
3.9432 -1.8706 0.5612
3.9269 -1.8830 0.5366
3.9254 -1.8735 0.5181
3.9209 -1.8680 0.4980
3.9181 -1.8597 0.4781
3.8864 -1.8965 0.4493
3.8695 -1.9105 0.4258
3.8583 -1.9158 0.4039
3.8472 -1.9211 0.3822
3.8349 -1.9282 0.3604
3.8261 -1.9296 0.3392
3.8184 -1.9291 0.3179
3.8117 -1.9267 0.2964
3.8149 -1.9063 0.2742
3.8045 -1.9098 0.2519
3.7754 -1.9480 0.2323
3.7542 -1.9728 0.2132
3.7455 -1.9741 0.1922
3.7339 -1.9811 0.1719
3.7569 -1.9187 0.1389
4.2174 -0.8259 -0.2845
4.1298 -0.9762 -0.2908
4.0509 -1.1135 -0.2934
3.7669 -1.6885 -0.1812
3.7575 -1.6816 -0.2167
3.7365 -1.7048 -0.2375
