ply
format ascii 1.0
element vertex 2200
property float x
property float y
property float z
end_header
6.0423 1.8509 -0.1295
6.0469 1.8742 -0.1322
6.0477 1.8962 -0.1341
6.0468 1.9176 -0.1356
6.0491 1.9414 -0.1379
6.0436 1.9608 -0.1384
6.0415 1.9825 -0.1397
6.0450 2.0088 -0.1424
6.0410 2.0300 -0.1433
6.0353 2.0500 -0.1438
6.0377 2.1290 -0.1504
6.0403 2.1583 -0.1532
6.0379 2.2698 -0.1615
6.0351 2.2966 -0.1631
6.0402 2.3339 -0.1670
6.0471 2.4765 -0.1795
6.0426 2.5051 -0.1809
6.0454 2.5460 -0.1847
6.0314 2.5599 -0.1830
6.0098 2.5595 -0.1788
5.9911 2.5627 -0.1754
5.9652 2.5507 -0.1694
6.0404 1.3516 -0.0755
6.0429 1.3627 -0.0767
6.0523 1.3719 -0.0789
6.0534 1.3841 -0.0799
6.0533 1.3969 -0.0808
6.0508 1.4104 -0.0813
6.0495 1.4238 -0.0820
6.0491 1.4371 -0.0829
6.0488 1.4507 -0.0838
6.0472 1.4646 -0.0845
6.0456 1.4787 -0.0852
6.0429 1.4930 -0.0857
6.0508 1.5065 -0.0880
6.0479 1.5214 -0.0885
6.0503 1.5361 -0.0899
6.0483 1.5513 -0.0907
6.0432 1.5820 -0.0919
6.0441 1.5978 -0.0932
6.0470 1.6141 -0.0948
6.0457 1.6304 -0.0957
6.0423 1.6465 -0.0963
6.0429 1.6635 -0.0975
6.0433 1.6808 -0.0988
6.0446 1.6986 -0.1003
6.0439 1.7163 -0.1014
6.0497 1.7361 -0.1037
6.0402 1.7519 -0.1032
6.0383 1.7700 -0.1042
6.0376 1.8280 -0.1081
6.0398 1.8492 -0.1099
6.0392 1.8696 -0.1112
6.0516 1.9194 -0.1168
6.0471 1.9390 -0.1174
6.0452 1.9604 -0.1185
6.0397 1.9797 -0.1190
6.0409 2.0040 -0.1208
6.0486 2.0587 -0.1259
6.0338 2.0965 -0.1261
6.0430 2.1310 -0.1300
6.0457 2.1604 -0.1325
6.0396 2.1816 -0.1329
6.0492 2.2490 -0.1392
6.0465 2.2755 -0.1406
6.0460 2.3051 -0.1426
6.0401 2.3287 -0.1432
6.0400 2.3600 -0.1454
6.0433 2.3967 -0.1485
6.0414 2.4272 -0.1503
6.0413 2.4958 -0.1550
6.0422 2.5332 -0.1578
6.0317 2.5522 -0.1573
6.0106 2.5527 -0.1538
5.9906 2.5533 -0.1505
5.9722 2.5553 -0.1476
5.9648 2.5773 -0.1479
6.0499 1.3509 -0.0626
6.0477 1.3637 -0.0631
6.0501 1.3751 -0.0641
6.0490 1.3879 -0.0647
6.0501 1.4002 -0.0656
6.0511 1.4127 -0.0665
6.0521 1.4255 -0.0674
6.0439 1.4404 -0.0672
6.0459 1.4533 -0.0682
6.0455 1.4669 -0.0690
6.0495 1.4802 -0.0703
6.0435 1.4949 -0.0704
6.0461 1.5088 -0.0716
6.0444 1.5234 -0.0722
6.0490 1.5379 -0.0737
6.0502 1.5528 -0.0748
6.0503 1.5681 -0.0758
6.0451 1.5992 -0.0769
6.0460 1.6153 -0.0780
6.0468 1.6316 -0.0791
6.0445 1.6479 -0.0798
6.0471 1.6651 -0.0812
6.0437 1.6817 -0.0817
6.0434 1.7167 -0.0838
6.0484 1.7362 -0.0856
6.0513 1.7557 -0.0872
6.0447 1.7723 -0.0873
6.0436 1.7911 -0.0883
6.0452 1.8112 -0.0897
6.0440 1.8306 -0.0907
6.0417 1.8497 -0.0916
6.0394 1.8691 -0.0924
6.0362 1.8882 -0.0931
6.0442 1.9141 -0.0958
6.0399 1.9334 -0.0963
6.0398 1.9555 -0.0977
6.0378 1.9769 -0.0987
6.0333 1.9966 -0.0992
6.0387 2.0242 -0.1017
6.0398 2.0492 -0.1033
6.0382 2.0977 -0.1060
6.0380 2.1233 -0.1075
6.0416 2.1532 -0.1098
6.0450 2.1837 -0.1122
6.0412 2.2075 -0.1131
6.0522 2.2777 -0.1188
6.0450 2.2992 -0.1191
6.0353 2.4123 -0.1246
6.0398 2.4521 -0.1276
6.0498 2.5378 -0.1342
6.0453 2.5669 -0.1353
6.0240 2.5677 -0.1324
6.0044 2.5697 -0.1297
5.9858 2.5720 -0.1273
6.0498 1.3536 -0.0485
6.0501 1.3655 -0.0491
6.0502 1.3776 -0.0498
6.0468 1.3909 -0.0501
6.0480 1.4031 -0.0508
6.0491 1.4155 -0.0516
6.0490 1.4285 -0.0523
6.0442 1.4425 -0.0524
6.0485 1.4550 -0.0536
6.0437 1.4693 -0.0538
6.0456 1.4827 -0.0547
6.0473 1.4964 -0.0556
6.0446 1.5108 -0.0560
6.0461 1.5250 -0.0569
6.0444 1.5397 -0.0575
6.0436 1.5545 -0.0581
6.0449 1.5696 -0.0591
6.0471 1.5850 -0.0601
6.0461 1.6006 -0.0608
6.0440 1.6163 -0.0614
6.0439 1.6324 -0.0622
6.0457 1.6491 -0.0632
6.0494 1.6664 -0.0645
6.0440 1.6825 -0.0648
6.0435 1.6997 -0.0656
6.0468 1.7182 -0.0669
6.0480 1.7365 -0.0680
6.0462 1.7544 -0.0687
6.0378 1.7701 -0.0686
6.0378 1.7889 -0.0695
6.0368 1.8076 -0.0704
6.0431 1.8299 -0.0722
6.0409 1.8489 -0.0730
6.0432 1.8704 -0.0743
6.0453 1.8925 -0.0757
6.0393 1.9103 -0.0759
6.0333 1.9282 -0.0762
6.0412 1.9551 -0.0785
6.0410 1.9776 -0.0796
6.0382 1.9985 -0.0804
6.0370 2.0210 -0.0814
6.0398 2.0471 -0.0830
6.0441 2.0753 -0.0850
6.0453 2.1537 -0.0891
6.0385 2.1737 -0.0894
6.0334 2.1954 -0.0899
6.0397 2.2301 -0.0924
6.0449 2.2649 -0.0948
6.0416 2.2904 -0.0958
6.0375 2.3152 -0.0966
6.0531 2.3664 -0.1010
6.0383 2.4104 -0.1016
6.0351 2.4387 -0.1026
6.0381 2.4770 -0.1050
6.0409 2.5160 -0.1073
6.0393 2.5491 -0.1088
6.0315 2.5723 -0.1091
6.0005 2.5544 -0.1046
5.9799 2.5526 -0.1022
6.0531 1.3432 -0.0343
6.0498 1.3561 -0.0346
6.0524 1.3672 -0.0353
6.0562 1.3783 -0.0361
6.0469 1.3933 -0.0359
6.0470 1.4057 -0.0364
6.0470 1.4183 -0.0370
6.0481 1.4309 -0.0376
6.0525 1.4431 -0.0385
6.0466 1.4574 -0.0386
6.0464 1.4709 -0.0392
6.0434 1.4987 -0.0401
6.0451 1.5125 -0.0408
6.0407 1.5415 -0.0417
6.0454 1.5561 -0.0427
6.0394 1.5710 -0.0428
6.0428 1.5862 -0.0438
6.0471 1.6020 -0.0448
6.0440 1.6175 -0.0452
6.0439 1.6335 -0.0459
6.0397 1.6492 -0.0462
6.0455 1.6667 -0.0475
6.0452 1.6835 -0.0481
6.0428 1.7002 -0.0486
6.0466 1.7365 -0.0505
6.0439 1.7539 -0.0510
6.0374 1.7701 -0.0512
6.0441 1.7913 -0.0526
6.0422 1.8097 -0.0533
6.0439 1.8300 -0.0543
6.0464 1.8511 -0.0554
6.0478 1.8722 -0.0564
6.0374 1.8874 -0.0562
6.0440 1.9121 -0.0578
6.0415 1.9322 -0.0584
6.0364 1.9507 -0.0588
6.0372 1.9735 -0.0598
6.0411 2.0223 -0.0622
6.0356 2.0416 -0.0626
6.0418 2.0709 -0.0644
6.0378 2.0922 -0.0649
6.0468 2.1258 -0.0672
6.0506 2.1557 -0.0688
6.0399 2.1717 -0.0685
6.0489 2.2083 -0.0709
6.0327 2.2184 -0.0699
6.0472 2.2925 -0.0743
6.0379 2.3108 -0.0743
6.0374 2.3406 -0.0755
6.0442 2.3807 -0.0778
6.0412 2.4086 -0.0787
6.0324 2.4284 -0.0788
6.0335 2.4632 -0.0804
6.0379 2.5041 -0.0825
6.0378 2.5391 -0.0840
6.0423 2.5828 -0.0863
6.0023 2.5496 -0.0813
5.9817 2.5476 -0.0794
6.0497 1.3587 -0.0208
6.0488 1.3709 -0.0212
6.0479 1.3832 -0.0215
6.0505 1.3947 -0.0221
6.0482 1.4077 -0.0224
6.0483 1.4203 -0.0228
6.0471 1.4333 -0.0232
6.0448 1.4467 -0.0235
6.0492 1.4591 -0.0242
6.0524 1.4720 -0.0248
6.0487 1.4862 -0.0251
6.0483 1.5000 -0.0255
6.0479 1.5141 -0.0260
6.0463 1.5285 -0.0264
6.0435 1.5430 -0.0267
6.0494 1.5576 -0.0276
6.0444 1.5725 -0.0278
6.0467 1.5878 -0.0284
6.0448 1.6031 -0.0288
6.0439 1.6187 -0.0293
6.0428 1.6345 -0.0298
6.0428 1.6506 -0.0303
6.0487 1.6681 -0.0313
6.0504 1.6854 -0.0320
6.0401 1.7002 -0.0318
6.0436 1.7184 -0.0327
6.0434 1.7541 -0.0339
6.0389 1.7708 -0.0342
6.0362 1.7883 -0.0346
6.0391 1.8083 -0.0355
6.0429 1.8292 -0.0364
6.0427 1.8489 -0.0371
6.0433 1.8693 -0.0378
6.0393 1.8877 -0.0382
6.0451 1.9119 -0.0394
6.0436 1.9324 -0.0400
6.0394 1.9514 -0.0403
6.0351 1.9705 -0.0407
6.0402 1.9967 -0.0419
6.0443 2.0229 -0.0431
6.0448 2.0469 -0.0439
6.0404 2.0920 -0.0452
6.0531 2.1819 -0.0490
6.0463 2.2020 -0.0493
6.0396 2.2222 -0.0496
6.0452 2.2567 -0.0511
6.0419 2.3111 -0.0527
6.0386 2.3369 -0.0534
6.0426 2.4047 -0.0560
6.0382 2.4307 -0.0566
6.0351 2.4590 -0.0573
6.0410 2.5020 -0.0592
6.0390 2.5335 -0.0601
6.0362 2.5644 -0.0610
6.0095 2.5542 -0.0590
5.9887 2.5522 -0.0576
6.0454 1.3510 -0.0068
6.0507 1.3609 -0.0072
6.0499 1.3730 -0.0075
6.0493 1.3974 -0.0081
6.0459 1.4106 -0.0083
6.0426 1.4238 -0.0085
6.0403 1.4369 -0.0088
6.0485 1.4481 -0.0094
6.0541 1.4603 -0.0099
6.0459 1.4749 -0.0100
6.0446 1.4886 -0.0103
6.0477 1.5019 -0.0107
6.0440 1.5162 -0.0109
6.0490 1.5300 -0.0115
6.0452 1.5446 -0.0117
6.0511 1.5591 -0.0123
6.0461 1.5740 -0.0125
6.0497 1.5893 -0.0130
6.0467 1.6045 -0.0133
6.0458 1.6200 -0.0137
6.0428 1.6355 -0.0139
6.0459 1.6521 -0.0145
6.0427 1.6679 -0.0148
6.0405 1.6841 -0.0151
6.0473 1.7025 -0.0158
6.0459 1.7195 -0.0162
6.0424 1.7362 -0.0165
6.0458 1.7551 -0.0171
6.0393 1.7711 -0.0173
6.0386 1.7893 -0.0177
6.0445 1.8104 -0.0185
6.0389 1.8272 -0.0187
6.0416 1.8480 -0.0193
6.0433 1.8688 -0.0199
6.0402 1.8875 -0.0203
6.0471 1.9121 -0.0212
6.0438 1.9314 -0.0215
6.0414 1.9515 -0.0220
6.0451 1.9760 -0.0227
6.0432 2.0202 -0.0238
6.0370 2.0386 -0.0240
6.0384 2.0635 -0.0247
6.0371 2.0866 -0.0253
6.0382 2.1123 -0.0259
6.0455 2.1709 -0.0277
6.0330 2.2113 -0.0283
6.0318 2.2373 -0.0289
6.0298 2.2628 -0.0295
6.0406 2.3047 -0.0309
6.0434 2.3381 -0.0319
6.0445 2.3702 -0.0328
6.0454 2.4028 -0.0336
6.0410 2.4287 -0.0341
6.0380 2.4569 -0.0347
6.0392 2.4921 -0.0357
6.0394 2.5268 -0.0366
6.0305 2.5470 -0.0368
6.0044 2.5375 -0.0356
5.9931 2.5520 -0.0355
6.0495 1.3407 0.0066
6.0488 1.3524 0.0065
6.0481 1.3642 0.0063
6.0498 1.3755 0.0060
6.0514 1.3870 0.0058
6.0505 1.3994 0.0056
6.0554 1.4105 0.0054
6.0473 1.4249 0.0052
6.0509 1.4368 0.0050
6.0486 1.4502 0.0048
6.0486 1.4632 0.0046
6.0496 1.4764 0.0043
6.0506 1.4898 0.0041
6.0481 1.5037 0.0039
6.0455 1.5178 0.0037
6.0473 1.5318 0.0034
6.0436 1.5462 0.0032
6.0442 1.5607 0.0029
6.0479 1.5755 0.0026
6.0451 1.5904 0.0024
6.0475 1.6058 0.0021
6.0456 1.6212 0.0019
6.0457 1.6370 0.0016
6.0479 1.6533 0.0013
6.0499 1.6701 0.0010
6.0538 1.6876 0.0006
6.0454 1.7028 0.0005
6.0431 1.7193 0.0002
6.0388 1.7355 0.0000
6.0462 1.7555 -0.0004
6.0456 1.7735 -0.0007
6.0459 1.7921 -0.0010
6.0451 1.8106 -0.0014
6.0424 1.8285 -0.0016
6.0442 1.8488 -0.0020
6.0385 1.8658 -0.0022
6.0420 1.8877 -0.0026
6.0381 1.9060 -0.0029
6.0404 1.9283 -0.0033
6.0399 1.9493 -0.0037
6.0420 1.9947 -0.0045
6.0342 2.0115 -0.0047
6.0290 2.0302 -0.0049
6.0348 2.0583 -0.0055
6.0429 2.0893 -0.0061
6.0391 2.1104 -0.0064
6.0343 2.1310 -0.0067
6.0361 2.1582 -0.0072
6.0449 2.1935 -0.0079
6.0422 2.2176 -0.0083
6.0371 2.2393 -0.0086
6.0391 2.2983 -0.0096
6.0532 2.3764 -0.0112
6.0409 2.4225 -0.0118
6.0453 2.4613 -0.0125
6.0379 2.4833 -0.0128
6.0305 2.5053 -0.0131
6.0336 2.5447 -0.0138
6.0240 2.5635 -0.0140
6.0015 2.5591 -0.0137
5.9881 2.5696 -0.0137
6.0454 1.3447 0.0197
6.0523 1.3537 0.0197
6.0516 1.3655 0.0196
6.0472 1.3786 0.0194
6.0488 1.3900 0.0193
6.0480 1.4023 0.0192
6.0495 1.4142 0.0191
6.0497 1.4266 0.0190
6.0463 1.4399 0.0188
6.0499 1.4520 0.0188
6.0453 1.4658 0.0186
6.0464 1.4787 0.0185
6.0440 1.4924 0.0184
6.0484 1.5055 0.0183
6.0459 1.5195 0.0181
6.0456 1.5335 0.0180
6.0430 1.5478 0.0178
6.0425 1.5621 0.0177
6.0453 1.5768 0.0176
6.0490 1.5919 0.0175
6.0461 1.6069 0.0174
6.0475 1.6225 0.0172
6.0456 1.6380 0.0171
6.0446 1.6538 0.0169
6.0457 1.6702 0.0168
6.0446 1.6864 0.0166
6.0425 1.7027 0.0165
6.0412 1.7194 0.0163
6.0460 1.7380 0.0162
6.0426 1.7546 0.0160
6.0460 1.7738 0.0159
6.0464 1.7923 0.0157
6.0418 1.8091 0.0155
6.0363 1.8255 0.0153
6.0411 1.8469 0.0152
6.0421 1.8670 0.0150
6.0438 1.8880 0.0148
6.0426 1.9078 0.0147
6.0405 1.9273 0.0144
6.0400 1.9482 0.0143
6.0448 1.9730 0.0141
6.0424 1.9934 0.0139
6.0372 2.0120 0.0137
6.0338 2.0321 0.0134
6.0428 2.0867 0.0131
6.0458 2.1139 0.0129
6.0377 2.1313 0.0126
6.0387 2.1577 0.0124
6.0371 2.1820 0.0121
6.0387 2.2101 0.0119
6.0432 2.2423 0.0117
6.0498 2.2780 0.0115
6.0328 2.2861 0.0112
6.0482 2.3645 0.0107
6.0471 2.3938 0.0104
6.0466 2.4247 0.0101
6.0372 2.4430 0.0098
6.0393 2.4789 0.0095
6.0291 2.4961 0.0093
6.0395 2.5470 0.0089
6.0320 2.5693 0.0086
6.0114 2.5686 0.0084
5.9972 2.5780 0.0081
6.0518 1.3337 0.0328
6.0513 1.3451 0.0328
6.0482 1.3575 0.0326
6.0464 1.3696 0.0326
6.0506 1.3800 0.0327
6.0462 1.3931 0.0325
6.0467 1.4049 0.0326
6.0482 1.4167 0.0326
6.0475 1.4418 0.0326
6.0442 1.4551 0.0324
6.0513 1.4668 0.0327
6.0489 1.4803 0.0326
6.0466 1.4939 0.0325
6.0465 1.5074 0.0325
6.0463 1.5212 0.0325
6.0505 1.5349 0.0326
6.0457 1.5493 0.0324
6.0475 1.5636 0.0325
6.0459 1.5782 0.0324
6.0453 1.5930 0.0324
6.0436 1.6080 0.0323
6.0515 1.6240 0.0326
6.0411 1.6384 0.0322
6.0455 1.6549 0.0323
6.0435 1.6706 0.0322
6.0394 1.6861 0.0321
6.0435 1.7036 0.0322
6.0413 1.7199 0.0321
6.0431 1.7376 0.0322
6.0418 1.7547 0.0321
6.0403 1.8084 0.0320
6.0358 1.8251 0.0319
6.0417 1.8468 0.0321
6.0428 1.8668 0.0321
6.0465 1.8887 0.0322
6.0416 1.9063 0.0320
6.0414 1.9268 0.0320
6.0383 1.9458 0.0319
6.0388 1.9675 0.0319
6.0444 1.9933 0.0320
6.0411 2.0132 0.0319
6.0411 2.0360 0.0319
6.0411 2.0592 0.0319
6.0546 2.0946 0.0323
6.0440 2.1097 0.0319
6.0427 2.1333 0.0319
6.0388 2.1547 0.0317
6.0291 2.1703 0.0314
6.0309 2.1980 0.0314
6.0370 2.2587 0.0316
6.0350 2.2843 0.0315
6.0353 2.3131 0.0315
6.0398 2.3784 0.0316
6.0426 2.4131 0.0317
6.0443 2.4473 0.0317
6.0378 2.4700 0.0315
6.0334 2.4961 0.0313
6.0333 2.5294 0.0312
6.0358 2.5680 0.0313
6.0102 2.5586 0.0304
6.0509 1.3478 0.0456
6.0554 1.3576 0.0459
6.0498 1.3709 0.0457
6.0479 1.3831 0.0457
6.0497 1.3944 0.0459
6.0477 1.4069 0.0458
6.0481 1.4189 0.0459
6.0521 1.4304 0.0463
6.0559 1.4422 0.0466
6.0466 1.4567 0.0461
6.0455 1.4696 0.0462
6.0480 1.4823 0.0464
6.0479 1.4956 0.0465
6.0467 1.5092 0.0465
6.0454 1.5229 0.0465
6.0452 1.5367 0.0466
6.0405 1.5509 0.0464
6.0446 1.5651 0.0468
6.0431 1.5795 0.0468
6.0503 1.5946 0.0474
6.0497 1.6096 0.0474
6.0511 1.6251 0.0476
6.0397 1.6393 0.0470
6.0442 1.6556 0.0474
6.0444 1.6716 0.0476
6.0393 1.6868 0.0474
6.0414 1.7037 0.0476
6.0424 1.7207 0.0478
6.0483 1.7395 0.0483
6.0450 1.7559 0.0482
6.0426 1.7729 0.0482
6.0402 1.7900 0.0482
6.0407 1.8084 0.0483
6.0411 1.8272 0.0485
6.0385 1.8449 0.0485
6.0434 1.8666 0.0489
6.0406 1.8849 0.0489
6.0424 1.9060 0.0492
6.0459 1.9286 0.0495
6.0434 1.9693 0.0497
6.0483 1.9945 0.0502
6.0378 2.0090 0.0496
6.0363 2.0302 0.0497
6.0363 2.0531 0.0499
6.0398 2.0794 0.0503
6.0430 2.1062 0.0507
6.0426 2.1304 0.0508
6.0330 2.1459 0.0503
6.0341 2.1723 0.0506
6.0302 2.1939 0.0505
6.0384 2.2292 0.0513
6.0382 2.2561 0.0515
6.0340 2.2787 0.0514
6.0406 2.3152 0.0520
6.0338 2.3354 0.0518
6.0362 2.3681 0.0522
6.0429 2.4078 0.0529
6.0368 2.4621 0.0529
6.0340 2.4903 0.0529
6.0347 2.5246 0.0532
6.0317 2.5536 0.0532
6.0159 2.5608 0.0523
6.0522 1.3386 0.0582
6.0517 1.3499 0.0584
6.0487 1.3622 0.0583
6.0494 1.3734 0.0585
6.0476 1.3855 0.0586
6.0470 1.3974 0.0587
6.0426 1.4104 0.0585
6.0443 1.4220 0.0588
6.0460 1.4338 0.0592
6.0487 1.4457 0.0596
6.0454 1.4588 0.0595
6.0456 1.4716 0.0597
6.0492 1.4840 0.0602
6.0481 1.4974 0.0603
6.0481 1.5108 0.0605
6.0491 1.5243 0.0608
6.0422 1.5384 0.0604
6.0442 1.5523 0.0608
6.0439 1.5665 0.0610
6.0403 1.5808 0.0609
6.0454 1.5956 0.0616
6.0470 1.6106 0.0619
6.0475 1.6259 0.0622
6.0450 1.6566 0.0625
6.0421 1.6720 0.0625
6.0423 1.6881 0.0627
6.0465 1.7055 0.0633
6.0444 1.7217 0.0634
6.0443 1.7387 0.0637
6.0431 1.7556 0.0638
6.0448 1.7738 0.0642
6.0375 1.7889 0.0639
6.0430 1.8093 0.0646
6.0415 1.8271 0.0648
6.0467 1.8484 0.0655
6.0430 1.8659 0.0655
6.0317 1.8794 0.0647
6.0413 1.9045 0.0659
6.0440 1.9264 0.0665
6.0438 1.9470 0.0668
6.0480 1.9711 0.0675
6.0448 1.9905 0.0675
6.0398 2.0088 0.0674
6.0436 2.0341 0.0681
6.0385 2.0528 0.0679
6.0385 2.0760 0.0683
6.0450 2.1299 0.0697
6.0413 2.1511 0.0697
6.0391 2.1742 0.0699
6.0352 2.1958 0.0699
6.0450 2.2600 0.0717
6.0567 2.3018 0.0733
6.0475 2.3192 0.0728
6.0376 2.3355 0.0722
6.0401 2.3681 0.0729
6.0400 2.3982 0.0733
6.0361 2.4233 0.0734
6.0395 2.4598 0.0742
6.0412 2.4948 0.0749
6.0405 2.5269 0.0753
6.0403 2.5606 0.0758
6.0180 2.5569 0.0739
6.0504 1.3418 0.0706
6.0474 1.3539 0.0705
6.0516 1.3751 0.0715
6.0473 1.3879 0.0713
6.0492 1.3991 0.0717
6.0448 1.4120 0.0716
6.0417 1.4247 0.0715
6.0482 1.4354 0.0725
6.0450 1.4484 0.0724
6.0429 1.4612 0.0725
6.0468 1.4733 0.0732
6.0470 1.4862 0.0735
6.0436 1.4996 0.0735
6.0471 1.5126 0.0741
6.0482 1.5260 0.0746
6.0458 1.5399 0.0746
6.0434 1.5538 0.0747
6.0418 1.5821 0.0752
6.0481 1.5970 0.0762
6.0465 1.6117 0.0764
6.0449 1.6267 0.0765
6.0443 1.6419 0.0768
6.0468 1.6578 0.0775
6.0461 1.6735 0.0777
6.0442 1.6892 0.0779
6.0412 1.7048 0.0779
6.0444 1.7222 0.0787
6.0423 1.7385 0.0788
6.0422 1.7556 0.0792
6.0389 1.7719 0.0792
6.0437 1.7913 0.0802
6.0374 1.8068 0.0799
6.0438 1.8279 0.0810
6.0397 1.8637 0.0814
6.0418 1.8842 0.0821
6.0419 1.9040 0.0826
6.0382 1.9219 0.0826
6.0418 1.9446 0.0835
6.0398 1.9642 0.0838
6.0385 1.9846 0.0841
6.0372 2.0052 0.0844
6.0412 2.0304 0.0854
6.0406 2.0524 0.0859
6.0416 2.0763 0.0865
6.0372 2.0960 0.0865
6.0388 2.1214 0.0873
6.0411 2.1481 0.0881
6.0466 2.1787 0.0894
6.0402 2.1977 0.0892
6.0413 2.2249 0.0899
6.0393 2.3045 0.0915
6.0390 2.3324 0.0921
6.0416 2.3650 0.0932
6.0363 2.3875 0.0931
6.0332 2.4134 0.0934
6.0331 2.4440 0.0941
6.0342 2.4775 0.0950
6.0367 2.5138 0.0961
6.0447 2.5604 0.0980
6.0259 2.5628 0.0960
6.0498 1.3444 0.0828
6.0507 1.3551 0.0833
6.0503 1.3665 0.0836
6.0499 1.3780 0.0839
6.0519 1.3889 0.0845
6.0501 1.4011 0.0846
6.0495 1.4130 0.0849
6.0476 1.4255 0.0850
6.0493 1.4372 0.0856
6.0497 1.4495 0.0860
6.0477 1.4624 0.0862
6.0456 1.4753 0.0863
6.0470 1.4880 0.0869
6.0401 1.5017 0.0864
6.0426 1.5146 0.0871
6.0426 1.5280 0.0875
6.0449 1.5414 0.0882
6.0471 1.5552 0.0889
6.0503 1.5694 0.0898
6.0489 1.5837 0.0901
6.0463 1.5981 0.0902
6.0448 1.6128 0.0904
6.0476 1.6280 0.0913
6.0460 1.6431 0.0915
6.0465 1.6586 0.0920
6.0415 1.6734 0.0918
6.0407 1.6892 0.0922
6.0452 1.7064 0.0933
6.0443 1.7226 0.0937
6.0412 1.7555 0.0943
6.0441 1.7738 0.0953
6.0429 1.7910 0.0956
6.0485 1.8113 0.0970
6.0417 1.8453 0.0972
6.0430 1.8649 0.0979
6.0433 1.8843 0.0986
6.0454 1.9052 0.0995
6.0417 1.9230 0.0995
6.0388 1.9416 0.0997
6.0359 1.9603 0.0999
6.0385 1.9831 0.1010
6.0360 2.0245 0.1019
6.0337 2.0448 0.1022
6.0384 2.0714 0.1037
6.0429 2.0986 0.1051
6.0437 2.1233 0.1060
6.0401 2.1441 0.1061
6.0453 2.1997 0.1085
6.0347 2.2141 0.1076
6.0399 2.2462 0.1092
6.0423 2.2760 0.1105
6.0430 2.3045 0.1114
6.0427 2.3325 0.1123
6.0399 2.3577 0.1127
6.0378 2.3842 0.1132
6.0386 2.4155 0.1143
6.0302 2.4338 0.1137
6.0353 2.4727 0.1156
6.0394 2.5113 0.1173
6.0403 2.5458 0.1185
6.0373 2.5748 0.1190
6.0492 1.3471 0.0949
6.0476 1.3586 0.0951
6.0421 1.3714 0.0948
6.0469 1.3811 0.0959
6.0452 1.3930 0.0961
6.0472 1.4040 0.0968
6.0479 1.4156 0.0973
6.0485 1.4273 0.0979
6.0466 1.4398 0.0981
6.0483 1.4517 0.0988
6.0515 1.4764 0.1002
6.0470 1.4898 0.1001
6.0413 1.5033 0.0997
6.0403 1.5164 0.1001
6.0474 1.5293 0.1016
6.0451 1.5430 0.1018
6.0428 1.5567 0.1020
6.0450 1.5707 0.1028
6.0414 1.5847 0.1028
6.0468 1.5994 0.1042
6.0420 1.6137 0.1040
6.0460 1.6289 0.1052
6.0444 1.6438 0.1056
6.0362 1.6578 0.1049
6.0465 1.6752 0.1071
6.0425 1.6902 0.1071
6.0407 1.7059 0.1074
6.0399 1.7219 0.1079
6.0421 1.7392 0.1089
6.0452 1.7571 0.1100
6.0441 1.7740 0.1105
6.0470 1.7926 0.1117
6.0437 1.8092 0.1118
6.0444 1.8277 0.1126
6.0420 1.8451 0.1129
6.0434 1.8646 0.1139
6.0428 1.8834 0.1145
6.0421 1.9025 0.1151
6.0386 1.9403 0.1160
6.0423 1.9633 0.1175
6.0319 1.9770 0.1164
6.0424 2.0276 0.1200
6.0446 2.0517 0.1212
6.0360 2.0672 0.1205
6.0380 2.0919 0.1218
6.0407 2.1178 0.1232
6.0387 2.1645 0.1247
6.0410 2.1918 0.1260
6.0372 2.2133 0.1263
6.0383 2.2406 0.1275
6.0475 2.2780 0.1303
6.0472 2.3335 0.1324
6.0444 2.3587 0.1330
6.0361 2.3766 0.1324
6.0386 2.4099 0.1340
6.0356 2.4359 0.1346
6.0385 2.4714 0.1364
6.0383 2.5028 0.1376
6.0349 2.5300 0.1381
6.0336 2.5610 0.1391
6.0496 1.3603 0.1075
6.0454 1.3727 0.1074
6.0451 1.3839 0.1078
6.0460 1.3950 0.1085
6.0468 1.4063 0.1091
6.0513 1.4169 0.1104
6.0495 1.4292 0.1107
6.0501 1.4411 0.1113
6.0494 1.4535 0.1118
6.0474 1.4662 0.1120
6.0481 1.4914 0.1133
6.0436 1.5048 0.1131
6.0439 1.5178 0.1137
6.0464 1.5309 0.1148
6.0429 1.5445 0.1148
6.0430 1.5582 0.1154
6.0418 1.5720 0.1159
6.0496 1.5863 0.1179
6.0505 1.6008 0.1187
6.0446 1.6150 0.1183
6.0431 1.6296 0.1187
6.0427 1.6445 0.1194
6.0433 1.6599 0.1202
6.0406 1.6748 0.1204
6.0443 1.6913 0.1218
6.0425 1.7069 0.1222
6.0449 1.7238 0.1234
6.0430 1.7398 0.1238
6.0431 1.7566 0.1246
6.0431 1.7737 0.1253
6.0481 1.7931 0.1271
6.0408 1.8079 0.1265
6.0356 1.8236 0.1263
6.0412 1.8444 0.1282
6.0369 1.8608 0.1282
6.0383 1.8804 0.1294
6.0426 1.9020 0.1311
6.0419 1.9213 0.1319
6.0439 1.9426 0.1332
6.0383 1.9594 0.1330
6.0466 1.9860 0.1357
6.0446 2.0058 0.1362
6.0488 2.0308 0.1381
6.0411 2.0469 0.1375
6.0370 2.0659 0.1377
6.0320 2.0842 0.1376
6.0402 2.1148 0.1405
6.0436 2.1664 0.1434
6.0451 2.1929 0.1449
6.0472 2.2207 0.1465
6.0425 2.2416 0.1467
6.0419 2.2674 0.1478
6.0444 2.2976 0.1496
6.0403 2.3202 0.1499
6.0401 2.3481 0.1511
6.0401 2.4065 0.1538
6.0317 2.4244 0.1532
6.0326 2.4562 0.1548
6.0370 2.4944 0.1573
6.0422 2.5682 0.1616
6.0529 1.3615 0.1201
6.0552 1.3719 0.1211
6.0445 1.3863 0.1198
6.0493 1.3963 0.1213
6.0501 1.4076 0.1220
6.0484 1.4197 0.1223
6.0466 1.4319 0.1226
6.0510 1.4430 0.1241
6.0466 1.4559 0.1239
6.0460 1.4683 0.1244
6.0476 1.4806 0.1254
6.0480 1.4932 0.1262
6.0460 1.5063 0.1265
6.0462 1.5193 0.1272
6.0441 1.5326 0.1275
6.0419 1.5461 0.1278
6.0443 1.5596 0.1290
6.0466 1.5734 0.1302
6.0476 1.5875 0.1311
6.0475 1.6018 0.1318
6.0461 1.6163 0.1323
6.0447 1.6308 0.1328
6.0399 1.6451 0.1327
6.0472 1.6613 0.1350
6.0445 1.6763 0.1352
6.0493 1.6930 0.1371
6.0443 1.7079 0.1369
6.0446 1.7242 0.1378
6.0396 1.7391 0.1376
6.0450 1.7575 0.1396
6.0420 1.7735 0.1399
6.0409 1.7903 0.1406
6.0429 1.8087 0.1420
6.0447 1.8274 0.1433
6.0414 1.8441 0.1435
6.0391 1.8614 0.1440
6.0377 1.8794 0.1447
6.0472 1.9236 0.1489
6.0436 1.9413 0.1491
6.0399 1.9592 0.1494
6.0427 1.9818 0.1511
6.0426 2.0028 0.1522
6.0350 2.0184 0.1516
6.0375 2.0421 0.1533
6.0381 2.0647 0.1546
6.0367 2.0860 0.1555
6.0414 2.1134 0.1579
6.0406 2.1363 0.1589
6.0424 2.1622 0.1607
6.0362 2.1805 0.1604
6.0436 2.2655 0.1664
6.0372 2.2846 0.1662
6.0403 2.3721 0.1714
6.0470 2.4107 0.1748
6.0410 2.4322 0.1747
6.0357 2.4548 0.1749
6.0389 2.5555 0.1809
6.0377 2.5868 0.1823
6.0511 1.3536 0.1310
6.0535 1.3637 0.1322
6.0520 1.3752 0.1325
6.0543 1.3857 0.1337
6.0475 1.3989 0.1330
6.0509 1.4095 0.1344
6.0492 1.4215 0.1348
6.0462 1.4340 0.1348
6.0501 1.4572 0.1371
6.0445 1.4704 0.1367
6.0426 1.4830 0.1370
6.0467 1.4951 0.1386
6.0471 1.5078 0.1395
6.0450 1.5210 0.1398
6.0488 1.5339 0.1415
6.0443 1.5475 0.1413
6.0432 1.5610 0.1419
6.0456 1.5747 0.1432
6.0456 1.5887 0.1441
6.0409 1.6026 0.1439
6.0465 1.6174 0.1460
6.0507 1.6325 0.1478
6.0414 1.6462 0.1466
6.0444 1.6617 0.1482
6.0450 1.6772 0.1493
6.0412 1.6919 0.1494
6.0482 1.7094 0.1520
6.0475 1.7254 0.1528
6.0404 1.7397 0.1521
6.0406 1.7563 0.1531
6.0429 1.7739 0.1547
6.0471 1.7927 0.1567
6.0429 1.8086 0.1568
6.0489 1.8290 0.1593
6.0416 1.8438 0.1586
6.0393 1.8610 0.1592
6.0434 1.9009 0.1625
6.0448 1.9212 0.1640
6.0479 1.9430 0.1660
6.0385 1.9571 0.1648
6.0405 1.9789 0.1666
6.0387 1.9984 0.1673
6.0367 2.0180 0.1681
6.0421 2.0438 0.1708
6.0463 2.0695 0.1733
6.0485 2.0942 0.1753
6.0372 2.1070 0.1736
6.0357 2.1289 0.1746
6.0411 2.1579 0.1775
6.0411 2.1823 0.1790
6.0409 2.2071 0.1805
6.0381 2.2293 0.1812
6.0335 2.2498 0.1814
6.0306 2.2725 0.1822
6.0284 2.2964 0.1831
6.0392 2.3374 0.1880
6.0375 2.3633 0.1892
6.0364 2.3906 0.1906
6.0385 2.4229 0.1930
6.0395 2.4545 0.1951
6.0411 2.4879 0.1975
6.0433 2.5231 0.2001
5.9883 0.9511 0.1045
5.9850 0.9408 0.1067
5.9747 0.9350 0.1073
5.9686 0.9260 0.1090
5.9654 0.9144 0.1114
5.9606 0.9035 0.1136
5.9534 0.8942 0.1152
5.9430 0.8872 0.1161
5.9390 0.8743 0.1188
5.9299 0.8654 0.1202
5.9241 0.8530 0.1227
5.9179 0.8405 0.1251
5.9086 0.8304 0.1268
5.8990 0.8202 0.1284
5.8939 0.8046 0.1317
5.8880 0.7887 0.1350
5.8738 0.7572 0.1412
5.8613 0.7472 0.1426
5.8473 0.7390 0.1435
5.8375 0.7241 0.1463
5.8313 0.7023 0.1509
5.8180 0.6909 0.1526
5.7970 0.6548 0.1594
5.7858 0.6360 0.1630
5.7740 0.6169 0.1665
4.3651 -1.9464 0.6585
5.9814 0.9580 0.0908
5.9780 0.9350 0.0954
5.9718 0.9260 0.0969
5.9673 0.9152 0.0989
5.9625 0.9044 0.1008
5.9562 0.8942 0.1025
5.9457 0.8872 0.1033
5.9416 0.8743 0.1058
5.9296 0.8680 0.1063
5.9229 0.8565 0.1083
5.9209 0.8397 0.1117
5.9090 0.8322 0.1125
5.9018 0.8194 0.1147
5.8980 0.8020 0.1181
5.8866 0.7924 0.1194
5.8787 0.7782 0.1219
5.8709 0.7629 0.1246
5.8592 0.7521 0.1261
5.8497 0.7374 0.1286
5.8397 0.7225 0.1310
5.8274 0.7103 0.1328
5.8216 0.6864 0.1374
5.8071 0.6758 0.1387
5.7918 0.6661 0.1398
5.7842 0.6405 0.1447
5.7709 0.6245 0.1472
4.9590 -0.2370 0.2758
4.8145 -0.4008 0.3009
4.7536 -0.4800 0.3136
4.7178 -0.4920 0.3138
5.9872 0.9565 0.0796
5.9895 0.9423 0.0824
5.9706 0.9291 0.0838
5.9651 0.9193 0.0854
5.9592 0.9093 0.0869
5.9540 0.8983 0.0886
5.9464 0.8889 0.0900
5.9422 0.8760 0.0921
5.9320 0.8681 0.0931
5.9252 0.8566 0.0948
5.9196 0.8433 0.0970
5.9118 0.8315 0.0987
5.9012 0.8222 0.0999
5.8951 0.8075 0.1023
5.8875 0.7935 0.1045
5.8758 0.7839 0.1056
5.8660 0.7714 0.1074
5.8564 0.7579 0.1094
5.8376 0.7275 0.1140
5.8295 0.7087 0.1170
5.8194 0.6916 0.1197
5.8044 0.6820 0.1206
5.7934 0.6646 0.1233
5.7875 0.6351 0.1284
5.7716 0.6240 0.1296
4.9541 -0.2355 0.2444
4.9421 -0.1879 0.2349
4.7916 -0.4447 0.2744
4.7477 -0.4777 0.2781
4.7146 -0.4831 0.2773
5.9930 0.9550 0.0681
5.9861 0.9470 0.0691
5.9812 0.9374 0.0705
5.9770 0.9268 0.0720
5.9702 0.9178 0.0731
5.9601 0.9109 0.0738
5.9518 0.9025 0.0748
5.9528 0.8857 0.0776
5.9447 0.8762 0.0787
5.9344 0.8682 0.0795
5.9283 0.8559 0.0813
5.9243 0.8409 0.0835
5.9113 0.8343 0.0840
5.9015 0.8241 0.0852
5.8929 0.8121 0.0867
5.8876 0.7956 0.0892
5.8745 0.7877 0.0898
5.8674 0.7717 0.0921
5.8610 0.7536 0.0948
5.8487 0.7427 0.0960
5.8398 0.7260 0.0983
5.8315 0.7073 0.1010
5.8201 0.6921 0.1029
5.8115 0.6710 0.1059
5.7943 0.6641 0.1062
5.7839 0.6435 0.1091
5.7713 0.6256 0.1114
4.9479 -0.2378 0.2134
4.9340 -0.1958 0.2058
4.7958 -0.4163 0.2353
4.7445 -0.4688 0.2414
4.7257 -0.4398 0.2358
4.6906 -0.4515 0.2360
5.9884 0.9479 0.0567
5.9768 0.9429 0.0569
5.9747 0.9309 0.0586
5.9701 0.9202 0.0599
5.9609 0.9127 0.0606
5.9516 0.9050 0.0613
5.9516 0.8892 0.0635
5.9434 0.8796 0.0645
5.9340 0.8708 0.0654
5.9288 0.8577 0.0670
5.9144 0.8530 0.0671
5.9109 0.8370 0.0692
5.9082 0.8192 0.0716
5.8993 0.8071 0.0729
5.8893 0.7959 0.0741
5.8795 0.7836 0.0755
5.8701 0.7702 0.0770
5.8629 0.7531 0.0791
5.8543 0.7366 0.0810
5.8433 0.7227 0.0826
5.8305 0.7106 0.0838
5.8186 0.6964 0.0853
5.8104 0.6744 0.0880
5.7973 0.6598 0.0896
5.7881 0.6363 0.0925
4.9752 -0.1382 0.1689
4.9647 -0.0920 0.1620
4.9323 -0.1107 0.1633
4.9031 -0.1205 0.1635
4.8739 -0.1303 0.1637
4.8463 -0.1361 0.1634
5.9953 0.9582 0.0432
5.9906 0.9488 0.0441
5.9800 0.9430 0.0445
5.9746 0.9333 0.0454
5.9709 0.9220 0.0466
5.9638 0.9128 0.0475
5.9582 0.9020 0.0486
5.9523 0.8910 0.0497
5.9450 0.8807 0.0507
5.9355 0.8719 0.0514
5.9336 0.8555 0.0532
5.9208 0.8490 0.0536
5.9120 0.8381 0.0546
5.9084 0.8212 0.0565
5.8964 0.8127 0.0571
5.8901 0.7971 0.0587
5.8803 0.7848 0.0598
5.8694 0.7733 0.0608
5.8641 0.7535 0.0630
5.8554 0.7371 0.0646
5.8423 0.7260 0.0655
5.8187 0.6978 0.0680
5.8099 0.6769 0.0702
5.7947 0.6662 0.0710
5.7850 0.6438 0.0733
5.2774 -0.2649 0.1636
5.2465 -0.2404 0.1598
5.2152 -0.2283 0.1574
5.9953 0.9606 0.0304
5.9916 0.9504 0.0313
5.9821 0.9439 0.0317
5.9702 0.9388 0.0319
5.9687 0.9260 0.0330
5.9656 0.9138 0.0341
5.9639 0.8998 0.0354
5.9529 0.8928 0.0358
5.9437 0.8841 0.0363
5.9432 0.8672 0.0379
5.9297 0.8616 0.0381
5.9220 0.8501 0.0390
5.9197 0.8325 0.0406
5.9110 0.8207 0.0415
5.8989 0.8122 0.0420
5.8879 0.8018 0.0427
5.8824 0.7843 0.0442
5.8700 0.7746 0.0448
5.8539 0.7412 0.0476
5.8433 0.7265 0.0487
5.8310 0.7135 0.0496
5.8216 0.6947 0.0512
5.8099 0.6785 0.0524
5.7956 0.6659 0.0532
5.7843 0.6464 0.0548
5.7708 0.6297 0.0560
4.8423 -0.5010 0.1396
4.8150 -0.4834 0.1373
4.7856 -0.4742 0.1357
4.7571 -0.4648 0.1341
4.7374 -0.4356 0.1309
4.7017 -0.4476 0.1312
5.9987 0.9608 0.0178
5.9949 0.9507 0.0185
5.9853 0.9441 0.0188
5.9797 0.9345 0.0194
5.9685 0.9285 0.0196
5.9654 0.9164 0.0204
5.9636 0.9025 0.0213
5.9555 0.8931 0.0219
5.9443 0.8860 0.0222
5.9356 0.8765 0.0227
5.9336 0.8602 0.0238
5.9224 0.8521 0.0242
5.9167 0.8379 0.0251
5.9041 0.8304 0.0254
5.8967 0.8168 0.0262
5.8902 0.8013 0.0272
5.8846 0.7839 0.0284
5.8747 0.7706 0.0291
5.8618 0.7607 0.0296
5.8524 0.7454 0.0305
5.8436 0.7280 0.0316
5.8318 0.7141 0.0324
5.8184 0.7018 0.0330
5.8099 0.6801 0.0344
5.7945 0.6694 0.0349
5.7845 0.6472 0.0363
5.7723 0.6276 0.0375
5.7534 0.6213 0.0376
6.2369 -2.5729 0.2696
5.7973 -3.5279 0.3293
5.1243 -1.0564 0.1449
4.8554 -0.6636 0.1130
4.8157 -0.6691 0.1127
4.7799 -0.6644 0.1118
4.7281 -0.7062 0.1139
5.9953 0.9654 0.0048
5.9860 0.9590 0.0050
5.9841 0.9473 0.0055
5.9817 0.9355 0.0060
5.9725 0.9280 0.0063
5.9641 0.9197 0.0066
5.9624 0.9059 0.0072
5.9541 0.8800 0.0083
5.9424 0.8728 0.0086
5.9332 0.8631 0.0089
5.9245 0.8524 0.0094
5.9162 0.8408 0.0098
5.9083 0.8283 0.0103
5.8999 0.8155 0.0109
5.8940 0.7992 0.0116
5.8824 0.7888 0.0119
5.8712 0.7773 0.0124
5.8616 0.7630 0.0130
5.8496 0.7513 0.0134
5.8420 0.7322 0.0142
5.8296 0.7193 0.0147
5.8206 0.6997 0.0155
5.8088 0.6836 0.0162
5.7978 0.6645 0.0170
5.7871 0.6433 0.0178
5.7746 0.6237 0.0186
5.7542 0.6202 0.0186
6.2918 -2.8664 0.1835
6.2400 -3.2222 0.1994
5.4318 -3.4927 0.2051
5.1028 -1.1599 0.0951
5.0163 -1.3619 0.1037
4.8429 -0.6813 0.0709
4.8031 -0.6858 0.0708
4.6102 -1.0094 0.0841
4.5660 -1.0132 0.0839
4.5172 -1.0295 0.0842
4.4791 -1.0202 0.0835
4.4624 -0.9641 0.0807
4.4156 -0.9798 0.0811
5.9965 0.9671 -0.0081
5.9882 0.9600 -0.0080
5.9862 0.9484 -0.0077
5.9773 0.9410 -0.0076
5.9692 0.9329 -0.0074
5.9669 0.9200 -0.0071
5.9611 0.9093 -0.0069
5.9511 0.9016 -0.0067
5.9519 0.8843 -0.0064
5.9447 0.8732 -0.0061
5.9362 0.8627 -0.0059
5.9265 0.8528 -0.0057
5.9197 0.8396 -0.0054
5.9109 0.8279 -0.0052
5.8970 0.8211 -0.0050
5.8845 0.8125 -0.0048
5.8859 0.7867 -0.0043
5.8745 0.7752 -0.0040
5.8647 0.7610 -0.0037
5.8525 0.7492 -0.0035
5.8489 0.7240 -0.0029
5.8344 0.7136 -0.0027
5.8191 0.7041 -0.0025
5.8124 0.6789 -0.0020
5.8026 0.6570 -0.0015
5.7887 0.6414 -0.0012
5.7724 0.6294 -0.0009
6.3679 -2.7093 0.0711
6.3682 -3.2709 0.0832
5.0839 -1.2413 0.0393
4.4699 -1.5114 0.0450
4.3958 -1.5690 0.0463
4.2875 -1.7115 0.0493
4.2406 -1.6910 0.0489
5.9953 0.9703 -0.0211
5.9892 0.9617 -0.0211
5.9861 0.9509 -0.0211
5.9835 0.9391 -0.0211
5.9721 0.9332 -0.0210
5.9697 0.9204 -0.0211
5.9628 0.9105 -0.0210
5.9564 0.8996 -0.0210
5.9487 0.8895 -0.0210
5.9443 0.8760 -0.0210
5.9366 0.8647 -0.0210
5.9302 0.8517 -0.0210
5.9208 0.8410 -0.0209
5.9001 0.8199 -0.0208
5.8941 0.8037 -0.0208
5.8838 0.7916 -0.0208
5.8724 0.7802 -0.0207
5.8645 0.7634 -0.0207
5.8591 0.7420 -0.0207
5.8444 0.7327 -0.0207
5.8305 0.7216 -0.0206
5.8268 0.6931 -0.0206
5.8076 0.6889 -0.0205
5.7980 0.6672 -0.0205
5.7888 0.6424 -0.0205
5.7707 0.6341 -0.0204
6.4020 -2.8753 -0.0369
5.6443 -3.4182 -0.0325
5.0762 -1.2427 -0.0208
4.6701 -1.0404 -0.0168
4.4775 -1.4594 -0.0166
4.1843 -1.9458 -0.0158
4.1152 -1.9689 -0.0153
4.0872 -1.8956 -0.0149
4.0808 -1.7814 -0.0144
6.0009 0.9692 -0.0343
5.9881 0.9649 -0.0342
5.9892 0.9513 -0.0346
5.9812 0.9432 -0.0347
5.9791 0.9306 -0.0351
5.9744 0.9193 -0.0353
5.9625 0.9132 -0.0353
5.9570 0.9016 -0.0355
5.9502 0.8907 -0.0357
5.9447 0.8781 -0.0360
5.9344 0.8692 -0.0361
5.9263 0.8579 -0.0363
5.9194 0.8447 -0.0365
5.9112 0.8323 -0.0367
5.8987 0.8238 -0.0368
5.8948 0.8052 -0.0372
5.8873 0.7897 -0.0375
5.8736 0.7808 -0.0376
5.8643 0.7658 -0.0378
5.8582 0.7454 -0.0383
5.8458 0.7326 -0.0385
5.8341 0.7179 -0.0387
5.8240 0.6994 -0.0391
5.8007 0.6635 -0.0397
5.7885 0.6443 -0.0400
5.7725 0.6314 -0.0401
6.7022 -3.0931 -0.1611
6.4895 -2.7625 -0.1482
6.4152 -2.9505 -0.1524
5.0781 -1.1803 -0.0800
4.8332 -0.7729 -0.0644
4.8005 -0.7460 -0.0631
4.6040 -1.2104 -0.0730
4.3477 -1.6375 -0.0809
4.2246 -1.8105 -0.0838
4.0774 -2.0282 -0.0875
4.0398 -1.9749 -0.0854
4.0248 -1.8773 -0.0824
4.0107 -1.7870 -0.0796
5.9975 0.9738 -0.0473
5.9935 0.9639 -0.0478
5.9912 0.9524 -0.0483
5.9790 0.9472 -0.0483
5.9779 0.9340 -0.0490
5.9732 0.9228 -0.0495
5.9709 0.9091 -0.0502
5.9605 0.9014 -0.0503
5.9553 0.8889 -0.0509
5.9434 0.8817 -0.0509
5.9382 0.8682 -0.0515
5.9283 0.8584 -0.0518
5.9205 0.8461 -0.0523
5.9122 0.8337 -0.0527
5.9041 0.8203 -0.0533
5.8999 0.8017 -0.0542
5.8858 0.7938 -0.0542
5.8782 0.7773 -0.0549
5.8712 0.7588 -0.0557
5.8566 0.7497 -0.0559
5.8496 0.7291 -0.0568
5.8399 0.7108 -0.0575
5.8224 0.7039 -0.0575
5.8131 0.6825 -0.0584
5.8015 0.6636 -0.0591
5.7919 0.6390 -0.0602
5.7760 0.6251 -0.0606
6.5176 -2.8849 -0.2681
4.9134 -0.6098 -0.1054
4.8506 -0.6899 -0.1081
4.7964 -0.7348 -0.1092
4.6093 -1.1665 -0.1278
4.2125 -1.9633 -0.1607
4.1107 -2.0650 -0.1636
4.0492 -2.0630 -0.1620
4.0118 -2.0080 -0.1581
3.8684 -2.1933 -0.1645
6.0011 0.9616 -0.0618
5.9911 0.9550 -0.0620
5.9840 0.9462 -0.0625
5.9797 0.9352 -0.0632
5.9690 0.9284 -0.0634
5.9648 0.9164 -0.0642
5.9592 0.9049 -0.0649
5.9531 0.8933 -0.0656
5.9465 0.8815 -0.0664
5.9386 0.8703 -0.0670
5.9286 0.8606 -0.0674
5.9215 0.8475 -0.0682
5.9139 0.8343 -0.0690
5.9095 0.8169 -0.0703
5.8941 0.8107 -0.0702
5.8850 0.7970 -0.0710
5.8747 0.7839 -0.0717
5.8716 0.7605 -0.0735
5.8594 0.7479 -0.0741
5.8492 0.7317 -0.0750
5.8354 0.7197 -0.0755
5.8246 0.7022 -0.0765
5.8120 0.6862 -0.0774
5.8013 0.6656 -0.0787
5.7915 0.6410 -0.0803
5.7764 0.6253 -0.0810
5.7697 0.5890 -0.0837
6.6652 -2.9789 -0.3981
5.7296 -3.2920 -0.3915
5.3797 -3.3494 -0.3843
5.2073 -0.5240 -0.1534
5.1622 -0.5476 -0.1538
5.1032 -0.6473 -0.1597
5.0319 -0.7894 -0.1686
4.9729 -0.3766 -0.1338
4.9240 -0.4249 -0.1360
4.3921 -1.6055 -0.2121
4.2061 -1.9458 -0.2329
4.0711 -2.1295 -0.2430
3.9479 -2.2708 -0.2501
3.1854 -3.8599 -0.3510
6.0064 0.9734 -0.0747
5.9977 0.9662 -0.0751
5.9899 0.9583 -0.0756
5.9911 0.9439 -0.0772
5.9785 0.9386 -0.0772
5.9727 0.9282 -0.0781
5.9655 0.9184 -0.0788
5.9626 0.9047 -0.0801
5.9527 0.8961 -0.0806
5.9478 0.8829 -0.0818
5.9424 0.8694 -0.0830
5.9322 0.8597 -0.0836
5.9233 0.8482 -0.0844
5.9156 0.8350 -0.0855
5.9058 0.8233 -0.0863
5.8956 0.8114 -0.0872
5.8835 0.8010 -0.0877
5.8712 0.7906 -0.0883
5.8707 0.7640 -0.0911
5.8610 0.7480 -0.0924
5.8529 0.7284 -0.0941
5.8372 0.7189 -0.0945
5.8245 0.7041 -0.0955
5.8113 0.6891 -0.0965
5.7996 0.6703 -0.0980
5.7884 0.6486 -0.0998
5.7642 0.6024 -0.1037
6.9858 -2.7798 -0.5135
6.8703 -2.8184 -0.5127
6.6630 -2.5630 -0.4769
6.6394 -2.8957 -0.5111
6.4848 -2.7792 -0.4922
6.3410 -2.6707 -0.4746
6.2246 -2.6599 -0.4685
6.0819 -2.4749 -0.4429
5.8263 -3.1096 -0.4992
5.7091 -3.0927 -0.4924
5.5948 -3.0770 -0.4859
5.2056 -0.4966 -0.1963
5.1611 -0.5189 -0.1968
5.1095 -0.5784 -0.2009
5.1080 -0.2203 -0.1629
5.0839 -0.1860 -0.1582
5.0479 -0.2033 -0.1586
5.0117 -0.2208 -0.1589
4.9734 -0.2442 -0.1597
4.9423 -0.2440 -0.1584
4.1081 -2.0033 -0.3091
3.9902 -2.1359 -0.3182
6.0064 0.9759 -0.0882
6.0020 0.9661 -0.0893
5.9951 0.9574 -0.0901
5.9909 0.9466 -0.0913
5.9813 0.9392 -0.0918
5.9734 0.9302 -0.0926
5.9699 0.9175 -0.0941
5.9622 0.9076 -0.0950
5.9541 0.8975 -0.0959
5.9482 0.8850 -0.0973
5.9427 0.8716 -0.0988
5.9341 0.8604 -0.0998
5.9203 0.8536 -0.1000
5.9188 0.8342 -0.1025
5.9058 0.8257 -0.1030
5.8991 0.8098 -0.1047
5.8841 0.8027 -0.1049
5.8737 0.7897 -0.1061
5.8711 0.7657 -0.1091
5.8668 0.7422 -0.1120
5.8525 0.7311 -0.1127
5.8418 0.7139 -0.1145
5.8299 0.6973 -0.1161
5.8117 0.6902 -0.1161
5.8007 0.6697 -0.1182
5.7917 0.6435 -0.1212
5.7644 0.6029 -0.1252
6.7339 -1.8359 -0.4979
6.5985 -1.7457 -0.4790
6.5533 -1.8963 -0.4966
6.4942 -2.0264 -0.5108
6.4414 -2.2007 -0.5311
6.2510 -1.8620 -0.4765
6.1849 -1.9849 -0.4894
6.0955 -2.0149 -0.4888
6.0407 -2.2549 -0.5177
5.9307 -2.1772 -0.5018
5.6673 -2.5007 -0.5311
5.5717 -2.6177 -0.5417
5.4704 -2.4069 -0.5086
5.3763 -2.4383 -0.5079
5.2823 -2.4698 -0.5072
5.1936 -2.4238 -0.4966
5.1085 -2.3798 -0.4864
5.1259 -0.7003 -0.2649
5.1544 -0.1318 -0.1911
5.0555 -0.1555 -0.1892
4.9882 -0.1780 -0.1887
4.9360 -0.1576 -0.1833
4.9091 -0.1530 -0.1813
3.8678 -2.3874 -0.4237
3.6618 -2.6958 -0.4539
6.0030 0.9680 -0.1033
6.0034 0.9546 -0.1054
5.9897 0.9500 -0.1053
5.9831 0.9405 -0.1064
5.9760 0.9308 -0.1076
5.9629 0.9254 -0.1076
5.9637 0.9090 -0.1103
5.9546 0.8997 -0.1112
5.9495 0.8865 -0.1130
5.9396 0.8769 -0.1139
5.9319 0.8650 -0.1154
5.9237 0.8528 -0.1168
5.9189 0.8366 -0.1191
5.9051 0.8289 -0.1195
5.8962 0.8155 -0.1211
5.8820 0.8075 -0.1215
5.8795 0.7848 -0.1250
5.8708 0.7684 -0.1271
5.8615 0.7517 -0.1292
5.8461 0.7424 -0.1297
5.8401 0.7184 -0.1332
5.8250 0.7071 -0.1341
5.8136 0.6887 -0.1363
5.8029 0.6674 -0.1391
5.7617 0.6098 -0.1458
6.4206 -1.5108 -0.5234
6.2333 -1.4671 -0.5051
6.1275 -1.3794 -0.4848
6.0484 -1.3818 -0.4804
5.9879 -1.4741 -0.4914
5.9282 -1.5953 -0.5071
5.8502 -1.6214 -0.5066
5.7695 -1.6223 -0.5019
5.6943 -1.6735 -0.5055
5.6136 -1.6494 -0.4968
5.5336 -1.5541 -0.4768
5.4601 -1.6267 -0.4839
5.3793 -1.9156 -0.5250
5.2891 -2.1273 -0.5533
5.2076 -2.0920 -0.5428
5.1192 -1.4768 -0.4394
5.1504 -0.8060 -0.3344
5.1340 -0.0635 -0.2151
5.1029 -0.0697 -0.2143
5.0626 -0.1103 -0.2183
5.0250 -0.1375 -0.2204
4.9918 -0.1486 -0.2201
4.9641 -0.1433 -0.2176
4.9385 -0.1341 -0.2146
4.9120 -0.1294 -0.2122
3.9647 -2.1271 -0.4733
3.9279 -1.9370 -0.4408
3.7817 -2.1174 -0.4607
5.9996 0.9727 -0.1165
5.9958 0.9621 -0.1182
5.9936 0.9500 -0.1203
5.9848 0.9418 -0.1212
5.9787 0.9315 -0.1227
5.9741 0.9196 -0.1246
5.9642 0.9111 -0.1255
5.9569 0.9004 -0.1270
5.9499 0.8887 -0.1287
5.9408 0.8784 -0.1300
5.9355 0.8642 -0.1323
5.9287 0.8505 -0.1344
5.9198 0.8382 -0.1361
5.9089 0.8273 -0.1373
5.8983 0.8155 -0.1388
5.8936 0.7963 -0.1421
5.8846 0.7809 -0.1443
5.8693 0.7727 -0.1448
5.8629 0.7519 -0.1482
5.8556 0.7308 -0.1517
5.8396 0.7213 -0.1523
5.8286 0.7031 -0.1549
5.8189 0.6812 -0.1584
5.8078 0.6599 -0.1616
5.7913 0.6471 -0.1628
5.7790 0.6244 -0.1662
5.7678 0.5968 -0.1706
6.3871 -1.1807 -0.5454
6.3019 -1.1657 -0.5366
6.2312 -1.1894 -0.5361
6.1549 -1.1931 -0.5315
6.0800 -1.1975 -0.5271
6.0104 -1.2208 -0.5266
5.9407 -1.2441 -0.5262
5.8679 -1.2477 -0.5218
5.7963 -1.2520 -0.5176
5.7297 -1.2940 -0.5208
5.6622 -1.3373 -0.5242
5.5937 -1.3810 -0.5276
5.5235 -1.4044 -0.5271
5.4534 -1.4279 -0.5266
5.3887 -1.2362 -0.4863
5.2362 -0.8811 -0.4094
5.2000 -0.7524 -0.3829
5.1622 -0.6811 -0.3670
5.1547 -0.0849 -0.2552
5.1276 -0.0701 -0.2505
5.0974 -0.0719 -0.2488
5.0596 -0.1022 -0.2518
4.9339 -0.1308 -0.2484
4.9073 -0.1262 -0.2457
4.8771 -0.1322 -0.2447
4.0654 -1.7339 -0.4872
3.9993 -1.7560 -0.4867
3.8880 -1.8699 -0.5003
6.0006 0.9747 -0.1306
5.9978 0.9634 -0.1328
5.9924 0.9534 -0.1345
5.9856 0.9439 -0.1360
5.9813 0.9322 -0.1382
5.9756 0.9211 -0.1401
5.9648 0.9133 -0.1409
5.9564 0.9033 -0.1424
5.9486 0.8925 -0.1441
5.9403 0.8815 -0.1458
5.9291 0.8726 -0.1468
5.9257 0.8560 -0.1501
5.9183 0.8422 -0.1525
5.9074 0.8314 -0.1539
5.8990 0.8173 -0.1563
5.8907 0.8021 -0.1589
5.8817 0.7868 -0.1615
5.8734 0.7696 -0.1645
5.8638 0.7530 -0.1673
5.8546 0.7345 -0.1705
5.8401 0.7225 -0.1720
5.8269 0.7078 -0.1741
5.8084 0.6604 -0.1828
5.7944 0.6424 -0.1856
5.7772 0.6294 -0.1870
6.2436 -0.7974 -0.5295
6.1823 -0.8178 -0.5291
6.1168 -0.8243 -0.5253
5.9916 -0.8508 -0.5211
5.7027 -1.0781 -0.5471
5.4478 -1.0801 -0.5274
5.3931 -0.8526 -0.4744
5.3412 -0.8062 -0.4603
5.2866 -0.8368 -0.4626
5.2377 -0.8048 -0.4519
5.1719 -0.9266 -0.4728
5.1378 -0.8033 -0.4437
5.1705 -0.1393 -0.3039
5.1551 -0.0611 -0.2860
5.1268 -0.0531 -0.2820
5.0921 -0.0729 -0.2836
5.0637 -0.0691 -0.2805
5.0315 -0.0799 -0.2803
4.9993 -0.0906 -0.2800
4.9686 -0.0968 -0.2789
4.9421 -0.0923 -0.2759
4.9139 -0.0935 -0.2739
6.0094 0.9844 -0.1436
5.9994 0.9780 -0.1442
6.0018 0.9635 -0.1480
5.9932 0.9555 -0.1491
5.9863 0.9461 -0.1508
5.9752 0.9393 -0.1515
5.9733 0.9254 -0.1547
5.9653 0.9155 -0.1564
5.9659 0.8984 -0.1606
5.9533 0.8911 -0.1612
5.9448 0.8801 -0.1632
5.9343 0.8704 -0.1646
5.9282 0.8561 -0.1675
5.9230 0.8401 -0.1709
5.9081 0.8331 -0.1713
5.9075 0.8104 -0.1768
5.8960 0.7984 -0.1787
5.8795 0.7919 -0.1788
5.8744 0.7707 -0.1835
5.8603 0.7599 -0.1848
5.8418 0.7221 -0.1924
5.8289 0.7065 -0.1950
5.8199 0.6831 -0.1999
5.7921 0.6483 -0.2059
5.7766 0.6318 -0.2085
5.7656 0.6036 -0.2144
6.0550 -0.6280 -0.5385
5.9963 -0.6354 -0.5351
5.9410 -0.6539 -0.5347
5.8936 -0.7085 -0.5438
5.8396 -0.7399 -0.5466
5.7810 -0.7462 -0.5430
5.7247 -0.7650 -0.5426
5.6711 -0.8105 -0.5489
5.5558 -0.8216 -0.5414
5.4998 -0.8536 -0.5442
5.4436 -0.7692 -0.5188
5.3954 -0.5965 -0.4727
5.3377 -0.7689 -0.5094
5.2765 -0.8885 -0.5330
5.2209 -0.9071 -0.5326
5.1635 -0.9396 -0.5354
5.1293 -0.8152 -0.5023
5.1499 -0.0629 -0.3217
5.1239 -0.0451 -0.3151
5.0981 -0.0312 -0.3094
5.0702 -0.0283 -0.3063
5.0401 -0.0343 -0.3051
5.0103 -0.0402 -0.3039
4.9758 -0.0599 -0.3056
4.9461 -0.0658 -0.3044
4.9129 -0.0809 -0.3052
4.8795 -0.0962 -0.3059
4.2963 -1.1787 -0.5169
4.2770 -1.1239 -0.5019
6.0115 0.9858 -0.1580
6.0100 0.9741 -0.1610
6.0016 0.9663 -0.1623
5.9930 0.9583 -0.1636
5.9851 0.9496 -0.1652
5.9836 0.9359 -0.1688
5.9749 0.9269 -0.1704
5.9658 0.9178 -0.1719
5.9582 0.9071 -0.1741
5.9563 0.8913 -0.1782
5.9519 0.8766 -0.1817
5.9386 0.8691 -0.1825
5.9331 0.8541 -0.1860
5.9223 0.8434 -0.1878
5.9155 0.8279 -0.1914
5.9017 0.8193 -0.1924
5.8958 0.8011 -0.1967
5.8865 0.7858 -0.2000
5.8810 0.7647 -0.2051
5.8653 0.7554 -0.2061
5.8518 0.7428 -0.2082
5.8401 0.7267 -0.2114
5.8314 0.7045 -0.2166
5.8162 0.6913 -0.2187
5.8048 0.6703 -0.2233
5.7979 0.6386 -0.2312
5.7814 0.6229 -0.2338
5.7680 0.5992 -0.2389
6.0349 -0.3891 -0.5328
5.8885 -0.4482 -0.5345
5.8407 -0.4744 -0.5369
5.6891 -0.5150 -0.5331
5.6402 -0.5414 -0.5355
5.4398 -0.5984 -0.5314
5.3930 -0.5248 -0.5069
5.3432 -0.5800 -0.5169
5.2929 -0.6171 -0.5221
5.2381 -0.6872 -0.5357
5.1847 -0.7263 -0.5411
5.1356 -0.7316 -0.5377
5.1469 -0.0547 -0.3554
5.1199 -0.0415 -0.3492
5.0952 -0.0234 -0.3419
5.0618 -0.0396 -0.3430
5.0285 -0.0548 -0.3439
4.9999 -0.0553 -0.3412
4.9730 -0.0521 -0.3377
4.9398 -0.0673 -0.3386
4.9064 -0.0825 -0.3394
4.8767 -0.0884 -0.3381
4.3183 -1.0162 -0.5350
6.0070 0.9910 -0.1707
6.0045 0.9801 -0.1737
6.0004 0.9697 -0.1764
5.9927 0.9611 -0.1782
5.9888 0.9497 -0.1811
5.9872 0.9361 -0.1851
5.9764 0.9284 -0.1862
5.9709 0.9165 -0.1892
5.9622 0.9066 -0.1912
5.9549 0.8951 -0.1939
5.9454 0.8849 -0.1959
5.9420 0.8686 -0.2004
5.9292 0.8603 -0.2016
5.9193 0.8489 -0.2039
5.9118 0.8344 -0.2075
5.9051 0.8180 -0.2116
5.8970 0.8022 -0.2155
5.8823 0.7933 -0.2166
5.8800 0.7684 -0.2238
5.8679 0.7543 -0.2268
5.8422 0.7256 -0.2326
5.8323 0.7051 -0.2377
5.8199 0.6869 -0.2418
5.7876 0.6600 -0.2464
5.9896 -0.2576 -0.5433
5.9436 -0.2730 -0.5430
5.9064 -0.3207 -0.5533
5.8514 -0.3039 -0.5423
5.8053 -0.3193 -0.5420
5.7593 -0.3347 -0.5417
5.7132 -0.3501 -0.5414
5.6681 -0.3733 -0.5435
5.6218 -0.3888 -0.5431
5.5761 -0.4131 -0.5455
5.5292 -0.4197 -0.5425
5.4834 -0.4622 -0.5503
5.4362 -0.4972 -0.5557
5.3913 -0.4397 -0.5337
5.3435 -0.4909 -0.5439
5.2944 -0.5355 -0.5520
5.2494 -0.5315 -0.5459
5.2026 -0.5471 -0.5456
5.1688 -0.0754 -0.4005
5.1405 -0.0618 -0.3934
5.1170 -0.0334 -0.3823
5.0872 -0.0343 -0.3794
5.0533 -0.0507 -0.3807
5.0270 -0.0424 -0.3754
4.9970 -0.0474 -0.3736
4.9685 -0.0489 -0.3710
4.9387 -0.0548 -0.3696
4.9072 -0.0653 -0.3694
4.8719 -0.0852 -0.3716
4.4594 -0.7868 -0.5376
4.4022 -0.8240 -0.5427
4.3490 -0.8519 -0.5453
6.0097 0.9796 -0.1896
6.0012 0.9718 -0.1912
5.9946 0.9626 -0.1934
5.9915 0.9506 -0.1970
5.9849 0.9404 -0.1996
5.9760 0.9314 -0.2015
5.9714 0.9189 -0.2051
5.9662 0.9061 -0.2087
5.9544 0.8982 -0.2099
5.9490 0.8844 -0.2138
5.9390 0.8741 -0.2161
5.9254 0.8665 -0.2169
5.9231 0.8478 -0.2228
5.9118 0.8370 -0.2251
5.9043 0.8215 -0.2293
5.8975 0.8042 -0.2342
5.8957 0.7797 -0.2421
5.8815 0.7689 -0.2439
5.8687 0.7556 -0.2468
5.8577 0.7390 -0.2510
5.8405 0.7302 -0.2519
5.8284 0.7132 -0.2561
5.8157 0.6959 -0.2602
5.9736 -0.0763 -0.5330
5.9279 -0.0777 -0.5281
5.8868 -0.0914 -0.5278
5.8492 -0.1180 -0.5322
5.8143 -0.1586 -0.5415
5.7691 -0.1587 -0.5362
5.7224 -0.1464 -0.5267
5.6793 -0.1469 -0.5218
5.6385 -0.1605 -0.5215
5.5978 -0.1741 -0.5212
5.3082 -0.3210 -0.5356
5.2645 -0.3496 -0.5399
5.2209 -0.3721 -0.5422
5.1797 -0.3780 -0.5393
5.1899 -0.1088 -0.4519
5.1677 -0.0573 -0.4323
5.1397 -0.0437 -0.4245
5.1212 0.0030 -0.4070
5.0895 -0.0076 -0.4067
5.0617 -0.0049 -0.4026
5.0288 -0.0199 -0.4037
4.9957 -0.0350 -0.4048
4.9657 -0.0410 -0.4032
4.9358 -0.0470 -0.4017
4.8988 -0.0714 -0.4054
4.8563 -0.1076 -0.4123
4.5127 -0.6551 -0.5523
6.0189 0.9895 -0.2026
6.0149 0.9793 -0.2058
6.0031 0.9733 -0.2064
6.0035 0.9596 -0.2114
5.9952 0.9508 -0.2135
5.9865 0.9420 -0.2155
5.9803 0.9310 -0.2187
5.9719 0.9212 -0.2211
5.9648 0.9099 -0.2243
5.9573 0.8985 -0.2274
5.9518 0.8847 -0.2317
5.9424 0.8737 -0.2345
5.9342 0.8610 -0.2380
5.9246 0.8489 -0.2411
5.9139 0.8374 -0.2439
5.9098 0.8181 -0.2502
5.8966 0.8078 -0.2523
5.8889 0.7903 -0.2576
5.8798 0.7734 -0.2625
5.8421 0.7300 -0.2733
5.9540 -0.0238 -0.5582
5.8717 -0.0444 -0.5551
5.7517 -0.0845 -0.5542
5.7106 -0.0923 -0.5518
5.3917 -0.2050 -0.5517
5.2708 -0.2524 -0.5533
5.2306 -0.2658 -0.5531
5.1949 -0.2520 -0.5436
5.1703 -0.1869 -0.5170
5.1604 -0.0692 -0.4735
5.1122 -0.0129 -0.4472
5.0826 -0.0139 -0.4438
5.0475 -0.0346 -0.4467
5.0213 -0.0265 -0.4405
4.9928 -0.0271 -0.4371
4.9612 -0.0377 -0.4369
4.9277 -0.0529 -0.4381
4.8839 -0.0933 -0.4470
4.8361 -0.1400 -0.4577
4.7780 -0.2071 -0.4744
4.6856 -0.3431 -0.5115
4.6208 -0.4124 -0.5281
4.5708 -0.4480 -0.5345
4.5198 -0.4839 -0.5409
6.0126 0.9833 -0.2196
6.0019 0.9768 -0.2206
6.0022 0.9631 -0.2260
5.9929 0.9551 -0.2278
5.9861 0.9449 -0.2309
5.9771 0.9360 -0.2331
5.9723 0.9236 -0.2373
5.9608 0.9158 -0.2387
5.9567 0.9016 -0.2437
5.9487 0.8901 -0.2471
5.9418 0.8769 -0.2512
5.9311 0.8665 -0.2538
5.9224 0.8537 -0.2576
5.9124 0.8415 -0.2610
5.8998 0.8314 -0.2632
5.8725 0.7553 -0.2891
5.8566 0.7451 -0.2909
5.8258 0.6826 -0.3110
5.8199 0.1217 -0.5285
5.7870 0.1008 -0.5321
5.6812 0.0595 -0.5337
5.6454 0.0475 -0.5334
5.6089 0.0412 -0.5309
5.5733 0.0293 -0.5306
5.4664 -0.0015 -0.5280
5.4310 -0.0085 -0.5258
5.3952 -0.0303 -0.5294
5.3596 -0.0422 -0.5291
5.3249 -0.0440 -0.5251
5.2883 -0.0661 -0.5286
5.2487 -0.1059 -0.5387
5.2104 -0.1295 -0.5426
5.1748 -0.1365 -0.5405
5.1628 -0.0352 -0.4994
5.1350 -0.0219 -0.4904
5.1070 -0.0135 -0.4833
5.0810 -0.0016 -0.4751
5.0476 -0.0167 -0.4764
5.0202 -0.0131 -0.4712
4.9865 -0.0293 -0.4729
4.9512 -0.0489 -0.4757
4.9191 -0.0597 -0.4754
4.8683 -0.1161 -0.4904
4.8218 -0.1582 -0.5004
4.7592 -0.2333 -0.5211
4.7293 -0.2334 -0.5170
4.6793 -0.2758 -0.5266
4.6471 -0.2806 -0.5241
4.6146 -0.2866 -0.5220
6.0234 1.0045 -0.2280
6.0197 0.9944 -0.2317
6.0114 0.9868 -0.2337
6.0048 0.9777 -0.2365
5.9958 0.9698 -0.2385
5.9925 0.9580 -0.2430
5.9829 0.9499 -0.2450
5.9795 0.9370 -0.2499
5.9728 0.9260 -0.2535
5.9553 0.9055 -0.2596
5.9506 0.8912 -0.2649
5.9411 0.8802 -0.2681
5.9312 0.8691 -0.2713
5.9224 0.8564 -0.2753
5.9109 0.8457 -0.2781
5.9032 0.8304 -0.2834
5.8928 0.8172 -0.2874
5.8509 0.7553 -0.3072
5.8446 0.7307 -0.3166
5.8206 0.6934 -0.3288
5.8064 0.6759 -0.3340
5.2895 -0.0216 -0.5507
5.1875 -0.0459 -0.5458
5.1597 -0.0269 -0.5337
5.1387 0.0139 -0.5135
5.1101 0.0171 -0.5080
5.0768 0.0020 -0.5094
5.0447 -0.0087 -0.5091
5.0140 -0.0151 -0.5073
4.9820 -0.0258 -0.5071
4.9467 -0.0454 -0.5101
4.9047 -0.0810 -0.5188
4.8611 -0.1180 -0.5279
4.8162 -0.1555 -0.5371
4.7691 -0.1957 -0.5470
4.7372 -0.2015 -0.5447
4.7055 -0.2072 -0.5424
4.6940 -0.1740 -0.5268
4.6889 -0.1317 -0.5083
6.0141 1.0003 -0.2439
6.0090 0.9908 -0.2474
5.9810 0.9388 -0.2664
5.9591 0.9053 -0.2781
5.9500 0.8945 -0.2815
5.9421 0.8821 -0.2859
5.9321 0.8710 -0.2893
5.9224 0.8591 -0.2932
5.9137 0.8455 -0.2979
5.8945 0.8178 -0.3074
5.8860 0.8013 -0.3135
5.7117 0.2438 -0.5375
5.6794 0.2368 -0.5355
5.6492 0.2190 -0.5388
5.6181 0.2047 -0.5403
5.2998 0.0933 -0.5403
5.2705 0.1000 -0.5326
5.2390 0.0895 -0.5324
5.2032 0.0571 -0.5413
5.1693 0.0380 -0.5446
5.1358 0.0220 -0.5465
5.1121 0.0431 -0.5332
5.0818 0.0368 -0.5313
5.0462 0.0133 -0.5363
5.0126 -0.0028 -0.5382
4.9827 -0.0079 -0.5358
4.9526 -0.0141 -0.5339
4.9209 -0.0247 -0.5336
4.8770 -0.0646 -0.5447
4.8446 -0.0755 -0.5445
4.8149 -0.0806 -0.5421
4.7871 -0.0821 -0.5384
4.7551 -0.0928 -0.5382
4.7285 -0.0930 -0.5340
4.7094 -0.0800 -0.5252
5.9806 0.9418 -0.2822
5.9719 0.9322 -0.2854
5.9494 0.8977 -0.2983
5.9345 0.8716 -0.3084
5.9269 0.8575 -0.3139
5.9105 0.8280 -0.3254
5.8976 0.8169 -0.3286
5.1863 0.1335 -0.5386
5.1542 0.1151 -0.5421
5.1219 0.0975 -0.5451
5.0584 0.0686 -0.5484
5.0190 0.0323 -0.5593
4.9925 0.0350 -0.5535
4.9649 0.0334 -0.5496
4.9288 0.0098 -0.5549
4.9016 0.0084 -0.5510
4.8708 -0.0019 -0.5508
4.8421 -0.0077 -0.5487
4.8091 -0.0225 -0.5503
4.7783 -0.0328 -0.5501
4.7475 -0.0432 -0.5499
5.9866 0.9557 -0.2937
5.9764 0.9475 -0.2961
5.9639 0.9070 -0.3147
5.9512 0.8990 -0.3165
5.9391 0.8701 -0.3292
5.9110 0.8301 -0.3448
5.7108 0.3680 -0.5469
5.6843 0.3496 -0.5516
5.6544 0.3453 -0.5485
5.5956 0.3351 -0.5431
5.5385 0.3198 -0.5408
5.3398 0.2495 -0.5413
5.3123 0.2470 -0.5377
5.2820 0.2245 -0.5439
5.2552 0.2251 -0.5388
5.2261 0.2115 -0.5405
5.1986 0.2061 -0.5384
5.1692 0.1925 -0.5401
5.1420 0.1871 -0.5380
5.1136 0.1777 -0.5378
5.0819 0.1575 -0.5425
5.0518 0.1436 -0.5442
5.0191 0.1231 -0.5489
4.9931 0.1211 -0.5453
4.9689 0.1225 -0.5402
4.9451 0.1241 -0.5351
4.9119 0.1035 -0.5398
4.8764 0.0792 -0.5459
4.8509 0.0764 -0.5428
4.8263 0.0748 -0.5392
4.7978 0.0653 -0.5390
4.7629 0.0441 -0.5436
5.9891 0.9568 -0.3109
5.9769 0.9499 -0.3124
5.9670 0.9248 -0.3242
5.9641 0.9097 -0.3320
5.9376 0.8743 -0.3463
5.9142 0.8295 -0.3664
5.8991 0.8206 -0.3684
5.7419 0.4630 -0.5343
5.6356 0.4303 -0.5320
