ply
format ascii 1.0
element vertex 2111
property float x
property float y
property float z
end_header
3.6259 -2.5441 -0.2520
3.6146 -2.5500 -0.2539
3.6035 -2.5557 -0.2553
3.5917 -2.5622 -0.2540
3.5782 -2.5701 -0.2473
3.5708 -2.5733 -0.2542
3.5579 -2.5810 -0.2462
3.5518 -2.5835 -0.2549
3.5430 -2.5881 -0.2558
3.5252 -2.5977 -0.2538
6.9893 -0.8184 1.5046
6.8300 -0.8959 1.3893
6.4998 -1.0650 1.2278
6.7323 -0.9344 1.2338
6.9023 -0.8214 1.0745
6.8288 -0.8459 0.9163
7.0279 -0.7291 0.8746
7.2567 -0.5948 0.8267
4.7041 -1.9916 0.4175
6.7318 -0.8504 0.4474
6.7583 -0.8268 0.3668
6.8565 -0.7624 0.2827
6.7809 -0.7958 0.1966
6.7756 -0.7894 0.1085
6.7008 -0.8225 0.0242
6.5329 -0.9095 -0.0483
6.5566 -0.8864 -0.1395
6.5485 -0.8813 -0.2291
5.7918 -1.3062 -0.2495
4.9399 -1.7856 -0.2628
4.8168 -1.8544 -0.2697
4.5973 -1.9778 -0.2739
4.4139 -2.0817 -0.2703
4.3279 -2.1310 -0.2631
4.2080 -2.1985 -0.2651
4.1087 -2.2543 -0.2665
4.0148 -2.3082 -0.2587
3.9388 -2.3516 -0.2537
3.9046 -2.3712 -0.2507
3.8857 -2.3808 -0.2609
3.8502 -2.4018 -0.2519
3.8289 -2.4134 -0.2562
3.8034 -2.4280 -0.2540
3.7254 -2.4716 -0.2579
3.7080 -2.4814 -0.2581
3.6893 -2.4923 -0.2547
3.6733 -2.5014 -0.2541
3.6583 -2.5100 -0.2536
3.6195 -2.5316 -0.2562
3.6047 -2.5405 -0.2508
3.5918 -2.5481 -0.2478
3.5822 -2.5532 -0.2510
3.5752 -2.5562 -0.2595
3.5627 -2.5639 -0.2537
3.5523 -2.5699 -0.2520
3.5431 -2.5751 -0.2521
3.5349 -2.5795 -0.2544
3.5265 -2.5842 -0.2550
6.8015 -0.8244 1.4171
6.8582 -0.7251 0.8783
7.0683 -0.5944 0.8322
4.6695 -1.9729 0.4246
6.7592 -0.7246 0.3894
6.6867 -0.7574 0.3040
6.7822 -0.6899 0.2165
6.7413 -0.7035 0.1285
6.6005 -0.7776 0.0480
6.5931 -0.7712 -0.0406
6.5859 -0.7645 -0.1311
5.8765 -1.1708 -0.2631
5.3120 -1.5069 -0.2632
5.1558 -1.5980 -0.2784
4.8279 -1.7935 -0.2762
4.5892 -1.9358 -0.2743
4.3881 -2.0570 -0.2622
4.3109 -2.1033 -0.2595
4.2602 -2.1324 -0.2681
4.1404 -2.2044 -0.2628
3.9954 -2.2921 -0.2518
3.9679 -2.3075 -0.2596
3.8991 -2.3489 -0.2559
3.8532 -2.3749 -0.2669
3.8197 -2.3959 -0.2577
3.7947 -2.4110 -0.2559
3.7734 -2.4236 -0.2568
3.7587 -2.4314 -0.2649
3.7137 -2.4594 -0.2549
3.6955 -2.4704 -0.2535
3.6643 -2.4889 -0.2543
3.6506 -2.4968 -0.2560
3.6235 -2.5129 -0.2565
3.6092 -2.5218 -0.2530
3.5978 -2.5285 -0.2541
3.5851 -2.5364 -0.2514
3.5765 -2.5408 -0.2570
3.5645 -2.5485 -0.2531
3.5549 -2.5540 -0.2544
3.5460 -2.5590 -0.2564
3.5276 -2.5701 -0.2554
3.5181 -2.5761 -0.2523
6.9954 -0.6219 1.5204
7.0192 -0.5794 1.3187
6.8790 -0.6525 1.2095
6.7782 -0.7027 1.1137
6.7728 -0.6962 1.0415
7.0063 -0.5460 1.0152
6.8953 -0.6022 0.9165
6.9261 -0.5728 0.8428
4.6210 -1.9634 0.4300
6.6597 -0.6808 0.4094
6.7199 -0.6316 0.3259
6.6795 -0.6451 0.2388
6.8132 -0.5482 0.1443
6.8835 -0.4905 0.0447
6.6084 -0.6274 -0.2171
6.4053 -0.7466 -0.2778
5.7620 -1.1566 -0.2327
5.5376 -1.2946 -0.2537
5.2678 -1.4646 -0.2492
5.1705 -1.5210 -0.2830
4.8467 -1.7239 -0.2859
4.5865 -1.8884 -0.2774
4.4817 -1.9548 -0.2731
4.3903 -2.0127 -0.2691
4.1195 -2.1844 -0.2562
4.0411 -2.2323 -0.2661
3.9505 -2.2908 -0.2541
3.8883 -2.3295 -0.2562
3.8399 -2.3588 -0.2643
3.8190 -2.3712 -0.2696
3.7820 -2.3967 -0.2531
3.7407 -2.4225 -0.2542
3.6705 -2.4665 -0.2548
3.6405 -2.4853 -0.2545
3.6274 -2.4934 -0.2557
3.6130 -2.5028 -0.2531
3.5878 -2.5189 -0.2510
3.5763 -2.5262 -0.2505
3.5660 -2.5325 -0.2518
3.5569 -2.5378 -0.2548
3.5466 -2.5444 -0.2538
3.5289 -2.5551 -0.2564
3.5105 -2.5673 -0.2522
6.7144 -0.6949 1.4642
6.7994 -0.6333 1.4287
6.7633 -0.6453 1.3511
6.7272 -0.6573 1.2734
6.7530 -0.6310 1.2125
6.7473 -0.6239 1.1411
6.7102 -0.6363 1.0613
6.9754 -0.4582 1.0441
6.7616 -0.5815 0.9249
6.7559 -0.5734 0.8474
4.5590 -1.9595 0.4043
6.5615 -0.6383 0.4290
6.7195 -0.5215 0.3486
6.6442 -0.5578 0.2601
6.6033 -0.5715 0.1721
6.6637 -0.5171 0.0776
6.5216 -0.5988 -0.0038
6.6844 -0.4738 -0.1167
6.6408 -0.4884 -0.2104
6.4950 -0.5734 -0.2853
5.7855 -1.0509 -0.2323
5.5696 -1.1899 -0.2582
5.3008 -1.3679 -0.2569
5.1619 -1.4563 -0.2803
4.9699 -1.5838 -0.2771
4.6897 -1.7691 -0.2779
4.5785 -1.8425 -0.2782
4.3804 -1.9749 -0.2698
4.2348 -2.0717 -0.2667
4.1149 -2.1518 -0.2614
4.0702 -2.1811 -0.2638
4.0258 -2.2105 -0.2634
3.9490 -2.2613 -0.2633
3.8811 -2.3067 -0.2604
3.8277 -2.3416 -0.2630
3.8023 -2.3585 -0.2626
3.7787 -2.3742 -0.2624
3.7481 -2.3962 -0.2506
3.7293 -2.4084 -0.2525
3.7136 -2.4180 -0.2575
3.6972 -2.4284 -0.2601
3.6823 -2.4378 -0.2637
3.6457 -2.4633 -0.2547
3.6029 -2.4922 -0.2508
3.5888 -2.5022 -0.2465
3.5787 -2.5084 -0.2500
3.5692 -2.5141 -0.2540
3.5595 -2.5201 -0.2566
3.5475 -2.5288 -0.2518
3.5387 -2.5342 -0.2544
3.5277 -2.5422 -0.2495
3.5200 -2.5467 -0.2536
3.5107 -2.5532 -0.2512
3.5038 -2.5570 -0.2559
3.4953 -2.5630 -0.2538
6.7803 -0.5701 1.5918
6.7746 -0.5629 1.5256
6.7693 -0.5553 1.4585
6.7024 -0.5870 1.3703
6.7277 -0.5594 1.3112
6.7218 -0.5516 1.2408
6.8459 -0.4587 1.2029
6.8070 -0.4717 1.1192
6.8711 -0.4166 1.0579
4.8411 -1.7218 0.4054
6.6835 -0.4314 0.3715
6.6418 -0.4454 0.2817
6.7790 -0.3336 0.1864
6.5583 -0.4732 0.1022
6.5166 -0.4871 0.0124
6.4117 -0.5464 -0.0699
6.3708 -0.5600 -0.1579
5.3360 -1.2749 -0.1971
5.1532 -1.3887 -0.2776
4.6894 -1.7202 -0.2299
4.6431 -1.7471 -0.2617
4.4623 -1.8711 -0.2742
4.3143 -1.9730 -0.2818
4.1596 -2.0838 -0.2641
4.0985 -2.1275 -0.2582
4.0783 -2.1379 -0.2797
4.0117 -2.1874 -0.2617
3.9324 -2.2431 -0.2589
3.9085 -2.2582 -0.2684
3.8659 -2.2899 -0.2565
3.8464 -2.3018 -0.2666
3.8160 -2.3237 -0.2624
3.7678 -2.3573 -0.2624
3.7407 -2.3774 -0.2550
3.7205 -2.3916 -0.2548
3.7029 -2.4035 -0.2568
3.6831 -2.4179 -0.2536
3.6511 -2.4400 -0.2546
3.5960 -2.4782 -0.2556
3.5861 -2.4842 -0.2609
3.5730 -2.4940 -0.2574
3.5597 -2.5041 -0.2520
3.5502 -2.5104 -0.2546
3.5393 -2.5184 -0.2522
3.5306 -2.5240 -0.2550
3.5209 -2.5309 -0.2538
3.5112 -2.5382 -0.2508
3.5035 -2.5431 -0.2535
3.4956 -2.5484 -0.2545
3.4889 -2.5523 -0.2589
6.8495 -0.4387 1.7262
6.6902 -0.5320 1.5992
6.5968 -0.5824 1.5014
6.7079 -0.4964 1.4779
6.7024 -0.4878 1.4099
6.6963 -0.4793 1.3404
6.6895 -0.4711 1.2694
6.7151 -0.4404 1.2060
6.7414 -0.4089 1.1400
6.9811 -0.2137 1.0378
6.4029 -0.4856 0.2173
6.4562 -0.4294 0.1261
6.4149 -0.4432 0.0372
5.7956 -0.8498 -0.2226
5.2101 -1.2910 -0.1628
4.6426 -1.6984 -0.2141
4.6686 -1.6676 -0.2765
4.4424 -1.8351 -0.2698
4.2986 -1.9388 -0.2799
4.1586 -2.0431 -0.2721
4.0531 -2.1211 -0.2699
3.9626 -2.1885 -0.2644
3.8953 -2.2374 -0.2673
3.8584 -2.2657 -0.2611
3.8338 -2.2829 -0.2656
3.7755 -2.3274 -0.2569
3.7517 -2.3451 -0.2556
3.6924 -2.3884 -0.2568
3.6776 -2.3984 -0.2616
3.6561 -2.4157 -0.2533
3.6431 -2.4244 -0.2581
3.6251 -2.4388 -0.2521
3.5966 -2.4602 -0.2493
3.5871 -2.4659 -0.2562
3.5734 -2.4766 -0.2524
3.5623 -2.4847 -0.2531
3.5510 -2.4932 -0.2521
3.5412 -2.5001 -0.2537
3.5313 -2.5074 -0.2537
3.5216 -2.5146 -0.2532
3.5122 -2.5217 -0.2521
3.5034 -2.5283 -0.2517
3.4948 -2.5348 -0.2507
3.4877 -2.5393 -0.2543
3.4789 -2.5466 -0.2499
6.8192 -0.3575 1.7593
6.6889 -0.4343 1.6418
6.7450 -0.3822 1.5996
7.4705 0.1386 1.7985
6.7652 -0.3406 1.4726
6.7924 -0.3071 1.4118
6.8212 -0.2719 1.3487
7.1567 0.0005 1.2862
7.0706 -0.0445 1.1805
6.5980 -0.3720 0.9934
4.4186 -1.9412 0.4191
5.3136 -1.2153 0.2571
5.2873 -1.2241 0.2004
5.0587 -1.3927 0.1594
4.9412 -1.4753 0.1190
6.2328 -0.4280 -0.1143
6.3769 -0.2919 -0.2344
5.1291 -1.2769 -0.1399
5.0256 -1.3498 -0.1750
4.8845 -1.4555 -0.1926
4.6955 -1.6034 -0.1844
4.7029 -1.5862 -0.2404
4.6611 -1.6110 -0.2774
4.4177 -1.8023 -0.2630
4.3687 -1.8361 -0.2832
4.2905 -1.8967 -0.2828
4.1962 -1.9731 -0.2659
4.1385 -2.0176 -0.2670
4.0835 -2.0604 -0.2659
4.0319 -2.1008 -0.2632
3.9837 -2.1390 -0.2590
3.9484 -2.1655 -0.2629
3.9165 -2.1894 -0.2672
3.8806 -2.2176 -0.2648
3.8118 -2.2731 -0.2537
3.7889 -2.2901 -0.2575
3.7660 -2.3074 -0.2594
3.7405 -2.3279 -0.2555
3.7168 -2.3471 -0.2516
3.6823 -2.3725 -0.2576
3.6653 -2.3856 -0.2583
3.6519 -2.3947 -0.2643
3.6324 -2.4113 -0.2570
3.6162 -2.4244 -0.2540
3.6031 -2.4342 -0.2556
3.5895 -2.4450 -0.2546
3.5666 -2.4619 -0.2583
3.5552 -2.4708 -0.2583
3.5437 -2.4800 -0.2565
3.5322 -2.4897 -0.2528
3.5225 -2.4972 -0.2530
3.5137 -2.5036 -0.2548
3.5044 -2.5110 -0.2539
3.4964 -2.5168 -0.2560
3.4861 -2.5264 -0.2479
3.4794 -2.5306 -0.2528
3.4714 -2.5371 -0.2510
7.2623 0.0819 1.9258
7.5350 0.2968 1.9588
7.1762 0.0532 1.7404
6.5016 -0.3326 1.0072
6.4044 -0.3907 0.9124
4.4397 -1.8850 0.4319
5.0334 -1.3874 0.3711
5.1000 -1.3226 0.3243
5.1616 -1.2607 0.2724
5.1367 -1.2690 0.2188
5.0289 -1.3463 0.1713
5.8064 -0.6266 -0.2118
4.9048 -1.3778 -0.1399
5.0656 -1.2221 -0.2498
4.6956 -1.5381 -0.1858
4.6456 -1.5589 -0.2749
4.5360 -1.6476 -0.2783
4.4403 -1.7249 -0.2811
4.3398 -1.8085 -0.2741
4.2527 -1.8809 -0.2676
4.1871 -1.9342 -0.2685
4.1175 -1.9925 -0.2614
4.0732 -2.0272 -0.2681
4.0213 -2.0701 -0.2652
3.9429 -2.1330 -0.2698
3.9084 -2.1606 -0.2719
3.8378 -2.2197 -0.2652
3.8122 -2.2398 -0.2686
3.7535 -2.2900 -0.2582
3.7301 -2.3094 -0.2569
3.7064 -2.3297 -0.2526
3.6917 -2.3400 -0.2603
3.6725 -2.3559 -0.2591
3.6594 -2.3648 -0.2669
3.6389 -2.3832 -0.2594
3.6212 -2.3986 -0.2549
3.6067 -2.4105 -0.2548
3.5934 -2.4211 -0.2558
3.5809 -2.4311 -0.2569
3.5434 -2.4630 -0.2508
3.5322 -2.4725 -0.2490
3.5132 -2.4875 -0.2511
3.5049 -2.4936 -0.2542
3.4877 -2.5076 -0.2544
3.4803 -2.5130 -0.2574
3.4716 -2.5208 -0.2538
3.4641 -2.5270 -0.2535
6.6744 -0.1178 1.2392
4.4205 -1.8517 0.4113
4.9986 -1.2995 0.1833
4.9005 -1.3731 0.1393
4.9509 -1.2588 -0.1510
4.9663 -1.2291 -0.2185
4.6042 -1.5430 -0.2070
4.6097 -1.5245 -0.2635
4.5625 -1.5569 -0.2968
4.3313 -1.7604 -0.2768
4.2472 -1.8336 -0.2725
4.1802 -1.8911 -0.2730
4.1013 -1.9622 -0.2594
4.0480 -2.0080 -0.2590
4.0059 -2.0431 -0.2635
3.9578 -2.0855 -0.2592
3.9266 -2.1104 -0.2669
3.8205 -2.2032 -0.2598
3.7902 -2.2300 -0.2567
3.7691 -2.2467 -0.2627
3.7439 -2.2687 -0.2612
3.7204 -2.2893 -0.2596
3.6840 -2.3190 -0.2661
3.6609 -2.3407 -0.2581
3.6422 -2.3575 -0.2552
3.6263 -2.3711 -0.2554
3.6108 -2.3847 -0.2546
3.5928 -2.4020 -0.2465
3.5831 -2.4084 -0.2549
3.5712 -2.4180 -0.2572
3.5461 -2.4404 -0.2536
3.5256 -2.4574 -0.2564
3.5162 -2.4649 -0.2586
3.5046 -2.4767 -0.2514
3.4961 -2.4835 -0.2534
3.4875 -2.4907 -0.2539
3.4783 -2.4995 -0.2503
3.4716 -2.5039 -0.2558
3.4640 -2.5104 -0.2560
3.4563 -2.5173 -0.2546
6.6871 -0.0255 1.4350
6.5808 -0.0930 1.3268
4.6064 -1.6361 0.4090
4.6510 -1.5868 0.3756
5.1757 -1.0608 0.1830
4.8535 -1.3443 0.1523
4.8830 -1.3028 0.0969
4.9049 -1.2677 0.0391
4.9284 -1.2302 -0.0223
4.9130 -1.2293 -0.0781
4.9081 -1.2179 -0.1375
4.8537 -1.2551 -0.1829
4.6101 -1.4821 -0.1582
4.6156 -1.4622 -0.2145
4.5872 -1.4763 -0.2581
4.5339 -1.5164 -0.2889
4.3279 -1.7044 -0.2828
4.1604 -1.8596 -0.2691
4.0961 -1.9187 -0.2658
4.0414 -1.9685 -0.2647
3.9923 -2.0132 -0.2637
3.9447 -2.0574 -0.2595
3.9051 -2.0933 -0.2590
3.8678 -2.1276 -0.2571
3.8059 -2.1835 -0.2574
3.7570 -2.2263 -0.2630
3.7055 -2.2751 -0.2549
3.6847 -2.2941 -0.2542
3.6681 -2.3080 -0.2585
3.6523 -2.3211 -0.2627
3.6288 -2.3457 -0.2503
3.6149 -2.3573 -0.2540
3.6030 -2.3664 -0.2605
3.5886 -2.3795 -0.2600
3.5727 -2.3955 -0.2541
3.5485 -2.4170 -0.2553
3.5372 -2.4273 -0.2553
3.5258 -2.4381 -0.2536
3.5154 -2.4476 -0.2532
3.5056 -2.4564 -0.2533
3.4869 -2.4738 -0.2516
3.4701 -2.4892 -0.2510
3.4627 -2.4954 -0.2529
3.4552 -2.5020 -0.2533
6.4111 -0.1562 1.4499
6.6519 0.0681 1.4684
4.7936 -1.4746 0.6717
4.6929 -1.5434 0.5774
4.6456 -1.5759 0.5333
4.6391 -1.5717 0.4972
4.5916 -1.5841 0.3832
4.6617 -1.5074 0.3487
5.2205 -0.9472 0.2544
5.2318 -0.9185 0.1920
4.7688 -1.3389 0.1186
4.8184 -1.2254 -0.1111
4.7429 -1.2868 -0.1478
4.6416 -1.3603 -0.2282
4.5979 -1.3906 -0.2677
4.5293 -1.4487 -0.2930
4.3899 -1.5868 -0.2751
4.3149 -1.6559 -0.2835
4.2208 -1.7485 -0.2737
4.1438 -1.8236 -0.2675
4.0348 -1.9266 -0.2710
3.9365 -2.0221 -0.2649
3.8689 -2.0843 -0.2728
3.7921 -2.1624 -0.2563
3.7370 -2.2160 -0.2525
3.7205 -2.2289 -0.2626
3.7007 -2.2467 -0.2660
3.6774 -2.2701 -0.2616
3.6567 -2.2908 -0.2587
3.6224 -2.3233 -0.2594
3.5894 -2.3563 -0.2539
3.5628 -2.3813 -0.2550
3.5409 -2.4004 -0.2615
3.5283 -2.4134 -0.2579
3.5172 -2.4245 -0.2564
3.5076 -2.4331 -0.2584
3.4971 -2.4439 -0.2555
3.4795 -2.4601 -0.2576
3.4710 -2.4683 -0.2572
3.4620 -2.4782 -0.2528
3.4547 -2.4845 -0.2549
3.4476 -2.4908 -0.2566
3.4402 -2.4982 -0.2554
6.2534 -0.2551 1.6757
4.7561 -1.4384 0.6445
4.6566 -1.5200 0.5856
4.6100 -1.5531 0.5415
5.4028 -0.6703 0.2664
5.4538 -0.5966 0.1947
4.6941 -1.3416 0.1348
5.1567 -0.7947 -0.1276
4.8804 -1.0729 -0.1262
4.6487 -1.3084 -0.1181
4.6948 -1.2198 -0.2532
4.6020 -1.3064 -0.2747
4.5054 -1.3994 -0.2877
4.3823 -1.5260 -0.2786
4.1266 -1.7870 -0.2658
4.0708 -1.8423 -0.2688
4.0133 -1.9011 -0.2654
3.9301 -1.9824 -0.2726
3.8863 -2.0280 -0.2680
3.8438 -2.0731 -0.2604
3.7823 -2.1348 -0.2606
3.7558 -2.1612 -0.2615
3.7310 -2.1859 -0.2621
3.7029 -2.2164 -0.2548
3.6867 -2.2301 -0.2633
3.6649 -2.2528 -0.2607
3.6442 -2.2747 -0.2573
3.6274 -2.2911 -0.2588
3.6130 -2.3041 -0.2633
3.5957 -2.3228 -0.2595
3.5821 -2.3356 -0.2621
3.5648 -2.3558 -0.2533
3.5521 -2.3682 -0.2540
3.5296 -2.3897 -0.2580
3.5196 -2.3987 -0.2614
3.5095 -2.4082 -0.2632
3.4966 -2.4244 -0.2530
3.4889 -2.4301 -0.2598
3.4703 -2.4496 -0.2567
3.4620 -2.4581 -0.2565
3.4537 -2.4670 -0.2546
3.4467 -2.4730 -0.2580
3.4389 -2.4818 -0.2550
6.1839 -0.0846 1.3193
6.2820 0.0308 1.2853
6.2431 0.0179 1.2016
4.7113 -1.4201 0.6513
4.6498 -1.4682 0.6007
4.6316 -1.4743 0.5615
4.3385 -1.7354 0.4145
5.2886 -0.6840 0.2836
5.3333 -0.6134 0.2148
4.6717 -1.2911 0.1448
4.9194 -0.9781 -0.0046
4.6707 -1.2206 -0.0672
4.5531 -1.3199 -0.1425
4.5792 -1.2695 -0.2097
4.5629 -1.2690 -0.2624
4.4566 -1.3791 -0.2700
4.1957 -1.6532 -0.2770
4.0531 -1.8079 -0.2668
3.9541 -1.9123 -0.2684
3.9028 -1.9694 -0.2602
3.8622 -2.0133 -0.2578
3.8356 -2.0384 -0.2671
3.8039 -2.0717 -0.2679
3.7486 -2.1296 -0.2701
3.7202 -2.1612 -0.2654
3.6932 -2.1919 -0.2594
3.6709 -2.2161 -0.2578
3.6533 -2.2333 -0.2619
3.6308 -2.2597 -0.2544
3.6186 -2.2692 -0.2647
3.5848 -2.3064 -0.2604
3.5691 -2.3241 -0.2573
3.5553 -2.3390 -0.2565
3.5423 -2.3531 -0.2558
3.5300 -2.3664 -0.2550
3.5181 -2.3795 -0.2534
3.5077 -2.3900 -0.2549
3.4976 -2.4004 -0.2558
3.4871 -2.4126 -0.2528
3.4777 -2.4228 -0.2523
3.4693 -2.4310 -0.2543
3.4615 -2.4379 -0.2581
3.4527 -2.4484 -0.2547
3.4450 -2.4564 -0.2552
3.4376 -2.4643 -0.2552
3.4306 -2.4715 -0.2559
3.4236 -2.4792 -0.2549
6.2164 0.0937 1.3060
6.3223 0.2253 1.2700
4.6547 -1.4150 0.6545
4.6305 -1.4270 0.6133
4.5623 -1.4849 0.5626
4.5494 -1.4858 0.5256
4.5160 -1.5083 0.4849
4.6445 -1.3125 0.3419
4.7004 -1.2338 0.2978
4.7554 -1.1543 0.2483
4.8078 -1.0757 0.1933
4.6485 -1.2398 0.1550
4.6061 -1.2710 0.1103
4.9729 -0.7669 -0.1472
4.6294 -1.1420 -0.1719
4.6609 -1.0794 -0.2470
4.6034 -1.1292 -0.2868
4.4261 -1.3367 -0.2615
4.3553 -1.4090 -0.2802
4.2002 -1.5786 -0.2910
3.9816 -1.8327 -0.2643
3.9496 -1.8632 -0.2788
3.8509 -1.9799 -0.2613
3.7836 -2.0556 -0.2601
3.7310 -2.1128 -0.2645
3.7068 -2.1396 -0.2654
3.6773 -2.1766 -0.2544
3.6365 -2.2225 -0.2536
3.6210 -2.2378 -0.2589
3.6074 -2.2503 -0.2665
3.5741 -2.2892 -0.2620
3.5450 -2.3232 -0.2579
3.5331 -2.3357 -0.2602
3.5193 -2.3533 -0.2542
3.4973 -2.3782 -0.2534
3.4877 -2.3882 -0.2554
3.4786 -2.3975 -0.2578
3.4687 -2.4098 -0.2544
3.4604 -2.4183 -0.2566
3.4520 -2.4279 -0.2561
3.4434 -2.4387 -0.2528
3.4357 -2.4475 -0.2522
3.4281 -2.4568 -0.2499
3.4220 -2.4617 -0.2555
3.4155 -2.4684 -0.2570
6.4072 0.3640 1.5687
6.2179 0.1984 1.4216
6.2065 0.2141 1.3473
6.2242 0.2609 1.2817
4.6171 -1.3785 0.6277
4.5612 -1.3515 0.3917
4.5653 -1.3307 0.3508
4.6016 -1.2712 0.3087
4.6209 -1.2304 0.2629
4.6932 -1.1247 0.2108
4.7863 -0.9906 0.1494
5.1496 -0.4273 -0.1925
4.9529 -0.6510 -0.2141
4.6596 -1.0086 -0.1848
4.5542 -1.0994 -0.2701
4.3409 -1.3470 -0.2809
4.1694 -1.5491 -0.2813
4.0251 -1.7239 -0.2699
3.9259 -1.8405 -0.2712
3.8379 -1.9474 -0.2636
3.7681 -2.0316 -0.2587
3.7458 -2.0544 -0.2676
3.7184 -2.0873 -0.2664
3.6656 -2.1534 -0.2567
3.6246 -2.2026 -0.2546
3.5929 -2.2374 -0.2612
3.5634 -2.2709 -0.2644
3.5332 -2.3100 -0.2558
3.5098 -2.3367 -0.2579
3.4979 -2.3520 -0.2549
3.4885 -2.3616 -0.2587
3.4783 -2.3739 -0.2580
3.4690 -2.3847 -0.2586
3.4599 -2.3954 -0.2585
3.4516 -2.4047 -0.2599
3.4427 -2.4165 -0.2563
3.4348 -2.4263 -0.2554
3.4277 -2.4334 -0.2585
3.4203 -2.4430 -0.2565
3.4130 -2.4531 -0.2526
3.4069 -2.4587 -0.2567
6.1629 0.2453 1.5149
6.1240 0.2323 1.4312
6.1675 0.3085 1.3793
4.5911 -1.3422 0.6392
4.5087 -1.3265 0.3601
4.9000 -0.7490 0.1483
4.8160 -0.7771 -0.0326
5.0081 -0.4870 -0.1518
4.8431 -0.6810 -0.1794
4.6163 -0.9672 -0.1711
4.5422 -1.0172 -0.2709
4.4285 -1.1558 -0.2783
4.2904 -1.3352 -0.2609
4.2286 -1.4045 -0.2789
4.1570 -1.4914 -0.2846
4.0838 -1.5837 -0.2820
4.0141 -1.6736 -0.2747
3.9059 -1.8116 -0.2675
3.8242 -1.9142 -0.2656
3.7581 -1.9967 -0.2651
3.7293 -2.0329 -0.2646
3.7014 -2.0687 -0.2620
3.6821 -2.0894 -0.2700
3.6575 -2.1216 -0.2662
3.6331 -2.1551 -0.2591
3.6134 -2.1802 -0.2578
3.5987 -2.1956 -0.2646
3.5644 -2.2403 -0.2597
3.5506 -2.2567 -0.2618
3.5358 -2.2764 -0.2587
3.5227 -2.2932 -0.2579
3.5105 -2.3083 -0.2579
3.4998 -2.3206 -0.2606
3.4882 -2.3362 -0.2579
3.4775 -2.3502 -0.2561
3.4683 -2.3607 -0.2585
3.4593 -2.3711 -0.2603
3.4495 -2.3855 -0.2552
3.4414 -2.3950 -0.2567
3.4262 -2.4124 -0.2602
3.4181 -2.4250 -0.2543
3.4115 -2.4321 -0.2570
3.4045 -2.4419 -0.2546
3.3983 -2.4489 -0.2563
6.0472 0.3781 1.2379
5.9927 0.3824 1.0715
4.4872 -1.2802 0.3713
4.8162 -0.8072 0.2844
4.8910 -0.6807 0.2231
4.9533 -0.5673 0.1546
5.2287 -0.0802 -0.1181
5.1258 -0.1871 -0.1804
4.7617 -0.6789 -0.1537
4.5970 -0.8900 -0.1662
4.4852 -0.9987 -0.2505
4.4336 -1.0487 -0.2897
4.2845 -1.2553 -0.2673
4.2211 -1.3304 -0.2856
4.0635 -1.5405 -0.2800
3.9446 -1.6991 -0.2757
3.8502 -1.8257 -0.2706
3.7672 -1.9415 -0.2564
3.7422 -1.9710 -0.2639
3.7125 -2.0112 -0.2616
3.6647 -2.0727 -0.2645
3.5959 -2.1709 -0.2480
3.5842 -2.1806 -0.2606
3.5660 -2.2066 -0.2560
3.5509 -2.2264 -0.2562
3.5372 -2.2438 -0.2576
3.5218 -2.2670 -0.2513
3.5119 -2.2761 -0.2600
3.4993 -2.2938 -0.2575
3.4784 -2.3194 -0.2617
3.4684 -2.3324 -0.2622
3.4577 -2.3488 -0.2570
3.4490 -2.3594 -0.2589
3.4397 -2.3734 -0.2550
3.4312 -2.3853 -0.2535
3.4237 -2.3942 -0.2555
3.4169 -2.4010 -0.2605
3.4094 -2.4118 -0.2582
3.4026 -2.4205 -0.2588
3.3961 -2.4291 -0.2588
6.1095 0.3968 1.7238
5.9789 0.4435 1.2595
5.9351 0.5004 1.0201
5.9477 0.5554 0.9439
4.3870 -1.3388 0.3765
4.6288 -0.9634 0.2978
4.9388 -0.4676 0.1678
5.0510 -0.2705 0.0845
5.1212 -0.1288 -0.0047
5.0857 -0.1406 -0.0810
5.0205 -0.1978 -0.1494
4.4930 -0.9419 -0.1302
4.5039 -0.8928 -0.1990
4.4783 -0.9014 -0.2542
4.4183 -0.9668 -0.2908
4.2631 -1.1957 -0.2649
4.1780 -1.3123 -0.2688
4.0553 -1.4735 -0.2883
3.9208 -1.6701 -0.2696
3.8321 -1.7940 -0.2690
3.7658 -1.8829 -0.2758
3.6977 -1.9845 -0.2620
3.6685 -2.0283 -0.2556
3.6474 -2.0561 -0.2590
3.5866 -2.1612 -0.2173
3.5732 -2.1757 -0.2257
3.5646 -2.1786 -0.2442
3.5401 -2.2048 -0.2604
3.5253 -2.2265 -0.2582
3.5119 -2.2457 -0.2572
3.4985 -2.2662 -0.2534
3.4875 -2.2805 -0.2554
3.4757 -2.2985 -0.2521
3.4665 -2.3089 -0.2571
3.4570 -2.3215 -0.2586
3.4479 -2.3332 -0.2604
3.4385 -2.3477 -0.2575
3.4295 -2.3620 -0.2538
3.4221 -2.3705 -0.2576
3.4142 -2.3825 -0.2556
3.4067 -2.3937 -0.2540
3.3999 -2.4027 -0.2552
3.3934 -2.4108 -0.2569
3.3870 -2.4197 -0.2571
4.3466 -1.3015 0.3470
4.5667 -0.9574 0.3102
5.0512 -0.1297 0.0958
5.0025 -0.1633 0.0238
5.0110 -0.1071 -0.0589
4.9617 -0.1415 -0.1308
4.3894 -0.9035 -0.2847
4.1862 -1.2017 -0.2873
4.0191 -1.4552 -0.2738
3.9573 -1.5472 -0.2719
3.9079 -1.6186 -0.2748
3.8185 -1.7511 -0.2734
3.7408 -1.8707 -0.2638
3.6852 -1.9510 -0.2669
3.5951 -2.1267 -0.1858
3.5836 -2.1361 -0.2001
3.5721 -2.1462 -0.2132
3.5601 -2.1578 -0.2245
3.5500 -2.1647 -0.2396
3.5273 -2.1875 -0.2598
3.5149 -2.2035 -0.2642
3.5008 -2.2262 -0.2604
3.4893 -2.2418 -0.2630
3.4754 -2.2680 -0.2524
3.4663 -2.2772 -0.2600
3.4564 -2.2910 -0.2617
3.4374 -2.3195 -0.2608
3.4283 -2.3343 -0.2581
3.4201 -2.3461 -0.2587
3.4124 -2.3570 -0.2596
3.4049 -2.3678 -0.2600
3.3905 -2.3921 -0.2544
3.3842 -2.3997 -0.2574
3.3780 -2.4080 -0.2589
6.2613 1.2291 1.3018
4.3023 -1.3122 0.3939
4.3059 -1.2851 0.3564
4.4688 -1.0106 0.3211
4.5390 -0.8728 0.2719
4.9448 -0.1080 0.0421
4.9805 -0.0018 -0.0461
4.9588 0.0104 -0.1268
5.1138 0.3311 -0.2648
4.5428 -0.6241 -0.1536
4.4382 -0.7719 -0.1806
4.4406 -0.7280 -0.2512
4.3534 -0.8506 -0.2750
4.2697 -0.9713 -0.2925
4.1723 -1.1239 -0.2916
4.0608 -1.3115 -0.2681
3.9975 -1.4081 -0.2718
3.9465 -1.4834 -0.2796
3.8918 -1.5700 -0.2775
3.8512 -1.6296 -0.2842
3.7369 -1.8353 -0.2365
3.7162 -1.8588 -0.2520
3.6684 -1.9258 -0.2653
3.5715 -2.1351 -0.1638
3.5637 -2.1356 -0.1844
3.5563 -2.1107 -0.2482
3.5454 -2.1194 -0.2629
3.5136 -2.1724 -0.2568
3.5017 -2.1879 -0.2623
3.4890 -2.2080 -0.2620
3.4766 -2.2286 -0.2597
3.4654 -2.2460 -0.2598
3.4545 -2.2641 -0.2580
3.4444 -2.2804 -0.2570
3.4349 -2.2958 -0.2561
3.4262 -2.3088 -0.2572
3.4177 -2.3224 -0.2566
3.4102 -2.3314 -0.2614
3.4025 -2.3433 -0.2616
3.3879 -2.3683 -0.2577
3.3812 -2.3792 -0.2569
3.3750 -2.3877 -0.2590
3.3689 -2.3969 -0.2595
3.3631 -2.4046 -0.2618
6.4497 1.4759 1.7846
4.2246 -1.3575 0.3979
4.2746 -1.2551 0.3663
4.3753 -1.0666 0.3308
4.4851 -0.8564 0.2848
5.7383 1.3628 0.0516
5.1545 0.5982 -0.2776
4.3361 -0.8413 -0.1412
4.3044 -0.8221 -0.2578
4.2506 -0.8892 -0.2935
4.0627 -1.2052 -0.2859
3.9247 -1.4389 -0.2776
3.8709 -1.5291 -0.2758
3.7111 -1.8260 -0.2235
3.7028 -1.8191 -0.2570
3.6747 -1.8650 -0.2582
3.5599 -2.1118 -0.1659
3.5535 -2.1073 -0.1905
3.5636 -2.0488 -0.2585
3.5462 -2.0777 -0.2584
3.5319 -2.0981 -0.2638
3.5167 -2.1233 -0.2637
3.4885 -2.1722 -0.2602
3.4648 -2.2106 -0.2615
3.4533 -2.2316 -0.2584
3.4429 -2.2492 -0.2577
3.4327 -2.2682 -0.2542
3.4239 -2.2816 -0.2562
3.4077 -2.3049 -0.2621
3.3995 -2.3203 -0.2590
3.3922 -2.3309 -0.2613
3.3782 -2.3550 -0.2600
3.3717 -2.3668 -0.2583
3.3654 -2.3794 -0.2549
3.3596 -2.3857 -0.2600
6.2606 1.2568 1.9864
4.1990 -1.3239 0.4075
4.2117 -1.2789 0.3732
4.3343 -1.0423 0.3417
4.4196 -0.8628 0.2973
5.0818 0.6678 -0.2546
4.2696 -0.8096 -0.1812
4.2202 -0.8262 -0.2876
3.9076 -1.3803 -0.2811
3.6982 -1.8131 -0.1840
3.6870 -1.7829 -0.2593
3.6543 -1.8454 -0.2517
3.5476 -2.0890 -0.1672
3.5461 -2.0364 -0.2507
3.5328 -2.0532 -0.2608
3.5024 -2.1064 -0.2611
3.4771 -2.1472 -0.2667
3.4643 -2.1715 -0.2639
3.4519 -2.1972 -0.2581
3.4411 -2.2170 -0.2569
3.4320 -2.2293 -0.2626
3.4223 -2.2472 -0.2613
3.4131 -2.2649 -0.2590
3.4050 -2.2768 -0.2625
3.3967 -2.2927 -0.2605
3.3819 -2.3184 -0.2611
3.3681 -2.3461 -0.2557
3.3619 -2.3559 -0.2574
3.3559 -2.3695 -0.2530
3.3502 -2.3760 -0.2582
3.3448 -2.3855 -0.2584
4.5381 -0.8086 0.6988
4.1240 -1.3997 0.4418
4.1108 -1.4001 0.4078
4.1526 -1.3018 0.3796
4.3925 -0.8031 0.3099
4.8091 0.3864 -0.2644
4.2279 -0.7697 -0.1680
4.2137 -0.7538 -0.2275
4.1682 -0.8103 -0.2674
3.8774 -1.3515 -0.2715
3.6681 -1.7532 -0.2574
3.6427 -1.7975 -0.2619
3.5318 -2.0772 -0.1606
3.5305 -2.0172 -0.2481
3.5162 -2.0394 -0.2544
3.5042 -2.0538 -0.2658
3.4882 -2.0878 -0.2600
3.4629 -2.1337 -0.2622
3.4505 -2.1593 -0.2588
3.4393 -2.1813 -0.2573
3.4196 -2.2165 -0.2595
3.4110 -2.2290 -0.2647
3.4020 -2.2479 -0.2618
3.3860 -2.2763 -0.2638
3.3714 -2.3059 -0.2608
3.3644 -2.3249 -0.2524
3.3582 -2.3349 -0.2547
3.3463 -2.3532 -0.2601
3.3408 -2.3662 -0.2564
3.3355 -2.3767 -0.2555
4.5770 -0.7636 0.8990
4.5155 -0.8351 0.8328
4.5730 -0.7107 0.8203
4.5098 -0.7860 0.7545
4.0680 -1.4271 0.4441
4.3359 -0.7989 0.3219
4.6090 0.1416 -0.1920
4.4751 -0.1019 -0.2224
4.2127 -0.6659 -0.1690
4.1372 -0.7979 -0.1931
4.0998 -0.8399 -0.2353
3.8830 -1.3106 -0.1850
3.8651 -1.3166 -0.2235
3.8564 -1.2965 -0.2721
3.8231 -1.3471 -0.2927
3.6245 -1.8413 -0.1649
3.6435 -1.7413 -0.2455
3.6242 -1.7683 -0.2604
3.5269 -2.0554 -0.1395
3.5190 -2.0539 -0.1618
3.5186 -1.9809 -0.2576
3.5035 -2.0081 -0.2612
3.4873 -2.0439 -0.2567
3.4739 -2.0689 -0.2588
3.4622 -2.0876 -0.2649
3.4492 -2.1166 -0.2608
3.4372 -2.1436 -0.2569
3.4267 -2.1644 -0.2572
3.3903 -2.2340 -0.2608
3.3823 -2.2506 -0.2600
3.3748 -2.2646 -0.2612
3.3676 -2.2802 -0.2597
3.3542 -2.3101 -0.2554
3.3481 -2.3171 -0.2622
3.3422 -2.3306 -0.2600
3.3365 -2.3415 -0.2604
3.3312 -2.3523 -0.2603
3.3260 -2.3631 -0.2596
4.4629 -0.9376 0.9684
4.4599 -0.9165 0.9355
4.4734 -0.8672 0.9107
4.5068 -0.7823 0.8942
4.0485 -1.3646 0.4234
3.6847 -1.8993 0.1366
3.8986 -1.0971 -0.2803
3.7891 -1.3318 -0.2779
3.6027 -1.8310 -0.1547
3.6021 -1.7939 -0.2005
3.5122 -2.0391 -0.1359
3.5050 -2.0338 -0.1604
3.5051 -1.9466 -0.2649
3.4890 -1.9816 -0.2640
3.4734 -2.0181 -0.2599
3.4600 -2.0463 -0.2604
3.4475 -2.0725 -0.2609
3.4247 -2.1208 -0.2612
3.4045 -2.1639 -0.2608
3.3866 -2.2046 -0.2578
3.3708 -2.2370 -0.2591
3.3565 -2.2722 -0.2533
3.3378 -2.3073 -0.2590
3.3323 -2.3244 -0.2525
3.3267 -2.3305 -0.2595
3.3218 -2.3457 -0.2538
4.5033 -0.8879 1.1457
4.4775 -0.9043 1.0989
4.4916 -0.8551 1.0799
4.4772 -0.8521 1.0402
4.0623 -1.2243 0.4068
4.0996 -1.1116 0.3758
3.6610 -1.9236 0.1703
3.6536 -1.9208 0.1486
3.6496 -1.9082 0.1246
3.9432 -0.9910 -0.1524
3.8940 -1.0842 -0.1731
3.8518 -1.1611 -0.1941
3.8645 -1.0644 -0.2695
3.8227 -1.1438 -0.2867
3.7786 -1.2370 -0.2945
3.5800 -1.8259 -0.1422
3.5683 -1.8315 -0.1655
3.4984 -2.0180 -0.1349
3.4906 -2.0145 -0.1585
3.4724 -1.9656 -0.2587
3.4579 -2.0001 -0.2569
3.4331 -2.0537 -0.2598
3.4113 -2.1020 -0.2614
3.3919 -2.1451 -0.2624
3.3834 -2.1593 -0.2682
3.3745 -2.1885 -0.2583
3.3593 -2.2214 -0.2601
3.3455 -2.2487 -0.2645
3.3331 -2.2799 -0.2612
3.3221 -2.3097 -0.2558
3.3119 -2.3323 -0.2565
3.3069 -2.3401 -0.2606
4.0104 -1.2482 0.4118
3.6718 -1.9439 0.2796
3.6518 -1.9551 0.2412
3.6455 -1.9509 0.2212
3.8388 -1.1241 -0.1431
3.8378 -1.0050 -0.2673
3.7513 -1.1937 -0.2899
3.7080 -1.2997 -0.2894
3.5436 -1.8395 -0.1468
3.4836 -2.0005 -0.1317
3.4721 -1.9020 -0.2613
3.4585 -1.9290 -0.2676
3.4430 -1.9754 -0.2585
3.4182 -2.0394 -0.2551
3.3976 -2.0830 -0.2616
3.3880 -2.1060 -0.2621
3.3790 -2.1252 -0.2648
3.3707 -2.1405 -0.2700
3.3623 -2.1685 -0.2623
3.3343 -2.2389 -0.2600
3.3224 -2.2680 -0.2599
3.3169 -2.2815 -0.2598
3.3118 -2.2967 -0.2570
3.3015 -2.3154 -0.2636
3.2971 -2.3285 -0.2611
3.6410 -1.9503 0.2657
3.6355 -1.9438 0.2461
3.6277 -1.9436 0.2267
3.5747 -2.0565 0.2022
3.5699 -2.0497 0.1840
3.5579 -2.0657 0.1695
3.5191 -1.8534 -0.1261
3.5066 -1.8677 -0.1435
3.4713 -1.9663 -0.1377
3.4670 -1.8662 -0.2428
3.4549 -1.8813 -0.2582
3.4411 -1.9145 -0.2609
3.4280 -1.9484 -0.2614
3.3938 -2.0355 -0.2635
3.3840 -2.0591 -0.2656
3.3658 -2.1068 -0.2655
3.3575 -2.1326 -0.2617
3.3497 -2.1592 -0.2557
3.3114 -2.2533 -0.2616
3.3063 -2.2698 -0.2586
3.3013 -2.2834 -0.2580
3.2969 -2.2988 -0.2546
3.2917 -2.3060 -0.2605
3.2872 -2.3168 -0.2615
3.6380 -1.9662 0.3256
3.6308 -1.9658 0.3076
3.6266 -1.9568 0.2894
3.5536 -2.0703 0.2096
3.5396 -2.0949 0.1968
3.5348 -2.0889 0.1798
3.7395 -1.2017 -0.0885
3.7780 -0.9772 -0.1888
3.4865 -1.8669 -0.1302
3.4682 -1.9251 -0.1243
3.4572 -1.9393 -0.1391
3.4488 -1.9335 -0.1645
3.4244 -1.8942 -0.2581
3.4011 -1.9456 -0.2703
3.3523 -2.1005 -0.2556
3.3444 -2.1136 -0.2634
3.3370 -2.1322 -0.2655
3.3301 -2.1563 -0.2615
3.3234 -2.1728 -0.2635
3.3174 -2.1956 -0.2583
3.3060 -2.2289 -0.2573
3.3005 -2.2411 -0.2602
3.2956 -2.2570 -0.2584
3.2909 -2.2719 -0.2569
3.2861 -2.2829 -0.2591
3.2815 -2.2940 -0.2607
3.2769 -2.3031 -0.2642
3.6599 -1.9884 0.4454
3.6538 -1.9865 0.4294
3.6491 -1.9813 0.4137
3.6424 -1.9621 0.3823
3.6366 -1.9581 0.3652
3.6303 -1.9554 0.3478
3.6239 -1.9527 0.3301
3.5340 -2.0830 0.2164
3.5119 -2.1177 0.1903
3.5079 -2.1083 0.1734
3.7079 -1.0290 -0.1990
3.4638 -2.0977 0.0583
3.4530 -2.1208 0.0506
3.4688 -1.8534 -0.1233
3.4513 -1.9157 -0.1162
3.4413 -1.9230 -0.1346
3.4326 -1.9181 -0.1594
3.4236 -1.9152 -0.1835
3.4176 -1.8724 -0.2320
3.4078 -1.8688 -0.2583
3.3847 -1.9340 -0.2625
3.3744 -1.9599 -0.2669
3.3643 -2.0023 -0.2578
3.3467 -2.0539 -0.2592
3.3313 -2.1010 -0.2592
3.3245 -2.1286 -0.2538
3.3177 -2.1445 -0.2576
3.3056 -2.1826 -0.2565
3.2937 -2.2061 -0.2666
3.2893 -2.2280 -0.2598
3.2845 -2.2423 -0.2603
3.2802 -2.2583 -0.2579
3.2755 -2.2696 -0.2603
3.2671 -2.2929 -0.2622
3.6819 -1.9560 0.5196
3.6740 -1.9586 0.5026
3.6665 -1.9601 0.4858
3.6577 -1.9651 0.4682
3.6419 -1.9703 0.4342
3.6301 -1.9443 0.3872
3.6238 -1.9414 0.3700
3.6181 -1.9363 0.3527
3.6075 -1.8968 0.2988
3.6009 -1.8920 0.2795
3.5143 -2.1009 0.2234
3.5039 -2.1174 0.2105
3.4954 -2.1272 0.1972
3.4892 -2.1273 0.1825
3.4510 -2.0891 0.0633
3.4459 -1.8867 -0.0953
3.4352 -1.9003 -0.1111
3.4262 -1.8973 -0.1347
3.4166 -1.9005 -0.1554
3.4072 -1.9017 -0.1772
3.3909 -1.8431 -0.2584
3.3690 -1.8984 -0.2708
3.3588 -1.9348 -0.2689
3.3494 -1.9690 -0.2668
3.3326 -2.0365 -0.2579
3.3049 -2.1258 -0.2598
3.2990 -2.1468 -0.2586
3.2930 -2.1618 -0.2620
3.2878 -2.1805 -0.2610
3.2838 -2.2059 -0.2523
3.2782 -2.2157 -0.2584
3.2730 -2.2264 -0.2631
3.2648 -2.2562 -0.2614
3.2615 -2.2733 -0.2567
3.5997 -1.8851 0.3225
3.5941 -1.8768 0.3036
3.5873 -1.8719 0.2843
3.5798 -1.8364 0.2431
3.4988 -2.1065 0.2287
3.4881 -2.1265 0.2165
3.4803 -2.1342 0.2033
3.4730 -2.1408 0.1902
3.4672 -2.1396 0.1758
3.4844 -1.9257 0.0757
3.4288 -1.8796 -0.0864
3.4188 -1.8891 -0.1040
3.4094 -1.8902 -0.1255
3.3993 -1.9028 -0.1411
3.3893 -1.9195 -0.1540
3.3734 -1.8284 -0.2516
3.3524 -1.8949 -0.2576
3.3429 -1.9175 -0.2653
3.3186 -2.0241 -0.2527
3.3112 -2.0430 -0.2579
3.2984 -2.0934 -0.2550
3.2921 -2.1109 -0.2584
3.2866 -2.1322 -0.2575
3.2807 -2.1465 -0.2620
3.2763 -2.1695 -0.2574
3.2671 -2.2033 -0.2570
3.2591 -2.2357 -0.2546
3.2542 -2.2445 -0.2603
3.2505 -2.2581 -0.2602
3.3306 -0.3027 0.8132
3.3730 -0.3280 0.8038
3.4068 -0.3792 0.7894
3.4351 -0.4403 0.7733
3.4802 -0.4370 0.7700
3.5459 -0.3692 0.7792
3.5734 -0.4179 0.7659
3.6172 -0.4150 0.7627
3.6705 -0.3859 0.7644
2.3081 -1.1981 0.6666
2.3540 -1.2060 0.6613
3.4101 -0.3918 0.7376
3.4416 -0.4410 0.7252
3.4834 -0.4490 0.7201
3.5445 -0.3957 0.7258
3.5990 -0.3651 0.7274
3.6251 -0.4139 0.7156
3.6882 -0.3598 0.7212
1.5046 -1.9828 0.5480
1.5261 -1.9688 0.5489
1.4951 -1.9187 0.5601
2.7945 -1.0934 0.6097
2.8319 -1.1232 0.6016
2.9325 -1.2166 0.5775
3.4485 -0.4406 0.6767
3.4941 -0.4370 0.6740
3.5354 -0.4450 0.6695
3.5842 -0.4290 0.6687
3.6617 -0.3351 0.6796
1.4994 -1.9853 0.5201
1.5234 -1.9729 0.5204
1.4630 -1.8376 0.5454
2.7142 -0.9639 0.5965
2.7576 -1.0640 0.5782
3.4391 -0.3358 0.6450
3.4793 -0.3599 0.6386
3.5353 -0.3291 0.6396
3.5824 -0.3260 0.6369
3.6440 -0.2808 0.6398
3.4657 -0.9713 0.5450
1.5083 -1.9968 0.4899
1.4688 -1.8815 0.5074
2.2911 -1.1406 0.5558
2.3489 -1.1857 0.5465
2.4044 -1.2350 0.5367
2.4645 -1.1004 0.5508
2.5409 -1.0066 0.5586
2.6206 -0.8668 0.5722
2.6709 -0.9279 0.5612
2.7167 -0.9578 0.5546
2.7603 -0.9603 0.5516
2.8022 -1.0051 0.5433
2.8433 -1.0073 0.5405
2.9364 -1.2399 0.5045
2.9725 -1.2224 0.5046
3.4349 -0.3760 0.5883
3.4909 -0.3452 0.5890
3.5523 -0.2991 0.5914
3.6050 -0.2818 0.5906
3.6374 -0.3218 0.5834
3.6442 -0.4242 0.5695
3.4569 -1.0090 0.5039
3.4845 -1.0190 0.5010
1.4984 -1.9965 0.4622
1.4752 -1.9237 0.4713
0.3906 -0.4560 0.6853
2.2626 -1.2017 0.5084
2.2938 -1.1511 0.5122
2.3423 -1.1598 0.5088
2.3827 -1.1387 0.5090
2.4630 -1.0865 0.5105
2.5351 -0.9465 0.5218
2.5825 -0.9499 0.5190
2.6216 -0.8488 0.5279
2.6674 -0.8024 0.5305
2.9756 -1.2253 0.4691
3.4048 -0.3361 0.5427
3.4749 -0.2594 0.5473
3.5296 -0.2414 0.5465
3.5650 -0.2834 0.5401
3.5891 -0.3515 0.5315
3.6407 -0.3345 0.5307
3.4481 -1.0463 0.4640
1.5002 -2.0036 0.4329
1.4729 -1.8971 0.4430
1.4704 -1.7913 0.4520
1.4296 -1.7203 0.4598
1.4556 -1.6106 0.4678
0.4337 -0.5117 0.6047
2.2137 -1.1967 0.4694
2.2720 -1.2331 0.4638
2.3172 -1.2338 0.4617
2.3487 -1.1845 0.4645
2.4246 -1.1196 0.4666
2.4938 -0.9824 0.4751
2.5347 -0.9300 0.4777
2.5810 -0.9148 0.4769
3.4655 -0.3182 0.4883
3.4220 -0.6180 0.4650
3.5069 -0.4857 0.4724
3.4647 -0.7350 0.4533
3.5015 -0.7396 0.4513
3.5060 -0.8270 0.4438
3.4448 -1.0693 0.4262
3.4838 -1.0498 0.4261
1.3408 -1.4623 0.4421
0.5615 -0.6493 0.5185
0.5813 -0.5765 0.5222
0.7696 1.4610 0.6371
1.0024 1.2386 0.6155
1.3538 0.6831 0.5697
2.2263 -1.2360 0.4239
2.2812 -1.2643 0.4202
2.3140 -1.2237 0.4215
2.3898 -1.1667 0.4222
2.4927 -0.9662 0.4305
2.4976 1.0187 0.5488
2.5786 1.3489 0.5656
3.1165 -1.2212 0.3929
3.4820 -0.2864 0.4356
3.5185 -0.3273 0.4319
3.5963 -0.2355 0.4346
3.6565 -0.2025 0.4344
3.6787 -0.2746 0.4293
3.4553 -1.0578 0.3905
1.4958 -2.0128 0.3746
1.4143 -1.7622 0.3857
0.7514 1.4868 0.5186
2.2341 -1.2610 0.3806
2.2707 -1.2325 0.3806
2.3104 -1.2118 0.3803
2.4543 -1.0197 0.3830
2.4807 1.3355 0.4653
2.5750 1.5650 0.4708
3.0890 -1.2165 0.3585
3.1174 -1.2357 0.3570
3.5033 -0.2392 0.3814
3.5643 -0.2049 0.3810
3.4721 -1.0313 0.3544
3.5301 -1.0429 0.3524
0.3214 -0.9451 0.3794
0.3695 -0.9107 0.3788
0.2826 -0.3032 0.3869
2.2368 -1.2712 0.3385
2.2781 -1.2576 0.3378
2.3111 -1.2152 0.3376
2.3437 -1.1642 0.3375
2.4526 -1.0041 0.3370
2.4758 -0.8309 0.3384
2.3889 1.2320 0.3616
2.4490 1.8880 0.3673
3.0888 -1.2370 0.3221
3.1241 -1.2254 0.3216
3.5258 -0.1891 0.3245
3.5882 -0.1544 0.3237
3.4542 -1.0100 0.3173
3.4833 -1.0190 0.3167
3.5296 -1.0582 0.3154
0.4559 -0.9907 0.3122
-1.0257 0.5368 0.3066
0.2437 -0.2792 0.3042
0.4311 -0.3615 0.3033
2.2029 -1.3075 0.2971
2.2321 -1.2601 0.2961
2.2761 -1.2531 0.2955
2.2989 -1.1731 0.2940
2.3444 -1.1668 0.2934
2.4040 -1.0033 0.2903
2.4508 -0.9879 0.2896
2.4936 -0.9446 0.2885
2.3914 1.2511 0.2574
2.5712 1.9585 0.2450
2.6897 1.9975 0.2431
3.0924 -1.2399 0.2860
3.1250 -1.2400 0.2857
3.4546 -0.2853 0.2679
3.5245 -0.2200 0.2662
3.4508 -1.0343 0.2789
3.4883 -1.0220 0.2783
3.4959 -1.0790 0.2791
3.5291 -1.0735 0.2786
0.4593 -0.9345 0.2450
0.4245 -0.8298 0.2409
0.4581 -0.7779 0.2387
0.4399 -0.6764 0.2347
0.4935 -0.6362 0.2330
0.6159 -0.6625 0.2337
0.3952 -0.3385 0.2213
2.2324 -1.2636 0.2530
2.2745 -1.2498 0.2523
2.2952 -1.1613 0.2487
2.3373 -1.1388 0.2477
2.3759 -1.0993 0.2460
2.4070 -1.0148 0.2425
2.4492 -0.9719 0.2407
2.2793 1.3308 0.1488
2.3719 1.5161 0.1411
2.4603 1.8902 0.1258
2.6966 2.0303 0.1195
2.8655 -1.0231 0.2415
2.9043 -1.0576 0.2428
3.1273 -1.2487 0.2498
3.5333 -0.2174 0.2072
3.4591 -1.0287 0.2400
3.5042 -1.0741 0.2417
3.5194 -1.1089 0.2430
3.5548 -1.0972 0.2424
0.1265 -0.5039 0.1476
2.3381 -1.1419 0.2019
2.3714 -1.0776 0.1978
2.4188 -1.0705 0.1976
2.4490 -0.9645 0.1908
2.5126 -1.0578 0.1973
2.8350 -0.7958 0.1818
2.8742 -0.9388 0.1915
3.1295 -1.2574 0.2139
3.1742 -1.2095 0.2110
3.3479 -1.0755 0.2031
3.5093 -1.0768 0.2041
-0.4838 0.0060 0.0098
2.4236 -1.0907 0.1519
2.4538 -0.9864 0.1427
2.8245 1.5031 -0.0812
2.8813 -0.8839 0.1393
2.9231 -0.9264 0.1438
2.9576 -1.0083 0.1518
2.9920 -1.0585 0.1569
3.0321 -1.0538 0.1571
3.0624 -1.1011 0.1619
3.1129 -1.2054 0.1722
3.1420 -1.2245 0.1743
3.1781 -1.2126 0.1738
3.2142 -1.2007 0.1732
3.2601 -1.1570 0.1698
3.3172 -1.0830 0.1638
3.1204 -1.8500 0.2316
3.1360 -1.8555 0.2323
3.1484 -1.8673 0.2336
1.3901 -1.8950 0.1758
1.3516 -1.8350 0.1678
1.3649 -1.8074 0.1648
0.2370 -0.5361 -0.0117
2.2925 -1.1545 0.1086
2.3377 -1.1396 0.1079
2.3971 -1.1875 0.1149
2.8380 1.8591 -0.2362
2.9602 2.0204 -0.2525
3.0024 -1.0125 0.1080
3.0374 -1.0473 0.1130
3.0734 -1.0650 0.1159
3.1081 -1.0820 0.1187
3.1333 -1.1348 0.1255
3.1586 -1.1760 0.1310
3.1100 -1.8853 0.2140
3.1233 -1.8946 0.2154
3.1344 -1.9078 0.2172
3.1446 -1.9213 0.2190
3.1558 -1.9313 0.2205
3.1668 -1.9403 0.2218
1.3592 -1.8473 0.1319
1.3836 -1.8278 0.1298
-0.0842 -0.4681 -0.1144
0.3684 -0.7545 -0.0584
0.5109 -0.7934 -0.0482
0.1881 -0.4078 -0.1145
-0.2003 0.6572 -0.2817
-0.0195 0.6111 -0.2693
0.6333 0.6271 -0.2509
0.9269 0.7718 -0.2626
1.1277 0.6098 -0.2327
2.3233 -1.0832 0.0514
2.3931 -1.1680 0.0659
2.4479 -1.2065 0.0733
2.8316 1.0858 -0.2479
2.9245 0.9960 -0.2319
3.0168 0.9877 -0.2278
3.0723 0.6010 -0.1698
3.0796 -0.0286 -0.0780
3.1255 -0.1621 -0.0571
3.0971 -0.9614 0.0582
3.3397 -0.9371 0.0623
3.1122 -1.8878 0.1934
3.1201 -1.9103 0.1969
3.1272 -1.9320 0.2003
3.1386 -1.9418 0.2021
3.1482 -1.9544 0.2042
3.1607 -1.9597 0.2054
0.1259 -0.7392 -0.1476
0.3203 -0.8114 -0.1272
0.4280 -0.8186 -0.1216
0.5490 -0.8401 -0.1130
0.6176 -0.8175 -0.1141
0.4999 -0.6161 -0.1536
0.5748 -0.5915 -0.1548
0.5012 -0.4110 -0.1890
0.5617 -0.3630 -0.1948
0.3437 0.0090 -0.2679
0.3632 0.1276 -0.2876
0.4583 0.1589 -0.2891
0.5763 0.1593 -0.2844
0.7125 0.1303 -0.2738
0.8239 0.1317 -0.2695
0.9336 0.1324 -0.2652
0.9891 0.2214 -0.2783
1.0468 0.3141 -0.2920
1.1891 0.2519 -0.2754
1.2951 0.2514 -0.2711
1.4253 0.1924 -0.2556
2.1772 -1.2593 0.0256
2.2817 -1.1189 0.0056
2.3126 -1.0412 -0.0065
2.3653 -1.0436 -0.0040
2.4735 -1.0838 0.0074
2.5220 -1.0855 0.0096
2.5596 -0.9993 -0.0037
2.7419 0.6257 -0.2768
2.8318 0.7571 -0.2959
2.9130 0.5864 -0.2631
2.9897 0.4921 -0.2437
3.0836 0.6425 -0.2659
3.1546 -0.0023 -0.1516
3.4125 0.0243 -0.1458
3.4898 0.0882 -0.1536
3.3159 -0.9084 0.0114
3.1008 -1.8802 0.1704
3.1111 -1.8987 0.1740
3.1168 -1.9259 0.1789
3.1242 -1.9463 0.1827
3.1365 -1.9537 0.1845
3.1459 -1.9662 0.1871
3.1606 -1.9665 0.1877
0.3653 -0.9385 -0.1761
0.2666 -0.7821 -0.2123
0.3396 -0.7581 -0.2135
0.3740 -0.7003 -0.2234
0.6695 -0.8776 -0.1732
0.4855 -0.6162 -0.2347
0.4668 -0.4975 -0.2594
0.6011 -0.5297 -0.2463
0.7118 -0.5417 -0.2383
0.7545 -0.4792 -0.2487
0.8435 -0.3467 -0.2708
0.9228 -0.3206 -0.2721
1.0324 -0.3371 -0.2634
1.1381 -0.3529 -0.2549
1.2648 -0.4072 -0.2378
1.3508 -0.4027 -0.2344
1.4132 -0.3584 -0.2402
1.4664 -0.2934 -0.2505
1.5419 -0.2685 -0.2517
1.6270 -0.2653 -0.2482
1.7271 -0.3015 -0.2359
2.2109 -1.2177 -0.0284
2.2433 -1.1627 -0.0378
2.2566 -1.0324 -0.0632
2.1762 -0.5087 -0.1721
2.3145 -0.8172 -0.1034
2.3806 -0.8574 -0.0921
2.4411 -0.8839 -0.0838
2.5113 -0.9991 -0.0572
2.5585 -0.9733 -0.0600
2.6029 -0.9070 -0.0711
2.6765 0.0109 -0.2513
2.7490 0.1772 -0.2810
2.8263 0.2274 -0.2872
2.9001 0.1784 -0.2737
2.9737 0.1779 -0.2699
3.0308 0.0192 -0.2353
3.0721 -0.1964 -0.1901
3.1391 -0.1568 -0.1947
3.1019 -0.7428 -0.0792
3.1148 -0.9202 -0.0430
3.3981 -0.0715 -0.1989
3.3461 -0.5035 -0.1149
3.3092 -0.8119 -0.0550
3.3239 -0.9020 -0.0362
3.3507 -0.9406 -0.0272
3.1052 -1.8770 0.1481
3.1266 -1.9102 0.1558
3.1280 -1.9448 0.1628
3.1377 -1.9582 0.1660
3.1459 -1.9730 0.1694
0.1846 -1.0357 -0.2383
0.2457 -0.9367 -0.2573
0.3697 -0.9553 -0.2457
0.5052 -0.9866 -0.2306
0.4548 -0.8679 -0.2607
0.5579 -0.8740 -0.2532
0.6423 -0.8657 -0.2501
0.7335 -0.7762 -0.2652
0.7882 -0.7377 -0.2707
0.8440 -0.6988 -0.2763
0.9426 -0.7074 -0.2685
1.0123 -0.6844 -0.2697
1.1070 -0.6932 -0.2621
1.1640 -0.6550 -0.2674
1.2331 -0.6323 -0.2686
1.3023 -0.6095 -0.2697
1.3816 -0.6029 -0.2665
1.4406 -0.5640 -0.2719
1.5001 -0.5239 -0.2775
1.5789 -0.5185 -0.2741
1.6395 -0.4780 -0.2798
1.7011 -0.4373 -0.2855
1.7935 -0.4673 -0.2732
2.1638 -1.0864 -0.1100
2.2274 -1.1147 -0.0998
2.2429 -0.9856 -0.1284
2.2666 -0.8610 -0.1554
2.3334 -0.8984 -0.1429
2.3905 -0.9032 -0.1385
2.4427 -0.8860 -0.1393
2.5471 -0.1999 -0.2898
2.6151 -0.1570 -0.2956
2.6875 -0.2315 -0.2743
2.7544 -0.0906 -0.3025
2.8257 -0.0252 -0.3132
2.8880 -0.1840 -0.2733
3.0355 -0.9051 -0.1000
3.0725 -0.9463 -0.0884
3.1073 -0.9850 -0.0775
3.1512 -0.9706 -0.0782
3.2036 -0.9206 -0.0866
3.2711 -0.8184 -0.1059
3.2985 -0.8719 -0.0921
3.3267 -0.9128 -0.0811
3.3621 -0.9248 -0.0763
3.4022 -0.9198 -0.0750
3.1308 -1.9458 0.1432
3.1523 -1.9664 0.1491
0.5363 -1.2261 -0.2391
0.5387 -1.1643 -0.2548
0.6144 -1.1547 -0.2521
0.6757 -1.1345 -0.2531
0.7370 -1.1143 -0.2541
0.7444 -1.0478 -0.2706
0.7941 -1.0151 -0.2756
0.9328 -1.0651 -0.2533
0.9937 -1.0451 -0.2543
1.0433 -1.0135 -0.2590
1.1154 -1.0050 -0.2563
1.1443 -0.9487 -0.2687
1.1958 -0.9155 -0.2737
1.2686 -0.9078 -0.2707
1.3405 -0.9004 -0.2677
1.5656 -0.9027 -0.2518
1.6176 -0.8703 -0.2565
1.6633 -0.8247 -0.2651
1.7786 -0.7715 -0.2709
1.8399 -0.7514 -0.2719
1.9236 -0.7849 -0.2576
1.9982 -0.8041 -0.2475
2.1257 -0.9809 -0.1934
2.2164 -1.0824 -0.1612
2.2403 -0.9778 -0.1864
2.2669 -0.8622 -0.2143
2.3319 -0.8897 -0.2028
2.3810 -0.8501 -0.2096
2.4331 -0.8208 -0.2135
2.4645 -0.6364 -0.2587
2.5249 -0.6307 -0.2560
2.5835 -0.6115 -0.2570
2.6427 -0.6062 -0.2543
2.6989 -0.5145 -0.2740
2.7590 -0.4642 -0.2828
2.8144 -0.6576 -0.2294
2.8731 -0.5721 -0.2473
2.9281 -0.5805 -0.2414
2.9363 -1.0368 -0.1237
2.9806 -1.0222 -0.1244
3.0262 -0.9991 -0.1273
3.0693 -0.9930 -0.1259
3.1020 -1.0372 -0.1123
3.1343 -1.0714 -0.1013
3.1918 -0.9924 -0.1177
3.2442 -0.9436 -0.1266
3.2988 -0.8920 -0.1361
3.3324 -0.9146 -0.1280
3.3888 -0.8624 -0.1376
3.4402 -0.8292 -0.1426
3.4578 -0.8896 -0.1259
3.1611 -1.9551 0.1273
0.6210 -1.3549 -0.2616
0.6902 -1.3452 -0.2590
0.7462 -1.3268 -0.2599
0.7901 -1.2992 -0.2644
0.8582 -1.2899 -0.2617
0.9028 -1.2621 -0.2662
0.9814 -1.2625 -0.2600
1.0370 -1.2442 -0.2609
1.0823 -1.2162 -0.2653
1.1483 -1.2076 -0.2627
1.2040 -1.1893 -0.2636
1.2597 -1.1710 -0.2645
1.3153 -1.1526 -0.2654
1.3710 -1.1343 -0.2663
1.4267 -1.1160 -0.2672
1.4977 -1.1179 -0.2611
1.5304 -1.0687 -0.2726
1.5937 -1.0610 -0.2698
1.6563 -1.0536 -0.2671
1.7116 -1.0354 -0.2680
1.7669 -1.0172 -0.2689
1.8222 -0.9990 -0.2698
1.8775 -0.9808 -0.2707
1.9328 -0.9626 -0.2716
1.9833 -0.9328 -0.2761
2.0300 -0.8912 -0.2844
2.1505 -1.0547 -0.2284
2.2044 -1.0470 -0.2263
2.2713 -1.0866 -0.2098
2.3279 -0.8699 -0.2673
2.3867 -0.8748 -0.2613
2.4941 -0.8395 -0.2630
2.5372 -0.7242 -0.2926
2.5967 -0.7441 -0.2823
2.6539 -0.7627 -0.2725
2.7082 -0.7448 -0.2734
2.7625 -0.7512 -0.2674
2.8165 -0.7213 -0.2717
3.0145 -0.7915 -0.2363
3.0754 -0.7058 -0.2560
3.0899 -0.9032 -0.1985
3.1328 -0.9072 -0.1940
3.1640 -1.1284 -0.1285
3.2246 -1.0387 -0.1494
3.3182 -0.8462 -0.1970
3.3708 -0.8107 -0.2031
3.3793 -0.9110 -0.1738
3.4234 -0.8965 -0.1745
3.1895 -1.7404 0.0482
3.2078 -1.7456 0.0511
3.2195 -1.7639 0.0572
3.2363 -1.7695 0.0601
0.9922 -1.4054 -0.2756
1.0636 -1.4039 -0.2698
1.1425 -1.4101 -0.2610
1.1932 -1.3934 -0.2618
1.2439 -1.3767 -0.2626
1.2946 -1.3600 -0.2634
1.3684 -1.3668 -0.2548
1.4262 -1.3588 -0.2523
1.4827 -1.3503 -0.2500
1.5181 -1.3176 -0.2572
1.5871 -1.3249 -0.2489
1.6307 -1.3016 -0.2524
1.6742 -1.2772 -0.2563
1.7344 -1.2765 -0.2513
1.7888 -1.2686 -0.2490
1.8427 -1.2609 -0.2467
1.8774 -1.2204 -0.2564
1.9398 -1.2290 -0.2483
1.9884 -1.2130 -0.2490
2.0485 -1.2223 -0.2409
2.0963 -1.2066 -0.2416
2.1375 -1.1739 -0.2483
2.1795 -1.1401 -0.2553
2.2228 -1.1067 -0.2620
2.2721 -1.0905 -0.2628
2.3352 -1.1279 -0.2455
2.3809 -1.1029 -0.2494
2.4273 -1.0786 -0.2530
2.4785 -1.0808 -0.2478
2.5263 -1.0650 -0.2486
2.5750 -1.0580 -0.2465
2.6226 -1.0424 -0.2473
2.6701 -1.0268 -0.2481
2.7175 -1.0021 -0.2517
2.7652 -1.0045 -0.2468
2.8119 -1.0072 -0.2418
2.8499 -1.1512 -0.1932
2.9094 -0.9289 -0.2579
2.9596 -0.8934 -0.2647
3.0081 -0.8774 -0.2655
3.0600 -0.8403 -0.2727
3.1016 -0.8657 -0.2610
3.1517 -0.8402 -0.2647
3.1978 -0.8341 -0.2626
3.2169 -0.9351 -0.2291
3.3644 -0.8525 -0.2422
3.4308 -0.7764 -0.2603
3.4638 -0.8017 -0.2495
1.3228 -1.8007 -0.1654
1.2174 -1.6850 -0.2155
1.2669 -1.6756 -0.2139
1.3631 -1.7028 -0.1952
1.2621 -1.5208 -0.2677
1.3528 -1.5437 -0.2510
1.3778 -1.5096 -0.2603
1.4380 -1.5078 -0.2551
1.4965 -1.5054 -0.2502
1.5297 -1.4776 -0.2566
1.5693 -1.4556 -0.2603
1.5976 -1.4194 -0.2700
1.6444 -1.4040 -0.2708
1.7077 -1.4100 -0.2625
1.7849 -1.3577 -0.2730
1.8550 -1.3785 -0.2591
1.9425 -1.3417 -0.2632
1.9843 -1.3190 -0.2670
2.0304 -1.3038 -0.2677
2.0899 -1.3181 -0.2570
2.1687 -1.2583 -0.2700
2.2176 -1.2512 -0.2677
2.2684 -1.2514 -0.2627
2.3094 -1.2210 -0.2691
2.3571 -1.2133 -0.2672
2.4027 -1.1982 -0.2679
2.4469 -1.1757 -0.2714
2.4940 -1.1682 -0.2694
2.5375 -1.1369 -0.2759
2.5818 -1.1044 -0.2828
2.6284 -1.0891 -0.2836
2.6762 -1.1003 -0.2751
2.7213 -1.0496 -0.2881
2.7680 -1.0611 -0.2796
2.8108 -1.1526 -0.2440
2.8489 -1.2267 -0.2148
2.9049 -1.0330 -0.2760
2.9514 -1.0097 -0.2795
3.0010 -0.9665 -0.2896
3.0461 -0.9606 -0.2872
3.0925 -0.9453 -0.2880
3.1388 -0.9301 -0.2887
3.1829 -0.9245 -0.2863
3.2152 -0.9647 -0.2694
3.2063 -1.2685 -0.1657
3.4559 -0.8437 -0.2877
3.4983 -0.8377 -0.2856
3.5518 -0.8032 -0.2923
3.5979 -0.7880 -0.2930
3.6353 -0.7926 -0.2878
3.6761 -0.7882 -0.2854
3.5760 -1.1419 -0.1733
3.5930 -1.1682 -0.1626
1.1784 -1.7528 -0.2425
1.2203 -1.7391 -0.2432
1.2889 -1.7442 -0.2339
1.3300 -1.7306 -0.2346
1.4018 -1.7406 -0.2232
1.4368 -1.7232 -0.2260
1.4297 -1.6702 -0.2466
1.4896 -1.6722 -0.2394
1.5190 -1.6477 -0.2454
1.5661 -1.6391 -0.2436
1.5972 -1.6150 -0.2493
1.6591 -1.6223 -0.2399
1.7002 -1.6088 -0.2406
1.7182 -1.5683 -0.2538
1.7647 -1.5599 -0.2520
1.8236 -1.5682 -0.2426
1.8688 -1.5602 -0.2407
1.9098 -1.5468 -0.2414
1.9507 -1.5333 -0.2420
1.9852 -1.5091 -0.2474
2.0227 -1.4889 -0.2510
2.1028 -1.4556 -0.2549
2.1472 -1.4479 -0.2530
2.1916 -1.4412 -0.2507
2.2329 -1.4276 -0.2514
2.2761 -1.4193 -0.2499
2.3173 -1.4058 -0.2505
2.3657 -1.4175 -0.2410
2.4012 -1.3851 -0.2493
2.4363 -1.3458 -0.2602
2.4793 -1.3386 -0.2583
2.5240 -1.3446 -0.2513
2.5641 -1.3245 -0.2545
2.6059 -1.3177 -0.2526
2.6459 -1.2917 -0.2581
2.6875 -1.2839 -0.2565
2.7287 -1.2773 -0.2546
2.7698 -1.2509 -0.2601
2.8097 -1.2773 -0.2459
2.8507 -1.2510 -0.2514
2.8925 -1.2234 -0.2572
2.9335 -1.2099 -0.2579
2.9744 -1.1964 -0.2586
3.0165 -1.1756 -0.2618
3.0617 -1.1400 -0.2703
3.1081 -1.1040 -0.2789
3.1486 -1.0976 -0.2769
3.1849 -1.1064 -0.2697
3.2264 -1.0927 -0.2704
3.2653 -1.0878 -0.2681
3.2613 -1.2158 -0.2206
3.3563 -1.0361 -0.2777
3.3953 -1.0302 -0.2757
3.4400 -1.0086 -0.2790
3.4718 -1.0199 -0.2714
3.5131 -1.0063 -0.2721
3.5585 -0.9834 -0.2758
3.6000 -0.9698 -0.2764
3.5450 -1.1560 -0.2126
3.5689 -1.1699 -0.2049
1.2576 -1.8126 -0.2563
1.3033 -1.8035 -0.2547
1.3373 -1.7864 -0.2576
1.3707 -1.7686 -0.2609
1.4224 -1.7643 -0.2566
1.4839 -1.7686 -0.2477
1.5128 -1.7473 -0.2529
1.5366 -1.7208 -0.2608
1.5764 -1.7077 -0.2615
1.6109 -1.6895 -0.2648
1.6509 -1.6763 -0.2655
1.6960 -1.6684 -0.2634
1.7358 -1.6553 -0.2641
1.7836 -1.6513 -0.2601
1.8155 -1.6290 -0.2653
1.8590 -1.6206 -0.2637
1.8912 -1.5973 -0.2693
1.9240 -1.5737 -0.2750
2.0178 -1.5684 -0.2662
2.2210 -1.5143 -0.2643
2.2624 -1.5065 -0.2626
2.3370 -1.4692 -0.2690
2.3848 -1.4849 -0.2570
2.4235 -1.4722 -0.2577
2.4595 -1.4475 -0.2634
2.5030 -1.4578 -0.2542
2.5376 -1.4219 -0.2647
2.5718 -1.3733 -0.2803
2.6144 -1.3848 -0.2707
2.6546 -1.3833 -0.2666
2.6926 -1.3463 -0.2771
2.7319 -1.3137 -0.2857
2.7719 -1.3261 -0.2760
2.8498 -1.3191 -0.2697
2.8876 -1.3194 -0.2652
2.9263 -1.3067 -0.2658
2.9695 -1.2610 -0.2792
3.0111 -1.2356 -0.2846
3.0523 -1.2151 -0.2881
3.0881 -1.2220 -0.2811
3.1307 -1.1962 -0.2866
3.1653 -1.2035 -0.2796
3.1989 -1.2111 -0.2726
3.2239 -1.2441 -0.2563
3.2342 -1.3163 -0.2259
3.2821 -1.2691 -0.2393
3.3649 -1.1309 -0.2856
3.4044 -1.1179 -0.2862
3.4439 -1.1049 -0.2869
3.4771 -1.1068 -0.2822
3.5096 -1.1089 -0.2776
3.4898 -1.2214 -0.2344
3.5138 -1.2341 -0.2264
1.3516 -1.8811 -0.2599
1.3949 -1.8727 -0.2580
1.4426 -1.8677 -0.2541
1.4999 -1.8703 -0.2457
1.5219 -1.8475 -0.2528
1.5535 -1.8312 -0.2559
1.6091 -1.8344 -0.2475
1.6136 -1.7949 -0.2641
1.6692 -1.7990 -0.2552
1.7098 -1.7905 -0.2538
1.7546 -1.7865 -0.2498
1.7831 -1.7664 -0.2549
1.8239 -1.7588 -0.2531
1.8677 -1.7551 -0.2491
1.9070 -1.7470 -0.2476
1.9401 -1.7313 -0.2503
1.9729 -1.7147 -0.2533
2.0092 -1.7027 -0.2539
2.0514 -1.6995 -0.2499
2.0900 -1.6917 -0.2484
2.1358 -1.6971 -0.2403
2.1690 -1.6813 -0.2429
2.2024 -1.6654 -0.2456
2.2299 -1.6359 -0.2549
2.2661 -1.6240 -0.2555
2.3023 -1.6121 -0.2561
2.3385 -1.6002 -0.2567
2.3821 -1.6112 -0.2464
2.4189 -1.6039 -0.2448
2.4532 -1.5878 -0.2475
2.4887 -1.5761 -0.2481
2.5233 -1.5598 -0.2508
2.5573 -1.5379 -0.2560
2.5947 -1.5364 -0.2519
2.6303 -1.5246 -0.2525
2.6645 -1.4929 -0.2620
2.7018 -1.5060 -0.2515
2.7371 -1.4788 -0.2589
2.7728 -1.4875 -0.2505
2.8090 -1.4551 -0.2600
2.8450 -1.4433 -0.2606
2.8809 -1.4314 -0.2612
2.9175 -1.4145 -0.2639
2.9512 -1.4190 -0.2577
2.9915 -1.3794 -0.2698
3.0257 -1.3789 -0.2657
3.0667 -1.3440 -0.2757
3.1006 -1.3435 -0.2715
3.1354 -1.3379 -0.2696
3.1667 -1.3432 -0.2633
3.2025 -1.3314 -0.2639
3.2347 -1.3306 -0.2601
3.2722 -1.3134 -0.2629
3.3078 -1.3017 -0.2634
3.3527 -1.2664 -0.2731
3.3940 -1.2421 -0.2784
3.4251 -1.2426 -0.2742
3.4588 -1.2364 -0.2727
3.4807 -1.2545 -0.2620
3.5161 -1.2429 -0.2625
3.5670 -1.2008 -0.2744
1.3700 -1.9683 -0.2595
1.4165 -1.9636 -0.2553
1.4553 -1.9547 -0.2541
1.4754 -1.9336 -0.2612
1.5210 -1.9292 -0.2569
1.5512 -1.9145 -0.2597
1.6333 -1.9010 -0.2547
1.6468 -1.8724 -0.2662
1.6780 -1.8573 -0.2690
1.7300 -1.8605 -0.2603
1.7610 -1.8454 -0.2631
1.7959 -1.8339 -0.2636
1.8309 -1.8224 -0.2642
1.8693 -1.8146 -0.2626
2.0566 -1.7762 -0.2547
2.0830 -1.7530 -0.2620
2.2524 -1.6885 -0.2688
2.2923 -1.6890 -0.2631
2.5695 -1.6074 -0.2630
2.6030 -1.5915 -0.2658
2.6396 -1.6027 -0.2556
2.7068 -1.5758 -0.2589
2.8086 -1.5336 -0.2646
2.8424 -1.5263 -0.2634
2.8776 -1.5012 -0.2703
2.9125 -1.4848 -0.2731
2.9470 -1.4735 -0.2736
2.9823 -1.4570 -0.2765
3.0139 -1.4612 -0.2702
3.0515 -1.4343 -0.2776
3.0861 -1.4229 -0.2782
