ply
format ascii 1.0
element vertex 2090
property float x
property float y
property float z
end_header
1.1242 -3.8588 -0.2006
1.0641 -3.8451 -0.2003
1.0088 -3.8316 -0.1965
0.9640 -3.8216 -0.1973
0.9476 -3.8193 -0.2030
0.9238 -3.8125 -0.1974
0.9024 -3.8066 -0.1933
0.8854 -3.8028 -0.1937
0.8535 -3.7957 -0.1939
0.8410 -3.7939 -0.1980
0.8293 -3.7924 -0.2025
0.7984 -3.7832 -0.1941
0.7870 -3.7811 -0.1958
0.7780 -3.7805 -0.2015
0.7645 -3.7762 -0.1966
0.7543 -3.7742 -0.1979
0.7424 -3.7705 -0.1940
0.7346 -3.7701 -0.1993
3.2575 -4.2661 -0.2300
2.6598 -4.1467 -0.2277
2.4306 -4.1000 -0.2235
2.2323 -4.0590 -0.2169
2.0985 -4.0338 -0.2228
2.0240 -4.0244 -0.2450
1.7874 -3.9648 -0.1934
1.7102 -3.9514 -0.2012
1.6363 -3.9379 -0.2065
1.5657 -3.9246 -0.2093
1.4983 -3.9113 -0.2098
1.4341 -3.8981 -0.2081
1.3640 -3.8819 -0.1986
1.3205 -3.8743 -0.2029
1.2652 -3.8616 -0.1959
1.2244 -3.8536 -0.1964
1.1876 -3.8466 -0.1976
1.1562 -3.8411 -0.2011
1.1298 -3.8374 -0.2072
1.0622 -3.8220 -0.1992
1.0075 -3.8102 -0.1956
0.9903 -3.8085 -0.2026
0.9646 -3.8024 -0.1982
0.9469 -3.7997 -0.2020
0.9269 -3.7956 -0.2014
0.9080 -3.7917 -0.2008
0.8902 -3.7880 -0.2002
0.8715 -3.7835 -0.1969
0.8593 -3.7824 -0.2024
0.8414 -3.7777 -0.1974
0.8257 -3.7739 -0.1946
0.8138 -3.7721 -0.1973
0.8021 -3.7703 -0.1995
0.7879 -3.7666 -0.1956
0.7773 -3.7650 -0.1978
0.7648 -3.7618 -0.1949
0.7562 -3.7613 -0.1997
0.7457 -3.7591 -0.1993
0.7331 -3.7549 -0.1923
4.4859 -4.4087 -0.2932
2.8038 -4.1014 -0.2114
2.6161 -4.0728 -0.2269
2.3640 -4.0264 -0.2129
2.2046 -3.9998 -0.2162
2.0606 -3.9752 -0.2165
1.9423 -3.9555 -0.2193
1.8053 -3.9292 -0.2072
1.6889 -3.9069 -0.1966
1.6307 -3.8996 -0.2086
1.5531 -3.8859 -0.2069
1.4815 -3.8730 -0.2040
1.4256 -3.8640 -0.2064
1.3766 -3.8564 -0.2101
1.3158 -3.8442 -0.2025
1.2715 -3.8368 -0.2030
1.1951 -3.8243 -0.2057
1.1649 -3.8202 -0.2104
1.1280 -3.8130 -0.2069
1.0911 -3.8053 -0.2008
1.0399 -3.7974 -0.2046
1.0068 -3.7896 -0.1953
0.9848 -3.7861 -0.1964
0.9646 -3.7830 -0.1982
0.9255 -3.7765 -0.1992
0.9085 -3.7741 -0.2010
0.8862 -3.7685 -0.1936
0.8744 -3.7681 -0.2005
0.8573 -3.7646 -0.1981
0.8436 -3.7627 -0.1999
0.8261 -3.7583 -0.1938
0.8024 -3.7553 -0.1984
0.7899 -3.7529 -0.1977
0.7797 -3.7520 -0.2009
0.7560 -3.7469 -0.1967
0.7470 -3.7461 -0.1998
0.7372 -3.7445 -0.2000
4.1284 -4.2334 -0.2548
3.5175 -4.1406 -0.2338
2.8321 -4.0409 -0.2307
2.5480 -3.9972 -0.2185
2.3626 -3.9711 -0.2218
2.1533 -3.9376 -0.2070
2.0608 -3.9280 -0.2242
1.9058 -3.9028 -0.2111
1.7964 -3.8866 -0.2092
1.6824 -3.8678 -0.1988
1.5557 -3.8525 -0.2127
1.4897 -3.8430 -0.2127
1.4310 -3.8347 -0.2134
1.3637 -3.8231 -0.2047
1.3183 -3.8170 -0.2070
1.2810 -3.8128 -0.2126
1.2264 -3.8027 -0.2024
1.1824 -3.7952 -0.1971
1.0898 -3.7826 -0.2007
1.0625 -3.7788 -0.2014
1.0343 -3.7743 -0.1992
1.0068 -3.7695 -0.1957
0.9819 -3.7654 -0.1933
0.9658 -3.7645 -0.1999
0.9447 -3.7613 -0.1988
0.9240 -3.7578 -0.1968
0.9064 -3.7554 -0.1975
0.8930 -3.7547 -0.2030
0.8748 -3.7515 -0.2003
0.8564 -3.7478 -0.1956
0.8439 -3.7468 -0.1992
0.8281 -3.7438 -0.1961
0.8161 -3.7426 -0.1985
0.8005 -3.7391 -0.1928
0.7912 -3.7390 -0.1985
0.7779 -3.7363 -0.1948
0.7674 -3.7351 -0.1963
0.7572 -3.7338 -0.1973
0.7483 -3.7332 -0.2002
0.7370 -3.7308 -0.1966
5.3548 -4.1271 0.4666
4.1082 -4.1307 -0.2710
2.5587 -3.9401 -0.2321
2.3724 -3.9186 -0.2343
2.1126 -3.8811 -0.2008
2.0470 -3.8786 -0.2264
1.9007 -3.8591 -0.2156
1.7928 -3.8460 -0.2135
1.6845 -3.8315 -0.2050
1.6146 -3.8243 -0.2100
1.5471 -3.8168 -0.2123
1.4895 -3.8109 -0.2165
1.4138 -3.7998 -0.2060
1.3664 -3.7949 -0.2096
1.3232 -3.7906 -0.2133
1.2665 -3.7821 -0.2042
1.2254 -3.7771 -0.2037
1.1504 -3.7677 -0.2009
1.1217 -3.7649 -0.2039
1.0914 -3.7613 -0.2034
1.0625 -3.7576 -0.2023
1.0300 -3.7523 -0.1952
0.9839 -3.7470 -0.1959
0.9677 -3.7464 -0.2023
0.9479 -3.7442 -0.2029
0.9291 -3.7421 -0.2034
0.9055 -3.7378 -0.1957
0.8726 -3.7340 -0.1961
0.8580 -3.7324 -0.1971
0.8418 -3.7300 -0.1944
0.8296 -3.7291 -0.1973
0.8181 -3.7285 -0.2007
0.8024 -3.7254 -0.1948
0.7904 -3.7240 -0.1949
0.7803 -3.7234 -0.1979
0.7687 -3.7219 -0.1969
0.7580 -3.7205 -0.1966
0.7495 -3.7204 -0.2007
3.8176 -3.9960 -0.2382
2.7322 -3.8946 -0.2284
2.4729 -3.8687 -0.2173
2.1295 -3.8367 -0.2147
1.8781 -3.8133 -0.2126
1.7637 -3.8015 -0.2061
1.6777 -3.7938 -0.2069
1.4669 -3.7745 -0.2069
1.4191 -3.7712 -0.2128
1.3690 -3.7669 -0.2144
1.2970 -3.7571 -0.1973
1.2533 -3.7529 -0.1967
1.2202 -3.7509 -0.2017
1.1894 -3.7490 -0.2066
1.1483 -3.7441 -0.2006
1.0833 -3.7373 -0.1965
1.0603 -3.7361 -0.2010
1.0349 -3.7338 -0.2013
1.0094 -3.7311 -0.1996
0.9865 -3.7290 -0.1993
0.9703 -3.7287 -0.2056
0.9443 -3.7249 -0.1981
0.9275 -3.7239 -0.2010
0.9052 -3.7207 -0.1948
0.8905 -3.7199 -0.1980
0.8748 -3.7186 -0.1987
0.8439 -3.7154 -0.1968
0.8316 -3.7148 -0.1996
0.8172 -3.7131 -0.1975
0.7923 -3.7107 -0.1968
0.7810 -3.7098 -0.1974
0.7673 -3.7074 -0.1915
0.7598 -3.7080 -0.1983
0.7482 -3.7063 -0.1949
0.7399 -3.7062 -0.1985
5.0874 -3.8179 0.7056
5.0400 -3.8327 0.6056
5.4091 -3.9119 0.2999
4.9705 -3.9791 -0.2356
4.8126 -3.9850 -0.3261
2.8966 -3.8390 -0.2162
2.6867 -3.8272 -0.2276
2.2724 -3.7986 -0.2199
2.1221 -3.7887 -0.2198
1.9862 -3.7792 -0.2172
1.7760 -3.7654 -0.2174
1.6716 -3.7570 -0.2090
1.5953 -3.7520 -0.2091
1.5310 -3.7483 -0.2117
1.4630 -3.7432 -0.2083
1.4024 -3.7387 -0.2055
1.3523 -3.7355 -0.2062
1.3000 -3.7313 -0.2022
1.2538 -3.7278 -0.1994
1.2142 -3.7251 -0.1989
1.1921 -3.7258 -0.2107
1.1493 -3.7216 -0.2030
1.1159 -3.7190 -0.2011
1.0833 -3.7162 -0.1976
1.0348 -3.7138 -0.2018
1.0128 -3.7127 -0.2040
0.9849 -3.7098 -0.1976
0.9659 -3.7090 -0.2002
0.9406 -3.7060 -0.1931
0.9272 -3.7064 -0.2003
0.9088 -3.7051 -0.1995
0.8901 -3.7034 -0.1968
0.8738 -3.7022 -0.1963
0.8610 -3.7020 -0.2000
0.8459 -3.7009 -0.1991
0.8306 -3.6994 -0.1965
0.8198 -3.6994 -0.2007
0.8062 -3.6982 -0.1989
0.7913 -3.6962 -0.1931
0.7806 -3.6958 -0.1946
0.7691 -3.6948 -0.1933
0.7610 -3.6952 -0.1987
0.7494 -3.6938 -0.1952
5.1481 -3.6801 0.8743
5.1012 -3.6948 0.7754
4.9529 -3.7065 0.6693
5.0075 -3.7241 0.5777
5.2890 -3.7505 0.4880
5.1817 -3.7640 0.3815
4.9696 -3.7725 0.2794
4.8833 -3.8573 -0.2478
4.5855 -3.8560 -0.3120
3.1784 -3.7844 -0.2238
2.9256 -3.7761 -0.2356
2.6426 -3.7631 -0.2265
2.2094 -3.7425 -0.2075
1.9546 -3.7328 -0.2116
1.7381 -3.7231 -0.2055
1.5862 -3.7175 -0.2088
1.5201 -3.7150 -0.2096
1.4537 -3.7117 -0.2064
1.3939 -3.7088 -0.2034
1.3472 -3.7073 -0.2056
1.2981 -3.7049 -0.2034
1.2526 -3.7027 -0.2008
1.2242 -3.7029 -0.2090
1.1836 -3.7006 -0.2053
1.1471 -3.6987 -0.2025
1.1213 -3.6985 -0.2075
1.0847 -3.6958 -0.2001
1.0617 -3.6955 -0.2041
1.0317 -3.6935 -0.1991
1.0105 -3.6930 -0.2017
0.9650 -3.6907 -0.1990
0.9457 -3.6901 -0.1997
0.9269 -3.6893 -0.1995
0.9071 -3.6880 -0.1966
0.8897 -3.6871 -0.1956
0.8741 -3.6865 -0.1958
0.8587 -3.6858 -0.1953
0.8461 -3.6858 -0.1983
0.8326 -3.6853 -0.1987
0.8170 -3.6839 -0.1940
0.8046 -3.6835 -0.1942
0.7937 -3.6833 -0.1961
0.7836 -3.6834 -0.1988
0.7736 -3.6833 -0.2010
0.7622 -3.6826 -0.1992
0.7506 -3.6815 -0.1955
0.7418 -3.6815 -0.1976
5.0683 -3.5890 0.7459
4.9224 -3.6029 0.6416
4.9756 -3.6179 0.5504
4.9803 -3.6330 0.4538
4.7865 -3.6454 0.3550
4.9898 -3.6643 0.2538
5.2766 -3.6868 0.1373
5.1217 -3.7352 -0.1893
5.0701 -3.7514 -0.2981
4.3010 -3.7376 -0.2855
3.1713 -3.7126 -0.2360
2.9717 -3.7132 -0.2595
2.6405 -3.7046 -0.2366
2.3321 -3.6946 -0.2032
2.2182 -3.6953 -0.2187
1.9425 -3.6903 -0.2134
1.7264 -3.6857 -0.2054
1.5815 -3.6843 -0.2107
1.4993 -3.6816 -0.2018
1.4565 -3.6825 -0.2117
1.3411 -3.6796 -0.2043
1.2497 -3.6777 -0.2008
1.1798 -3.6771 -0.2038
1.1182 -3.6764 -0.2059
1.0839 -3.6750 -0.2003
1.0578 -3.6747 -0.2009
1.0051 -3.6732 -0.1961
0.9857 -3.6734 -0.1991
0.9710 -3.6743 -0.2066
0.9453 -3.6727 -0.1991
0.9251 -3.6721 -0.1968
0.9093 -3.6722 -0.1993
0.8939 -3.6723 -0.2011
0.8775 -3.6719 -0.2003
0.8639 -3.6721 -0.2029
0.8457 -3.6708 -0.1964
0.8358 -3.6717 -0.2030
0.8201 -3.6707 -0.1983
0.8083 -3.6707 -0.1996
0.7955 -3.6703 -0.1980
0.7848 -3.6703 -0.1994
0.7715 -3.6693 -0.1943
0.7629 -3.6698 -0.1983
0.7522 -3.6695 -0.1971
0.7429 -3.6694 -0.1978
5.1947 -3.4822 0.7297
5.3147 -3.4941 0.6397
5.5693 -3.5049 0.5476
5.4016 -3.5381 0.3275
5.3500 -3.5543 0.2186
4.7204 -3.6305 -0.2704
4.1648 -3.6374 -0.2817
3.5126 -3.6385 -0.2467
3.1640 -3.6419 -0.2480
2.8993 -3.6452 -0.2534
2.5735 -3.6446 -0.2281
2.3512 -3.6453 -0.2181
2.1930 -3.6468 -0.2182
2.0630 -3.6483 -0.2206
1.9377 -3.6492 -0.2180
1.8029 -3.6485 -0.2045
1.6757 -3.6471 -0.1869
1.6125 -3.6488 -0.1940
1.5694 -3.6513 -0.2086
1.5120 -3.6524 -0.2129
1.4417 -3.6521 -0.2062
1.3408 -3.6532 -0.2070
1.2949 -3.6535 -0.2061
1.2433 -3.6528 -0.1982
1.1839 -3.6549 -0.2091
1.1479 -3.6549 -0.2063
1.1182 -3.6553 -0.2071
1.0614 -3.6556 -0.2054
1.0357 -3.6557 -0.2047
1.0062 -3.6550 -0.1978
0.9854 -3.6554 -0.1989
0.9642 -3.6555 -0.1982
0.9315 -3.6568 -0.2053
0.8928 -3.6562 -0.1988
0.8770 -3.6564 -0.1988
0.8647 -3.6571 -0.2032
0.8483 -3.6568 -0.1997
0.8310 -3.6560 -0.1933
0.8202 -3.6566 -0.1970
0.8089 -3.6571 -0.1993
0.7974 -3.6573 -0.1999
0.7860 -3.6574 -0.2000
0.7749 -3.6574 -0.1996
0.7635 -3.6572 -0.1975
0.7534 -3.6573 -0.1973
0.7456 -3.6580 -0.2019
5.3717 -3.4379 0.1911
4.8410 -3.5223 -0.3112
3.9380 -3.5460 -0.2599
3.5012 -3.5607 -0.2598
3.1381 -3.5724 -0.2554
2.8788 -3.5818 -0.2599
2.4898 -3.5888 -0.2141
2.3309 -3.5950 -0.2205
1.7797 -3.6110 -0.2000
1.7126 -3.6145 -0.2094
1.6340 -3.6171 -0.2095
1.5752 -3.6200 -0.2160
1.5140 -3.6223 -0.2179
1.4470 -3.6239 -0.2129
1.3962 -3.6258 -0.2144
1.3388 -3.6270 -0.2084
1.2826 -3.6277 -0.1997
1.2493 -3.6295 -0.2050
1.2143 -3.6310 -0.2069
1.1751 -3.6318 -0.2032
1.1423 -3.6328 -0.2028
1.1142 -3.6340 -0.2045
1.0812 -3.6345 -0.1997
1.0558 -3.6355 -0.2004
1.0302 -3.6362 -0.1993
1.0044 -3.6366 -0.1961
0.9864 -3.6378 -0.2004
0.9688 -3.6389 -0.2040
0.9494 -3.6396 -0.2041
0.9255 -3.6394 -0.1968
0.9104 -3.6403 -0.1999
0.8962 -3.6412 -0.2034
0.8764 -3.6411 -0.1972
0.8603 -3.6414 -0.1951
0.8329 -3.6423 -0.1954
0.8214 -3.6431 -0.1980
0.8066 -3.6429 -0.1932
0.7968 -3.6438 -0.1971
0.7849 -3.6440 -0.1958
0.7641 -3.6448 -0.1966
0.7550 -3.6454 -0.1988
0.7451 -3.6457 -0.1981
4.5717 -3.4239 -0.2910
3.3500 -3.4888 -0.2431
2.7683 -3.5223 -0.2423
2.4333 -3.5375 -0.2071
2.3023 -3.5466 -0.2199
2.0035 -3.5629 -0.2121
1.7911 -3.5750 -0.2106
1.6208 -3.5845 -0.2073
1.5811 -3.5887 -0.2234
1.5196 -3.5924 -0.2250
1.3838 -3.5984 -0.2093
1.3349 -3.6011 -0.2084
1.2896 -3.6036 -0.2073
1.2069 -3.6079 -0.2029
1.1775 -3.6100 -0.2070
1.1430 -3.6118 -0.2048
1.1100 -3.6133 -0.2018
1.0840 -3.6150 -0.2035
1.0509 -3.6161 -0.1961
1.0283 -3.6176 -0.1978
1.0114 -3.6194 -0.2045
0.9874 -3.6204 -0.2019
0.9640 -3.6213 -0.1981
0.9496 -3.6229 -0.2043
0.9319 -3.6240 -0.2053
0.9112 -3.6247 -0.2006
0.8937 -3.6255 -0.1990
0.8778 -3.6264 -0.1986
0.8610 -3.6269 -0.1953
0.8510 -3.6283 -0.2021
0.8342 -3.6286 -0.1964
0.8090 -3.6301 -0.1963
0.7974 -3.6308 -0.1966
0.7855 -3.6313 -0.1951
0.7738 -3.6317 -0.1932
0.7641 -3.6324 -0.1944
0.7473 -3.6342 -0.2009
4.3360 -3.3379 -0.2732
3.6712 -3.3890 -0.2444
3.2339 -3.4233 -0.2323
2.6291 -3.4708 -0.2157
2.3609 -3.4904 -0.1947
2.2743 -3.5001 -0.2192
2.1063 -3.5129 -0.2109
2.0043 -3.5221 -0.2192
1.9120 -3.5304 -0.2264
1.7873 -3.5393 -0.2144
1.7076 -3.5461 -0.2171
1.6462 -3.5519 -0.2249
1.5722 -3.5577 -0.2227
1.4908 -3.5632 -0.2120
1.3790 -3.5720 -0.2092
1.3344 -3.5758 -0.2108
1.2719 -3.5794 -0.1967
1.2412 -3.5826 -0.2030
1.2144 -3.5856 -0.2109
1.1388 -3.5908 -0.2024
1.0814 -3.5955 -0.2019
1.0481 -3.5973 -0.1941
1.0316 -3.5995 -0.2021
1.0087 -3.6014 -0.2019
0.9832 -3.6029 -0.1971
0.9685 -3.6049 -0.2038
0.9498 -3.6065 -0.2044
0.9279 -3.6077 -0.1995
0.9134 -3.6093 -0.2033
0.8951 -3.6105 -0.2005
0.8805 -3.6118 -0.2020
0.8656 -3.6130 -0.2018
0.8478 -3.6138 -0.1956
0.8245 -3.6163 -0.2009
0.8132 -3.6174 -0.2028
0.7986 -3.6180 -0.1972
0.7855 -3.6186 -0.1932
0.7749 -3.6195 -0.1936
0.7663 -3.6206 -0.1972
0.7583 -3.6218 -0.2018
0.7489 -3.6226 -0.2023
4.1291 -3.2620 -0.2577
3.6319 -3.3137 -0.2528
2.6784 -3.4124 -0.2395
2.4421 -3.4360 -0.2282
2.2480 -3.4555 -0.2187
2.0707 -3.4728 -0.2053
1.9982 -3.4821 -0.2235
1.9018 -3.4927 -0.2282
1.7845 -3.5041 -0.2185
1.6141 -3.5214 -0.2128
1.5476 -3.5284 -0.2132
1.4871 -3.5348 -0.2135
1.3768 -3.5461 -0.2108
1.2884 -3.5554 -0.2111
1.2052 -3.5635 -0.2052
1.1353 -3.5704 -0.2007
1.1087 -3.5734 -0.2029
1.0770 -3.5763 -0.1986
1.0547 -3.5790 -0.2017
1.0327 -3.5815 -0.2039
1.0089 -3.5839 -0.2026
0.9864 -3.5861 -0.2011
0.9643 -3.5882 -0.1986
0.9434 -3.5901 -0.1961
0.9128 -3.5939 -0.2020
0.8910 -3.5954 -0.1939
0.8779 -3.5971 -0.1971
0.8503 -3.6001 -0.1989
0.8360 -3.6015 -0.1972
0.8264 -3.6030 -0.2028
0.8120 -3.6042 -0.1989
0.7979 -3.6052 -0.1942
0.7895 -3.6066 -0.1998
0.7777 -3.6076 -0.1976
0.7679 -3.6088 -0.1987
0.7594 -3.6100 -0.2020
0.7505 -3.6111 -0.2037
2.6001 -3.3652 -0.2280
2.3506 -3.3954 -0.2091
2.0646 -3.4321 -0.2101
1.9614 -3.4458 -0.2155
1.7670 -3.4707 -0.2159
1.6852 -3.4812 -0.2159
1.6199 -3.4899 -0.2203
1.4742 -3.5076 -0.2094
1.4284 -3.5139 -0.2147
1.3648 -3.5213 -0.2057
1.3245 -3.5267 -0.2092
1.2772 -3.5324 -0.2053
1.2412 -3.5372 -0.2072
1.2126 -3.5414 -0.2132
1.1639 -3.5465 -0.2001
1.1350 -3.5503 -0.2018
1.0806 -3.5574 -0.2030
1.0550 -3.5607 -0.2028
1.0314 -3.5637 -0.2031
1.0084 -3.5666 -0.2023
0.9850 -3.5693 -0.1997
0.9674 -3.5718 -0.2025
0.9457 -3.5743 -0.1989
0.9316 -3.5766 -0.2040
0.9072 -3.5788 -0.1936
0.8924 -3.5808 -0.1953
0.8785 -3.5828 -0.1974
0.8649 -3.5846 -0.1989
0.8503 -3.5864 -0.1977
0.8379 -3.5881 -0.1992
0.8244 -3.5897 -0.1979
0.8119 -3.5913 -0.1972
0.8003 -3.5928 -0.1971
0.7876 -3.5941 -0.1941
0.7794 -3.5956 -0.1992
0.7690 -3.5969 -0.1990
0.7582 -3.5981 -0.1970
3.4132 -3.1899 -0.2391
2.8389 -3.2768 -0.2430
2.3493 -3.3486 -0.2173
2.2216 -3.3685 -0.2257
2.0383 -3.3947 -0.2074
1.9688 -3.4065 -0.2248
1.8447 -3.4245 -0.2156
1.6674 -3.4509 -0.2119
1.6070 -3.4605 -0.2178
1.5420 -3.4703 -0.2180
1.4684 -3.4807 -0.2095
1.4234 -3.4879 -0.2148
1.3695 -3.4958 -0.2117
1.3264 -3.5024 -0.2131
1.2403 -3.5150 -0.2085
1.1661 -3.5258 -0.2036
1.1363 -3.5304 -0.2043
1.1079 -3.5347 -0.2045
1.0505 -3.5429 -0.1989
1.0363 -3.5458 -0.2090
1.0047 -3.5498 -0.1986
0.9836 -3.5529 -0.1983
0.9667 -3.5557 -0.2017
0.9464 -3.5586 -0.1998
0.9273 -3.5614 -0.1979
0.9107 -3.5639 -0.1981
0.8965 -3.5662 -0.2008
0.8812 -3.5685 -0.2008
0.8655 -3.5708 -0.1990
0.8495 -3.5729 -0.1954
0.8410 -3.5748 -0.2035
0.8281 -3.5767 -0.2033
0.8137 -3.5786 -0.1991
0.8007 -3.5803 -0.1965
0.7923 -3.5820 -0.2019
0.7799 -3.5836 -0.1983
0.7706 -3.5852 -0.2005
0.7626 -3.5867 -0.2049
3.6311 -3.0798 -0.2204
3.4267 -3.1175 -0.2562
2.7487 -3.2332 -0.2304
2.5254 -3.2716 -0.2261
2.2593 -3.3157 -0.1972
2.0529 -3.3529 -0.2196
1.9761 -3.3672 -0.2341
1.8299 -3.3912 -0.2148
1.6610 -3.4204 -0.2134
1.6051 -3.4306 -0.2211
1.4587 -3.4550 -0.2072
1.4002 -3.4649 -0.2032
1.3186 -3.4795 -0.2101
1.2376 -3.4934 -0.2084
1.1733 -3.5047 -0.2114
1.1400 -3.5103 -0.2091
1.1066 -3.5158 -0.2044
1.0788 -3.5205 -0.2031
1.0539 -3.5248 -0.2031
1.0318 -3.5287 -0.2046
1.0056 -3.5330 -0.1999
0.9852 -3.5365 -0.2004
0.9660 -3.5399 -0.2009
0.9301 -3.5461 -0.2015
0.9120 -3.5492 -0.1997
0.8978 -3.5518 -0.2022
0.8674 -3.5570 -0.2012
0.8534 -3.5594 -0.2008
0.8409 -3.5616 -0.2021
0.8261 -3.5639 -0.1983
0.8116 -3.5661 -0.1938
0.8043 -3.5680 -0.2018
0.7922 -3.5699 -0.1999
0.7827 -3.5717 -0.2024
0.7716 -3.5735 -0.2007
0.7597 -3.5753 -0.1959
0.7519 -3.5769 -0.1998
4.0293 -2.9274 -0.2246
3.3514 -3.0614 -0.2542
2.9656 -3.1356 -0.2344
2.7731 -3.1740 -0.2475
2.4806 -3.2297 -0.2223
2.2760 -3.2690 -0.2106
2.1289 -3.2976 -0.2087
2.0464 -3.3145 -0.2239
1.7881 -3.3637 -0.2020
1.6592 -3.3898 -0.2170
1.5088 -3.4186 -0.2068
1.4151 -3.4374 -0.2158
1.3627 -3.4474 -0.2128
1.3088 -3.4576 -0.2057
1.2365 -3.4719 -0.2096
1.1653 -3.4856 -0.2061
1.1078 -3.4969 -0.2066
1.0782 -3.5025 -0.2035
1.0501 -3.5077 -0.1999
1.0249 -3.5125 -0.1976
1.0056 -3.5165 -0.2004
0.9860 -3.5204 -0.2016
0.9622 -3.5247 -0.1963
0.9471 -3.5279 -0.2005
0.9272 -3.5316 -0.1972
0.9012 -3.5372 -0.2066
0.8803 -3.5408 -0.1979
0.8639 -3.5438 -0.1947
0.8532 -3.5462 -0.1996
0.8401 -3.5487 -0.1996
0.8127 -3.5538 -0.1944
0.8029 -3.5559 -0.1975
0.7920 -3.5580 -0.1978
0.7843 -3.5599 -0.2039
0.7726 -3.5620 -0.2008
4.8440 -2.6702 -0.2762
4.0785 -2.8353 -0.2504
2.7028 -3.1334 -0.2390
2.5121 -3.1749 -0.2408
2.2762 -3.2251 -0.2186
2.1213 -3.2585 -0.2132
1.8812 -3.3104 -0.2074
1.7204 -3.3456 -0.2144
1.6458 -3.3618 -0.2147
1.5611 -3.3798 -0.2057
1.5264 -3.3880 -0.2206
1.4577 -3.4026 -0.2133
1.4024 -3.4145 -0.2107
1.3492 -3.4258 -0.2064
1.3150 -3.4335 -0.2126
1.2301 -3.4517 -0.2065
1.1946 -3.4593 -0.2054
1.1581 -3.4671 -0.2013
1.1358 -3.4722 -0.2078
1.1056 -3.4787 -0.2056
1.0776 -3.4847 -0.2038
1.0486 -3.4907 -0.1990
1.0289 -3.4952 -0.2025
1.0057 -3.5001 -0.2008
0.9837 -3.5048 -0.1990
0.9637 -3.5091 -0.1981
0.9270 -3.5170 -0.1968
0.9147 -3.5200 -0.2026
0.8997 -3.5233 -0.2038
0.8808 -3.5271 -0.1980
0.8692 -3.5298 -0.2023
0.8530 -3.5332 -0.1983
0.8399 -3.5360 -0.1981
0.8163 -3.5412 -0.1997
0.8045 -3.5437 -0.1991
0.7948 -3.5460 -0.2018
0.7829 -3.5484 -0.1991
0.7736 -3.5505 -0.2010
0.7627 -3.5528 -0.1986
2.8932 -3.0349 -0.2396
2.4676 -3.1364 -0.2364
2.2752 -3.1819 -0.2262
2.1518 -3.2116 -0.2312
1.8819 -3.2754 -0.2135
1.6970 -3.3193 -0.2081
1.6292 -3.3356 -0.2107
1.5704 -3.3498 -0.2147
1.4468 -3.3791 -0.2099
1.3998 -3.3904 -0.2120
1.3282 -3.4069 -0.1947
1.3032 -3.4132 -0.2065
1.2670 -3.4219 -0.2088
1.1968 -3.4387 -0.2089
1.1627 -3.4468 -0.2068
1.1041 -3.4607 -0.2053
1.0769 -3.4671 -0.2040
1.0454 -3.4744 -0.1964
1.0025 -3.4847 -0.1976
0.9805 -3.4898 -0.1954
0.9636 -3.4940 -0.1981
0.9477 -3.4979 -0.2010
0.9276 -3.5025 -0.1973
0.9131 -3.5061 -0.1999
0.8974 -3.5098 -0.1999
0.8813 -3.5136 -0.1981
0.8655 -3.5173 -0.1956
0.8514 -3.5206 -0.1947
0.8403 -3.5234 -0.1977
0.8255 -3.5268 -0.1933
0.8173 -3.5290 -0.2002
0.8055 -3.5318 -0.1996
0.7921 -3.5348 -0.1947
0.7839 -3.5369 -0.1993
0.7734 -3.5394 -0.1985
0.7631 -3.5418 -0.1973
0.7553 -3.5438 -0.2010
2.8456 -2.9909 -0.2386
2.4354 -3.0974 -0.2354
2.1151 -3.1804 -0.2250
1.8420 -3.2508 -0.2024
1.7069 -3.2863 -0.2176
1.5652 -3.3231 -0.2158
1.4413 -3.3551 -0.2099
1.1963 -3.4188 -0.2102
1.1656 -3.4268 -0.2108
1.0993 -3.4438 -0.2017
1.0671 -3.4520 -0.1950
1.0241 -3.4633 -0.1984
1.0056 -3.4682 -0.2015
0.9874 -3.4730 -0.2039
0.9627 -3.4792 -0.1970
0.9445 -3.4839 -0.1968
0.9107 -3.4927 -0.1961
0.8824 -3.5001 -0.1992
0.8552 -3.5072 -0.2000
0.8407 -3.5109 -0.1973
0.8278 -3.5143 -0.1963
0.8151 -3.5175 -0.1947
0.8040 -3.5204 -0.1951
0.7962 -3.5226 -0.2012
0.7854 -3.5254 -0.2008
0.7731 -3.5285 -0.1960
0.7657 -3.5305 -0.2012
0.7591 -3.5324 -0.2077
3.7095 -2.6934 -0.2344
2.3579 -3.0729 -0.2198
2.2255 -3.1102 -0.2250
2.0883 -3.1487 -0.2221
1.8791 -3.2074 -0.2237
1.7624 -3.2400 -0.2112
1.6850 -3.2618 -0.2116
1.4905 -3.3164 -0.2106
1.4358 -3.3318 -0.2096
1.3850 -3.3460 -0.2082
1.3305 -3.3612 -0.2015
1.2610 -3.3808 -0.2085
1.1976 -3.3987 -0.2129
1.1529 -3.4111 -0.2011
1.1255 -3.4188 -0.2021
1.0779 -3.4322 -0.2068
1.0511 -3.4397 -0.2038
1.0289 -3.4460 -0.2041
0.9826 -3.4589 -0.1983
0.9648 -3.4639 -0.1997
0.9466 -3.4690 -0.1994
0.9294 -3.4738 -0.1993
0.9148 -3.4780 -0.2016
0.8836 -3.4867 -0.2003
0.8663 -3.4915 -0.1953
0.8577 -3.4940 -0.2031
0.8431 -3.4981 -0.2003
0.8275 -3.5024 -0.1945
0.8181 -3.5051 -0.1988
0.8069 -3.5083 -0.1991
0.7839 -3.5147 -0.1958
0.7740 -3.5174 -0.1960
0.7672 -3.5194 -0.2026
0.7588 -3.5218 -0.2048
4.6871 -2.0571 0.4465
4.5636 -2.1021 0.3585
4.6047 -2.0837 0.2707
4.6464 -2.0649 0.1794
4.4824 -2.1257 0.0976
5.0348 -1.9054 -0.1471
4.5621 -2.0865 -0.1907
4.4776 -2.1166 -0.2757
3.3354 -2.5584 -0.2341
2.0485 -3.0554 -0.2131
1.8778 -3.1219 -0.1888
1.8209 -3.1434 -0.2049
1.7592 -3.1668 -0.2162
1.6654 -3.2033 -0.2084
1.5538 -3.2470 -0.1858
1.5235 -3.2582 -0.2029
1.4735 -3.2773 -0.2068
1.4226 -3.2969 -0.2075
1.3240 -3.3351 -0.2024
1.2414 -3.3671 -0.1982
1.2115 -3.3785 -0.2018
1.1731 -3.3935 -0.1962
1.1428 -3.4052 -0.1956
1.1221 -3.4130 -0.2022
1.0905 -3.4253 -0.1969
1.0651 -3.4352 -0.1959
1.0411 -3.4445 -0.1946
1.0251 -3.4505 -0.2011
1.0011 -3.4598 -0.1971
0.9814 -3.4674 -0.1966
0.9613 -3.4753 -0.1943
0.9410 -3.4832 -0.1901
0.9260 -3.4890 -0.1920
0.9085 -3.4958 -0.1892
0.8975 -3.4998 -0.1951
0.8834 -3.5053 -0.1952
0.8695 -3.5107 -0.1947
0.8540 -3.5168 -0.1902
0.8439 -3.5205 -0.1942
0.8309 -3.5256 -0.1920
0.8074 -3.5348 -0.1894
0.7999 -3.5375 -0.1955
0.7884 -3.5420 -0.1923
0.7789 -3.5457 -0.1926
0.7696 -3.5493 -0.1925
0.7626 -3.5518 -0.1974
4.7432 -1.9474 0.6477
4.3844 -2.0899 0.5433
4.4195 -2.0723 0.4634
4.4959 -2.0378 0.3806
4.4955 -2.0344 0.2939
4.4151 -2.0639 0.2084
4.4531 -2.0446 0.1175
4.3731 -2.0739 0.0329
4.6202 -1.9642 -0.1845
4.4889 -2.0146 -0.2654
2.7225 -2.7386 -0.2177
2.5839 -2.7945 -0.2382
2.3478 -2.8917 -0.2211
2.0118 -3.0299 -0.2008
1.8771 -3.0854 -0.1907
1.8245 -3.1061 -0.2095
1.7342 -3.1431 -0.2080
1.6420 -3.1811 -0.2008
1.5080 -3.2359 -0.1992
1.4668 -3.2524 -0.2084
1.4034 -3.2786 -0.2012
1.3202 -3.3124 -0.2067
1.2353 -3.3474 -0.2010
1.1959 -3.3637 -0.1967
1.1679 -3.3750 -0.2000
1.1364 -3.3879 -0.1984
1.1063 -3.4003 -0.1961
1.0824 -3.4100 -0.1981
1.0581 -3.4199 -0.1982
1.0344 -3.4297 -0.1973
1.0156 -3.4372 -0.2005
0.9927 -3.4467 -0.1977
0.9733 -3.4547 -0.1974
0.9507 -3.4641 -0.1916
0.9327 -3.4715 -0.1905
0.9180 -3.4775 -0.1925
0.9041 -3.4830 -0.1950
0.8872 -3.4901 -0.1917
0.8772 -3.4939 -0.1984
0.8603 -3.5010 -0.1926
0.8476 -3.5062 -0.1928
0.8357 -3.5110 -0.1935
0.8247 -3.5155 -0.1949
0.8133 -3.5202 -0.1946
0.8027 -3.5245 -0.1951
0.7929 -3.5284 -0.1964
0.7827 -3.5326 -0.1960
0.7711 -3.5375 -0.1912
0.7635 -3.5405 -0.1951
0.7550 -3.5439 -0.1961
4.7093 -1.8869 1.0841
4.7534 -1.8641 1.0120
4.5896 -1.9297 0.9081
4.4353 -1.9914 0.8103
4.6310 -1.9036 0.7510
4.5094 -1.9515 0.6579
4.2840 -2.0441 0.5623
4.4685 -1.9604 0.4887
4.3895 -1.9902 0.4021
4.4236 -1.9618 0.1378
4.3819 -1.9752 0.0490
4.8258 -1.7758 -0.0901
4.5904 -1.8738 -0.1660
4.3350 -1.9812 -0.2293
3.7240 -2.2462 -0.2177
2.5679 -2.7460 -0.2321
2.3602 -2.8363 -0.2248
2.1948 -2.9081 -0.2213
1.9217 -3.0268 -0.2114
1.8083 -3.0762 -0.2054
1.6415 -3.1485 -0.2048
1.5733 -3.1779 -0.2057
1.4630 -3.2253 -0.2120
1.4005 -3.2527 -0.2057
1.3471 -3.2760 -0.2017
1.3049 -3.2943 -0.2027
1.2652 -3.3114 -0.2031
1.2320 -3.3256 -0.2063
1.1875 -3.3453 -0.1978
1.1582 -3.3579 -0.2000
1.1249 -3.3725 -0.1966
1.0984 -3.3839 -0.1976
1.0702 -3.3963 -0.1952
1.0538 -3.4029 -0.2037
1.0015 -3.4260 -0.1947
0.9791 -3.4358 -0.1919
0.9607 -3.4438 -0.1926
0.9448 -3.4505 -0.1954
0.9264 -3.4586 -0.1936
0.9084 -3.4665 -0.1910
0.8980 -3.4706 -0.1987
0.8801 -3.4786 -0.1936
0.8651 -3.4852 -0.1919
0.8517 -3.4910 -0.1916
0.8416 -3.4952 -0.1963
0.8287 -3.5008 -0.1950
0.8184 -3.5051 -0.1977
0.8048 -3.5113 -0.1929
0.7950 -3.5154 -0.1947
0.7831 -3.5208 -0.1911
0.7742 -3.5245 -0.1932
0.7654 -3.5282 -0.1950
0.7569 -3.5318 -0.1964
0.7480 -3.5357 -0.1962
4.6430 -1.8179 1.0273
4.6857 -1.7937 0.9533
4.6445 -1.8070 0.8654
5.0180 -1.6272 0.7278
4.6462 -1.7900 0.6096
4.4007 -1.8961 0.5107
4.3603 -1.9092 0.4246
4.3560 -1.9001 0.2504
4.4747 -1.8396 0.1544
4.3912 -1.8723 0.0658
5.1190 -1.5283 -0.1015
5.0115 -1.5711 -0.2034
4.2636 -1.9135 -0.2061
3.1294 -2.4304 -0.2448
2.1943 -2.8601 -0.2220
1.9226 -2.9851 -0.2142
1.8062 -3.0388 -0.2077
1.7230 -3.0767 -0.2104
1.6292 -3.1201 -0.2030
1.5576 -3.1529 -0.2022
1.5050 -3.1767 -0.2083
1.4645 -3.1945 -0.2192
1.4113 -3.2189 -0.2194
1.3326 -3.2562 -0.1986
1.2943 -3.2735 -0.2023
1.2463 -3.2959 -0.1962
1.2257 -3.3045 -0.2095
1.1779 -3.3271 -0.1981
1.1506 -3.3394 -0.2021
1.1193 -3.3538 -0.2006
1.0909 -3.3669 -0.1998
1.0645 -3.3789 -0.1993
1.0417 -3.3893 -0.2009
1.0115 -3.4037 -0.1922
0.9890 -3.4141 -0.1906
0.9516 -3.4311 -0.1925
0.9352 -3.4385 -0.1945
0.9211 -3.4447 -0.1986
0.8995 -3.4551 -0.1904
0.8886 -3.4597 -0.1972
0.8685 -3.4694 -0.1881
0.8574 -3.4742 -0.1928
0.8442 -3.4803 -0.1927
0.8342 -3.4846 -0.1976
0.8197 -3.4915 -0.1930
0.8101 -3.4956 -0.1970
0.7974 -3.5017 -0.1935
0.7866 -3.5067 -0.1930
0.7770 -3.5109 -0.1944
0.7662 -3.5161 -0.1917
0.7570 -3.5202 -0.1923
0.7491 -3.5237 -0.1950
0.7403 -3.5277 -0.1949
4.6620 -1.6737 0.5483
4.4482 -1.7698 0.4505
4.3281 -1.8211 0.3607
4.3255 -1.8157 0.2720
2.1767 -2.8189 -0.2166
1.8877 -2.9599 -0.2024
1.7104 -3.0452 -0.2084
1.6016 -3.0991 -0.1933
1.5692 -3.1132 -0.2138
1.5017 -3.1460 -0.2122
1.4298 -3.1814 -0.2038
1.3662 -3.2128 -0.1962
1.3252 -3.2323 -0.2006
1.2746 -3.2572 -0.1952
1.2473 -3.2697 -0.2050
1.2088 -3.2884 -0.2040
1.1658 -3.3098 -0.1963
1.1411 -3.3213 -0.2027
1.1058 -3.3388 -0.1972
1.0549 -3.3632 -0.1995
1.0295 -3.3756 -0.1981
1.0027 -3.3890 -0.1930
0.9840 -3.3979 -0.1960
0.9623 -3.4085 -0.1937
0.9275 -3.4252 -0.1963
0.9084 -3.4346 -0.1930
0.8898 -3.4440 -0.1888
0.8653 -3.4552 -0.1971
0.8508 -3.4623 -0.1958
0.8354 -3.4701 -0.1917
0.8232 -3.4759 -0.1922
0.8091 -3.4831 -0.1877
0.8002 -3.4870 -0.1928
0.7925 -3.4902 -0.2000
0.7771 -3.4985 -0.1889
0.7693 -3.5019 -0.1940
0.7591 -3.5070 -0.1927
0.7501 -3.5113 -0.1934
0.7399 -3.5165 -0.1897
0.7331 -3.5193 -0.1949
4.4611 -1.6683 0.5654
4.6338 -1.5725 0.4815
4.2973 -1.7359 0.3835
4.2556 -1.7494 0.2948
4.4992 -1.6160 0.1945
4.6364 -1.5363 0.0869
4.5895 -1.5515 -0.0132
4.6863 -1.4916 -0.1301
4.2372 -1.7171 -0.1763
4.0785 -1.7918 -0.2503
2.5796 -2.5599 -0.2309
2.1420 -2.7859 -0.2053
1.9549 -2.8833 -0.1858
1.8929 -2.9131 -0.2072
1.7162 -3.0027 -0.2154
1.5456 -3.0908 -0.2062
1.4818 -3.1234 -0.2065
1.4195 -3.1555 -0.2037
1.3730 -3.1789 -0.2078
1.3212 -3.2056 -0.2052
1.2761 -3.2288 -0.2043
1.2312 -3.2520 -0.2005
1.1964 -3.2697 -0.2023
1.1646 -3.2857 -0.2045
1.1320 -3.3024 -0.2039
1.1002 -3.3189 -0.2017
1.0408 -3.3499 -0.1949
0.9997 -3.3703 -0.2011
0.9712 -3.3857 -0.1918
0.9545 -3.3939 -0.1958
0.9355 -3.4037 -0.1955
0.9195 -3.4116 -0.1980
0.8971 -3.4239 -0.1893
0.8837 -3.4304 -0.1930
0.8693 -3.4376 -0.1942
0.8536 -3.4459 -0.1916
0.8404 -3.4525 -0.1925
0.8265 -3.4598 -0.1906
0.8172 -3.4640 -0.1967
0.8012 -3.4730 -0.1880
0.7812 -3.4829 -0.1923
0.7707 -3.4882 -0.1920
0.7609 -3.4932 -0.1924
0.7509 -3.4984 -0.1911
0.7421 -3.5029 -0.1919
0.7334 -3.5073 -0.1923
0.7241 -3.5123 -0.1896
4.2690 -1.6562 0.4950
4.2274 -1.6696 0.4063
4.2230 -1.6630 0.3171
4.4678 -1.5207 0.2174
4.7019 -1.3827 0.1039
4.8079 -1.3136 -0.0132
4.5563 -1.4408 -0.0981
3.8013 -1.8387 -0.1925
3.3214 -2.0978 -0.1914
2.8234 -2.3628 -0.2288
2.5364 -2.5189 -0.2169
2.1651 -2.7196 -0.2143
2.0399 -2.7866 -0.2203
1.8810 -2.8739 -0.2051
1.8004 -2.9164 -0.2155
1.7223 -2.9578 -0.2227
1.6426 -3.0006 -0.2246
1.5425 -3.0561 -0.2101
1.4780 -3.0909 -0.2104
1.4174 -3.1237 -0.2092
1.3503 -3.1609 -0.1996
1.3080 -3.1834 -0.2034
1.2552 -3.2125 -0.1964
1.2292 -3.2254 -0.2077
1.1860 -3.2493 -0.2025
1.1481 -3.2701 -0.1992
1.1190 -3.2856 -0.2015
1.0828 -3.3058 -0.1946
1.0586 -3.3186 -0.1976
1.0308 -3.3338 -0.1949
1.0056 -3.3476 -0.1932
0.9890 -3.3559 -0.2000
0.9623 -3.3710 -0.1927
0.9470 -3.3787 -0.1987
0.9265 -3.3900 -0.1960
0.9107 -3.3983 -0.1987
0.8784 -3.4157 -0.1991
0.8602 -3.4261 -0.1936
0.8436 -3.4355 -0.1892
0.8318 -3.4415 -0.1922
0.8208 -3.4471 -0.1958
0.8084 -3.4538 -0.1957
0.7968 -3.4600 -0.1960
0.7819 -3.4689 -0.1878
0.7739 -3.4726 -0.1939
0.7631 -3.4786 -0.1926
0.7521 -3.4848 -0.1895
0.7450 -3.4880 -0.1958
0.7367 -3.4923 -0.1980
0.7255 -3.4990 -0.1908
0.7189 -3.5021 -0.1962
5.1414 -1.0707 0.6680
4.9206 -1.1828 0.5501
4.4383 -1.4441 0.4348
4.3935 -1.4586 0.3391
4.1864 -1.5660 0.2482
4.1820 -1.5576 0.1545
4.1386 -1.5716 0.0619
3.9146 -1.6907 -0.0111
4.0022 -1.6057 -0.3156
3.1399 -2.1070 -0.2262
2.8073 -2.2970 -0.2213
2.5318 -2.4548 -0.2138
2.0217 -2.7451 -0.2153
1.8929 -2.8187 -0.2129
1.7821 -2.8820 -0.2110
1.6996 -2.9284 -0.2162
1.6335 -2.9650 -0.2251
1.5256 -3.0286 -0.2063
1.4496 -3.0727 -0.1996
1.4065 -3.0961 -0.2092
1.3643 -3.1192 -0.2169
1.3020 -3.1559 -0.2071
1.2464 -3.1886 -0.1980
1.2133 -3.2068 -0.2036
1.1737 -3.2296 -0.2014
1.1422 -3.2473 -0.2037
1.1031 -3.2704 -0.1963
1.0485 -3.3013 -0.1979
1.0265 -3.3134 -0.2017
0.9965 -3.3314 -0.1942
0.9812 -3.3390 -0.2029
0.9544 -3.3552 -0.1952
0.9369 -3.3649 -0.1980
0.9179 -3.3757 -0.1973
0.9005 -3.3856 -0.1975
0.8819 -3.3966 -0.1941
0.8676 -3.4045 -0.1964
0.8525 -3.4131 -0.1960
0.8400 -3.4199 -0.1989
0.8251 -3.4287 -0.1961
0.8136 -3.4349 -0.1989
0.7964 -3.4460 -0.1881
0.7875 -3.4504 -0.1940
0.7745 -3.4583 -0.1893
0.7670 -3.4618 -0.1967
0.7554 -3.4687 -0.1932
0.7455 -3.4744 -0.1927
0.7354 -3.4805 -0.1905
0.7281 -3.4841 -0.1952
0.7197 -3.4888 -0.1959
4.0602 -1.4933 -0.0109
3.1711 -1.9990 -0.2273
2.8599 -2.1854 -0.2310
2.3890 -2.4680 -0.2324
2.0397 -2.6789 -0.2243
1.7789 -2.8369 -0.2135
1.5950 -2.9478 -0.2101
1.4507 -3.0349 -0.2069
1.3357 -3.1042 -0.2047
1.2886 -3.1324 -0.2056
1.2319 -3.1678 -0.1954
1.1930 -3.1911 -0.1959
1.1641 -3.2076 -0.2026
1.1296 -3.2284 -0.2021
1.0959 -3.2489 -0.1999
1.0690 -3.2647 -0.2022
1.0375 -3.2842 -0.1974
1.0171 -3.2958 -0.2030
0.9883 -3.3139 -0.1967
0.9480 -3.3376 -0.2001
0.9247 -3.3523 -0.1947
0.9096 -3.3608 -0.1995
0.8891 -3.3737 -0.1945
0.8730 -3.3833 -0.1950
0.8584 -3.3919 -0.1965
0.8447 -3.3999 -0.1983
0.8297 -3.4092 -0.1964
0.8156 -3.4179 -0.1948
0.8023 -3.4260 -0.1934
0.7904 -3.4332 -0.1935
0.7792 -3.4398 -0.1941
0.7682 -3.4464 -0.1942
0.7580 -3.4524 -0.1948
0.7489 -3.4576 -0.1973
0.7391 -3.4635 -0.1970
0.7279 -3.4710 -0.1913
0.7191 -3.4763 -0.1912
0.7116 -3.4804 -0.1944
2.3813 -2.4043 -0.2296
1.7712 -2.7928 -0.2141
1.5888 -2.9085 -0.2125
1.5150 -2.9552 -0.2127
1.4273 -3.0127 -0.1993
1.3765 -3.0441 -0.2043
1.3219 -3.0789 -0.2031
1.2750 -3.1085 -0.2039
1.2362 -3.1324 -0.2080
1.1838 -3.1671 -0.1977
1.1465 -3.1909 -0.1969
1.1200 -3.2066 -0.2037
1.0823 -3.2314 -0.1973
1.0294 -3.2644 -0.2005
0.9736 -3.3011 -0.1914
0.9581 -3.3097 -0.1996
0.9365 -3.3236 -0.1982
0.9131 -3.3393 -0.1923
0.8960 -3.3499 -0.1937
0.8814 -3.3585 -0.1978
0.8645 -3.3694 -0.1967
0.8470 -3.3811 -0.1928
0.8335 -3.3893 -0.1946
0.8218 -3.3961 -0.1989
0.8065 -3.4065 -0.1944
0.7930 -3.4153 -0.1922
0.7827 -3.4214 -0.1956
0.7707 -3.4291 -0.1942
0.7600 -3.4359 -0.1944
0.7490 -3.4431 -0.1929
0.7405 -3.4479 -0.1967
0.7297 -3.4553 -0.1929
0.7203 -3.4613 -0.1921
0.7116 -3.4669 -0.1921
0.7035 -3.4719 -0.1929
4.4260 -1.0725 0.4168
4.7273 -0.8543 0.3107
4.4665 -0.9570 -0.1303
4.4651 -0.9389 -0.2485
2.3974 -2.3208 -0.2344
2.1679 -2.4763 -0.2193
1.8787 -2.6698 -0.2166
1.7454 -2.7604 -0.2063
1.5741 -2.8740 -0.2103
1.5038 -2.9205 -0.2128
1.4411 -2.9619 -0.2153
1.3592 -3.0190 -0.2004
1.3126 -3.0493 -0.2049
1.2720 -3.0755 -0.2108
1.2221 -3.1095 -0.2062
1.1863 -3.1328 -0.2100
1.1401 -3.1650 -0.2016
1.1067 -3.1872 -0.2020
1.0736 -3.2096 -0.2000
1.0407 -3.2323 -0.1955
1.0203 -3.2447 -0.2027
0.9895 -3.2664 -0.1957
0.9702 -3.2785 -0.2006
0.9444 -3.2966 -0.1951
0.9215 -3.3125 -0.1914
0.8873 -3.3346 -0.1957
0.8703 -3.3460 -0.1956
0.8548 -3.3562 -0.1965
0.8376 -3.3683 -0.1928
0.8238 -3.3773 -0.1939
0.8094 -3.3871 -0.1923
0.7978 -3.3945 -0.1950
0.7845 -3.4036 -0.1930
0.7734 -3.4108 -0.1944
0.7621 -3.4184 -0.1943
0.7417 -3.4318 -0.1956
0.7312 -3.4391 -0.1937
0.7214 -3.4458 -0.1923
0.7122 -3.4521 -0.1917
0.7030 -3.4586 -0.1893
0.6971 -3.4612 -0.1978
0.6876 -3.4685 -0.1919
4.3454 -0.9959 0.4430
4.5351 -0.8440 0.3397
2.6575 -2.0604 -0.2416
2.2059 -2.3793 -0.2339
1.8851 -2.6068 -0.2228
1.7419 -2.7099 -0.2091
1.6331 -2.7875 -0.2029
1.5005 -2.8780 -0.2178
1.4267 -2.9306 -0.2138
1.3451 -2.9907 -0.1989
1.2986 -3.0226 -0.2035
1.2559 -3.0518 -0.2077
1.2104 -3.0840 -0.2065
1.1621 -3.1193 -0.1992
1.1330 -3.1385 -0.2061
1.1008 -3.1609 -0.2078
1.0340 -3.2091 -0.2006
1.0102 -3.2252 -0.2040
0.9760 -3.2514 -0.1923
0.9575 -3.2633 -0.1982
0.9323 -3.2820 -0.1930
0.9159 -3.2925 -0.1984
0.8993 -3.3035 -0.2023
0.8794 -3.3180 -0.1993
0.8601 -3.3323 -0.1952
0.8458 -3.3418 -0.1981
0.8280 -3.3553 -0.1928
0.8131 -3.3661 -0.1912
0.7999 -3.3753 -0.1917
0.7893 -3.3818 -0.1966
0.7754 -3.3923 -0.1927
0.7649 -3.3992 -0.1954
0.7522 -3.4089 -0.1910
0.7430 -3.4147 -0.1948
0.7341 -3.4204 -0.1981
0.7242 -3.4274 -0.1976
0.7138 -3.4354 -0.1941
0.7044 -3.4422 -0.1924
0.6960 -3.4481 -0.1927
0.6885 -3.4530 -0.1950
0.6805 -3.4588 -0.1943
4.4525 -0.8019 0.5798
4.4511 -0.7824 0.4750
4.2122 -0.9178 0.2632
4.0783 -0.9976 0.1641
4.0724 -0.9814 0.0593
4.0176 -0.9806 -0.1517
2.5306 -2.0718 -0.2037
2.1450 -2.3554 -0.2135
1.9654 -2.4902 -0.2047
1.8640 -2.5628 -0.2174
1.7791 -2.6230 -0.2314
1.6462 -2.7246 -0.2152
1.4701 -2.8567 -0.2068
1.3406 -2.9531 -0.2043
1.2475 -3.0208 -0.2109
1.2078 -3.0494 -0.2148
1.1464 -3.0985 -0.1959
1.1159 -3.1200 -0.2013
1.0893 -3.1384 -0.2083
1.0531 -3.1663 -0.2029
1.0319 -3.1803 -0.2116
0.9946 -3.2104 -0.1989
0.9707 -3.2279 -0.1999
0.9469 -3.2457 -0.1988
0.9249 -3.2622 -0.1978
0.9034 -3.2786 -0.1956
0.8825 -3.2947 -0.1922
0.8657 -3.3069 -0.1935
0.8488 -3.3195 -0.1929
0.8348 -3.3293 -0.1960
0.8169 -3.3438 -0.1900
0.8054 -3.3512 -0.1952
0.7894 -3.3643 -0.1891
0.7785 -3.3716 -0.1931
0.7675 -3.3793 -0.1955
0.7438 -3.3975 -0.1921
0.7252 -3.4102 -0.1973
0.7148 -3.4185 -0.1945
0.7046 -3.4267 -0.1912
0.6965 -3.4323 -0.1931
0.6876 -3.4393 -0.1910
0.6805 -3.4439 -0.1947
0.6717 -3.4512 -0.1903
4.2765 -0.7933 0.6009
4.4147 -0.6647 0.5045
4.4130 -0.6428 0.3960
3.6028 -1.2348 0.2088
3.5929 -1.2227 0.1166
3.9036 -0.9526 -0.0126
3.8956 -0.9359 -0.1194
3.4844 -1.2268 -0.2587
2.8872 -1.7019 -0.2164
2.6177 -1.9101 -0.2258
2.2153 -2.2211 -0.2397
1.8561 -2.5061 -0.2178
1.6507 -2.6652 -0.2234
1.4657 -2.8120 -0.2116
1.4216 -2.8431 -0.2270
1.3338 -2.9156 -0.2085
1.2783 -2.9592 -0.2071
1.2331 -2.9939 -0.2097
1.1817 -3.0354 -0.2033
1.1409 -3.0674 -0.2023
1.1054 -3.0949 -0.2031
1.0726 -3.1204 -0.2038
1.0425 -3.1438 -0.2045
1.0086 -3.1716 -0.1982
0.9812 -3.1933 -0.1967
0.9535 -3.2158 -0.1921
0.9350 -3.2290 -0.1978
0.9170 -3.2421 -0.2025
0.8923 -3.2629 -0.1952
0.8768 -3.2739 -0.2003
0.8544 -3.2932 -0.1919
0.8430 -3.3001 -0.2011
0.8236 -3.3168 -0.1939
0.7966 -3.3371 -0.1972
0.7830 -3.3480 -0.1962
0.7702 -3.3581 -0.1955
0.7601 -3.3650 -0.2002
0.7487 -3.3739 -0.2002
0.7368 -3.3838 -0.1974
0.7249 -3.3940 -0.1928
0.7155 -3.4011 -0.1941
0.7064 -3.4080 -0.1949
0.6971 -3.4154 -0.1940
0.6803 -3.4285 -0.1943
0.6721 -3.4352 -0.1931
0.6656 -3.4393 -0.1977
4.2354 -0.6592 0.5280
3.7679 -0.9718 0.2221
3.7225 -0.9864 0.1254
3.9446 -0.7748 0.0008
4.0222 -0.6823 -0.1215
3.1847 -1.3551 -0.1884
2.9988 -1.4962 -0.2384
2.1816 -2.1700 -0.2291
1.7245 -2.5489 -0.2155
1.6148 -2.6402 -0.2108
1.5499 -2.6906 -0.2234
1.4608 -2.7654 -0.2165
1.3859 -2.8280 -0.2120
1.3183 -2.8848 -0.2067
1.2633 -2.9303 -0.2056
1.2092 -2.9759 -0.2006
1.1711 -3.0062 -0.2053
1.1352 -3.0348 -0.2090
1.0851 -3.0791 -0.1953
1.0537 -3.1047 -0.1967
1.0225 -3.1305 -0.1957
1.0009 -3.1464 -0.2035
0.9735 -3.1694 -0.2019
0.9280 -3.2063 -0.2041
0.8992 -3.2326 -0.1925
0.8820 -3.2458 -0.1963
0.8672 -3.2566 -0.2024
0.8495 -3.2713 -0.2020
0.8313 -3.2870 -0.1988
0.8133 -3.3030 -0.1935
0.7992 -3.3144 -0.1943
0.7855 -3.3256 -0.1943
0.7718 -3.3373 -0.1926
0.7596 -3.3472 -0.1930
0.7363 -3.3667 -0.1916
0.7161 -3.3830 -0.1929
0.7072 -3.3898 -0.1954
0.6966 -3.3996 -0.1907
0.6888 -3.4051 -0.1945
0.6785 -3.4152 -0.1873
0.6723 -3.4185 -0.1951
0.6643 -3.4254 -0.1940
3.4964 -1.1379 0.5186
3.6566 -0.9303 0.2481
3.5447 -1.0039 0.1568
3.7076 -0.8338 0.0429
3.3691 -1.0606 -0.2175
2.8704 -1.4964 -0.2023
2.3934 -1.9021 -0.2311
1.9630 -2.2796 -0.2119
1.8323 -2.3919 -0.2156
1.7201 -2.4882 -0.2188
1.6031 -2.5915 -0.2110
1.5249 -2.6579 -0.2165
1.3666 -2.7971 -0.2080
1.3023 -2.8535 -0.2048
1.2429 -2.9061 -0.2001
1.2026 -2.9395 -0.2063
1.1540 -2.9828 -0.2018
1.1188 -3.0122 -0.2059
1.0756 -3.0515 -0.1986
1.0446 -3.0777 -0.2007
1.0103 -3.1087 -0.1959
0.9853 -3.1294 -0.1994
0.9554 -3.1567 -0.1939
0.9364 -3.1714 -0.2007
0.9140 -3.1908 -0.2007
0.8752 -3.2237 -0.2035
0.8546 -3.2426 -0.1996
0.8390 -3.2553 -0.2027
0.8204 -3.2726 -0.1981
0.8040 -3.2874 -0.1957
0.7889 -3.3008 -0.1941
0.7771 -3.3100 -0.1981
0.7640 -3.3215 -0.1976
0.7491 -3.3363 -0.1904
0.7397 -3.3429 -0.1962
0.7270 -3.3551 -0.1913
0.7178 -3.3622 -0.1951
0.7078 -3.3708 -0.1951
0.6971 -3.3811 -0.1912
0.6880 -3.3890 -0.1910
0.6801 -3.3952 -0.1938
0.6720 -3.4018 -0.1950
0.6642 -3.4084 -0.1958
0.6563 -3.4155 -0.1949
3.4872 -1.0200 0.5448
3.8545 -0.6643 0.4704
3.7324 -0.7476 0.3687
3.6860 -0.7626 0.2698
3.5364 -0.8733 0.1769
3.3069 -1.0610 0.0983
3.3833 -0.9624 -0.0064
3.3702 -0.9470 -0.1050
3.3569 -0.9313 -0.2058
2.8510 -1.3966 -0.1922
2.3844 -1.8125 -0.2278
1.9733 -2.1900 -0.2191
1.7278 -2.4114 -0.2283
1.5813 -2.5513 -0.2060
1.5122 -2.6112 -0.2169
1.3724 -2.7375 -0.2216
1.2966 -2.8097 -0.2109
1.2201 -2.8845 -0.1927
1.1663 -2.9353 -0.1867
1.1315 -2.9651 -0.1935
1.0955 -2.9972 -0.1961
1.0627 -3.0264 -0.1988
1.0403 -3.0437 -0.2104
1.0003 -3.0833 -0.1990
0.9508 -3.1269 -0.2043
0.9228 -3.1541 -0.1985
0.8967 -3.1797 -0.1922
0.8823 -3.1901 -0.2021
0.8607 -3.2109 -0.1982
0.8419 -3.2284 -0.1968
0.8236 -3.2458 -0.1943
0.7961 -3.2690 -0.2013
0.7793 -3.2858 -0.1956
0.7646 -3.3001 -0.1924
0.7413 -3.3206 -0.1956
0.7296 -3.3315 -0.1947
0.7175 -3.3435 -0.1910
0.7081 -3.3513 -0.1938
0.6990 -3.3590 -0.1961
0.6791 -3.3788 -0.1902
0.6718 -3.3840 -0.1954
0.6636 -3.3914 -0.1956
0.6552 -3.3999 -0.1929
0.6477 -3.4066 -0.1932
3.5201 -0.8833 0.6626
3.4289 -0.8334 0.2031
3.3233 -0.9081 0.1138
3.2509 -0.9511 0.0247
3.2079 -0.9650 -0.0669
3.0079 -1.1390 -0.1277
3.0171 -1.1009 -0.2255
2.3326 -1.7634 -0.2110
1.9403 -2.1412 -0.2091
1.5989 -2.4654 -0.2227
1.4734 -2.5923 -0.2019
1.3550 -2.7009 -0.2196
1.2856 -2.7695 -0.2134
1.1797 -2.8841 -0.1707
1.1249 -2.9394 -0.1620
1.1071 -2.9502 -0.1831
1.0869 -2.9643 -0.2010
1.0592 -2.9883 -0.2097
1.0201 -3.0280 -0.2025
0.9847 -3.0640 -0.1958
0.9373 -3.1075 -0.2030
0.9114 -3.1334 -0.1996
0.8885 -3.1559 -0.1981
0.8663 -3.1781 -0.1951
0.8483 -3.1950 -0.1967
0.8303 -3.2123 -0.1964
0.8141 -3.2276 -0.1974
0.7976 -3.2440 -0.1957
0.7805 -3.2621 -0.1903
0.7530 -3.2891 -0.1886
0.7412 -3.2999 -0.1902
0.7311 -3.3082 -0.1949
0.7187 -3.3212 -0.1912
0.7092 -3.3293 -0.1948
0.6990 -3.3391 -0.1947
0.6886 -3.3500 -0.1918
0.6804 -3.3567 -0.1958
0.6706 -3.3674 -0.1916
0.6621 -3.3756 -0.1912
0.6546 -3.3821 -0.1938
0.6468 -3.3896 -0.1935
0.6398 -3.3959 -0.1953
0.6328 -3.4022 -0.1966
3.5766 -0.5997 0.4194
3.2647 -0.8550 0.2314
3.1938 -0.8979 0.1420
3.2365 -0.7559 -0.1625
2.3787 -1.6052 -0.2250
2.1874 -1.7951 -0.2373
1.8899 -2.0906 -0.2560
1.7115 -2.2790 -0.2328
1.5910 -2.4034 -0.2259
1.4725 -2.5286 -0.2098
1.3883 -2.6154 -0.2055
1.3375 -2.6630 -0.2177
1.1198 -2.9116 -0.1317
1.1427 -2.8693 -0.1903
1.1201 -2.8861 -0.2092
1.0764 -2.9319 -0.2047
1.0411 -2.9675 -0.2050
1.0054 -3.0049 -0.2012
0.9738 -3.0378 -0.1987
0.9525 -3.0568 -0.2067
0.9226 -3.0891 -0.2003
0.8956 -3.1184 -0.1945
0.8776 -3.1348 -0.2003
0.8572 -3.1556 -0.1999
0.8228 -3.2000 -0.1707
0.8139 -3.2039 -0.1864
0.8039 -3.2098 -0.1996
0.7866 -3.2285 -0.1957
0.7728 -3.2420 -0.1975
0.7566 -3.2604 -0.1913
0.7440 -3.2729 -0.1921
0.7305 -3.2878 -0.1883
0.7209 -3.2956 -0.1942
0.7091 -3.3084 -0.1916
0.7000 -3.3161 -0.1964
0.6884 -3.3299 -0.1902
0.6809 -3.3349 -0.1981
0.6712 -3.3454 -0.1959
0.6629 -3.3534 -0.1974
0.6545 -3.3619 -0.1973
0.6456 -3.3727 -0.1919
0.6380 -3.3804 -0.1918
0.6314 -3.3857 -0.1960
3.9512 -0.1597 0.7809
3.3055 -0.7921 0.6156
3.1373 -0.8464 0.2569
3.0437 -0.9164 0.1710
2.3679 -1.5016 -0.2211
2.2110 -1.6600 -0.2476
1.8238 -2.0796 -0.2314
1.6872 -2.2271 -0.2273
1.5943 -2.3234 -0.2359
1.4456 -2.4941 -0.2022
1.3703 -2.5742 -0.2034
1.3039 -2.6449 -0.2043
1.0858 -2.9098 -0.1135
1.1437 -2.8160 -0.2047
1.1129 -2.8447 -0.2168
1.0651 -2.8988 -0.2080
1.0243 -2.9446 -0.2019
0.9928 -2.9780 -0.2027
0.9628 -3.0103 -0.2019
0.9108 -3.0658 -0.2021
0.8895 -3.0876 -0.2051
0.8185 -3.1824 -0.1512
0.8045 -3.1952 -0.1572
0.7943 -3.2018 -0.1695
0.7864 -3.2044 -0.1863
0.7750 -3.2136 -0.1948
0.7618 -3.2267 -0.1977
0.7461 -3.2456 -0.1918
0.7334 -3.2590 -0.1919
0.7218 -3.2711 -0.1930
0.7117 -3.2804 -0.1972
0.7001 -3.2936 -0.1950
0.6895 -3.3053 -0.1939
0.6788 -3.3181 -0.1900
0.6706 -3.3252 -0.1947
0.6622 -3.3335 -0.1969
0.6535 -3.3429 -0.1964
0.6454 -3.3516 -0.1964
0.6375 -3.3602 -0.1959
0.6302 -3.3675 -0.1971
0.6228 -3.3760 -0.1955
0.6160 -3.3832 -0.1958
3.0280 -0.9503 0.6167
3.2204 -0.6403 0.3702
3.0667 -0.7794 0.2798
3.2203 -0.5674 0.1772
3.0959 -0.5567 -0.2227
2.6812 -1.0247 -0.2223
2.1712 -1.5950 -0.2351
1.7976 -2.0202 -0.2249
1.6493 -2.1911 -0.2150
1.5480 -2.3042 -0.2182
1.3656 -2.5127 -0.2107
1.0487 -2.9150 -0.0921
1.0939 -2.8183 -0.2130
1.0488 -2.8716 -0.2065
1.0183 -2.9040 -0.2119
0.9752 -2.9578 -0.1982
0.9455 -2.9917 -0.1972
0.9215 -3.0173 -0.2010
0.7999 -3.1785 -0.1373
0.7904 -3.1839 -0.1513
0.7821 -3.1871 -0.1675
0.7742 -3.1897 -0.1844
0.7649 -3.1950 -0.1980
0.7513 -3.2098 -0.1995
0.7353 -3.2306 -0.1922
0.7247 -3.2403 -0.1979
0.7113 -3.2574 -0.1930
0.7003 -3.2696 -0.1935
0.6906 -3.2791 -0.1973
0.6807 -3.2898 -0.1984
0.6707 -3.3017 -0.1969
0.6608 -3.3142 -0.1935
0.6523 -3.3233 -0.1947
0.6447 -3.3303 -0.1987
0.6354 -3.3437 -0.1910
0.6213 -3.3575 -0.1965
0.6141 -3.3662 -0.1950
0.6076 -3.3729 -0.1966
3.4907 -0.2458 0.6029
3.4775 -0.2205 0.5022
3.4730 -0.0959 0.1828
2.0949 -1.5769 -0.2094
1.6654 -2.1046 -0.1692
1.6483 -2.1035 -0.2219
1.5282 -2.2490 -0.2156
1.3393 -2.4789 -0.2035
1.3014 -2.5146 -0.2265
1.0207 -2.9092 -0.0781
1.0751 -2.7910 -0.2096
1.0259 -2.8545 -0.1975
0.9965 -2.8869 -0.2037
0.9656 -2.9234 -0.2045
0.9390 -2.9537 -0.2079
0.8036 -3.1585 -0.1008
0.8126 -3.1133 -0.1854
0.7961 -3.1319 -0.1879
0.7808 -3.1489 -0.1909
0.7673 -3.1629 -0.1960
0.7545 -3.1761 -0.2011
0.7393 -3.1955 -0.1978
0.7256 -3.2126 -0.1960
0.7126 -3.2288 -0.1940
0.7012 -3.2422 -0.1947
0.6901 -3.2554 -0.1946
0.6804 -3.2658 -0.1975
0.6696 -3.2801 -0.1939
0.6603 -3.2910 -0.1944
0.6521 -3.2990 -0.1985
0.6432 -3.3104 -0.1968
0.6346 -3.3216 -0.1944
0.6275 -3.3281 -0.1991
0.6195 -3.3391 -0.1955
0.6127 -3.3461 -0.1982
0.6052 -3.3570 -0.1933
0.5991 -3.3626 -0.1974
3.1828 -0.0805 -0.2253
2.1276 -1.4082 -0.2233
1.7616 -1.8990 -0.1537
1.6151 -2.0575 -0.2123
1.4203 -2.3007 -0.2162
1.3303 -2.4171 -0.2089
1.2848 -2.4663 -0.2270
1.0013 -2.8909 -0.0718
1.0542 -2.7664 -0.2042
1.0169 -2.8130 -0.2050
0.9762 -2.8676 -0.1971
0.9506 -2.8966 -0.2044
0.9214 -2.9336 -0.2036
0.8045 -3.1303 -0.0902
0.8045 -3.0845 -0.1948
0.7895 -3.1006 -0.2009
0.7712 -3.1254 -0.1970
0.7572 -3.1412 -0.2010
0.7431 -3.1583 -0.2024
0.7264 -3.1832 -0.1936
0.7147 -3.1964 -0.1971
0.7018 -3.2138 -0.1945
0.6911 -3.2260 -0.1972
0.6796 -3.2417 -0.1946
0.6702 -3.2516 -0.1987
0.6602 -3.2649 -0.1973
0.6510 -3.2760 -0.1981
0.6413 -3.2905 -0.1931
0.6333 -3.2993 -0.1956
0.6250 -3.3108 -0.1934
0.6179 -3.3181 -0.1971
0.6099 -3.3308 -0.1913
0.6033 -3.3373 -0.1951
0.5963 -3.3477 -0.1915
3.4783 0.1979 0.4592
3.1156 -0.0284 -0.0828
3.0970 0.0009 -0.1973
3.1112 0.0794 -0.3236
1.6894 -1.9030 -0.1274
1.6183 -1.9828 -0.1585
1.5944 -1.9905 -0.2095
1.3584 -2.3151 -0.1865
1.2994 -2.3877 -0.1988
0.9721 -2.8901 -0.0561
0.9704 -2.8762 -0.0901
0.9675 -2.8255 -0.2058
0.9391 -2.8615 -0.2096
0.7956 -3.1065 -0.0945
0.8265 -3.0214 -0.1878
0.8112 -3.0374 -0.1971
0.7943 -3.0579 -0.2012
0.7755 -3.0842 -0.1983
0.7595 -3.1051 -0.1991
0.7436 -3.1272 -0.1972
0.7285 -3.1484 -0.1948
0.7153 -3.1658 -0.1953
0.7033 -3.1807 -0.1973
0.6898 -3.2014 -0.1914
0.6796 -3.2132 -0.1952
0.6695 -3.2256 -0.1973
0.6597 -3.2379 -0.1988
0.6487 -3.2559 -0.1917
0.6402 -3.2658 -0.1946
0.6320 -3.2756 -0.1969
0.6231 -3.2896 -0.1923
0.6151 -3.3014 -0.1901
0.6085 -3.3068 -0.1972
0.6009 -3.3190 -0.1927
0.5943 -3.3264 -0.1956
0.5879 -3.3343 -0.1968
0.5817 -3.3415 -0.1989
3.1497 0.0544 0.2687
3.2330 0.2306 0.1524
1.0435 -2.8572 0.1706
1.5029 -2.0390 -0.1684
1.3652 -2.2436 -0.1467
1.3258 -2.2841 -0.1759
1.2749 -2.3467 -0.1936
1.2220 -2.4154 -0.2050
0.9432 -2.8733 -0.0753
0.9791 -2.7606 -0.1978
0.9526 -2.7929 -0.2074
0.7948 -3.0793 -0.0804
0.7973 -3.0168 -0.1966
0.7646 -3.0592 -0.2036
0.7467 -3.0867 -0.1989
0.7304 -3.1117 -0.1950
0.7168 -3.1303 -0.1960
0.7031 -3.1503 -0.1943
0.6788 -3.1853 -0.1927
0.6684 -3.1989 -0.1949
0.6581 -3.2130 -0.1954
0.6484 -3.2264 -0.1960
0.6391 -3.2396 -0.1959
0.6304 -3.2512 -0.1971
0.6216 -3.2649 -0.1945
0.6138 -3.2749 -0.1964
0.6063 -3.2847 -0.1977
0.5989 -3.2960 -0.1962
0.5915 -3.3085 -0.1919
0.5852 -3.3153 -0.1960
0.5787 -3.3256 -0.1938
1.0991 -2.8988 0.4866
1.0818 -2.8917 0.4265
1.0193 -2.9161 0.3010
0.9717 -2.9674 0.2651
0.9544 -2.9589 0.2026
0.9310 -2.9861 0.1886
1.3477 -2.1828 -0.1457
1.3821 -2.0873 -0.2269
1.2881 -2.2324 -0.2176
1.2220 -2.3290 -0.2206
0.9210 -2.8619 -0.0656
0.9724 -2.7060 -0.2109
0.7832 -3.0768 -0.0478
0.8252 -2.9316 -0.1990
0.8032 -2.9654 -0.1971
0.7841 -2.9934 -0.1980
0.7668 -3.0180 -0.2001
0.7512 -3.0392 -0.2036
0.7316 -3.0744 -0.1927
0.7178 -3.0937 -0.1950
0.7043 -3.1135 -0.1955
0.6933 -3.1262 -0.2023
0.6801 -3.1481 -0.1983
0.6676 -3.1690 -0.1939
0.6573 -3.1836 -0.1954
0.6481 -3.1943 -0.2008
0.6380 -3.2109 -0.1980
0.6293 -3.2222 -0.2010
0.6195 -3.2408 -0.1935
0.6120 -3.2489 -0.1992
0.6038 -3.2628 -0.1961
0.5968 -3.2707 -0.2008
0.5822 -3.2965 -0.1932
0.5759 -3.3049 -0.1952
0.5697 -3.3132 -0.1967
0.5637 -3.3229 -0.1954
1.9134 -1.6419 0.6090
0.9759 -2.9566 0.3292
0.9144 -3.0122 0.2589
0.9121 -3.0042 0.2391
0.9154 -2.9856 0.2164
0.9080 -2.9858 0.1969
0.8977 -2.9914 0.1786
1.3500 -2.0440 -0.2181
1.2621 -2.1861 -0.2124
1.1910 -2.2995 -0.2105
0.8879 -2.8764 -0.0430
0.7908 -3.0273 -0.0469
0.7944 -2.9255 -0.2101
0.7715 -2.9665 -0.2019
0.7538 -2.9940 -0.2025
0.7361 -3.0238 -0.1994
0.7201 -3.0501 -0.1975
0.7050 -3.0754 -0.1950
0.6921 -3.0949 -0.1966
0.6802 -3.1119 -0.1996
0.6675 -3.1342 -0.1958
0.6575 -3.1469 -0.2010
0.6463 -3.1666 -0.1977
0.6366 -3.1806 -0.1996
0.6267 -3.1984 -0.1961
0.6178 -3.2122 -0.1964
0.6091 -3.2274 -0.1939
0.6015 -3.2372 -0.1977
0.5937 -3.2506 -0.1959
0.5864 -3.2617 -0.1964
0.5793 -3.2750 -0.1931
0.5728 -3.2836 -0.1957
0.5666 -3.2922 -0.1978
0.5606 -3.3007 -0.1995
0.5548 -3.3076 -0.2031
0.9773 -3.0116 0.4872
0.9193 -2.9896 0.2992
0.8758 -3.0316 0.2506
0.8649 -3.0396 0.2345
0.8708 -3.0151 0.2114
0.8770 -2.9890 0.1864
0.8599 -3.0088 0.1727
1.3092 -2.0181 -0.2032
1.2423 -2.1242 -0.2127
1.1626 -2.2638 -0.2028
0.8648 -2.8714 -0.0311
0.8556 -2.8714 -0.0555
0.7970 -2.9778 -0.0424
0.8183 -2.8412 -0.2015
0.7774 -2.9072 -0.2056
0.7543 -2.9523 -0.1952
0.7387 -2.9755 -0.2000
0.7236 -2.9985 -0.2035
0.7064 -3.0319 -0.1964
0.6803 -3.0728 -0.2007
0.6680 -3.0934 -0.2008
0.6560 -3.1146 -0.1990
0.6452 -3.1324 -0.1995
0.6344 -3.1525 -0.1963
0.6245 -3.1700 -0.1948
0.6163 -3.1795 -0.2016
0.5988 -3.2115 -0.1973
0.5908 -3.2262 -0.1953
0.5833 -3.2391 -0.1945
0.5764 -3.2489 -0.1973
0.5699 -3.2563 -0.2028
0.5631 -3.2736 -0.1936
0.5570 -3.2846 -0.1924
0.5512 -3.2910 -0.1976
0.5455 -3.3011 -0.1966
0.9512 -3.0914 0.5929
0.9177 -3.0134 0.3912
0.9109 -3.0140 0.3746
0.8819 -3.0195 0.3070
0.8745 -3.0211 0.2900
0.8622 -3.0320 0.2742
0.8520 -3.0392 0.2582
0.8424 -3.0454 0.2423
0.8400 -3.0369 0.2234
0.8425 -3.0174 0.2013
0.8356 -3.0173 0.1832
0.8266 -3.0217 0.1663
1.2253 -2.0511 -0.2160
0.8436 -2.8634 -0.0211
0.8149 -2.9163 -0.0183
0.8064 -2.9160 -0.0412
0.7941 -2.9262 -0.0582
0.7916 -2.9075 -0.0922
0.8121 -2.8151 -0.1740
0.7986 -2.8257 -0.1936
0.7781 -2.8604 -0.1961
0.7605 -2.8879 -0.2018
0.7230 -2.9585 -0.1961
0.7080 -2.9836 -0.1984
0.6948 -3.0035 -0.2038
0.6688 -3.0469 -0.2077
0.6548 -3.0779 -0.1988
0.6428 -3.1021 -0.1947
0.6321 -3.1219 -0.1936
0.6228 -3.1358 -0.1976
0.6134 -3.1521 -0.1981
0.6043 -3.1699 -0.1959
0.5958 -3.1851 -0.1957
0.5881 -3.1969 -0.1985
0.5803 -3.2119 -0.1967
0.5732 -3.2236 -0.1983
0.5662 -3.2375 -0.1960
0.5597 -3.2474 -0.1984
0.5534 -3.2603 -0.1959
0.5475 -3.2685 -0.1995
0.5418 -3.2820 -0.1945
0.5362 -3.2877 -0.2006
0.9352 -3.0658 0.5625
0.9240 -3.0582 0.5234
0.9215 -3.0533 0.5105
0.9118 -3.0508 0.4821
0.8941 -3.0308 0.4094
0.8671 -3.0226 0.3290
0.8594 -3.0251 0.3126
0.8371 -3.0443 0.2814
0.8296 -3.0468 0.2653
0.8190 -3.0558 0.2504
0.8137 -3.0535 0.2336
0.8119 -3.0428 0.2146
0.8131 -3.0247 0.1929
0.8032 -3.0320 0.1773
1.1935 -2.0094 -0.2075
0.8121 -2.8866 0.0030
0.8021 -2.8899 -0.0183
0.7922 -2.8931 -0.0395
0.7864 -2.8828 -0.0681
0.7817 -2.8683 -0.1001
0.7925 -2.7988 -0.1667
0.7865 -2.7830 -0.2033
0.7453 -2.8615 -0.2028
0.7251 -2.9042 -0.1966
0.7092 -2.9327 -0.1988
0.6948 -2.9575 -0.2023
0.6799 -2.9873 -0.2003
0.6546 -3.0324 -0.2038
0.6407 -3.0675 -0.1919
0.6309 -3.0811 -0.1986
0.6217 -3.0929 -0.2063
0.6014 -3.1389 -0.1959
0.5934 -3.1496 -0.2022
0.5846 -3.1709 -0.1957
0.5772 -3.1813 -0.2007
0.5697 -3.1975 -0.1982
0.5627 -3.2102 -0.1989
0.5559 -3.2269 -0.1937
0.5496 -3.2369 -0.1962
0.5435 -3.2518 -0.1916
0.5377 -3.2585 -0.1974
