ply
format ascii 1.0
element vertex 2097
property float x
property float y
property float z
end_header
5.0761 -0.7061 -0.3507
5.1001 -0.7276 -0.3375
5.1226 -0.7441 -0.3264
5.1438 -0.7642 -0.3144
5.1652 -0.7538 -0.3124
5.1851 -0.7641 -0.3039
5.2065 -0.7441 -0.3050
5.2318 -0.6844 -0.3181
3.5181 -1.6299 -0.4876
3.5486 -1.6048 -0.4881
3.6095 -1.5883 -0.4771
3.5969 -1.5505 -0.4939
3.6516 -1.5331 -0.4849
3.6646 -1.5020 -0.4923
3.7181 -1.4856 -0.4834
3.7317 -1.4539 -0.4908
3.7670 -1.4309 -0.4892
3.8086 -1.4110 -0.4847
3.8278 -1.3808 -0.4901
3.8538 -1.3534 -0.4926
3.8739 -1.3223 -0.4980
3.9241 -1.3087 -0.4890
4.0196 -1.2372 -0.4878
4.0407 -1.2054 -0.4932
4.0961 -1.2006 -0.4796
4.1258 -1.1762 -0.4801
4.1478 -1.1448 -0.4851
4.1703 -1.1130 -0.4901
4.2148 -1.1029 -0.4814
4.5643 -1.3513 -0.2977
4.5725 -1.3193 -0.3067
4.5421 -1.2313 -0.3461
4.4250 -0.9357 -0.4824
4.4545 -0.9114 -0.4828
4.4791 -0.8779 -0.4878
4.5041 -0.8440 -0.4929
4.5387 -0.8288 -0.4887
4.5623 -0.7901 -0.4958
4.5924 -0.7653 -0.4963
4.6264 -0.7505 -0.4921
4.6527 -0.7156 -0.4972
4.9216 -1.2470 -0.2361
4.9392 -1.2385 -0.2342
4.8684 -0.5704 -0.4889
4.8946 -0.5223 -0.4986
4.9283 -0.5283 -0.4873
4.9588 -0.5152 -0.4835
4.9915 -0.5387 -0.4662
5.0169 -0.4613 -0.4865
5.0460 -0.4313 -0.4890
5.1042 -0.8163 -0.3374
5.1255 -0.8156 -0.3318
5.1468 -0.7981 -0.3321
5.1683 -0.7768 -0.3337
5.1890 -0.7693 -0.3306
5.2095 -0.7596 -0.3284
5.2287 -0.7606 -0.3227
3.8044 -1.7561 -0.3981
3.6259 -1.6619 -0.4865
3.6544 -1.6384 -0.4870
3.6776 -1.6133 -0.4896
3.7178 -1.5933 -0.4852
3.7297 -1.5644 -0.4926
3.7686 -1.5443 -0.4886
3.7822 -1.5152 -0.4956
3.8111 -1.4914 -0.4960
3.8447 -1.4697 -0.4943
3.8688 -1.4438 -0.4969
3.9385 -1.4402 -0.4776
3.9531 -1.4102 -0.4846
3.9969 -1.3562 -0.4920
4.0304 -1.3358 -0.4898
4.0819 -1.3280 -0.4775
4.0911 -1.2918 -0.4884
4.1156 -1.2656 -0.4911
4.1579 -1.2534 -0.4831
4.1575 -1.2060 -0.5011
4.2292 -1.1720 -0.4927
4.5480 -1.3727 -0.3226
4.5662 -1.3541 -0.3242
4.5807 -1.3302 -0.3289
4.4477 -1.0374 -0.4788
4.4634 -0.9958 -0.4899
4.4892 -0.9686 -0.4925
4.5134 -0.9379 -0.4969
4.5456 -0.9221 -0.4934
4.5738 -0.8988 -0.4938
4.6670 -0.8519 -0.4839
4.9032 -1.2460 -0.2652
4.9241 -1.2491 -0.2578
4.8792 -0.6115 -0.5118
4.9095 -0.5984 -0.5077
4.9395 -0.5868 -0.5032
4.9679 -0.5634 -0.5036
4.9946 -0.5163 -0.5135
5.0248 -0.5166 -0.5045
5.0532 -0.4932 -0.5049
5.1296 -0.8099 -0.3627
5.1529 -0.7490 -0.3788
5.1760 -0.7144 -0.3850
5.2121 -0.7790 -0.3499
5.2312 -0.7788 -0.3444
3.8142 -1.7871 -0.4167
3.8088 -1.7620 -0.4285
3.7155 -1.7168 -0.4764
3.7318 -1.6926 -0.4809
3.7288 -1.6631 -0.4938
3.7613 -1.6422 -0.4919
3.8074 -1.6257 -0.4840
3.8196 -1.5990 -0.4908
3.8688 -1.5845 -0.4811
3.8953 -1.5627 -0.4814
3.9141 -1.5378 -0.4855
3.9445 -1.5174 -0.4841
3.9545 -1.4879 -0.4928
4.0013 -1.4754 -0.4830
4.0392 -1.4595 -0.4774
4.0277 -1.4169 -0.4982
4.0967 -1.3814 -0.4906
4.1338 -1.3662 -0.4850
4.1642 -1.3471 -0.4830
4.1868 -1.3225 -0.4857
4.2038 -1.2931 -0.4922
4.2370 -1.2765 -0.4884
4.2875 -1.2301 -0.4911
4.5814 -1.3732 -0.3401
4.4848 -1.1505 -0.4605
4.6120 -1.2319 -0.3873
4.6496 -1.2412 -0.3716
4.6742 -1.2304 -0.3682
4.7005 -1.2241 -0.3624
4.7324 -1.2311 -0.3494
4.7615 -1.2356 -0.3384
4.7845 -1.2285 -0.3340
4.8155 -1.2444 -0.3177
4.8390 -1.2440 -0.3104
4.8612 -1.2423 -0.3040
4.9118 -1.2717 -0.2761
4.9292 -1.2621 -0.2744
4.9446 -1.2435 -0.2771
4.9585 -1.2155 -0.2840
4.9823 -0.6731 -0.4951
5.1359 -0.7256 -0.4252
5.1588 -0.7114 -0.4236
5.1892 -0.5702 -0.4709
5.2195 -0.4824 -0.4967
3.7733 -1.8090 -0.4548
3.8339 -1.7956 -0.4401
3.8248 -1.7702 -0.4541
3.7806 -1.7360 -0.4837
3.7935 -1.7124 -0.4895
3.8354 -1.6955 -0.4825
3.8531 -1.6727 -0.4863
3.8857 -1.6541 -0.4833
3.9109 -1.6333 -0.4836
3.9209 -1.6074 -0.4914
3.9376 -1.5831 -0.4962
3.9632 -1.5620 -0.4965
4.0077 -1.5488 -0.4871
4.0330 -1.5280 -0.4875
4.0659 -1.4773 -0.4981
4.0950 -1.4581 -0.4965
4.1315 -1.4434 -0.4904
4.1657 -1.4281 -0.4854
4.1821 -1.4017 -0.4912
4.2158 -1.3868 -0.4861
4.2409 -1.3662 -0.4865
4.2631 -1.3432 -0.4888
4.2910 -1.3249 -0.4872
4.3106 -1.2993 -0.4916
4.3253 -1.2683 -0.4999
4.5707 -1.3604 -0.3772
4.5582 -1.2530 -0.4275
4.5785 -1.2316 -0.4298
4.5602 -1.1479 -0.4720
4.5927 -1.1422 -0.4634
4.6316 -1.1502 -0.4468
4.7669 -1.2447 -0.3604
4.7919 -1.2429 -0.3526
4.8189 -1.2489 -0.3409
4.8454 -1.2577 -0.3282
4.8810 -1.3001 -0.2979
4.8984 -1.2894 -0.2966
4.9149 -1.2758 -0.2969
4.9334 -1.2711 -0.2926
4.9507 -1.2627 -0.2903
4.9662 -1.2453 -0.2926
4.9801 -1.2162 -0.3004
4.9943 -1.1844 -0.3092
5.0753 -0.9624 -0.3770
5.1180 -0.6707 -0.4878
5.1432 -0.6275 -0.4978
5.1689 -0.5922 -0.5042
5.1941 -0.5714 -0.5046
5.2194 -0.5506 -0.5050
5.2446 -0.5298 -0.5053
5.2699 -0.5090 -0.5057
3.7830 -1.8386 -0.4723
3.8029 -1.8187 -0.4742
3.8264 -1.7993 -0.4746
3.8177 -1.7739 -0.4894
3.8531 -1.7563 -0.4846
3.8615 -1.7330 -0.4921
3.8934 -1.7150 -0.4889
3.9250 -1.6971 -0.4856
3.9489 -1.6774 -0.4860
3.9944 -1.6645 -0.4755
3.9868 -1.6345 -0.4919
4.0207 -1.6182 -0.4870
4.0380 -1.5959 -0.4910
4.0789 -1.5832 -0.4820
4.1026 -1.5636 -0.4824
4.1299 -1.5458 -0.4807
4.1500 -1.5246 -0.4831
4.1559 -1.4952 -0.4944
4.1916 -1.4821 -0.4874
4.2122 -1.4605 -0.4899
4.2558 -1.4538 -0.4772
4.2739 -1.4307 -0.4812
4.2922 -1.4074 -0.4852
4.3282 -1.3977 -0.4767
4.3543 -1.3808 -0.4749
4.5154 -1.2925 -0.4571
4.5296 -1.2633 -0.4653
4.5623 -1.2585 -0.4556
4.5811 -1.2349 -0.4596
4.6036 -1.1591 -0.4861
4.6271 -1.1397 -0.4864
4.6548 -1.1286 -0.4815
4.6821 -1.1178 -0.4766
4.7015 -1.0901 -0.4822
4.7318 -1.0885 -0.4720
4.8878 -1.3163 -0.3119
4.9030 -1.2991 -0.3142
4.9196 -1.2866 -0.3139
4.9366 -1.2761 -0.3126
4.9583 -1.2898 -0.2985
4.9759 -1.2881 -0.2929
4.9904 -1.2691 -0.2963
5.0134 -1.1649 -0.3355
5.0304 -1.1486 -0.3369
5.0479 -1.1389 -0.3350
5.0652 -1.1304 -0.3326
5.1218 -0.7240 -0.4974
5.1462 -0.6829 -0.5074
5.1703 -0.6630 -0.5077
5.2177 -0.6321 -0.5047
5.2666 -0.5836 -0.5092
3.8550 -1.8316 -0.4822
3.8741 -1.8123 -0.4842
3.8969 -1.7936 -0.4845
3.9196 -1.7748 -0.4848
3.9379 -1.7551 -0.4873
3.9749 -1.7397 -0.4806
3.9772 -1.7158 -0.4913
4.0137 -1.7008 -0.4845
4.0456 -1.6850 -0.4800
4.0591 -1.6634 -0.4852
4.0876 -1.6469 -0.4823
4.1016 -1.6249 -0.4875
4.1327 -1.6097 -0.4829
4.1498 -1.5887 -0.4866
4.1698 -1.5687 -0.4885
4.1865 -1.5468 -0.4927
4.2179 -1.5326 -0.4876
4.2455 -1.5168 -0.4846
4.2680 -1.4982 -0.4849
4.3086 -1.4579 -0.4889
4.3261 -1.4353 -0.4931
4.3829 -1.4071 -0.4850
4.5863 -1.4900 -0.3670
4.5178 -1.2959 -0.4869
4.5441 -1.2824 -0.4834
4.5612 -1.2567 -0.4893
4.5932 -1.2524 -0.4791
4.6077 -1.2218 -0.4883
4.6247 -1.1939 -0.4952
4.6514 -1.1824 -0.4906
4.6715 -1.1589 -0.4942
4.6942 -1.1402 -0.4946
4.8836 -1.3610 -0.3155
4.8956 -1.3361 -0.3229
4.9083 -1.3116 -0.3298
4.9181 -1.2723 -0.3451
4.9400 -1.2821 -0.3320
4.9615 -1.2957 -0.3172
4.9793 -1.2950 -0.3107
4.9953 -1.2864 -0.3087
5.0159 -1.1627 -0.3605
5.0322 -1.1365 -0.3669
5.0506 -1.1365 -0.3599
5.0681 -1.1290 -0.3568
5.0853 -1.1183 -0.3554
5.1024 -1.1066 -0.3545
5.2161 -0.7067 -0.5040
5.2394 -0.6829 -0.5066
5.2632 -0.6564 -0.5103
4.2223 -1.8039 -0.3805
4.2209 -1.7843 -0.3911
4.1859 -1.7326 -0.4316
4.1000 -1.6813 -0.4926
4.1248 -1.6643 -0.4912
4.1657 -1.6537 -0.4801
4.1984 -1.6140 -0.4870
4.2121 -1.5924 -0.4925
4.2391 -1.5771 -0.4894
4.2608 -1.5592 -0.4897
4.2825 -1.5413 -0.4900
4.3041 -1.5235 -0.4903
4.3297 -1.5082 -0.4878
4.3513 -1.4904 -0.4881
4.3795 -1.4775 -0.4832
4.4129 -1.4695 -0.4737
4.5198 -1.3849 -0.4735
4.5274 -1.3522 -0.4872
4.5538 -1.3408 -0.4823
4.5643 -1.3091 -0.4942
4.5917 -1.2992 -0.4881
4.6117 -1.2793 -0.4902
4.6332 -1.2616 -0.4905
4.6574 -1.2486 -0.4873
4.6762 -1.2262 -0.4911
4.7014 -1.2158 -0.4862
4.7192 -1.1907 -0.4917
4.8728 -1.3831 -0.3314
4.8874 -1.3676 -0.3334
4.9036 -1.2874 -0.3677
4.9193 -1.2688 -0.3708
4.9379 -1.2626 -0.3664
4.9589 -1.2707 -0.3538
4.9797 -1.2846 -0.3383
4.9988 -1.2953 -0.3250
5.0160 -1.2996 -0.3159
5.0220 -0.9643 -0.4845
5.1403 -1.0648 -0.3852
5.2586 -0.7337 -0.5062
5.2790 -0.7261 -0.5018
4.2308 -1.8621 -0.3715
4.2316 -1.8454 -0.3801
4.2331 -1.8282 -0.3887
4.2277 -1.8087 -0.4016
4.2284 -1.7898 -0.4114
4.2236 -1.7686 -0.4248
4.2309 -1.7500 -0.4317
4.1952 -1.7167 -0.4650
4.1976 -1.6941 -0.4761
4.2008 -1.6709 -0.4872
4.2187 -1.6527 -0.4893
4.2395 -1.6356 -0.4896
4.2558 -1.6165 -0.4929
4.2792 -1.6006 -0.4914
4.3042 -1.5858 -0.4887
4.3224 -1.5673 -0.4908
4.3623 -1.5322 -0.4926
4.3846 -1.5161 -0.4917
4.6037 -1.5697 -0.3690
4.5362 -1.4037 -0.4872
4.5538 -1.3835 -0.4905
4.5772 -1.3699 -0.4878
4.6073 -1.3657 -0.4772
4.6208 -1.3398 -0.4854
4.6333 -1.3112 -0.4954
4.6531 -1.2926 -0.4969
4.7010 -1.2702 -0.4884
4.7206 -1.2518 -0.4899
4.8638 -1.4091 -0.3440
4.8737 -1.3816 -0.3546
4.8754 -1.1757 -0.4646
4.9136 -1.2367 -0.4154
4.9284 -1.2085 -0.4242
4.9844 -1.2995 -0.3513
5.0028 -1.3073 -0.3393
5.0190 -1.3053 -0.3334
5.0359 -1.3154 -0.3207
5.0726 -1.0784 -0.4325
5.1508 -0.8997 -0.4950
5.1807 -1.0076 -0.4242
5.2333 -0.8260 -0.4993
5.2554 -0.7963 -0.5058
4.2066 -1.8943 -0.3887
4.2138 -1.8793 -0.3940
4.1334 -1.8106 -0.4691
4.1493 -1.7941 -0.4713
4.1644 -1.7771 -0.4741
4.2291 -1.7737 -0.4468
4.2555 -1.7610 -0.4421
4.2619 -1.7421 -0.4499
4.2255 -1.7076 -0.4859
4.2499 -1.6931 -0.4830
4.2631 -1.6743 -0.4877
4.2864 -1.6596 -0.4855
4.3061 -1.6434 -0.4858
4.3404 -1.6344 -0.4754
4.3497 -1.6132 -0.4832
4.3619 -1.5928 -0.4892
4.3817 -1.5766 -0.4895
4.4138 -1.5683 -0.4797
4.4265 -1.5476 -0.4857
4.4425 -1.5288 -0.4891
4.6068 -1.6008 -0.3741
4.5454 -1.4519 -0.4861
4.5620 -1.4325 -0.4896
4.5875 -1.4229 -0.4835
4.5992 -1.3974 -0.4927
4.6291 -1.3943 -0.4809
4.6433 -1.3712 -0.4876
4.6678 -1.3624 -0.4815
4.6825 -1.3390 -0.4881
4.7065 -1.3305 -0.4821
4.7216 -1.3067 -0.4887
4.8592 -1.4439 -0.3490
4.8690 -1.4189 -0.3587
4.8426 -1.2207 -0.4828
4.8573 -1.1893 -0.4939
4.8800 -1.1842 -0.4866
4.9042 -1.1881 -0.4735
4.9227 -1.1705 -0.4750
4.9375 -1.1322 -0.4900
4.9600 -1.1342 -0.4788
5.0237 -1.3266 -0.3411
5.0390 -1.3241 -0.3356
5.0753 -1.0596 -0.4689
5.1132 -0.9841 -0.4945
5.1324 -0.9819 -0.4871
5.1657 -1.0315 -0.4440
5.1822 -1.0339 -0.4352
5.2056 -0.9590 -0.4670
5.2292 -0.8999 -0.4898
5.2497 -0.8750 -0.4946
5.2689 -0.8615 -0.4936
4.1070 -1.8670 -0.4768
4.1189 -1.8504 -0.4810
4.1277 -1.8331 -0.4872
4.1336 -1.8147 -0.4953
4.1721 -1.8032 -0.4838
4.1889 -1.7871 -0.4854
4.2212 -1.7752 -0.4772
4.2549 -1.7643 -0.4676
4.2673 -1.7473 -0.4718
4.2608 -1.7234 -0.4891
4.2854 -1.7099 -0.4855
4.3071 -1.6954 -0.4838
4.3214 -1.6780 -0.4873
4.3307 -1.6579 -0.4948
4.3703 -1.6523 -0.4794
4.3823 -1.6334 -0.4849
4.4028 -1.6188 -0.4839
4.4388 -1.5869 -0.4857
4.6219 -1.6149 -0.3821
4.5754 -1.4833 -0.4824
4.6042 -1.4428 -0.4929
4.6281 -1.4332 -0.4872
4.6442 -1.4143 -0.4908
4.6656 -1.4023 -0.4877
4.6844 -1.3868 -0.4880
4.7059 -1.3758 -0.4843
4.7254 -1.3620 -0.4833
4.8383 -1.4839 -0.3572
4.8502 -1.4663 -0.3621
4.8602 -1.4434 -0.3709
4.8380 -1.2726 -0.4829
4.8545 -1.2512 -0.4879
4.8914 -1.2185 -0.4897
4.9086 -1.1965 -0.4947
4.9262 -1.1752 -0.4989
4.9456 -1.1615 -0.4979
4.9638 -1.1409 -0.5015
5.0421 -1.3329 -0.3502
5.0573 -1.3373 -0.3404
5.0715 -1.3346 -0.3352
5.0975 -1.0589 -0.4868
5.1162 -1.0311 -0.4944
5.1352 -1.0098 -0.4980
5.1518 -1.0389 -0.4728
5.1687 -1.0407 -0.4637
5.1854 -1.0382 -0.4573
5.2032 -1.0213 -0.4589
5.2288 -0.9383 -0.4961
5.2515 -0.8937 -0.5118
4.1234 -1.8910 -0.4817
4.1346 -1.8751 -0.4861
4.1667 -1.8442 -0.4893
4.1850 -1.8291 -0.4896
4.2118 -1.8160 -0.4844
4.2300 -1.8010 -0.4847
4.2399 -1.7839 -0.4904
4.2722 -1.7729 -0.4812
4.2961 -1.7599 -0.4773
4.3083 -1.7432 -0.4817
4.3207 -1.7263 -0.4860
4.3352 -1.7099 -0.4890
4.3605 -1.6979 -0.4839
4.3751 -1.6814 -0.4869
4.3933 -1.6665 -0.4871
4.4213 -1.6568 -0.4792
4.4456 -1.6457 -0.4740
4.4461 -1.6207 -0.4893
4.4658 -1.6067 -0.4882
4.4884 -1.5948 -0.4843
4.6219 -1.6411 -0.3889
4.5657 -1.5400 -0.4799
4.5734 -1.5158 -0.4912
4.5977 -1.5070 -0.4846
4.6169 -1.4934 -0.4835
4.6359 -1.4799 -0.4823
4.6484 -1.4585 -0.4895
4.6675 -1.4450 -0.4884
4.6846 -1.4287 -0.4900
4.7008 -1.4109 -0.4931
4.7217 -1.4004 -0.4892
4.8307 -1.5071 -0.3683
4.8426 -1.4906 -0.3726
4.8569 -1.4788 -0.3728
4.8327 -1.3179 -0.4853
4.8469 -1.2928 -0.4938
4.8662 -1.2813 -0.4913
4.8874 -1.2773 -0.4833
4.9008 -1.2461 -0.4960
4.9195 -1.2330 -0.4949
4.9372 -1.2161 -0.4965
4.9568 -1.2089 -0.4913
4.9742 -1.1901 -0.4943
4.9931 -1.1812 -0.4904
5.0748 -1.3573 -0.3399
5.1190 -1.0731 -0.4950
5.1373 -1.0513 -0.4995
5.1551 -1.0433 -0.4956
5.1720 -1.0450 -0.4861
5.1882 -1.0473 -0.4766
5.2070 -1.0207 -0.4838
5.2285 -0.9739 -0.5022
5.2468 -0.9589 -0.5025
4.1619 -1.8998 -0.4834
4.1873 -1.8865 -0.4787
4.1945 -1.8707 -0.4853
4.2098 -1.8559 -0.4870
4.2273 -1.8414 -0.4872
4.2427 -1.8265 -0.4889
4.2645 -1.8130 -0.4863
4.2860 -1.7997 -0.4837
4.2955 -1.7830 -0.4897
4.3150 -1.7692 -0.4885
4.3249 -1.7521 -0.4944
4.3585 -1.7433 -0.4826
4.3758 -1.7291 -0.4829
4.3816 -1.7099 -0.4924
4.4079 -1.6993 -0.4855
4.4270 -1.6858 -0.4844
4.4427 -1.6706 -0.4860
4.4585 -1.6554 -0.4877
4.4713 -1.6382 -0.4923
4.6254 -1.6686 -0.3918
4.6302 -1.6491 -0.4020
4.5865 -1.5599 -0.4831
4.6353 -1.5141 -0.4874
4.6493 -1.4960 -0.4920
4.6701 -1.4855 -0.4880
4.6900 -1.4746 -0.4846
4.7073 -1.4604 -0.4849
4.7245 -1.4462 -0.4851
4.8251 -1.5328 -0.3760
4.8349 -1.5137 -0.3833
4.8301 -1.3658 -0.4824
4.8460 -1.3484 -0.4855
4.8614 -1.3290 -0.4901
4.8768 -1.3086 -0.4953
4.8943 -1.2942 -0.4956
4.9132 -1.2852 -0.4915
4.9305 -1.2709 -0.4918
4.9479 -1.2566 -0.4921
4.9828 -1.2290 -0.4919
4.9995 -1.2097 -0.4957
5.0173 -1.1994 -0.4931
5.0908 -1.3704 -0.3430
5.1215 -1.1147 -0.4939
5.1389 -1.0993 -0.4949
5.1568 -1.0757 -0.5009
5.1732 -1.0766 -0.4918
5.1912 -1.0540 -0.4971
5.2089 -1.0372 -0.4988
5.2263 -1.0228 -0.4991
5.2438 -1.0084 -0.4993
4.1713 -1.9363 -0.4799
4.1714 -1.9209 -0.4904
4.2152 -1.9100 -0.4738
4.2054 -1.8928 -0.4909
4.2347 -1.8807 -0.4831
4.2515 -1.8669 -0.4833
4.2759 -1.8546 -0.4784
4.2883 -1.8399 -0.4816
4.3019 -1.8254 -0.4841
4.3146 -1.8106 -0.4873
4.3424 -1.7998 -0.4794
4.3415 -1.7807 -0.4929
4.3652 -1.7689 -0.4880
4.3802 -1.7543 -0.4897
4.4089 -1.7450 -0.4804
4.4281 -1.7324 -0.4784
4.4464 -1.7195 -0.4772
4.4554 -1.7023 -0.4841
4.4778 -1.6915 -0.4792
4.4944 -1.6778 -0.4794
4.5016 -1.6587 -0.4885
4.6359 -1.6778 -0.4019
4.6006 -1.6277 -0.4555
4.5951 -1.5971 -0.4794
4.6084 -1.5806 -0.4833
4.6269 -1.5687 -0.4814
4.6380 -1.5496 -0.4883
4.6559 -1.5370 -0.4870
4.6749 -1.5258 -0.4843
4.6894 -1.5095 -0.4875
4.7081 -1.4984 -0.4848
4.7203 -1.4785 -0.4917
4.8182 -1.5550 -0.3859
4.7945 -1.4361 -0.4801
4.8071 -1.4147 -0.4878
4.8223 -1.3978 -0.4910
4.8387 -1.3831 -0.4920
4.8555 -1.3693 -0.4922
4.8732 -1.3581 -0.4902
4.8924 -1.3521 -0.4838
4.9053 -1.3261 -0.4945
4.9256 -1.3258 -0.4835
4.9396 -1.3011 -0.4927
4.9571 -1.2911 -0.4900
4.9720 -1.2668 -0.4985
4.9899 -1.2597 -0.4935
5.0054 -1.2359 -0.5012
5.0224 -1.2220 -0.5015
5.0402 -1.2183 -0.4942
5.0567 -1.2013 -0.4967
5.0802 -1.3799 -0.3619
5.0932 -1.3736 -0.3591
5.1060 -1.3752 -0.3511
5.1569 -1.1298 -0.4907
5.1742 -1.1079 -0.4962
5.1911 -1.0929 -0.4972
5.2068 -1.0887 -0.4914
5.2241 -1.0689 -0.4954
5.2412 -1.0527 -0.4972
5.2580 -1.0388 -0.4974
4.2008 -1.9426 -0.4842
4.2449 -1.9172 -0.4771
4.2553 -1.9032 -0.4811
4.2747 -1.8904 -0.4791
4.2908 -1.8772 -0.4793
4.3229 -1.8507 -0.4798
4.3410 -1.8380 -0.4785
4.3540 -1.8240 -0.4810
4.3775 -1.7949 -0.4884
4.3976 -1.7827 -0.4856
4.4308 -1.7564 -0.4853
4.4426 -1.7412 -0.4893
4.4606 -1.7286 -0.4880
4.4794 -1.7164 -0.4860
4.5020 -1.7065 -0.4801
4.5236 -1.6963 -0.4750
4.5995 -1.6982 -0.4302
4.6114 -1.6120 -0.4848
4.6423 -1.5844 -0.4868
4.6566 -1.5693 -0.4894
4.6745 -1.5578 -0.4873
4.6918 -1.5458 -0.4860
4.7031 -1.5267 -0.4932
4.7245 -1.5199 -0.4857
4.7381 -1.5033 -0.4898
4.8199 -1.5570 -0.4047
4.8048 -1.4538 -0.4869
4.8365 -1.4265 -0.4881
4.8529 -1.4141 -0.4876
4.8706 -1.4050 -0.4840
4.9003 -1.3718 -0.4906
4.9159 -1.3567 -0.4924
4.9321 -1.3434 -0.4927
4.9657 -1.3233 -0.4877
4.9971 -1.2921 -0.4921
5.0134 -1.2808 -0.4908
5.0295 -1.2675 -0.4910
5.0447 -1.2419 -0.5006
5.0610 -1.2274 -0.5016
5.1082 -1.3870 -0.3607
5.1205 -1.3813 -0.3578
5.1583 -1.1592 -0.4944
5.1751 -1.1377 -0.5001
5.1914 -1.1243 -0.5004
5.2071 -1.1157 -0.4975
5.2233 -1.1024 -0.4977
5.2399 -1.0866 -0.4995
5.1718 -3.0061 -0.4744
5.1874 -2.9944 -0.4754
5.2030 -2.9838 -0.4772
5.2187 -2.9677 -0.4751
5.2344 -2.9549 -0.4753
5.2500 -2.9400 -0.4740
5.2655 -2.9241 -0.4719
5.2812 -2.9144 -0.4745
5.2968 -2.9017 -0.4747
5.3127 -2.8908 -0.4764
5.3288 -2.8808 -0.4790
5.3602 -2.8551 -0.4794
5.3749 -2.8378 -0.4758
5.3890 -2.8189 -0.4706
5.4047 -2.8071 -0.4716
5.4207 -2.7961 -0.4734
5.4357 -2.7817 -0.4720
5.4527 -2.7731 -0.4761
5.4676 -2.7588 -0.4748
5.4821 -2.7437 -0.4727
5.4965 -2.7288 -0.4706
5.5131 -2.7184 -0.4731
5.5294 -2.7071 -0.4749
5.5441 -2.6930 -0.4736
5.5582 -2.6783 -0.4715
5.5736 -2.6657 -0.4717
5.5915 -2.6563 -0.4758
5.6071 -2.6436 -0.4760
5.6248 -2.6334 -0.4793
5.6364 -2.6164 -0.4741
5.6537 -2.6055 -0.4766
5.6655 -2.5894 -0.4722
5.6835 -2.5790 -0.4755
5.6983 -2.5658 -0.4750
5.7124 -2.5521 -0.4736
5.7292 -2.5405 -0.4754
5.7454 -2.5283 -0.4764
5.7631 -2.5170 -0.4789
5.7764 -2.5030 -0.4768
5.7919 -2.4903 -0.4770
5.8138 -2.4809 -0.4835
5.8228 -2.4650 -0.4775
5.8383 -2.4523 -0.4777
5.8564 -2.4407 -0.4802
5.8693 -2.4270 -0.4781
5.8866 -2.4149 -0.4799
5.9031 -2.4025 -0.4809
5.9332 -2.3768 -0.4806
5.9457 -2.3634 -0.4784
5.9622 -2.3510 -0.4794
5.9777 -2.3383 -0.4797
5.9953 -2.3260 -0.4814
6.0076 -2.3128 -0.4793
6.0241 -2.3003 -0.4803
6.0396 -2.2876 -0.4805
6.0551 -2.2749 -0.4807
6.0694 -2.2622 -0.4802
6.0861 -2.2496 -0.4812
6.1004 -2.2369 -0.4806
6.1171 -2.2243 -0.4816
6.1313 -2.2116 -0.4811
5.1568 -3.0587 -0.4777
5.1893 -3.0342 -0.4796
5.2057 -3.0186 -0.4783
5.2221 -3.0042 -0.4778
5.3197 -2.9222 -0.4777
5.3688 -2.8841 -0.4799
5.3843 -2.8671 -0.4772
5.5557 -2.7099 -0.4677
5.5711 -2.6962 -0.4672
5.6255 -2.6656 -0.4776
5.6350 -2.6449 -0.4689
5.6509 -2.6319 -0.4691
5.6857 -2.6088 -0.4733
5.7011 -2.5952 -0.4727
5.7170 -2.5821 -0.4730
5.7337 -2.5696 -0.4739
5.7490 -2.5560 -0.4734
5.7599 -2.5396 -0.4684
5.7757 -2.5267 -0.4686
5.7938 -2.5151 -0.4711
5.8096 -2.5021 -0.4713
5.8255 -2.4891 -0.4715
5.8980 -2.4405 -0.4799
5.9141 -2.4273 -0.4802
5.9283 -2.4136 -0.4789
5.9443 -2.4004 -0.4791
5.9674 -2.3719 -0.4728
5.1415 -3.1045 -0.4742
5.1585 -3.0895 -0.4737
5.1753 -3.0758 -0.4740
5.1921 -3.0620 -0.4742
5.2258 -3.0345 -0.4747
5.2425 -3.0165 -0.4721
5.2592 -3.0028 -0.4723
5.2761 -2.9911 -0.4740
5.2929 -2.9774 -0.4742
5.3264 -2.9499 -0.4747
5.3429 -2.9343 -0.4735
5.3600 -2.9225 -0.4751
5.3758 -2.9041 -0.4718
5.3925 -2.8905 -0.4720
5.4094 -2.8777 -0.4730
5.4261 -2.8641 -0.4732
5.4439 -2.8538 -0.4763
5.4607 -2.8401 -0.4766
5.4762 -2.8231 -0.4739
5.4919 -2.8070 -0.4720
5.5092 -2.7950 -0.4737
5.5270 -2.7837 -0.4761
5.5430 -2.7685 -0.4749
5.5584 -2.7526 -0.4729
5.5737 -2.7369 -0.4710
5.5931 -2.7275 -0.4756
5.6117 -2.7166 -0.4787
5.6259 -2.6995 -0.4753
5.6431 -2.6865 -0.4763
5.6565 -2.6691 -0.4722
5.6736 -2.6562 -0.4731
5.6932 -2.6456 -0.4770
5.7093 -2.6313 -0.4765
5.7260 -2.6177 -0.4767
5.7426 -2.6040 -0.4770
5.7579 -2.5894 -0.4757
5.7760 -2.5768 -0.4774
5.7912 -2.5622 -0.4762
5.8078 -2.5486 -0.4764
5.8283 -2.5372 -0.4803
5.8427 -2.5222 -0.4784
5.8577 -2.5077 -0.4771
5.8760 -2.4949 -0.4788
5.8910 -2.4805 -0.4776
5.9076 -2.4669 -0.4779
5.9224 -2.4526 -0.4766
5.9427 -2.4404 -0.4798
5.9603 -2.4270 -0.4807
5.9722 -2.4119 -0.4773
5.9819 -2.3965 -0.4725
5.9923 -2.3815 -0.4684
6.0240 -2.3717 -0.4795
6.0406 -2.3581 -0.4797
6.0605 -2.3451 -0.4821
6.0761 -2.3312 -0.4816
6.0939 -2.3178 -0.4826
6.1072 -2.3037 -0.4807
6.1261 -2.2903 -0.4824
6.1381 -2.2762 -0.4797
6.1534 -2.2626 -0.4792
6.1700 -2.2490 -0.4794
6.1866 -2.2355 -0.4796
6.2031 -2.2219 -0.4799
5.1230 -3.1741 -0.4824
5.1410 -3.1572 -0.4813
5.1591 -3.1381 -0.4788
5.1767 -3.1236 -0.4791
5.1947 -3.1013 -0.4745
5.2122 -3.0870 -0.4748
5.2297 -3.0803 -0.4798
5.2473 -3.0659 -0.4801
5.2649 -3.0515 -0.4803
5.2825 -3.0350 -0.4792
5.2998 -3.0175 -0.4774
5.3341 -2.9829 -0.4737
5.3518 -2.9706 -0.4754
5.3696 -2.9582 -0.4770
5.3875 -2.9458 -0.4786
5.4054 -2.9332 -0.4802
5.4211 -2.9117 -0.4750
5.4401 -2.9027 -0.4794
5.4740 -2.8707 -0.4771
5.6300 -2.7408 -0.4779
5.6909 -2.6747 -0.4685
5.7232 -2.6450 -0.4669
5.7894 -2.6148 -0.4829
5.8055 -2.5994 -0.4818
5.8737 -2.5415 -0.4813
5.8911 -2.5272 -0.4816
5.9398 -2.4830 -0.4795
5.9661 -2.4724 -0.4868
5.9781 -2.4560 -0.4828
6.0913 -2.3547 -0.4789
6.1870 -2.2851 -0.4858
6.2044 -2.2709 -0.4860
6.2292 -2.2419 -0.4809
6.2490 -2.2279 -0.4825
5.1433 -3.1832 -0.4711
5.1614 -3.1684 -0.4714
5.1795 -3.1536 -0.4716
5.1978 -3.1342 -0.4693
5.2158 -3.1195 -0.4695
5.2339 -3.1135 -0.4750
5.2706 -3.0911 -0.4802
5.2887 -3.0719 -0.4778
5.3064 -3.0498 -0.4734
5.3242 -3.0330 -0.4723
5.3418 -3.0142 -0.4700
5.3601 -3.0014 -0.4715
5.3785 -2.9886 -0.4731
5.4159 -2.9645 -0.4776
5.4322 -2.9424 -0.4726
5.4481 -2.9206 -0.4675
5.4677 -2.9112 -0.4717
5.4869 -2.8999 -0.4746
5.5050 -2.8851 -0.4749
5.5203 -2.8638 -0.4698
5.5382 -2.8492 -0.4701
5.5561 -2.8345 -0.4703
5.6143 -2.7978 -0.4778
5.6306 -2.7802 -0.4753
5.6446 -2.7599 -0.4703
5.6635 -2.7466 -0.4719
5.6792 -2.7294 -0.4694
5.7004 -2.7186 -0.4737
5.7148 -2.7002 -0.4699
5.7351 -2.6881 -0.4729
5.7555 -2.6757 -0.4758
5.7735 -2.6610 -0.4760
5.7915 -2.6463 -0.4763
5.8039 -2.6273 -0.4712
5.8289 -2.6179 -0.4781
5.8469 -2.6031 -0.4784
5.8634 -2.5874 -0.4773
5.8783 -2.5709 -0.4749
5.9010 -2.5589 -0.4791
5.9158 -2.5424 -0.4767
5.9337 -2.5278 -0.4770
5.9534 -2.5139 -0.4786
5.9714 -2.4991 -0.4788
5.9912 -2.4851 -0.4804
6.0073 -2.4697 -0.4793
6.0272 -2.4556 -0.4809
6.0394 -2.4391 -0.4771
6.0613 -2.4256 -0.4801
6.0813 -2.4114 -0.4817
6.0952 -2.3956 -0.4792
6.1132 -2.3809 -0.4795
6.1268 -2.3654 -0.4771
6.1424 -2.3504 -0.4760
6.1647 -2.3366 -0.4789
6.1826 -2.3219 -0.4792
6.2076 -2.3081 -0.4835
6.2256 -2.2934 -0.4837
6.2388 -2.2782 -0.4813
6.2571 -2.2478 -0.4723
5.1234 -3.2632 -0.4799
5.1433 -3.2391 -0.4757
5.1623 -3.2235 -0.4760
5.1811 -3.2137 -0.4794
5.2002 -3.2003 -0.4810
5.2194 -3.1869 -0.4825
5.2387 -3.1788 -0.4872
5.2580 -3.1608 -0.4862
5.2772 -3.1428 -0.4852
5.2965 -3.1270 -0.4855
5.3147 -3.0989 -0.4781
5.3335 -3.0813 -0.4771
5.3540 -3.0767 -0.4844
5.3730 -3.0590 -0.4834
5.3898 -3.0308 -0.4754
5.4077 -3.0106 -0.4725
5.4458 -2.9817 -0.4743
5.6146 -2.8414 -0.4754
5.6292 -2.8194 -0.4699
5.8591 -2.6413 -0.4788
5.8779 -2.6259 -0.4791
5.9531 -2.5644 -0.4802
5.9668 -2.5465 -0.4766
6.0060 -2.5167 -0.4784
6.0247 -2.5014 -0.4786
6.0603 -2.4923 -0.4905
6.0765 -2.4756 -0.4889
6.0985 -2.4610 -0.4911
6.1106 -2.4433 -0.4868
6.1275 -2.4273 -0.4858
6.1600 -2.3951 -0.4831
6.2249 -2.3321 -0.4783
6.2364 -2.3160 -0.4747
6.2394 -2.2992 -0.4665
6.2405 -2.2827 -0.4577
6.2510 -2.2675 -0.4540
6.2688 -2.2530 -0.4543
5.1456 -3.2716 -0.4659
5.1842 -3.2513 -0.4725
5.2040 -3.2328 -0.4716
5.2237 -3.2189 -0.4731
5.2435 -3.2028 -0.4734
5.2631 -3.1844 -0.4724
5.2829 -3.1683 -0.4727
5.3027 -3.1543 -0.4742
5.3230 -3.1433 -0.4775
5.3426 -3.1250 -0.4766
5.3617 -3.1038 -0.4738
5.3809 -3.0847 -0.4723
5.4208 -3.0554 -0.4747
5.4378 -3.0281 -0.4676
5.4578 -3.0140 -0.4691
5.4786 -3.0025 -0.4724
5.4982 -2.9865 -0.4727
5.5163 -2.9662 -0.4700
5.5351 -2.9485 -0.4690
5.5560 -2.9359 -0.4717
5.5950 -2.9039 -0.4723
5.6341 -2.8720 -0.4728
5.6537 -2.8560 -0.4731
5.6722 -2.8386 -0.4721
5.6856 -2.8142 -0.4651
5.7112 -2.8067 -0.4727
5.7491 -2.7735 -0.4720
5.7892 -2.7428 -0.4738
5.8119 -2.7299 -0.4771
5.8269 -2.7098 -0.4731
5.8464 -2.6939 -0.4734
5.8672 -2.6790 -0.4749
5.8918 -2.6668 -0.4795
5.9062 -2.6471 -0.4754
5.9272 -2.6322 -0.4769
5.9413 -2.6129 -0.4729
5.9704 -2.6025 -0.4806
5.9859 -2.5842 -0.4778
6.0037 -2.5674 -0.4768
6.0188 -2.5494 -0.4740
6.0472 -2.5374 -0.4804
6.0640 -2.5203 -0.4789
6.0911 -2.5070 -0.4841
6.1060 -2.4893 -0.4813
6.1227 -2.4723 -0.4797
6.1382 -2.4551 -0.4775
6.1576 -2.4392 -0.4778
6.1792 -2.4238 -0.4793
6.1890 -2.4057 -0.4740
6.2105 -2.3903 -0.4755
6.2377 -2.3760 -0.4801
6.2469 -2.3583 -0.4748
6.2767 -2.3441 -0.4807
6.2903 -2.3273 -0.4778
6.2772 -2.3078 -0.4613
6.2496 -2.2879 -0.4379
6.2552 -2.2722 -0.4319
6.2755 -2.2578 -0.4334
6.2881 -2.2430 -0.4312
5.1649 -3.3460 -0.4835
5.1867 -3.3101 -0.4746
5.2075 -3.2931 -0.4749
5.2282 -3.2795 -0.4769
5.2490 -3.2625 -0.4772
5.2703 -3.2575 -0.4838
5.2917 -3.2457 -0.4870
5.3124 -3.2231 -0.4844
5.3325 -3.1965 -0.4795
5.3523 -3.1712 -0.4752
5.3730 -3.1543 -0.4754
5.3942 -3.1403 -0.4775
5.4165 -3.1311 -0.4824
5.4351 -3.1035 -0.4763
5.4534 -3.0772 -0.4708
5.5404 -3.0241 -0.4813
5.5619 -3.0088 -0.4827
5.5799 -2.9851 -0.4784
5.6817 -2.8510 -0.4538
5.7143 -2.8525 -0.4687
5.7867 -2.8158 -0.4813
5.8092 -2.8008 -0.4833
5.8526 -2.7687 -0.4857
5.8714 -2.7499 -0.4842
5.8922 -2.7329 -0.4845
5.9094 -2.7132 -0.4818
5.9484 -2.6779 -0.4807
5.9856 -2.6419 -0.4783
6.0077 -2.6260 -0.4798
6.0265 -2.6084 -0.4789
6.0444 -2.5903 -0.4774
6.0630 -2.5728 -0.4765
6.0879 -2.5581 -0.4797
6.1084 -2.5414 -0.4800
6.1289 -2.5246 -0.4803
6.1590 -2.5112 -0.4865
6.1827 -2.4953 -0.4886
6.1953 -2.4759 -0.4841
6.2107 -2.4577 -0.4815
6.2333 -2.4414 -0.4829
6.2538 -2.4247 -0.4832
6.2743 -2.4079 -0.4835
6.2926 -2.3907 -0.4826
6.3040 -2.3724 -0.4781
6.3745 -2.3237 -0.4838
6.2822 -2.2627 -0.4125
6.2832 -2.2472 -0.4050
5.2115 -3.3470 -0.4722
5.2986 -3.2827 -0.4768
5.3201 -3.2617 -0.4754
5.3415 -3.2407 -0.4740
5.3627 -3.2199 -0.4727
5.3829 -3.1932 -0.4680
5.4054 -3.1816 -0.4716
5.4269 -3.1640 -0.4719
5.4478 -3.1435 -0.4706
5.4700 -3.1288 -0.4725
5.5321 -3.0689 -0.4690
5.6896 -2.9082 -0.4558
5.7368 -2.8821 -0.4625
5.7605 -2.8684 -0.4656
5.7833 -2.8531 -0.4676
5.8536 -2.8081 -0.4746
5.8770 -2.7924 -0.4766
5.8985 -2.7748 -0.4769
5.9220 -2.7590 -0.4789
5.9378 -2.7369 -0.4747
5.9592 -2.7195 -0.4750
5.9820 -2.7030 -0.4764
6.0034 -2.6855 -0.4767
6.0272 -2.6695 -0.4787
6.0446 -2.6496 -0.4762
6.0609 -2.6294 -0.4731
6.0942 -2.6181 -0.4813
6.1104 -2.5980 -0.4783
6.1272 -2.5785 -0.4757
6.1485 -2.5611 -0.4760
6.1698 -2.5437 -0.4763
6.1960 -2.5280 -0.4795
6.2233 -2.5124 -0.4831
6.2367 -2.4924 -0.4789
6.2602 -2.4755 -0.4804
6.2816 -2.4580 -0.4807
6.3008 -2.4400 -0.4798
6.3244 -2.4230 -0.4813
6.3334 -2.4031 -0.4753
6.3706 -2.3886 -0.4836
6.3862 -2.3701 -0.4810
6.4004 -2.3516 -0.4779
6.4289 -2.3351 -0.4816
6.4429 -2.3169 -0.4785
6.3017 -2.2686 -0.3971
6.2912 -2.2521 -0.3848
5.1924 -3.4552 -0.4827
5.2157 -3.4281 -0.4794
5.2388 -3.4172 -0.4834
5.2620 -3.3982 -0.4837
5.2851 -3.3759 -0.4825
5.3080 -3.3526 -0.4807
5.3307 -3.3306 -0.4794
5.3541 -3.3149 -0.4813
5.3771 -3.2961 -0.4817
5.4018 -3.2874 -0.4873
5.4227 -3.2553 -0.4807
5.4431 -3.2237 -0.4742
5.4658 -3.2052 -0.4745
5.4892 -3.1894 -0.4764
5.6526 -3.0672 -0.4840
5.6983 -2.9197 -0.4342
5.8136 -2.9356 -0.4862
5.8326 -2.9120 -0.4828
5.8554 -2.8933 -0.4831
5.8973 -2.8521 -0.4806
5.9220 -2.8354 -0.4825
5.9427 -2.8150 -0.4812
5.9654 -2.7964 -0.4815
5.9860 -2.7761 -0.4803
6.0131 -2.7608 -0.4838
6.0412 -2.7459 -0.4879
6.0539 -2.7205 -0.4812
6.0885 -2.6774 -0.4749
6.0904 -2.6482 -0.4623
6.1315 -2.6112 -0.4613
6.1642 -2.5982 -0.4681
6.2169 -2.5654 -0.4735
6.2480 -2.5503 -0.4787
6.2804 -2.5353 -0.4844
6.3122 -2.5195 -0.4896
6.3319 -2.5000 -0.4883
6.3483 -2.4797 -0.4854
6.3677 -2.4604 -0.4841
6.3726 -2.4380 -0.4757
6.4050 -2.4219 -0.4809
6.4274 -2.4035 -0.4812
6.4534 -2.3857 -0.4832
6.4759 -2.3673 -0.4835
5.2208 -3.4831 -0.4716
5.2448 -3.4670 -0.4735
5.2687 -3.4439 -0.4723
5.2922 -3.4154 -0.4687
5.3160 -3.3959 -0.4690
5.3402 -3.3808 -0.4713
5.3632 -3.3538 -0.4682
5.3855 -3.3240 -0.4635
5.4100 -3.3109 -0.4668
5.4344 -3.2956 -0.4692
5.4567 -3.2693 -0.4660
5.4825 -3.2597 -0.4713
5.5736 -3.1702 -0.4661
5.9027 -2.9009 -0.4708
5.9517 -2.8643 -0.4730
5.9685 -2.8390 -0.4682
6.0010 -2.8274 -0.4752
6.0275 -2.8104 -0.4775
6.0438 -2.7855 -0.4728
6.0719 -2.7694 -0.4761
6.0932 -2.7485 -0.4750
6.1224 -2.7327 -0.4789
6.1461 -2.7133 -0.4792
6.1043 -2.6295 -0.4278
6.1419 -2.6195 -0.4373
6.2346 -2.6328 -0.4769
6.2582 -2.6135 -0.4773
6.2885 -2.5968 -0.4812
6.3122 -2.5774 -0.4815
6.3289 -2.5557 -0.4783
6.3669 -2.5408 -0.4858
6.3834 -2.5192 -0.4825
6.4028 -2.4987 -0.4808
6.4232 -2.4785 -0.4796
6.4501 -2.4600 -0.4815
6.4704 -2.4400 -0.4803
6.4905 -2.4200 -0.4791
6.5057 -2.3994 -0.4758
6.5123 -2.3779 -0.4689
6.6407 -2.2844 -0.4757
5.2007 -3.5898 -0.4735
5.2261 -3.5831 -0.4795
5.2516 -3.5528 -0.4761
5.2767 -3.5184 -0.4708
5.3017 -3.4932 -0.4693
5.3259 -3.4594 -0.4640
5.3504 -3.4347 -0.4624
5.3752 -3.4144 -0.4628
5.4047 -3.4276 -0.4783
5.4289 -3.3985 -0.4748
5.4519 -3.3656 -0.4695
5.4762 -3.3411 -0.4680
5.5030 -3.3285 -0.4721
5.5313 -3.3194 -0.4782
5.8364 -3.0697 -0.4825
5.8683 -3.0577 -0.4886
5.8851 -3.0253 -0.4813
5.9035 -2.9962 -0.4759
5.9285 -2.9757 -0.4762
5.9561 -2.9578 -0.4785
5.9967 -2.9526 -0.4904
6.0118 -2.9216 -0.4830
6.0371 -2.9009 -0.4834
6.0596 -2.8778 -0.4818
6.0907 -2.8617 -0.4860
6.1161 -2.8409 -0.4864
6.1447 -2.8222 -0.4887
6.1543 -2.7910 -0.4794
6.1761 -2.7685 -0.4778
6.2011 -2.7480 -0.4782
6.1471 -2.6253 -0.4101
6.2660 -2.6506 -0.4612
6.3223 -2.6442 -0.4780
6.3666 -2.6313 -0.4880
6.3959 -2.6120 -0.4903
6.4173 -2.5899 -0.4887
6.4426 -2.5691 -0.4891
6.4553 -2.5447 -0.4836
6.4933 -2.5277 -0.4898
6.5230 -2.5080 -0.4921
6.5440 -2.4862 -0.4905
6.5602 -2.4636 -0.4870
6.6553 -2.2912 -0.4502
5.2864 -3.6220 -0.4772
5.3089 -3.5223 -0.4469
5.3297 -3.4406 -0.4228
5.3518 -3.3978 -0.4138
5.3781 -3.3974 -0.4221
5.4458 -3.4704 -0.4715
5.4742 -3.4577 -0.4759
5.5237 -3.3960 -0.4686
5.5731 -3.3403 -0.4635
5.7136 -3.1771 -0.4473
5.7179 -3.0535 -0.4020
5.9586 -3.0096 -0.4631
5.9846 -2.9884 -0.4635
6.0215 -2.9782 -0.4716
6.0425 -2.9516 -0.4683
6.0742 -2.9351 -0.4723
6.0948 -2.9088 -0.4691
6.1364 -2.8995 -0.4790
6.1531 -2.8705 -0.4734
6.1794 -2.8490 -0.4738
6.2097 -2.8301 -0.4764
6.2362 -2.8085 -0.4768
6.2626 -2.7868 -0.4772
6.2812 -2.7610 -0.4735
6.2818 -2.7264 -0.4606
6.1522 -2.6311 -0.3828
6.1685 -2.6107 -0.3804
6.4163 -2.6552 -0.4771
6.4475 -2.6355 -0.4798
6.4689 -2.6122 -0.4779
6.5004 -2.5923 -0.4805
6.5173 -2.5679 -0.4768
6.5435 -2.5464 -0.4771
6.5609 -2.5228 -0.4738
6.5870 -2.5014 -0.4742
6.6176 -2.4811 -0.4764
6.7795 -2.3533 -0.4805
6.8006 -2.3314 -0.4790
5.1815 -3.8115 -0.4741
5.2391 -3.7716 -0.4774
5.2672 -3.7177 -0.4670
5.3337 -3.4271 -0.3849
5.3553 -3.3844 -0.3764
5.3799 -3.3727 -0.3797
5.4990 -3.5589 -0.4811
5.5301 -3.5454 -0.4857
5.5592 -3.5216 -0.4861
5.5883 -3.4977 -0.4865
5.6400 -3.4305 -0.4785
5.6756 -3.4263 -0.4877
5.7431 -3.1598 -0.4144
5.9264 -3.1962 -0.4825
5.9469 -3.1616 -0.4765
5.9780 -3.1421 -0.4791
6.0218 -3.1372 -0.4905
6.0508 -3.1134 -0.4909
6.0697 -3.0790 -0.4845
6.0918 -3.0491 -0.4807
6.1134 -3.0195 -0.4768
6.1556 -3.0087 -0.4857
6.1806 -2.9823 -0.4840
6.2018 -2.9531 -0.4801
6.2263 -2.9271 -0.4784
6.2584 -2.9068 -0.4809
6.3028 -2.8942 -0.4899
6.3316 -2.8707 -0.4903
6.3391 -2.8348 -0.4800
6.3630 -2.8093 -0.4782
6.4000 -2.7909 -0.4829
6.1877 -2.6228 -0.3598
6.5982 -2.6288 -0.4857
6.6106 -2.6008 -0.4796
6.4162 -2.5165 -0.3914
5.1598 -3.8365 -0.4360
5.2957 -3.5661 -0.3860
5.3393 -3.4334 -0.3550
5.3600 -3.3830 -0.3444
5.3825 -3.3563 -0.3420
5.4080 -3.3521 -0.3478
5.4388 -3.3736 -0.3635
5.5687 -3.5402 -0.4543
5.6370 -3.5238 -0.4681
5.6705 -3.5096 -0.4729
5.6988 -3.4793 -0.4709
5.7271 -3.1940 -0.3859
6.0999 -3.1116 -0.4637
6.1366 -3.0947 -0.4685
6.1738 -3.0775 -0.4733
6.2002 -3.0499 -0.4717
6.2336 -3.0286 -0.4741
6.2635 -3.0041 -0.4746
6.2896 -2.9768 -0.4730
6.3147 -2.9491 -0.4710
6.3492 -2.9280 -0.4738
6.3740 -2.9005 -0.4718
6.3943 -2.8707 -0.4678
6.4526 -2.8625 -0.4815
6.4586 -2.8253 -0.4711
6.4827 -2.7985 -0.4691
6.5121 -2.7744 -0.4695
6.2646 -2.6035 -0.3443
6.3003 -2.5898 -0.3498
6.3479 -2.5796 -0.3599
6.4064 -2.5185 -0.3564
6.4007 -2.4227 -0.3235
6.4402 -2.4083 -0.3299
5.2739 -3.5293 -0.3336
5.2989 -3.5173 -0.3365
5.3234 -3.4937 -0.3358
5.3465 -3.4566 -0.3306
5.3660 -3.3936 -0.3167
5.3870 -3.3559 -0.3109
5.4107 -3.3402 -0.3123
5.4384 -3.3464 -0.3214
5.6165 -3.7088 -0.4769
5.6512 -3.6888 -0.4799
5.6673 -3.2895 -0.3639
5.6980 -3.2789 -0.3687
5.9544 -3.4577 -0.4893
6.0209 -3.4033 -0.4902
6.0579 -3.3814 -0.4933
6.0797 -3.3383 -0.4859
6.1126 -3.3113 -0.4864
6.1581 -3.2994 -0.4947
6.1829 -3.2623 -0.4899
6.2160 -3.2352 -0.4904
6.2444 -3.2035 -0.4883
6.2774 -3.1765 -0.4887
6.3104 -3.1496 -0.4892
6.3382 -3.1183 -0.4870
6.3613 -3.0838 -0.4826
6.3737 -3.0422 -0.4734
6.4216 -3.0272 -0.4813
6.4808 -3.0185 -0.4941
6.4914 -2.9773 -0.4845
6.4699 -2.9189 -0.4613
6.4553 -2.8681 -0.4422
6.5547 -2.8797 -0.4715
6.6159 -2.8682 -0.4840
6.6729 -2.8530 -0.4943
6.6556 -2.8044 -0.4751
6.3228 -2.6024 -0.3277
6.3493 -2.5843 -0.3291
6.3590 -2.5607 -0.3245
6.3886 -2.5437 -0.3271
6.4119 -2.5247 -0.3275
6.4396 -2.5068 -0.3293
7.1667 -2.4176 -0.4918
7.2069 -2.3919 -0.4945
7.2488 -2.3661 -0.4977
5.2533 -3.4588 -0.2754
5.2761 -3.4402 -0.2758
5.3014 -3.4645 -0.2886
5.3506 -3.4462 -0.2953
5.3728 -3.4109 -0.2909
5.3909 -3.3511 -0.2787
5.4132 -3.3280 -0.2777
5.4374 -3.3168 -0.2804
5.6532 -3.3336 -0.3369
5.6716 -3.2918 -0.3298
5.7026 -3.2823 -0.3346
5.7341 -3.2723 -0.3394
5.9616 -3.5546 -0.4721
6.0272 -3.4912 -0.4704
6.0660 -3.4692 -0.4736
6.2350 -3.3211 -0.4733
6.2749 -3.2983 -0.4766
6.3143 -3.2745 -0.4795
6.3390 -3.2361 -0.4748
6.3686 -3.2033 -0.4728
6.3921 -3.1659 -0.4681
6.4157 -3.1295 -0.4637
6.4550 -3.1059 -0.4666
6.4834 -3.0741 -0.4647
6.5058 -3.0388 -0.4603
6.5570 -3.0224 -0.4681
6.4667 -2.8785 -0.4066
6.5232 -2.8676 -0.4171
6.5540 -2.8424 -0.4176
6.3962 -2.5774 -0.3063
6.4063 -2.5277 -0.2950
6.4339 -2.5100 -0.2968
6.4570 -2.4911 -0.2971
6.4802 -2.4721 -0.2974
6.5270 -2.4581 -0.3048
7.2033 -2.4937 -0.4772
7.2462 -2.4671 -0.4801
7.2713 -2.4380 -0.4781
7.3053 -2.4102 -0.4786
7.3300 -2.3815 -0.4766
5.2578 -3.4276 -0.2374
5.2807 -3.4272 -0.2424
5.3060 -3.4556 -0.2551
5.3303 -3.4480 -0.2586
5.3538 -3.4287 -0.2589
5.3755 -3.3938 -0.2549
5.3979 -3.3682 -0.2533
5.4185 -3.3341 -0.2493
5.4408 -3.3122 -0.2487
5.4695 -3.3218 -0.2574
5.4987 -3.3274 -0.2653
5.5255 -3.3190 -0.2691
5.6608 -3.3444 -0.3053
5.6776 -3.2987 -0.2975
5.7138 -3.3010 -0.3061
6.1024 -3.7055 -0.4939
6.1275 -3.6505 -0.4856
6.1515 -3.5966 -0.4773
6.2048 -3.5874 -0.4867
6.2592 -3.5772 -0.4961
6.2873 -3.5309 -0.4906
6.3261 -3.4992 -0.4912
6.3768 -3.4809 -0.4978
6.4095 -3.4419 -0.4951
6.4297 -3.3911 -0.4867
6.4493 -3.3419 -0.4787
6.5064 -3.3283 -0.4878
6.5382 -3.2913 -0.4855
6.5977 -3.2769 -0.4950
6.5872 -3.2082 -0.4753
6.6174 -3.1725 -0.4730
6.6910 -3.1663 -0.4876
6.7063 -3.1206 -0.4795
6.7370 -3.0857 -0.4774
6.7291 -3.0296 -0.4615
6.8745 -2.9107 -0.4636
6.4494 -2.5717 -0.2842
6.4427 -2.5170 -0.2690
7.3895 -2.6059 -0.5003
7.4279 -2.5745 -0.5008
7.4662 -2.5430 -0.5013
7.5046 -2.5116 -0.5019
7.4859 -2.4730 -0.4880
5.2407 -3.4405 -0.2070
5.2627 -3.4225 -0.2073
5.2862 -3.4379 -0.2156
5.3092 -3.4265 -0.2176
5.3332 -3.4230 -0.2216
5.3554 -3.3962 -0.2199
5.3796 -3.3887 -0.2231
5.4033 -3.3743 -0.2246
5.4264 -3.3553 -0.2249
5.4502 -3.3396 -0.2261
5.4766 -3.3354 -0.2304
5.4983 -3.3089 -0.2287
5.5300 -3.3213 -0.2380
5.6883 -3.4081 -0.2897
5.6969 -3.3381 -0.2754
5.7272 -3.3244 -0.2783
5.8108 -3.4229 -0.3177
5.8737 -3.4641 -0.3398
6.1401 -3.7654 -0.4623
6.1756 -3.7241 -0.4599
6.2486 -3.7410 -0.4785
6.2506 -3.6503 -0.4582
6.4706 -3.5865 -0.4878
6.4778 -3.5151 -0.4729
6.4977 -3.4605 -0.4645
6.5744 -3.4620 -0.4802
6.6416 -3.3811 -0.4752
6.6588 -3.3287 -0.4667
6.6991 -3.2958 -0.4673
6.7813 -3.2927 -0.4831
6.8684 -3.2895 -0.4999
6.8726 -3.2304 -0.4873
6.9239 -3.2021 -0.4911
6.9755 -3.1734 -0.4949
6.9256 -3.0375 -0.4538
6.8955 -2.9731 -0.4330
7.0517 -2.9949 -0.4694
7.0917 -2.9622 -0.4700
7.1215 -2.9254 -0.4676
7.1310 -2.8818 -0.4595
7.4522 -2.6673 -0.4751
7.4801 -2.6321 -0.4726
5.2676 -3.4211 -0.1785
5.2905 -3.4248 -0.1834
5.3145 -3.4325 -0.1894
5.3383 -3.4256 -0.1923
5.3640 -3.4332 -0.1985
5.3885 -3.4219 -0.2006
5.4337 -3.3724 -0.1987
5.4606 -3.3716 -0.2035
5.5071 -3.3286 -0.2031
5.5318 -3.3133 -0.2045
5.5597 -3.3080 -0.2084
5.6898 -3.3124 -0.2330
5.9190 -3.5473 -0.3230
6.0005 -3.6090 -0.3505
6.1702 -3.8116 -0.4230
6.3371 -3.7711 -0.4450
6.4291 -3.8017 -0.4681
6.4811 -3.7741 -0.4719
6.5504 -3.7660 -0.4828
6.6489 -3.7875 -0.5052
6.6166 -3.6633 -0.4738
6.6795 -3.6442 -0.4813
6.7252 -3.6068 -0.4819
6.8196 -3.6130 -0.5004
6.8263 -3.5402 -0.4867
6.7576 -3.3435 -0.4338
7.0903 -3.5174 -0.5301
7.1029 -3.4523 -0.5190
7.1025 -3.3816 -0.5044
7.1725 -3.2907 -0.4985
7.2062 -3.2457 -0.4954
7.1233 -3.1428 -0.4592
6.9651 -3.0118 -0.4035
7.2937 -3.1093 -0.4833
7.2895 -3.0517 -0.4707
7.2965 -3.0011 -0.4616
7.4428 -3.0035 -0.4887
6.4570 -2.5303 -0.2121
5.2512 -3.4633 -0.1545
5.2740 -3.4635 -0.1582
5.4572 -3.9065 -0.2689
5.4921 -3.8942 -0.2723
5.5225 -3.8530 -0.2698
5.5455 -3.7776 -0.2598
5.7291 -3.4956 -0.2383
6.1541 -3.7783 -0.3593
6.5693 -3.7878 -0.4288
6.7273 -3.8759 -0.4706
6.8032 -3.3817 -0.3929
6.8736 -3.3668 -0.4017
7.1016 -3.4565 -0.4553
7.2143 -3.4586 -0.4740
7.0680 -3.2995 -0.4211
7.2458 -3.3386 -0.4573
7.0901 -3.1897 -0.4047
7.0690 -3.1216 -0.3889
7.4326 -3.2410 -0.4700
7.4380 -3.1813 -0.4600
7.3687 -3.0371 -0.4224
7.5526 -3.0524 -0.4552
7.6001 -3.0136 -0.4559
6.4818 -2.5419 -0.1873
5.2570 -3.5003 -0.1320
5.2840 -3.5934 -0.1507
5.3122 -3.6349 -0.1614
5.3633 -3.9488 -0.2189
5.3958 -3.9298 -0.2206
5.4244 -3.8748 -0.2160
5.4628 -3.9003 -0.2256
5.5035 -3.9265 -0.2357
5.5327 -3.8760 -0.2318
5.5628 -3.8349 -0.2296
5.5924 -3.7943 -0.2274
5.8325 -4.3788 -0.3555
5.6808 -3.3599 -0.1709
6.3087 -3.9247 -0.3519
6.4967 -3.9924 -0.3899
6.6979 -4.0455 -0.4275
6.7714 -4.0284 -0.4354
6.8711 -4.0380 -0.4513
6.9255 -3.9935 -0.4521
6.9181 -3.8869 -0.4340
6.9584 -3.8324 -0.4311
7.0886 -3.8600 -0.4544
7.0390 -3.6437 -0.4127
6.9943 -3.5308 -0.3882
6.9035 -3.3925 -0.3530
6.8788 -3.3101 -0.3363
6.8932 -3.2579 -0.3300
6.9834 -3.2537 -0.3424
7.0260 -3.2188 -0.3430
7.0574 -3.1780 -0.3410
7.2780 -3.1165 -0.3631
7.4973 -3.1548 -0.4009
7.5911 -3.1337 -0.4111
6.4958 -2.5248 -0.1555
6.4376 -2.3231 -0.1148
5.2910 -3.6283 -0.1241
5.3783 -4.0531 -0.1935
5.4078 -3.9843 -0.1878
5.4380 -3.9354 -0.1849
5.4662 -3.8791 -0.1807
5.5100 -3.9275 -0.1929
5.5364 -3.8625 -0.1873
5.5660 -3.8217 -0.1855
5.6046 -3.8233 -0.1906
6.3851 -4.1619 -0.3357
6.3001 -3.9061 -0.2899
7.0721 -4.2645 -0.4367
6.9897 -4.0627 -0.3986
6.9548 -3.9254 -0.3753
7.0470 -3.9189 -0.3861
7.1013 -3.8744 -0.3868
7.3069 -3.9588 -0.4244
7.3491 -3.8975 -0.4213
7.2943 -3.7637 -0.3960
7.3039 -3.6857 -0.3865
7.0094 -3.4037 -0.3105
6.9700 -3.3122 -0.2930
6.9827 -3.2584 -0.2872
7.0561 -3.2417 -0.2942
7.1553 -3.2371 -0.3061
6.3592 -2.3895 -0.0890
6.3639 -2.3717 -0.0872
6.3482 -2.3513 -0.0824
5.4155 -3.9930 -0.1470
5.4464 -3.9510 -0.1455
5.4747 -3.8944 -0.1421
5.5115 -3.8978 -0.1464
5.5373 -3.8355 -0.1420
5.7910 -4.3735 -0.2316
6.2368 -5.7622 -0.4402
6.2998 -5.6669 -0.4361
6.3728 -5.6072 -0.4371
6.2908 -4.5392 -0.3050
6.5674 -4.9556 -0.3830
6.6448 -4.9270 -0.3881
6.6599 -4.7823 -0.3731
6.4792 -4.3156 -0.2996
7.1708 -3.9401 -0.3313
7.2415 -3.9067 -0.3351
7.3137 -3.8733 -0.3391
7.3706 -3.8268 -0.3399
7.5149 -3.8437 -0.3575
7.4509 -3.7109 -0.3353
7.0339 -3.2950 -0.2420
7.1444 -3.2984 -0.2544
6.4033 -2.6668 -0.1011
6.4226 -2.5636 -0.0913
6.4336 -2.5417 -0.0900
6.3042 -2.4406 -0.0643
6.3093 -2.4031 -0.0605
6.3277 -2.3880 -0.0608
6.3343 -2.3710 -0.0595
6.3179 -2.3510 -0.0554
6.3207 -2.3346 -0.0538
5.2524 -3.6828 -0.0608
5.2810 -3.7683 -0.0714
5.3808 -4.3964 -0.1394
5.4157 -4.3200 -0.1354
5.4312 -4.0768 -0.1140
5.4484 -3.9150 -0.1004
5.4789 -3.8809 -0.1000
5.5118 -3.8631 -0.1013
5.5531 -3.8876 -0.1073
6.2852 -5.8910 -0.3616
6.5263 -4.8569 -0.2866
6.6233 -4.8734 -0.2969
6.7255 -4.8909 -0.3078
6.4653 -4.2851 -0.2274
6.3673 -4.0038 -0.1922
7.2098 -3.8832 -0.2573
7.3111 -3.8755 -0.2658
7.5103 -3.8459 -0.2811
7.0133 -3.2875 -0.1836
6.3623 -2.7450 -0.0737
6.3355 -2.7009 -0.0671
6.2981 -2.6551 -0.0594
6.2983 -2.6277 -0.0569
6.2921 -2.5991 -0.0536
6.2893 -2.5729 -0.0509
6.2888 -2.5486 -0.0486
6.2693 -2.5193 -0.0441
6.2669 -2.4967 -0.0417
6.2790 -2.4790 -0.0412
6.2837 -2.4596 -0.0398
6.2768 -2.4381 -0.0371
6.2764 -2.4189 -0.0353
6.2971 -2.4046 -0.0358
6.3023 -2.3874 -0.0347
6.3044 -2.3701 -0.0333
6.3100 -2.3539 -0.0322
6.3194 -2.3385 -0.0316
6.3091 -2.3209 -0.0291
5.2584 -3.6946 -0.0299
5.3708 -4.8060 -0.1187
5.3941 -4.4659 -0.0958
5.4277 -4.3640 -0.0909
5.4650 -4.3205 -0.0904
5.5375 -3.9779 -0.0709
5.5791 -3.9909 -0.0749
5.6282 -4.0303 -0.0814
5.7489 -4.3558 -0.1138
6.3370 -6.0294 -0.2782
6.4409 -6.0462 -0.2871
7.3395 -4.0986 -0.2119
7.3995 -4.0495 -0.2127
7.4596 -4.0003 -0.2136
7.3418 -3.7286 -0.1852
7.0124 -3.2920 -0.1294
6.3166 -2.6958 -0.0352
6.3168 -2.6669 -0.0331
6.3129 -2.6375 -0.0307
6.3187 -2.6131 -0.0293
6.3305 -2.5917 -0.0287
6.3397 -2.5699 -0.0278
6.3571 -2.4826 -0.0227
6.3772 -2.4661 -0.0230
6.3918 -2.4280 -0.0213
6.3998 -2.4098 -0.0206
5.3728 -4.6685 -0.0544
5.4025 -4.4640 -0.0456
5.4345 -4.3511 -0.0416
5.4753 -4.3427 -0.0434
5.6270 -3.9963 -0.0341
5.8843 -4.6419 -0.0818
6.3207 -5.9312 -0.1727
6.3896 -2.8346 -0.0172
6.3835 -2.7963 -0.0148
6.2636 -2.5708 0.0035
6.2623 -2.5469 0.0048
6.2682 -2.5263 0.0055
6.2607 -2.5022 0.0072
6.2512 -2.4587 0.0100
6.2545 -2.4402 0.0107
6.2698 -2.4250 0.0107
6.2799 -2.4089 0.0109
6.2950 -2.3939 0.0108
5.3991 -4.9473 -0.0104
5.4469 -4.3955 0.0047
5.4884 -4.3867 0.0034
5.5567 -4.5667 -0.0049
5.6019 -4.5455 -0.0060
5.5936 -4.0012 0.0111
5.7982 -4.4975 -0.0122
6.5345 -6.2640 -0.0956
9.1060 -4.8849 -0.1541
6.6682 -2.7591 0.0072
6.2952 -2.3978 0.0329
6.3102 -2.3829 0.0328
5.1535 -6.2601 0.0404
5.2183 -6.2072 0.0395
5.3759 -5.2707 0.0457
5.4113 -4.9775 0.0480
5.4181 -4.4488 0.0534
5.4548 -4.3947 0.0531
5.5033 -4.4445 0.0515
5.5649 -4.5649 0.0488
5.6098 -4.5428 0.0480
5.5965 -3.9851 0.0542
5.7726 -4.3643 0.0462
6.6913 -2.7732 0.0421
6.7200 -2.7496 0.0417
6.2753 -2.4528 0.0548
6.2807 -2.4351 0.0549
6.2856 -2.4177 0.0549
6.2889 -2.4004 0.0551
6.2823 -2.3817 0.0554
6.2912 -2.3664 0.0554
5.1708 -6.1398 0.1196
5.2335 -6.2955 0.1207
5.3417 -5.4877 0.1122
5.3827 -5.1812 0.1090
5.4200 -4.9544 0.1066
5.4283 -4.4717 0.1019
5.4625 -4.3925 0.1010
5.5096 -4.4307 0.1010
5.6246 -4.5827 0.1018
5.5961 -3.9539 0.0959
5.6537 -4.0332 0.0963
5.7640 -3.5960 0.0914
6.0164 -3.7687 0.0915
8.8709 -4.7395 0.0831
6.7278 -2.7928 0.0777
6.7447 -2.7641 0.0773
6.2750 -2.4761 0.0775
6.2770 -2.4570 0.0773
6.2747 -2.4374 0.0771
6.2872 -2.4218 0.0769
6.2956 -2.4055 0.0767
6.2956 -2.3880 0.0765
6.2856 -2.3693 0.0764
6.3148 -2.3575 0.0761
6.3345 -2.3441 0.0758
5.1843 -6.2589 0.2004
5.3901 -5.1153 0.1688
5.4408 -4.5186 0.1518
5.4741 -4.4263 0.1494
5.5267 -4.5025 0.1522
5.5955 -4.6589 0.1574
5.6287 -4.0805 0.1408
5.6682 -4.0698 0.1408
5.9478 -3.7192 0.1333
6.3188 -4.0021 0.1453
8.6477 -4.5915 0.1859
6.7468 -2.8055 0.1144
6.7572 -2.7739 0.1136
6.2768 -2.4803 0.1002
6.2737 -2.4598 0.0996
6.2865 -2.4439 0.0992
6.2874 -2.4256 0.0987
6.2849 -2.3897 0.0976
6.2868 -2.3570 0.0967
5.1405 -6.0935 0.2697
5.2008 -6.0755 0.2704
5.3845 -4.8352 0.2145
5.6901 -3.9645 0.1799
5.6422 -3.3393 0.1481
5.6709 -3.3336 0.1486
5.7065 -3.2676 0.1463
6.0867 -3.6114 0.1729
6.2811 -2.4851 0.1229
6.2804 -2.4652 0.1219
6.2863 -2.4290 0.1203
6.2821 -2.3929 0.1184
6.2866 -2.3769 0.1178
6.2990 -2.3627 0.1174
5.6327 -3.2272 0.1686
5.6631 -3.2312 0.1702
5.6989 -3.2445 0.1726
5.7215 -3.2261 0.1723
6.2407 -2.5829 0.1501
6.2517 -2.5642 0.1493
5.9963 -2.4379 0.1300
6.2744 -2.5071 0.1463
6.2667 -2.4846 0.1445
6.2694 -2.4659 0.1433
6.2732 -2.4120 0.1398
6.2905 -2.3813 0.1384
6.2903 -2.3650 0.1373
6.2996 -2.3505 0.1367
5.6066 -3.2238 0.1927
5.6300 -3.2130 0.1931
5.6605 -3.2185 0.1953
5.8905 -3.1106 0.1991
8.4011 -4.3281 0.4485
8.2927 -4.1511 0.4269
6.2451 -2.5879 0.1739
6.2538 -2.5684 0.1727
6.2554 -2.5048 0.1672
6.2709 -2.4894 0.1668
6.2736 -2.4706 0.1653
6.2655 -2.4315 0.1614
6.2705 -2.4150 0.1603
6.2818 -2.4002 0.1596
6.2942 -2.3693 0.1576
5.8712 -3.1325 0.2273
8.8080 -4.6114 0.5963
6.2416 -2.5898 0.1968
6.2574 -2.5295 0.1915
6.2473 -2.5057 0.1883
6.2650 -2.4912 0.1880
6.2564 -2.4509 0.1831
6.2642 -2.4347 0.1820
6.2610 -2.4165 0.1798
6.2680 -2.4010 0.1787
5.6838 -3.2611 0.2539
8.6024 -4.4805 0.6605
8.3541 -4.2065 0.6048
6.2521 -2.5744 0.2184
6.2398 -2.5480 0.2140
6.2507 -2.5307 0.2128
6.2564 -2.5120 0.2110
6.2539 -2.4537 0.2035
6.2549 -2.4360 0.2014
6.2622 -2.4203 0.2001
6.2759 -2.4062 0.1996
6.2637 -2.3713 0.1942
6.2809 -2.3586 0.1941
5.1453 -6.5033 0.6862
5.3066 -3.1926 0.2317
5.3429 -3.0569 0.2161
6.2403 -2.5305 0.2331
6.2544 -2.4949 0.2295
6.2435 -2.4727 0.2252
6.2562 -2.4398 0.2218
6.2558 -2.3892 0.2146
6.2646 -2.3749 0.2134
5.1628 -6.3748 0.7437
5.3186 -3.1005 0.2375
5.3302 -3.0597 0.2323
5.3431 -3.0364 0.2301
5.3543 -3.0045 0.2263
5.3641 -2.9694 0.2218
5.3740 -2.9399 0.2182
5.3851 -2.9194 0.2163
6.2309 -2.5306 0.2529
6.2483 -2.3911 0.2326
6.2583 -2.3773 0.2315
6.2609 -2.3623 0.2295
5.1222 -6.1744 0.7756
5.1788 -6.2886 0.8033
5.2951 -5.8581 0.7421
5.3745 -2.9298 0.2318
5.3912 -2.8702 0.2234
5.3992 -2.8436 0.2197
5.4140 -2.7943 0.2129
5.4220 -2.7748 0.2105
5.6119 -2.6194 0.2078
5.6216 -2.6087 0.2072
5.6671 -2.6130 0.2139
5.6863 -2.6102 0.2160
6.2333 -2.6714 0.2987
6.2407 -2.4604 0.2622
6.2322 -2.4072 0.2516
6.2506 -2.3793 0.2490
6.2616 -2.3659 0.2481
4.3252 -2.2645 0.1821
4.6492 -3.8123 0.3102
3.7648 -5.9067 0.7310
3.7342 -5.7825 0.7206
3.6713 -5.7487 0.7273
1.7245 -5.8090 1.0759
1.8471 -5.5107 1.0165
1.4432 -5.1002 1.0351
4.2018 -2.3054 0.1971
4.3320 -2.2625 0.1689
3.7387 -5.7986 0.6468
2.4306 -5.0533 0.7684
2.4946 -4.8511 0.7357
2.4124 -4.8037 0.7432
1.5172 -4.8970 0.8941
4.6872 -3.7961 0.2449
3.7749 -5.7265 0.5587
3.6797 -5.7807 0.5771
2.3879 -4.9625 0.6765
2.2719 -4.9417 0.6905
4.6969 -3.7719 0.2130
3.7578 -6.0266 0.5100
3.7482 -5.8314 0.4952
3.5976 -6.0273 0.5292
3.5544 -5.9233 0.5259
3.3278 -6.2588 0.5805
2.8148 -7.1927 0.7183
2.3692 -5.2751 0.6147
2.5290 -4.8203 0.5584
1.4352 -4.9519 0.7001
0.5706 -2.8772 0.6338
0.6435 -2.7849 0.6175
0.0917 -2.7571 0.6813
3.7850 -5.7571 0.4081
3.6766 -5.8452 0.4249
3.6344 -5.7480 0.4227
3.5680 -5.7121 0.4270
3.4586 -5.7703 0.4419
1.9697 -5.9158 0.6016
2.5338 -4.9517 0.4807
2.5229 -4.8287 0.4736
1.4174 -5.4291 0.6249
0.4653 -2.9651 0.5572
0.7647 -2.8377 0.5186
0.6616 -2.7687 0.5244
0.7288 -2.6824 0.5119
4.3661 -2.2552 0.1170
3.8555 -6.0304 0.3386
3.8118 -5.9315 0.3372
3.7470 -5.8973 0.3407
3.6927 -5.8308 0.3418
3.7183 -5.5604 0.3260
3.5966 -5.6677 0.3413
3.5031 -5.6921 0.3502
3.2929 -5.9575 0.3808
2.7039 -6.9571 0.4796
2.3603 -5.4542 0.4314
2.6791 -4.9315 0.3788
2.6656 -4.8125 0.3739
2.4420 -4.9140 0.3973
2.5748 -4.6509 0.3731
1.9209 -4.9874 0.4435
1.8167 -4.9334 0.4493
1.7102 -4.8782 0.4552
1.3920 -4.9776 0.4862
0.1456 -3.1958 0.4974
0.4525 -3.0441 0.4646
0.7584 -2.9078 0.4328
0.7404 -2.8270 0.4302
0.9612 -2.7223 0.4068
1.1224 -2.6333 0.3891
4.6697 -3.8519 0.1304
3.9198 -5.8569 0.2470
3.8066 -5.9828 0.2584
3.7518 -5.9157 0.2595
3.7315 -5.7543 0.2551
3.6782 -5.6889 0.2561
3.4480 -6.0527 0.2831
3.4342 -5.8726 0.2777
3.3601 -5.8350 0.2810
3.2501 -5.8667 0.2889
2.7856 -5.9332 0.3201
2.6317 -5.2864 0.3071
2.8167 -4.9120 0.2825
2.7808 -4.8197 0.2815
2.7041 -4.7740 0.2847
2.6256 -4.7277 0.2880
2.4500 -4.7738 0.3005
2.3114 -4.7738 0.3091
2.3309 -4.6277 0.3028
2.1887 -4.6232 0.3115
1.6222 -4.8029 0.3529
1.3392 -4.8656 0.3727
1.4808 -4.6295 0.3557
1.4742 -4.2549 0.3430
1.4844 -4.1326 0.3381
1.2156 -4.1527 0.3555
1.2324 -4.0283 0.3501
0.6537 -3.1803 0.3565
0.5392 -3.1082 0.3611
0.4724 -3.0263 0.3624
0.8606 -2.8795 0.3331
0.9596 -2.7861 0.3237
0.7403 -2.7319 0.3355
4.3813 -2.2607 0.0928
4.6792 -3.8305 0.0980
3.8820 -6.2824 0.1780
3.9167 -5.9047 0.1694
3.8012 -6.0360 0.1767
3.7017 -5.8660 0.1778
3.6585 -5.7668 0.1777
3.5100 -5.9287 0.1871
3.2590 -6.0775 0.2005
3.1377 -6.1190 0.2064
2.7126 -5.8723 0.2198
2.3796 -6.1819 0.2398
2.5876 -5.1929 0.2123
2.5997 -5.0307 0.2088
2.5869 -4.9041 0.2069
2.5273 -4.8311 0.2081
2.4429 -4.7822 0.2107
2.1574 -4.9167 0.2254
1.9614 -4.9510 0.2343
2.2890 -4.5387 0.2127
2.0559 -4.6020 0.2238
1.7196 -4.7272 0.2404
1.8975 -4.4689 0.2280
1.9613 -4.3057 0.2222
1.4550 -4.2588 0.2428
1.4660 -4.1350 0.2400
1.3200 -4.0932 0.2454
0.9845 -4.1334 0.2604
-0.0910 -3.4298 0.2927
0.6733 -3.1627 0.2553
0.7895 -3.0488 0.2482
0.7262 -2.9712 0.2495
0.7949 -2.8751 0.2447
0.6892 -2.8051 0.2479
0.9189 -2.6997 0.2362
0.6980 -2.6421 0.2445
3.8069 -6.0555 0.0917
3.7388 -6.0213 0.0931
3.6570 -6.0212 0.0949
3.6123 -5.9155 0.0957
3.2503 -6.3490 0.1049
3.2412 -6.1407 0.1046
3.2688 -5.8705 0.1033
2.8303 -5.7008 0.1127
2.7617 -5.1351 0.1128
2.7238 -5.0344 0.1134
2.7307 -4.8852 0.1128
2.9117 -4.5550 0.1080
2.8597 -4.4913 0.1090
2.4854 -4.7421 0.1180
1.6089 -5.1017 0.1385
1.7724 -4.8224 0.1342
1.5440 -4.8544 0.1394
