ply
format ascii 1.0
element vertex 2135
property float x
property float y
property float z
end_header
4.7138 -4.0143 -0.1153
4.7150 -3.9855 -0.1195
4.7120 -3.9546 -0.1218
4.6969 -3.9186 -0.1184
4.6940 -3.8875 -0.1206
4.6670 -3.8479 -0.1115
4.7008 -3.8289 -0.1314
4.5719 -3.7313 -0.0765
4.5625 -3.7006 -0.0754
4.5909 -3.6782 -0.0929
4.6411 -3.6581 -0.1214
4.6226 -3.6237 -0.1161
4.6271 -3.5930 -0.1222
4.6050 -3.5588 -0.1149
4.5906 -3.5261 -0.1115
4.5912 -3.4945 -0.1157
4.5917 -3.4626 -0.1199
4.5811 -3.4303 -0.1183
4.5706 -3.3982 -0.1168
4.5418 -3.3675 -0.1057
4.5532 -3.3343 -0.1156
4.5499 -3.3018 -0.1179
4.5573 -3.2674 -0.1260
4.5326 -3.2382 -0.1168
4.5327 -3.2046 -0.1210
4.5223 -3.1733 -0.1195
4.5154 -3.1412 -0.1198
4.4846 -3.0488 -0.1152
4.4811 -3.0156 -0.1175
4.4642 -2.9883 -0.1120
4.4641 -2.9534 -0.1163
4.4639 -2.9181 -0.1205
4.4603 -2.8842 -0.1229
4.4534 -2.8520 -0.1232
4.4498 -2.8178 -0.1255
4.4397 -2.7878 -0.1240
4.4264 -2.7603 -0.1205
4.4227 -2.7260 -0.1228
4.4127 -2.6965 -0.1212
4.3933 -2.6751 -0.1138
4.4021 -2.6299 -0.1239
4.3922 -2.6008 -0.1224
4.3823 -2.5718 -0.1208
4.3664 -2.5493 -0.1153
4.3716 -2.5050 -0.1235
4.3797 -2.4567 -0.1336
4.3668 -2.4310 -0.1301
4.3629 -2.3953 -0.1324
4.3501 -2.3702 -0.1289
4.3316 -2.3530 -0.1214
4.3191 -2.3290 -0.1179
4.2912 -2.2460 -0.1136
4.2854 -2.1716 -0.1197
4.8594 -4.2027 -0.1277
4.7519 -4.1139 -0.0858
4.7491 -4.0834 -0.0880
4.7826 -4.0705 -0.1058
4.8043 -4.0501 -0.1187
4.8062 -4.0196 -0.1231
4.7445 -3.9315 -0.1033
4.7913 -3.8854 -0.1315
4.5844 -3.7018 -0.0522
4.6955 -3.6644 -0.1105
4.6686 -3.5950 -0.1055
4.6576 -3.5612 -0.1041
4.6542 -3.5281 -0.1063
4.6433 -3.4944 -0.1049
4.6436 -3.4612 -0.1089
4.6410 -3.4275 -0.1115
4.6375 -3.3937 -0.1137
4.6183 -3.3606 -0.1082
4.5922 -3.2952 -0.1031
4.5887 -3.2615 -0.1053
4.5780 -3.2289 -0.1039
4.5593 -3.1984 -0.0984
4.5452 -3.1674 -0.0951
4.5531 -3.1305 -0.1033
4.5574 -3.0939 -0.1096
4.5424 -3.0633 -0.1059
4.5242 -3.0345 -0.1003
4.5137 -3.0032 -0.0989
4.5143 -2.9670 -0.1034
4.5140 -2.9307 -0.1074
4.5069 -2.8976 -0.1078
4.4724 -2.8800 -0.0931
4.4894 -2.8333 -0.1068
4.4856 -2.7982 -0.1090
4.4817 -2.7628 -0.1112
4.4682 -2.7343 -0.1079
4.4572 -2.6266 -0.1151
4.4563 -2.5877 -0.1191
4.4358 -2.5663 -0.1117
4.4287 -2.5331 -0.1121
4.4216 -2.5000 -0.1125
4.4115 -2.4701 -0.1110
4.4014 -2.4403 -0.1096
4.4003 -2.4006 -0.1137
4.3962 -2.3639 -0.1159
4.3891 -2.3307 -0.1163
4.3819 -2.2975 -0.1167
4.3719 -2.2681 -0.1152
4.3677 -2.2310 -0.1175
4.3605 -2.1977 -0.1178
4.3598 -2.1551 -0.1224
4.3463 -2.1313 -0.1186
4.3336 -2.1068 -0.1153
4.3265 -2.0738 -0.1157
4.7609 -4.1116 -0.0537
4.7812 -4.0929 -0.0650
4.8610 -4.1016 -0.1002
4.9127 -4.0933 -0.1245
4.8996 -4.0539 -0.1228
4.8854 -4.0142 -0.1208
4.8724 -3.9754 -0.1191
4.8594 -3.9367 -0.1174
4.8840 -3.9111 -0.1313
4.8759 -3.8736 -0.1318
4.8438 -3.7237 -0.1335
4.8094 -3.6813 -0.1226
4.7859 -3.6421 -0.1162
4.7888 -3.6072 -0.1213
4.7857 -3.5710 -0.1238
4.7826 -3.5346 -0.1264
4.7453 -3.4964 -0.1137
4.7621 -3.4608 -0.1251
4.7448 -3.4241 -0.1213
4.7463 -3.3873 -0.1260
4.7236 -3.3515 -0.1196
4.7112 -3.3157 -0.1179
4.7135 -3.2782 -0.1230
4.7003 -3.2426 -0.1209
4.6880 -3.2071 -0.1192
4.6847 -3.1699 -0.1218
4.6867 -3.1311 -0.1269
4.6744 -3.0958 -0.1252
4.6525 -3.0638 -0.1188
4.6361 -3.0309 -0.1149
4.6284 -2.9951 -0.1153
4.6250 -2.9575 -0.1179
4.6131 -2.9235 -0.1162
4.6054 -2.8877 -0.1166
4.5817 -2.8605 -0.1088
4.5948 -2.7729 -0.1243
4.5788 -2.7420 -0.1204
4.5752 -2.7033 -0.1230
4.5678 -2.6251 -0.1282
4.5729 -2.5786 -0.1355
4.5443 -2.5591 -0.1247
4.5366 -2.5231 -0.1251
4.5328 -2.4834 -0.1277
4.5211 -2.4510 -0.1260
4.5172 -2.4111 -0.1286
4.4941 -2.3909 -0.1203
4.4758 -2.3668 -0.1146
4.4675 -2.2884 -0.1194
4.4784 -2.2301 -0.1307
4.4596 -2.2080 -0.1246
4.4519 -2.1722 -0.1250
4.4552 -2.1216 -0.1320
4.4553 -2.0742 -0.1372
4.4325 -2.0597 -0.1284
4.4142 -2.0399 -0.1223
4.4030 -2.0099 -0.1205
4.7808 -4.0857 -0.0286
4.8579 -4.0611 -0.0636
4.9278 -3.9902 -0.1003
4.8244 -3.5343 -0.1033
4.7550 -3.2327 -0.1048
4.7269 -3.1990 -0.0964
4.7129 -3.0850 -0.1022
4.7146 -3.0445 -0.1070
4.6932 -2.9712 -0.1055
4.6947 -2.9297 -0.1104
4.6475 -2.8284 -0.1008
4.6437 -2.7890 -0.1033
4.6265 -2.7573 -0.0992
4.6061 -2.7284 -0.0936
4.6157 -2.6802 -0.1025
4.6258 -2.6303 -0.1119
4.5998 -2.6061 -0.1034
4.6007 -2.5620 -0.1083
4.5967 -2.5213 -0.1108
4.6023 -2.4720 -0.1181
4.5981 -2.4304 -0.1206
4.5773 -2.4043 -0.1145
4.5646 -2.3713 -0.1125
4.5565 -2.3338 -0.1130
4.5447 -2.3005 -0.1114
4.5450 -2.2537 -0.1163
4.5370 -2.2160 -0.1168
4.5326 -2.1738 -0.1192
4.5208 -2.1407 -0.1176
4.5209 -2.0924 -0.1226
4.5083 -2.0604 -0.1206
4.5002 -2.0227 -0.1210
4.4964 -1.9786 -0.1239
4.4840 -1.9471 -0.1219
4.4489 -1.9512 -0.1067
4.4340 -1.9257 -0.1030
4.7785 -4.0483 0.0050
4.7799 -4.0190 0.0017
5.0442 -4.0278 -0.1004
5.0985 -4.0095 -0.1233
5.0966 -3.9694 -0.1264
5.0803 -3.9247 -0.1243
5.0092 -3.8649 -0.1023
4.7319 -3.7554 -0.0048
5.0230 -3.7508 -0.1185
5.0140 -3.7090 -0.1190
4.9912 -3.6651 -0.1143
4.9892 -3.6245 -0.1174
4.9871 -3.5835 -0.1205
4.9713 -3.5412 -0.1184
4.9374 -3.4985 -0.1092
4.9037 -3.4573 -0.1000
4.9255 -3.4166 -0.1124
4.9489 -3.3741 -0.1256
4.9333 -3.3326 -0.1234
4.8935 -3.2939 -0.1116
4.8726 -3.2546 -0.1073
4.8695 -3.2131 -0.1100
4.8607 -3.1724 -0.1105
4.8702 -3.1275 -0.1184
4.8668 -3.0849 -0.1212
4.8525 -3.0450 -0.1194
4.8374 -3.0057 -0.1173
4.8525 -2.9561 -0.1279
4.8436 -2.9143 -0.1284
4.8407 -2.8699 -0.1315
4.8317 -2.8279 -0.1320
4.8106 -2.7918 -0.1272
4.8017 -2.7502 -0.1277
4.7646 -2.7243 -0.1157
4.7618 -2.6800 -0.1188
4.7581 -2.6359 -0.1216
4.7718 -2.5797 -0.1323
4.7628 -2.5379 -0.1328
4.7424 -2.5047 -0.1280
4.7335 -2.4632 -0.1285
4.7303 -2.4171 -0.1316
4.6948 -2.3984 -0.1196
4.7124 -2.3338 -0.1326
4.7035 -2.2922 -0.1331
4.6788 -2.2661 -0.1259
4.6497 -2.2459 -0.1165
4.6317 -2.2155 -0.1124
4.6277 -2.1703 -0.1152
4.6390 -2.1071 -0.1256
4.6302 -2.0661 -0.1261
4.6357 -2.0073 -0.1338
4.6320 -1.9591 -0.1370
4.6231 -1.9175 -0.1375
4.6142 -1.8758 -0.1380
4.6002 -1.8416 -0.1358
4.5544 -1.8550 -0.1167
4.4704 -1.9309 -0.0767
4.4625 -1.8937 -0.0772
4.8199 -3.9996 0.0218
4.8526 -3.9813 0.0084
4.8921 -3.9637 -0.0073
4.9176 -3.9389 -0.0186
5.0047 -3.9326 -0.0504
4.9776 -3.7748 -0.0547
5.0837 -3.7578 -0.0942
5.0674 -3.7134 -0.0923
5.0373 -3.6673 -0.0856
5.0351 -3.6258 -0.0885
5.0398 -3.5845 -0.0938
5.0169 -3.5406 -0.0895
5.0010 -3.4977 -0.0876
5.0004 -3.3693 -0.0988
4.9911 -3.3262 -0.0993
4.9894 -3.2822 -0.1025
4.9866 -3.2380 -0.1055
4.9708 -3.1955 -0.1036
4.9615 -3.1521 -0.1041
4.9448 -3.1104 -0.1018
4.9263 -3.0240 -0.1028
4.9108 -2.9829 -0.1009
4.9078 -2.9377 -0.1038
4.8831 -2.8540 -0.1024
4.8312 -2.5448 -0.1112
4.8309 -2.4445 -0.1200
4.8091 -2.4102 -0.1152
4.7817 -2.3813 -0.1080
4.7668 -2.3432 -0.1060
4.7633 -2.2954 -0.1090
4.7429 -2.2630 -0.1045
4.7449 -2.2095 -0.1100
4.7475 -2.1544 -0.1158
4.7437 -2.1052 -0.1188
4.7343 -2.0616 -0.1193
4.7134 -2.0314 -0.1145
4.7103 -1.9809 -0.1178
4.7010 -1.9375 -0.1183
4.6970 -1.8873 -0.1213
4.6764 -1.8587 -0.1165
4.6671 -1.8156 -0.1170
4.6638 -1.7640 -0.1204
4.5931 -1.8112 -0.0909
4.5256 -1.8597 -0.0624
4.4928 -1.8594 -0.0506
5.4697 -4.4007 -0.1214
5.4289 -4.3369 -0.1133
5.4087 -4.2836 -0.1110
5.3684 -4.2224 -0.1029
4.8494 -3.9416 0.0443
4.8670 -3.9152 0.0363
4.8968 -3.8915 0.0246
4.8890 -3.8548 0.0242
4.9264 -3.8304 0.0099
4.8957 -3.7869 0.0164
4.9692 -3.7677 -0.0093
5.0228 -3.7007 -0.0324
4.9948 -3.6565 -0.0268
4.9861 -3.6156 -0.0273
4.9773 -3.5746 -0.0278
4.9685 -3.5337 -0.0283
4.9724 -3.4933 -0.0329
5.1847 -3.4064 -0.1096
5.1744 -3.3586 -0.1102
5.1814 -3.3096 -0.1165
5.1976 -3.2585 -0.1260
5.1692 -3.2119 -0.1205
5.1588 -3.1634 -0.1210
5.1577 -3.1131 -0.1248
5.1130 -3.0720 -0.1135
5.0871 -3.0283 -0.1086
5.0843 -2.9789 -0.1118
5.0904 -2.9261 -0.1181
5.1054 -2.8692 -0.1277
5.1030 -2.8174 -0.1311
5.0925 -2.7683 -0.1317
5.0820 -2.7193 -0.1323
5.0635 -2.6741 -0.1300
5.0531 -2.6254 -0.1305
5.0426 -2.5766 -0.1311
5.0399 -2.5232 -0.1346
5.0132 -2.4844 -0.1290
4.9722 -2.4562 -0.1179
4.9696 -2.4033 -0.1214
4.9669 -2.3500 -0.1249
4.9641 -2.2962 -0.1284
4.9768 -2.2291 -0.1381
4.9286 -2.2123 -0.1236
4.9330 -2.1514 -0.1301
4.9299 -2.0964 -0.1336
4.9195 -2.0479 -0.1341
4.8948 -2.0140 -0.1288
4.8774 -1.9735 -0.1264
4.8813 -1.9102 -0.1329
4.8779 -1.8539 -0.1364
4.8606 -1.8137 -0.1340
4.8571 -1.7569 -0.1376
4.8544 -1.6987 -0.1414
4.8295 -1.6689 -0.1357
4.8124 -1.6299 -0.1333
4.8088 -1.5724 -0.1369
4.7660 -1.5717 -0.1229
4.6731 -1.6498 -0.0860
4.6267 -1.6637 -0.0697
5.5159 -4.4580 -0.0776
5.5836 -4.4455 -0.0987
5.6071 -4.4091 -0.1085
5.5720 -4.3456 -0.1028
5.4620 -4.2523 -0.0771
5.3339 -4.1565 -0.0462
5.0776 -4.0192 0.0197
4.9908 -3.9517 0.0405
4.9300 -3.8963 0.0544
4.9220 -3.8589 0.0540
4.8859 -3.8140 0.0613
4.8667 -3.7746 0.0640
4.8702 -3.7408 0.0604
4.9175 -3.7149 0.0444
4.9631 -3.6858 0.0286
4.9929 -3.6517 0.0172
5.0233 -3.6157 0.0054
5.3216 -3.5521 -0.0883
5.3392 -3.4518 -0.1011
5.3389 -3.4001 -0.1049
5.3172 -3.3490 -0.1023
5.3061 -3.2975 -0.1029
5.2951 -3.2461 -0.1035
5.3040 -3.1920 -0.1102
5.3033 -3.1383 -0.1141
5.2921 -3.0860 -0.1147
5.2706 -3.0360 -0.1121
5.2502 -2.9864 -0.1098
5.1759 -2.7357 -0.1066
5.1836 -2.6761 -0.1134
5.1539 -2.6334 -0.1078
5.1254 -2.5914 -0.1025
5.0842 -2.4450 -0.1013
5.0734 -2.3947 -0.1019
5.0626 -2.3443 -0.1025
5.0349 -2.3064 -0.0971
5.0494 -2.2372 -0.1066
5.0469 -2.1799 -0.1102
5.0443 -2.1220 -0.1138
5.0251 -2.0781 -0.1114
5.0142 -2.0273 -0.1120
5.0033 -1.9764 -0.1126
5.0173 -1.9004 -0.1225
5.0230 -1.8311 -0.1295
5.0117 -1.7788 -0.1301
4.9919 -1.7363 -0.1274
4.9565 -1.7128 -0.1186
4.9378 -1.6712 -0.1162
4.9269 -1.6203 -0.1168
4.9084 -1.5794 -0.1144
4.8975 -1.5288 -0.1150
4.9017 -1.4571 -0.1216
4.8258 -1.5002 -0.0958
4.7814 -1.5025 -0.0824
5.8032 -4.5396 -0.0956
5.6588 -4.4222 -0.0650
5.6222 -4.3574 -0.0597
5.6604 -4.3242 -0.0722
5.4649 -4.1987 -0.0285
5.3933 -4.1266 -0.0143
5.3733 -4.0749 -0.0125
5.3630 -4.0266 -0.0131
4.9127 -3.8159 0.0931
4.9099 -3.7801 0.0914
4.9247 -3.7478 0.0852
4.9885 -3.7238 0.0664
5.0260 -3.6917 0.0541
5.0365 -3.6534 0.0486
5.0913 -3.6192 0.0316
5.5079 -3.6130 -0.0806
5.6343 -3.5085 -0.1217
5.6484 -3.4498 -0.1296
5.6218 -3.3905 -0.1266
5.5828 -3.3327 -0.1201
5.5703 -3.2742 -0.1208
5.5327 -3.2185 -0.1146
5.5328 -3.1590 -0.1187
5.5203 -3.1009 -0.1194
5.5457 -3.0354 -0.1307
5.5330 -2.9763 -0.1314
5.4829 -2.9267 -0.1214
5.4584 -2.8721 -0.1186
5.4340 -2.8181 -0.1158
5.3759 -2.7768 -0.1031
5.3530 -2.7250 -0.1005
5.4089 -2.6411 -0.1214
5.4442 -2.5620 -0.1363
5.4074 -2.5144 -0.1297
5.3717 -2.4679 -0.1234
5.3479 -2.4165 -0.1206
5.3356 -2.3591 -0.1212
5.3120 -2.3087 -0.1184
5.3210 -2.1715 -0.1303
5.3316 -2.0966 -0.1383
5.2961 -2.0553 -0.1317
5.2727 -2.0060 -0.1288
5.2712 -1.9391 -0.1330
5.2587 -1.8810 -0.1337
5.2462 -1.8229 -0.1344
5.2559 -1.7437 -0.1425
5.2319 -1.6962 -0.1393
5.2089 -1.6487 -0.1365
5.1860 -1.6018 -0.1336
5.1736 -1.5441 -0.1343
5.1613 -1.4864 -0.1349
5.1489 -1.4286 -0.1356
5.1070 -1.4080 -0.1258
5.1141 -1.3262 -0.1334
5.1423 -1.2142 -0.1487
5.1297 -1.1554 -0.1494
5.0674 -1.1681 -0.1318
4.9094 -1.3279 -0.0784
5.6712 -4.5140 -0.0052
5.6856 -4.4239 -0.0144
5.7265 -4.3919 -0.0261
5.4465 -4.0915 0.0219
5.4464 -4.0450 0.0190
5.3097 -3.9589 0.0462
4.9754 -3.8271 0.1178
5.0412 -3.7678 0.0984
5.0460 -3.7297 0.0948
5.0434 -3.6898 0.0929
5.0417 -3.6497 0.0908
5.0888 -3.6146 0.0773
5.7784 -3.5083 -0.0943
5.8118 -3.4461 -0.1062
5.7552 -3.2566 -0.1046
5.7116 -3.1967 -0.0979
5.6693 -3.1384 -0.0915
5.6733 -2.9440 -0.1047
5.6448 -2.8851 -0.1016
5.5631 -2.8424 -0.0848
5.5632 -2.7780 -0.0888
5.5243 -2.7263 -0.0828
5.5243 -2.6615 -0.0869
5.5378 -2.5902 -0.0946
5.5510 -2.5173 -0.1024
5.5527 -2.2378 -0.1204
5.5250 -2.1829 -0.1172
5.5114 -2.1197 -0.1180
5.4979 -2.0566 -0.1187
5.3738 -1.3340 -0.1346
5.3354 -1.2986 -0.1276
5.2176 -1.3609 -0.0955
5.1625 -1.3541 -0.0828
5.3051 -1.0140 -0.1383
5.2799 -0.9659 -0.1353
5.6735 -4.5043 0.0496
5.7255 -4.4807 0.0373
5.7669 -4.4496 0.0268
6.1547 -4.5020 -0.0518
5.5585 -4.1688 0.0547
5.4299 -4.0781 0.0766
5.4097 -4.0261 0.0779
5.3417 -3.9610 0.0885
4.9499 -3.8151 0.1627
4.9714 -3.7845 0.1564
5.0187 -3.7579 0.1449
5.0436 -3.7243 0.1378
5.0484 -3.6859 0.1346
5.0530 -3.6468 0.1314
5.0933 -3.6108 0.1208
5.1280 -3.5718 0.1113
6.1270 -3.5134 -0.1022
6.1728 -3.4422 -0.1159
6.0775 -3.3713 -0.0999
6.2266 -3.2917 -0.1358
6.1259 -3.2234 -0.1185
6.0319 -3.1590 -0.1024
5.9253 -3.1009 -0.0833
6.0200 -3.0144 -0.1081
6.0047 -2.9431 -0.1089
6.0085 -2.8675 -0.1140
5.9741 -2.8006 -0.1106
5.8352 -2.7648 -0.0834
5.8545 -2.6863 -0.0919
5.9469 -2.5802 -0.1174
5.8593 -2.5359 -0.1015
5.8443 -2.4662 -0.1023
5.8294 -2.3965 -0.1031
5.9225 -2.2751 -0.1296
5.9258 -2.1925 -0.1350
5.8912 -2.1292 -0.1314
5.8578 -2.0666 -0.1279
5.8060 -2.0165 -0.1198
5.7397 -1.9783 -0.1081
5.7090 -1.9194 -0.1050
5.7957 -1.7770 -0.1313
5.8155 -1.6779 -0.1411
5.8205 -1.5005 -0.1522
5.7504 -1.4728 -0.1391
5.7180 -1.4151 -0.1355
5.6850 -1.3592 -0.1318
5.6696 -1.2874 -0.1326
5.7223 -1.1456 -0.1518
5.6893 -1.0898 -0.1480
5.6906 -0.9974 -0.1535
5.6249 -0.9807 -0.1407
5.5304 -1.0025 -0.1195
5.3137 -1.1826 -0.0637
5.2876 -1.1359 -0.0608
5.2733 -0.9943 -0.0659
5.1592 -1.0742 -0.0373
5.1160 -1.0596 -0.0291
5.6049 -4.4143 0.1126
5.6062 -4.3682 0.1100
5.5951 -4.3165 0.1094
5.7594 -4.2825 0.0778
5.4745 -4.1309 0.1220
5.3934 -4.0583 0.1331
5.3184 -3.9910 0.1433
5.0106 -3.7512 0.1872
5.0188 -3.6767 0.1819
5.0040 -3.6360 0.1825
5.0688 -3.6040 0.1691
5.1030 -3.5658 0.1609
5.1163 -3.5242 0.1564
5.9989 -3.4371 -0.0089
5.9312 -3.3709 0.0001
5.9170 -3.3046 -0.0007
5.8056 -3.2464 0.0166
5.8551 -3.1758 0.0040
6.0743 -3.0780 -0.0409
6.3180 -2.9625 -0.0912
6.4250 -2.8590 -0.1159
6.3389 -2.7069 -0.1080
6.2978 -2.6326 -0.1043
6.1227 -2.6023 -0.0739
6.0247 -2.5549 -0.0585
6.2693 -2.3825 -0.1118
6.2519 -2.3013 -0.1128
6.2346 -2.2202 -0.1137
6.1485 -2.1718 -0.1005
6.1097 -2.1039 -0.0969
6.1372 -2.0014 -0.1071
6.1425 -1.9087 -0.1128
6.1253 -1.8283 -0.1137
6.1302 -1.7335 -0.1194
6.1128 -1.6524 -0.1204
6.0954 -1.5713 -0.1213
6.0563 -1.5065 -0.1175
6.0830 -1.3913 -0.1282
6.0886 -1.2904 -0.1344
6.1169 -1.1681 -0.1458
6.0304 -1.1459 -0.1311
5.9490 -1.1241 -0.1174
5.8710 -1.1041 -0.1042
5.8742 -1.0060 -0.1098
5.8977 -0.8849 -0.1202
5.9010 -0.7826 -0.1260
5.8838 -0.7022 -0.1270
5.9293 -0.5474 -0.1431
5.9547 -0.4118 -0.1547
5.8725 -0.4095 -0.1398
5.8549 -0.3276 -0.1407
5.4186 -0.8156 -0.0364
5.2886 -0.9108 -0.0079
5.0805 -1.0558 0.0374
7.3114 -5.3490 -0.0562
7.1501 -5.1898 -0.0384
5.6427 -4.4215 0.1600
5.6080 -4.3592 0.1625
5.0146 -3.9640 0.2365
5.0065 -3.9262 0.2360
4.8120 -3.6405 0.2532
4.8141 -3.6075 0.2514
5.0785 -3.5600 0.2085
5.1426 -3.5219 0.1969
5.1812 -3.4793 0.1890
6.5623 -3.2645 -0.0340
6.8020 -2.9736 -0.0841
6.9502 -2.8539 -0.1124
6.7315 -2.7971 -0.0812
6.6510 -2.7204 -0.0722
6.6320 -2.6317 -0.0732
6.6427 -2.5344 -0.0792
6.2549 -2.5616 -0.0181
6.2152 -2.4905 -0.0152
6.3922 -2.3386 -0.0493
6.5368 -2.1878 -0.0784
6.7120 -1.9090 -0.1180
6.5668 -1.8773 -0.0970
6.6083 -1.7529 -0.1090
6.6191 -1.6420 -0.1157
6.6952 -1.4894 -0.1343
6.6744 -1.3923 -0.1354
6.5284 -1.3802 -0.1134
6.5084 -1.2870 -0.1145
6.4586 -1.2161 -0.1100
6.5285 -1.0534 -0.1281
6.5384 -0.9335 -0.1350
6.5496 -0.8102 -0.1422
6.4375 -0.7950 -0.1256
4.8965 -4.0123 0.2919
4.8654 -3.8435 0.2893
4.8581 -3.8092 0.2889
4.8356 -3.7713 0.2903
4.8046 -3.7321 0.2927
4.7750 -3.6944 0.2950
4.7510 -3.6587 0.2966
5.1534 -3.4753 0.2383
5.1839 -3.4311 0.2327
6.5587 -3.2602 0.0512
5.9562 -3.2276 0.1266
6.8269 -2.9672 0.0057
7.2445 -2.8017 -0.0539
6.9559 -2.7511 -0.0191
6.5052 -2.7529 0.0382
6.6271 -2.6329 0.0181
6.1059 -2.5303 0.0803
5.9904 -2.4933 0.0936
6.2963 -2.2900 0.0467
6.6619 -2.0400 -0.0095
6.9846 -1.7857 -0.0605
6.6045 -1.4472 -0.0253
6.6801 -1.2885 -0.0412
6.7261 -1.1442 -0.0526
6.7384 -1.0201 -0.0590
6.4933 -0.7616 -0.0380
6.5345 -0.6093 -0.0491
6.5451 -0.4819 -0.0555
6.4617 -0.4467 -0.0462
5.2709 -4.3110 0.2989
4.9188 -4.0464 0.3254
4.8956 -4.0058 0.3263
4.9469 -3.9943 0.3208
4.9036 -3.8165 0.3192
4.8753 -3.7763 0.3207
4.8430 -3.7362 0.3226
4.8357 -3.7023 0.3222
4.7726 -3.6587 0.3271
4.7486 -3.6236 0.3284
4.7502 -3.5925 0.3272
4.8108 -3.5668 0.3202
5.0160 -3.4691 0.2964
5.0745 -3.4287 0.2892
5.1701 -3.3835 0.2781
6.0474 -3.2166 0.1846
5.8280 -3.1713 0.2051
6.7567 -2.9743 0.1055
6.6778 -2.8957 0.1108
6.3659 -2.8668 0.1411
6.2121 -2.8189 0.1549
6.3320 -2.7087 0.1392
6.1908 -2.5028 0.1465
6.0100 -2.4882 0.1642
6.2947 -2.2940 0.1292
6.9590 -1.9140 0.0500
7.1730 -1.7030 0.0215
5.2751 -4.3417 0.3416
5.3068 -4.3199 0.3387
4.9251 -4.0736 0.3600
4.8927 -4.0290 0.3612
4.9106 -4.0057 0.3592
5.0007 -4.0085 0.3527
4.7278 -3.7651 0.3661
4.7180 -3.7337 0.3659
4.7868 -3.7196 0.3605
4.8254 -3.6961 0.3570
4.7902 -3.6579 0.3585
4.7574 -3.6213 0.3599
4.8966 -3.5716 0.3483
4.9448 -3.5395 0.3439
4.9547 -3.5028 0.3421
4.9758 -3.4654 0.3395
5.0579 -3.4260 0.3324
5.2577 -3.3777 0.3163
5.9103 -3.1593 0.2622
6.4467 -3.0158 0.2187
6.2208 -2.9717 0.2342
6.2708 -2.8845 0.2281
6.2108 -2.8186 0.2307
6.2165 -2.7383 0.2280
6.3857 -2.6100 0.2120
6.3684 -2.5296 0.2111
6.2562 -2.4820 0.2181
6.0893 -2.4607 0.2298
6.0535 -2.3954 0.2306
7.0793 -1.7532 0.1373
6.9684 -1.2361 0.1312
6.9089 -1.1577 0.1334
6.8870 -1.0554 0.1322
4.9806 -1.2750 0.2788
5.2647 -4.3644 0.3842
5.2947 -4.3430 0.3823
5.3266 -4.3208 0.3803
4.9240 -4.0667 0.3938
4.8718 -4.0142 0.3952
4.6958 -3.7801 0.3984
4.6940 -3.7519 0.3979
4.6954 -3.7242 0.3972
4.7000 -3.6969 0.3964
4.7493 -3.6775 0.3936
4.8518 -3.5978 0.3870
4.8957 -3.5681 0.3842
4.9093 -3.5338 0.3828
4.9650 -3.5001 0.3794
4.9800 -3.4626 0.3779
5.0492 -3.4233 0.3738
6.5984 -3.2446 0.2961
5.9255 -3.2212 0.3276
5.8308 -3.1661 0.3309
6.3474 -3.0276 0.3033
6.2198 -2.9702 0.3081
6.2040 -2.8967 0.3072
6.2312 -2.8134 0.3041
6.2371 -2.7331 0.3021
6.2209 -2.6578 0.3012
6.2264 -2.5757 0.2991
6.1887 -2.5072 0.2994
6.1094 -2.4556 0.3020
6.0146 -2.4142 0.3056
6.3214 -2.2022 0.2864
7.0303 -1.7820 0.2434
6.8637 -1.7532 0.2507
7.1855 -1.4741 0.2293
7.0812 -1.4130 0.2329
7.1397 -1.2602 0.2268
6.9967 -1.2289 0.2329
6.9001 -1.1748 0.2363
6.7726 -1.1475 0.2418
6.9301 -0.9187 0.2292
6.8710 -0.8436 0.2304
6.8133 -0.7701 0.2315
6.6556 -0.7829 0.2393
6.7011 -0.6280 0.2337
6.6798 -0.5289 0.2326
6.6917 -0.3984 0.2292
6.6044 -0.3632 0.2325
6.5516 -0.2978 0.2336
6.5308 -0.2008 0.2325
6.4193 -0.2039 0.2378
6.4580 -0.0424 0.2325
6.4374 0.0536 0.2313
6.3305 0.0438 0.2366
6.3385 0.1725 0.2334
4.9652 -1.3789 0.3329
5.3735 -4.3735 0.4225
4.9194 -4.0884 0.4277
4.9029 -4.0512 0.4275
4.8622 -4.0042 0.4276
4.6926 -3.7749 0.4275
4.6908 -3.7469 0.4271
4.6957 -3.7203 0.4265
4.7082 -3.6948 0.4258
4.7030 -3.6361 0.4250
4.8763 -3.5972 0.4206
4.9163 -3.5666 0.4192
4.9418 -3.5327 0.4181
5.0052 -3.4987 0.4161
5.1029 -3.4615 0.4134
6.2913 -3.4066 0.3865
6.5325 -3.3246 0.3799
6.5677 -3.2422 0.3778
5.8778 -3.2225 0.3925
5.7726 -3.1705 0.3940
6.7493 -2.8774 0.3678
6.4561 -2.8451 0.3737
6.2960 -2.7980 0.3764
6.3027 -2.7162 0.3749
6.2415 -2.6525 0.3752
6.2254 -2.5772 0.3743
6.1659 -2.5168 0.3746
6.0493 -2.4804 0.3766
6.0340 -2.4092 0.3757
5.9627 -2.3623 0.3765
6.9111 -1.8434 0.3472
7.0693 -1.4284 0.3370
7.1689 -1.2527 0.3319
7.1460 -1.1457 0.3306
6.9648 -1.1433 0.3346
6.9061 -1.0666 0.3346
7.1183 -0.7949 0.3255
7.5626 -0.3298 0.3081
6.7706 -0.8191 0.3335
6.7153 -0.7485 0.3335
6.5973 -0.7349 0.3359
6.6733 -0.5524 0.3312
6.6197 -0.4851 0.3313
6.5361 -0.4497 0.3325
6.6431 -0.2247 0.3265
6.6219 -0.1256 0.3253
6.6332 0.0091 0.3229
6.5471 0.0358 0.3243
6.4949 0.0971 0.3244
6.4431 0.1564 0.3246
6.4533 0.2912 0.3222
5.5050 -4.5513 0.4675
5.4857 -4.5008 0.4669
5.5059 -4.4708 0.4666
4.8943 -4.0707 0.4601
4.7247 -3.7515 0.4560
4.7071 -3.7190 0.4556
4.6974 -3.6887 0.4552
4.6944 -3.6598 0.4549
4.7068 -3.6333 0.4546
4.8155 -3.6189 0.4548
4.8706 -3.5930 0.4548
4.9207 -3.5636 0.4546
4.9637 -3.5309 0.4544
6.5805 -3.3180 0.4577
6.5634 -3.2383 0.4568
5.8323 -3.2239 0.4541
5.9137 -3.1516 0.4535
6.7619 -2.9627 0.4544
6.7433 -2.8764 0.4534
6.5830 -2.8185 0.4522
6.2944 -2.7978 0.4510
6.2339 -2.7339 0.4501
6.1758 -2.6718 0.4492
6.1403 -2.6052 0.4483
6.1654 -2.5188 0.4475
6.1289 -2.4530 0.4466
6.1338 -2.3718 0.4457
6.9464 -1.5057 0.4390
7.1160 -1.2938 0.4373
6.9396 -1.2853 0.4366
6.9554 -1.1606 0.4353
6.8614 -1.1094 0.4344
6.8402 -1.0103 0.4332
7.4926 -0.3998 0.4288
6.8686 -0.7559 0.4305
6.7087 -0.7693 0.4301
6.7552 -0.6140 0.4285
6.7001 -0.5455 0.4276
6.6463 -0.4782 0.4267
6.6915 -0.3168 0.4250
6.4814 -0.4091 0.4253
6.5838 -0.1872 0.4232
6.5105 -0.0289 0.4212
6.5214 0.1039 0.4198
6.5006 0.2009 0.4187
6.4798 0.2980 0.4175
6.2856 0.1711 0.4183
5.6001 -4.5934 0.5148
4.7113 -3.7989 0.4850
4.7051 -3.7699 0.4847
4.7068 -3.7428 0.4846
4.7073 -3.7151 0.4844
4.7089 -3.6874 0.4843
4.7025 -3.6578 0.4840
4.7039 -3.6294 0.4838
4.8521 -3.6203 0.4880
4.8899 -3.5917 0.4889
4.8988 -3.5583 0.4890
5.9459 -3.5263 0.5186
5.9165 -3.4642 0.5174
6.0016 -3.4013 0.5195
6.5003 -3.3166 0.5332
6.2998 -3.2516 0.5271
5.9279 -3.2123 0.5163
5.9143 -3.1491 0.5156
6.5599 -2.9896 0.5331
6.6791 -2.8856 0.5359
6.4826 -2.7542 0.5295
6.1698 -2.7503 0.5206
6.1341 -2.6843 0.5192
6.2223 -2.5805 0.5212
6.2284 -2.4989 0.5209
6.2124 -2.4242 0.5200
6.2398 -2.3321 0.5202
7.0482 -1.4571 0.5383
6.9161 -1.4210 0.5343
7.0048 -1.2547 0.5359
6.9831 -1.1535 0.5347
6.9988 -1.0267 0.5345
6.7976 -1.0536 0.5289
6.7768 -0.9566 0.5278
6.6267 -0.9616 0.5235
6.9110 -0.6175 0.5297
6.7144 -0.6655 0.5243
6.6603 -0.5983 0.5224
6.6084 -0.5314 0.5206
6.5677 -0.3413 0.5183
6.5473 -0.2462 0.5172
6.6217 -0.0485 0.5182
6.4763 -0.0900 0.5143
6.4561 0.0041 0.5132
6.5271 0.2078 0.5141
6.5698 0.3836 0.5143
6.5166 0.4417 0.5124
5.2451 -4.2495 0.5417
4.7165 -3.7688 0.5134
4.7182 -3.7416 0.5135
4.7154 -3.7131 0.5133
4.7136 -3.6846 0.5132
4.6960 -3.6531 0.5123
4.8813 -3.6206 0.5221
4.9104 -3.5904 0.5236
4.9403 -3.5585 0.5252
5.8889 -3.3989 0.5755
5.9390 -3.3355 0.5782
5.8629 -3.2775 0.5741
5.7069 -3.2302 0.5658
5.7642 -3.1648 0.5688
5.7945 -3.0997 0.5704
6.0232 -2.9977 0.5825
6.6281 -2.8069 0.6145
6.4786 -2.7545 0.6066
6.2157 -2.6616 0.5926
6.1586 -2.6017 0.5895
6.1643 -2.5226 0.5898
6.1488 -2.4502 0.5890
6.3292 -2.2992 0.5985
6.2008 -2.2696 0.5917
7.0759 -1.4500 0.6378
7.0925 -1.3263 0.6386
7.1507 -1.1745 0.6417
7.0487 -1.1218 0.6362
6.9156 -1.0955 0.6292
6.8241 -1.0468 0.6243
6.9084 -0.8708 0.6287
6.6522 -0.9551 0.6151
6.6322 -0.8619 0.6140
6.6752 -0.7149 0.6163
6.9713 -0.3379 0.6318
6.6029 -0.5540 0.6124
6.5827 -0.4599 0.6113
6.5021 -0.4262 0.6070
6.6042 -0.2075 0.6123
6.6485 -0.0416 0.6146
6.6606 0.0934 0.6152
6.6723 0.2304 0.6158
6.5536 0.2146 0.6095
6.6294 0.4306 0.6134
5.5632 -4.5530 0.6031
4.9532 -4.1079 0.5581
4.8921 -4.0513 0.5536
4.7640 -3.9155 0.5444
4.7182 -3.7376 0.5417
4.7234 -3.7110 0.5422
4.7216 -3.6825 0.5422
4.7108 -3.6522 0.5415
4.8304 -3.6420 0.5508
4.8660 -3.6150 0.5537
5.0088 -3.5608 0.5650
5.1594 -3.5324 0.5768
5.2754 -3.4951 0.5860
5.3825 -3.4515 0.5945
5.4005 -3.4037 0.5961
5.3805 -3.3561 0.5948
5.4602 -3.2511 0.6015
5.4706 -3.1982 0.6025
5.4703 -3.1458 0.6027
5.5034 -3.0869 0.6056
5.5724 -3.0185 0.6113
5.8657 -2.8284 0.6349
5.6769 -2.8156 0.6203
5.7919 -2.7176 0.6297
5.6793 -2.6901 0.6211
5.6798 -2.6264 0.6215
5.9446 -2.4561 0.6428
6.1574 -2.2918 0.6600
7.2241 -1.3763 0.7469
7.2433 -1.2475 0.7490
7.1380 -1.1926 0.7412
7.0384 -1.1393 0.7337
7.0167 -1.0381 0.7325
6.8507 -1.0400 0.7197
6.9733 -0.8358 0.7302
7.2330 -0.5147 0.7518
6.7882 -0.7489 0.7163
6.7012 -0.7082 0.7097
6.6177 -0.6690 0.7035
6.6922 -0.4888 0.7101
6.6716 -0.3928 0.7090
6.6842 -0.2638 0.7106
6.5993 -0.2329 0.7041
6.6753 -0.0347 0.7110
6.4679 -0.1430 0.6944
5.1657 -4.2983 0.6092
4.9693 -4.1386 0.5909
4.8748 -4.0660 0.5821
4.7693 -3.8854 0.5732
4.7102 -3.6766 0.5693
4.7347 -3.6529 0.5720
4.8585 -3.6426 0.5847
4.8751 -3.6127 0.5867
4.9184 -3.5844 0.5913
5.0681 -3.5620 0.6067
5.2804 -3.5354 0.6285
6.5885 -3.2992 0.7633
6.4261 -3.2317 0.7475
6.2577 -3.1723 0.7310
6.1829 -3.1093 0.7241
6.0556 -3.0574 0.7117
5.9897 -3.0006 0.7056
6.3997 -2.7714 0.7494
5.9991 -2.7941 0.7086
5.8395 -2.7036 0.6934
5.9068 -2.6138 0.7011
6.0503 -2.4911 0.7168
6.2142 -2.3511 0.7348
6.9965 -1.4003 0.8235
7.0122 -1.2797 0.8263
7.0661 -1.1322 0.8332
7.0826 -1.0051 0.8362
6.9846 -0.9569 0.8267
7.0775 -0.7717 0.8380
7.0553 -0.6683 0.8367
6.6832 -0.8488 0.7973
6.7596 -0.6741 0.8067
6.8423 -0.4872 0.8170
6.7523 -0.4510 0.8082
6.5723 -0.5055 0.7894
6.7785 -0.1900 0.8135
6.7914 -0.0559 0.8161
6.5129 -0.2288 0.7862
6.3796 -0.2613 0.7724
5.5983 -4.5518 0.6946
5.6193 -4.5215 0.6977
4.8765 -4.0885 0.6114
4.8345 -4.0418 0.6069
4.8618 -3.6395 0.6163
4.9149 -3.6141 0.6233
5.0169 -3.5546 0.6370
5.1451 -3.5246 0.6534
6.6359 -3.2925 0.8430
6.3789 -3.2313 0.8118
6.0212 -3.0606 0.7697
5.9563 -3.0051 0.7625
6.4134 -2.8466 0.8219
6.4688 -2.7550 0.8302
6.4041 -2.6902 0.8231
6.3650 -2.6208 0.8193
6.2816 -2.5665 0.8097
6.2658 -2.4930 0.8088
6.2501 -2.4195 0.8079
6.3004 -2.3197 0.8157
7.0979 -1.3503 0.9298
7.0022 -1.2954 0.9187
7.0181 -1.1737 0.9225
6.8551 -1.1702 0.9022
6.6430 -1.2106 0.8752
6.9543 -0.8765 0.9190
6.6964 -0.9604 0.8856
6.6766 -0.8681 0.8845
6.7859 -0.6673 0.9011
6.7653 -0.5713 0.9000
6.6801 -0.5342 0.8899
6.6599 -0.4400 0.8888
6.7372 -0.2501 0.9013
6.7499 -0.1190 0.9049
6.6308 -0.1245 0.8899
6.5487 -0.0968 0.8801
6.5288 -0.0036 0.8790
5.3583 -1.0346 0.7174
5.6308 -4.6002 0.7418
5.6982 -4.5515 0.7528
4.8318 -4.0617 0.6343
4.8095 -4.0249 0.6317
4.6786 -3.8447 0.6159
4.6561 -3.8123 0.6133
4.8708 -3.6372 0.6486
4.8889 -3.6074 0.6518
4.9271 -3.5785 0.6581
4.9909 -3.5493 0.6681
5.0562 -3.5168 0.6784
6.4906 -3.2195 0.8968
6.3832 -3.1538 0.8822
6.2605 -3.0947 0.8652
6.1524 -2.9691 0.8517
6.7282 -2.6948 0.9424
6.5745 -2.6464 0.9206
6.4086 -2.6090 0.8968
6.3017 -2.5613 0.8819
6.2434 -2.5023 0.8745
6.3371 -2.3897 0.8906
7.0290 -1.2885 1.0151
7.1214 -1.1180 1.0322
7.0608 -1.0429 1.0247
6.9660 -0.9944 1.0116
7.0563 -0.8145 1.0286
6.8533 -0.8527 0.9978
6.8327 -0.7566 0.9967
6.9177 -0.5723 1.0129
6.8964 -0.4733 1.0118
6.7709 -0.4686 0.9933
6.7503 -0.3726 0.9921
6.7298 -0.2765 0.9910
6.7092 -0.1805 0.9899
6.6886 -0.0845 0.9888
6.6680 0.0115 0.9876
6.3109 -0.1633 0.9313
6.2924 -0.0769 0.9303
5.6449 -4.5565 0.7886
4.6715 -3.8379 0.6401
4.6633 -3.8105 0.6394
4.6636 -3.7856 0.6401
5.3244 -3.9025 0.7501
4.8357 -3.6592 0.6726
4.8798 -3.6349 0.6808
4.9129 -3.6068 0.6872
4.9308 -3.5755 0.6910
4.9667 -3.5443 0.6979
5.0055 -3.5112 0.7054
5.1034 -3.4773 0.7229
6.6715 -3.1221 0.9999
6.6818 -3.0396 1.0037
6.8406 -2.6684 1.0401
6.5697 -2.6477 0.9943
6.5275 -2.5758 0.9889
6.4131 -2.5278 0.9705
6.6242 -2.3747 1.0105
7.0192 -1.3038 1.1047
6.9274 -1.2519 1.0903
6.9775 -1.1098 1.1024
6.9207 -1.0380 1.0944
7.1226 -0.7790 1.1354
7.0238 -0.7356 1.1196
6.9297 -0.6934 1.1046
6.9447 -0.5654 1.1103
6.7517 -0.6151 1.0761
6.7643 -0.4914 1.0813
6.8111 -0.3336 1.0932
6.6911 -0.3327 1.0728
6.5780 -0.3322 1.0534
6.6624 -0.0161 1.0757
5.7121 -4.5812 0.8442
4.8543 -4.0871 0.6928
4.7830 -4.0278 0.6808
4.7247 -3.9769 0.6710
4.7131 -3.9228 0.6704
4.7012 -3.8935 0.6689
4.6763 -3.8352 0.6659
4.6803 -3.8116 0.6673
4.6444 -3.6761 0.6644
4.8864 -3.6638 0.7116
4.8945 -3.6334 0.7141
4.9268 -3.6050 0.7212
4.9402 -3.5731 0.7247
4.9546 -3.5403 0.7285
4.9687 -3.5064 0.7323
5.0812 -3.4738 0.7550
7.7707 -3.2220 1.2831
6.6834 -3.1976 1.0734
6.6401 -3.1219 1.0672
6.4522 -3.0656 1.0325
6.8398 -2.8443 1.1142
6.7635 -2.7721 1.1015
6.4267 -2.6049 1.0413
6.3197 -2.5579 1.0220
6.7317 -2.3401 1.1082
7.0041 -1.1030 1.1978
6.9833 -1.0059 1.1966
6.9985 -0.8826 1.2032
7.0899 -0.6991 1.2264
6.8852 -0.7432 1.1855
6.7976 -0.7026 1.1697
6.7774 -0.6085 1.1686
6.7903 -0.4847 1.1748
6.9438 -0.2280 1.2121
6.7495 -0.2946 1.1726
6.6029 -0.3258 1.1432
6.6451 -0.1704 1.1560
5.7252 -4.5779 0.8911
4.8005 -4.0558 0.7096
4.7379 -4.0020 0.6979
4.7008 -3.9614 0.6913
4.7413 -3.9541 0.7003
4.7242 -3.9224 0.6977
4.6876 -3.8838 0.6911
4.6855 -3.7840 0.6941
4.6592 -3.7516 0.6896
4.6668 -3.7284 0.6920
4.6551 -3.7004 0.6904
4.6624 -3.6764 0.6929
4.8953 -3.6615 0.7436
4.9035 -3.6311 0.7465
4.8965 -3.5981 0.7461
4.9241 -3.5684 0.7531
4.9584 -3.5375 0.7615
4.9784 -3.5040 0.7670
5.0541 -3.4703 0.7845
7.1146 -3.2502 1.2369
6.6524 -3.1961 1.1390
6.4881 -3.1340 1.1057
6.6977 -3.0319 1.1545
6.4161 -2.6871 1.1056
6.3114 -2.6382 1.0847
6.3183 -2.5594 1.0889
7.1689 -1.3441 1.3144
7.0306 -1.0962 1.2932
6.9040 -1.0724 1.2667
7.0626 -0.8487 1.3086
7.0414 -0.7496 1.3075
6.9473 -0.7081 1.2886
6.7259 -0.7762 1.2384
6.8031 -0.6019 1.2611
6.6562 -0.6206 1.2288
6.8992 -0.2875 1.2927
6.7106 -0.3502 1.2498
6.8225 -0.1259 1.2817
6.5488 -0.2893 1.2170
5.7249 -6.1210 1.0807
4.7528 -5.4548 0.8878
4.6591 -5.4015 0.8718
4.5212 -5.4410 0.8763
4.4636 -5.4341 0.8726
4.4204 -5.4523 0.8754
4.3773 -5.4716 0.8784
4.3293 -5.4818 0.8791
4.2771 -5.4828 0.8775
4.2198 -5.6009 0.9035
4.4706 -6.6761 1.1679
4.1954 -6.9013 1.2117
3.9614 -7.7474 1.4044
3.8687 -7.8584 1.4275
3.7621 -7.8348 1.4181
2.8278 -8.1270 1.4543
2.7552 -7.9600 1.4120
2.6638 -7.9355 1.4029
2.5834 -7.8693 1.3843
1.1810 -8.4300 1.4677
1.1286 -8.1787 1.4061
1.0812 -8.1077 1.3875
0.9862 -8.1279 1.3890
5.9161 -6.1278 1.0219
5.8437 -6.1432 1.0230
5.7714 -6.1586 1.0241
5.6990 -6.1739 1.0252
5.6267 -6.1893 1.0262
5.5543 -6.2047 1.0273
5.4516 -6.1818 1.0192
4.8199 -5.5395 0.8618
4.8792 -5.8089 0.9215
4.5745 -5.5234 0.8508
4.4751 -5.4483 0.8316
4.4269 -5.4585 0.8323
4.3694 -5.4506 0.8288
4.2863 -5.4985 0.8366
4.2421 -5.5191 0.8396
4.2047 -5.5584 0.8469
4.2090 -6.9665 1.1497
4.1555 -7.1390 1.1851
4.1027 -7.3629 1.2316
4.0261 -7.4967 1.2580
3.9254 -7.4778 1.2509
3.8660 -7.8788 1.3352
3.7748 -8.0974 1.3794
2.7246 -8.0745 1.3422
2.6020 -8.1957 1.3645
1.3914 -8.1387 1.3150
1.2234 -8.3032 1.3452
1.0729 -8.2479 1.3287
0.9994 -8.2221 1.3209
0.9014 -8.2429 1.3223
6.2223 -6.0670 0.9501
6.1082 -6.0457 0.9431
5.9983 -6.0257 0.9364
5.9275 -6.0407 0.9375
5.8743 -6.0732 0.9423
5.8031 -6.0883 0.9434
5.7318 -6.1035 0.9445
5.6941 -6.1560 0.9536
5.6388 -6.1911 0.9589
5.5337 -6.1679 0.9517
5.4468 -6.1641 0.9487
5.3331 -6.1238 0.9381
4.5905 -5.2888 0.7586
4.8421 -5.8479 0.8724
4.7652 -5.8332 0.8676
4.4719 -5.4363 0.7838
4.4285 -5.4555 0.7864
4.3315 -5.4762 0.7879
4.2876 -5.4966 0.7907
4.2547 -5.5448 0.7990
4.2210 -5.5964 0.8081
4.2033 -6.9456 1.0666
4.1311 -7.0233 1.0796
4.1222 -7.4911 1.1691
4.0488 -7.6757 1.2027
3.9236 -7.4933 1.1644
3.8426 -7.6762 1.1974
3.7608 -7.9705 1.2518
2.6242 -8.5869 1.3407
2.6047 -8.1196 1.2505
2.4780 -8.2433 1.2710
1.1414 -8.4308 1.2724
1.1154 -8.2996 1.2466
1.0908 -8.1769 1.2224
0.9928 -8.1978 1.2239
0.8948 -8.2186 1.2253
6.1234 -6.0457 0.8755
6.0315 -6.0431 0.8731
5.9597 -6.0584 0.8742
5.9256 -6.1109 0.8823
5.8714 -6.1457 0.8871
5.7798 -6.1420 0.8845
5.6892 -6.1380 0.8820
5.6339 -6.1730 0.8867
5.5774 -6.2082 0.8915
5.4125 -6.1096 0.8714
5.3153 -6.0894 0.8659
4.7262 -5.4756 0.7501
4.7290 -5.5667 0.7656
4.8120 -5.7921 0.8053
4.7452 -5.7919 0.8039
4.4844 -5.4519 0.7411
4.4252 -5.4435 0.7384
4.3374 -5.4832 0.7433
4.2970 -5.5127 0.7474
4.2513 -5.5324 0.7498
4.2056 -5.5532 0.7523
4.1253 -7.0020 0.9950
4.1026 -7.3902 1.0599
4.0360 -7.6088 1.0954
3.9459 -7.7152 1.1115
3.8358 -7.6513 1.0984
3.7414 -7.7587 1.1145
3.4281 -8.5048 1.2338
2.5144 -8.0197 1.1329
1.3109 -8.2314 1.1434
1.0534 -8.5679 1.1948
1.1089 -8.1065 1.1182
1.0369 -8.0820 1.1125
0.9409 -8.1024 1.1140
6.4079 -5.9662 0.7995
6.1815 -6.0835 0.8129
6.0267 -6.0253 0.8021
5.9548 -6.0406 0.8031
5.9207 -6.0928 0.8102
5.8852 -6.1465 0.8174
5.7748 -6.1239 0.8123
5.7546 -6.1973 0.8227
5.6120 -6.1354 0.8114
5.5240 -6.1322 0.8096
5.4522 -6.1475 0.8107
5.2329 -5.9713 0.7816
4.7429 -5.4916 0.7043
4.8883 -5.9030 0.7662
4.7489 -5.7900 0.7476
4.3523 -5.5088 0.7006
4.2977 -5.5095 0.6998
4.2480 -5.5200 0.7005
4.2022 -5.5408 0.7028
4.2970 -6.3712 0.8248
4.1701 -7.2389 0.9486
4.1091 -7.4429 0.9772
4.0412 -7.6681 1.0088
3.9390 -7.6898 1.0103
3.8448 -7.8010 1.0249
3.7317 -7.6900 1.0070
3.4239 -8.1374 1.0670
3.3222 -7.9121 1.0327
3.2148 -7.9821 1.0412
3.0963 -8.1555 1.0644
2.9693 -8.3406 1.0893
2.8775 -8.2020 1.0677
2.7598 -8.2787 1.0770
2.4969 -8.0415 1.0384
1.2805 -8.2552 1.0501
1.1008 -8.4317 1.0728
1.1518 -8.1531 1.0332
1.0528 -8.1742 1.0347
1.0304 -8.0582 1.0175
0.9605 -8.0335 1.0128
6.1859 -5.9944 0.7312
6.1345 -6.0282 0.7347
6.0820 -6.0623 0.7383
6.0283 -6.0966 0.7419
5.9543 -6.1124 0.7430
5.8428 -6.0903 0.7391
5.7518 -6.0867 0.7377
5.6461 -6.0656 0.7340
5.5748 -6.0807 0.7350
5.5036 -6.0959 0.7361
5.4323 -6.1110 0.7372
5.0813 -5.7648 0.6915
4.9181 -5.6392 0.6745
4.7823 -5.5394 0.6609
4.8459 -5.7244 0.6840
4.8385 -5.8165 0.6951
4.7137 -5.7241 0.6826
4.3489 -5.4964 0.6511
4.2944 -5.4971 0.6506
4.2489 -5.5177 0.6526
4.1988 -5.5283 0.6533
4.1709 -5.5997 0.6616
4.2729 -6.0687 0.7195
4.2510 -6.2195 0.7376
4.1738 -6.8269 0.8103
4.1995 -7.3982 0.8797
4.0438 -7.0704 0.8384
3.7690 -7.0024 0.8272
3.7222 -7.6229 0.9018
3.6417 -8.1678 0.9669
3.5290 -8.2474 0.9753
3.4171 -8.0586 0.9513
3.3186 -7.7949 0.9183
2.9908 -8.0500 0.9456
2.8970 -7.9751 0.9355
2.7925 -7.9973 0.9371
2.6791 -8.0683 0.9445
2.4964 -8.4670 0.9908
1.3528 -8.2577 0.9531
1.1198 -8.5472 0.9856
0.8902 -8.8086 1.0148
0.9880 -8.4280 0.9698
1.1199 -8.0139 0.9211
1.0491 -7.9897 0.9174
6.1087 -5.9918 0.6607
6.0567 -6.0256 0.6636
6.0233 -6.0782 0.6686
5.9300 -6.0753 0.6677
5.8565 -6.0909 0.6688
5.7650 -6.0877 0.6680
5.6746 -6.0841 0.6672
5.5861 -6.0813 0.6664
5.5143 -6.0966 0.6675
5.4275 -6.0934 0.6667
5.0273 -5.6856 0.6249
4.5409 -5.5302 0.6071
4.4207 -5.4171 0.5955
4.3764 -5.4363 0.5971
4.3090 -5.5243 0.6052
4.2623 -5.5450 0.6070
4.1601 -5.5668 0.6085
4.4326 -6.8087 0.7303
4.1784 -7.2992 0.7764
3.8818 -6.1177 0.6603
3.5157 -7.6828 0.8098
3.4126 -7.8380 0.8243
3.3081 -7.8602 0.8259
3.1031 -7.8583 0.8245
2.9836 -8.0235 0.8398
2.8555 -8.2002 0.8562
2.5587 -8.6565 0.8988
2.5007 -8.3807 0.8717
2.2142 -7.9174 0.8252
1.6335 -7.9986 0.8298
1.5136 -8.0664 0.8357
1.3458 -8.2321 0.8508
0.9972 -8.7557 0.8996
1.0880 -8.1991 0.8462
1.0892 -8.0342 0.8302
0.9663 -8.1005 0.8359
6.1456 -6.0102 0.5917
6.0518 -6.0075 0.5915
5.9986 -6.0414 0.5939
5.8867 -6.0200 0.5923
5.8144 -6.0354 0.5934
5.7420 -6.0508 0.5945
5.6871 -6.0851 0.5969
5.5973 -6.0816 0.5966
5.5094 -6.0787 0.5964
5.3935 -6.0399 0.5935
5.1372 -5.8168 0.5773
4.4322 -5.4320 0.5492
4.3777 -5.4328 0.5492
4.3332 -5.4530 0.5507
4.2966 -5.4920 0.5535
4.2547 -5.5225 0.5557
4.1329 -5.8314 0.5779
4.1187 -6.0011 0.5902
4.0602 -6.0297 0.5923
3.6897 -6.1763 0.6027
3.4055 -7.8120 0.7209
3.3066 -7.7007 0.7128
3.1933 -7.9034 0.7274
2.7830 -8.6385 0.7804
2.4164 -8.7164 0.7859
2.1364 -8.1282 0.7432
1.7136 -8.2182 0.7495
1.6268 -7.9741 0.7318
1.5278 -7.9951 0.7333
1.2355 -8.2284 0.7501
1.0015 -8.3233 0.7568
1.0327 -8.1004 0.7407
0.9337 -8.1215 0.7422
5.9739 -6.0049 0.5204
5.9010 -6.0204 0.5215
5.8466 -6.0544 0.5234
5.7371 -6.0328 0.5229
5.6429 -6.1202 0.5275
5.5688 -6.1360 0.5286
5.4037 -6.0407 0.5249
4.6454 -5.4046 0.4984
4.6134 -5.4435 0.5004
4.5222 -5.4843 0.5028
4.4547 -5.4666 0.5023
4.3988 -5.4678 0.5026
4.3482 -5.4785 0.5034
4.2387 -5.4804 0.5040
4.1848 -5.4812 0.5043
4.1386 -5.5017 0.5055
4.1124 -5.5832 0.5095
4.1330 -5.8300 0.5211
4.1613 -6.4353 0.5497
4.0920 -6.4725 0.5518
3.9596 -6.1907 0.5390
3.8627 -6.0232 0.5316
3.7965 -6.0052 0.5310
3.7321 -5.9890 0.5306
3.6928 -6.2475 0.5430
3.2919 -7.8547 0.6212
1.9901 -8.2267 0.6452
1.0411 -8.5792 0.6665
1.0218 -8.2467 0.6509
1.0298 -7.9190 0.6353
5.8060 -5.8367 0.4466
5.8960 -6.0023 0.4493
5.8601 -6.0546 0.4508
5.7861 -6.0703 0.4520
5.7294 -6.1047 0.4533
5.6379 -6.1018 0.4542
5.5152 -6.0610 0.4545
5.3289 -5.9382 0.4537
5.0347 -5.6664 0.4507
4.6039 -5.4215 0.4497
4.5768 -5.4708 0.4510
4.5248 -5.4818 0.4518
4.4618 -5.4729 0.4523
4.4054 -5.4743 0.4529
4.3688 -5.5150 0.4541
4.2047 -5.5276 0.4561
4.1461 -5.5188 0.4565
4.1052 -5.5594 0.4578
4.1505 -6.1145 0.4697
4.1785 -6.5056 0.4781
4.0919 -6.4763 0.4783
3.9484 -6.1395 0.4723
3.8559 -5.9925 0.4700
3.7863 -5.9468 0.4697
3.7347 -6.0342 0.4722
3.7156 -6.5563 0.4840
3.6564 -6.8502 0.4911
3.1651 -8.0471 0.5227
2.5462 -8.5047 0.5392
2.4654 -8.3531 0.5367
1.9451 -8.0232 0.5347
1.0376 -8.3531 0.5513
1.0675 -8.1238 0.5459
5.8721 -5.9661 0.3775
5.8367 -6.0180 0.3779
5.6933 -5.9620 0.3803
5.6385 -5.9947 0.3811
5.5994 -6.0463 0.3815
5.5588 -6.0992 0.3820
5.4082 -6.0226 0.3846
5.0507 -5.6769 0.3914
4.8906 -5.5580 0.3943
4.6125 -5.4274 0.3991
4.5733 -5.4579 0.3996
4.5825 -5.5729 0.3991
4.5149 -5.5620 0.4002
4.4277 -5.5110 0.4017
4.1498 -5.5258 0.4060
4.1124 -5.5780 0.4064
4.0662 -5.6100 0.4070
4.1909 -6.5567 0.4019
4.0632 -6.3508 0.4046
3.8493 -5.9619 0.4092
3.7784 -5.9032 0.4106
3.7164 -6.6081 0.4092
3.6556 -6.9152 0.4091
3.0259 -8.2575 0.4144
1.7787 -8.1674 0.4343
1.0215 -8.7397 0.4442
1.0579 -8.2743 0.4452
1.1116 -8.0056 0.4453
5.9274 -6.0935 0.3004
5.7225 -5.9790 0.3081
5.6336 -5.9769 0.3100
5.5945 -6.0282 0.3093
5.5699 -6.0994 0.3078
5.4182 -6.0227 0.3132
4.8697 -5.5215 0.3395
4.7831 -5.4907 0.3423
4.6737 -5.4228 0.3466
4.6151 -5.4238 0.3478
4.5519 -5.4163 0.3494
4.4400 -5.5281 0.3485
4.3239 -5.5308 0.3508
4.3775 -5.7895 0.3421
4.2914 -5.7367 0.3455
4.0721 -5.4565 0.3583
4.0284 -5.4857 0.3584
3.8501 -5.9771 0.3478
3.7821 -5.9455 0.3502
3.7601 -6.3136 0.3399
3.7073 -6.5416 0.3343
3.6711 -7.2824 0.3134
2.5757 -8.2160 0.3093
1.5784 -8.3767 0.3257
0.9499 -8.8403 0.3254
0.9584 -8.6133 0.3319
1.0232 -8.3000 0.3397
0.9451 -8.2706 0.3422
5.7006 -5.9438 0.2379
5.6288 -5.9591 0.2390
5.5570 -5.9743 0.2400
5.4698 -5.9721 0.2425
5.5065 -6.1161 0.2335
5.3558 -6.0379 0.2419
4.9919 -5.6723 0.2720
4.7649 -5.4574 0.2900
4.7250 -5.4888 0.2893
4.5599 -5.4220 0.2974
4.5197 -5.4523 0.2968
4.3950 -5.4362 0.3010
4.3439 -5.4471 0.3018
4.3295 -5.5375 0.2972
4.3619 -5.7480 0.2846
4.3028 -5.7606 0.2855
4.2201 -5.7095 0.2906
4.0783 -5.4724 0.3075
4.0193 -5.4548 0.3101
4.0311 -5.6852 0.2970
4.0708 -6.0793 0.2740
3.8586 -6.0391 0.2819
3.8035 -6.1185 0.2790
3.7882 -6.6012 0.2526
3.7042 -7.9992 0.1772
2.5341 -8.3562 0.1887
1.5932 -8.2943 0.2173
1.0160 -8.2735 0.2339
6.4557 -5.8718 0.1466
6.0999 -6.1385 0.1362
5.7501 -5.8938 0.1677
5.6957 -5.9260 0.1668
5.6403 -5.9584 0.1660
5.5521 -5.9565 0.1690
5.5117 -6.0075 0.1661
4.7433 -5.5068 0.2322
4.6814 -5.5086 0.2341
4.6195 -5.5093 0.2360
4.5839 -5.5531 0.2336
4.5163 -5.5437 0.2365
4.4117 -5.4616 0.2467
4.3497 -5.4531 0.2494
4.3469 -5.7078 0.2285
4.2938 -5.7335 0.2281
4.2446 -5.7719 0.2266
4.1197 -5.5919 0.2454
4.0216 -5.4609 0.2594
3.9966 -5.5612 0.2519
3.8973 -6.2878 0.1954
3.8712 -6.6383 0.1675
3.8239 -8.1079 0.0482
2.5017 -8.4469 0.0632
1.4270 -8.4007 0.1019
0.9737 -8.4972 0.1087
0.8913 -8.4641 0.1141
6.0945 -6.1187 0.0574
5.7801 -5.9097 0.0922
5.7078 -5.9251 0.0933
5.6354 -5.9405 0.0944
5.5631 -5.9558 0.0954
5.4907 -5.9712 0.0965
5.2335 -5.9654 0.1070
4.7039 -5.4421 0.1844
4.6914 -5.5156 0.1768
4.6501 -5.5500 0.1746
4.6073 -5.5847 0.1725
4.5565 -5.6079 0.1719
4.4351 -5.4993 0.1884
4.3462 -5.4403 0.1982
4.3036 -5.4709 0.1965
4.2455 -5.7704 0.1660
4.0212 -5.4581 0.2087
3.9709 -5.4688 0.2094
3.9997 -6.4432 0.1019
3.9269 -6.4823 0.1004
2.6661 -8.1075 -0.0289
2.6050 -7.8794 -0.0017
1.5137 -8.1577 0.0096
1.3815 -8.2330 0.0065
1.0533 -8.3028 0.0114
0.9439 -8.3260 0.0130
5.9625 -5.9823 -0.0000
5.7753 -5.8917 0.0206
5.6860 -5.8903 0.0247
5.5979 -5.8887 0.0288
5.5582 -5.9379 0.0238
5.5178 -5.9893 0.0186
5.4289 -5.9868 0.0229
5.3560 -6.0023 0.0239
4.7433 -5.4899 0.1209
4.6948 -5.5124 0.1200
4.6388 -5.5244 0.1208
4.6035 -5.5706 0.1160
4.5660 -5.6173 0.1113
4.4592 -5.5381 0.1268
4.2365 -5.7423 0.1087
4.0326 -5.4934 0.1517
3.9621 -5.4371 0.1625
3.9172 -5.4670 0.1604
3.9482 -6.1805 0.0616
3.8847 -6.2337 0.0571
3.7674 -6.4960 0.0264
2.7382 -7.6499 -0.0859
2.6360 -7.6716 -0.0844
1.9902 -7.8935 -0.0863
1.9032 -7.8692 -0.0791
1.9031 -7.6319 -0.0467
1.3862 -7.6329 -0.0241
1.3760 -7.5006 -0.0055
1.3061 -7.4839 -0.0002
6.3558 -5.6896 -0.0500
5.8966 -5.8267 -0.0496
5.8427 -5.8584 -0.0521
5.7530 -5.8572 -0.0474
5.6644 -5.8559 -0.0428
5.5931 -5.8710 -0.0417
5.5533 -5.9199 -0.0478
5.4658 -5.9183 -0.0431
5.3940 -5.9336 -0.0420
5.3806 -6.0204 -0.0556
5.2239 -5.9303 -0.0330
4.8030 -5.4747 0.0629
4.7626 -5.5086 0.0593
4.7137 -5.5322 0.0579
4.6634 -5.5550 0.0567
4.6131 -5.5788 0.0553
4.5554 -5.5911 0.0561
4.5040 -5.6152 0.0547
4.2789 -5.4072 0.1002
4.2617 -5.4958 0.0865
4.2766 -5.6767 0.0560
4.2325 -5.7275 0.0498
3.9588 -5.4247 0.1133
3.9114 -5.4449 0.1123
4.0472 -6.3040 -0.0357
3.9578 -6.2390 -0.0206
3.8799 -6.2162 -0.0129
3.8195 -6.3099 -0.0253
3.7234 -6.1008 0.0139
3.6784 -6.4036 -0.0337
3.0359 -6.8578 -0.0763
2.7673 -6.9989 -0.0860
2.5938 -7.3867 -0.1411
2.4352 -7.3173 -0.1218
2.3541 -7.3012 -0.1151
2.2388 -7.3925 -0.1243
2.1566 -7.1581 -0.0817
2.0573 -7.2086 -0.0851
2.1853 -6.7212 -0.0113
2.2972 -6.3202 0.0490
1.4408 -7.4954 -0.1014
1.2362 -7.5723 -0.1039
1.1212 -7.6301 -0.1076
1.1647 -7.4287 -0.0767
6.4634 -5.7495 -0.1412
5.9231 -5.6867 -0.0989
5.8041 -5.6588 -0.0868
5.9682 -5.8759 -0.1378
5.8021 -5.8079 -0.1154
5.7655 -5.8558 -0.1226
5.6595 -5.8382 -0.1133
5.5883 -5.8533 -0.1122
5.5021 -5.8526 -0.1073
5.4609 -5.9005 -0.1142
5.3891 -5.9158 -0.1131
5.1084 -5.7716 -0.0697
4.8154 -5.4825 0.0024
4.7668 -5.5059 0.0006
4.7098 -5.5180 0.0015
4.6528 -5.5301 0.0023
4.5957 -5.5423 0.0032
4.5449 -5.5651 0.0016
4.4938 -5.5891 -0.0001
4.3964 -5.5224 0.0182
4.3166 -5.4821 0.0304
4.2580 -5.4826 0.0336
4.2828 -5.6872 -0.0072
4.2430 -5.7518 -0.0174
4.1779 -5.7516 -0.0138
4.0936 -5.6872 0.0034
3.9660 -5.4503 0.0561
3.9199 -5.4802 0.0529
3.8283 -6.3963 -0.1184
3.7524 -6.4125 -0.1172
3.6643 -6.2625 -0.0834
3.5904 -6.2200 -0.0711
3.5252 -6.4839 -0.1183
3.4492 -6.4549 -0.1084
3.3080 -6.3383 -0.0781
3.2234 -6.5029 -0.1051
2.5050 -7.0322 -0.1668
2.4654 -6.9041 -0.1399
2.4113 -6.8393 -0.1244
2.3014 -6.7442 -0.1000
2.1152 -6.8541 -0.1107
2.1774 -6.5597 -0.0575
1.9797 -6.7031 -0.0741
1.8816 -6.7662 -0.0807
1.8198 -6.7582 -0.0757
1.7183 -6.8230 -0.0825
1.5664 -6.9708 -0.1025
1.4880 -6.9875 -0.1013
1.4269 -6.9763 -0.0958
5.8157 -5.6556 -0.1573
5.3822 -5.7129 -0.1431
5.3291 -5.7422 -0.1463
5.2000 -5.6849 -0.1256
5.0377 -5.5808 -0.0925
4.9390 -5.5460 -0.0787
4.8200 -5.4796 -0.0567
4.7704 -5.5021 -0.0586
4.7284 -5.5370 -0.0637
4.6557 -5.5265 -0.0568
4.5919 -5.5281 -0.0532
4.5476 -5.5625 -0.0581
4.5424 -5.6722 -0.0820
4.4440 -5.6104 -0.0623
4.3424 -5.5313 -0.0385
4.2820 -5.5322 -0.0349
4.2944 -5.7110 -0.0753
4.2489 -5.7636 -0.0841
4.1605 -5.6976 -0.0640
4.0642 -5.5905 -0.0343
3.9625 -5.4377 0.0058
3.9117 -5.4485 0.0065
3.8909 -5.8995 -0.0919
3.8375 -5.9747 -0.1052
3.7110 -6.0345 -0.1106
3.6452 -6.0485 -0.1096
3.5733 -5.9222 -0.0772
3.5116 -5.9503 -0.0796
3.3821 -6.1044 -0.1057
3.0781 -6.0275 -0.0698
2.6697 -6.2231 -0.0878
2.4013 -6.4546 -0.1223
2.3482 -6.4290 -0.1134
2.2967 -6.4041 -0.1047
2.1827 -6.5200 -0.1232
2.0482 -6.6693 -0.1479
2.0529 -6.5287 -0.1171
1.9798 -6.4366 -0.0922
1.8485 -6.3658 -0.0684
2.0101 -5.9466 0.0143
5.5304 -5.4046 -0.1466
5.3748 -5.3971 -0.1341
5.2754 -5.5885 -0.1752
5.1784 -5.5646 -0.1626
5.0642 -5.5176 -0.1430
4.9658 -5.4841 -0.1280
4.8987 -5.4855 -0.1237
4.8322 -5.4868 -0.1195
4.8072 -5.5445 -0.1323
4.7404 -5.5459 -0.1280
4.7046 -5.5941 -0.1377
4.6372 -5.5946 -0.1332
4.5706 -5.5949 -0.1287
4.4620 -5.5160 -0.1016
4.3482 -5.4145 -0.0684
4.3544 -5.5508 -0.1030
4.3339 -5.6452 -0.1252
4.2503 -5.5977 -0.1076
4.1974 -5.6218 -0.1100
4.1319 -5.6110 -0.1028
4.0711 -5.6110 -0.0987
3.9896 -5.5343 -0.0740
3.9302 -5.5242 -0.0674
3.9011 -5.6472 -0.0962
3.8512 -5.6954 -0.1048
3.7974 -5.7326 -0.1105
3.7374 -5.7325 -0.1064
3.6832 -5.7836 -0.1154
3.6222 -5.7699 -0.1078
3.5632 -5.7695 -0.1037
3.5050 -5.7691 -0.0997
3.4471 -5.7942 -0.1020
3.3868 -5.8605 -0.1145
3.3245 -5.9153 -0.1239
3.2638 -5.9282 -0.1230
3.2082 -5.8985 -0.1118
3.1587 -5.8427 -0.0945
3.0916 -5.9094 -0.1066
3.0380 -5.8941 -0.0991
2.9636 -5.9782 -0.1151
2.9032 -5.9911 -0.1142
2.8177 -6.0963 -0.1347
2.7503 -6.1255 -0.1374
2.7223 -6.0295 -0.1115
2.6517 -6.0723 -0.1173
2.5728 -6.1336 -0.1273
2.5414 -6.0680 -0.1088
2.4937 -6.0504 -0.1011
2.4538 -6.0184 -0.0904
2.3817 -6.0604 -0.0960
2.3225 -6.0730 -0.0951
2.2707 -6.0712 -0.0911
2.2119 -6.0837 -0.0902
2.1617 -6.0805 -0.0860
2.0943 -6.1087 -0.0885
2.0448 -6.1053 -0.0842
1.9767 -6.1337 -0.0867
1.9280 -6.1302 -0.0825
5.1851 -5.4094 -0.1855
5.0584 -5.3498 -0.1595
4.9384 -5.3635 -0.1544
4.8587 -5.3461 -0.1436
4.7970 -5.3484 -0.1396
4.7358 -5.3506 -0.1357
4.6550 -5.3246 -0.1224
4.5901 -5.3178 -0.1156
4.5617 -5.3651 -0.1268
4.5266 -5.4059 -0.1356
4.4610 -5.3973 -0.1283
4.3922 -5.3805 -0.1184
4.3397 -5.3917 -0.1177
4.2871 -5.4028 -0.1169
4.2262 -5.3952 -0.1102
4.1820 -5.4252 -0.1153
4.1294 -5.4364 -0.1145
3.9689 -5.4597 -0.1091
3.9002 -5.4046 -0.0886
3.8623 -5.4725 -0.1047
3.8160 -5.5138 -0.1128
3.7615 -5.5146 -0.1090
3.7103 -5.5363 -0.1113
3.5512 -5.5593 -0.1059
3.4985 -5.5597 -0.1021
3.4460 -5.5925 -0.1073
3.3931 -5.6038 -0.1065
3.2345 -5.6375 -0.1041
3.1833 -5.6376 -0.1004
2.9587 -5.7394 -0.1121
2.8471 -5.7740 -0.1135
2.7927 -5.7855 -0.1126
2.7424 -5.7854 -0.1089
2.6653 -5.8588 -0.1237
2.4926 -5.9073 -0.1244
2.4366 -5.9192 -0.1235
2.3806 -5.9311 -0.1227
2.0531 -5.9890 -0.1145
1.9705 -6.0429 -0.1234
5.0370 -5.0754 -0.1325
5.0128 -5.1079 -0.1406
4.9255 -5.0816 -0.1254
4.9300 -5.2728 -0.1849
4.8025 -5.1994 -0.1519
4.7382 -5.1936 -0.1449
4.6825 -5.1967 -0.1414
4.6150 -5.1837 -0.1319
4.5601 -5.1856 -0.1281
4.5116 -5.1960 -0.1273
4.4632 -5.2063 -0.1266
4.4248 -5.2330 -0.1318
4.3803 -5.2512 -0.1338
4.3091 -5.2215 -0.1189
4.2535 -5.2167 -0.1129
4.2207 -5.2578 -0.1230
4.1205 -5.2704 -0.1188
4.0722 -5.2806 -0.1180
4.0299 -5.3082 -0.1231
3.9863 -5.3350 -0.1279
3.8274 -5.3151 -0.1089
3.7797 -5.3253 -0.1082
3.7333 -5.3439 -0.1102
3.6853 -5.3541 -0.1095
3.6390 -5.3816 -0.1143
3.5911 -5.4015 -0.1166
3.5424 -5.4118 -0.1158
3.4934 -5.4037 -0.1094
3.4453 -5.4052 -0.1059
3.3973 -5.4154 -0.1052
3.3500 -5.4167 -0.1018
3.3022 -5.4268 -0.1011
3.2511 -5.4640 -0.1085
3.2026 -5.4744 -0.1077
3.1558 -5.4755 -0.1043
3.1057 -5.4950 -0.1063
3.0527 -5.5248 -0.1112
3.0013 -5.5445 -0.1132
2.9521 -5.5550 -0.1124
2.9085 -5.5467 -0.1064
2.8598 -5.5570 -0.1056
2.8043 -5.5864 -0.1102
2.7663 -5.5672 -0.1012
2.7178 -5.5775 -0.1005
2.6693 -5.5878 -0.0998
2.5982 -5.6488 -0.1129
2.5627 -5.6290 -0.1039
2.5239 -5.6187 -0.0976
2.4647 -5.6498 -0.1024
2.4157 -5.6603 -0.1017
2.3722 -5.6607 -0.0983
2.3235 -5.6711 -0.0976
2.2815 -5.6703 -0.0940
2.2393 -5.6705 -0.0906
2.1910 -5.6807 -0.0899
4.7493 -5.0097 -0.1371
4.6594 -4.9708 -0.1160
4.6001 -4.9620 -0.1079
4.5428 -4.9539 -0.1002
4.5100 -4.9744 -0.1043
4.4808 -5.0010 -0.1107
4.4560 -5.0353 -0.1202
4.4208 -5.0573 -0.1246
4.3681 -5.0540 -0.1189
4.3278 -5.0693 -0.1206
4.2877 -5.0856 -0.1227
4.2395 -5.0881 -0.1193
4.1922 -5.0914 -0.1163
4.1482 -5.1008 -0.1156
3.8941 -5.1916 -0.1243
3.8473 -5.1938 -0.1210
3.7995 -5.1894 -0.1154
3.7525 -5.1849 -0.1097
3.4888 -5.2478 -0.1081
3.4444 -5.2727 -0.1127
2.6381 -5.4510 -0.1029
2.5890 -5.4692 -0.1048
2.5304 -5.5049 -0.1118
2.4942 -5.4971 -0.1060
4.8943 -4.8421 -0.1376
4.8347 -4.8356 -0.1296
4.8744 -4.9636 -0.1807
4.6356 -4.8847 -0.1291
4.5796 -4.8774 -0.1211
4.5347 -4.8811 -0.1183
4.4985 -4.8946 -0.1199
4.4712 -4.9196 -0.1266
4.4339 -4.9333 -0.1282
4.3890 -4.9371 -0.1254
4.3439 -4.9400 -0.1222
4.3069 -4.9546 -0.1242
4.2689 -4.9684 -0.1257
4.2212 -4.9661 -0.1204
4.1836 -4.9808 -0.1223
4.0214 -5.0211 -0.1220
3.9848 -5.0423 -0.1265
3.9410 -5.0449 -0.1233
3.8959 -5.0420 -0.1180
3.8531 -5.0444 -0.1149
3.8122 -5.0531 -0.1143
3.7739 -5.0737 -0.1183
3.7338 -5.0889 -0.1202
3.6914 -5.0912 -0.1171
3.5263 -5.1263 -0.1146
3.4851 -5.1418 -0.1165
3.4437 -5.1506 -0.1159
3.4019 -5.1663 -0.1178
3.3598 -5.1810 -0.1193
3.3186 -5.1840 -0.1165
3.1521 -5.2194 -0.1140
3.1104 -5.2283 -0.1134
2.9049 -5.2652 -0.1078
2.8606 -5.2814 -0.1097
2.8190 -5.2902 -0.1090
2.7714 -5.3129 -0.1129
2.7226 -5.3367 -0.1172
2.6874 -5.3307 -0.1117
2.6524 -5.3257 -0.1065
2.6147 -5.3269 -0.1035
2.5733 -5.3358 -0.1029
2.5275 -5.3522 -0.1047
2.4820 -5.3677 -0.1061
2.4490 -5.3622 -0.1010
2.4124 -5.3632 -0.0980
2.3661 -5.3798 -0.0998
4.8097 -4.7272 -0.1283
4.8148 -4.7699 -0.1460
4.7701 -4.7737 -0.1431
4.6764 -4.7345 -0.1179
4.6340 -4.7378 -0.1150
4.6241 -4.7714 -0.1275
4.5732 -4.7670 -0.1206
4.5309 -4.7702 -0.1176
4.4897 -4.7742 -0.1151
4.4481 -4.7774 -0.1122
4.4109 -4.7853 -0.1116
4.3923 -4.8159 -0.1221
4.3575 -4.8281 -0.1235
4.2994 -4.8090 -0.1100
4.2500 -4.7994 -0.1012
4.2107 -4.8030 -0.0987
4.0741 -4.8521 -0.1047
4.0325 -4.8505 -0.0998
3.9958 -4.8583 -0.0993
3.9590 -4.8661 -0.0987
