ply
format ascii 1.0
element vertex 2097
property float x
property float y
property float z
end_header
3.3889 -2.6127 -0.1230
3.3850 -2.6276 -0.1182
3.3832 -2.6385 -0.1205
3.3795 -2.6522 -0.1154
3.3763 -2.6645 -0.1119
3.3751 -2.6736 -0.1151
3.3738 -2.6824 -0.1178
3.3722 -2.6916 -0.1190
3.4912 -1.1597 0.6498
3.5032 -1.1240 0.6176
3.5720 -1.0663 0.2891
3.5911 -1.0107 0.2371
3.6147 -1.0693 0.0474
3.6169 -1.1014 0.0031
3.6886 -0.8228 -0.1241
3.6793 -0.9118 -0.1596
3.6554 -1.0602 -0.1716
3.6155 -1.2695 -0.1540
3.5796 -1.4538 -0.1341
3.5615 -1.5597 -0.1369
3.5393 -1.6775 -0.1283
3.5244 -1.7627 -0.1289
3.5064 -1.8564 -0.1199
3.4986 -1.9095 -0.1283
3.4863 -1.9766 -0.1253
3.4785 -2.0256 -0.1298
3.4695 -2.0768 -0.1298
3.4623 -2.1204 -0.1322
3.4481 -2.1846 -0.1162
3.4457 -2.2095 -0.1273
3.4395 -2.2456 -0.1276
3.4323 -2.2832 -0.1242
3.4264 -2.3154 -0.1233
3.4200 -2.3484 -0.1194
3.4132 -2.3942 -0.1264
3.4087 -2.4189 -0.1256
3.4038 -2.4436 -0.1228
3.3986 -2.4685 -0.1179
3.3949 -2.4888 -0.1171
3.3914 -2.5080 -0.1162
3.3878 -2.5268 -0.1144
3.3860 -2.5407 -0.1185
3.3823 -2.5587 -0.1151
3.3781 -2.5768 -0.1098
3.3777 -2.5868 -0.1170
3.3749 -2.6013 -0.1155
3.3734 -2.6126 -0.1186
3.3711 -2.6254 -0.1180
3.3684 -2.6384 -0.1156
3.3653 -2.6516 -0.1114
3.3643 -2.6609 -0.1148
3.3623 -2.6715 -0.1142
3.3618 -2.6794 -0.1194
3.3598 -2.6896 -0.1179
3.4503 -1.1143 0.6804
3.5221 -1.0314 0.3222
3.5310 -1.0240 0.2758
3.5558 -0.9221 0.2176
3.5795 -0.9829 0.0203
3.5725 -1.0672 -0.0132
3.6153 -0.9424 -0.1584
3.5978 -1.0761 -0.1734
3.5434 -1.3801 -0.1196
3.5339 -1.4617 -0.1360
3.5189 -1.5653 -0.1388
3.5057 -1.6568 -0.1415
3.4867 -1.7694 -0.1285
3.4793 -1.8286 -0.1373
3.4643 -1.9168 -0.1262
3.4585 -1.9646 -0.1342
3.4501 -2.0207 -0.1342
3.4428 -2.0705 -0.1350
3.4317 -2.1324 -0.1240
3.4262 -2.1719 -0.1261
3.4236 -2.1994 -0.1354
3.4032 -2.3183 -0.1196
3.3945 -2.3749 -0.1183
3.3905 -2.4008 -0.1173
3.3895 -2.4170 -0.1258
3.3843 -2.4447 -0.1193
3.3809 -2.4662 -0.1184
3.3734 -2.5092 -0.1117
3.3715 -2.5247 -0.1143
3.3698 -2.5394 -0.1172
3.3698 -2.5493 -0.1266
3.3641 -2.5726 -0.1131
3.3630 -2.5844 -0.1172
3.3614 -2.5972 -0.1187
3.3591 -2.6109 -0.1174
3.3565 -2.6248 -0.1143
3.3549 -2.6362 -0.1152
3.3542 -2.6458 -0.1190
3.3525 -2.6567 -0.1189
3.3508 -2.6674 -0.1183
3.3488 -2.6784 -0.1159
3.3478 -2.6871 -0.1181
3.4843 -0.9583 0.3074
3.4899 -0.9706 0.2612
3.5292 -0.8032 0.1404
3.5395 -0.7905 0.0835
3.5388 -0.8520 0.0389
3.5380 -0.9115 -0.0041
3.5053 -1.2123 -0.0337
3.5260 -1.1364 -0.1068
3.5286 -1.1680 -0.1494
3.5021 -1.3607 -0.1322
3.4885 -1.4746 -0.1357
3.4806 -1.5538 -0.1479
3.4647 -1.6704 -0.1387
3.4525 -1.7638 -0.1343
3.4411 -1.8490 -0.1288
3.4239 -1.9826 -0.1248
3.4221 -2.0150 -0.1391
3.4137 -2.0752 -0.1326
3.4007 -2.1720 -0.1262
3.3919 -2.2448 -0.1275
3.3810 -2.3199 -0.1171
3.3790 -2.3426 -0.1228
3.3764 -2.3670 -0.1251
3.3732 -2.3924 -0.1249
3.3671 -2.4266 -0.1127
3.3656 -2.4444 -0.1174
3.3636 -2.4633 -0.1197
3.3604 -2.4852 -0.1167
3.3578 -2.5045 -0.1154
3.3561 -2.5208 -0.1170
3.3542 -2.5368 -0.1179
3.3521 -2.5531 -0.1170
3.3513 -2.5653 -0.1216
3.3471 -2.5857 -0.1110
3.3472 -2.5950 -0.1187
3.3432 -2.6221 -0.1151
3.3417 -2.6341 -0.1147
3.3413 -2.6432 -0.1196
3.3382 -2.6579 -0.1109
3.3387 -2.6644 -0.1199
3.3372 -2.6749 -0.1187
3.3365 -2.6837 -0.1208
3.4465 -0.8584 0.2901
3.4449 -0.9348 0.2478
3.4517 -0.9358 0.1991
3.4768 -0.8480 0.0832
3.4876 -0.8238 0.0239
3.5022 -0.7734 -0.0440
3.5143 -0.7458 -0.1103
3.4797 -1.1122 -0.1212
3.4684 -1.2404 -0.1312
3.4519 -1.3974 -0.1240
3.4475 -1.4691 -0.1426
3.4276 -1.6698 -0.1424
3.4130 -1.7909 -0.1236
3.4081 -1.8503 -0.1305
3.4024 -1.9120 -0.1329
3.3976 -1.9655 -0.1368
3.3847 -2.0834 -0.1278
3.3786 -2.1367 -0.1219
3.3764 -2.1690 -0.1286
3.3698 -2.2202 -0.1183
3.3673 -2.2510 -0.1218
3.3643 -2.2828 -0.1225
3.3616 -2.3116 -0.1241
3.3568 -2.3643 -0.1265
3.3531 -2.3943 -0.1212
3.3498 -2.4214 -0.1168
3.3487 -2.4393 -0.1215
3.3465 -2.4604 -0.1210
3.3439 -2.4824 -0.1178
3.3433 -2.4965 -0.1238
3.3409 -2.5163 -0.1206
3.3372 -2.5395 -0.1106
3.3361 -2.5641 -0.1198
3.3340 -2.5804 -0.1164
3.3322 -2.5951 -0.1143
3.3317 -2.6059 -0.1181
3.3299 -2.6200 -0.1148
3.3301 -2.6281 -0.1223
3.3279 -2.6422 -0.1166
3.3272 -2.6522 -0.1186
3.3260 -2.6630 -0.1178
3.3250 -2.6730 -0.1176
3.3251 -2.6803 -0.1235
3.4107 -0.2129 0.5348
3.4729 0.2878 0.3420
3.4600 0.0102 0.2827
3.4169 -0.8443 0.1261
3.4250 -0.8324 0.0709
3.4371 -0.7830 0.0062
3.4458 -0.7701 -0.0541
3.4522 -0.7823 -0.1100
3.4306 -1.1076 -0.1296
3.4080 -1.4061 -0.1260
3.4037 -1.4884 -0.1394
3.3953 -1.5971 -0.1371
3.3892 -1.6832 -0.1395
3.3815 -1.7766 -0.1336
3.3763 -1.8482 -0.1340
3.3710 -1.9165 -0.1323
3.3681 -1.9657 -0.1382
3.3507 -2.1752 -0.1240
3.3442 -2.2542 -0.1186
3.3382 -2.3408 -0.1221
3.3366 -2.3655 -0.1239
3.3344 -2.3918 -0.1222
3.3316 -2.4198 -0.1168
3.3273 -2.4804 -0.1179
3.3258 -2.4993 -0.1172
3.3242 -2.5177 -0.1155
3.3229 -2.5345 -0.1150
3.3224 -2.5476 -0.1188
3.3208 -2.5643 -0.1159
3.3200 -2.5776 -0.1175
3.3196 -2.5893 -0.1207
3.3176 -2.6056 -0.1145
3.3176 -2.6151 -0.1201
3.3168 -2.6266 -0.1206
3.3164 -2.6369 -0.1231
3.3136 -2.6616 -0.1156
3.3130 -2.6711 -0.1166
3.3126 -2.6800 -0.1185
3.3801 0.6551 0.6227
3.3848 0.0628 0.3326
3.3527 -0.9389 0.1802
3.3577 -0.9503 0.1326
3.3636 -0.9515 0.0827
3.3719 -0.9208 0.0251
3.3921 -0.8287 -0.1067
3.3805 -1.1211 -0.1321
3.3745 -1.2554 -0.1381
3.3679 -1.3870 -0.1383
3.3640 -1.4833 -0.1460
3.3567 -1.6069 -0.1367
3.3514 -1.7045 -0.1328
3.3462 -1.7945 -0.1273
3.3465 -1.8317 -0.1452
3.3338 -2.0399 -0.1263
3.3334 -2.0733 -0.1363
3.3300 -2.1264 -0.1303
3.3234 -2.2462 -0.1250
3.3214 -2.2807 -0.1230
3.3165 -2.3690 -0.1188
3.3153 -2.3932 -0.1191
3.3149 -2.4124 -0.1234
3.3134 -2.4364 -0.1209
3.3109 -2.4784 -0.1180
3.3102 -2.4960 -0.1189
3.3096 -2.5119 -0.1210
3.3087 -2.5288 -0.1205
3.3077 -2.5453 -0.1192
3.3060 -2.5754 -0.1175
3.3053 -2.5890 -0.1173
3.3049 -2.6011 -0.1187
3.3042 -2.6136 -0.1185
3.3035 -2.6258 -0.1178
3.3026 -2.6383 -0.1152
3.3025 -2.6477 -0.1182
3.3020 -2.6581 -0.1183
3.3014 -2.6682 -0.1180
3.3012 -2.6771 -0.1198
3.2982 0.5573 0.5979
3.2935 -0.8136 0.3036
3.2979 -0.8361 0.2567
3.3042 -0.9452 0.1715
3.3084 -0.9670 0.1261
3.3136 -0.9687 0.0770
3.3210 -0.9278 0.0179
3.3278 -0.9071 -0.0398
3.3401 -0.7881 -0.1260
3.3402 -0.8970 -0.1533
3.3353 -1.0789 -0.1523
3.3265 -1.3815 -0.1455
3.3190 -1.6218 -0.1338
3.3174 -1.6991 -0.1385
3.3160 -1.7693 -0.1428
3.3105 -1.9270 -0.1299
3.3083 -2.0295 -0.1342
3.3064 -2.0839 -0.1298
3.3036 -2.1431 -0.1185
3.3036 -2.2019 -0.1327
3.3015 -2.2714 -0.1308
3.2988 -2.3387 -0.1219
3.2973 -2.3705 -0.1159
3.2965 -2.3962 -0.1142
3.2950 -2.4423 -0.1117
3.2952 -2.4578 -0.1175
3.2953 -2.4730 -0.1227
3.2944 -2.4942 -0.1188
3.2938 -2.5122 -0.1178
3.2940 -2.5251 -0.1230
3.2928 -2.5450 -0.1164
3.2923 -2.5726 -0.1186
3.2919 -2.5863 -0.1182
3.2914 -2.5997 -0.1173
3.2925 -2.6062 -0.1285
3.2915 -2.6209 -0.1231
3.2907 -2.6341 -0.1193
3.2902 -2.6459 -0.1173
3.2901 -2.6557 -0.1186
3.2898 -2.6659 -0.1182
3.2894 -2.6759 -0.1173
3.2340 -1.1216 0.3939
3.2379 -1.1072 0.3536
3.2418 -1.1104 0.3129
3.2466 -1.0436 0.2652
3.2518 -0.9699 0.2126
3.2671 -0.9009 0.0555
3.2708 -0.9552 0.0152
3.2771 -0.9024 -0.0493
3.2850 -0.8090 -0.1289
3.2849 -0.9915 -0.1330
3.2853 -1.1301 -0.1424
3.2866 -1.2290 -0.1591
3.2839 -1.4165 -0.1370
3.2844 -1.5076 -0.1447
3.2833 -1.6218 -0.1375
3.2831 -1.7070 -0.1379
3.2833 -1.7756 -0.1423
3.2818 -1.8695 -0.1292
3.2811 -1.9394 -0.1244
3.2811 -1.9917 -0.1266
3.2815 -2.0341 -0.1323
3.2806 -2.1344 -0.1253
3.2805 -2.2087 -0.1271
3.2800 -2.2476 -0.1231
3.2794 -2.2848 -0.1181
3.2792 -2.3156 -0.1167
3.2791 -2.3910 -0.1184
3.2788 -2.4156 -0.1162
3.2794 -2.4315 -0.1227
3.2789 -2.4552 -0.1186
3.2783 -2.4783 -0.1134
3.2790 -2.5077 -0.1213
3.2784 -2.5434 -0.1156
3.2786 -2.5564 -0.1184
3.2783 -2.5718 -0.1164
3.2784 -2.5849 -0.1169
3.2782 -2.5983 -0.1158
3.2785 -2.6090 -0.1187
3.2782 -2.6220 -0.1165
3.2785 -2.6317 -0.1198
3.2780 -2.6446 -0.1152
3.2782 -2.6539 -0.1176
3.2782 -2.6636 -0.1183
3.2786 -2.6715 -0.1226
3.1775 -0.1773 0.3586
3.2001 -1.0809 0.3018
3.2032 -1.0395 0.2557
3.2062 -0.9661 0.2029
3.2021 0.1131 0.0012
3.2065 0.4564 -0.1311
3.2226 -0.9514 0.0060
3.2271 -0.8536 -0.0696
3.2320 -0.7930 -0.1416
3.2357 -1.0076 -0.1354
3.2384 -1.2279 -0.1166
3.2421 -1.2709 -0.1498
3.2441 -1.4303 -0.1365
3.2468 -1.5021 -0.1512
3.2480 -1.6354 -0.1350
3.2501 -1.6971 -0.1458
3.2513 -1.7897 -0.1377
3.2523 -1.8709 -0.1305
3.2552 -2.0479 -0.1243
3.2564 -2.0867 -0.1293
3.2569 -2.1388 -0.1226
3.2579 -2.1717 -0.1274
3.2589 -2.2039 -0.1309
3.2589 -2.2497 -0.1209
3.2593 -2.2846 -0.1177
3.2609 -2.3338 -0.1246
3.2615 -2.3581 -0.1262
3.2618 -2.3850 -0.1234
3.2625 -2.4318 -0.1204
3.2629 -2.4511 -0.1215
3.2627 -2.4766 -0.1133
3.2635 -2.5110 -0.1139
3.2640 -2.5253 -0.1167
3.2647 -2.5366 -0.1231
3.2647 -2.5543 -0.1185
3.2651 -2.5678 -0.1195
3.2651 -2.5829 -0.1167
3.2655 -2.5945 -0.1189
3.2655 -2.6090 -0.1147
3.2657 -2.6207 -0.1147
3.2660 -2.6310 -0.1165
3.2669 -2.6377 -0.1254
3.2667 -2.6510 -0.1190
3.2668 -2.6613 -0.1184
3.2673 -2.6692 -0.1226
3.0998 -0.1767 0.5735
3.1606 -1.1346 0.2969
3.1592 -1.0084 0.2435
3.1303 0.1347 -0.0159
3.1747 -0.9369 -0.0054
3.1806 -1.0290 -0.0341
3.1866 -1.1321 -0.0559
3.1892 -1.0811 -0.1202
3.1946 -1.1730 -0.1409
3.2002 -1.2966 -0.1461
3.2056 -1.4376 -0.1383
3.2101 -1.5531 -0.1339
3.2175 -1.7421 -0.1271
3.2205 -1.7956 -0.1372
3.2234 -1.8725 -0.1318
3.2259 -1.9460 -0.1241
3.2282 -1.9968 -0.1262
3.2303 -2.0358 -0.1332
3.2322 -2.0884 -0.1289
3.2340 -2.1284 -0.1306
3.2371 -2.2111 -0.1249
3.2384 -2.2486 -0.1215
3.2397 -2.2812 -0.1201
3.2408 -2.3147 -0.1158
3.2420 -2.3403 -0.1171
3.2430 -2.3653 -0.1174
3.2443 -2.3813 -0.1259
3.2450 -2.4116 -0.1173
3.2460 -2.4306 -0.1198
3.2471 -2.4456 -0.1262
3.2474 -2.4742 -0.1141
3.2482 -2.4906 -0.1161
3.2489 -2.5073 -0.1164
3.2498 -2.5203 -0.1211
3.2503 -2.5385 -0.1170
3.2511 -2.5509 -0.1207
3.2517 -2.5644 -0.1216
3.2521 -2.5803 -0.1175
3.2526 -2.5932 -0.1173
3.2532 -2.6047 -0.1188
3.2536 -2.6171 -0.1175
3.2541 -2.6280 -0.1181
3.2543 -2.6411 -0.1133
3.2551 -2.6488 -0.1192
3.2558 -2.6563 -0.1250
3.0992 -1.2321 0.7295
3.0545 -0.3575 0.5504
3.0500 -0.2383 0.5018
3.1207 -1.1306 0.2879
3.1155 -0.9952 0.2330
3.0599 0.1328 -0.0295
3.0758 -0.0789 -0.0663
3.1307 -1.0035 0.0016
3.1349 -1.0247 -0.0427
3.1364 -0.9880 -0.1032
3.1424 -1.0485 -0.1369
3.1493 -1.1339 -0.1601
3.1596 -1.3065 -0.1478
3.1677 -1.4382 -0.1427
3.1744 -1.5423 -0.1425
3.1855 -1.7161 -0.1426
3.1905 -1.7979 -0.1385
3.1951 -1.8771 -0.1313
3.2027 -2.0020 -0.1243
3.2089 -2.1045 -0.1184
3.2137 -2.1670 -0.1312
3.2182 -2.2425 -0.1263
3.2221 -2.3025 -0.1265
3.2254 -2.3552 -0.1265
3.2270 -2.3847 -0.1206
3.2284 -2.4113 -0.1160
3.2297 -2.4296 -0.1192
3.2310 -2.4498 -0.1189
3.2323 -2.4652 -0.1235
3.2334 -2.4854 -0.1206
3.2345 -2.5030 -0.1199
3.2355 -2.5209 -0.1173
3.2365 -2.5343 -0.1203
3.2375 -2.5482 -0.1217
3.2383 -2.5645 -0.1182
3.2393 -2.5758 -0.1217
3.2399 -2.5914 -0.1168
3.2407 -2.6035 -0.1171
3.2415 -2.6153 -0.1168
3.2424 -2.6233 -0.1234
3.2429 -2.6365 -0.1185
3.2435 -2.6482 -0.1155
3.2443 -2.6557 -0.1211
3.0694 -1.2590 0.7152
3.0647 -1.1931 0.6963
2.9800 -0.1752 0.6512
2.9836 -0.1840 0.5976
3.0831 -1.1761 0.3219
3.0744 -1.0430 0.2717
3.0718 -0.9820 0.2226
3.0798 -0.9585 0.0328
3.0848 -0.9896 -0.0094
3.0854 -0.9614 -0.0664
3.0867 -0.9418 -0.1236
3.0939 -1.0051 -0.1572
3.1080 -1.1724 -0.1532
3.1215 -1.3363 -0.1421
3.1309 -1.4450 -0.1445
3.1400 -1.5526 -0.1420
3.1468 -1.6283 -0.1486
3.1539 -1.7114 -0.1479
3.1621 -1.8179 -0.1305
3.1679 -1.8877 -0.1275
3.1769 -1.9887 -0.1339
3.1817 -2.0492 -0.1264
3.1852 -2.0867 -0.1315
3.1925 -2.1763 -0.1242
3.1986 -2.2510 -0.1187
3.2037 -2.3118 -0.1169
3.2080 -2.3620 -0.1183
3.2101 -2.3884 -0.1153
3.2118 -2.4008 -0.1261
3.2137 -2.4240 -0.1239
3.2155 -2.4481 -0.1189
3.2170 -2.4643 -0.1223
3.2186 -2.4824 -0.1222
3.2214 -2.5131 -0.1259
3.2228 -2.5358 -0.1152
3.2240 -2.5496 -0.1163
3.2252 -2.5632 -0.1169
3.2264 -2.5732 -0.1226
3.2274 -2.5896 -0.1164
3.2285 -2.5998 -0.1200
3.2305 -2.6228 -0.1201
3.2314 -2.6336 -0.1200
3.2322 -2.6466 -0.1144
3.2331 -2.6547 -0.1186
3.0368 -1.2492 0.7074
3.0363 -1.2340 0.6806
2.9213 -0.1404 0.6389
2.9321 -0.2182 0.5812
3.0416 -1.1350 0.3106
3.0263 -0.8918 0.0603
3.0384 -0.9933 0.0320
3.0416 -1.0054 -0.0134
3.0372 -0.9375 -0.0803
3.0405 -0.9487 -0.1290
3.0467 -0.9909 -0.1685
3.0653 -1.1676 -0.1607
3.0797 -1.3036 -0.1593
3.0982 -1.4869 -0.1322
3.1085 -1.5835 -0.1326
3.1239 -1.7225 -0.1453
3.1391 -1.8659 -0.1416
3.1526 -1.9969 -0.1300
3.1587 -2.0577 -0.1218
3.1625 -2.0906 -0.1294
3.1705 -2.1627 -0.1348
3.1755 -2.2148 -0.1215
3.1788 -2.2459 -0.1227
3.1856 -2.3121 -0.1158
3.1931 -2.3785 -0.1245
3.1956 -2.4038 -0.1212
3.1981 -2.4285 -0.1168
3.2021 -2.4658 -0.1182
3.2039 -2.4816 -0.1208
3.2058 -2.4994 -0.1197
3.2075 -2.5146 -0.1209
3.2093 -2.5331 -0.1163
3.2108 -2.5470 -0.1173
3.2123 -2.5607 -0.1177
3.2137 -2.5747 -0.1165
3.2150 -2.5858 -0.1193
3.2163 -2.5967 -0.1217
3.2176 -2.6106 -0.1177
3.2188 -2.6199 -0.1216
3.2199 -2.6320 -0.1190
3.2210 -2.6427 -0.1183
3.2231 -2.6634 -0.1157
2.9954 -1.1659 0.6809
2.8595 -0.0876 0.6278
2.8693 -0.1496 0.5703
2.9998 -1.1123 0.3393
3.0033 -1.1303 0.3018
2.9896 -1.0096 0.2509
2.9923 -0.9708 0.0193
2.9916 -0.9520 -0.0338
2.9807 -0.8468 -0.1119
2.9916 -0.9235 -0.1435
3.0097 -1.0631 -0.1522
3.0239 -1.1715 -0.1652
3.0450 -1.3404 -0.1506
3.0640 -1.4935 -0.1337
3.0756 -1.5834 -0.1363
3.0971 -1.7529 -0.1331
3.1055 -1.8179 -0.1352
3.1271 -1.9865 -0.1378
3.1508 -2.1759 -0.1248
3.1552 -2.2096 -0.1257
3.1594 -2.2435 -0.1244
3.1670 -2.3032 -0.1233
3.1705 -2.3301 -0.1230
3.1771 -2.3840 -0.1172
3.1793 -2.3988 -0.1251
3.1824 -2.4245 -0.1197
3.1851 -2.4466 -0.1169
3.1870 -2.4590 -0.1247
3.1901 -2.4870 -0.1113
3.1918 -2.4981 -0.1190
3.1940 -2.5162 -0.1159
3.1958 -2.5305 -0.1174
3.1976 -2.5437 -0.1193
3.1996 -2.5609 -0.1141
3.2028 -2.5854 -0.1164
3.2043 -2.5970 -0.1175
3.2058 -2.6077 -0.1193
3.2073 -2.6201 -0.1170
3.2099 -2.6399 -0.1197
3.2112 -2.6504 -0.1185
3.2123 -2.6584 -0.1223
2.7859 0.0101 0.7809
2.9488 -1.0121 0.2841
2.9525 -1.0312 0.2443
2.6906 0.8061 -0.1976
2.9179 -0.7364 -0.1494
2.9452 -0.9200 -0.1518
2.9698 -1.0861 -0.1512
2.9878 -1.2064 -0.1587
3.0115 -1.3686 -0.1448
3.0283 -1.4828 -0.1423
3.0477 -1.6163 -0.1256
3.0586 -1.6893 -0.1301
3.0684 -1.7548 -0.1348
3.0808 -1.8399 -0.1259
3.1126 -2.0546 -0.1257
3.1302 -2.1732 -0.1270
3.1348 -2.2035 -0.1305
3.1459 -2.2805 -0.1178
3.1540 -2.3358 -0.1165
3.1604 -2.3773 -0.1229
3.1635 -2.3988 -0.1236
3.1668 -2.4206 -0.1225
3.1700 -2.4428 -0.1196
3.1733 -2.4660 -0.1137
3.1784 -2.5005 -0.1132
3.1809 -2.5180 -0.1108
3.1826 -2.5286 -0.1173
3.1867 -2.5557 -0.1194
3.1887 -2.5692 -0.1191
3.1905 -2.5817 -0.1194
3.1924 -2.5940 -0.1191
3.1945 -2.6100 -0.1111
3.1956 -2.6154 -0.1222
3.1972 -2.6264 -0.1219
3.1990 -2.6390 -0.1172
3.2002 -2.6465 -0.1225
3.2014 -2.6534 -0.1289
2.7229 0.0543 0.8227
2.7281 0.0275 0.7671
2.9105 -1.0178 0.2757
2.9082 -1.0009 0.2326
2.6641 0.4814 -0.1567
2.9324 -1.1256 -0.0060
2.8895 -0.8614 -0.1233
2.9092 -0.9768 -0.1418
2.9357 -1.1345 -0.1416
2.9538 -1.2409 -0.1520
2.9775 -1.3825 -0.1443
2.9998 -1.5160 -0.1328
3.0111 -1.5827 -0.1439
3.0294 -1.6921 -0.1319
3.0385 -1.7458 -0.1419
3.0738 -1.9567 -0.1273
3.0920 -2.0656 -0.1194
3.1050 -2.1424 -0.1227
3.1113 -2.1797 -0.1221
3.1161 -2.2081 -0.1266
3.1280 -2.2793 -0.1184
3.1353 -2.3220 -0.1290
3.1407 -2.3545 -0.1212
3.1449 -2.3798 -0.1190
3.1525 -2.4255 -0.1151
3.1580 -2.4577 -0.1221
3.1614 -2.4784 -0.1182
3.1643 -2.4956 -0.1175
3.1723 -2.5430 -0.1146
3.1738 -2.5518 -0.1225
3.1765 -2.5682 -0.1174
3.1792 -2.5848 -0.1105
3.1807 -2.5931 -0.1172
3.1826 -2.6039 -0.1188
3.1844 -2.6151 -0.1187
3.1862 -2.6255 -0.1195
3.1883 -2.6382 -0.1146
3.1896 -2.6457 -0.1198
3.1908 -2.6519 -0.1275
2.6941 -0.5575 1.0028
2.7986 -1.0056 0.4843
2.7865 -0.9643 0.4462
2.1849 1.2386 0.0134
2.1702 1.2828 -0.0873
2.6622 -0.5640 -0.1425
2.8417 -1.2226 -0.0227
2.8535 -1.2698 -0.0532
2.8450 -1.2440 -0.1060
2.8797 -1.3737 -0.1059
2.9018 -1.4578 -0.1169
2.9160 -1.5130 -0.1360
2.9379 -1.5953 -0.1407
2.9627 -1.6879 -0.1364
3.0409 -1.9782 -0.1171
3.0631 -2.0618 -0.1245
3.0868 -2.1503 -0.1192
3.1081 -2.2290 -0.1114
3.1375 -2.3390 -0.1131
3.1437 -2.3623 -0.1137
3.1498 -2.3852 -0.1133
3.1594 -2.4218 -0.1189
3.1648 -2.4419 -0.1178
3.1713 -2.4653 -0.1109
3.1754 -2.4809 -0.1130
3.1801 -2.4983 -0.1113
3.1836 -2.5118 -0.1142
3.1873 -2.5257 -0.1155
3.1907 -2.5387 -0.1173
3.1958 -2.5569 -0.1096
3.1987 -2.5680 -0.1125
3.2022 -2.5808 -0.1115
3.2047 -2.5909 -0.1148
3.2079 -2.6026 -0.1140
3.2104 -2.6123 -0.1164
3.2139 -2.6248 -0.1121
3.2165 -2.6346 -0.1124
3.2191 -2.6443 -0.1124
2.6426 -0.5292 1.0284
2.8154 -1.1741 0.6878
1.9949 1.6646 0.6758
2.2629 0.7200 0.5522
2.0967 1.2615 0.3073
2.1176 1.1773 0.2205
2.0765 1.3057 0.1196
2.0725 1.3065 0.0234
2.0816 1.2623 -0.0694
2.1636 0.9706 -0.1263
2.5601 -0.3836 0.0091
2.5848 -0.4752 -0.0356
2.5665 -0.4219 -0.1089
2.6301 -0.6435 -0.1186
2.7692 -1.1284 -0.1431
2.8293 -1.3333 -0.1202
2.8530 -1.4170 -0.1333
2.8815 -1.5161 -0.1360
2.9400 -1.7170 -0.1250
2.9596 -1.7852 -0.1278
2.9765 -1.8444 -0.1320
3.0146 -1.9750 -0.1234
3.0444 -2.0777 -0.1188
3.0670 -2.1561 -0.1206
3.0870 -2.2254 -0.1209
3.1064 -2.2919 -0.1154
3.1192 -2.3371 -0.1228
3.1274 -2.3650 -0.1189
3.1332 -2.3854 -0.1215
3.1407 -2.4107 -0.1170
3.1468 -2.4316 -0.1160
3.1592 -2.4737 -0.1093
3.1671 -2.5020 -0.1161
3.1728 -2.5210 -0.1109
3.1755 -2.5313 -0.1176
3.1849 -2.5628 -0.1110
3.1882 -2.5744 -0.1129
3.1912 -2.5852 -0.1156
3.1957 -2.6002 -0.1094
3.1973 -2.6068 -0.1184
3.2039 -2.6294 -0.1158
3.2072 -2.6403 -0.1137
3.2095 -2.6488 -0.1163
3.2122 -2.6581 -0.1160
2.6115 -0.5899 0.9545
2.0851 1.0421 0.5858
2.0694 1.0794 0.5042
1.9688 1.3738 0.3255
2.0321 1.1567 0.2408
2.0008 1.2413 0.1429
1.9673 1.3321 0.0385
2.4805 -0.3121 0.0688
2.5234 -0.4564 0.0290
2.5186 -0.4510 -0.0336
2.5242 -0.4782 -0.0908
2.5777 -0.6534 -0.1118
2.8038 -1.3854 -0.1462
2.8455 -1.5179 -0.1366
2.8815 -1.6322 -0.1281
2.9083 -1.7183 -0.1269
2.9323 -1.7951 -0.1258
2.9730 -1.9256 -0.1243
2.9917 -1.9852 -0.1216
3.0076 -2.0364 -0.1209
3.0212 -2.0803 -0.1222
3.0341 -2.1217 -0.1229
3.0467 -2.1622 -0.1219
3.0604 -2.2053 -0.1164
3.0898 -2.2997 -0.1154
3.0951 -2.3179 -0.1241
3.1057 -2.3507 -0.1168
3.1135 -2.3759 -0.1155
3.1205 -2.3982 -0.1157
3.1386 -2.4566 -0.1179
3.1443 -2.4751 -0.1173
3.1508 -2.4953 -0.1129
3.1557 -2.5109 -0.1137
3.1596 -2.5241 -0.1169
3.1648 -2.5404 -0.1143
3.1702 -2.5570 -0.1098
3.1772 -2.5803 -0.1145
3.1814 -2.5935 -0.1126
3.1861 -2.6076 -0.1077
3.1882 -2.6154 -0.1143
3.1917 -2.6266 -0.1133
3.1952 -2.6376 -0.1117
3.1979 -2.6467 -0.1135
3.2002 -2.6545 -0.1176
3.2031 -2.6638 -0.1175
2.5226 -0.4327 1.1337
2.6001 -0.6986 0.9473
2.5694 -0.6257 0.8441
2.5852 -0.6822 0.7931
2.6040 -0.7479 0.7422
2.6151 -0.7894 0.6960
1.8403 1.5329 0.7234
1.7835 1.6869 0.6385
2.0248 0.9443 0.5239
2.4091 -0.2205 0.4384
2.4324 -0.3007 0.3811
2.4818 -0.4783 0.2182
2.4972 -0.5340 0.1665
2.4873 -0.5155 0.1061
2.4549 -0.4319 0.0328
2.4372 -0.3919 -0.0379
2.6861 -1.1539 -0.1327
2.8144 -1.5369 -0.1301
2.8405 -1.6163 -0.1373
2.8737 -1.7147 -0.1313
2.9001 -1.7934 -0.1299
2.9235 -1.8631 -0.1290
2.9406 -1.9153 -0.1345
2.9827 -2.0391 -0.1240
3.0017 -2.0947 -0.1176
3.0299 -2.1788 -0.1152
3.0412 -2.2128 -0.1167
3.0520 -2.2454 -0.1174
3.0637 -2.2797 -0.1145
3.0721 -2.3053 -0.1176
3.0831 -2.3374 -0.1126
3.0984 -2.3837 -0.1155
3.1136 -2.4288 -0.1136
3.1196 -2.4470 -0.1156
3.1261 -2.4663 -0.1151
3.1371 -2.4996 -0.1172
3.1427 -2.5164 -0.1163
3.1489 -2.5341 -0.1125
3.1533 -2.5476 -0.1142
3.1588 -2.5633 -0.1110
3.1628 -2.5756 -0.1126
3.1667 -2.5876 -0.1136
3.1745 -2.6109 -0.1143
3.1788 -2.6234 -0.1115
3.1823 -2.6339 -0.1117
3.1849 -2.6425 -0.1153
3.1889 -2.6536 -0.1121
3.1912 -2.6614 -0.1163
3.1945 -2.6710 -0.1148
2.5759 -0.7604 0.9503
2.5437 -0.6824 0.8911
2.5519 -0.7146 0.8447
2.5485 -0.7134 0.8044
2.5567 -0.7456 0.7582
2.5610 -0.7667 0.7140
2.5616 -0.7770 0.6709
2.5219 -0.6729 0.6380
2.5148 -0.6912 0.4499
2.4873 -0.6247 0.3998
2.4578 -0.5643 0.2916
2.4527 -0.5614 0.2359
2.4363 -0.5281 0.1755
2.5370 -0.8664 -0.1082
2.6399 -1.1582 -0.1302
2.8127 -1.6400 -0.1288
2.8742 -1.8107 -0.1242
2.9218 -1.9431 -0.1224
2.9567 -2.0416 -0.1276
2.9898 -2.1335 -0.1261
3.0186 -2.2134 -0.1230
3.0437 -2.2827 -0.1191
3.0650 -2.3414 -0.1166
3.0752 -2.3695 -0.1138
3.0834 -2.3924 -0.1146
3.0921 -2.4164 -0.1126
3.0982 -2.4341 -0.1166
3.1079 -2.4599 -0.1090
3.1116 -2.4719 -0.1178
3.1257 -2.5102 -0.1127
3.1370 -2.5416 -0.1122
3.1425 -2.5568 -0.1109
3.1471 -2.5698 -0.1121
3.1519 -2.5831 -0.1116
3.1567 -2.5962 -0.1106
3.1608 -2.6078 -0.1112
3.1643 -2.6180 -0.1137
3.1683 -2.6291 -0.1134
3.1714 -2.6384 -0.1163
3.1798 -2.6606 -0.1107
3.1828 -2.6693 -0.1123
3.1849 -2.6763 -0.1175
2.5648 -0.8298 1.0563
2.5110 -0.7149 0.9413
2.5113 -0.7246 0.8999
2.5075 -0.7235 0.8602
2.5279 -0.7883 0.8079
2.5242 -0.7875 0.7677
2.5126 -0.7657 0.7297
2.5126 -0.7753 0.6861
2.5131 -0.7863 0.6420
2.5093 -0.7861 0.5983
2.5220 -0.8296 0.5511
2.5140 -0.8185 0.5068
2.5100 -0.8181 0.4610
2.4976 -0.7962 0.4139
2.4746 -0.7584 0.3138
1.8556 0.7574 -0.1365
2.2808 -0.3589 -0.1681
2.4951 -0.9021 -0.0953
2.5887 -1.1539 -0.1305
2.9242 -2.0251 -0.1106
2.9352 -2.0565 -0.1230
2.9703 -2.1478 -0.1215
2.9842 -2.1844 -0.1238
2.9978 -2.2201 -0.1243
3.0138 -2.2606 -0.1185
3.0229 -2.2855 -0.1243
3.0467 -2.3466 -0.1198
3.0654 -2.3956 -0.1201
3.0757 -2.4214 -0.1161
3.0841 -2.4431 -0.1152
3.0917 -2.4630 -0.1150
3.0976 -2.4791 -0.1186
3.1080 -2.5041 -0.1082
3.1121 -2.5162 -0.1149
3.1260 -2.5510 -0.1088
3.1305 -2.5635 -0.1117
3.1353 -2.5763 -0.1131
3.1463 -2.6041 -0.1086
3.1488 -2.6122 -0.1162
3.1528 -2.6229 -0.1178
3.1588 -2.6372 -0.1105
3.1624 -2.6469 -0.1122
3.1675 -2.6589 -0.1072
3.1706 -2.6676 -0.1092
3.1738 -2.6762 -0.1109
3.1769 -2.6846 -0.1122
2.5353 -0.8668 1.0637
2.5358 -0.8769 1.0265
2.5287 -0.8670 0.9946
2.4915 -0.7982 0.9015
2.4915 -0.8078 0.8605
2.4621 -0.7425 0.8332
2.4962 -0.8397 0.7753
2.4880 -0.8288 0.7364
2.4882 -0.8395 0.6935
2.4757 -0.8182 0.6535
2.4756 -0.8285 0.6090
2.4800 -0.8502 0.5633
2.4804 -0.8620 0.5181
2.4760 -0.8619 0.4726
2.4534 -0.8177 0.4259
2.4488 -0.8180 0.3774
2.4337 -0.7932 0.3264
2.4386 -0.8168 0.2768
2.3668 -0.7111 -0.0178
2.3599 -0.7090 -0.0798
2.4226 -0.8672 -0.1011
2.6459 -1.4210 -0.1353
2.6947 -1.5399 -0.1334
2.7421 -1.6542 -0.1268
2.7709 -1.7263 -0.1342
2.8402 -1.8934 -0.1240
2.8664 -1.9572 -0.1230
2.8836 -2.0012 -0.1309
2.9128 -2.0698 -0.1195
2.9370 -2.1270 -0.1118
2.9509 -2.1622 -0.1170
2.9634 -2.1942 -0.1226
2.9804 -2.2349 -0.1190
2.9973 -2.2747 -0.1134
3.0067 -2.2993 -0.1193
3.0225 -2.3359 -0.1117
3.0325 -2.3608 -0.1136
3.0416 -2.3837 -0.1160
3.0691 -2.4509 -0.1154
3.0757 -2.4679 -0.1191
3.0929 -2.5085 -0.1130
3.0993 -2.5243 -0.1142
3.1073 -2.5429 -0.1098
3.1114 -2.5543 -0.1155
3.1183 -2.5703 -0.1126
3.1290 -2.5966 -0.1129
3.1333 -2.6077 -0.1155
3.1392 -2.6212 -0.1120
3.1443 -2.6334 -0.1101
3.1484 -2.6437 -0.1111
3.1522 -2.6532 -0.1130
3.1559 -2.6626 -0.1144
3.1598 -2.6723 -0.1141
3.1638 -2.6817 -0.1134
3.1670 -2.6901 -0.1149
2.5064 -0.9137 1.0340
2.4685 -0.8492 0.9452
2.4431 -0.7972 0.9197
2.4474 -0.8181 0.8759
2.4473 -0.8284 0.8341
2.4385 -0.8179 0.7956
2.4385 -0.8288 0.7525
2.4381 -0.8388 0.7091
2.4425 -0.8603 0.6639
2.4194 -0.8170 0.6247
2.4381 -0.8724 0.5756
2.4426 -0.8942 0.5297
2.4377 -0.8945 0.4843
2.3831 -0.7808 0.4383
2.4088 -0.8520 0.3897
2.3821 -0.8166 0.2869
2.3871 -0.8406 0.2364
2.3358 -0.7395 0.1706
2.3410 -0.7650 0.1170
2.3579 -0.8162 0.0679
2.3395 -0.7898 0.0044
2.3683 -0.8666 -0.0380
2.3955 -0.9392 -0.0785
2.5499 -1.3060 -0.1292
2.6098 -1.4429 -0.1276
2.6527 -1.5430 -0.1337
2.7347 -1.7314 -0.1347
2.8050 -1.8911 -0.1295
2.8604 -2.0174 -0.1257
2.9070 -2.1229 -0.1208
2.9252 -2.1649 -0.1215
2.9775 -2.2829 -0.1137
2.9878 -2.3079 -0.1192
3.0000 -2.3361 -0.1201
3.0358 -2.4168 -0.1147
3.0444 -2.4371 -0.1169
3.0544 -2.4595 -0.1148
3.0624 -2.4782 -0.1160
3.0711 -2.4978 -0.1145
3.0778 -2.5138 -0.1167
3.0849 -2.5301 -0.1173
3.0933 -2.5484 -0.1131
3.1006 -2.5645 -0.1110
3.1055 -2.5768 -0.1144
3.1116 -2.5905 -0.1140
3.1186 -2.6055 -0.1097
3.1237 -2.6175 -0.1102
3.1285 -2.6286 -0.1112
3.1322 -2.6380 -0.1152
3.1372 -2.6492 -0.1141
3.1428 -2.6612 -0.1101
3.1470 -2.6709 -0.1103
3.1498 -2.6785 -0.1151
3.1540 -2.6879 -0.1145
2.4124 -0.8081 1.0496
2.3934 -0.7856 0.9803
2.3931 -0.7961 0.9386
2.3883 -0.7962 0.8988
2.3927 -0.8176 0.8538
2.3920 -0.8275 0.8110
2.4015 -0.8603 0.7639
2.3913 -0.8492 0.7236
2.4053 -0.8920 0.6753
2.4052 -0.9036 0.6311
2.3855 -0.8720 0.5898
2.3369 -0.8041 0.4510
2.3418 -0.8278 0.4010
2.3356 -0.8280 0.3502
2.3175 -0.8033 0.2965
2.2863 -0.7517 0.2378
2.3276 -0.8525 0.1931
2.2714 -0.7498 0.1229
2.3143 -0.8533 0.0813
2.2555 -0.7477 0.0019
2.2935 -0.8406 -0.0392
2.2929 -0.8545 -0.0970
2.6187 -1.5645 -0.1263
2.6564 -1.6479 -0.1345
2.6977 -1.7372 -0.1350
2.7430 -1.8327 -0.1269
2.7747 -1.9013 -0.1280
2.8069 -1.9700 -0.1249
2.8315 -2.0234 -0.1273
2.8810 -2.1291 -0.1227
2.8984 -2.1674 -0.1263
2.9215 -2.2155 -0.1195
2.9570 -2.2906 -0.1146
2.9834 -2.3481 -0.1167
2.9960 -2.3752 -0.1164
3.0072 -2.3996 -0.1171
3.0277 -2.4442 -0.1184
3.0483 -2.4874 -0.1146
3.0566 -2.5054 -0.1151
3.0632 -2.5206 -0.1185
3.0817 -2.5583 -0.1096
3.0886 -2.5729 -0.1096
3.0949 -2.5867 -0.1099
3.1000 -2.5985 -0.1128
3.1055 -2.6106 -0.1140
3.1117 -2.6235 -0.1125
3.1151 -2.6325 -0.1183
3.1216 -2.6454 -0.1145
3.1253 -2.6545 -0.1182
3.1302 -2.6649 -0.1180
3.1357 -2.6759 -0.1149
3.1401 -2.6853 -0.1148
3.1447 -2.6950 -0.1131
2.3370 -0.7732 1.0033
2.3415 -0.7947 0.9581
2.3459 -0.8162 0.9128
2.3403 -0.8160 0.8722
2.3547 -0.8592 0.8224
2.3445 -0.8494 0.7826
2.3490 -0.8713 0.7367
2.3431 -0.8713 0.6936
2.3161 -0.8274 0.6543
1.5726 0.6576 0.5711
1.3803 0.9991 0.3961
1.4711 0.7899 0.3059
2.0026 -0.4098 -0.1326
2.1834 -0.7716 -0.1146
2.2914 -0.9913 -0.1171
2.5740 -1.5674 -0.1267
2.6209 -1.6633 -0.1299
2.6696 -1.7611 -0.1264
2.7058 -1.8354 -0.1294
2.7462 -1.9160 -0.1241
2.8073 -2.0394 -0.1224
2.8276 -2.0823 -0.1286
2.8545 -2.1357 -0.1244
2.9008 -2.2276 -0.1169
2.9172 -2.2614 -0.1190
2.9383 -2.3022 -0.1121
2.9606 -2.3506 -0.1233
2.9759 -2.3808 -0.1199
2.9898 -2.4083 -0.1172
3.0023 -2.4331 -0.1155
3.0113 -2.4522 -0.1191
3.0244 -2.4772 -0.1134
3.0344 -2.4973 -0.1124
3.0414 -2.5126 -0.1166
3.0496 -2.5294 -0.1174
3.0576 -2.5459 -0.1174
3.0657 -2.5619 -0.1167
3.0732 -2.5770 -0.1161
3.0819 -2.5934 -0.1116
3.0888 -2.6072 -0.1105
3.0949 -2.6196 -0.1108
3.1002 -2.6308 -0.1127
3.1062 -2.6427 -0.1118
3.1105 -2.6524 -0.1149
3.1156 -2.6628 -0.1153
3.1256 -2.6829 -0.1145
3.1355 -2.7021 -0.1116
2.2554 -0.7254 0.9959
2.2638 -0.7820 0.8558
2.2510 -0.7695 0.8145
2.2671 -0.8154 0.7624
2.2545 -0.8038 0.7191
0.9309 1.7362 0.7548
1.0586 1.4568 0.6323
1.2561 1.0181 0.4202
1.2882 0.9288 0.3233
1.2279 1.0139 0.2191
1.1107 1.2032 0.0993
1.0660 1.2547 -0.0184
2.2006 -0.9455 -0.1277
2.5317 -1.5772 -0.1244
2.6361 -1.7762 -0.1222
2.6675 -1.8389 -0.1315
2.7419 -1.9804 -0.1289
2.8330 -2.1517 -0.1192
2.8780 -2.2369 -0.1167
2.8993 -2.2766 -0.1135
2.9129 -2.3042 -0.1187
2.9292 -2.3353 -0.1186
2.9422 -2.3610 -0.1219
2.9559 -2.3875 -0.1225
2.9713 -2.4158 -0.1187
2.9866 -2.4435 -0.1134
2.9972 -2.4642 -0.1147
3.0073 -2.4838 -0.1159
3.0173 -2.5030 -0.1161
3.0286 -2.5235 -0.1127
3.0375 -2.5406 -0.1127
3.0552 -2.5736 -0.1101
3.0617 -2.5868 -0.1125
3.0678 -2.5992 -0.1153
3.0763 -2.6144 -0.1113
3.0818 -2.6257 -0.1139
3.0886 -2.6382 -0.1127
3.1006 -2.6608 -0.1118
3.1050 -2.6702 -0.1146
3.1111 -2.6811 -0.1122
3.1167 -2.6913 -0.1104
3.1219 -2.7008 -0.1093
3.1262 -2.7093 -0.1102
3.1292 -2.7164 -0.1145
2.0861 -0.5805 0.8197
2.1139 -0.6487 0.7592
1.1004 1.0843 0.4455
1.0298 1.1801 0.3407
0.9545 1.2820 0.2279
1.3647 0.4425 -0.1068
1.8103 -0.3675 -0.1291
2.0091 -0.7227 -0.1184
2.1169 -0.9211 -0.1319
2.2477 -1.1541 -0.1229
2.3168 -1.2828 -0.1368
2.4058 -1.4417 -0.1315
2.4690 -1.5566 -0.1350
2.5280 -1.6631 -0.1354
2.6379 -1.8581 -0.1253
2.6767 -1.9285 -0.1264
2.7118 -1.9919 -0.1271
2.7574 -2.0701 -0.1137
2.7735 -2.1030 -0.1269
2.8022 -2.1540 -0.1245
2.8350 -2.2102 -0.1141
2.8554 -2.2474 -0.1157
2.8726 -2.2795 -0.1192
2.8927 -2.3150 -0.1173
2.9082 -2.3437 -0.1195
2.9312 -2.3820 -0.1091
2.9416 -2.4027 -0.1154
2.9543 -2.4262 -0.1171
2.9707 -2.4539 -0.1113
2.9776 -2.4689 -0.1201
2.9918 -2.4931 -0.1150
3.0032 -2.5132 -0.1137
3.0130 -2.5310 -0.1140
3.0228 -2.5485 -0.1134
3.0316 -2.5644 -0.1137
3.0403 -2.5799 -0.1132
3.0480 -2.5940 -0.1139
3.0538 -2.6057 -0.1179
3.0614 -2.6192 -0.1173
3.0698 -2.6333 -0.1138
3.0772 -2.6461 -0.1117
3.0820 -2.6558 -0.1155
3.0876 -2.6662 -0.1167
3.0948 -2.6781 -0.1127
3.1003 -2.6880 -0.1128
3.1066 -2.6984 -0.1099
3.1098 -2.7058 -0.1151
3.1147 -2.7146 -0.1150
3.1196 -2.7232 -0.1144
2.1516 -1.1064 -0.1368
2.3403 -1.4278 -0.1379
2.4273 -1.5733 -0.1298
2.4705 -1.6513 -0.1438
2.5885 -1.8493 -0.1346
2.6894 -2.0157 -0.1177
2.7498 -2.1197 -0.1217
2.7827 -2.1740 -0.1164
2.8082 -2.2173 -0.1161
2.8508 -2.2904 -0.1180
2.8696 -2.3227 -0.1190
2.8852 -2.3504 -0.1224
2.9205 -2.4093 -0.1186
2.9362 -2.4354 -0.1169
2.9498 -2.4586 -0.1169
2.9718 -2.4974 -0.1215
2.9865 -2.5206 -0.1156
2.9953 -2.5366 -0.1188
3.0069 -2.5554 -0.1158
3.0184 -2.5737 -0.1118
3.0345 -2.6019 -0.1142
3.0434 -2.6164 -0.1124
3.0499 -2.6282 -0.1149
3.0640 -2.6523 -0.1149
3.0775 -2.6748 -0.1136
3.0841 -2.6856 -0.1120
3.0912 -2.6965 -0.1087
3.0950 -2.7044 -0.1131
3.0997 -2.7129 -0.1147
3.1057 -2.7223 -0.1122
3.1107 -2.7307 -0.1117
1.7382 -0.5589 -0.1499
2.0451 -1.0532 -0.1522
2.1886 -1.2792 -0.1378
2.2819 -1.4294 -0.1383
2.3572 -1.5515 -0.1413
2.4303 -1.6682 -0.1389
2.4935 -1.7690 -0.1368
2.5544 -1.8650 -0.1305
2.6176 -1.9622 -0.1166
2.6515 -2.0184 -0.1218
2.6803 -2.0668 -0.1286
2.7126 -2.1190 -0.1293
2.7813 -2.2255 -0.1173
2.8059 -2.2650 -0.1171
2.8224 -2.2938 -0.1240
2.8691 -2.3663 -0.1158
2.8851 -2.3927 -0.1179
2.9010 -2.4186 -0.1187
2.9345 -2.4706 -0.1131
2.9454 -2.4893 -0.1168
2.9558 -2.5071 -0.1205
2.9695 -2.5282 -0.1173
2.9822 -2.5477 -0.1147
2.9937 -2.5657 -0.1128
3.0017 -2.5796 -0.1163
3.0135 -2.5972 -0.1116
3.0214 -2.6104 -0.1136
3.0363 -2.6354 -0.1166
3.0439 -2.6476 -0.1166
3.0525 -2.6605 -0.1138
3.0604 -2.6725 -0.1114
3.0664 -2.6826 -0.1127
3.0729 -2.6928 -0.1124
3.0778 -2.7016 -0.1151
3.0846 -2.7117 -0.1126
3.0913 -2.7215 -0.1094
3.0952 -2.7290 -0.1131
3.1000 -2.7369 -0.1140
1.6937 -0.6259 -0.1277
1.8296 -0.8384 -0.1459
1.9812 -1.0688 -0.1456
2.1472 -1.3144 -0.1251
2.2381 -1.4540 -0.1297
2.3018 -1.5549 -0.1420
2.4487 -1.7765 -0.1369
2.5622 -1.9471 -0.1311
2.6525 -2.0823 -0.1246
2.6921 -2.1411 -0.1202
2.7187 -2.1830 -0.1248
2.7837 -2.2783 -0.1140
2.8052 -2.3117 -0.1164
2.8270 -2.3449 -0.1163
2.8422 -2.3699 -0.1224
2.8686 -2.4069 -0.1128
2.8802 -2.4269 -0.1202
2.9014 -2.4569 -0.1134
2.9165 -2.4798 -0.1131
2.9401 -2.5175 -0.1186
2.9523 -2.5361 -0.1190
2.9633 -2.5533 -0.1202
2.9774 -2.5730 -0.1151
2.9872 -2.5882 -0.1161
2.9959 -2.6021 -0.1182
3.0076 -2.6185 -0.1138
3.0141 -2.6298 -0.1183
3.0340 -2.6578 -0.1111
3.0418 -2.6695 -0.1106
3.0486 -2.6801 -0.1115
3.0543 -2.6896 -0.1141
3.0630 -2.7012 -0.1094
3.0681 -2.7099 -0.1121
3.0741 -2.7191 -0.1120
3.0797 -2.7277 -0.1126
3.0856 -2.7364 -0.1116
1.7313 -0.8225 -0.1468
1.9250 -1.0971 -0.1348
2.0477 -1.2749 -0.1389
2.2603 -1.5789 -0.1338
2.3470 -1.7020 -0.1292
2.4094 -1.7929 -0.1326
2.4783 -1.8899 -0.1262
2.5321 -1.9667 -0.1249
2.6215 -2.0947 -0.1229
2.6952 -2.1995 -0.1197
2.7173 -2.2339 -0.1274
2.7585 -2.2887 -0.1138
2.8056 -2.3566 -0.1145
2.8509 -2.4198 -0.1091
2.8804 -2.4645 -0.1159
2.8960 -2.4871 -0.1161
2.9072 -2.5049 -0.1212
2.9364 -2.5458 -0.1181
2.9483 -2.5632 -0.1186
2.9618 -2.5815 -0.1155
2.9752 -2.5994 -0.1114
2.9820 -2.6112 -0.1172
3.0041 -2.6410 -0.1117
3.0112 -2.6523 -0.1147
3.0200 -2.6646 -0.1140
3.0265 -2.6750 -0.1168
3.0346 -2.6863 -0.1159
3.0489 -2.7068 -0.1154
3.0573 -2.7175 -0.1114
3.0626 -2.7258 -0.1138
3.0683 -2.7343 -0.1146
3.0740 -2.7426 -0.1149
1.0522 -0.0282 -0.1614
1.6004 -0.7729 -0.1570
1.8390 -1.0901 -0.1353
1.9801 -1.2824 -0.1360
2.1109 -1.4584 -0.1302
2.2074 -1.5901 -0.1312
2.3536 -1.7914 -0.1377
2.4830 -1.9654 -0.1316
2.5876 -2.1049 -0.1230
2.6277 -2.1591 -0.1221
2.6638 -2.2080 -0.1213
2.7306 -2.2969 -0.1157
2.7834 -2.3680 -0.1133
2.8244 -2.4244 -0.1154
2.8624 -2.4757 -0.1140
2.8700 -2.4901 -0.1256
2.8918 -2.5170 -0.1174
2.9050 -2.5356 -0.1194
2.9220 -2.5571 -0.1147
2.9489 -2.5926 -0.1116
2.9593 -2.6073 -0.1129
2.9681 -2.6203 -0.1162
2.9892 -2.6484 -0.1140
2.9994 -2.6616 -0.1122
3.0095 -2.6744 -0.1096
3.0224 -2.6941 -0.1158
3.0405 -2.7164 -0.1089
3.0449 -2.7242 -0.1142
3.0524 -2.7337 -0.1120
3.0578 -2.7417 -0.1141
3.0647 -2.7505 -0.1121
1.2809 -0.4836 -0.1444
1.5155 -0.7875 -0.1489
1.8923 -1.2701 -0.1402
2.1648 -1.6151 -0.1227
2.3119 -1.8085 -0.1333
2.5475 -2.1099 -0.1270
2.6355 -2.2207 -0.1196
2.6922 -2.2962 -0.1265
2.8038 -2.4356 -0.1141
2.8208 -2.4588 -0.1176
2.8377 -2.4814 -0.1199
2.8586 -2.5069 -0.1156
2.8723 -2.5257 -0.1190
2.8870 -2.5449 -0.1198
2.9023 -2.5642 -0.1186
2.9318 -2.6005 -0.1136
2.9557 -2.6309 -0.1124
2.9787 -2.6591 -0.1085
2.9869 -2.6705 -0.1107
2.9945 -2.6812 -0.1133
3.0009 -2.6909 -0.1174
3.0118 -2.7032 -0.1126
3.0282 -2.7236 -0.1103
3.0344 -2.7323 -0.1123
3.0406 -2.7407 -0.1138
3.0467 -2.7489 -0.1148
3.0533 -2.7572 -0.1141
0.5940 0.1986 -0.1868
1.1968 -0.5169 -0.1297
1.4281 -0.8030 -0.1404
1.6145 -1.0337 -0.1492
2.1616 -1.6988 -0.1414
2.4057 -1.9918 -0.1278
2.4536 -2.0521 -0.1328
2.5191 -2.1282 -0.1215
2.5663 -2.1848 -0.1189
2.6061 -2.2332 -0.1183
2.6380 -2.2732 -0.1213
2.6735 -2.3155 -0.1185
2.7305 -2.3849 -0.1179
2.7534 -2.4135 -0.1198
2.7755 -2.4408 -0.1207
2.8173 -2.4915 -0.1199
2.8358 -2.5141 -0.1197
2.8543 -2.5360 -0.1182
2.8670 -2.5531 -0.1224
2.8846 -2.5734 -0.1191
2.9026 -2.5935 -0.1138
2.9115 -2.6065 -0.1199
2.9263 -2.6234 -0.1167
2.9416 -2.6402 -0.1113
2.9496 -2.6517 -0.1161
2.9732 -2.6787 -0.1112
2.9798 -2.6885 -0.1160
2.9911 -2.7009 -0.1120
2.9977 -2.7102 -0.1157
3.0053 -2.7199 -0.1167
3.0129 -2.7294 -0.1172
3.0222 -2.7395 -0.1138
3.0291 -2.7481 -0.1143
3.0343 -2.7557 -0.1178
3.0411 -2.7639 -0.1173
0.6649 -0.0395 -0.1281
1.0914 -0.5298 -0.1197
1.3209 -0.8013 -0.1366
1.5221 -1.0373 -0.1459
1.9127 -1.4814 -0.1248
2.4230 -2.0723 -0.1265
2.5247 -2.1891 -0.1244
2.6039 -2.2808 -0.1246
2.6697 -2.3568 -0.1244
2.7262 -2.4216 -0.1230
2.7767 -2.4786 -0.1190
2.8170 -2.5251 -0.1185
2.8561 -2.5683 -0.1132
2.8692 -2.5846 -0.1164
2.8878 -2.6042 -0.1112
2.8994 -2.6187 -0.1141
2.9134 -2.6344 -0.1127
2.9260 -2.6488 -0.1121
2.9362 -2.6613 -0.1142
2.9450 -2.6727 -0.1176
2.9574 -2.6860 -0.1145
2.9679 -2.6978 -0.1135
2.9869 -2.7194 -0.1124
2.9936 -2.7283 -0.1157
3.0104 -2.7472 -0.1141
3.0194 -2.7565 -0.1113
3.0229 -2.7631 -0.1184
3.0305 -2.7714 -0.1169
3.0369 -2.7789 -0.1173
0.4267 0.0560 -0.1353
0.7902 -0.3494 -0.1542
1.1902 -0.7816 -0.1374
1.4109 -1.0270 -0.1469
2.0448 -1.7189 -0.1395
2.3922 -2.0926 -0.1202
2.4833 -2.1955 -0.1287
2.5751 -2.2941 -0.1230
2.6456 -2.3708 -0.1217
2.7017 -2.4328 -0.1229
2.7624 -2.4950 -0.1111
2.7993 -2.5371 -0.1159
2.8149 -2.5555 -0.1194
2.8291 -2.5726 -0.1233
2.8644 -2.6098 -0.1194
2.8770 -2.6245 -0.1219
2.8953 -2.6423 -0.1157
2.9090 -2.6569 -0.1145
2.9233 -2.6714 -0.1114
2.9445 -2.6952 -0.1129
2.9535 -2.7058 -0.1150
2.9630 -2.7164 -0.1155
2.9731 -2.7270 -0.1143
2.9793 -2.7356 -0.1189
2.9905 -2.7461 -0.1142
2.9992 -2.7552 -0.1133
3.0157 -2.7723 -0.1107
3.0211 -2.7795 -0.1140
0.4106 -0.0809 -0.0972
0.7945 -0.4861 -0.1146
1.1656 -0.8694 -0.1089
1.3554 -1.0744 -0.1298
2.2058 -1.9549 -0.1226
2.3421 -2.0974 -0.1250
2.4647 -2.2217 -0.1168
2.5438 -2.3061 -0.1229
2.6198 -2.3840 -0.1200
2.6519 -2.4171 -0.1194
2.6783 -2.4453 -0.1215
2.7801 -2.5484 -0.1146
2.8121 -2.5841 -0.1210
2.8464 -2.6193 -0.1200
2.8608 -2.6346 -0.1211
2.8810 -2.6527 -0.1134
2.9091 -2.6808 -0.1104
2.9184 -2.6918 -0.1140
2.9257 -2.7017 -0.1199
2.9408 -2.7149 -0.1135
2.9499 -2.7250 -0.1152
2.9597 -2.7351 -0.1152
2.9706 -2.7455 -0.1124
2.9783 -2.7541 -0.1143
2.9852 -2.7623 -0.1169
2.9935 -2.7708 -0.1167
3.0010 -2.7788 -0.1171
3.0097 -2.7869 -0.1146
3.0146 -2.7936 -0.1189
0.7986 -0.6150 -0.0774
0.8774 -0.7180 -0.1444
2.1974 -2.0160 -0.1412
2.2943 -2.1062 -0.1273
2.4248 -2.2314 -0.1188
2.4631 -2.2717 -0.1257
2.5612 -2.3644 -0.1156
2.5830 -2.3901 -0.1265
2.6196 -2.4251 -0.1239
2.6830 -2.4858 -0.1195
2.7104 -2.5122 -0.1178
2.7614 -2.5603 -0.1125
2.7744 -2.5760 -0.1202
2.8047 -2.6013 -0.1081
2.8134 -2.6136 -0.1182
2.8457 -2.6456 -0.1185
2.8631 -2.6615 -0.1154
2.8913 -2.6887 -0.1139
2.9043 -2.7012 -0.1131
2.9125 -2.7112 -0.1182
2.9240 -2.7224 -0.1179
2.9347 -2.7329 -0.1178
2.9467 -2.7436 -0.1149
2.9567 -2.7532 -0.1144
2.9672 -2.7628 -0.1122
2.9744 -2.7708 -0.1148
2.9835 -2.7793 -0.1136
2.9912 -2.7871 -0.1141
2.9989 -2.7946 -0.1141
0.6522 -0.6073 -0.0709
0.7123 -0.6922 -0.1456
1.9649 -1.8578 -0.1384
2.1615 -2.0394 -0.1338
2.3086 -2.1754 -0.1307
2.4183 -2.2780 -0.1316
2.5162 -2.3672 -0.1258
2.5556 -2.4036 -0.1251
2.5954 -2.4392 -0.1212
2.6626 -2.4999 -0.1158
2.6851 -2.5223 -0.1196
2.7161 -2.5490 -0.1139
2.7303 -2.5655 -0.1224
2.7516 -2.5855 -0.1226
2.7785 -2.6079 -0.1156
2.7967 -2.6250 -0.1160
2.8133 -2.6409 -0.1169
2.8334 -2.6579 -0.1127
2.8484 -2.6721 -0.1130
2.8626 -2.6855 -0.1134
2.8725 -2.6966 -0.1182
2.8866 -2.7092 -0.1168
2.8985 -2.7205 -0.1174
2.9131 -2.7325 -0.1133
2.9220 -2.7420 -0.1163
2.9330 -2.7520 -0.1157
2.9453 -2.7621 -0.1122
2.9568 -2.7716 -0.1090
2.9614 -2.7787 -0.1161
2.9701 -2.7868 -0.1162
2.9787 -2.7947 -0.1157
2.9866 -2.8021 -0.1159
2.9904 -2.8083 -0.1227
0.6343 -0.7113 -0.0395
0.5055 -0.6417 -0.1529
0.9707 -1.0444 -0.1313
1.9212 -1.8839 -0.1300
2.1246 -2.0624 -0.1267
2.2611 -2.1855 -0.1331
2.3898 -2.2966 -0.1264
2.4843 -2.3799 -0.1258
2.5656 -2.4505 -0.1225
2.6362 -2.5108 -0.1170
2.6585 -2.5324 -0.1220
2.6866 -2.5566 -0.1202
2.7379 -2.6001 -0.1156
2.7783 -2.6357 -0.1154
2.8117 -2.6661 -0.1175
2.8446 -2.6944 -0.1155
2.8570 -2.7062 -0.1179
2.8736 -2.7194 -0.1140
2.8858 -2.7304 -0.1147
2.8993 -2.7416 -0.1127
2.9092 -2.7512 -0.1148
2.9226 -2.7617 -0.1112
2.9310 -2.7702 -0.1142
2.9421 -2.7793 -0.1123
2.9490 -2.7869 -0.1163
2.9572 -2.7947 -0.1176
2.9675 -2.8027 -0.1150
2.9749 -2.8099 -0.1164
2.9788 -2.8160 -0.1234
-0.2506 0.1180 0.5055
0.8369 -0.8308 0.4083
0.5914 -0.7915 -0.0136
0.5728 -0.8110 -0.1027
0.8453 -1.0488 -0.1271
0.9764 -1.1760 -0.1713
1.8229 -1.8733 -0.1426
2.2117 -2.1960 -0.1356
2.3556 -2.3120 -0.1243
2.4085 -2.3561 -0.1235
2.4619 -2.3990 -0.1189
2.5430 -2.4665 -0.1179
2.6070 -2.5209 -0.1200
2.6368 -2.5457 -0.1197
2.6634 -2.5682 -0.1202
2.6906 -2.5902 -0.1185
2.7130 -2.6094 -0.1193
2.7583 -2.6460 -0.1162
2.7766 -2.6616 -0.1169
2.7925 -2.6758 -0.1189
2.8286 -2.7044 -0.1149
2.8583 -2.7288 -0.1138
2.8811 -2.7495 -0.1178
2.8957 -2.7603 -0.1143
2.9050 -2.7692 -0.1170
2.9173 -2.7786 -0.1150
2.9258 -2.7868 -0.1176
2.9372 -2.7954 -0.1152
2.9456 -2.8030 -0.1167
2.9547 -2.8106 -0.1165
2.9630 -2.8177 -0.1169
2.9713 -2.8246 -0.1169
-0.0759 -0.0514 0.8225
0.2805 -0.3854 0.6933
0.1603 -0.3227 0.6117
0.1694 -0.3668 0.5189
0.6604 -0.7928 0.4271
0.4095 -0.7678 -0.0097
0.4472 -0.8303 -0.0915
0.6660 -1.0201 -0.1327
0.8337 -1.1693 -0.1733
1.6263 -1.7829 -0.1364
1.8952 -1.9954 -0.1346
2.1781 -2.2176 -0.1292
2.2541 -2.2763 -0.1254
2.3233 -2.3293 -0.1207
2.3631 -2.3643 -0.1292
2.4116 -2.4029 -0.1297
2.4653 -2.4431 -0.1237
2.5402 -2.5031 -0.1253
2.5867 -2.5361 -0.1154
2.6031 -2.5536 -0.1268
2.6445 -2.5822 -0.1162
2.7183 -2.6404 -0.1155
2.7411 -2.6578 -0.1139
2.7552 -2.6712 -0.1195
2.7777 -2.6875 -0.1154
2.7955 -2.7014 -0.1150
2.8101 -2.7137 -0.1169
2.8246 -2.7257 -0.1180
2.8436 -2.7387 -0.1128
2.8580 -2.7498 -0.1120
2.8662 -2.7587 -0.1180
2.8834 -2.7698 -0.1118
2.8915 -2.7782 -0.1166
2.9034 -2.7872 -0.1158
2.9223 -2.8034 -0.1186
2.9361 -2.8119 -0.1125
2.9432 -2.8188 -0.1157
2.9510 -2.8257 -0.1174
2.9588 -2.8323 -0.1187
0.2916 -0.4800 0.7937
0.2387 -0.4728 0.7130
0.1843 -0.4658 0.6289
0.3549 -0.6666 0.4482
0.4051 -0.9107 -0.0647
0.4135 -0.9513 -0.1501
0.6810 -1.1623 -0.1754
1.3331 -1.6391 -0.1441
2.0335 -2.1615 -0.1359
2.1352 -2.2343 -0.1272
2.2065 -2.2880 -0.1277
2.2799 -2.3411 -0.1228
2.3257 -2.3781 -0.1293
2.4387 -2.4592 -0.1202
2.4836 -2.4922 -0.1181
2.5202 -2.5200 -0.1191
2.5831 -2.5685 -0.1224
2.6304 -2.5983 -0.1083
2.6421 -2.6123 -0.1211
2.6940 -2.6503 -0.1187
2.7358 -2.6820 -0.1197
2.7747 -2.7107 -0.1182
2.7937 -2.7241 -0.1162
2.8062 -2.7351 -0.1202
2.8397 -2.7584 -0.1157
2.8635 -2.7776 -0.1190
2.8779 -2.7873 -0.1161
2.8893 -2.7960 -0.1165
2.8998 -2.8042 -0.1173
2.9095 -2.8119 -0.1186
2.9229 -2.8201 -0.1137
2.9332 -2.8274 -0.1126
2.9389 -2.8338 -0.1179
2.9476 -2.8404 -0.1181
0.1251 -0.4680 0.8275
0.3993 -0.8087 0.4685
0.3515 -0.8085 0.3854
0.1562 -0.8931 -0.1639
1.4136 -1.7573 -0.0932
1.5096 -1.8364 -0.1202
2.0019 -2.1884 -0.1262
2.1519 -2.2976 -0.1327
2.2271 -2.3496 -0.1291
2.2758 -2.3869 -0.1358
2.3276 -2.4244 -0.1378
2.3858 -2.4637 -0.1327
2.4845 -2.5302 -0.1238
2.5547 -2.5802 -0.1242
2.5974 -2.6069 -0.1152
2.6300 -2.6286 -0.1118
2.6708 -2.6611 -0.1204
2.7194 -2.6941 -0.1167
2.7593 -2.7220 -0.1156
2.7706 -2.7327 -0.1223
2.7955 -2.7469 -0.1135
2.8083 -2.7573 -0.1168
2.8242 -2.7681 -0.1156
2.8376 -2.7779 -0.1164
2.8509 -2.7874 -0.1164
2.8595 -2.7956 -0.1216
2.8758 -2.8050 -0.1162
2.8889 -2.8134 -0.1140
2.9004 -2.8212 -0.1132
2.9177 -2.8352 -0.1174
2.9275 -2.8420 -0.1171
1.2434 -1.4626 0.5286
0.4136 -0.9222 0.4878
0.3951 -0.9426 0.4076
0.2422 -1.0532 -0.1122
1.2505 -1.7296 -0.1105
1.4099 -1.8420 -0.1236
2.1290 -2.3241 -0.1215
2.1973 -2.3704 -0.1227
2.2549 -2.4103 -0.1257
2.3165 -2.4506 -0.1231
2.3536 -2.4789 -0.1313
2.4215 -2.5191 -0.1182
2.4590 -2.5454 -0.1210
2.5403 -2.5977 -0.1154
2.5747 -2.6201 -0.1136
2.6013 -2.6389 -0.1159
2.6227 -2.6553 -0.1209
2.6532 -2.6742 -0.1169
2.6727 -2.6888 -0.1208
2.6954 -2.7040 -0.1205
2.7205 -2.7192 -0.1166
2.7388 -2.7320 -0.1179
2.7726 -2.7556 -0.1199
2.7931 -2.7676 -0.1155
2.8045 -2.7770 -0.1200
2.8327 -2.7962 -0.1205
2.8479 -2.8054 -0.1181
2.8598 -2.8137 -0.1189
2.8797 -2.8229 -0.1085
2.8842 -2.8295 -0.1174
2.8943 -2.8367 -0.1184
2.9028 -2.8434 -0.1210
2.9159 -2.8504 -0.1163
0.2350 -0.9055 0.5109
0.1204 -0.8673 0.4277
-0.5200 -0.5044 0.3227
-0.2551 -0.8728 -0.1616
1.2713 -1.8071 -0.0784
1.3284 -1.8607 -0.1203
1.4727 -1.9572 -0.1323
1.7644 -2.1418 -0.1310
1.9719 -2.2741 -0.1326
2.0619 -2.3304 -0.1308
2.1363 -2.3779 -0.1314
2.1979 -2.4183 -0.1344
2.2583 -2.4567 -0.1345
2.3220 -2.4949 -0.1293
2.3809 -2.5298 -0.1233
2.4386 -2.5629 -0.1147
2.5474 -2.6321 -0.1151
2.5703 -2.6491 -0.1212
2.6243 -2.6840 -0.1226
2.6511 -2.7004 -0.1211
2.6761 -2.7157 -0.1197
2.7000 -2.7300 -0.1177
2.7442 -2.7562 -0.1131
2.7543 -2.7658 -0.1210
2.7753 -2.7774 -0.1169
2.8060 -2.7971 -0.1174
2.8191 -2.8061 -0.1188
2.8330 -2.8148 -0.1185
2.8510 -2.8236 -0.1124
2.8631 -2.8314 -0.1125
2.8702 -2.8383 -0.1183
2.8838 -2.8456 -0.1151
2.8933 -2.8523 -0.1167
2.9027 -2.8587 -0.1178
2.9088 -2.8647 -0.1231
0.1115 -0.8255 0.7843
1.0246 -1.4394 0.6243
1.2443 -1.6013 0.5519
1.2049 -1.6931 0.2755
1.2508 -1.7423 0.2235
1.1543 -1.8115 -0.0810
1.2026 -1.8600 -0.1279
1.3503 -1.9549 -0.1431
1.5000 -2.0473 -0.1496
1.9291 -2.2953 -0.1279
2.0065 -2.3441 -0.1334
2.0854 -2.3916 -0.1341
2.1847 -2.4453 -0.1201
2.2374 -2.4790 -0.1251
2.3384 -2.5410 -0.1287
2.3948 -2.5723 -0.1227
2.4304 -2.5953 -0.1269
2.4666 -2.6178 -0.1286
2.5116 -2.6420 -0.1221
2.5725 -2.6791 -0.1235
2.6328 -2.7131 -0.1185
2.6811 -2.7415 -0.1171
2.7219 -2.7660 -0.1172
2.7546 -2.7871 -0.1208
2.7912 -2.8072 -0.1164
2.8029 -2.8157 -0.1199
2.8206 -2.8246 -0.1159
2.8347 -2.8327 -0.1149
2.8488 -2.8404 -0.1132
2.8708 -2.8544 -0.1151
2.8788 -2.8608 -0.1191
2.8884 -2.8671 -0.1204
1.2513 -1.6701 0.5624
1.2911 -1.7592 0.4039
1.3305 -1.8466 0.2491
1.2501 -1.9435 -0.0893
1.4753 -2.0677 -0.0819
1.5677 -2.1290 -0.1036
1.6173 -2.1702 -0.1348
1.8661 -2.3092 -0.1308
2.0576 -2.4153 -0.1255
2.2130 -2.4998 -0.1176
2.3070 -2.5569 -0.1271
2.4102 -2.6126 -0.1206
2.4822 -2.6547 -0.1239
2.5482 -2.6918 -0.1236
2.6071 -2.7243 -0.1216
2.6601 -2.7527 -0.1180
2.7046 -2.7771 -0.1162
2.7195 -2.7873 -0.1204
2.7353 -2.7973 -0.1229
2.7710 -2.8167 -0.1209
2.8308 -2.8493 -0.1180
2.8443 -2.8564 -0.1169
2.8551 -2.8631 -0.1183
2.8658 -2.8696 -0.1192
2.8791 -2.8758 -0.1161
2.8863 -2.8817 -0.1204
0.6631 -1.4294 0.5466
1.3282 -1.9246 0.2144
1.3015 -2.0008 0.0012
1.3414 -2.0405 -0.0424
1.3117 -2.0503 -0.1028
1.5531 -2.1913 -0.1320
1.8218 -2.3318 -0.1257
1.9065 -2.3796 -0.1319
2.0042 -2.4300 -0.1281
2.0758 -2.4694 -0.1310
2.1687 -2.5141 -0.1197
2.2207 -2.5439 -0.1246
2.2818 -2.5752 -0.1217
2.3853 -2.6285 -0.1172
2.4552 -2.6685 -0.1236
2.4899 -2.6872 -0.1242
2.5272 -2.7057 -0.1210
2.5902 -2.7377 -0.1173
2.6379 -2.7641 -0.1195
2.6589 -2.7759 -0.1211
2.6843 -2.7880 -0.1176
2.7220 -2.8086 -0.1188
2.7416 -2.8183 -0.1171
2.7549 -2.8269 -0.1207
2.7910 -2.8439 -0.1155
2.8049 -2.8515 -0.1159
2.8187 -2.8588 -0.1156
2.8289 -2.8656 -0.1188
2.8435 -2.8722 -0.1161
2.8536 -2.8785 -0.1182
2.8663 -2.8845 -0.1164
2.8754 -2.8902 -0.1185
1.4778 -1.8736 0.6555
1.4939 -2.0358 0.2944
1.3553 -1.9919 0.2343
1.3033 -1.9898 0.1780
1.2458 -2.0320 0.0117
1.1334 -2.0095 -0.0678
1.1102 -2.0246 -0.1305
1.2975 -2.1205 -0.1349
1.6010 -2.2745 -0.1390
1.7252 -2.3369 -0.1392
1.8323 -2.3908 -0.1396
1.9215 -2.4366 -0.1420
2.0489 -2.4923 -0.1228
2.1361 -2.5330 -0.1157
2.1930 -2.5631 -0.1192
2.3089 -2.6198 -0.1161
2.3544 -2.6431 -0.1171
2.3855 -2.6619 -0.1246
2.4755 -2.7035 -0.1161
2.5098 -2.7205 -0.1156
2.5883 -2.7627 -0.1223
2.6443 -2.7884 -0.1167
2.6868 -2.8098 -0.1170
2.7069 -2.8197 -0.1165
2.7640 -2.8463 -0.1116
2.7746 -2.8537 -0.1166
2.7943 -2.8614 -0.1114
2.8020 -2.8682 -0.1182
2.8143 -2.8749 -0.1196
2.8310 -2.8813 -0.1150
2.8395 -2.8874 -0.1193
2.8498 -2.8933 -0.1210
2.8591 -2.8990 -0.1233
-0.3234 -0.4385 2.1434
1.5148 -1.9441 0.6576
1.4732 -1.9410 0.6191
1.4298 -1.9380 0.5786
1.4759 -2.0763 0.3072
1.4313 -2.0766 0.2577
1.3421 -2.0591 0.2004
1.1642 -2.0538 0.0175
1.1150 -2.0586 -0.0477
1.0791 -2.0695 -0.1125
1.1668 -2.1252 -0.1459
1.5559 -2.3022 -0.1307
1.6688 -2.3581 -0.1369
1.7742 -2.4092 -0.1401
1.8979 -2.4635 -0.1306
1.9825 -2.5038 -0.1315
2.1308 -2.5732 -0.1304
2.2492 -2.6289 -0.1299
2.3655 -2.6789 -0.1185
2.4381 -2.7151 -0.1230
2.5042 -2.7469 -0.1246
2.5409 -2.7623 -0.1201
2.5649 -2.7750 -0.1233
2.6259 -2.8003 -0.1153
2.6617 -2.8204 -0.1227
2.6794 -2.8298 -0.1252
2.7046 -2.8394 -0.1197
2.7269 -2.8482 -0.1157
2.7416 -2.8561 -0.1180
2.7735 -2.8709 -0.1176
2.7870 -2.8778 -0.1188
2.8023 -2.8843 -0.1172
2.8166 -2.8905 -0.1159
2.8271 -2.8965 -0.1182
2.8385 -2.9022 -0.1189
2.8471 -2.9078 -0.1225
1.4131 -2.1170 0.2711
1.3458 -2.1104 0.2175
1.1174 -2.1374 -0.0787
1.0530 -2.1398 -0.1504
1.4920 -2.3247 -0.1281
1.6103 -2.3798 -0.1346
1.7210 -2.4303 -0.1380
1.8382 -2.4802 -0.1333
1.9397 -2.5234 -0.1292
2.0930 -2.5911 -0.1288
2.2239 -2.6473 -0.1246
2.3237 -2.6916 -0.1249
2.4127 -2.7296 -0.1217
2.5558 -2.7894 -0.1134
2.6064 -2.8123 -0.1146
2.6383 -2.8235 -0.1079
2.6506 -2.8325 -0.1160
2.6697 -2.8417 -0.1176
2.6877 -2.8503 -0.1192
2.7254 -2.8665 -0.1179
2.7541 -2.8809 -0.1218
2.7765 -2.8875 -0.1142
2.7864 -2.8939 -0.1189
2.8010 -2.8999 -0.1178
2.8089 -2.9059 -0.1235
2.8262 -2.9111 -0.1179
1.5153 -2.0386 0.6700
1.3956 -2.1568 0.2842
1.3385 -2.1555 0.2328
0.6711 -1.9912 -0.0262
1.1005 -2.1837 -0.0590
1.0785 -2.2005 -0.1187
1.2255 -2.2680 -0.1336
1.4354 -2.3504 -0.1227
1.5498 -2.4021 -0.1323
1.6669 -2.4521 -0.1356
1.7957 -2.5026 -0.1287
1.8941 -2.5430 -0.1276
1.9869 -2.5800 -0.1240
2.0506 -2.6086 -0.1290
2.1365 -2.6404 -0.1203
2.1903 -2.6641 -0.1234
2.2439 -2.6866 -0.1239
2.4599 -2.7748 -0.1207
2.4930 -2.7885 -0.1204
2.5290 -2.8017 -0.1164
2.5876 -2.8246 -0.1131
2.6092 -2.8345 -0.1154
2.6278 -2.8438 -0.1190
2.6716 -2.8614 -0.1177
2.6859 -2.8694 -0.1222
2.7032 -2.8770 -0.1233
2.7262 -2.8842 -0.1179
2.7452 -2.8909 -0.1153
2.7612 -2.8973 -0.1147
2.7810 -2.9032 -0.1093
2.7833 -2.9096 -0.1217
2.7962 -2.9152 -0.1224
2.8120 -2.9203 -0.1191
1.5231 -2.0865 0.6748
1.3843 -2.1782 0.3424
1.3692 -2.1924 0.2965
1.3422 -2.2029 0.2486
1.2831 -2.2032 0.1954
0.5528 -1.9857 0.0442
0.4528 -1.9828 -0.0378
1.1615 -2.2517 -0.0232
1.0620 -2.2460 -0.0985
1.1076 -2.2823 -0.1409
1.3684 -2.3743 -0.1197
1.5063 -2.4299 -0.1242
1.5865 -2.4686 -0.1414
1.7181 -2.5175 -0.1364
1.8311 -2.5595 -0.1322
1.9195 -2.5940 -0.1326
2.0117 -2.6274 -0.1271
2.0888 -2.6561 -0.1241
2.1531 -2.6808 -0.1235
2.2747 -2.7250 -0.1168
2.3112 -2.7418 -0.1225
2.3921 -2.7738 -0.1240
2.4322 -2.7885 -0.1219
