ply
format ascii 1.0
element vertex 2110
property float x
property float y
property float z
end_header
4.5261 -2.7134 -0.2683
4.4391 -2.7155 -0.2649
4.3767 -2.7180 -0.2697
4.2573 -2.7219 -0.2723
4.1891 -2.7227 -0.2630
4.0859 -2.7247 -0.2555
4.0502 -2.7262 -0.2590
3.9768 -2.7283 -0.2580
3.9191 -2.7306 -0.2624
3.8900 -2.7313 -0.2615
3.8577 -2.7314 -0.2554
3.7914 -2.7339 -0.2589
3.7737 -2.7349 -0.2625
3.7487 -2.7347 -0.2555
3.7325 -2.7355 -0.2584
3.7153 -2.7361 -0.2587
3.7039 -2.7375 -0.2662
3.6840 -2.7372 -0.2602
3.6627 -2.7365 -0.2500
3.6514 -2.7374 -0.2547
3.6384 -2.7380 -0.2557
3.6264 -2.7385 -0.2572
3.6127 -2.7386 -0.2548
3.6017 -2.7392 -0.2564
3.5904 -2.7395 -0.2564
3.5804 -2.7400 -0.2583
3.5695 -2.7402 -0.2573
3.5500 -2.7409 -0.2578
7.5803 -2.3624 0.9425
7.6712 -2.3662 0.8731
6.9816 -2.4237 0.7097
6.5212 -2.4630 0.5936
6.6845 -2.4876 0.3273
6.6215 -2.5001 0.2540
6.2193 -2.5293 0.1937
6.5252 -2.5234 0.1096
6.6895 -2.5256 0.0211
6.7450 -2.5335 -0.0654
6.7715 -2.5430 -0.1526
6.8318 -2.5517 -0.2483
6.6643 -2.5682 -0.3080
6.1108 -2.5946 -0.2813
5.6752 -2.6146 -0.2544
5.4628 -2.6272 -0.2635
5.3514 -2.6366 -0.2914
5.1753 -2.6464 -0.2937
4.8418 -2.6624 -0.2783
4.7101 -2.6686 -0.2714
4.6162 -2.6740 -0.2741
4.5280 -2.6787 -0.2744
4.4500 -2.6830 -0.2750
4.3753 -2.6868 -0.2732
4.3059 -2.6901 -0.2701
4.2459 -2.6932 -0.2688
4.1792 -2.6956 -0.2598
4.1400 -2.6984 -0.2653
4.0905 -2.7006 -0.2613
4.0153 -2.7049 -0.2631
3.9809 -2.7067 -0.2632
3.9456 -2.7083 -0.2604
3.8930 -2.7117 -0.2654
3.8613 -2.7127 -0.2599
3.8363 -2.7140 -0.2594
3.7946 -2.7167 -0.2630
3.7704 -2.7174 -0.2585
3.7489 -2.7182 -0.2557
3.7349 -2.7197 -0.2612
3.7169 -2.7206 -0.2605
3.6848 -2.7223 -0.2607
3.6673 -2.7227 -0.2565
3.6508 -2.7231 -0.2527
3.6404 -2.7243 -0.2578
3.6264 -2.7248 -0.2559
3.6146 -2.7256 -0.2568
3.6024 -2.7261 -0.2560
3.5904 -2.7266 -0.2546
3.5805 -2.7274 -0.2564
3.5690 -2.7277 -0.2540
3.5606 -2.7286 -0.2574
3.5512 -2.7291 -0.2579
7.6425 -2.2655 0.9268
7.5572 -2.2828 0.8332
7.1318 -2.3304 0.7047
6.3920 -2.4038 0.5638
6.3455 -2.4520 0.1726
6.4874 -2.4499 0.0944
6.6465 -2.4476 0.0065
6.6111 -2.4590 -0.0691
6.5475 -2.4721 -0.1408
6.4231 -2.4977 -0.2807
6.0816 -2.5252 -0.2894
5.4736 -2.5709 -0.2770
5.0888 -2.6004 -0.2748
4.8225 -2.6214 -0.2779
4.7175 -2.6298 -0.2808
4.5736 -2.6387 -0.2609
4.4913 -2.6452 -0.2620
4.4172 -2.6511 -0.2630
4.3675 -2.6561 -0.2731
4.2807 -2.6612 -0.2594
4.1913 -2.6695 -0.2706
4.0753 -2.6764 -0.2527
4.0162 -2.6825 -0.2657
3.9407 -2.6874 -0.2574
3.8888 -2.6919 -0.2624
3.8540 -2.6936 -0.2532
3.8276 -2.6953 -0.2506
3.8108 -2.6974 -0.2570
3.7935 -2.6993 -0.2619
3.7520 -2.7022 -0.2595
3.7143 -2.7048 -0.2563
3.6869 -2.7077 -0.2631
3.6707 -2.7087 -0.2610
3.6515 -2.7092 -0.2527
3.6265 -2.7114 -0.2545
3.6195 -2.7131 -0.2645
3.6036 -2.7134 -0.2566
3.5916 -2.7141 -0.2552
3.5811 -2.7150 -0.2556
3.5617 -2.7168 -0.2576
3.5550 -2.7181 -0.2646
7.7017 -2.1586 0.9922
7.7052 -2.1667 0.9106
6.6802 -2.3052 0.5700
7.2542 -2.2506 0.5376
6.3208 -2.3771 0.2243
6.4581 -2.3708 0.1509
6.6390 -2.3612 0.0668
6.5207 -2.3800 0.0001
6.3845 -2.4000 -0.0604
6.5628 -2.3923 -0.1600
6.7031 -2.3888 -0.2639
6.3604 -2.4255 -0.2847
6.0741 -2.4562 -0.3018
5.4329 -2.5183 -0.2767
5.0888 -2.5537 -0.2832
4.8038 -2.5819 -0.2776
4.7016 -2.5925 -0.2804
4.6101 -2.6019 -0.2826
4.5062 -2.6115 -0.2741
4.4157 -2.6199 -0.2667
4.3392 -2.6271 -0.2618
4.3016 -2.6323 -0.2752
4.1768 -2.6437 -0.2642
4.0919 -2.6526 -0.2672
4.0155 -2.6603 -0.2670
3.9743 -2.6638 -0.2609
3.9421 -2.6670 -0.2601
3.9074 -2.6700 -0.2550
3.8814 -2.6727 -0.2560
3.8348 -2.6777 -0.2590
3.7938 -2.6822 -0.2624
3.7702 -2.6842 -0.2583
3.7478 -2.6860 -0.2540
3.7165 -2.6896 -0.2590
3.6796 -2.6926 -0.2511
3.6567 -2.6958 -0.2603
3.6430 -2.6971 -0.2599
3.6321 -2.6986 -0.2634
3.6164 -2.6996 -0.2572
3.6030 -2.7006 -0.2537
3.5922 -2.7017 -0.2545
3.5816 -2.7028 -0.2548
3.5730 -2.7041 -0.2584
3.5644 -2.7053 -0.2617
3.5566 -2.7065 -0.2660
7.6208 -2.0502 1.2619
6.4949 -2.2509 0.5997
6.3286 -2.2785 0.5240
6.3425 -2.2823 0.4640
6.5374 -2.2758 0.2721
6.4783 -2.2895 0.2033
6.3730 -2.3086 0.1381
6.5496 -2.3156 -0.1751
6.3751 -2.3490 -0.3031
6.0261 -2.3925 -0.3051
5.6632 -2.4358 -0.2868
5.4062 -2.4670 -0.2796
5.0705 -2.5091 -0.2855
4.7671 -2.5453 -0.2699
4.6748 -2.5573 -0.2751
4.5871 -2.5684 -0.2778
4.4831 -2.5804 -0.2679
4.4104 -2.5894 -0.2684
4.3318 -2.5985 -0.2617
4.2741 -2.6058 -0.2628
4.2211 -2.6124 -0.2636
4.1675 -2.6189 -0.2610
4.1237 -2.6244 -0.2621
4.0826 -2.6295 -0.2627
4.0466 -2.6342 -0.2648
4.0079 -2.6388 -0.2627
3.9800 -2.6427 -0.2673
3.9087 -2.6506 -0.2574
3.8810 -2.6540 -0.2566
3.8602 -2.6570 -0.2612
3.8367 -2.6599 -0.2616
3.8128 -2.6628 -0.2601
3.7925 -2.6654 -0.2611
3.7479 -2.6702 -0.2540
3.7173 -2.6746 -0.2596
3.7003 -2.6766 -0.2585
3.6850 -2.6785 -0.2587
3.6701 -2.6803 -0.2582
3.6541 -2.6819 -0.2549
3.6417 -2.6836 -0.2564
3.6296 -2.6852 -0.2574
3.6176 -2.6867 -0.2579
3.6047 -2.6881 -0.2555
3.5957 -2.6896 -0.2598
3.5851 -2.6910 -0.2601
3.5644 -2.6935 -0.2593
7.8108 -1.9334 1.2787
7.6181 -2.0242 0.5120
7.6214 -2.0310 0.4236
7.1016 -2.1150 0.3285
6.9621 -2.1420 0.2493
6.7992 -2.1719 0.1752
7.0911 -2.1437 -0.0047
7.3661 -2.1128 -0.1205
7.3236 -2.1265 -0.2112
6.5933 -2.2326 -0.1984
6.2199 -2.2947 -0.2874
6.0190 -2.3265 -0.3169
4.4645 -2.5503 -0.2636
4.3346 -2.5697 -0.2672
4.2794 -2.5780 -0.2695
4.2344 -2.5850 -0.2751
4.1678 -2.5939 -0.2641
4.1284 -2.6000 -0.2680
4.0319 -2.6132 -0.2555
4.0086 -2.6174 -0.2651
3.9689 -2.6227 -0.2595
3.9059 -2.6317 -0.2559
3.8782 -2.6357 -0.2548
3.8518 -2.6394 -0.2533
3.8401 -2.6422 -0.2658
3.7912 -2.6489 -0.2598
3.7697 -2.6518 -0.2579
3.7443 -2.6549 -0.2493
3.7318 -2.6573 -0.2560
3.7166 -2.6597 -0.2583
3.6996 -2.6621 -0.2569
3.6850 -2.6643 -0.2579
3.6727 -2.6664 -0.2615
3.6567 -2.6685 -0.2581
3.6436 -2.6704 -0.2584
3.6308 -2.6723 -0.2582
3.6194 -2.6741 -0.2598
3.5950 -2.6774 -0.2566
3.5838 -2.6789 -0.2555
3.5763 -2.6805 -0.2615
3.5661 -2.6820 -0.2608
7.5929 -1.9361 0.4871
7.5081 -1.9569 0.3972
7.5523 -1.9556 0.3096
7.4679 -1.9762 0.2206
7.3425 -2.0035 0.1351
7.1106 -2.0481 0.0598
7.3019 -2.0230 -0.0424
7.3012 -2.0297 -0.1347
7.0666 -2.0739 -0.1982
6.7576 -2.1292 -0.2407
6.4381 -2.1852 -0.2681
6.2337 -2.2224 -0.3048
5.8803 -2.2817 -0.2982
5.5415 -2.3376 -0.2783
4.6466 -2.4888 -0.2748
4.2185 -2.5608 -0.2683
4.1134 -2.5780 -0.2601
4.0396 -2.5907 -0.2635
4.0067 -2.5964 -0.2654
3.9703 -2.6024 -0.2622
3.9321 -2.6083 -0.2553
3.9038 -2.6131 -0.2550
3.8577 -2.6213 -0.2601
3.7660 -2.6363 -0.2534
3.7361 -2.6420 -0.2616
3.7166 -2.6450 -0.2578
3.6996 -2.6478 -0.2563
3.6720 -2.6527 -0.2595
3.6586 -2.6550 -0.2603
3.6455 -2.6572 -0.2605
3.6319 -2.6594 -0.2590
3.6181 -2.6615 -0.2557
3.5973 -2.6653 -0.2595
3.5861 -2.6671 -0.2583
3.5762 -2.6689 -0.2592
3.5559 -2.6721 -0.2570
7.6110 -1.8415 0.4643
7.6584 -1.8377 0.3772
7.5706 -1.8600 0.2866
7.5285 -1.8735 0.1969
7.2037 -1.9403 0.1198
7.1645 -1.9529 0.0362
7.2397 -1.9442 -0.0577
7.2378 -1.9500 -0.1483
7.3606 -1.9332 -0.2576
7.0808 -1.9899 -0.3102
6.0544 -2.1846 -0.2815
5.7724 -2.2388 -0.2852
5.4864 -2.2929 -0.2745
4.6485 -2.4536 -0.2813
4.4574 -2.4895 -0.2693
4.3174 -2.5160 -0.2652
4.2236 -2.5346 -0.2747
4.1775 -2.5435 -0.2762
4.1225 -2.5536 -0.2690
4.0316 -2.5704 -0.2593
3.9598 -2.5838 -0.2547
3.9025 -2.5948 -0.2549
3.8587 -2.6036 -0.2619
3.8295 -2.6088 -0.2555
3.8118 -2.6125 -0.2601
3.7668 -2.6208 -0.2544
3.7487 -2.6242 -0.2548
3.7347 -2.6272 -0.2593
3.7073 -2.6329 -0.2669
3.6869 -2.6363 -0.2594
3.6678 -2.6396 -0.2519
3.6565 -2.6420 -0.2557
3.6473 -2.6441 -0.2625
3.6205 -2.6490 -0.2587
3.6075 -2.6513 -0.2559
3.5972 -2.6534 -0.2575
3.5907 -2.6552 -0.2662
3.5784 -2.6573 -0.2619
3.5658 -2.6593 -0.2558
3.5592 -2.6610 -0.2623
7.6310 -1.7509 0.3534
7.6343 -1.7547 0.2633
7.5041 -1.7869 0.1751
7.1833 -1.8591 0.1003
7.3372 -1.8311 0.0035
7.4205 -1.8184 -0.0953
7.3784 -1.8319 -0.1850
7.2147 -1.8704 -0.2575
6.9890 -1.9214 -0.3139
6.0281 -2.1250 -0.2892
5.7841 -2.1776 -0.2999
4.3323 -2.4860 -0.2774
4.2055 -2.5125 -0.2663
4.1531 -2.5235 -0.2627
3.9976 -2.5566 -0.2614
3.9053 -2.5761 -0.2586
3.8765 -2.5821 -0.2559
3.8508 -2.5875 -0.2544
3.8158 -2.5955 -0.2651
3.7891 -2.6009 -0.2580
3.7675 -2.6053 -0.2553
3.7317 -2.6130 -0.2550
3.7186 -2.6160 -0.2598
3.7008 -2.6197 -0.2569
3.6868 -2.6227 -0.2585
3.6711 -2.6260 -0.2563
3.6597 -2.6286 -0.2600
3.6445 -2.6316 -0.2565
3.6209 -2.6368 -0.2582
3.6111 -2.6390 -0.2613
3.5995 -2.6414 -0.2604
3.5882 -2.6438 -0.2589
3.5777 -2.6460 -0.2583
7.5957 -1.6542 0.6698
7.5557 -1.6670 0.5845
7.6444 -1.6494 0.5055
7.5173 -1.6828 0.4151
7.5182 -1.6861 0.3293
7.5639 -1.6789 0.2412
7.4794 -1.7023 0.1538
7.5678 -1.6853 0.0587
7.4389 -1.7190 -0.0253
7.3557 -1.7419 -0.1099
6.0605 -2.0541 -0.3095
5.7958 -2.1164 -0.3146
5.4441 -2.1977 -0.2836
4.9283 -2.3185 -0.2750
4.8291 -2.3421 -0.2830
4.5159 -2.4151 -0.2704
4.4421 -2.4325 -0.2706
4.3793 -2.4473 -0.2730
4.2470 -2.4780 -0.2638
4.1550 -2.4997 -0.2667
4.0294 -2.5290 -0.2614
3.9920 -2.5377 -0.2585
3.8800 -2.5640 -0.2602
3.8249 -2.5766 -0.2516
3.8072 -2.5809 -0.2557
3.7844 -2.5862 -0.2527
3.7683 -2.5901 -0.2563
3.7516 -2.5941 -0.2583
3.7338 -2.5983 -0.2576
3.7185 -2.6019 -0.2593
3.7028 -2.6056 -0.2593
3.6852 -2.6096 -0.2554
3.6723 -2.6127 -0.2573
3.6561 -2.6163 -0.2531
3.6457 -2.6189 -0.2574
3.6314 -2.6221 -0.2542
3.6220 -2.6245 -0.2588
3.6102 -2.6273 -0.2581
3.5892 -2.6323 -0.2592
3.5787 -2.6347 -0.2584
3.5689 -2.6370 -0.2585
3.5606 -2.6391 -0.2609
7.6131 -1.5633 0.6479
7.5731 -1.5761 0.5626
7.6176 -1.5672 0.4810
7.4931 -1.6018 0.3920
7.3726 -1.6352 0.3065
7.4131 -1.6274 0.2214
7.2559 -1.6701 0.1407
7.4987 -1.6110 0.0408
7.4149 -1.6350 -0.0445
7.2924 -1.6688 -0.1239
5.6823 -2.0863 -0.2979
4.9290 -2.2787 -0.2824
4.7012 -2.3370 -0.2802
4.3616 -2.4236 -0.2675
4.2502 -2.4522 -0.2689
4.1449 -2.4789 -0.2625
4.0699 -2.4982 -0.2667
4.0272 -2.5090 -0.2617
3.9960 -2.5171 -0.2634
3.9293 -2.5340 -0.2578
3.9041 -2.5405 -0.2596
3.8702 -2.5489 -0.2514
3.8289 -2.5597 -0.2565
3.7914 -2.5694 -0.2611
3.7674 -2.5754 -0.2552
3.7485 -2.5802 -0.2541
3.7169 -2.5883 -0.2566
3.6900 -2.5954 -0.2619
3.6586 -2.6032 -0.2563
3.6474 -2.6062 -0.2593
3.6365 -2.6091 -0.2619
3.6192 -2.6132 -0.2521
3.6106 -2.6156 -0.2573
3.6003 -2.6182 -0.2586
3.5902 -2.6209 -0.2594
3.5790 -2.6236 -0.2572
3.5705 -2.6259 -0.2599
7.3890 -1.5413 0.5291
7.3135 -1.5639 0.4464
7.3894 -1.5445 0.3680
7.4705 -1.5237 0.2849
7.3905 -1.5476 0.2005
7.5585 -1.5029 0.1069
7.4740 -1.5281 0.0209
7.4328 -1.5413 -0.0670
7.3915 -1.5545 -0.1550
7.0078 -1.6635 -0.2836
6.4919 -1.8063 -0.2786
5.7810 -2.0031 -0.2715
5.5655 -2.0630 -0.2791
5.3259 -2.1292 -0.2701
5.1831 -2.1689 -0.2794
4.9233 -2.2411 -0.2874
4.6969 -2.3037 -0.2842
4.4953 -2.3593 -0.2700
4.2362 -2.4310 -0.2636
4.1797 -2.4465 -0.2586
4.1429 -2.4568 -0.2638
4.1041 -2.4676 -0.2656
3.9955 -2.4976 -0.2647
3.9243 -2.5172 -0.2545
3.8803 -2.5295 -0.2623
3.8568 -2.5360 -0.2628
3.8345 -2.5422 -0.2632
3.7850 -2.5557 -0.2538
3.7680 -2.5605 -0.2561
3.7529 -2.5648 -0.2597
3.7159 -2.5749 -0.2549
3.6855 -2.5833 -0.2544
3.6704 -2.5875 -0.2527
3.6632 -2.5897 -0.2628
3.6485 -2.5937 -0.2601
3.6342 -2.5976 -0.2566
3.6241 -2.6004 -0.2599
3.6123 -2.6037 -0.2590
3.5912 -2.6096 -0.2596
3.5714 -2.6150 -0.2599
6.9707 -1.3765 0.9498
6.9348 -1.3869 0.8116
6.9614 -1.3753 0.7473
6.8978 -1.3977 0.6710
7.2185 -1.2687 0.3928
7.1086 -1.3087 0.3104
7.1784 -1.2801 0.2279
7.2530 -1.2496 0.1406
7.1757 -1.2771 0.0575
7.0992 -1.3044 -0.0239
7.1342 -1.2889 -0.1156
7.0946 -1.3020 -0.2010
6.9827 -1.3429 -0.2750
6.1882 -1.6458 -0.2942
5.5602 -1.8859 -0.2809
4.9978 -2.1008 -0.2730
4.8626 -2.1525 -0.2708
4.6541 -2.2320 -0.2722
4.4692 -2.3029 -0.2633
4.2615 -2.3824 -0.2527
4.2199 -2.3981 -0.2588
4.1329 -2.4313 -0.2616
4.0066 -2.4798 -0.2503
3.9782 -2.4905 -0.2532
3.8446 -2.5416 -0.2501
3.8264 -2.5485 -0.2539
3.8055 -2.5565 -0.2534
3.7887 -2.5628 -0.2567
3.7672 -2.5711 -0.2526
3.7482 -2.5784 -0.2504
3.7332 -2.5841 -0.2524
3.7178 -2.5900 -0.2527
3.7047 -2.5949 -0.2555
3.6885 -2.6012 -0.2525
3.6779 -2.6051 -0.2575
3.6624 -2.6111 -0.2532
3.6354 -2.6216 -0.2481
3.6257 -2.6252 -0.2512
3.6138 -2.6298 -0.2491
3.6056 -2.6328 -0.2539
3.5947 -2.6370 -0.2521
3.5841 -2.6411 -0.2498
3.5753 -2.6444 -0.2510
6.8973 -1.3365 1.1531
7.1057 -1.2516 1.1381
6.9479 -1.3121 1.0388
6.9451 -1.3110 0.9733
7.0321 -1.2716 0.8528
6.9654 -1.2959 0.7736
6.9941 -1.2820 0.7064
6.9590 -1.2936 0.6308
6.9239 -1.3052 0.5551
7.0489 -1.2496 0.4099
7.1519 -1.2052 0.3315
7.1879 -1.1878 0.2477
7.2643 -1.1538 0.1592
7.2238 -1.1672 0.0720
7.0336 -1.2416 -0.0030
7.0672 -1.2249 -0.0943
6.9917 -1.2527 -0.1751
6.8493 -1.3080 -0.2438
6.1357 -1.5957 -0.2775
5.9061 -1.6880 -0.2984
5.6161 -1.8056 -0.2929
5.3229 -1.9250 -0.2720
5.1474 -1.9960 -0.2729
5.0043 -2.0539 -0.2761
4.9014 -2.0952 -0.2870
4.7354 -2.1630 -0.2673
4.6325 -2.2048 -0.2659
4.4497 -2.2791 -0.2578
4.3100 -2.3358 -0.2535
4.2080 -2.3769 -0.2573
4.0306 -2.4490 -0.2500
3.9748 -2.4713 -0.2585
3.9092 -2.4981 -0.2510
3.8892 -2.5060 -0.2569
3.8618 -2.5172 -0.2538
3.8403 -2.5259 -0.2554
3.8200 -2.5340 -0.2570
3.8016 -2.5414 -0.2595
3.7756 -2.5522 -0.2511
3.7400 -2.5666 -0.2508
3.7273 -2.5716 -0.2559
3.7093 -2.5790 -0.2524
3.6944 -2.5851 -0.2523
3.6811 -2.5904 -0.2536
3.6674 -2.5959 -0.2533
3.6534 -2.6017 -0.2513
3.6422 -2.6062 -0.2532
3.6281 -2.6120 -0.2487
3.6179 -2.6161 -0.2508
3.6074 -2.6203 -0.2512
3.5976 -2.6243 -0.2524
3.5885 -2.6278 -0.2545
3.5786 -2.6319 -0.2537
3.5704 -2.6351 -0.2564
3.5608 -2.6391 -0.2547
7.0867 -1.1890 1.3594
7.0795 -1.1831 1.1638
7.0137 -1.2077 1.0827
6.9186 -1.2446 0.9970
6.7368 -1.3151 0.8338
6.9317 -1.2233 0.6528
6.9924 -1.1942 0.5841
7.1253 -1.1304 0.4350
7.4417 -0.9911 0.3577
7.3996 -1.0051 0.2669
7.1191 -1.1216 0.1831
6.9715 -1.1813 0.1034
6.9679 -1.1789 0.0178
7.0003 -1.1609 -0.0731
6.9606 -1.1740 -0.1585
6.8514 -1.2174 -0.2334
6.0627 -1.5547 -0.2567
5.8942 -1.6254 -0.2914
5.6622 -1.7243 -0.3022
5.1209 -1.9583 -0.2645
4.6059 -2.1794 -0.2575
4.4529 -2.2448 -0.2638
4.2627 -2.3263 -0.2649
4.1888 -2.3586 -0.2512
4.1570 -2.3718 -0.2616
4.1096 -2.3923 -0.2591
4.0740 -2.4073 -0.2627
4.0310 -2.4260 -0.2581
3.9580 -2.4576 -0.2523
3.9092 -2.4782 -0.2603
3.8614 -2.4985 -0.2635
3.8282 -2.5132 -0.2522
3.8083 -2.5217 -0.2539
3.7688 -2.5387 -0.2538
3.7514 -2.5461 -0.2548
3.7337 -2.5537 -0.2540
3.7170 -2.5609 -0.2535
3.7020 -2.5673 -0.2542
3.6906 -2.5720 -0.2594
3.6736 -2.5795 -0.2547
3.6582 -2.5862 -0.2513
3.6475 -2.5906 -0.2549
3.6340 -2.5966 -0.2525
3.6248 -2.6002 -0.2575
3.6107 -2.6066 -0.2515
3.6008 -2.6107 -0.2533
3.5900 -2.6154 -0.2522
3.5806 -2.6194 -0.2531
3.5718 -2.6231 -0.2549
3.5633 -2.6267 -0.2564
3.5538 -2.6308 -0.2548
6.9353 -1.1725 1.2881
6.9928 -1.1436 1.2403
6.9589 -1.1549 1.1672
6.9559 -1.1525 1.1011
6.9217 -1.1638 1.0273
6.8572 -1.1885 0.9480
6.8833 -1.1731 0.8849
6.9426 -1.1427 0.8245
6.8449 -1.1822 0.7402
6.8101 -1.1937 0.6652
6.8986 -1.1499 0.6008
7.1729 -1.0221 0.5434
7.2093 -1.0009 0.4622
7.4565 -0.8842 0.3821
7.2067 -0.9923 0.2896
7.0521 -1.0576 0.2043
7.0125 -1.0707 0.1189
6.9022 -1.1161 0.0386
7.0064 -1.0633 -0.0589
6.9659 -1.0767 -0.1460
6.9618 -1.0733 -0.2385
6.1392 -1.4451 -0.2660
5.3369 -1.8088 -0.2735
5.1036 -1.9156 -0.2590
4.2089 -2.3247 -0.2059
4.1883 -2.3311 -0.2574
4.1466 -2.3498 -0.2615
4.0959 -2.3732 -0.2564
4.0462 -2.3961 -0.2490
4.0225 -2.4063 -0.2595
3.9819 -2.4250 -0.2541
3.9248 -2.4507 -0.2580
3.8978 -2.4629 -0.2588
3.8730 -2.4741 -0.2600
3.8442 -2.4875 -0.2552
3.8240 -2.4965 -0.2581
3.7772 -2.5181 -0.2518
3.7597 -2.5259 -0.2537
3.7251 -2.5416 -0.2543
3.7061 -2.5504 -0.2500
3.6920 -2.5568 -0.2518
3.6757 -2.5643 -0.2488
3.6659 -2.5684 -0.2557
3.6514 -2.5751 -0.2536
3.6395 -2.5804 -0.2552
3.6268 -2.5862 -0.2540
3.6039 -2.5967 -0.2534
3.5925 -2.6019 -0.2517
3.5824 -2.6065 -0.2519
3.5731 -2.6107 -0.2529
3.5624 -2.6157 -0.2497
3.5555 -2.6185 -0.2551
3.5462 -2.6228 -0.2536
6.9355 -1.0889 1.2585
6.9323 -1.0859 1.1931
6.7523 -1.1648 1.0855
6.8639 -1.1085 1.0457
6.8595 -1.1059 0.9778
6.8863 -1.0887 0.9142
6.8827 -1.0855 0.8434
6.9421 -1.0526 0.7799
6.8428 -1.0943 0.6943
6.8694 -1.0766 0.6231
7.1436 -0.9412 0.5671
7.2992 -0.8612 0.4915
6.8887 -1.0513 0.3915
6.8847 -1.0477 0.3103
7.0593 -0.9579 0.2242
7.0560 -0.9533 0.1355
7.0152 -0.9668 0.0475
6.8320 -1.0496 -0.0274
6.8616 -1.0289 -0.1201
6.7536 -1.0755 -0.1965
6.7475 -1.0722 -0.2868
6.1293 -1.3709 -0.2575
5.8317 -1.5130 -0.2683
5.3685 -1.7345 -0.2812
5.0960 -1.8670 -0.2565
4.9941 -1.9146 -0.2754
4.7252 -2.0439 -0.2710
4.5283 -2.1385 -0.2702
4.2087 -2.2982 -0.1790
4.1894 -2.3061 -0.1997
4.1737 -2.3098 -0.2545
4.1277 -2.3318 -0.2555
4.0763 -2.3569 -0.2496
4.0491 -2.3693 -0.2592
4.0114 -2.3874 -0.2588
3.9745 -2.4053 -0.2565
3.9452 -2.4192 -0.2588
3.9203 -2.4308 -0.2635
3.8554 -2.4628 -0.2517
3.8109 -2.4839 -0.2540
3.7922 -2.4927 -0.2570
3.7724 -2.5022 -0.2575
3.7349 -2.5203 -0.2567
3.7158 -2.5297 -0.2536
3.6996 -2.5374 -0.2534
3.6708 -2.5512 -0.2548
3.6562 -2.5583 -0.2535
3.6431 -2.5645 -0.2536
3.6298 -2.5710 -0.2521
3.6156 -2.5781 -0.2476
3.6062 -2.5824 -0.2516
3.5980 -2.5859 -0.2576
3.5841 -2.5931 -0.2501
3.5752 -2.5972 -0.2528
3.5655 -2.6018 -0.2527
3.5560 -2.6064 -0.2522
3.5468 -2.6109 -0.2512
3.5396 -2.6141 -0.2550
6.8443 -1.0453 1.2036
6.8701 -1.0274 1.1449
6.8664 -1.0238 1.0775
6.8316 -1.0353 1.0025
6.7968 -1.0468 0.9275
6.8849 -0.9976 0.8726
6.9136 -0.9775 0.8042
6.8443 -1.0058 0.7210
6.8725 -0.9857 0.6492
6.7110 -1.0602 0.5594
6.7984 -1.0102 0.4894
7.0718 -0.8659 0.4201
6.8874 -0.9521 0.3314
6.9182 -0.9296 0.2468
6.8442 -0.9602 0.1627
6.8740 -0.9378 0.0739
6.9054 -0.9144 -0.0187
6.8645 -0.9279 -0.1067
6.8237 -0.9414 -0.1947
6.7484 -0.9728 -0.2769
6.1196 -1.2940 -0.2489
5.8374 -1.4359 -0.2649
5.6333 -1.5376 -0.2862
5.4570 -1.6255 -0.3049
5.1067 -1.8069 -0.2597
4.9674 -1.8769 -0.2672
4.7256 -1.9990 -0.2740
4.5246 -2.1010 -0.2727
4.1873 -2.2777 -0.2039
4.1657 -2.2871 -0.2231
4.1264 -2.3038 -0.2620
3.9749 -2.3803 -0.2661
3.9088 -2.4142 -0.2622
3.8506 -2.4441 -0.2573
3.7620 -2.4891 -0.2562
3.7456 -2.4971 -0.2596
3.7276 -2.5063 -0.2595
3.7075 -2.5168 -0.2547
3.6904 -2.5257 -0.2528
3.6590 -2.5419 -0.2494
3.6471 -2.5477 -0.2523
3.6348 -2.5538 -0.2537
3.6244 -2.5587 -0.2578
3.6099 -2.5665 -0.2524
3.6000 -2.5713 -0.2555
3.5887 -2.5771 -0.2547
3.5767 -2.5835 -0.2508
3.5670 -2.5884 -0.2513
3.5569 -2.5936 -0.2500
3.5486 -2.5977 -0.2520
3.5399 -2.6020 -0.2524
3.5301 -2.6074 -0.2485
4.2187 -2.3001 0.5286
6.8076 -0.9676 1.0961
6.7428 -0.9945 1.0148
6.7676 -0.9752 0.9518
6.9210 -0.8890 0.9086
6.8839 -0.9013 0.8287
6.9121 -0.8794 0.7574
6.7781 -0.9424 0.6656
6.9700 -0.8263 0.5242
6.8267 -0.8945 0.4346
6.7234 -0.9419 0.3506
6.7177 -0.9371 0.2690
6.8822 -0.8407 0.1804
6.8772 -0.8349 0.0912
6.6994 -0.9228 0.0146
6.7547 -0.8754 -0.1728
6.6464 -0.9261 -0.2497
5.8049 -1.3764 -0.2529
5.6340 -1.4650 -0.2833
5.4832 -1.5432 -0.3108
4.9664 -1.8240 -0.2678
4.7080 -1.9622 -0.2697
4.4842 -2.0832 -0.2576
4.1940 -2.2460 -0.1804
4.2616 -2.2028 -0.2540
4.2060 -2.2324 -0.2552
4.1682 -2.2517 -0.2651
4.1009 -2.2891 -0.2514
4.0277 -2.3276 -0.2592
3.9919 -2.3466 -0.2602
3.9540 -2.3672 -0.2569
3.9141 -2.3894 -0.2489
3.8921 -2.4005 -0.2560
3.8678 -2.4132 -0.2591
3.8413 -2.4275 -0.2581
3.7960 -2.4516 -0.2595
3.7718 -2.4649 -0.2557
3.7157 -2.4949 -0.2557
3.6822 -2.5130 -0.2541
3.6669 -2.5213 -0.2535
3.6508 -2.5302 -0.2502
3.6269 -2.5426 -0.2547
3.6129 -2.5504 -0.2513
3.6029 -2.5554 -0.2550
3.5905 -2.5623 -0.2525
3.5692 -2.5738 -0.2516
3.5591 -2.5793 -0.2509
3.5419 -2.5881 -0.2544
3.5342 -2.5920 -0.2576
3.5254 -2.5968 -0.2564
4.1886 -2.2927 0.5129
4.1801 -2.2956 0.4946
7.1756 -0.6474 0.9052
6.7617 -0.8324 0.4552
6.6914 -0.8630 0.3716
6.8188 -0.7821 0.2893
6.6152 -0.8882 0.2073
6.8795 -0.7282 0.1094
4.2004 -2.2446 0.1310
5.1308 -1.6755 -0.2671
4.9218 -1.7951 -0.2534
4.8231 -1.8492 -0.2692
4.5959 -1.9774 -0.2708
4.2118 -2.2063 -0.1618
4.2236 -2.1953 -0.2022
4.2425 -2.1795 -0.2488
4.2012 -2.2017 -0.2591
4.0984 -2.2600 -0.2575
4.0599 -2.2813 -0.2616
4.0282 -2.2985 -0.2687
3.9863 -2.3226 -0.2649
3.9418 -2.3487 -0.2557
3.9062 -2.3693 -0.2515
3.8844 -2.3808 -0.2589
3.8591 -2.3949 -0.2610
3.8107 -2.4221 -0.2624
3.7266 -2.4699 -0.2598
3.7068 -2.4814 -0.2565
3.6875 -2.4928 -0.2521
3.6727 -2.5010 -0.2534
3.6571 -2.5100 -0.2520
3.6435 -2.5176 -0.2529
3.6020 -2.5418 -0.2460
3.5927 -2.5465 -0.2508
3.5816 -2.5528 -0.2506
3.5722 -2.5579 -0.2534
3.5625 -2.5632 -0.2546
3.5525 -2.5689 -0.2542
3.5419 -2.5752 -0.2507
3.5262 -2.5835 -0.2562
4.1906 -2.2657 0.4885
4.1729 -2.2736 0.4675
4.1663 -2.2753 0.4490
4.1825 -2.2444 0.2764
4.1707 -2.2488 0.2551
4.1790 -2.2411 0.2324
4.1641 -2.2473 0.2110
4.1709 -2.2403 0.1871
4.2140 -2.2045 0.1045
5.1768 -1.5831 -0.2815
4.9717 -1.7065 -0.2719
4.8416 -1.7832 -0.2785
4.4386 -2.0327 -0.2033
4.1933 -2.1847 -0.1564
4.2107 -2.1690 -0.2003
4.2527 -2.1364 -0.2617
4.2039 -2.1646 -0.2682
4.1616 -2.1889 -0.2761
4.0410 -2.2633 -0.2556
3.9625 -2.3103 -0.2537
3.8992 -2.3479 -0.2553
3.8723 -2.3636 -0.2575
3.8481 -2.3777 -0.2606
3.8185 -2.3959 -0.2558
3.7954 -2.4096 -0.2564
3.7766 -2.4203 -0.2606
3.7563 -2.4323 -0.2615
3.7166 -2.4562 -0.2594
3.6805 -2.4782 -0.2559
3.6664 -2.4863 -0.2584
3.6510 -2.4956 -0.2574
3.6365 -2.5043 -0.2565
3.6208 -2.5142 -0.2518
3.6091 -2.5210 -0.2536
3.5956 -2.5294 -0.2505
3.5864 -2.5343 -0.2554
3.5773 -2.5392 -0.2601
3.5633 -2.5485 -0.2516
3.5547 -2.5532 -0.2553
3.5462 -2.5579 -0.2586
3.5349 -2.5653 -0.2529
3.5264 -2.5702 -0.2540
4.2390 -2.2136 0.5085
4.1669 -2.2305 0.3030
4.1638 -2.2295 0.2817
4.1558 -2.2316 0.2603
4.1675 -2.2211 0.2374
4.1722 -2.2149 0.2140
4.1710 -2.2125 0.1904
4.2532 -2.1480 0.0979
4.2743 -2.1300 0.0638
5.1350 -1.5432 -0.2682
4.8452 -1.7234 -0.2823
4.3723 -2.0352 -0.1766
4.1676 -2.1679 -0.1473
4.2134 -2.1308 -0.2075
4.2355 -2.1099 -0.2581
4.1248 -2.1795 -0.2584
4.0377 -2.2337 -0.2621
3.9561 -2.2856 -0.2581
3.9302 -2.3008 -0.2658
3.8871 -2.3295 -0.2542
3.8368 -2.3603 -0.2602
3.8128 -2.3751 -0.2617
3.7869 -2.3918 -0.2589
3.7436 -2.4191 -0.2581
3.7036 -2.4448 -0.2545
3.6737 -2.4628 -0.2605
3.6404 -2.4845 -0.2548
3.6302 -2.4898 -0.2620
3.6133 -2.5015 -0.2546
3.6003 -2.5099 -0.2535
3.5861 -2.5195 -0.2484
3.5770 -2.5245 -0.2534
3.5653 -2.5321 -0.2514
3.5557 -2.5379 -0.2533
3.5467 -2.5432 -0.2559
3.5367 -2.5497 -0.2545
3.5269 -2.5561 -0.2526
3.5190 -2.5607 -0.2551
3.5105 -2.5661 -0.2546
4.2947 -2.1622 0.5888
4.2825 -2.1669 0.5666
4.2627 -2.1762 0.5425
4.2421 -2.1862 0.5185
4.2642 -2.1694 0.5048
4.2425 -2.1801 0.4806
4.2263 -2.1873 0.4579
4.1846 -2.2109 0.4313
4.1873 -2.2062 0.4125
4.2006 -2.1946 0.3943
4.1778 -2.2062 0.3716
4.1680 -2.2094 0.3505
4.1621 -2.2102 0.3295
4.1685 -2.2027 0.3086
4.1792 -2.1922 0.2868
4.2110 -2.1600 0.2144
4.1028 -2.2263 0.1794
4.1339 -2.2012 0.1505
4.2441 -2.1208 0.1020
4.2566 -2.1075 0.0697
5.0618 -1.5256 -0.2451
4.9316 -1.6095 -0.2603
4.8414 -1.6658 -0.2832
4.3360 -2.0190 -0.1635
4.1983 -2.1149 -0.1337
4.1611 -2.1372 -0.1484
4.2305 -2.0737 -0.2622
4.0780 -2.1739 -0.2684
4.0259 -2.2093 -0.2622
3.9431 -2.2650 -0.2568
3.9144 -2.2833 -0.2616
3.8786 -2.3077 -0.2570
3.8265 -2.3416 -0.2611
3.8059 -2.3544 -0.2666
3.7793 -2.3726 -0.2628
3.7516 -2.3922 -0.2551
3.7286 -2.4079 -0.2515
3.6917 -2.4324 -0.2515
3.6586 -2.4543 -0.2512
3.6461 -2.4619 -0.2559
3.6041 -2.4900 -0.2543
3.5789 -2.5071 -0.2516
3.5570 -2.5216 -0.2517
3.5463 -2.5289 -0.2503
3.5367 -2.5352 -0.2506
3.5269 -2.5419 -0.2492
3.5185 -2.5472 -0.2510
3.5099 -2.5529 -0.2511
3.5027 -2.5572 -0.2545
3.4945 -2.5627 -0.2537
4.2537 -2.1645 0.6041
4.2418 -2.1691 0.5826
4.2408 -2.1667 0.5645
4.2226 -2.1755 0.5411
4.2151 -2.1773 0.5210
4.2013 -2.1832 0.4992
4.2020 -2.1796 0.4808
4.1943 -2.1814 0.4602
4.1967 -2.1766 0.4413
4.1828 -2.1825 0.4195
4.1533 -2.1991 0.3958
4.1593 -2.1917 0.3767
4.1639 -2.1851 0.3567
4.1558 -2.1871 0.3354
4.1636 -2.1780 0.3143
4.1682 -2.1711 0.2923
4.0863 -2.2138 0.2074
4.0643 -2.2258 0.1880
4.0709 -2.2172 0.1642
5.0951 -1.4306 -0.2554
4.9767 -1.5095 -0.2774
4.7153 -1.6989 -0.2369
4.2828 -2.0170 -0.1424
4.1734 -2.0963 -0.1252
4.1398 -2.1169 -0.1417
4.2039 -2.0533 -0.2528
4.1562 -2.0854 -0.2600
4.1040 -2.1216 -0.2608
4.0681 -2.1451 -0.2703
4.0184 -2.1806 -0.2660
3.9752 -2.2112 -0.2634
3.9389 -2.2364 -0.2639
3.9085 -2.2570 -0.2675
3.8348 -2.3109 -0.2530
3.7921 -2.3390 -0.2633
3.7672 -2.3567 -0.2613
3.7389 -2.3780 -0.2523
3.7242 -2.3869 -0.2602
3.7054 -2.3999 -0.2608
3.6698 -2.4250 -0.2599
3.6529 -2.4370 -0.2584
3.6335 -2.4519 -0.2503
3.5935 -2.4798 -0.2509
3.5849 -2.4843 -0.2593
3.5718 -2.4941 -0.2558
3.5586 -2.5042 -0.2504
3.5490 -2.5104 -0.2531
3.5385 -2.5180 -0.2518
3.5294 -2.5241 -0.2535
3.5198 -2.5310 -0.2523
3.5115 -2.5365 -0.2542
3.5034 -2.5418 -0.2557
3.4941 -2.5490 -0.2518
3.4871 -2.5534 -0.2549
4.2039 -2.1714 0.5974
4.1989 -2.1716 0.5788
4.2001 -2.1675 0.5620
4.1865 -2.1735 0.5404
4.1709 -2.1808 0.5185
4.1738 -2.1755 0.5015
4.1543 -2.1856 0.4788
4.1559 -2.1810 0.4609
4.1484 -2.1828 0.4408
4.1506 -2.1777 0.4222
4.1467 -2.1767 0.4022
4.1332 -2.1827 0.3809
4.1348 -2.1778 0.3610
4.1250 -2.1810 0.3399
4.1235 -2.1782 0.3190
4.1172 -2.1789 0.2977
4.1242 -2.1696 0.2758
4.1449 -2.1500 0.2523
4.0757 -2.1933 0.2120
4.0480 -2.2102 0.1932
4.0366 -2.2146 0.1726
4.2178 -2.0587 0.0517
4.6540 -1.6876 -0.2156
4.2237 -2.0224 -0.1183
4.1567 -2.0712 -0.1209
4.1465 -2.0731 -0.1505
4.2379 -1.9888 -0.2413
4.1982 -2.0151 -0.2570
4.1463 -2.0524 -0.2618
4.0537 -2.1192 -0.2689
3.9632 -2.1867 -0.2638
3.9350 -2.2059 -0.2720
3.8983 -2.2334 -0.2695
3.8596 -2.2634 -0.2616
3.8313 -2.2840 -0.2621
3.7810 -2.3208 -0.2636
3.7555 -2.3402 -0.2604
3.6917 -2.3879 -0.2558
3.6769 -2.3979 -0.2606
3.6589 -2.4116 -0.2586
3.6394 -2.4271 -0.2519
3.6239 -2.4388 -0.2504
3.5958 -2.4598 -0.2486
3.5850 -2.4670 -0.2526
3.5718 -2.4772 -0.2498
3.5624 -2.4833 -0.2547
3.5499 -2.4933 -0.2505
3.5404 -2.4997 -0.2533
3.5297 -2.5080 -0.2511
3.5110 -2.5218 -0.2506
3.5025 -2.5279 -0.2514
3.4946 -2.5335 -0.2529
3.4869 -2.5389 -0.2541
3.4781 -2.5462 -0.2497
4.1025 -2.2035 0.5085
4.0907 -2.2085 0.4889
4.0791 -2.2136 0.4695
4.0959 -2.1979 0.4564
4.0869 -2.2008 0.4371
4.1123 -2.1783 0.4237
4.1266 -2.1639 0.4069
4.1039 -2.1769 0.3845
4.1072 -2.1703 0.3652
4.0976 -2.1735 0.3444
4.0987 -2.1684 0.3240
4.0986 -2.1641 0.3030
4.0939 -2.1634 0.2815
4.1011 -2.1531 0.2592
4.1019 -2.1478 0.2363
4.0266 -2.1985 0.1991
4.0219 -2.1977 0.1775
4.0218 -2.1930 0.1546
4.1588 -2.0290 -0.1264
4.1482 -2.0309 -0.1569
4.1423 -2.0286 -0.1904
4.1679 -1.9975 -0.2453
4.1311 -2.0229 -0.2601
4.0370 -2.0947 -0.2658
3.9557 -2.1571 -0.2685
3.9261 -2.1786 -0.2756
3.8846 -2.2123 -0.2682
3.8151 -2.2685 -0.2570
3.7888 -2.2889 -0.2569
3.7637 -2.3085 -0.2559
3.7419 -2.3251 -0.2573
3.7202 -2.3420 -0.2567
3.6806 -2.3731 -0.2549
3.6469 -2.3991 -0.2555
3.6312 -2.4113 -0.2552
3.6173 -2.4218 -0.2568
3.6028 -2.4332 -0.2558
3.5909 -2.4419 -0.2588
3.5659 -2.4615 -0.2577
3.5533 -2.4719 -0.2546
3.5433 -2.4791 -0.2570
3.5310 -2.4898 -0.2513
3.5213 -2.4973 -0.2514
3.5128 -2.5032 -0.2545
3.5039 -2.5101 -0.2548
3.4952 -2.5169 -0.2546
3.4858 -2.5251 -0.2502
3.4788 -2.5297 -0.2539
3.4717 -2.5348 -0.2560
4.0858 -2.1979 0.5442
4.0904 -2.1910 0.5300
4.0778 -2.1969 0.5102
4.0731 -2.1967 0.4928
4.0722 -2.1937 0.4761
4.0712 -2.1907 0.4590
4.0690 -2.1885 0.4413
4.0965 -2.1632 0.4287
4.1084 -2.1497 0.4118
4.0969 -2.1543 0.3908
4.0801 -2.1632 0.3693
4.0883 -2.1522 0.3501
4.0663 -2.1653 0.3285
4.0706 -2.1572 0.3081
4.0608 -2.1605 0.2870
4.0653 -2.1519 0.2654
4.0661 -2.1462 0.2431
4.0470 -2.1571 0.2222
4.0023 -2.1898 0.2053
3.9944 -2.1916 0.1846
4.0779 -2.1086 0.1190
4.1334 -2.0178 -0.0827
4.1183 -2.0241 -0.1099
4.0930 -2.0400 -0.1311
4.0755 -2.0487 -0.1560
4.0014 -2.0886 -0.2473
3.9433 -2.1311 -0.2690
3.9042 -2.1636 -0.2666
3.8724 -2.1891 -0.2686
3.8281 -2.2287 -0.2534
3.8087 -2.2422 -0.2638
3.7779 -2.2686 -0.2581
3.7554 -2.2864 -0.2604
3.7320 -2.3059 -0.2593
3.7066 -2.3280 -0.2530
3.6712 -2.3559 -0.2572
3.6540 -2.3699 -0.2575
3.6386 -2.3821 -0.2593
3.6204 -2.3981 -0.2541
3.6055 -2.4105 -0.2531
3.5918 -2.4217 -0.2531
3.5809 -2.4295 -0.2581
3.5560 -2.4502 -0.2564
3.5433 -2.4615 -0.2523
3.5335 -2.4689 -0.2549
3.5237 -2.4767 -0.2558
3.5114 -2.4887 -0.2473
3.5037 -2.4937 -0.2526
3.4953 -2.5002 -0.2542
3.4868 -2.5072 -0.2541
3.4791 -2.5131 -0.2559
3.4705 -2.5209 -0.2524
3.4629 -2.5272 -0.2520
4.0844 -2.1742 0.5533
4.0817 -2.1724 0.5366
4.0827 -2.1677 0.5209
4.0643 -2.1782 0.4991
4.0622 -2.1758 0.4820
4.0562 -2.1765 0.4637
4.0567 -2.1719 0.4467
4.0903 -2.1356 0.4167
4.0789 -2.1403 0.3957
4.0596 -2.1515 0.3739
4.0562 -2.1495 0.3540
4.0467 -2.1527 0.3335
4.0456 -2.1486 0.3131
4.0509 -2.1389 0.2923
4.0451 -2.1386 0.2708
4.0417 -2.1362 0.2490
4.0373 -2.1346 0.2269
3.9878 -2.1730 0.2102
3.9744 -2.1797 0.1903
3.9718 -2.1766 0.1685
4.0889 -2.0345 0.0001
4.1050 -2.0111 -0.0389
4.1188 -1.9893 -0.0793
4.1290 -1.9705 -0.1202
4.1100 -1.9803 -0.1466
4.0816 -1.9998 -0.1665
3.9542 -2.1135 -0.1501
3.9312 -2.1295 -0.1655
3.9092 -2.1447 -0.1805
3.8877 -2.1598 -0.1945
3.8631 -2.1785 -0.2044
3.8678 -2.1650 -0.2426
3.8449 -2.1824 -0.2525
3.8219 -2.2001 -0.2607
3.7889 -2.2300 -0.2545
3.7662 -2.2486 -0.2585
3.7436 -2.2675 -0.2605
3.7221 -2.2857 -0.2620
3.6992 -2.3060 -0.2591
3.6837 -2.3178 -0.2657
3.6446 -2.3528 -0.2600
3.6251 -2.3712 -0.2536
3.5827 -2.4073 -0.2551
3.5696 -2.4187 -0.2545
3.5445 -2.4411 -0.2510
3.5343 -2.4493 -0.2532
3.5244 -2.4575 -0.2548
3.5131 -2.4683 -0.2505
3.4946 -2.4841 -0.2508
3.4786 -2.4969 -0.2548
3.4713 -2.5024 -0.2579
3.4633 -2.5095 -0.2570
4.0851 -2.1561 0.5944
4.0766 -2.1505 0.5446
4.0811 -2.1425 0.5299
4.0637 -2.1524 0.5080
4.0529 -2.1569 0.4883
4.0441 -2.1599 0.4692
4.0397 -2.1590 0.4511
4.0487 -2.1467 0.4355
4.0555 -2.1360 0.4185
4.0679 -2.1202 0.4016
4.0548 -2.1264 0.3804
4.0435 -2.1311 0.3595
4.0272 -2.1402 0.3383
4.0160 -2.1449 0.3178
4.0293 -2.1274 0.2975
4.0243 -2.1262 0.2763
4.0168 -2.1273 0.2548
4.0116 -2.1262 0.2331
3.9855 -2.1447 0.2136
3.9494 -2.1730 0.1968
3.9460 -2.1704 0.1756
4.0804 -2.0106 0.0333
3.9482 -2.1360 0.0544
3.9393 -2.1380 0.0317
4.1189 -1.9348 -0.1199
4.0948 -1.9502 -0.1438
4.1212 -1.9116 -0.1989
4.1498 -1.8695 -0.2597
4.0977 -1.9152 -0.2652
4.0447 -1.9631 -0.2657
3.8537 -2.1519 -0.2070
3.8414 -2.1573 -0.2282
3.8056 -2.1823 -0.2564
3.7790 -2.2060 -0.2578
3.7547 -2.2276 -0.2595
3.7286 -2.2521 -0.2563
3.7066 -2.2720 -0.2565
3.6713 -2.3019 -0.2643
3.6498 -2.3230 -0.2584
3.6297 -2.3427 -0.2526
3.6006 -2.3682 -0.2560
3.5870 -2.3802 -0.2573
3.5711 -2.3962 -0.2514
3.5484 -2.4154 -0.2565
3.5359 -2.4274 -0.2536
3.5246 -2.4382 -0.2519
3.5145 -2.4471 -0.2526
3.5050 -2.4554 -0.2538
3.4860 -2.4734 -0.2512
3.4694 -2.4882 -0.2519
3.4618 -2.4949 -0.2527
3.4545 -2.5011 -0.2542
4.0958 -2.1166 0.5941
4.0929 -2.1096 0.5606
4.0940 -2.1039 0.5441
4.0883 -2.1038 0.5251
4.0479 -2.1339 0.4959
4.0309 -2.1440 0.4744
4.0308 -2.1390 0.4574
4.0332 -2.1319 0.4404
4.0327 -2.1271 0.4223
4.0354 -2.1193 0.4042
4.0318 -2.1171 0.3846
4.0239 -2.1187 0.3643
4.0160 -2.1203 0.3438
4.0048 -2.1250 0.3231
4.0048 -2.1191 0.3027
4.0061 -2.1118 0.2816
4.0001 -2.1113 0.2602
3.9864 -2.1183 0.2391
3.9571 -2.1408 0.2202
3.9330 -2.1522 0.1801
3.9506 -2.1277 0.1534
4.0567 -2.0025 0.0711
3.9495 -2.0995 0.0525
4.0778 -1.9320 -0.1029
4.0716 -1.9281 -0.1365
4.0731 -1.9153 -0.1758
4.1013 -1.8710 -0.2356
4.0754 -1.8889 -0.2592
4.0408 -1.9176 -0.2743
3.9835 -1.9745 -0.2669
3.9407 -2.0153 -0.2675
3.8560 -2.0989 -0.2578
3.8267 -2.1258 -0.2614
3.7928 -2.1597 -0.2565
3.7347 -2.2173 -0.2490
3.6971 -2.2499 -0.2604
3.6762 -2.2702 -0.2596
3.6545 -2.2921 -0.2552
3.6204 -2.3246 -0.2558
3.5627 -2.3796 -0.2560
3.5373 -2.4048 -0.2530
3.5265 -2.4147 -0.2542
3.5153 -2.4258 -0.2527
3.5061 -2.4338 -0.2557
3.4970 -2.4417 -0.2582
3.4775 -2.4619 -0.2526
3.4693 -2.4696 -0.2534
3.4613 -2.4772 -0.2537
3.4535 -2.4847 -0.2534
3.4468 -2.4898 -0.2576
3.4391 -2.4983 -0.2539
4.0896 -2.0990 0.6184
4.0958 -2.0887 0.6052
4.1051 -2.0700 0.5759
4.0992 -2.0699 0.5565
4.1022 -2.0617 0.5399
4.0871 -2.0698 0.5172
4.0174 -2.1229 0.4626
4.0220 -2.1131 0.4463
4.0187 -2.1105 0.4276
4.0211 -2.1025 0.4095
4.0034 -2.1135 0.3880
4.0021 -2.1088 0.3687
4.0014 -2.1033 0.3491
3.9816 -2.1166 0.3278
3.9838 -2.1081 0.3078
3.9833 -2.1020 0.2869
3.9848 -2.0938 0.2654
3.9734 -2.0986 0.2441
3.9468 -2.1193 0.2247
3.9193 -2.1413 0.2066
3.9085 -2.1459 0.1867
3.9276 -2.1184 0.1601
3.9668 -2.0682 0.1257
4.0083 -2.0140 0.0864
4.0046 -2.0090 0.0587
4.0506 -1.9151 -0.0932
4.0706 -1.8795 -0.1425
4.0395 -1.9048 -0.1618
4.0631 -1.8633 -0.2182
4.0508 -1.8653 -0.2513
4.0168 -1.8947 -0.2667
3.9735 -1.9370 -0.2709
3.9288 -1.9823 -0.2700
3.8880 -2.0238 -0.2687
3.8465 -2.0676 -0.2624
3.8201 -2.0918 -0.2697
3.7877 -2.1253 -0.2669
3.7564 -2.1585 -0.2618
3.7288 -2.1873 -0.2586
3.7043 -2.2125 -0.2568
3.6850 -2.2308 -0.2605
3.6678 -2.2463 -0.2661
3.6475 -2.2675 -0.2637
3.6281 -2.2879 -0.2608
3.5955 -2.3209 -0.2601
3.5809 -2.3356 -0.2603
3.5523 -2.3658 -0.2559
3.5281 -2.3904 -0.2553
3.5187 -2.3982 -0.2607
3.5080 -2.4089 -0.2605
3.4960 -2.4233 -0.2534
3.4871 -2.4314 -0.2560
3.4775 -2.4418 -0.2537
3.4699 -2.4480 -0.2585
3.4615 -2.4564 -0.2584
3.4529 -2.4660 -0.2554
3.4457 -2.4725 -0.2577
3.4381 -2.4807 -0.2560
4.0923 -2.0627 0.6154
4.0907 -2.0529 0.5817
4.1008 -2.0376 0.5682
4.0910 -2.0408 0.5470
4.0759 -2.0491 0.5241
4.0730 -2.0457 0.5050
4.0173 -2.0935 0.4715
4.0123 -2.0924 0.4526
4.0170 -2.0816 0.4355
4.0108 -2.0815 0.4157
3.9980 -2.0879 0.3946
3.9932 -2.0862 0.3747
3.9868 -2.0862 0.3544
3.9680 -2.0989 0.3331
3.9630 -2.0973 0.3128
3.9639 -2.0894 0.2922
3.9615 -2.0848 0.2710
3.9596 -2.0794 0.2492
3.9333 -2.1006 0.2295
3.8986 -2.1317 0.2123
3.8893 -2.1347 0.1924
3.8902 -2.1263 0.1701
3.9151 -2.0898 0.1405
3.9835 -2.0014 0.0942
3.9683 -2.0097 0.0709
4.0161 -1.8825 -0.1544
4.0285 -1.8529 -0.2031
4.0413 -1.8215 -0.2556
4.0141 -1.8430 -0.2773
3.9527 -1.9122 -0.2656
3.9070 -1.9616 -0.2631
3.8703 -1.9998 -0.2653
3.8415 -2.0278 -0.2729
3.8078 -2.0639 -0.2718
3.7687 -2.1094 -0.2599
3.7463 -2.1310 -0.2665
3.6940 -2.1885 -0.2607
3.6729 -2.2107 -0.2613
3.6553 -2.2279 -0.2657
3.6303 -2.2585 -0.2539
3.6188 -2.2666 -0.2658
3.5829 -2.3078 -0.2568
3.5676 -2.3248 -0.2545
3.5544 -2.3384 -0.2556
3.5294 -2.3652 -0.2551
3.5171 -2.3790 -0.2527
3.5073 -2.3882 -0.2562
3.4970 -2.3993 -0.2561
3.4864 -2.4115 -0.2532
3.4777 -2.4198 -0.2560
3.4690 -2.4286 -0.2571
3.4515 -2.4485 -0.2531
3.4436 -2.4571 -0.2524
3.4366 -2.4638 -0.2548
3.4296 -2.4710 -0.2555
3.4222 -2.4799 -0.2521
4.0905 -2.0219 0.5933
4.0938 -2.0122 0.5771
4.0838 -2.0155 0.5556
4.0883 -2.0044 0.5389
4.0748 -2.0111 0.5159
4.0696 -2.0094 0.4955
4.0153 -2.0581 0.4623
4.0025 -2.0646 0.4410
4.0041 -2.0561 0.4227
3.9944 -2.0593 0.4018
3.9801 -2.0675 0.3803
3.9660 -2.0756 0.3590
3.9520 -2.0836 0.3381
3.9498 -2.0786 0.3180
3.9518 -2.0689 0.2974
3.9463 -2.0673 0.2762
3.8816 -2.1183 0.2175
3.8743 -2.1190 0.1972
3.8677 -2.1189 0.1766
3.9484 -2.0023 0.1053
4.3640 -1.3951 -0.2821
3.9906 -1.8632 -0.1455
4.0015 -1.8335 -0.1935
4.0213 -1.7900 -0.2518
3.9894 -1.8193 -0.2694
3.9397 -1.8756 -0.2678
3.8528 -1.9748 -0.2624
3.8186 -2.0129 -0.2632
3.7822 -2.0556 -0.2577
3.7340 -2.1057 -0.2684
3.6768 -2.1752 -0.2535
3.6364 -2.2204 -0.2537
3.6205 -2.2365 -0.2584
3.6047 -2.2531 -0.2613
3.5725 -2.2899 -0.2593
3.5425 -2.3260 -0.2526
3.5325 -2.3344 -0.2601
3.5198 -2.3494 -0.2580
3.4974 -2.3751 -0.2566
3.4875 -2.3857 -0.2577
3.4767 -2.3995 -0.2530
3.4672 -2.4106 -0.2517
3.4601 -2.4158 -0.2593
3.4508 -2.4280 -0.2545
3.4424 -2.4382 -0.2523
3.4351 -2.4457 -0.2541
3.4278 -2.4538 -0.2543
3.4213 -2.4600 -0.2575
3.4143 -2.4685 -0.2555
4.1077 -1.9717 0.6127
4.0992 -1.9733 0.5913
4.1007 -1.9645 0.5735
4.1060 -1.9514 0.5565
4.1011 -1.9489 0.5353
4.0863 -1.9568 0.5109
4.0270 -2.0126 0.4749
3.9927 -2.0424 0.4476
3.9847 -2.0439 0.4272
3.9902 -2.0301 0.4092
3.9669 -2.0486 0.3859
3.9528 -2.0568 0.3645
3.9417 -2.0616 0.3437
3.9436 -2.0515 0.3237
3.9324 -2.0564 0.3026
3.9296 -2.0514 0.2815
3.9313 -2.0407 0.2596
3.9260 -2.0383 0.2375
3.8719 -2.0960 0.2217
3.8612 -2.1008 0.2017
3.8532 -2.1022 0.1814
4.5829 -1.0575 -0.2796
4.3238 -1.3684 -0.2680
4.2605 -1.4363 -0.2857
3.9666 -1.8265 -0.1775
3.9767 -1.7946 -0.2279
3.9665 -1.7926 -0.2633
3.9105 -1.8622 -0.2548
3.8378 -1.9451 -0.2625
3.8026 -1.9871 -0.2618
3.7715 -2.0235 -0.2625
3.7466 -2.0507 -0.2681
3.7199 -2.0821 -0.2684
3.6673 -2.1477 -0.2599
3.6266 -2.1962 -0.2590
3.5919 -2.2368 -0.2599
3.5756 -2.2564 -0.2589
3.5621 -2.2710 -0.2625
3.5472 -2.2896 -0.2601
3.5340 -2.3053 -0.2600
3.5083 -2.3375 -0.2551
3.4980 -2.3487 -0.2578
3.4875 -2.3611 -0.2579
3.4773 -2.3733 -0.2573
3.4680 -2.3842 -0.2579
3.4587 -2.3955 -0.2568
3.4502 -2.4055 -0.2572
3.4421 -2.4147 -0.2580
3.4336 -2.4264 -0.2538
3.4267 -2.4329 -0.2580
3.4191 -2.4431 -0.2549
3.4119 -2.4526 -0.2523
3.4057 -2.4588 -0.2552
6.2042 0.3199 1.4735
6.1642 0.3067 1.3873
3.9789 -2.0161 0.4347
3.9736 -2.0142 0.4145
3.9520 -2.0312 0.3913
3.9337 -2.0447 0.3693
3.9199 -2.0530 0.3483
3.9216 -2.0425 0.3286
3.9187 -2.0373 0.3079
3.9143 -2.0245 0.2650
3.9160 -2.0128 0.2423
3.8442 -2.0873 0.2070
3.8386 -2.0855 0.1861
3.8370 -2.0779 0.1638
4.5404 -1.0168 -0.2662
4.4528 -1.1171 -0.2876
4.3190 -1.2896 -0.2746
4.2270 -1.4043 -0.2751
4.1666 -1.4739 -0.2889
3.9408 -1.8069 -0.1685
3.9249 -1.8147 -0.1970
3.9110 -1.8193 -0.2270
3.8910 -1.8339 -0.2511
3.8512 -1.8830 -0.2526
3.8197 -1.9195 -0.2593
3.7985 -1.9389 -0.2758
3.7642 -1.9831 -0.2727
3.7267 -2.0351 -0.2604
3.6808 -2.0894 -0.2677
3.6532 -2.1276 -0.2587
3.6332 -2.1522 -0.2597
3.6138 -2.1766 -0.2592
3.5958 -2.1993 -0.2588
3.5790 -2.2203 -0.2585
3.5653 -2.2354 -0.2633
3.5488 -2.2582 -0.2582
3.5343 -2.2772 -0.2560
3.5239 -2.2869 -0.2638
3.5101 -2.3063 -0.2587
3.4988 -2.3200 -0.2597
3.4874 -2.3349 -0.2579
3.4774 -2.3469 -0.2592
3.4666 -2.3622 -0.2548
3.4581 -2.3712 -0.2586
3.4485 -2.3849 -0.2545
3.4402 -2.3951 -0.2550
3.4320 -2.4059 -0.2538
3.4252 -2.4119 -0.2597
3.4174 -2.4231 -0.2562
3.4103 -2.4323 -0.2555
3.4035 -2.4407 -0.2554
3.3971 -2.4490 -0.2548
3.9704 -1.9905 0.4419
3.9634 -1.9903 0.4211
3.9442 -2.0050 0.3980
3.9231 -2.0223 0.3752
3.9080 -2.0325 0.3538
3.9012 -2.0321 0.3334
3.8942 -2.0319 0.3129
3.8974 -2.0082 0.2704
3.9011 -1.9928 0.2475
3.8828 -2.0073 0.2263
3.8376 -2.0596 0.2104
3.8293 -2.0611 0.1897
3.8244 -2.0575 0.1680
3.8171 -2.0574 0.1466
4.5053 -0.9647 -0.2562
4.4188 -1.0688 -0.2782
4.3135 -1.2062 -0.2814
4.2195 -1.3302 -0.2816
3.9050 -1.7857 -0.1928
3.8987 -1.7769 -0.2303
3.8845 -1.7816 -0.2610
3.8406 -1.8406 -0.2585
3.8071 -1.8826 -0.2632
3.7800 -1.9142 -0.2723
3.7490 -1.9548 -0.2730
3.7111 -2.0112 -0.2591
3.6634 -2.0728 -0.2622
3.6420 -2.1005 -0.2633
3.6203 -2.1302 -0.2608
3.6024 -2.1529 -0.2628
3.5835 -2.1792 -0.2599
3.5647 -2.2067 -0.2540
3.5496 -2.2265 -0.2541
3.5376 -2.2395 -0.2604
3.5227 -2.2612 -0.2560
3.5109 -2.2754 -0.2589
3.4983 -2.2932 -0.2566
3.4885 -2.3035 -0.2622
3.4767 -2.3209 -0.2580
3.4671 -2.3325 -0.2604
3.4561 -2.3503 -0.2533
3.4477 -2.3595 -0.2572
3.4391 -2.3708 -0.2575
3.4297 -2.3868 -0.2497
3.4225 -2.3943 -0.2539
3.4157 -2.4011 -0.2588
3.4083 -2.4113 -0.2577
3.4018 -2.4186 -0.2606
3.3949 -2.4293 -0.2572
3.3888 -2.4358 -0.2605
6.2181 0.5220 1.7903
3.9658 -1.9591 0.4503
3.9556 -1.9624 0.4285
3.9234 -1.9945 0.4025
3.9028 -2.0121 0.3797
3.8959 -2.0117 0.3594
3.8876 -2.0131 0.3388
3.8805 -2.0127 0.3181
3.8854 -1.9957 0.2974
3.8835 -1.9876 0.2756
3.8837 -1.9762 0.2531
3.8656 -1.9908 0.2318
3.8368 -2.0219 0.2130
3.8167 -2.0406 0.1941
3.8138 -2.0335 0.1717
3.8107 -2.0265 0.1487
4.5326 -0.8436 -0.2069
4.4985 -0.8649 -0.2600
4.4035 -0.9882 -0.2789
4.2816 -1.1613 -0.2728
4.1806 -1.3046 -0.2677
4.0414 -1.4955 -0.2746
3.9353 -1.6399 -0.2821
3.8273 -1.8004 -0.2622
3.7838 -1.8651 -0.2543
3.7605 -1.8909 -0.2677
3.6941 -1.9893 -0.2561
3.6453 -2.0577 -0.2554
3.6049 -2.1133 -0.2570
3.5700 -2.1611 -0.2588
3.5366 -2.2110 -0.2521
3.5248 -2.2243 -0.2586
3.5116 -2.2428 -0.2585
3.4864 -2.2799 -0.2544
3.4760 -2.2934 -0.2566
3.4656 -2.3076 -0.2571
3.4557 -2.3216 -0.2568
3.4462 -2.3355 -0.2557
3.4373 -2.3478 -0.2558
3.4289 -2.3593 -0.2562
3.4210 -2.3700 -0.2570
3.4133 -2.3805 -0.2572
3.4061 -2.3903 -0.2579
3.3985 -2.4035 -0.2524
3.3924 -2.4089 -0.2588
3.3859 -2.4184 -0.2579
3.3800 -2.4251 -0.2612
3.9109 -1.9733 0.4085
3.8892 -1.9930 0.3853
3.8783 -1.9980 0.3644
3.8713 -1.9975 0.3440
3.8760 -1.9800 0.3240
3.8710 -1.9760 0.3028
3.8712 -1.9641 0.2809
3.8763 -1.9444 0.2579
3.8681 -1.9443 0.2350
3.8564 -1.9495 0.2125
3.8304 -1.9776 0.1930
3.8142 -1.9906 0.1725
3.8116 -1.9818 0.1485
4.4920 -0.7573 -0.2643
4.4006 -0.8801 -0.2871
4.2803 -1.0598 -0.2834
4.1937 -1.1845 -0.2895
4.0991 -1.3292 -0.2801
4.0232 -1.4441 -0.2749
3.9609 -1.5371 -0.2731
3.9150 -1.6010 -0.2803
3.8620 -1.6825 -0.2741
3.8221 -1.7403 -0.2764
3.7441 -1.8600 -0.2678
3.6849 -1.9485 -0.2660
3.6308 -2.0339 -0.2555
3.6115 -2.0605 -0.2591
3.5935 -2.0852 -0.2626
3.5733 -2.1177 -0.2578
3.5577 -2.1388 -0.2613
3.5260 -2.1876 -0.2577
3.5004 -2.2232 -0.2617
3.4755 -2.2628 -0.2566
3.4653 -2.2766 -0.2591
3.4555 -2.2896 -0.2617
3.4451 -2.3069 -0.2579
3.4368 -2.3166 -0.2629
3.4271 -2.3345 -0.2563
3.4193 -2.3440 -0.2600
3.4110 -2.3579 -0.2569
3.4037 -2.3680 -0.2583
3.3895 -2.3900 -0.2561
3.3832 -2.3977 -0.2593
3.3768 -2.4082 -0.2573
6.1244 0.7440 1.7916
6.0288 0.9151 1.2314
3.8969 -1.9536 0.4143
3.8755 -1.9737 0.3909
3.8684 -1.9732 0.3705
3.8599 -1.9745 0.3497
3.8592 -1.9639 0.3293
3.8576 -1.9544 0.3082
3.8505 -1.9531 0.2865
3.8625 -1.9210 0.2633
3.8787 -1.8810 0.2377
3.8675 -1.8847 0.2137
4.3632 -0.9041 -0.1441
4.4244 -0.7541 -0.2390
4.3576 -0.8389 -0.2734
4.2787 -0.9501 -0.2947
4.1661 -1.1324 -0.2842
4.0732 -1.2829 -0.2753
4.0047 -1.3900 -0.2757
3.9526 -1.4671 -0.2834
3.8969 -1.5554 -0.2811
3.8047 -1.7021 -0.2771
3.7616 -1.7741 -0.2693
3.7290 -1.8245 -0.2702
3.6960 -1.8787 -0.2657
3.6680 -1.9233 -0.2643
3.6461 -1.9544 -0.2699
3.6181 -2.0040 -0.2597
3.5989 -2.0320 -0.2633
3.5782 -2.0663 -0.2601
3.5618 -2.0898 -0.2639
3.5435 -2.1211 -0.2593
3.5279 -2.1457 -0.2589
3.5123 -2.1725 -0.2548
3.4998 -2.1904 -0.2578
3.4881 -2.2065 -0.2616
3.4753 -2.2288 -0.2577
3.4641 -2.2462 -0.2578
3.4541 -2.2603 -0.2605
3.4428 -2.2821 -0.2533
3.4341 -2.2936 -0.2571
3.4255 -2.3058 -0.2593
3.4165 -2.3218 -0.2558
3.4089 -2.3315 -0.2596
3.4011 -2.3442 -0.2588
3.3940 -2.3537 -0.2615
3.3870 -2.3655 -0.2604
3.3802 -2.3763 -0.2598
3.3738 -2.3864 -0.2597
3.3677 -2.3964 -0.2590
3.3620 -2.4026 -0.2638
6.1638 1.0896 1.6582
3.8654 -1.9486 0.3974
3.8471 -1.9651 0.3749
3.8470 -1.9532 0.3554
3.8407 -1.9508 0.3345
3.8372 -1.9437 0.3135
3.8367 -1.9312 0.2919
3.8457 -1.9021 0.2690
3.8496 -1.8806 0.2447
3.8571 -1.8520 0.2184
3.8473 -1.8530 0.1937
5.2335 0.7497 -0.2951
4.3463 -0.7768 -0.2081
4.3145 -0.7978 -0.2598
4.2544 -0.8774 -0.2924
4.0573 -1.2129 -0.2788
3.9184 -1.4493 -0.2695
3.8693 -1.5290 -0.2723
3.8295 -1.5908 -0.2796
3.7428 -1.7419 -0.2678
3.7095 -1.7978 -0.2669
3.6783 -1.8514 -0.2640
3.6493 -1.9021 -0.2598
3.6281 -1.9337 -0.2657
3.6036 -1.9769 -0.2614
3.5633 -2.0455 -0.2588
3.5449 -2.0778 -0.2561
3.5298 -2.1007 -0.2594
3.5149 -2.1250 -0.2600
3.5006 -2.1492 -0.2594
3.4884 -2.1674 -0.2628
3.4750 -2.1920 -0.2589
3.4642 -2.2075 -0.2628
3.4530 -2.2269 -0.2616
3.4419 -2.2477 -0.2575
3.4328 -2.2605 -0.2614
3.4238 -2.2747 -0.2628
3.4067 -2.3027 -0.2632
3.3983 -2.3204 -0.2572
3.3910 -2.3311 -0.2596
3.3838 -2.3431 -0.2593
3.3769 -2.3559 -0.2572
3.3705 -2.3655 -0.2589
3.3643 -2.3772 -0.2566
3.3584 -2.3867 -0.2572
3.3528 -2.3930 -0.2620
6.2566 1.2540 1.9961
3.8357 -1.9541 0.3997
3.8344 -1.9437 0.3807
3.8282 -1.9412 0.3603
3.8269 -1.9300 0.3401
3.8225 -1.9237 0.3190
3.8232 -1.9080 0.2974
3.8341 -1.8735 0.2744
3.8311 -1.8629 0.2505
3.8283 -1.8515 0.2258
3.8306 -1.8299 0.1993
4.2564 -0.8334 -0.1705
4.2290 -0.8023 -0.2899
4.0553 -1.1053 -0.2948
3.9536 -1.3035 -0.2664
3.9008 -1.3927 -0.2721
3.7261 -1.7023 -0.2700
3.6944 -1.7576 -0.2709
3.6673 -1.8029 -0.2747
3.6096 -1.9139 -0.2608
3.5684 -1.9854 -0.2624
3.5332 -2.0465 -0.2639
3.4996 -2.1124 -0.2538
3.4743 -2.1540 -0.2584
3.4633 -2.1700 -0.2635
3.4507 -2.1966 -0.2570
3.4401 -2.2155 -0.2567
3.4305 -2.2303 -0.2598
3.4213 -2.2457 -0.2612
3.4125 -2.2602 -0.2627
3.4038 -2.2762 -0.2616
3.3955 -2.2928 -0.2587
3.3880 -2.3046 -0.2609
3.3807 -2.3178 -0.2604
3.3737 -2.3301 -0.2602
3.3669 -2.3455 -0.2551
3.3608 -2.3545 -0.2580
3.3548 -2.3642 -0.2592
3.3490 -2.3754 -0.2577
3.3435 -2.3865 -0.2556
3.8300 -1.9209 0.4073
3.8191 -1.9261 0.3861
3.8172 -1.9156 0.3664
3.8123 -1.9101 0.3456
3.8151 -1.8900 0.3250
3.8121 -1.8798 0.3030
3.8095 -1.8336 0.2318
3.8046 -1.8248 0.2067
3.8049 -1.8048 0.1795
4.6001 -0.0564 -0.1791
4.2313 -0.7575 -0.1659
4.2397 -0.6893 -0.2392
4.2084 -0.7109 -0.2911
4.1050 -0.9078 -0.2868
4.0304 -1.0434 -0.2929
3.9244 -1.2667 -0.2587
3.8758 -1.3514 -0.2678
3.7904 -1.5025 -0.2804
3.7501 -1.5780 -0.2805
3.7143 -1.6449 -0.2808
3.6795 -1.7131 -0.2767
3.6489 -1.7726 -0.2736
3.6179 -1.8379 -0.2636
3.5956 -1.8780 -0.2661
3.5525 -1.9625 -0.2612
3.5182 -2.0257 -0.2627
3.4873 -2.0862 -0.2592
3.4735 -2.1131 -0.2577
3.4623 -2.1295 -0.2640
3.4500 -2.1543 -0.2615
3.4389 -2.1756 -0.2610
3.4285 -2.1949 -0.2611
3.4094 -2.2316 -0.2600
3.4010 -2.2447 -0.2636
3.3701 -2.3068 -0.2580
3.3570 -2.3319 -0.2573
3.3509 -2.3435 -0.2570
3.3451 -2.3518 -0.2607
3.3396 -2.3656 -0.2559
3.3343 -2.3753 -0.2562
4.4973 -0.8896 0.8659
4.5003 -0.8573 0.8319
4.5037 -0.8233 0.7965
4.4940 -0.8100 0.7543
3.8330 -1.8848 0.4364
3.8192 -1.8951 0.4140
3.8104 -1.8964 0.3930
3.8005 -1.8996 0.3717
3.7977 -1.8734 0.3305
3.8040 -1.8442 0.3089
3.8105 -1.8132 0.2857
3.7907 -1.8156 0.2378
3.7810 -1.8164 0.2135
3.7743 -1.8104 0.1884
3.7678 -1.8035 0.1627
3.7622 -1.7938 0.1359
3.7507 -1.7976 0.1109
4.1353 -0.7978 -0.1882
3.9811 -1.0908 -0.2075
3.8658 -1.3101 -0.2220
3.8478 -1.3160 -0.2607
3.7632 -1.4765 -0.2718
3.7274 -1.5444 -0.2767
3.6653 -1.6620 -0.2850
3.6299 -1.7429 -0.2719
3.5940 -1.8321 -0.2492
3.5741 -1.8675 -0.2549
3.5567 -1.8955 -0.2636
3.5383 -1.9304 -0.2660
3.5197 -1.9695 -0.2634
3.5036 -2.0012 -0.2642
3.4726 -2.0690 -0.2565
3.4603 -2.0912 -0.2597
3.4476 -2.1185 -0.2571
3.4368 -2.1377 -0.2603
3.4152 -2.1860 -0.2536
3.4065 -2.1988 -0.2596
3.3976 -2.2157 -0.2606
3.3811 -2.2500 -0.2590
3.3736 -2.2640 -0.2603
3.3664 -2.2787 -0.2599
3.3594 -2.2966 -0.2546
3.3530 -2.3103 -0.2536
3.3468 -2.3189 -0.2583
3.3353 -2.3417 -0.2587
3.3299 -2.3517 -0.2597
4.4604 -0.9394 0.9732
4.4857 -0.8716 0.9569
4.5006 -0.8192 0.9321
4.4619 -0.8557 0.8771
3.8052 -1.8741 0.4200
3.7985 -1.8712 0.3994
3.7885 -1.8745 0.3779
3.7851 -1.8646 0.3573
3.7873 -1.8427 0.3367
3.7942 -1.8098 0.3150
3.7895 -1.8003 0.2916
3.7617 -1.8206 0.2449
3.7587 -1.8063 0.2201
3.7497 -1.8050 0.1958
3.7452 -1.7929 0.1698
3.7371 -1.7888 0.1442
3.7292 -1.7838 0.1180
3.7230 -1.7740 0.0904
3.7146 -1.7691 0.0632
3.8111 -1.3070 -0.2437
3.7395 -1.4393 -0.2681
3.7043 -1.5103 -0.2728
3.6331 -1.6722 -0.2607
3.6057 -1.7313 -0.2599
3.5817 -1.7817 -0.2609
3.5603 -1.8252 -0.2633
3.5392 -1.8721 -0.2611
3.5225 -1.9022 -0.2675
3.5037 -1.9466 -0.2624
3.4731 -2.0119 -0.2623
3.4592 -2.0428 -0.2609
3.4466 -2.0691 -0.2616
3.4240 -2.1156 -0.2637
3.4034 -2.1623 -0.2604
3.3941 -2.1832 -0.2591
3.3854 -2.2030 -0.2576
3.3772 -2.2210 -0.2569
3.3696 -2.2363 -0.2582
3.3553 -2.2673 -0.2574
3.3426 -2.2987 -0.2524
3.3366 -2.3100 -0.2540
3.3310 -2.3220 -0.2540
3.3254 -2.3306 -0.2578
3.3204 -2.3442 -0.2544
4.5116 -0.8724 1.1587
4.4748 -0.9064 1.1037
4.4718 -0.8856 1.0729
4.4636 -0.8725 1.0378
4.4320 -0.8987 0.9871
3.7994 -1.8361 0.4286
3.7857 -1.8467 0.4058
3.7756 -1.8501 0.3841
3.7709 -1.8420 0.3632
3.7749 -1.8145 0.3429
3.7791 -1.7851 0.3211
3.7485 -1.8127 0.2744
3.7369 -1.8183 0.2514
3.7379 -1.7935 0.2264
3.7297 -1.7901 0.2020
3.7210 -1.7877 0.1774
3.7118 -1.7864 0.1527
3.7035 -1.7822 0.1271
3.6950 -1.7780 0.1012
3.6868 -1.7728 0.0746
3.6799 -1.7629 0.0464
3.6741 -1.7491 0.0163
3.6640 -1.7471 -0.0111
3.6604 -1.7238 -0.0459
3.6510 -1.7182 -0.0758
3.6480 -1.6895 -0.1152
3.6147 -1.6822 -0.2074
3.6016 -1.6865 -0.2355
3.5832 -1.7144 -0.2511
3.5676 -1.7318 -0.2712
3.5446 -1.7866 -0.2685
3.5241 -1.8345 -0.2672
3.5051 -1.8801 -0.2648
3.4882 -1.9189 -0.2644
3.4579 -1.9910 -0.2613
3.4323 -2.0493 -0.2612
3.4102 -2.0995 -0.2616
3.3905 -2.1462 -0.2595
3.3814 -2.1701 -0.2559
3.3733 -2.1859 -0.2590
3.3580 -2.2216 -0.2582
3.3509 -2.2371 -0.2588
3.3442 -2.2480 -0.2637
3.3318 -2.2801 -0.2594
3.3208 -2.3091 -0.2552
3.3107 -2.3334 -0.2537
3.3056 -2.3403 -0.2589
3.7877 -1.8080 0.4358
3.7721 -1.8230 0.4121
3.7629 -1.8243 0.3905
3.7578 -1.8161 0.3695
3.7593 -1.7922 0.3488
3.7553 -1.7800 0.3265
3.7338 -1.7871 0.2800
3.7238 -1.7886 0.2567
