ply
format ascii 1.0
element vertex 2064
property float x
property float y
property float z
end_header
0.7162 -3.0856 0.3994
0.7126 -3.0748 0.3754
0.7075 -3.0765 0.3626
0.7027 -3.0773 0.3498
0.6967 -3.0811 0.3370
0.6923 -3.0809 0.3240
0.6745 -3.0794 0.2703
0.6701 -3.0784 0.2563
0.6663 -3.0755 0.2418
0.6627 -3.0718 0.2266
0.6590 -3.0681 0.2112
0.6539 -3.0683 0.1965
0.6496 -3.0657 0.1807
0.6449 -2.9020 -0.0389
0.6364 -2.9062 -0.0583
0.6337 -2.8006 -0.1991
0.6185 -2.8340 -0.2011
0.6031 -2.8730 -0.1967
0.5895 -2.9057 -0.1952
0.5782 -2.9269 -0.2012
0.5667 -2.9530 -0.2017
0.5452 -3.0061 -0.1974
0.5362 -3.0230 -0.2020
0.5268 -3.0497 -0.1959
0.5189 -3.0630 -0.2021
0.5105 -3.0900 -0.1926
0.5032 -3.1053 -0.1945
0.4962 -3.1222 -0.1937
0.4896 -3.1317 -0.2007
0.4833 -3.1513 -0.1944
0.4773 -3.1645 -0.1952
0.4716 -3.1767 -0.1964
0.4662 -3.1904 -0.1949
0.4610 -3.2016 -0.1959
0.4563 -3.2172 -0.1896
0.4516 -3.2274 -0.1905
0.4469 -3.2352 -0.1944
0.7238 -3.1061 0.4874
0.7202 -3.0899 0.4588
0.7136 -3.0956 0.4464
0.7114 -3.0918 0.4358
0.7057 -3.0865 0.4134
0.7017 -3.0860 0.4016
0.6973 -3.0866 0.3896
0.6919 -3.0892 0.3773
0.6878 -3.0888 0.3652
0.6833 -3.0894 0.3529
0.6775 -3.0930 0.3405
0.6732 -3.0927 0.3281
0.6682 -3.0821 0.3017
0.6630 -3.0839 0.2888
0.6587 -3.0827 0.2753
0.6564 -3.0757 0.2606
0.6529 -3.0718 0.2461
0.6495 -3.0669 0.2309
0.6454 -3.0641 0.2158
0.6375 -3.0557 0.1839
0.6327 -3.0540 0.1682
0.6174 -2.9037 -0.0477
0.6082 -2.9123 -0.0641
0.5999 -2.9164 -0.0831
0.5730 -2.8832 -0.1977
0.5614 -2.9109 -0.1991
0.5499 -2.9418 -0.1963
0.5306 -2.9838 -0.2031
0.5210 -3.0137 -0.1962
0.5124 -3.0383 -0.1926
0.5047 -3.0510 -0.1998
0.4970 -3.0751 -0.1941
0.4900 -3.0908 -0.1962
0.4833 -3.1087 -0.1947
0.4769 -3.1232 -0.1961
0.4709 -3.1368 -0.1978
0.4598 -3.1674 -0.1942
0.4545 -3.1774 -0.1980
0.4496 -3.1903 -0.1971
0.4448 -3.2016 -0.1977
0.4406 -3.2159 -0.1932
0.4360 -3.2238 -0.1973
0.4319 -3.2340 -0.1974
0.7211 -3.1139 0.5260
0.7176 -3.1139 0.5161
0.7156 -3.1107 0.5072
0.7071 -3.0972 0.4693
0.7041 -3.0954 0.4589
0.6990 -3.0978 0.4474
0.6945 -3.0992 0.4361
0.6903 -3.0996 0.4249
0.6893 -3.0925 0.4146
0.6750 -3.0970 0.3794
0.6715 -3.0954 0.3677
0.6701 -3.0877 0.3559
0.6655 -3.0882 0.3436
0.6612 -3.0878 0.3312
0.6556 -3.0780 0.3052
0.6517 -3.0757 0.2919
0.6474 -3.0745 0.2785
0.6420 -3.0603 0.2488
0.6324 -3.0398 0.2004
0.6698 -2.6617 -0.0891
0.5815 -2.9160 -0.0710
0.5680 -2.8311 -0.1974
0.5553 -2.8684 -0.1940
0.5340 -2.9209 -0.1989
0.5150 -2.9697 -0.2010
0.5059 -3.0036 -0.1911
0.4980 -3.0218 -0.1943
0.4833 -3.0626 -0.1929
0.4766 -3.0777 -0.1960
0.4701 -3.0910 -0.2003
0.4582 -3.1220 -0.2012
0.4480 -3.1573 -0.1929
0.4431 -3.1698 -0.1937
0.4386 -3.1846 -0.1907
0.4339 -3.1944 -0.1935
0.4297 -3.2058 -0.1936
0.4254 -3.2154 -0.1955
0.4217 -3.2273 -0.1933
0.6973 -3.1150 0.4963
0.6931 -3.1162 0.4860
0.6914 -3.1119 0.4770
0.6870 -3.1045 0.4581
0.6831 -3.1047 0.4474
0.6791 -3.1049 0.4366
0.6755 -3.1041 0.4259
0.6731 -3.1000 0.4155
0.6709 -3.0950 0.4049
0.6678 -3.0922 0.3938
0.6635 -3.0926 0.3822
0.6675 -3.0429 0.3463
0.6628 -3.0426 0.3331
0.6623 -3.0290 0.3189
0.6580 -3.0268 0.3048
0.6535 -3.0247 0.2905
0.6483 -3.0246 0.2762
0.6456 -3.0155 0.2603
0.6436 -3.0035 0.2432
0.6435 -2.9827 0.2235
0.6379 -2.9820 0.2073
0.6285 -2.9962 0.1948
0.6181 -3.0151 0.1843
0.6101 -2.9705 0.1199
0.6470 -2.6505 -0.0807
0.6561 -2.5350 -0.1649
0.6444 -2.5373 -0.1949
0.6242 -2.5984 -0.1929
0.5541 -2.9338 -0.0685
0.5467 -2.9331 -0.0896
0.5384 -2.8409 -0.1996
0.5173 -2.9060 -0.1963
0.5081 -2.9296 -0.1993
0.4987 -2.9758 -0.1813
0.4833 -3.0068 -0.1943
0.4762 -3.0268 -0.1951
0.4694 -3.0466 -0.1950
0.4567 -3.0779 -0.2002
0.4511 -3.0972 -0.1975
0.4457 -3.1137 -0.1967
0.4408 -3.1309 -0.1941
0.4314 -3.1598 -0.1926
0.4264 -3.1683 -0.1982
0.4230 -3.1865 -0.1904
0.4184 -3.1948 -0.1951
0.4150 -3.2086 -0.1914
0.4104 -3.2143 -0.1987
0.7078 -3.0207 0.4780
0.7022 -3.0234 0.4652
0.6979 -3.0229 0.4529
0.6914 -3.0278 0.4397
0.6909 -3.0164 0.4287
0.6828 -3.0124 0.4032
0.6791 -3.0088 0.3902
0.6725 -3.0139 0.3766
0.6676 -3.0136 0.3631
0.6646 -3.0070 0.3495
0.6595 -3.0068 0.3356
0.6538 -3.0088 0.3216
0.6498 -3.0045 0.3072
0.6442 -3.0054 0.2929
0.6396 -3.0023 0.2779
0.6350 -2.9992 0.2627
0.6304 -2.9952 0.2470
0.6319 -2.9659 0.2258
0.6279 -2.9571 0.2076
0.6183 -2.9725 0.1949
0.6093 -2.9868 0.1826
0.6042 -2.9821 0.1650
0.6039 -2.9518 0.1383
0.5986 -2.9455 0.1186
0.6286 -2.6124 -0.0845
0.6220 -2.5852 -0.1255
0.6121 -2.5785 -0.1581
0.5993 -2.5937 -0.1797
0.5864 -2.6116 -0.1991
0.5300 -2.9336 -0.0772
0.4910 -2.9653 -0.1557
0.4833 -2.9816 -0.1625
0.4758 -2.9772 -0.1866
0.4685 -2.9916 -0.1942
0.4617 -3.0128 -0.1944
0.4554 -3.0355 -0.1920
0.4492 -3.0511 -0.1955
0.4435 -3.0691 -0.1956
0.4380 -3.0852 -0.1967
0.4330 -3.1029 -0.1951
0.4236 -3.1334 -0.1944
0.4197 -3.1506 -0.1904
0.4115 -3.1752 -0.1917
0.4070 -3.1836 -0.1965
0.4039 -3.1977 -0.1930
0.7359 -3.0033 0.5789
0.7299 -3.0071 0.5659
0.7254 -3.0075 0.5542
0.7199 -3.0102 0.5416
0.7149 -3.0118 0.5293
0.7089 -3.0156 0.5164
0.7043 -3.0160 0.5044
0.7000 -3.0154 0.4926
0.6970 -3.0113 0.4814
0.6914 -3.0141 0.4686
0.6861 -3.0157 0.4559
0.6824 -3.0130 0.4439
0.6782 -3.0113 0.4315
0.6729 -3.0130 0.4185
0.6710 -3.0038 0.4065
0.6689 -2.9947 0.3940
0.6636 -2.9955 0.3804
0.6576 -2.9984 0.3666
0.6553 -2.9885 0.3529
0.6491 -2.9915 0.3389
0.6441 -2.9903 0.3246
0.6385 -2.9912 0.3103
0.6326 -2.9932 0.2960
0.6289 -2.9858 0.2806
0.6225 -2.9889 0.2661
0.6232 -2.9610 0.2464
0.6194 -2.9508 0.2286
0.6154 -2.9409 0.2101
0.6054 -2.9596 0.1980
0.5971 -2.9710 0.1847
0.5902 -2.9753 0.1696
0.6419 -2.4101 -0.1260
0.6136 -2.5373 -0.1038
0.6004 -2.5557 -0.1249
0.5887 -2.5615 -0.1515
0.5776 -2.5614 -0.1812
0.5656 -2.5700 -0.2064
0.5504 -2.6264 -0.2039
0.4984 -2.9486 -0.0953
0.4757 -2.9505 -0.1543
0.4683 -2.9698 -0.1590
0.4611 -2.9807 -0.1699
0.4533 -2.9753 -0.1948
0.4471 -2.9996 -0.1929
0.4409 -3.0183 -0.1949
0.4349 -3.0341 -0.1987
0.4239 -3.0653 -0.2042
0.4196 -3.0868 -0.1992
0.4155 -3.1063 -0.1951
0.4066 -3.1328 -0.1985
0.4001 -3.1655 -0.1908
0.3930 -3.1883 -0.1923
0.7195 -3.0083 0.5769
0.7175 -3.0027 0.5677
0.7130 -3.0030 0.5560
0.7080 -3.0045 0.5439
0.7034 -3.0049 0.5321
0.6991 -3.0041 0.5205
0.6944 -3.0045 0.5085
0.6893 -3.0061 0.4960
0.6841 -3.0077 0.4836
0.6816 -3.0013 0.4727
0.6771 -3.0007 0.4604
0.6714 -3.0035 0.4473
0.6674 -3.0007 0.4351
0.6627 -3.0002 0.4223
0.6592 -2.9952 0.4098
0.6579 -2.9826 0.3976
0.6562 -2.9702 0.3847
0.6458 -2.9686 0.3565
0.6413 -2.9652 0.3421
0.6347 -2.9694 0.3277
0.6271 -2.9779 0.3136
0.6228 -2.9724 0.2985
0.6178 -2.9691 0.2833
0.6127 -2.9659 0.2678
0.6098 -2.9512 0.2502
0.6060 -2.9399 0.2323
0.6027 -2.9234 0.2125
0.5938 -2.9383 0.1991
0.5863 -2.9448 0.1841
0.5784 -2.9553 0.1705
0.7337 -1.8169 -0.2016
0.6072 -2.4651 -0.0895
0.5879 -2.5400 -0.0888
0.5766 -2.5427 -0.1166
0.5668 -2.5257 -0.1539
0.5557 -2.5207 -0.1865
0.5429 -2.5403 -0.2066
0.5284 -2.6043 -0.2009
0.5155 -2.6571 -0.1985
0.4513 -2.9144 -0.1907
0.4443 -2.9349 -0.1951
0.4373 -2.9506 -0.2026
0.4316 -2.9772 -0.1995
0.4258 -2.9980 -0.2003
0.4159 -3.0417 -0.1962
0.4108 -3.0566 -0.1996
0.4067 -3.0766 -0.1966
0.4026 -3.0938 -0.1955
0.3945 -3.1225 -0.1972
0.3907 -3.1357 -0.1981
0.3873 -3.1497 -0.1973
0.3845 -3.1644 -0.1948
0.3805 -3.1730 -0.1994
0.7118 -3.0039 0.5897
0.7065 -3.0065 0.5776
0.7043 -3.0007 0.5685
0.6980 -3.0057 0.5553
0.6939 -3.0048 0.5442
0.6923 -2.9968 0.5352
0.6897 -2.9913 0.5250
0.6829 -2.9976 0.5113
0.6777 -2.9991 0.4989
0.6729 -2.9995 0.4867
0.6717 -2.9884 0.4769
0.6664 -2.9901 0.4640
0.6617 -2.9895 0.4515
0.6569 -2.9889 0.4388
0.6524 -2.9872 0.4262
0.6503 -2.9765 0.4142
0.6464 -2.9716 0.4012
0.6476 -2.9467 0.3890
0.6429 -2.9431 0.3748
0.6362 -2.9473 0.3602
0.6306 -2.9472 0.3456
0.6247 -2.9481 0.3309
0.6176 -2.9546 0.3163
0.6118 -2.9544 0.3014
0.6060 -2.9544 0.2864
0.6023 -2.9425 0.2697
0.5986 -2.9298 0.2522
0.5960 -2.9076 0.2322
0.5900 -2.9047 0.2148
0.5818 -2.9156 0.2002
0.5743 -2.9222 0.1849
0.5665 -2.9319 0.1706
0.5897 -2.5967 0.0268
0.5790 -2.6019 0.0026
0.5692 -2.5989 -0.0247
0.5614 -2.5667 -0.0645
0.5536 -2.5217 -0.1118
0.5433 -2.5044 -0.1491
0.5323 -2.4893 -0.1866
0.5196 -2.5131 -0.2051
0.5065 -2.5673 -0.2059
0.4945 -2.6171 -0.2066
0.4836 -2.6624 -0.2073
0.4736 -2.7180 -0.1993
0.4644 -2.7557 -0.2001
0.4559 -2.7882 -0.2025
0.4405 -2.8504 -0.2044
0.4278 -2.9132 -0.1991
0.4217 -2.9367 -0.2006
0.4164 -2.9627 -0.1986
0.4117 -2.9894 -0.1945
0.4073 -3.0140 -0.1909
0.3967 -3.0416 -0.2014
0.3897 -3.0821 -0.1950
0.3817 -3.1094 -0.1990
0.3789 -3.1264 -0.1959
0.3765 -3.1432 -0.1920
0.3735 -3.1564 -0.1917
0.3696 -3.1651 -0.1964
0.3664 -3.1755 -0.1984
0.6936 -3.0048 0.5782
0.6905 -3.0013 0.5684
0.6860 -3.0015 0.5571
0.6827 -2.9981 0.5469
0.6793 -2.9948 0.5364
0.6777 -2.9855 0.5275
0.6729 -2.9859 0.5154
0.6688 -2.9839 0.5038
0.6631 -2.9867 0.4910
0.6592 -2.9836 0.4793
0.6565 -2.9759 0.4684
0.6520 -2.9741 0.4559
0.6484 -2.9689 0.4438
0.6434 -2.9683 0.4308
0.6395 -2.9632 0.4181
0.6376 -2.9491 0.4058
0.6349 -2.9374 0.3926
0.6380 -2.8988 0.3799
0.6322 -2.8976 0.3646
0.6234 -2.9110 0.3491
0.6158 -2.9187 0.3340
0.6066 -2.9353 0.3195
0.6005 -2.9363 0.3044
0.5959 -2.9285 0.2885
0.5912 -2.9198 0.2719
0.5863 -2.9112 0.2548
0.5833 -2.8876 0.2346
0.5783 -2.8750 0.2151
0.5691 -2.8935 0.2016
0.5611 -2.9045 0.1870
0.5720 -2.6496 0.0785
0.5634 -2.6398 0.0514
0.5553 -2.6197 0.0200
0.5464 -2.6030 -0.0115
0.5391 -2.5505 -0.0582
0.5309 -2.4914 -0.1108
0.5195 -2.4839 -0.1437
0.5080 -2.4715 -0.1797
0.4959 -2.4745 -0.2090
0.4836 -2.5276 -0.2118
0.4726 -2.5952 -0.2038
0.4628 -2.6541 -0.1974
0.4533 -2.6888 -0.2028
0.4453 -2.7389 -0.1966
0.4369 -2.7650 -0.2039
0.4300 -2.8055 -0.1999
0.4239 -2.8446 -0.1946
0.4182 -2.8795 -0.1905
0.4111 -2.8940 -0.2007
0.4066 -2.9283 -0.1939
0.4011 -2.9490 -0.1969
0.3916 -2.9918 -0.1982
0.3872 -3.0110 -0.1993
0.3828 -3.0282 -0.2013
0.3801 -3.0525 -0.1950
0.3757 -3.0657 -0.1991
0.3734 -3.0869 -0.1938
0.3692 -3.0980 -0.1987
0.3676 -3.1188 -0.1916
0.3632 -3.1270 -0.1984
0.3606 -3.1413 -0.1973
0.3581 -3.1546 -0.1967
0.3553 -3.1660 -0.1977
0.6778 -2.9997 0.5691
0.6733 -2.9998 0.5579
0.6684 -3.0012 0.5463
0.6669 -2.9917 0.5380
0.6636 -2.9871 0.5277
0.6631 -2.9729 0.5199
0.6589 -2.9709 0.5082
0.6552 -2.9665 0.4969
0.6507 -2.9646 0.4848
0.6468 -2.9604 0.4730
0.6436 -2.9526 0.4615
0.6383 -2.9532 0.4482
0.6342 -2.9480 0.4357
0.6309 -2.9394 0.4231
0.6278 -2.9285 0.4103
0.6246 -2.9167 0.3969
0.6245 -2.8890 0.3837
0.6204 -2.8786 0.3686
0.6138 -2.8809 0.3529
0.6051 -2.8944 0.3374
0.5977 -2.9011 0.3221
0.5908 -2.9055 0.3067
0.5844 -2.9066 0.2911
0.5794 -2.8978 0.2744
0.5750 -2.8824 0.2561
0.5708 -2.8618 0.2361
0.5651 -2.8512 0.2169
0.5570 -2.8614 0.2012
0.5492 -2.8693 0.1853
0.5501 -2.6641 0.0921
0.5417 -2.6507 0.0648
0.5336 -2.6248 0.0324
0.5248 -2.6014 -0.0007
0.5162 -2.5531 -0.0448
0.5082 -2.4273 -0.1233
0.4961 -2.4220 -0.1564
0.4837 -2.4281 -0.1848
0.4714 -2.4526 -0.2041
0.4605 -2.5208 -0.1999
0.4507 -2.5822 -0.1960
0.4410 -2.6158 -0.2048
0.4330 -2.6702 -0.1996
0.4252 -2.7100 -0.2007
0.4124 -2.7945 -0.1935
0.4054 -2.8175 -0.2004
0.3996 -2.8471 -0.2012
0.3965 -2.8939 -0.1872
0.3907 -2.9132 -0.1927
0.3813 -2.9580 -0.1956
0.3767 -2.9768 -0.1986
0.3729 -2.9982 -0.1981
0.3696 -3.0194 -0.1966
0.3662 -3.0385 -0.1960
0.3594 -3.0707 -0.1983
0.3569 -3.0883 -0.1963
0.3555 -3.1086 -0.1904
0.3512 -3.1169 -0.1973
0.3487 -3.1305 -0.1974
0.3440 -3.1564 -0.1970
0.6664 -2.9945 0.5711
0.6619 -2.9946 0.5600
0.6589 -2.9898 0.5505
0.6564 -2.9826 0.5414
0.6520 -2.9815 0.5301
0.6482 -2.9781 0.5193
0.6475 -2.9626 0.5114
0.6443 -2.9557 0.5007
0.6454 -2.9309 0.4936
0.6414 -2.9255 0.4815
0.6342 -2.9332 0.4667
0.6292 -2.9314 0.4536
0.6282 -2.9108 0.4429
0.6251 -2.8986 0.4303
0.6203 -2.8936 0.4163
0.5882 -2.8639 0.3249
0.5790 -2.8832 0.3098
0.5733 -2.8776 0.2934
0.5677 -2.8698 0.2764
0.5624 -2.8576 0.2582
0.5581 -2.8323 0.2374
0.5508 -2.8337 0.2199
0.5429 -2.8418 0.2036
0.5303 -2.6642 0.1013
0.5213 -2.6581 0.0766
0.5130 -2.6263 0.0432
0.5039 -2.5969 0.0088
0.4942 -2.5520 -0.0331
0.4836 -2.4464 -0.1017
0.4710 -2.3881 -0.1561
0.4584 -2.3901 -0.1867
0.4465 -2.4202 -0.2042
0.4369 -2.4936 -0.1986
0.4267 -2.5261 -0.2111
0.4197 -2.6003 -0.1988
0.4124 -2.6503 -0.1969
0.4041 -2.6766 -0.2070
0.3923 -2.7605 -0.2026
0.3871 -2.7969 -0.2011
0.3836 -2.8409 -0.1922
0.3728 -2.8863 -0.2008
0.3692 -2.9155 -0.1980
0.3644 -2.9348 -0.2022
0.3595 -2.9900 -0.1924
0.3551 -3.0048 -0.1973
0.3510 -3.0195 -0.2016
0.3482 -3.0663 -0.1899
0.3444 -3.0777 -0.1949
0.3423 -3.0946 -0.1933
0.3395 -3.1076 -0.1951
0.3357 -3.1168 -0.2007
0.3351 -3.1351 -0.1950
0.6517 -2.9857 0.5634
0.6465 -2.9883 0.5514
0.6432 -2.9834 0.5417
0.6404 -2.9761 0.5324
0.6375 -2.9688 0.5228
0.6355 -2.9568 0.5140
0.6351 -2.9375 0.5063
0.6334 -2.9221 0.4970
0.6340 -2.8947 0.4893
0.6262 -2.9051 0.4736
0.6985 -2.3084 0.4497
0.6926 -2.2767 0.4245
0.5758 -2.8410 0.3284
0.5685 -2.8456 0.3122
0.5613 -2.8503 0.2960
0.5546 -2.8492 0.2793
0.5496 -2.8290 0.2601
0.5445 -2.8033 0.2391
0.5375 -2.7970 0.2199
0.5293 -2.8075 0.2034
0.5224 -2.7957 0.1824
0.5188 -2.6968 0.1401
0.5112 -2.6582 0.1086
0.5024 -2.6409 0.0811
0.4935 -2.5879 0.0414
0.4834 -2.5430 0.0015
0.4598 -2.4365 -0.0921
0.4482 -2.4498 -0.1161
0.4228 -2.4243 -0.1870
0.4138 -2.4808 -0.1900
0.4041 -2.5126 -0.2031
0.3966 -2.5640 -0.2041
0.3840 -2.6601 -0.2027
0.3763 -2.6844 -0.2132
0.3749 -2.7534 -0.1935
0.3657 -2.8207 -0.1932
0.3620 -2.8529 -0.1916
0.3570 -2.9203 -0.1811
0.3510 -2.9308 -0.1923
0.3476 -2.9531 -0.1931
0.3437 -2.9712 -0.1964
0.3380 -3.0109 -0.1970
0.3368 -3.0342 -0.1923
0.3341 -3.0507 -0.1932
0.3283 -3.0785 -0.1981
0.3271 -3.0964 -0.1950
0.3241 -3.1076 -0.1986
0.3225 -3.1225 -0.1974
-0.5701 -1.9236 0.7973
-0.5241 -1.9208 0.7926
-0.4722 -1.9504 0.7804
-0.4075 -1.8154 0.8010
-0.3850 -1.6535 0.8323
-0.0845 -2.8173 0.5540
-0.0672 -2.8394 0.5474
-0.0509 -2.8559 0.5420
-0.0358 -2.8766 0.5360
0.0417 -2.9486 0.5119
0.0539 -2.9524 0.5097
0.0701 -2.9361 0.5112
0.0773 -2.9593 0.5055
0.0862 -2.9721 0.5018
0.0963 -2.9782 0.4994
0.1039 -2.9915 0.4957
-0.6561 -1.7877 0.7894
-0.5797 -1.8814 0.7637
-0.4768 -1.9187 0.7457
-0.4340 -1.9076 0.7433
-0.4047 -1.8159 0.7574
-0.1012 -2.7716 0.5457
-0.0651 -2.8352 0.5299
-0.0333 -2.8706 0.5199
-0.0043 -2.8941 0.5124
0.0205 -2.9269 0.5036
0.0329 -2.9354 0.5007
0.0556 -2.9546 0.4947
0.0695 -2.9491 0.4942
0.0807 -2.9546 0.4920
0.1059 -2.9508 0.4901
-1.0415 -3.2672 0.5329
-0.6317 -1.8665 0.7269
-0.5706 -1.9091 0.7140
-0.5321 -1.8712 0.7166
-0.4778 -1.9038 0.7060
-0.4280 -1.9266 0.6975
-0.0625 -2.8212 0.5136
-0.0311 -2.8686 0.5027
-0.0027 -2.8993 0.4949
0.0106 -2.9109 0.4917
0.0239 -2.9189 0.4891
0.0351 -2.9351 0.4853
0.0588 -2.9501 0.4806
0.0734 -2.9418 0.4806
-1.0471 -3.2684 0.5138
-0.6830 -1.8616 0.6864
-0.6164 -1.9142 0.6731
-0.5684 -1.9112 0.6695
-0.5276 -1.8819 0.6703
-0.4753 -1.9055 0.6624
-0.4032 -1.7905 0.6729
-0.0605 -2.8233 0.4943
-0.0444 -2.8514 0.4889
-0.0287 -2.8653 0.4855
-0.0140 -2.8809 0.4820
0.0003 -2.8919 0.4792
0.0137 -2.9045 0.4762
0.0265 -2.9162 0.4735
0.0376 -2.9336 0.4700
0.0600 -2.9550 0.4650
-1.0388 -3.2760 0.4924
-0.6875 -1.8440 0.6420
-0.6306 -1.8604 0.6358
-0.5833 -1.8481 0.6338
-0.5211 -1.9011 0.6227
-0.4727 -1.9073 0.6183
-0.4241 -1.9218 0.6129
-0.3787 -1.9271 0.6089
-0.0758 -2.7911 0.4804
-0.0581 -2.8170 0.4759
-0.0421 -2.8472 0.4710
-0.0262 -2.8609 0.4681
-0.0118 -2.8800 0.4647
0.0020 -2.8959 0.4617
0.0159 -2.9046 0.4596
0.0287 -2.9162 0.4572
0.0417 -2.9230 0.4555
0.0521 -2.9405 0.4525
0.0626 -2.9532 0.4502
0.2277 -2.5381 0.4888
0.2476 -2.5333 0.4880
-1.0192 -3.2887 0.4702
-0.9155 -1.6862 0.6245
-0.7637 -1.7755 0.6059
-0.6953 -1.8155 0.5975
-0.6286 -1.8622 0.5886
-0.5912 -1.8110 0.5914
-0.5318 -1.8471 0.5840
-0.4814 -1.8545 0.5800
-0.4229 -1.9147 0.5703
-0.3812 -1.8944 0.5696
-0.2783 -2.0322 0.5493
-0.2269 -2.1737 0.5318
-0.0734 -2.7815 0.4610
-0.0557 -2.8119 0.4569
-0.0391 -2.8345 0.4535
-0.0241 -2.8615 0.4499
-0.0094 -2.8780 0.4473
0.0046 -2.8924 0.4449
0.0181 -2.9048 0.4428
0.0309 -2.9162 0.4409
0.0442 -2.9216 0.4395
0.0552 -2.9364 0.4373
0.0661 -2.9476 0.4355
0.0785 -2.9498 0.4345
0.2279 -2.4808 0.4721
0.2480 -2.4792 0.4710
0.2728 -2.4613 0.4712
-1.0248 -3.2899 0.4509
-1.0481 -3.2613 0.4543
-0.7777 -1.7322 0.5591
-0.6972 -1.8057 0.5492
-0.6295 -1.8538 0.5419
-0.5840 -1.8317 0.5412
-0.5407 -1.8002 0.5414
-0.4848 -1.8270 0.5363
-0.4367 -1.8248 0.5340
-0.3837 -1.8601 0.5285
-0.2752 -2.0338 0.5092
-0.0711 -2.7757 0.4408
-0.0366 -2.8305 0.4347
-0.0214 -2.8560 0.4319
-0.0060 -2.8673 0.4302
0.0073 -2.8890 0.4278
0.0207 -2.9024 0.4261
0.0330 -2.9176 0.4242
0.0460 -2.9241 0.4230
0.0580 -2.9336 0.4217
0.0682 -2.9486 0.4200
0.0812 -2.9481 0.4193
0.2465 -2.4258 0.4513
-0.8676 -1.8035 0.5062
-0.7687 -1.7556 0.5048
-0.6855 -1.8387 0.4968
-0.6247 -1.8651 0.4928
-0.5816 -1.8337 0.4927
-0.5291 -1.8409 0.4901
-0.4882 -1.7989 0.4908
-0.4303 -1.8454 0.4858
-0.3751 -1.8979 0.4806
-0.3129 -2.0320 0.4707
-0.0507 -2.7997 0.4176
-0.0340 -2.8254 0.4155
-0.0192 -2.8567 0.4132
-0.0039 -2.8691 0.4119
0.0085 -2.8968 0.4098
0.0239 -2.8964 0.4092
0.0363 -2.9113 0.4079
0.0601 -2.9347 0.4056
0.0717 -2.9431 0.4047
0.3449 -2.0788 0.4408
0.3455 -2.1682 0.4359
0.3809 -2.1324 0.4364
-1.0243 -3.2800 0.4113
-0.7673 -1.7569 0.4519
-0.6873 -1.8292 0.4472
-0.6144 -1.8958 0.4429
-0.5646 -1.8924 0.4415
-0.5244 -1.8521 0.4416
-0.4755 -1.8492 0.4402
-0.4258 -1.8563 0.4385
-0.3079 -2.0492 0.4288
-0.0485 -2.8009 0.3970
-0.0315 -2.8228 0.3958
-0.0156 -2.8417 0.3947
-0.0003 -2.8574 0.3938
0.0134 -2.8774 0.3927
0.0630 -2.9320 0.3895
0.0733 -2.9467 0.3887
0.0830 -2.9606 0.3880
0.3658 -2.1161 0.4063
0.4203 -2.0213 0.4076
-1.0272 -3.2826 0.3908
-0.7510 -1.8018 0.3979
-0.6789 -1.8520 0.3961
-0.6045 -1.9251 0.3941
-0.5481 -1.9495 0.3928
-0.5068 -1.9192 0.3923
-0.4542 -1.9420 0.3911
-0.4099 -1.9308 0.3904
-0.3318 -2.1471 0.3871
-0.0452 -2.7832 0.3764
-0.0294 -2.8250 0.3758
-0.0128 -2.8365 0.3754
0.0638 -2.9397 0.3731
0.0751 -2.9491 0.3728
0.0851 -2.9615 0.3725
-0.8193 -1.7719 0.3451
-0.7458 -1.8140 0.3452
-0.6740 -1.8636 0.3454
-0.5947 -1.9543 0.3463
-0.5483 -1.9420 0.3457
-0.4961 -1.9568 0.3456
-0.4550 -1.9265 0.3448
-0.4072 -1.9319 0.3446
-0.2981 -2.0824 0.3461
-0.2898 -1.7652 0.3411
-0.0272 -2.8261 0.3556
-0.0107 -2.8398 0.3557
0.0045 -2.8564 0.3559
0.0657 -2.9422 0.3567
0.0776 -2.9489 0.3568
0.0879 -2.9599 0.3569
0.3752 -2.1202 0.3418
-1.6130 -0.4821 0.2355
-0.8179 -1.7739 0.2901
-0.7264 -1.8679 0.2942
-0.6632 -1.8940 0.2955
-0.6057 -1.9104 0.2964
-0.5460 -1.9439 0.2980
-0.4956 -1.9501 0.2985
-0.4418 -1.9807 0.3000
-0.4042 -1.9341 0.2983
-0.3454 -2.0214 0.3020
-0.2942 -2.0918 0.3050
-0.2596 -2.0365 0.3030
-0.2336 -1.8423 0.2954
-0.0789 -2.7217 0.3309
-0.0598 -2.7772 0.3332
-0.0412 -2.7942 0.3339
-0.0251 -2.8296 0.3354
-0.0088 -2.8443 0.3360
0.0056 -2.8669 0.3370
0.0202 -2.8791 0.3376
0.0803 -2.9475 0.3405
0.6708 -1.0098 0.2664
0.7125 -1.0179 0.2669
-1.6038 -0.5041 0.1403
-0.7283 -1.8595 0.2413
-0.6522 -1.9252 0.2468
-0.5905 -1.9584 0.2499
-0.5324 -1.9900 0.2528
-0.4910 -1.9609 0.2517
-0.4441 -1.9573 0.2522
-0.3895 -2.0040 0.2561
-0.3283 -2.1198 0.2645
-0.2936 -2.0725 0.2620
-0.2556 -2.0462 0.2609
-0.2171 -2.0208 0.2599
-0.0768 -2.7328 0.3078
-0.0403 -2.8177 0.3138
-0.0070 -2.8501 0.3165
0.0082 -2.8652 0.3177
0.0220 -2.8833 0.3191
0.0828 -2.9474 0.3241
0.0969 -2.9440 0.3242
0.5053 -1.8282 0.2594
-1.5946 -0.5260 0.0452
-1.5063 -0.4832 0.0438
-1.2957 -0.7427 0.0728
-0.6358 -1.7922 0.1847
-0.5895 -1.7574 0.1829
-0.5028 -1.8990 0.1979
-0.3772 -2.0609 0.2158
-0.3337 -2.0644 0.2174
-0.2949 -2.0377 0.2161
-0.1743 -2.0027 0.2164
-0.0571 -2.8204 0.2923
-0.0390 -2.8329 0.2939
-0.0213 -2.8401 0.2951
-0.0047 -2.8511 0.2965
0.0238 -2.8876 0.3006
0.0971 -2.9528 0.3084
0.4714 -1.8609 0.2220
-1.9621 -1.0243 -0.0110
-1.6323 -0.4484 -0.0632
-1.4971 -0.5051 -0.0513
-1.4502 -0.3601 -0.0659
-1.2609 -0.5797 -0.0333
-1.1464 -0.6286 -0.0231
-0.6953 -1.5743 0.1029
-0.6015 -1.7013 0.1211
-0.4840 -1.9734 0.1569
-0.4270 -2.0203 0.1645
-0.3782 -2.0400 0.1687
-0.2878 -1.6258 0.1252
-0.2401 -1.5771 0.1216
0.0878 -2.9473 0.2909
0.1013 -2.9463 0.2913
-1.0267 -3.2881 0.2625
-1.7484 -0.4469 -0.1714
-0.5530 -1.8863 0.0922
-0.4874 -1.9484 0.1043
-0.3363 -2.0066 0.1204
-0.3418 -1.5773 0.0603
-0.2964 -1.4857 0.0500
-0.0686 -2.7008 0.2313
-0.0479 -2.7283 0.2362
0.1049 -2.9425 0.2741
0.1191 -2.9389 0.2744
-1.0199 -3.2952 0.2418
-1.8464 -1.2057 -0.1572
-1.8311 -1.0743 -0.1779
-1.8833 -0.8221 -0.2230
-1.7968 -0.7801 -0.2242
-1.6631 -0.8250 -0.2081
-1.6390 -0.6663 -0.2327
-1.4817 -0.7721 -0.2050
-1.3391 -0.8675 -0.1799
-1.2490 -0.8556 -0.1760
-0.9403 -1.4365 -0.0599
-0.8414 -1.5158 -0.0404
-0.7005 -1.7525 0.0079
-0.5948 -1.9206 0.0425
-0.5295 -1.9723 0.0553
-0.4808 -1.9684 0.0579
-0.4347 -1.9559 0.0588
-0.3915 -1.5894 0.0011
-0.3485 -1.4841 -0.0135
-0.3008 -1.3853 -0.0267
-0.2531 -1.2305 -0.0491
-0.1923 -1.2515 -0.0417
-0.1344 -1.2409 -0.0396
-0.0116 -2.8138 0.2281
0.0037 -2.8414 0.2337
0.0194 -2.8547 0.2369
0.0348 -2.8648 0.2395
0.0487 -2.8789 0.2428
0.0633 -2.8849 0.2447
0.0752 -2.9011 0.2482
0.0821 -2.9351 0.2542
0.1065 -2.9463 0.2577
0.1195 -2.9465 0.2586
-1.7424 -1.6175 -0.1579
-1.7260 -1.5169 -0.1759
-1.6825 -1.4468 -0.1859
-1.6122 -1.4127 -0.1869
-1.5300 -1.3978 -0.1834
-1.4389 -1.4005 -0.1757
-1.3905 -1.3302 -0.1854
-1.1572 -1.4611 -0.1422
-1.0506 -1.5271 -0.1213
-0.9893 -1.4973 -0.1222
-0.9280 -1.4676 -0.1231
-0.6486 -1.9160 -0.0155
-0.5744 -1.9879 0.0040
-0.5226 -1.9922 0.0089
-0.4683 -2.0149 0.0174
-0.4266 -1.9848 0.0149
-0.4206 -1.7346 -0.0325
-0.4147 -1.3940 -0.0971
-0.3741 -1.2174 -0.1277
-0.3507 -0.7507 -0.2152
-0.2793 -0.7160 -0.2163
-0.1863 -1.2658 -0.1039
-0.1267 -1.3926 -0.0749
-0.0720 -1.3062 -0.0872
-0.0122 -1.1487 -0.1127
0.0077 -2.8288 0.2102
0.0240 -2.8405 0.2137
0.0644 -2.8928 0.2269
0.0753 -2.9126 0.2315
0.0881 -2.9206 0.2341
0.0982 -2.9363 0.2379
0.1101 -2.9425 0.2400
0.1237 -2.9414 0.2408
0.1401 -2.9302 0.2400
-1.0236 -3.2828 0.1935
-1.6685 -1.8267 -0.1822
-1.6513 -1.7405 -0.1994
-1.5990 -1.6945 -0.2046
-1.5241 -1.6788 -0.2013
-1.4605 -1.6479 -0.2022
-1.3969 -1.6171 -0.2032
-1.3427 -1.5702 -0.2084
-1.2698 -1.5554 -0.2050
-1.1823 -1.5714 -0.1936
-1.0386 -1.7137 -0.1496
-1.0243 -1.5878 -0.1757
-0.9829 -1.5126 -0.1883
-0.8933 -1.5589 -0.1701
-0.6407 -1.9373 -0.0647
-0.5774 -1.9715 -0.0515
-0.5268 -1.9675 -0.0478
-0.4753 -1.9728 -0.0420
-0.4431 -1.5764 -0.1254
-0.3988 -1.4813 -0.1421
-0.2325 -1.4007 -0.1445
-0.1776 -1.3589 -0.1486
-0.1218 -1.3318 -0.1495
-0.0666 -1.3505 -0.1404
-0.0108 -1.2931 -0.1478
0.0903 -2.9221 0.2162
0.1011 -2.9353 0.2200
0.1117 -2.9464 0.2234
0.1256 -2.9439 0.2241
0.1398 -2.9403 0.2246
0.1571 -2.9265 0.2232
-1.5385 -2.0808 -0.1775
-1.4074 -1.9571 -0.1942
-1.3275 -1.9634 -0.1843
-1.2800 -1.9253 -0.1887
-1.2544 -1.8506 -0.2043
-1.1759 -1.8598 -0.1939
-1.1137 -1.8447 -0.1912
-1.0341 -1.8652 -0.1779
-1.0086 -1.7787 -0.1964
-0.9314 -1.8003 -0.1831
-0.8625 -1.8099 -0.1736
-0.8365 -1.7102 -0.1953
-0.7320 -1.8282 -0.1555
-0.6329 -1.9585 -0.1134
-0.5828 -1.9460 -0.1112
-0.5289 -1.9510 -0.1044
-0.5262 -1.7284 -0.1586
-0.4816 -1.6670 -0.1690
-0.4333 -1.6157 -0.1765
-0.3803 -1.5899 -0.1773
-0.3345 -1.4968 -0.1953
-0.2809 -1.4558 -0.1998
-0.2203 -1.5263 -0.1763
-0.1708 -1.4024 -0.2014
-0.1150 -1.4613 -0.1812
-0.0617 -1.4214 -0.1854
-0.0094 -1.4240 -0.1794
0.0468 -1.3409 -0.1939
0.0996 -1.3292 -0.1913
0.1488 -1.3473 -0.1817
0.1298 -2.9390 0.2058
0.1441 -2.9353 0.2063
0.1599 -2.9265 0.2059
-1.0459 -3.2611 0.1378
-1.4586 -2.2579 -0.1834
-1.4471 -2.1905 -0.2004
-1.4116 -2.1466 -0.2081
-1.3442 -2.1406 -0.2019
-1.2786 -2.1344 -0.1959
-1.2278 -2.1097 -0.1967
-1.1968 -2.0552 -0.2078
-1.1322 -2.0505 -0.2016
-1.0640 -2.0548 -0.1924
-0.9486 -2.0351 -0.1843
-0.8992 -2.0111 -0.1850
-0.8455 -1.9968 -0.1826
-0.8087 -1.9427 -0.1930
-0.7623 -1.9085 -0.1969
-0.7015 -1.9153 -0.1879
-0.6396 -1.9322 -0.1761
-0.5602 -2.0217 -0.1424
-0.5358 -1.9148 -0.1686
-0.4883 -1.8918 -0.1693
-0.4525 -1.8062 -0.1884
-0.3087 -1.7002 -0.2004
-0.2587 -1.6759 -0.2011
-0.2068 -1.6870 -0.1920
-0.1580 -1.6516 -0.1960
-0.1088 -1.5915 -0.2066
-0.0583 -1.5542 -0.2108
-0.0067 -1.5046 -0.2182
0.0471 -1.4391 -0.2297
0.0935 -1.4806 -0.2130
0.1413 -1.4819 -0.2071
0.1863 -1.4963 -0.1979
0.1174 -2.6765 0.1150
0.1549 -2.9101 0.1830
0.1717 -2.8998 0.1821
-1.4443 -2.4227 -0.1904
-1.3638 -2.4345 -0.1764
-1.3250 -2.4062 -0.1798
-1.2678 -2.3975 -0.1750
-1.2230 -2.3758 -0.1756
-1.1892 -2.3403 -0.1818
-1.1439 -2.3183 -0.1825
-1.1093 -2.2814 -0.1891
-1.0534 -2.2744 -0.1839
-1.0229 -2.2289 -0.1935
-0.9629 -2.2305 -0.1852
-0.9135 -2.2161 -0.1831
-0.8645 -2.2019 -0.1809
-0.8271 -2.1646 -0.1872
-0.7715 -2.1663 -0.1795
-0.7301 -2.1367 -0.1829
-0.6946 -2.0898 -0.1923
-0.6460 -2.0768 -0.1899
-0.5982 -2.0632 -0.1877
-0.5532 -2.0413 -0.1884
-0.5061 -2.0280 -0.1862
-0.4631 -1.9976 -0.1897
-0.4231 -1.9486 -0.1992
-0.3744 -1.9451 -0.1939
-0.3280 -1.9321 -0.1917
-0.2839 -1.9012 -0.1953
-0.2372 -1.8976 -0.1902
-0.1944 -1.8376 -0.2026
-0.1489 -1.8050 -0.2065
-0.1030 -1.7615 -0.2135
-0.0565 -1.7390 -0.2142
-0.0114 -1.7489 -0.2053
0.0323 -1.7573 -0.1971
0.0773 -1.7355 -0.1977
0.1235 -1.7036 -0.2013
0.1674 -1.6918 -0.1991
0.1056 -2.6518 0.0805
0.1242 -2.6607 0.0856
0.2703 -2.1132 -0.0594
0.3055 -2.0908 -0.0615
0.1755 -2.8975 0.1632
0.1926 -2.8871 0.1623
-1.3390 -2.5885 -0.1753
-1.3035 -2.5628 -0.1786
-1.2204 -2.5225 -0.1798
-1.1841 -2.4965 -0.1831
-1.1255 -2.4249 -0.1981
-1.0728 -2.4172 -0.1930
-1.0304 -2.3967 -0.1937
-0.9795 -2.3888 -0.1889
-0.9456 -2.3556 -0.1949
-0.7982 -2.3335 -0.1809
-0.7570 -2.3135 -0.1815
-0.7185 -2.2875 -0.1845
-0.6771 -2.2674 -0.1851
-0.5993 -2.2128 -0.1918
-0.5597 -2.1852 -0.1951
-0.5261 -2.1342 -0.2070
-0.4815 -2.1210 -0.2049
-0.4389 -2.1003 -0.2055
-0.3963 -2.0797 -0.2061
-0.3561 -2.0433 -0.2123
-0.3153 -2.0057 -0.2187
-0.2727 -1.9756 -0.2224
-0.2284 -1.9635 -0.2200
-0.1859 -1.9240 -0.2268
-0.1408 -1.9473 -0.2127
-0.0560 -1.9409 -0.2026
-0.0133 -1.9033 -0.2087
0.0298 -1.8730 -0.2125
0.1119 -1.8595 -0.2051
0.1073 -2.6609 0.0569
0.1265 -2.6663 0.0615
-1.2751 -2.7045 -0.1728
-1.2370 -2.6860 -0.1734
-1.2033 -2.6634 -0.1761
-1.1608 -2.6491 -0.1745
-1.0885 -2.6078 -0.1778
-1.0465 -2.5936 -0.1762
-1.0120 -2.5707 -0.1789
-0.9860 -2.5361 -0.1871
-0.9433 -2.5227 -0.1852
-0.9121 -2.4929 -0.1908
-0.8661 -2.4852 -0.1863
-0.8275 -2.4665 -0.1869
-0.7920 -2.4420 -0.1900
-0.7442 -2.4408 -0.1829
-0.7036 -2.4273 -0.1813
-0.6677 -2.4036 -0.1840
-0.6274 -2.3903 -0.1824
-0.5981 -2.3479 -0.1929
-0.5530 -2.3480 -0.1857
-0.5166 -2.3231 -0.1889
-0.4800 -2.2980 -0.1920
-0.4398 -2.2858 -0.1900
-0.3999 -2.2738 -0.1880
-0.3654 -2.2351 -0.1963
-0.3297 -2.1959 -0.2047
-0.2894 -2.1846 -0.2023
-0.2518 -2.1507 -0.2084
-0.2112 -2.1467 -0.2034
-0.1731 -2.1053 -0.2122
-0.1336 -2.0788 -0.2154
-0.0938 -2.0595 -0.2160
-0.0545 -2.0624 -0.2087
-0.0156 -2.0518 -0.2063
0.1115 -2.6573 0.0294
0.1324 -2.6555 0.0321
0.4081 -1.8672 -0.2052
0.4210 -1.9361 -0.1786
0.3909 -2.2169 -0.0833
0.4178 -2.2123 -0.0808
-1.2384 -2.7893 -0.1793
-1.2259 -2.7522 -0.1914
-1.1757 -2.7465 -0.1850
-1.1395 -2.7289 -0.1855
-1.0949 -2.7197 -0.1814
-1.0388 -2.6676 -0.1918
-0.8829 -2.6107 -0.1869
-0.8501 -2.5885 -0.1898
-0.7834 -2.5438 -0.1956
-0.7469 -2.5261 -0.1961
-0.6262 -2.4986 -0.1859
-0.5947 -2.4709 -0.1912
-0.5606 -2.4481 -0.1941
-0.5226 -2.4359 -0.1923
-0.4817 -2.4347 -0.1857
-0.4476 -2.4120 -0.1886
-0.4159 -2.3779 -0.1962
-0.3785 -2.3660 -0.1944
-0.3425 -2.3486 -0.1949
-0.3073 -2.3253 -0.1978
-0.2741 -2.2843 -0.2079
-0.2367 -2.2724 -0.2061
0.0284 -2.6548 -0.0132
0.0496 -2.6642 -0.0060
0.0693 -2.6774 0.0025
0.0889 -2.6855 0.0090
0.1088 -2.6883 0.0135
0.1289 -2.6879 0.0168
0.4295 -1.9295 -0.2235
-1.1894 -2.8771 -0.1768
-1.1809 -2.8411 -0.1902
-1.1265 -2.8415 -0.1799
-1.0809 -2.8358 -0.1738
-1.0631 -2.8056 -0.1830
-1.0406 -2.7782 -0.1901
-0.9991 -2.7694 -0.1861
-0.9621 -2.7566 -0.1845
-0.9122 -2.7591 -0.1741
-0.8918 -2.7276 -0.1834
-0.8612 -2.7076 -0.1860
-0.8193 -2.7027 -0.1802
-0.7965 -2.6711 -0.1891
-0.7577 -2.6626 -0.1854
-0.7242 -2.6463 -0.1859
-0.6835 -2.6431 -0.1796
-0.6593 -2.6097 -0.1890
-0.6196 -2.6059 -0.1831
-0.5882 -2.5855 -0.1857
-0.5583 -2.5607 -0.1905
-0.5263 -2.5400 -0.1931
-0.4910 -2.5281 -0.1914
-0.4546 -2.5207 -0.1877
-0.4200 -2.5091 -0.1861
-0.3878 -2.4883 -0.1887
-0.3574 -2.4581 -0.1956
-0.3227 -2.4465 -0.1939
-0.2937 -2.3995 -0.2080
-0.2327 -2.5993 -0.1138
-0.1985 -2.6414 -0.0900
-0.1699 -2.6450 -0.0832
-0.1427 -2.6390 -0.0806
-0.1157 -2.6362 -0.0768
-0.0893 -2.6326 -0.0733
-0.0392 -2.6526 -0.0557
-0.0167 -2.6756 -0.0420
0.0070 -2.6703 -0.0398
0.0299 -2.6695 -0.0359
0.0695 -2.6966 -0.0173
0.0875 -2.7115 -0.0077
0.1097 -2.7007 -0.0081
0.1289 -2.7038 -0.0032
0.1491 -2.7002 -0.0010
0.1777 -2.6637 -0.0108
0.4735 -2.0870 -0.1946
-1.1581 -2.9823 -0.1643
-1.1657 -2.9400 -0.1846
-1.1339 -2.9246 -0.1851
-1.0664 -2.8969 -0.1838
-1.0348 -2.8816 -0.1843
-0.9966 -2.8722 -0.1807
-0.9616 -2.8604 -0.1790
-0.9458 -2.8292 -0.1897
-0.9080 -2.8201 -0.1861
-0.8882 -2.7911 -0.1950
-0.8531 -2.7791 -0.1933
-0.8182 -2.7673 -0.1915
-0.7205 -2.7240 -0.1912
-0.6524 -2.7012 -0.1876
-0.6230 -2.6818 -0.1903
-0.5893 -2.6706 -0.1886
-0.5279 -2.6357 -0.1918
-0.4918 -2.6325 -0.1859
-0.4329 -2.5896 -0.1932
-0.4000 -2.5788 -0.1914
-0.3684 -2.5635 -0.1918
-0.3369 -2.5482 -0.1923
-0.3070 -2.5235 -0.1973
-0.2738 -2.5176 -0.1933
-0.2284 -2.6171 -0.1399
-0.2005 -2.5964 -0.1435
-0.1774 -2.4974 -0.1829
-0.1462 -2.4914 -0.1793
-0.1156 -2.4674 -0.1838
-0.0847 -2.4524 -0.1843
-0.0545 -2.4561 -0.1765
-0.0267 -2.4876 -0.1570
0.0667 -2.7334 -0.0291
0.0864 -2.7350 -0.0244
0.1114 -2.7097 -0.0307
0.1312 -2.7093 -0.0269
0.1470 -2.7230 -0.0176
0.1684 -2.7126 -0.0179
0.1963 -2.6797 -0.0269
0.2291 -2.6332 -0.0410
0.2630 -2.5871 -0.0547
-1.1308 -3.0400 -0.1684
-1.1401 -2.9999 -0.1894
-1.0997 -2.9925 -0.1842
-1.0697 -2.9780 -0.1847
-1.0294 -2.9716 -0.1790
-1.0099 -2.9489 -0.1856
-0.9889 -2.9266 -0.1916
-0.9558 -2.9146 -0.1902
-0.9228 -2.9027 -0.1888
-0.8814 -2.8998 -0.1812
-0.8473 -2.8904 -0.1783
-0.8247 -2.8682 -0.1840
-0.8027 -2.8444 -0.1905
-0.7630 -2.8424 -0.1830
-0.7383 -2.8213 -0.1876
-0.7017 -2.8167 -0.1819
-0.6786 -2.7923 -0.1885
-0.6413 -2.7904 -0.1814
-0.6168 -2.7674 -0.1870
-0.5825 -2.7619 -0.1823
-0.5593 -2.7344 -0.1903
-0.5310 -2.7166 -0.1926
-0.4979 -2.7098 -0.1888
-0.4648 -2.7048 -0.1840
-0.4362 -2.6879 -0.1859
-0.4112 -2.6586 -0.1944
-0.3772 -2.6593 -0.1867
-0.3486 -2.6413 -0.1891
-0.3176 -2.6334 -0.1862
-0.2922 -2.5968 -0.1981
-0.2588 -2.6049 -0.1871
-0.2254 -2.6242 -0.1707
-0.1962 -2.6171 -0.1678
-0.1703 -2.5660 -0.1864
-0.1415 -2.5369 -0.1941
-0.1119 -2.5134 -0.1988
-0.0819 -2.4948 -0.2012
-0.0520 -2.4843 -0.1997
-0.0219 -2.4656 -0.2021
0.0092 -2.4384 -0.2083
0.0382 -2.4365 -0.2030
0.0629 -2.7743 -0.0375
0.0883 -2.7427 -0.0470
0.1175 -2.6971 -0.0623
0.1372 -2.6987 -0.0573
0.1682 -2.7273 -0.0371
0.1832 -2.7382 -0.0287
0.2047 -2.7258 -0.0300
0.3304 -2.5198 -0.1006
-1.1191 -3.0843 -0.1791
-1.1107 -3.0581 -0.1904
-1.0821 -3.0442 -0.1908
-1.0500 -3.0327 -0.1892
-1.0158 -3.0231 -0.1862
-0.9560 -2.9982 -0.1850
-0.9307 -2.9819 -0.1875
-0.8944 -2.9753 -0.1824
-0.8663 -2.9617 -0.1828
-0.8356 -2.9508 -0.1812
-0.8005 -2.9449 -0.1762
-0.7821 -2.9208 -0.1841
-0.7581 -2.9022 -0.1880
-0.7338 -2.8834 -0.1919
-0.7038 -2.8718 -0.1908
-0.6485 -2.8420 -0.1932
-0.6168 -2.8337 -0.1901
-0.5789 -2.8374 -0.1795
-0.5586 -2.8095 -0.1889
-0.5348 -2.7868 -0.1948
-0.5023 -2.7821 -0.1897
-0.4731 -2.7710 -0.1886
-0.4438 -2.7608 -0.1870
-0.4201 -2.7342 -0.1950
-0.3918 -2.7205 -0.1954
-0.3660 -2.6969 -0.2014
-0.3334 -2.7002 -0.1922
-0.2777 -2.6692 -0.1951
-0.2479 -2.6658 -0.1899
-0.2204 -2.6484 -0.1924
-0.1919 -2.6386 -0.1908
-0.1640 -2.6251 -0.1912
-0.1364 -2.6006 -0.1972
-0.1081 -2.5869 -0.1976
-0.0799 -2.5772 -0.1960
-0.0511 -2.5482 -0.2040
-0.0226 -2.5344 -0.2045
0.0063 -2.5163 -0.2069
0.0340 -2.5109 -0.2033
0.0402 -2.8138 -0.0489
0.0655 -2.7774 -0.0615
0.0925 -2.7381 -0.0751
0.1235 -2.6858 -0.0943
0.1475 -2.6702 -0.0967
0.1874 -2.7363 -0.0541
0.2010 -2.7499 -0.0442
0.4171 -2.3573 -0.1927
-1.0895 -3.1363 -0.1787
-1.0748 -3.1162 -0.1859
-1.0505 -3.1014 -0.1878
-1.0175 -3.0924 -0.1846
-0.9965 -3.0752 -0.1886
-0.9670 -3.0639 -0.1875
-0.9401 -3.0508 -0.1879
-0.9032 -3.0459 -0.1815
-0.8810 -3.0292 -0.1850
-0.8521 -3.0181 -0.1838
-0.8295 -3.0012 -0.1874
-0.8007 -2.9902 -0.1862
-0.7739 -2.9772 -0.1866
-0.7453 -2.9664 -0.1854
-0.7169 -2.9555 -0.1842
-0.6846 -2.9499 -0.1793
-0.6652 -2.9275 -0.1866
-0.6319 -2.9243 -0.1801
-0.6148 -2.8970 -0.1906
-0.5819 -2.8941 -0.1841
-0.5572 -2.8781 -0.1866
-0.5330 -2.8604 -0.1902
-0.5089 -2.8417 -0.1943
-0.4759 -2.8426 -0.1856
-0.4483 -2.8323 -0.1845
-0.4241 -2.8135 -0.1886
-0.4012 -2.7894 -0.1959
-0.3724 -2.7825 -0.1925
-0.3442 -2.7748 -0.1897
-0.3176 -2.7619 -0.1901
-0.2926 -2.7408 -0.1953
-0.2648 -2.7333 -0.1925
-0.2381 -2.7204 -0.1929
-0.2115 -2.7074 -0.1933
-0.1845 -2.6973 -0.1921
-0.1584 -2.6757 -0.1973
-0.1316 -2.6627 -0.1977
-0.1048 -2.6427 -0.2019
-0.0776 -2.6195 -0.2076
-0.0512 -2.6267 -0.1973
-0.0239 -2.6065 -0.2014
0.0021 -2.6038 -0.1965
0.0284 -2.5940 -0.1953
0.0693 -2.7739 -0.0888
0.1061 -2.6872 -0.1263
0.1862 -2.5245 -0.1938
0.2174 -2.4934 -0.2029
0.2038 -2.7526 -0.0672
0.2249 -2.7894 -0.0424
-1.0679 -3.1804 -0.1812
-1.0509 -3.1632 -0.1866
-1.0253 -3.1508 -0.1869
-0.9890 -3.1450 -0.1807
-0.9636 -3.1327 -0.1811
-0.9433 -3.1169 -0.1848
-0.9202 -3.1028 -0.1868
-0.8946 -3.0904 -0.1872
-0.8691 -3.0780 -0.1876
-0.8435 -3.0656 -0.1879
-0.7882 -3.0447 -0.1854
-0.7156 -3.0035 -0.1898
-0.6611 -2.9830 -0.1873
-0.6356 -2.9707 -0.1876
-0.6148 -2.9517 -0.1930
-0.5862 -2.9438 -0.1901
-0.5552 -2.9406 -0.1838
-0.5300 -2.9284 -0.1841
-0.5073 -2.9114 -0.1879
-0.4742 -2.9152 -0.1771
-0.4587 -2.8819 -0.1920
-0.4322 -2.8720 -0.1907
-0.4077 -2.8572 -0.1927
-0.3822 -2.8448 -0.1931
-0.3552 -2.8376 -0.1901
-0.3284 -2.8306 -0.1871
-0.3057 -2.8077 -0.1942
-0.2796 -2.7980 -0.1929
-0.2552 -2.7802 -0.1967
-0.2292 -2.7706 -0.1954
-0.2040 -2.7554 -0.1974
-0.1782 -2.7458 -0.1961
-0.1528 -2.7306 -0.1982
-0.1273 -2.7152 -0.2002
-0.1017 -2.7087 -0.1972
-0.0758 -2.6813 -0.2061
-0.0497 -2.6627 -0.2098
0.0195 -2.8650 -0.0770
0.0945 -2.6532 -0.1776
0.1259 -2.6073 -0.1955
0.1526 -2.5883 -0.1993
0.2026 -2.5671 -0.1984
0.2289 -2.5513 -0.2004
0.2316 -2.7810 -0.0694
0.2439 -2.7909 -0.0606
0.2582 -2.7938 -0.0552
-1.0522 -3.2423 -0.1717
-1.0541 -3.2177 -0.1870
-1.0296 -3.2058 -0.1874
-1.0023 -3.1955 -0.1860
-0.9806 -3.1820 -0.1881
-0.9517 -3.1729 -0.1856
-0.9290 -3.1600 -0.1871
-0.9029 -3.1493 -0.1863
-0.8786 -3.1375 -0.1867
-0.8558 -3.1244 -0.1882
-0.8314 -3.1126 -0.1885
-0.7996 -3.1070 -0.1831
-0.7697 -3.1004 -0.1788
-0.7568 -3.0784 -0.1885
-0.7271 -3.0718 -0.1842
-0.7029 -3.0601 -0.1845
-0.6867 -3.0395 -0.1924
-0.6511 -3.0409 -0.1818
-0.6349 -3.0193 -0.1903
-0.6063 -3.0132 -0.1860
-0.5831 -3.0001 -0.1875
-0.5604 -2.9861 -0.1896
-0.5361 -2.9743 -0.1900
-0.5153 -2.9563 -0.1950
-0.4855 -2.9546 -0.1878
-0.4613 -2.9429 -0.1881
-0.4400 -2.9247 -0.1931
-0.4103 -2.9261 -0.1842
-0.3913 -2.9011 -0.1939
-0.3661 -2.8918 -0.1925
-0.3425 -2.8774 -0.1946
-0.3163 -2.8726 -0.1903
-0.2926 -2.8591 -0.1918
-0.2675 -2.8519 -0.1892
-0.2446 -2.8329 -0.1943
-0.2217 -2.8110 -0.2011
-0.1952 -2.8168 -0.1903
-0.1714 -2.8023 -0.1924
-0.1480 -2.7752 -0.2022
-0.1234 -2.7662 -0.2008
-0.0989 -2.7593 -0.1982
-0.0746 -2.7504 -0.1968
-0.0502 -2.7356 -0.1989
-0.0007 -2.8985 -0.0876
0.0964 -2.6626 -0.2023
0.1208 -2.6507 -0.2026
0.1460 -2.6356 -0.2048
0.1705 -2.6237 -0.2051
0.1935 -2.6174 -0.2025
0.2143 -2.6182 -0.1964
0.2673 -2.5797 -0.2048
0.2459 -2.7956 -0.0812
-1.0372 -3.2764 -0.1760
-1.0315 -3.2570 -0.1866
-0.9799 -3.2368 -0.1842
-0.9567 -3.2256 -0.1846
-0.9353 -3.2132 -0.1861
-0.9164 -3.1992 -0.1895
-0.8869 -3.1917 -0.1856
-0.8653 -3.1793 -0.1872
-0.8364 -3.1721 -0.1833
-0.8172 -3.1579 -0.1866
-0.7977 -3.1436 -0.1900
-0.7488 -3.1228 -0.1889
-0.7187 -3.1179 -0.1832
-0.6976 -3.1048 -0.1853
-0.6726 -3.0956 -0.1839
-0.6544 -3.0789 -0.1891
-0.6312 -3.0677 -0.1894
-0.6035 -3.0620 -0.1849
-0.5857 -3.0437 -0.1913
-0.5614 -3.0338 -0.1904
-0.5357 -3.0263 -0.1877
-0.5126 -3.0151 -0.1881
-0.4959 -2.9923 -0.1976
-0.4692 -2.9872 -0.1930
-0.4470 -2.9735 -0.1952
-0.4201 -2.9702 -0.1894
-0.3976 -2.9573 -0.1910
-0.3769 -2.9395 -0.1963
-0.3555 -2.9222 -0.2009
-0.3301 -2.9168 -0.1969
-0.3068 -2.9054 -0.1973
-0.2814 -2.9029 -0.1915
-0.2574 -2.8961 -0.1888
-0.2344 -2.8850 -0.1891
-0.2120 -2.8692 -0.1925
-0.1884 -2.8627 -0.1898
-0.1663 -2.8402 -0.1975
-0.1427 -2.8337 -0.1948
-0.1195 -2.8224 -0.1951
-0.0964 -2.8083 -0.1973
-0.0728 -2.7871 -0.2038
-0.0204 -2.9354 -0.0948
0.0012 -2.9044 -0.1081
0.0659 -2.7325 -0.1979
0.0901 -2.7159 -0.2013
0.1152 -2.6959 -0.2066
0.1367 -2.6933 -0.2020
0.1586 -2.6875 -0.1992
0.1833 -2.6707 -0.2027
0.2033 -2.6707 -0.1968
0.2562 -2.6275 -0.2087
0.2745 -2.6313 -0.2010
0.3019 -2.6082 -0.2075
-1.0154 -3.3114 -0.1752
-1.0059 -3.2951 -0.1831
-0.9857 -3.2834 -0.1847
-0.9722 -3.2681 -0.1907
-0.9411 -3.2618 -0.1854
-0.9272 -3.2463 -0.1914
-0.9029 -3.2364 -0.1904
-0.8698 -3.2320 -0.1832
-0.8502 -3.2196 -0.1854
-0.8330 -3.2054 -0.1895
-0.8057 -3.1980 -0.1861
-0.7811 -3.1890 -0.1845
-0.7612 -3.1765 -0.1867
-0.7405 -3.1644 -0.1883
-0.7196 -3.1524 -0.1899
-0.6925 -3.1460 -0.1858
-0.6723 -3.1333 -0.1881
-0.6500 -3.1225 -0.1884
-0.6290 -3.1104 -0.1900
-0.6067 -3.0996 -0.1903
-0.5817 -3.0923 -0.1875
-0.5611 -3.0794 -0.1897
-0.5388 -3.0686 -0.1900
-0.5166 -3.0578 -0.1904
-0.4984 -3.0403 -0.1964
-0.4721 -3.0362 -0.1910
-0.4499 -3.0254 -0.1914
-0.4284 -3.0131 -0.1930
-0.4054 -3.0039 -0.1920
-0.3802 -3.0004 -0.1866
-0.3600 -2.9848 -0.1908
-0.3387 -2.9715 -0.1930
-0.3147 -2.9666 -0.1888
-0.2947 -2.9482 -0.1949
-0.2710 -2.9435 -0.1908
-0.2492 -2.9310 -0.1924
-0.2270 -2.9203 -0.1927
-0.2046 -2.9113 -0.1918
-0.1823 -2.9024 -0.1908
-0.1611 -2.8815 -0.1982
-0.1385 -2.8744 -0.1960
-0.1161 -2.8703 -0.1918
-0.0940 -2.8441 -0.2024
-0.0719 -2.8450 -0.1950
-0.0494 -2.8273 -0.1999
-0.0213 -2.9686 -0.0972
0.0397 -2.7860 -0.1999
0.0620 -2.7752 -0.2002
0.0828 -2.7719 -0.1960
0.1066 -2.7536 -0.2009
0.1299 -2.7384 -0.2038
0.1512 -2.7320 -0.2015
0.1728 -2.7234 -0.2006
0.1964 -2.7081 -0.2035
0.2180 -2.6995 -0.2025
0.2384 -2.6945 -0.1996
0.2634 -2.6756 -0.2045
0.2866 -2.6624 -0.2061
0.3090 -2.6515 -0.2065
-1.0015 -3.3410 -0.1783
-0.9888 -3.3271 -0.1838
-0.9267 -3.2951 -0.1861
-0.8839 -3.2743 -0.1867
-0.8589 -3.2660 -0.1844
-0.8464 -3.2503 -0.1913
-0.8291 -3.2372 -0.1949
-0.8032 -3.2294 -0.1919
-0.7753 -3.2235 -0.1870
-0.7555 -3.2120 -0.1886
-0.7356 -3.2004 -0.1903
-0.7097 -3.1937 -0.1866
-0.6927 -3.1796 -0.1909
-0.6698 -3.1705 -0.1899
-0.6510 -3.1575 -0.1928
-0.6270 -3.1497 -0.1905
-0.6020 -3.1434 -0.1869
-0.5842 -3.1290 -0.1912
-0.5628 -3.1186 -0.1915
-0.5372 -3.1138 -0.1865
-0.5150 -3.1050 -0.1855
-0.4939 -3.0947 -0.1858
-0.4745 -3.0815 -0.1887
-0.4532 -3.0712 -0.1891
-0.4304 -3.0640 -0.1867
-0.4122 -3.0475 -0.1924
-0.3909 -3.0371 -0.1927
-0.3715 -3.0219 -0.1970
-0.3482 -3.0164 -0.1933
-0.3274 -3.0044 -0.1950
-0.3060 -2.9940 -0.1953
-0.2828 -2.9904 -0.1902
-0.2612 -2.9819 -0.1892
-0.2393 -2.9751 -0.1869
-0.2177 -2.9685 -0.1845
-0.1984 -2.9457 -0.1942
-0.1775 -2.9317 -0.1972
-0.1560 -2.9232 -0.1961
-0.1344 -2.9166 -0.1938
-0.1132 -2.9082 -0.1928
-0.0920 -2.9017 -0.1904
-0.0709 -2.8934 -0.1894
-0.0538 -2.9514 -0.1433
0.0146 -2.8423 -0.1973
0.0375 -2.8216 -0.2044
0.0797 -2.8050 -0.2023
0.0998 -2.8010 -0.1986
0.1237 -2.7798 -0.2057
0.1656 -2.7634 -0.2036
0.1877 -2.7507 -0.2053
0.2063 -2.7493 -0.2002
0.2299 -2.7321 -0.2046
0.2522 -2.7194 -0.2062
0.2746 -2.7066 -0.2079
0.2952 -2.6985 -0.2069
-0.9917 -3.3673 -0.1830
-0.9734 -3.3565 -0.1847
-0.9613 -3.3430 -0.1904
-0.9364 -3.3348 -0.1880
-0.9097 -3.3276 -0.1842
-0.8990 -3.3128 -0.1914
-0.8687 -3.3077 -0.1848
-0.8557 -3.2937 -0.1906
-0.8223 -3.2909 -0.1813
-0.8160 -3.2726 -0.1926
-0.7919 -3.2647 -0.1902
-0.7745 -3.2525 -0.1932
-0.7474 -3.2469 -0.1880
-0.7222 -3.2404 -0.1842
-0.7018 -3.2305 -0.1845
-0.6814 -3.2206 -0.1848
-0.6652 -3.2071 -0.1892
-0.6433 -3.1983 -0.1882
-0.6228 -3.1884 -0.1885
-0.6061 -3.1746 -0.1929
-0.5842 -3.1659 -0.1918
-0.5625 -3.1572 -0.1908
-0.5376 -3.1528 -0.1855
-0.5183 -3.1415 -0.1872
-0.4979 -3.1316 -0.1875
-0.4803 -3.1174 -0.1920
-0.4598 -3.1074 -0.1923
-0.4392 -3.0974 -0.1926
-0.4203 -3.0844 -0.1957
-0.3974 -3.0791 -0.1918
-0.3755 -3.0723 -0.1893
-0.3558 -3.0608 -0.1910
-0.3353 -3.0509 -0.1913
-0.3159 -3.0376 -0.1944
-0.2954 -3.0277 -0.1947
-0.2735 -3.0228 -0.1908
-0.2535 -3.0112 -0.1925
-0.2316 -3.0091 -0.1866
-0.2115 -2.9984 -0.1876
-0.1913 -2.9886 -0.1879
-0.1721 -2.9679 -0.1965
-0.1517 -2.9561 -0.1982
-0.1310 -2.9498 -0.1958
-0.1103 -2.9493 -0.1891
-0.0901 -2.9424 -0.1873
-0.0715 -2.9772 -0.1554
-0.0534 -2.9837 -0.1445
0.0120 -2.8843 -0.1951
0.0324 -2.8744 -0.1954
0.0542 -2.8562 -0.2013
0.0752 -2.8441 -0.2030
0.0959 -2.8341 -0.2033
0.1160 -2.8262 -0.2022
0.1378 -2.8119 -0.2053
0.1610 -2.7930 -0.2113
0.1812 -2.7851 -0.2102
0.1984 -2.7863 -0.2034
0.2159 -2.7854 -0.1981
0.2404 -2.7640 -0.2054
0.2619 -2.7516 -0.2072
0.2808 -2.7463 -0.2046
0.3024 -2.7339 -0.2064
-0.9627 -3.3991 -0.1750
-0.9356 -3.3926 -0.1703
-0.9314 -3.3773 -0.1806
-0.9160 -3.3660 -0.1837
-0.8973 -3.3560 -0.1847
-0.8856 -3.3428 -0.1907
-0.8381 -3.3273 -0.1856
-0.8184 -3.3177 -0.1859
-0.7841 -3.2955 -0.1907
-0.7566 -3.2906 -0.1846
-0.7336 -3.2833 -0.1820
-0.7189 -3.2704 -0.1866
-0.7046 -3.2569 -0.1919
-0.6832 -3.2484 -0.1908
-0.6605 -3.2412 -0.1882
-0.6421 -3.2304 -0.1899
-0.6143 -3.2282 -0.1816
-0.5993 -3.2143 -0.1869
-0.5815 -3.2029 -0.1894
-0.5618 -3.1933 -0.1897
-0.5375 -3.1891 -0.1842
-0.5196 -3.1776 -0.1867
-0.5000 -3.1681 -0.1869
-0.4804 -3.1585 -0.1872
-0.4627 -3.1462 -0.1904
-0.4461 -3.1315 -0.1957
-0.4245 -3.1248 -0.1931
-0.4039 -3.1167 -0.1920
-0.3857 -3.1041 -0.1952
-0.3644 -3.0976 -0.1926
-0.3438 -3.0904 -0.1907
-0.3256 -3.0768 -0.1946
-0.3052 -3.0689 -0.1935
-0.2831 -3.0676 -0.1865
-0.2647 -3.0539 -0.1904
-0.2458 -3.0410 -0.1936
-0.2261 -3.0314 -0.1939
-0.2059 -3.0254 -0.1913
-0.1854 -3.0221 -0.1865
-0.1673 -3.0001 -0.1970
-0.1477 -2.9868 -0.2001
-0.1277 -2.9809 -0.1975
-0.1079 -2.9713 -0.1978
-0.0518 -2.9932 -0.1609
-0.0342 -2.9941 -0.1539
-0.0139 -2.9673 -0.1673
0.0111 -2.9117 -0.2010
0.0316 -2.8979 -0.2043
0.0507 -2.8924 -0.2016
0.0909 -2.8710 -0.2037
0.1108 -2.8614 -0.2040
0.1295 -2.8561 -0.2014
0.1471 -2.8542 -0.1965
0.1684 -2.8391 -0.2005
0.1881 -2.8295 -0.2008
0.2079 -2.8200 -0.2011
0.2272 -2.8116 -0.2006
0.2491 -2.7962 -0.2046
-0.9640 -3.4187 -0.1854
-0.9449 -3.4094 -0.1857
-0.9225 -3.4014 -0.1837
-0.9003 -3.3934 -0.1818
-0.8793 -3.3851 -0.1806
-0.8594 -3.3764 -0.1801
-0.8435 -3.3659 -0.1826
-0.8305 -3.3539 -0.1873
-0.8085 -3.3461 -0.1854
-0.7868 -3.3384 -0.1835
-0.7696 -3.3282 -0.1852
-0.7576 -3.3148 -0.1914
-0.7325 -3.3092 -0.1865
-0.7127 -3.3006 -0.1861
-0.6961 -3.2897 -0.1886
-0.6732 -3.2833 -0.1852
-0.6558 -3.2729 -0.1869
-0.6368 -3.2637 -0.1872
-0.6164 -3.2557 -0.1860
-0.5995 -3.2447 -0.1885
-0.5773 -3.2386 -0.1851
-0.5659 -3.2218 -0.1943
-0.5419 -3.2177 -0.1886
-0.5229 -3.2085 -0.1889
-0.5018 -3.2020 -0.1862
-0.4855 -3.1894 -0.1902
-0.4650 -3.1823 -0.1882
-0.4475 -3.1710 -0.1908
-0.4263 -3.1654 -0.1873
-0.4083 -3.1548 -0.1891
-0.3901 -3.1441 -0.1909
-0.3715 -3.1341 -0.1919
-0.3508 -3.1288 -0.1884
-0.3335 -3.1157 -0.1924
-0.3131 -3.1105 -0.1890
-0.2939 -3.1021 -0.1885
-0.2558 -3.0855 -0.1876
-0.2379 -3.0721 -0.1916
-0.2187 -3.0647 -0.1904
-0.2005 -3.0512 -0.1944
-0.1815 -3.0419 -0.1947
-0.1625 -3.0327 -0.1950
-0.1431 -3.0290 -0.1907
-0.1244 -3.0152 -0.1948
-0.0866 -3.0034 -0.1901
-0.0501 -3.0017 -0.1778
-0.0324 -3.0006 -0.1720
-0.0121 -2.9729 -0.1867
0.0085 -2.9498 -0.1975
0.0275 -2.9406 -0.1978
0.0482 -2.9221 -0.2049
0.0660 -2.9200 -0.1999
0.0845 -2.9129 -0.1986
0.1033 -2.9048 -0.1982
0.1255 -2.8837 -0.2068
0.1406 -2.8885 -0.1972
0.1602 -2.8772 -0.1990
0.1803 -2.8646 -0.2016
0.2021 -2.8475 -0.2072
0.2175 -2.8484 -0.2006
0.2396 -2.8311 -0.2062
0.2569 -2.8265 -0.2035
-0.9276 -3.4346 -0.1830
-0.9025 -3.4281 -0.1787
-0.8876 -3.4181 -0.1813
-0.8748 -3.4072 -0.1854
-0.8574 -3.3978 -0.1864
-0.8268 -3.3941 -0.1775
-0.8177 -3.3813 -0.1847
-0.8023 -3.3711 -0.1872
-0.7801 -3.3640 -0.1844
-0.7572 -3.3576 -0.1809
-0.7408 -3.3478 -0.1827
-0.7304 -3.3344 -0.1899
-0.7128 -3.3249 -0.1909
-0.6886 -3.3197 -0.1858
-0.6687 -3.3119 -0.1845
-0.6551 -3.2997 -0.1894
-0.6404 -3.2879 -0.1935
-0.6119 -3.2871 -0.1830
-0.5951 -3.2771 -0.1848
-0.5769 -3.2683 -0.1851
-0.5651 -3.2532 -0.1931
-0.5460 -3.2449 -0.1926
-0.5263 -3.2372 -0.1913
-0.5040 -3.2329 -0.1862
-0.4825 -3.2281 -0.1818
-0.4737 -3.2071 -0.1960
-0.4523 -3.2022 -0.1916
-0.4339 -3.1933 -0.1919
-0.4155 -3.1844 -0.1922
-0.3951 -3.1792 -0.1886
-0.3800 -3.1644 -0.1950
-0.3583 -3.1622 -0.1883
-0.3370 -3.1603 -0.1816
-0.3218 -3.1445 -0.1889
-0.3039 -3.1349 -0.1899
-0.2857 -3.1261 -0.1902
-0.2686 -3.1131 -0.1944
-0.2496 -3.1067 -0.1923
-0.2307 -3.1004 -0.1902
-0.2130 -3.0890 -0.1928
-0.1947 -3.0801 -0.1931
-0.1771 -3.0660 -0.1981
-0.1391 -3.0643 -0.1846
-0.1215 -3.0464 -0.1926
-0.1033 -3.0330 -0.1968
-0.0849 -3.0212 -0.1994
-0.0666 -3.0170 -0.1958
-0.0488 -3.0149 -0.1906
-0.0305 -3.0051 -0.1916
-0.0118 -2.9914 -0.1958
0.0065 -2.9825 -0.1961
0.0235 -2.9817 -0.1901
0.0431 -2.9648 -0.1966
0.0603 -2.9611 -0.1930
0.0811 -2.9407 -0.2019
0.0996 -2.9318 -0.2021
0.1172 -2.9260 -0.2001
0.1549 -2.9049 -0.2030
0.1745 -2.8926 -0.2056
0.1922 -2.8859 -0.2043
0.2107 -2.8770 -0.2046
0.2300 -2.8657 -0.2064
0.2472 -2.8602 -0.2043
0.2626 -2.8583 -0.1999
-0.2599 -4.6888 -0.1829
-0.2411 -4.6779 -0.1816
-0.2235 -4.6712 -0.1834
-0.2048 -4.6603 -0.1822
-0.1864 -4.6505 -0.1817
-0.1671 -4.6366 -0.1781
-0.1501 -4.6329 -0.1822
-0.1320 -4.6241 -0.1825
-0.0957 -4.6066 -0.1830
-0.0776 -4.5978 -0.1832
-0.0593 -4.5871 -0.1820
-0.0413 -4.5802 -0.1838
-0.0232 -4.5724 -0.1848
-0.0050 -4.5627 -0.1843
0.0131 -4.5539 -0.1846
0.0312 -4.5451 -0.1848
0.0492 -4.5346 -0.1836
0.0673 -4.5258 -0.1838
0.0852 -4.5162 -0.1833
0.1035 -4.5083 -0.1844
0.1215 -4.4996 -0.1846
0.1388 -4.4876 -0.1818
0.1575 -4.4813 -0.1844
0.1755 -4.4725 -0.1847
0.1947 -4.4669 -0.1880
0.2129 -4.4581 -0.1883
0.2297 -4.4463 -0.1854
0.2481 -4.4383 -0.1865
0.2639 -4.4252 -0.1821
0.2831 -4.4186 -0.1847
0.3024 -4.4120 -0.1873
0.3214 -4.4046 -0.1891
0.3381 -4.3938 -0.1870
0.3551 -4.3837 -0.1857
0.3742 -4.3763 -0.1876
0.3922 -4.3676 -0.1878
0.4091 -4.3576 -0.1865
0.4290 -4.3507 -0.1891
0.4502 -4.3450 -0.1932
0.4665 -4.3344 -0.1912
0.4832 -4.3245 -0.1899
0.5013 -4.3157 -0.1902
0.5209 -4.3081 -0.1920
0.5390 -4.2993 -0.1923
0.5571 -4.2905 -0.1925
0.5736 -4.2807 -0.1912
0.5917 -4.2719 -0.1915
0.6098 -4.2632 -0.1918
0.6297 -4.2554 -0.1936
0.6432 -4.2442 -0.1900
0.6640 -4.2369 -0.1926
0.6850 -4.2295 -0.1951
0.7022 -4.2203 -0.1946
0.7213 -4.2119 -0.1957
0.7385 -4.2027 -0.1952
0.7566 -4.1939 -0.1954
0.7725 -4.1844 -0.1941
0.7895 -4.1752 -0.1936
0.8053 -4.1658 -0.1923
0.8256 -4.1577 -0.1941
0.8413 -4.1483 -0.1929
-0.2867 -4.7365 -0.1858
-0.2677 -4.7273 -0.1861
-0.2500 -4.7224 -0.1893
-0.2298 -4.7089 -0.1866
-0.2087 -4.6913 -0.1810
-0.1157 -4.6528 -0.1875
-0.0969 -4.6446 -0.1886
-0.0209 -4.6032 -0.1860
-0.0020 -4.5913 -0.1840
0.2964 -4.4421 -0.1847
0.4482 -4.3723 -0.1899
0.4676 -4.3639 -0.1909
0.6742 -4.2638 -0.1939
0.7484 -4.2270 -0.1943
0.7682 -4.2183 -0.1953
0.7869 -4.2092 -0.1956
-0.2720 -4.7552 -0.1805
-0.2525 -4.7458 -0.1808
-0.2319 -4.7321 -0.1783
-0.2135 -4.7269 -0.1814
-0.1940 -4.7174 -0.1817
-0.1736 -4.7039 -0.1791
-0.1157 -4.6777 -0.1814
-0.0959 -4.6653 -0.1796
-0.0765 -4.6559 -0.1798
-0.0571 -4.6465 -0.1801
-0.0377 -4.6381 -0.1811
-0.0183 -4.6277 -0.1807
0.0010 -4.6165 -0.1796
0.0206 -4.6117 -0.1834
0.0401 -4.6023 -0.1837
0.0593 -4.5911 -0.1825
0.0780 -4.5764 -0.1785
0.0982 -4.5723 -0.1831
0.1176 -4.5629 -0.1834
0.1378 -4.5568 -0.1865
0.1562 -4.5432 -0.1832
0.1773 -4.5396 -0.1885
0.1952 -4.5253 -0.1845
0.2152 -4.5175 -0.1862
0.2353 -4.5096 -0.1879
0.2559 -4.5024 -0.1904
0.2743 -4.4907 -0.1885
0.2939 -4.4812 -0.1888
0.3113 -4.4681 -0.1855
0.3298 -4.4573 -0.1844
0.3505 -4.4501 -0.1868
0.3684 -4.4386 -0.1849
0.3893 -4.4313 -0.1874
0.4082 -4.4212 -0.1869
0.4276 -4.4118 -0.1872
0.4488 -4.4044 -0.1896
0.4664 -4.3930 -0.1878
0.4877 -4.3855 -0.1902
0.5058 -4.3749 -0.1891
0.5252 -4.3655 -0.1893
0.5446 -4.3561 -0.1896
0.5655 -4.3478 -0.1913
0.5866 -4.3395 -0.1931
0.6061 -4.3301 -0.1934
0.6215 -4.3179 -0.1900
0.6417 -4.3091 -0.1910
0.6663 -4.3027 -0.1957
0.6868 -4.2938 -0.1967
0.7018 -4.2819 -0.1933
0.7184 -4.2710 -0.1914
