ply
format ascii 1.0
element vertex 2112
property float x
property float y
property float z
end_header
3.5118 -4.7680 -0.1280
3.3186 -4.5729 -0.1212
3.2774 -4.5291 -0.1257
3.2175 -4.4722 -0.1136
3.1874 -4.4391 -0.1200
3.0249 -4.2774 -0.1078
2.9770 -4.2298 -0.1038
2.9703 -4.2178 -0.1179
2.9467 -4.1956 -0.1125
2.9300 -4.1782 -0.1134
2.9148 -4.1621 -0.1148
2.8963 -4.1446 -0.1110
2.8793 -4.1284 -0.1077
2.8509 -4.1004 -0.1048
2.8434 -4.0904 -0.1114
2.8327 -4.0790 -0.1127
2.8208 -4.0673 -0.1113
2.8122 -4.0574 -0.1141
2.8004 -4.0465 -0.1112
2.7894 -4.0361 -0.1086
2.7823 -4.0277 -0.1117
2.7733 -4.0187 -0.1110
2.7656 -4.0105 -0.1121
2.7580 -4.0026 -0.1126
2.7492 -3.9944 -0.1102
4.9773 -6.9227 1.9830
4.9252 -6.8334 1.8799
4.7563 -6.4014 1.1656
4.6924 -6.3061 1.0769
4.8987 -6.4714 0.9842
4.9130 -6.4576 0.9106
4.8193 -6.3321 0.8183
4.8330 -6.3179 0.7452
4.4620 -5.8921 0.5693
4.5504 -5.9545 0.5073
4.5436 -5.9224 0.4393
4.5043 -5.8592 0.3723
4.4515 -5.7839 0.3083
4.4910 -5.7959 0.2382
4.4690 -5.7502 0.1733
4.4936 -5.7472 0.1016
4.5355 -5.7588 0.0243
4.5286 -5.7261 -0.0449
4.5217 -5.6935 -0.1140
4.4509 -5.6061 -0.1638
4.1893 -5.3595 -0.1447
4.0242 -5.1998 -0.1438
3.8186 -5.0111 -0.1151
3.7383 -4.9285 -0.1278
3.5674 -4.7613 -0.1316
3.4776 -4.6777 -0.1223
3.4192 -4.6200 -0.1252
3.3049 -4.5110 -0.1205
3.2304 -4.4355 -0.1290
3.1411 -4.3541 -0.1152
3.0269 -4.2450 -0.1106
3.0100 -4.2266 -0.1162
2.9842 -4.2034 -0.1111
2.9676 -4.1862 -0.1142
2.9518 -4.1698 -0.1170
2.9122 -4.1343 -0.1095
2.8835 -4.1062 -0.1101
2.8689 -4.0927 -0.1085
2.8586 -4.0814 -0.1116
2.8448 -4.0690 -0.1092
2.8333 -4.0579 -0.1089
2.8238 -4.0480 -0.1108
2.8130 -4.0378 -0.1101
2.8009 -4.0275 -0.1065
2.7943 -4.0194 -0.1108
2.7837 -4.0102 -0.1080
2.7765 -4.0024 -0.1103
2.7687 -3.9946 -0.1109
2.7603 -3.9868 -0.1098
2.7572 -3.9807 -0.1178
5.1211 -6.9888 2.1239
5.0192 -6.8434 1.9878
5.1490 -6.6656 1.2070
5.2485 -6.7359 1.1513
5.2969 -6.7523 1.0777
5.2037 -6.6268 0.9731
5.2226 -6.6134 0.8920
4.5974 -5.9240 0.5906
4.5380 -5.7673 0.3223
4.4933 -5.6770 0.1931
4.5667 -5.7149 0.1153
4.5763 -5.6967 0.0441
4.6037 -5.6929 -0.0320
4.5968 -5.6600 -0.1017
4.5558 -5.5995 -0.1617
4.3130 -5.3790 -0.1546
3.8306 -4.9407 -0.1409
3.4749 -4.6168 -0.1329
3.4257 -4.5690 -0.1396
3.2509 -4.4154 -0.1209
3.1695 -4.3426 -0.1157
3.1096 -4.2868 -0.1175
3.0081 -4.1946 -0.1145
2.9669 -4.1575 -0.1126
2.8967 -4.0954 -0.1063
2.8718 -4.0715 -0.1089
2.8612 -4.0608 -0.1114
2.8485 -4.0496 -0.1104
2.8367 -4.0390 -0.1095
2.8263 -4.0293 -0.1099
2.8092 -4.0119 -0.1142
2.7976 -4.0027 -0.1106
2.7895 -3.9947 -0.1118
2.7801 -3.9867 -0.1103
2.7721 -3.9793 -0.1105
5.3972 -6.8166 1.3636
5.2104 -6.5692 1.1439
5.2564 -6.5820 1.0731
5.2479 -6.5420 0.9883
4.5874 -5.8176 0.6018
4.5809 -5.7866 0.5363
4.5907 -5.7701 0.4711
4.5841 -5.7389 0.4051
4.6100 -5.7354 0.3375
4.6373 -5.7324 0.2678
4.6306 -5.7003 0.1998
4.6407 -5.6819 0.1293
4.7237 -5.7218 0.0450
4.6102 -5.6038 -0.0045
4.6728 -5.6258 -0.0891
4.5799 -5.5268 -0.1361
3.8687 -4.9095 -0.1299
3.6686 -4.7348 -0.1309
3.5121 -4.5990 -0.1292
3.4677 -4.5561 -0.1402
3.2782 -4.3997 -0.1175
3.1877 -4.3245 -0.1081
3.1338 -4.2743 -0.1165
3.0813 -4.2276 -0.1189
3.0516 -4.2035 -0.1143
3.0324 -4.1855 -0.1178
2.9827 -4.1455 -0.1091
2.9490 -4.1153 -0.1114
2.9179 -4.0879 -0.1121
2.9032 -4.0752 -0.1119
2.8901 -4.0634 -0.1127
2.8763 -4.0518 -0.1117
2.8655 -4.0416 -0.1138
2.8519 -4.0307 -0.1112
2.8426 -4.0216 -0.1138
2.8222 -4.0036 -0.1143
2.8110 -3.9948 -0.1119
2.8027 -3.9870 -0.1134
2.7944 -3.9794 -0.1143
2.7774 -3.9649 -0.1134
5.3813 -6.6709 1.3567
5.1592 -6.4304 1.2102
5.2534 -6.4875 1.1571
5.2992 -6.4979 1.0871
5.1602 -6.3404 0.9772
4.6592 -5.7870 0.6190
4.5558 -5.6741 0.5480
4.6292 -5.7107 0.4866
4.6227 -5.6798 0.4211
4.6495 -5.6759 0.3543
4.6770 -5.6717 0.2854
4.6702 -5.6398 0.2179
4.6982 -5.6348 0.1458
4.6913 -5.6024 0.0772
4.6845 -5.5700 0.0086
4.6605 -5.5249 -0.0561
4.6708 -5.5052 -0.1286
4.5167 -5.3678 -0.1547
3.9149 -4.8837 -0.1221
3.5322 -4.5699 -0.1164
3.4836 -4.5261 -0.1257
3.2779 -4.3568 -0.1242
3.0800 -4.1951 -0.1198
3.0488 -4.1720 -0.1131
3.0000 -4.1341 -0.1070
2.9677 -4.1054 -0.1122
2.9547 -4.0929 -0.1167
2.9222 -4.0666 -0.1153
2.9035 -4.0533 -0.1100
2.8894 -4.0419 -0.1091
2.8687 -4.0227 -0.1147
2.8526 -4.0118 -0.1085
2.8238 -3.9866 -0.1122
2.8124 -3.9783 -0.1093
2.8046 -3.9711 -0.1114
2.7962 -3.9639 -0.1118
2.7907 -3.9575 -0.1166
5.2870 -6.3683 1.0884
5.1207 -6.1637 0.8994
4.8226 -5.8299 0.6442
4.6251 -5.6439 0.5642
4.7013 -5.6794 0.5029
4.6776 -5.6348 0.4369
4.6711 -5.6039 0.3714
4.6986 -5.5988 0.3038
4.7090 -5.5801 0.2358
4.7023 -5.5484 0.1688
4.6618 -5.4924 0.1069
4.6889 -5.4852 0.0348
4.7721 -5.5163 -0.0513
4.7467 -5.4707 -0.1166
4.6864 -5.4021 -0.1711
3.5314 -4.5153 -0.1286
3.4074 -4.4195 -0.1254
3.3162 -4.3470 -0.1284
3.1529 -4.2246 -0.1149
3.0972 -4.1810 -0.1148
3.0668 -4.1592 -0.1098
3.0507 -4.1442 -0.1162
3.0002 -4.1081 -0.1074
2.9695 -4.0817 -0.1135
2.9331 -4.0550 -0.1089
2.9086 -4.0339 -0.1140
2.8806 -4.0130 -0.1113
2.8686 -4.0036 -0.1113
2.8551 -3.9942 -0.1085
2.8382 -3.9786 -0.1145
2.8148 -3.9627 -0.1084
2.8077 -3.9560 -0.1113
5.3997 -6.4132 1.2791
5.4194 -6.3979 1.2040
5.4148 -6.2637 0.8757
5.1460 -6.0189 0.7608
5.0241 -5.8939 0.6739
4.7214 -5.6074 0.5176
4.7325 -5.5898 0.4527
4.7084 -5.5460 0.3876
4.7477 -5.5217 0.2534
4.7411 -5.4903 0.1868
4.7518 -5.4707 0.1179
5.0464 -5.6419 -0.0004
5.1327 -5.6681 -0.0950
4.8236 -5.4355 -0.1043
4.7080 -5.3333 -0.1457
4.5264 -5.1925 -0.1613
4.1885 -4.9602 -0.1160
4.1426 -4.9115 -0.1532
3.9549 -4.7803 -0.1335
3.7459 -4.6252 -0.1339
3.6406 -4.5511 -0.1243
3.5861 -4.5067 -0.1341
3.4527 -4.4223 -0.0980
3.4422 -4.4042 -0.1240
3.3388 -4.3284 -0.1219
3.2538 -4.2662 -0.1200
3.1845 -4.2150 -0.1196
3.1241 -4.1709 -0.1180
3.0776 -4.1435 -0.1002
3.0700 -4.1322 -0.1145
3.0277 -4.1005 -0.1156
3.0068 -4.0854 -0.1144
2.9828 -4.0700 -0.1086
2.9653 -4.0571 -0.1082
2.9510 -4.0457 -0.1104
2.9243 -4.0244 -0.1141
2.9118 -4.0145 -0.1158
2.8932 -4.0034 -0.1089
2.8725 -3.9863 -0.1135
2.8596 -3.9776 -0.1112
2.8498 -3.9699 -0.1125
2.8319 -3.9554 -0.1157
2.8177 -3.9477 -0.1084
2.8120 -3.9415 -0.1133
5.4687 -6.3566 1.2989
5.4605 -6.3178 1.2166
5.4808 -6.3016 1.1409
5.6578 -6.4075 1.0957
5.6170 -6.3411 1.0018
5.6402 -6.3242 0.9192
5.2102 -5.9663 0.7792
4.9785 -5.7644 0.6813
4.7416 -5.5382 0.5319
4.7809 -5.5139 0.4030
4.8280 -5.5196 0.3351
5.1568 -5.7134 0.2436
5.1972 -5.7090 0.1622
5.3180 -5.7557 0.0676
5.5434 -5.8660 -0.0512
5.4138 -5.7488 -0.1166
4.9630 -5.4372 -0.1051
4.7997 -5.3092 -0.1385
4.6556 -5.1963 -0.1681
4.3799 -5.0106 -0.1491
3.9925 -4.7495 -0.1227
3.9491 -4.7073 -0.1520
3.6242 -4.4880 -0.1305
3.4640 -4.3819 -0.1149
3.3699 -4.3137 -0.1206
3.2694 -4.2472 -0.1107
3.1416 -4.1566 -0.1130
3.0862 -4.1190 -0.1099
3.0429 -4.0881 -0.1113
3.0017 -4.0599 -0.1095
2.9724 -4.0370 -0.1153
2.9546 -4.0253 -0.1134
2.9393 -4.0146 -0.1133
2.9067 -3.9941 -0.1075
2.8973 -3.9858 -0.1117
2.8799 -3.9763 -0.1051
2.8599 -3.9609 -0.1083
2.8423 -3.9468 -0.1127
2.8309 -3.9399 -0.1101
5.7250 -6.4461 1.3722
5.6833 -6.3794 1.2763
5.6427 -6.3144 1.1824
5.6341 -6.2739 1.0968
5.5947 -6.2108 1.0056
5.4677 -6.0847 0.9027
5.4596 -6.0462 0.8211
5.4236 -5.9881 0.7368
5.1859 -5.7908 0.6393
5.0030 -5.6359 0.5568
5.1950 -5.7365 0.4907
5.4474 -5.8725 0.4131
5.6205 -5.9512 0.3241
5.6767 -5.9513 0.2326
5.6678 -5.9093 0.1435
5.5944 -5.8275 0.0621
5.5857 -5.7863 -0.0252
5.5770 -5.7451 -0.1125
5.5683 -5.7038 -0.1999
4.9533 -5.3180 -0.1450
4.6131 -5.0993 -0.1275
4.4141 -4.9654 -0.1320
4.0718 -4.7405 -0.1265
3.8295 -4.5812 -0.1228
3.5074 -4.3696 -0.1174
3.3071 -4.2372 -0.1161
3.2098 -4.1696 -0.1236
3.1125 -4.1090 -0.1138
3.0647 -4.0776 -0.1131
3.0226 -4.0501 -0.1120
2.9825 -4.0251 -0.1080
2.9735 -4.0159 -0.1159
2.9373 -3.9945 -0.1097
2.9243 -3.9854 -0.1108
2.9114 -3.9766 -0.1113
2.8937 -3.9674 -0.1049
2.8842 -3.9599 -0.1080
2.8772 -3.9529 -0.1138
2.8621 -3.9451 -0.1083
2.8536 -3.9384 -0.1108
2.8459 -3.9320 -0.1141
5.4598 -6.2271 1.5237
5.4520 -6.1903 1.4458
5.6677 -6.2889 1.3560
5.7230 -6.2960 1.2886
5.7144 -6.2555 1.2030
5.7460 -6.1386 0.8692
5.6404 -6.0325 0.7718
5.5704 -5.9519 0.6822
5.5621 -5.9126 0.5991
5.7112 -5.9737 0.5198
5.7692 -5.9743 0.4324
6.0089 -5.8857 -0.1512
5.2145 -5.3782 -0.1731
4.6641 -5.0575 -0.1129
4.4230 -4.9081 -0.1082
4.0713 -4.6707 -0.1489
3.8089 -4.5131 -0.1317
3.6864 -4.4427 -0.1159
3.6354 -4.4059 -0.1276
3.5445 -4.3536 -0.1160
3.4969 -4.3209 -0.1227
3.3890 -4.2542 -0.1204
3.3227 -4.2182 -0.1067
3.2982 -4.1986 -0.1169
3.2597 -4.1748 -0.1161
3.2268 -4.1538 -0.1170
3.1692 -4.1165 -0.1197
3.1122 -4.0822 -0.1162
3.0662 -4.0534 -0.1159
3.0181 -4.0264 -0.1082
3.0070 -4.0165 -0.1153
2.9858 -4.0049 -0.1112
2.9522 -3.9848 -0.1089
2.9423 -3.9764 -0.1141
2.9249 -3.9672 -0.1099
2.9100 -3.9588 -0.1078
2.8995 -3.9512 -0.1100
2.8744 -3.9365 -0.1074
2.8673 -3.9301 -0.1123
2.8570 -3.9236 -0.1123
5.2924 -6.0865 1.6656
5.5788 -6.0859 1.2530
5.4597 -5.9714 1.1468
5.8024 -6.1382 1.0586
5.6962 -6.0331 0.9566
5.6878 -5.9934 0.8726
5.7435 -5.9947 0.7956
5.7350 -5.9543 0.7101
5.7593 -5.9341 0.6263
5.7844 -5.9137 0.5409
5.8439 -5.9130 0.4538
6.0496 -5.7974 -0.1215
4.7977 -5.0565 -0.1179
4.5893 -4.9290 -0.1272
4.1090 -4.6397 -0.1380
3.8721 -4.5003 -0.1353
3.6734 -4.3871 -0.1243
3.5481 -4.3107 -0.1294
3.4204 -4.2391 -0.1192
3.3257 -4.1844 -0.1157
3.2580 -4.1423 -0.1204
3.1883 -4.1028 -0.1160
3.1336 -4.0704 -0.1159
3.0803 -4.0409 -0.1108
3.0399 -4.0166 -0.1117
3.0007 -3.9944 -0.1092
2.9742 -3.9760 -0.1156
2.9470 -3.9588 -0.1183
2.9141 -3.9424 -0.1109
2.8918 -3.9283 -0.1130
2.8821 -3.9217 -0.1148
2.8689 -3.9153 -0.1116
5.3410 -5.8855 1.3331
5.4440 -5.8654 1.1464
6.0168 -6.1693 1.1059
5.9360 -6.0817 1.0042
5.8924 -6.0186 0.9113
5.9184 -5.9984 0.8278
5.9452 -5.9780 0.7427
5.9719 -5.9567 0.6557
5.6626 -5.7416 0.5550
5.9735 -5.6533 -0.0754
5.4195 -5.3111 -0.1521
4.9225 -5.0466 -0.1190
4.1382 -4.6052 -0.1243
3.8980 -4.4711 -0.1234
3.7203 -4.3711 -0.1246
3.4494 -4.2228 -0.1164
3.3516 -4.1694 -0.1133
3.2879 -4.1299 -0.1225
3.2148 -4.0909 -0.1178
3.1534 -4.0580 -0.1142
3.1016 -4.0299 -0.1119
3.0854 -4.0186 -0.1172
3.0558 -4.0054 -0.1093
3.0424 -3.9955 -0.1151
3.0256 -3.9853 -0.1168
2.9904 -3.9661 -0.1157
2.9591 -3.9489 -0.1148
2.9462 -3.9411 -0.1162
2.9298 -3.9334 -0.1128
2.9136 -3.9261 -0.1085
2.9027 -3.9194 -0.1099
2.8927 -3.9130 -0.1118
2.8827 -3.9069 -0.1132
2.8754 -3.9010 -0.1175
5.7973 -5.9960 1.2334
6.0100 -6.0211 1.0255
6.0012 -5.9795 0.9373
6.0288 -5.9588 0.8533
6.1331 -5.9809 0.7744
6.2725 -5.7771 0.1132
6.3500 -5.7732 0.0064
6.1692 -5.6459 -0.0695
4.7466 -4.8757 -0.1141
4.1495 -4.5641 -0.1051
3.8639 -4.4039 -0.1275
3.6226 -4.2769 -0.1264
3.4720 -4.2042 -0.1099
3.3071 -4.1141 -0.1170
3.2305 -4.0760 -0.1114
3.1057 -4.0075 -0.1177
3.0791 -3.9952 -0.1134
3.0599 -3.9846 -0.1145
3.0049 -3.9559 -0.1138
2.9693 -3.9389 -0.1094
2.9562 -3.9314 -0.1108
2.9431 -3.9241 -0.1115
2.9282 -3.9171 -0.1095
2.9189 -3.9107 -0.1132
2.9033 -3.9043 -0.1087
2.8967 -3.8983 -0.1147
2.8892 -3.8925 -0.1191
5.8745 -6.1125 1.6532
6.2875 -6.1149 1.1722
6.3199 -6.0946 1.0862
6.3530 -6.0740 0.9983
6.2194 -5.9611 0.8885
5.9853 -5.7967 0.7752
6.3199 -5.7355 0.2361
6.4432 -5.7519 0.1297
6.4333 -5.7050 0.0303
6.4698 -5.6786 -0.0750
6.0803 -5.4669 -0.1171
5.9256 -5.3625 -0.1820
4.9321 -4.8894 -0.1313
4.7285 -4.7830 -0.1432
4.2222 -4.5469 -0.1055
4.1732 -4.5098 -0.1356
3.8949 -4.3785 -0.1186
3.7485 -4.3003 -0.1310
3.5112 -4.1902 -0.1120
3.4110 -4.1403 -0.1121
3.3748 -4.1204 -0.1166
3.2904 -4.0803 -0.1121
3.2538 -4.0628 -0.1103
3.2403 -4.0507 -0.1232
3.1792 -4.0214 -0.1205
3.1178 -3.9948 -0.1111
3.0776 -3.9737 -0.1138
3.0388 -3.9545 -0.1136
3.0069 -3.9375 -0.1160
2.9762 -3.9221 -0.1163
2.9591 -3.9149 -0.1133
2.9467 -3.9082 -0.1146
2.9194 -3.8956 -0.1122
2.9081 -3.8897 -0.1128
2.9005 -3.8840 -0.1173
6.0294 -5.9014 1.2129
6.0922 -5.9006 1.1419
6.1491 -5.8582 0.9798
6.1783 -5.8364 0.8962
6.9604 -5.9677 0.3434
6.3143 -5.6308 0.2632
6.3909 -5.6241 0.1632
6.3813 -5.5788 0.0671
6.1656 -5.4474 -0.0042
6.2768 -5.4533 -0.1126
6.1085 -5.3460 -0.1796
5.5247 -5.0818 -0.1576
5.0795 -4.8819 -0.1371
4.7168 -4.7216 -0.1146
4.5995 -4.6556 -0.1404
4.3288 -4.5396 -0.1151
4.2464 -4.4917 -0.1367
3.9640 -4.3649 -0.1240
3.7665 -4.2745 -0.1187
3.6464 -4.2133 -0.1305
3.5107 -4.1534 -0.1218
3.4048 -4.1060 -0.1166
3.3265 -4.0686 -0.1181
3.2518 -4.0354 -0.1141
3.1915 -4.0076 -0.1130
3.0795 -3.9533 -0.1171
3.0597 -3.9442 -0.1168
3.0138 -3.9269 -0.1068
2.9853 -3.9123 -0.1100
2.9679 -3.9054 -0.1070
2.9562 -3.8989 -0.1093
2.9367 -3.8866 -0.1167
6.1364 -5.8622 1.2411
6.3919 -5.9216 1.1168
6.2917 -5.7943 0.9225
6.9159 -5.9690 0.6887
6.9598 -5.9440 0.5850
6.7782 -5.7736 0.3740
6.9279 -5.7928 0.2648
6.9733 -5.7655 0.1545
6.5801 -5.4746 -0.1205
6.0354 -5.2289 -0.1341
5.6729 -5.0602 -0.1550
4.8573 -4.7148 -0.1230
4.6577 -4.6234 -0.1311
4.3128 -4.4698 -0.1349
4.1087 -4.3891 -0.1135
4.0092 -4.3426 -0.1196
3.6758 -4.1935 -0.1251
3.5373 -4.1358 -0.1174
3.4252 -4.0893 -0.1108
3.4017 -4.0739 -0.1225
3.3523 -4.0544 -0.1171
3.2194 -3.9959 -0.1171
3.1692 -3.9727 -0.1196
3.1155 -3.9514 -0.1140
3.0721 -3.9332 -0.1121
3.0359 -3.9170 -0.1125
3.0001 -3.9026 -0.1095
2.9742 -3.8895 -0.1133
2.9623 -3.8834 -0.1153
6.2372 -5.7817 1.1835
6.5120 -5.8794 1.1464
6.5468 -5.8566 1.0601
6.7132 -5.8528 0.8918
6.8028 -5.8511 0.8019
6.5093 -5.6791 0.6843
6.4999 -5.6347 0.5903
6.4048 -5.5544 0.4952
6.3545 -5.4942 0.4036
5.8068 -5.0647 -0.0676
5.6806 -4.9873 -0.1261
5.5104 -4.8980 -0.1701
5.0091 -4.7072 -0.1320
4.7164 -4.5907 -0.1216
4.4236 -4.4593 -0.1456
4.0632 -4.3222 -0.1181
3.8543 -4.2369 -0.1156
3.5527 -4.1158 -0.1073
3.5336 -4.1000 -0.1255
3.3764 -4.0397 -0.1147
3.3486 -4.0253 -0.1214
3.3067 -4.0097 -0.1175
3.2803 -3.9968 -0.1220
3.1815 -3.9599 -0.1129
3.1566 -3.9496 -0.1128
3.1348 -3.9401 -0.1140
3.1111 -3.9309 -0.1126
3.0925 -3.9225 -0.1144
3.0759 -3.9145 -0.1171
3.0342 -3.8995 -0.1117
3.0219 -3.8927 -0.1158
3.0037 -3.8862 -0.1133
2.9905 -3.8800 -0.1151
2.9803 -3.8739 -0.1194
2.9614 -3.8686 -0.1137
2.9484 -3.8632 -0.1136
4.5448 -0.6806 1.0738
4.5037 -0.8109 1.0572
6.7544 -0.1342 1.6106
6.8834 -0.4601 1.6221
5.1089 -3.6684 1.0374
5.6468 -4.5120 1.1140
5.5907 -4.5556 1.0987
5.6512 -4.6455 1.1075
7.2430 -6.0770 1.3930
4.5290 -0.6831 1.0109
4.5560 -0.7290 1.0141
3.9898 -2.3771 0.8136
4.0469 -2.3903 0.8247
5.2265 -3.6249 1.0051
4.9459 -3.6504 0.9459
4.8819 -3.6973 0.9304
5.0008 -3.7747 0.9509
5.0789 -3.8486 0.9633
7.6189 -4.6099 1.4482
5.7909 -4.5069 1.0766
5.7025 -4.5431 1.0565
5.5643 -4.6189 1.0242
7.0546 -5.7173 1.2756
7.0748 -5.8187 1.2746
7.1453 -5.9484 1.2825
6.9240 -5.9091 1.2389
4.5554 -0.6311 0.9581
4.5402 -0.7316 0.9507
4.0000 -2.3659 0.7765
4.0727 -2.3704 0.7896
6.4642 -2.6743 1.2127
4.8741 -3.5882 0.8799
4.8858 -3.6463 0.8793
4.9123 -3.7070 0.8814
4.9389 -3.7683 0.8834
4.9668 -3.8306 0.8856
5.0424 -3.9048 0.8960
5.1582 -3.9921 0.9131
6.3312 -4.3786 1.1097
5.7358 -4.5660 0.9922
5.6497 -4.5995 0.9750
5.6884 -4.6824 0.9782
5.5610 -4.6915 0.9545
6.0493 -4.9846 1.0302
7.3206 -5.7792 1.2259
7.0790 -5.7476 1.1832
7.0498 -5.8227 1.1744
7.0903 -6.0254 1.1725
4.5394 -0.6337 0.8939
4.5103 -0.7519 0.8844
6.7192 -0.1075 1.2626
3.9161 -2.3679 0.7228
4.0032 -2.3590 0.7371
4.2521 -2.2590 0.7808
6.5972 -2.5427 1.1422
6.5271 -2.6643 1.1261
6.6871 -2.7506 1.1479
6.7087 -2.8589 1.1469
4.8772 -3.5351 0.8274
4.8744 -3.5922 0.8246
4.8567 -3.6466 0.8195
4.9432 -3.7169 0.8304
4.9711 -3.7795 0.8322
4.9522 -3.8330 0.8270
4.9640 -3.8923 0.8264
5.7423 -4.5787 0.9218
5.6318 -4.6024 0.9033
5.5754 -4.6442 0.8926
5.7103 -4.7698 0.9088
5.5577 -4.7641 0.8848
7.3854 -5.7312 1.1356
7.4663 -5.8724 1.1426
7.3720 -5.9221 1.1255
7.1766 -5.9110 1.0949
7.1455 -5.9858 1.0868
6.8324 -5.8910 1.0409
4.5233 -0.6363 0.8296
4.5363 -0.7013 0.8290
4.5965 -1.2638 0.8165
3.9185 -2.3612 0.6847
7.1903 -2.3028 1.1291
6.7652 -2.5107 1.0640
6.5012 -2.6685 1.0225
6.4340 -2.7850 1.0092
6.7311 -2.8581 1.0466
7.2263 -3.4147 1.0932
4.9914 -3.4886 0.7884
4.8627 -3.5374 0.7692
4.9515 -3.6056 0.7787
4.9480 -3.6642 0.7761
4.7976 -3.6972 0.7545
5.1442 -4.0017 0.7902
5.3303 -4.1146 0.8113
5.7875 -4.5357 0.8576
5.8030 -4.6129 0.8569
5.6627 -4.6255 0.8375
5.6284 -4.6778 0.8309
5.5493 -4.7075 0.8191
5.7587 -4.8712 0.8414
7.0577 -5.6793 0.9874
7.0785 -5.7828 0.9864
7.1507 -5.9152 0.9913
7.2235 -6.0500 0.9962
6.9449 -5.9764 0.9613
4.5209 -0.6208 0.7675
4.5064 -0.7216 0.7626
4.3536 -0.9919 0.7371
4.6829 -1.2460 0.7655
4.7740 -1.3227 0.7732
4.7877 -1.3910 0.7726
4.9247 -1.3608 0.7887
6.6831 -0.2397 1.0193
3.9467 -2.3374 0.6492
4.1907 -2.2304 0.6797
6.7659 -2.3921 0.9601
6.2455 -2.6070 0.8956
6.2255 -2.7125 0.8900
6.4963 -2.7774 0.9180
6.3454 -2.9003 0.8973
7.0105 -3.0677 0.9658
7.2708 -3.1775 0.9911
5.0617 -3.4974 0.7360
4.9089 -3.5457 0.7175
4.9054 -3.6042 0.7153
4.8873 -3.6599 0.7115
5.1596 -4.0732 0.7285
5.0846 -4.1102 0.7191
5.8768 -4.4304 0.7967
5.9220 -4.5212 0.7988
5.9688 -4.6139 0.8011
5.8121 -4.6272 0.7833
5.5960 -4.6082 0.7599
5.6841 -4.7131 0.7664
5.6011 -4.7422 0.7562
5.7138 -4.8615 0.7649
6.9825 -5.6575 0.8803
6.7271 -5.6101 0.8535
6.5388 -5.5894 0.8333
6.9005 -5.8811 0.8641
4.3040 -0.9648 0.6763
4.2184 -1.1449 0.6640
4.2399 -1.1878 0.6647
4.5515 -1.2821 0.6891
4.5361 -1.3719 0.6854
4.6051 -1.3830 0.6910
4.7220 -1.4347 0.6997
4.8884 -1.3786 0.7156
5.0584 -1.3301 0.7316
3.9230 -2.3480 0.6062
6.5418 -2.4387 0.8298
6.1816 -2.6183 0.7939
6.1626 -2.7226 0.7894
6.4264 -2.7875 0.8105
6.2015 -2.9169 0.7876
6.4244 -2.9980 0.8046
6.3607 -3.1049 0.7963
6.8444 -3.1929 0.8356
6.9734 -3.3050 0.8438
5.0108 -3.4974 0.6692
4.8940 -3.5481 0.6578
4.9060 -3.6086 0.6572
4.8571 -3.6599 0.6516
5.0321 -3.9266 0.6595
5.0644 -4.1689 0.6558
6.0886 -4.5910 0.7329
5.6970 -4.5220 0.7009
5.6115 -4.5578 0.6926
5.5781 -4.6111 0.6883
5.6162 -4.6940 0.6893
5.6308 -4.7671 0.6886
5.6216 -4.8286 0.6862
5.7103 -4.9386 0.6909
5.6746 -4.9862 0.6865
5.9878 -5.2226 0.7072
7.0480 -5.8947 0.7806
7.0687 -5.9982 0.7796
4.4560 -1.4359 0.6183
4.3831 -1.5741 0.6108
4.4802 -1.5568 0.6172
4.5316 -1.5840 0.6197
4.5853 -1.6121 0.6224
4.6702 -1.6191 0.6275
4.4903 -1.8267 0.6119
3.9774 -2.2564 0.5710
3.9325 -2.3364 0.5665
4.0376 -2.3168 0.5734
6.7381 -2.2752 0.7401
6.3817 -2.4716 0.7139
5.9603 -2.7549 0.6818
6.0132 -2.8427 0.6831
6.2162 -2.9167 0.6940
5.8200 -3.0474 0.6668
5.7464 -3.1394 0.6603
6.5284 -3.2047 0.7068
5.6275 -3.3897 0.6475
5.1833 -3.4466 0.6190
4.9451 -3.4961 0.6033
4.9423 -3.5570 0.6018
4.9383 -3.6169 0.6002
4.8426 -3.6623 0.5934
5.0325 -3.9329 0.5991
5.0450 -3.9953 0.5985
5.0416 -4.0531 0.5970
4.8657 -4.0559 0.5862
5.9119 -4.5385 0.6398
5.9896 -4.6439 0.6423
5.6934 -4.6011 0.6250
5.5368 -4.6040 0.6154
5.5747 -4.6865 0.6159
5.6128 -4.7700 0.6164
5.6037 -4.8315 0.6145
5.6670 -4.9289 0.6162
5.6087 -4.9638 0.6119
6.2565 -5.3847 0.6425
7.1238 -5.9567 0.6832
7.1984 -6.0942 0.6847
4.4048 -1.2571 0.5603
4.4292 -1.3048 0.5604
4.7420 -1.2328 0.5729
4.7902 -1.2718 0.5740
4.7870 -1.3568 0.5725
4.7672 -1.4541 0.5701
3.9482 -2.3203 0.5260
3.9766 -2.3507 0.5265
6.5132 -2.3276 0.6185
6.5351 -2.4372 0.6175
6.1330 -2.6261 0.5998
6.1918 -2.7181 0.6003
6.2510 -2.8121 0.6009
5.9745 -2.9434 0.5887
5.9250 -3.0411 0.5853
5.6018 -3.2312 0.5704
5.6457 -3.3124 0.5706
5.0484 -3.5079 0.5457
4.9270 -3.5595 0.5405
4.9067 -3.6173 0.5388
4.8280 -3.6646 0.5351
4.8552 -3.7262 0.5351
4.8815 -3.7884 0.5350
4.9090 -3.8516 0.5349
4.9172 -3.9674 0.5333
4.9450 -4.0317 0.5332
5.0546 -4.1226 0.5356
5.8171 -4.4400 0.5578
5.9832 -4.5750 0.5615
5.8943 -4.6934 0.5563
5.5655 -4.6268 0.5456
5.6046 -4.7109 0.5456
5.6193 -4.7845 0.5449
5.5386 -4.8111 0.5415
5.6239 -4.9190 0.5428
5.8194 -5.0887 0.5470
6.7873 -5.6946 0.5718
7.1505 -5.9914 0.5799
6.8728 -5.9203 0.5710
4.4287 -0.9102 0.5051
4.5954 -0.8733 0.5073
4.6090 -0.9411 0.5067
4.6339 -1.1604 0.5044
5.1336 -0.8571 0.5132
5.2709 -0.8314 0.5149
5.2385 -0.9594 0.5131
3.9311 -2.3265 0.4833
3.9939 -2.3343 0.4838
4.0779 -2.3326 0.4848
4.1535 -2.3408 0.4855
6.6310 -2.2967 0.5121
6.2055 -2.5068 0.5052
6.2258 -2.6081 0.5042
6.2062 -2.7158 0.5027
6.2663 -2.8108 0.5022
6.5026 -2.8896 0.5038
6.1318 -3.1247 0.4972
5.9388 -3.2259 0.4939
6.7837 -3.3185 0.5018
6.6098 -3.4252 0.4987
5.4676 -3.5451 0.4852
4.8793 -3.5585 0.4789
4.7876 -3.6062 0.4773
4.7710 -3.6604 0.4765
4.8252 -3.7259 0.4763
4.8821 -3.7939 0.4761
4.8786 -3.8505 0.4754
5.0572 -4.1309 0.4740
5.9150 -4.4837 0.4789
5.9010 -4.5559 0.4780
5.8294 -4.6044 0.4766
5.6823 -4.6180 0.4749
5.6456 -4.6722 0.4739
5.5864 -4.7139 0.4728
5.6256 -4.7991 0.4722
5.6405 -4.8733 0.4715
5.7589 -5.0011 0.4712
6.2308 -5.3236 0.4724
7.0503 -5.8593 0.4748
7.0213 -5.9361 0.4736
6.7569 -5.8696 0.4716
4.6966 -1.0831 0.4371
5.0091 -0.8635 0.4337
5.1133 -0.8603 0.4322
5.1768 -0.9001 0.4309
5.0458 -1.2930 0.4304
4.1317 -2.2942 0.4379
6.7942 -1.8741 0.3997
6.9321 -1.9605 0.3970
6.1805 -2.5108 0.4050
6.0845 -2.6340 0.4056
6.1814 -2.7198 0.4036
6.2413 -2.8149 0.4021
6.3026 -2.9119 0.4005
6.4088 -3.0078 0.3982
6.7619 -3.0961 0.3922
6.0542 -3.2264 0.4022
4.8964 -3.5644 0.4178
4.8162 -3.6143 0.4187
4.8140 -3.6717 0.4184
4.8259 -3.7310 0.4178
4.8826 -3.7995 0.4165
4.8317 -3.9013 0.4166
4.7724 -3.9402 0.4173
4.8852 -4.0274 0.4150
5.4946 -4.3487 0.4035
5.4403 -4.3968 0.4040
5.4547 -4.4688 0.4034
5.4691 -4.5407 0.4027
5.5064 -4.6227 0.4016
5.5440 -4.7057 0.4004
5.5830 -4.7904 0.3993
5.5499 -4.8402 0.3995
5.7131 -4.9902 0.3960
7.2380 -5.9840 0.3661
7.0975 -5.9999 0.3681
5.0680 -0.1813 0.3530
4.9517 -0.4223 0.3576
3.9516 -2.3511 0.3968
4.1031 -2.3065 0.3905
6.0587 -2.4323 0.3089
6.1953 -2.5063 0.3031
6.2570 -2.6010 0.3004
6.3625 -2.6911 0.2959
6.4283 -2.7911 0.2931
6.2365 -2.9203 0.3009
6.2168 -3.0246 0.3016
6.0471 -3.1342 0.3085
6.1397 -3.2277 0.3045
6.3176 -3.3256 0.2970
5.4965 -3.4010 0.3311
5.0964 -3.4565 0.3477
4.7875 -3.6148 0.3604
4.8134 -3.6763 0.3592
4.8556 -3.7415 0.3574
4.8677 -3.8019 0.3568
4.9103 -3.8694 0.3549
4.7859 -3.9502 0.3600
4.9470 -4.0530 0.3532
5.2066 -4.1948 0.3422
5.4999 -4.3598 0.3297
5.4143 -4.4627 0.3332
5.6183 -4.6132 0.3245
5.5593 -4.6566 0.3269
5.6143 -4.8173 0.3244
5.5795 -4.8670 0.3258
5.9456 -5.1253 0.3102
7.0797 -5.8181 0.2621
7.1013 -5.9264 0.2611
6.8716 -5.8869 0.2707
7.0925 -6.1113 0.2612
6.8185 -6.0326 0.2727
5.2546 0.1837 0.2534
5.1185 -0.0974 0.2639
3.7638 -2.0055 0.3641
3.8080 -2.1595 0.3617
3.8101 -2.2060 0.3618
3.8308 -2.2372 0.3605
3.8633 -2.2602 0.3583
3.9034 -2.2796 0.3557
3.9120 -2.3228 0.3553
3.9819 -2.3258 0.3505
4.0130 -2.3571 0.3485
6.2523 -2.4925 0.1962
6.1905 -2.6128 0.2009
6.2942 -2.7020 0.1941
6.4925 -2.7835 0.1809
6.3361 -2.9115 0.1921
6.3143 -3.0194 0.1941
6.2930 -3.1250 0.1959
5.8717 -3.2368 0.2252
5.3333 -3.3995 0.2626
5.2385 -3.4685 0.2693
5.0195 -3.5213 0.2845
4.9461 -3.5782 0.2898
4.8016 -3.6210 0.2998
4.8435 -3.6859 0.2972
4.8406 -3.7439 0.2976
4.8376 -3.8011 0.2981
4.8952 -3.8718 0.2944
4.9238 -3.9372 0.2927
4.9197 -3.9942 0.2933
5.0311 -4.0857 0.2860
5.8231 -4.4831 0.2335
5.4271 -4.4110 0.2603
5.5596 -4.5304 0.2517
5.4787 -4.5655 0.2574
5.6658 -4.7148 0.2452
5.6299 -4.7682 0.2479
5.8055 -4.9223 0.2365
5.7938 -4.9881 0.2376
5.9554 -5.1445 0.2272
6.3439 -5.4320 0.2018
6.7791 -5.7618 0.1735
6.7994 -5.8632 0.1725
6.7737 -5.9363 0.1745
6.4953 -5.8475 0.1932
5.3055 0.1555 0.1553
5.0663 -0.2454 0.1819
3.7818 -1.9783 0.3206
3.7841 -2.0261 0.3209
3.8046 -2.0563 0.3192
3.8008 -2.1095 0.3201
3.8275 -2.1351 0.3178
3.8360 -2.1774 0.3174
3.8444 -2.2197 0.3170
3.8645 -2.2531 0.3154
3.8864 -2.2859 0.3136
3.9077 -2.3201 0.3119
3.9164 -2.3636 0.3115
3.9588 -2.3858 0.3076
6.2678 -2.4877 0.0886
6.1652 -2.6169 0.0996
5.9946 -2.7498 0.1171
6.2472 -2.8164 0.0937
6.3525 -2.9113 0.0845
6.5312 -3.1166 0.0694
6.4160 -3.2290 0.0815
5.8855 -3.4216 0.1338
5.2632 -3.4740 0.1936
5.1933 -3.5403 0.2009
5.0899 -3.5986 0.2113
4.9938 -3.6518 0.2210
5.0068 -3.7173 0.2204
5.0381 -3.7861 0.2180
5.0159 -3.8445 0.2207
5.0116 -3.9054 0.2217
5.2521 -4.0293 0.1999
5.9525 -4.3775 0.1365
5.9061 -4.4436 0.1416
5.8326 -4.4970 0.1491
5.7903 -4.5581 0.1537
5.5655 -4.5433 0.1749
5.4157 -4.5493 0.1893
5.5226 -4.6626 0.1802
7.0261 -5.8268 0.0479
6.7541 -5.7659 0.0733
6.8210 -5.8951 0.0681
6.7489 -5.9403 0.0754
5.1236 -0.0447 0.0845
5.0451 -0.2488 0.0972
3.9994 -2.1967 0.2545
4.0168 -2.2380 0.2530
4.0263 -2.2851 0.2525
6.8839 -2.3523 -0.0970
6.3060 -2.5897 -0.0225
6.2424 -2.7104 -0.0129
6.5073 -2.8970 -0.0426
6.6270 -3.0007 -0.0558
6.4132 -3.1252 -0.0277
5.9265 -3.2421 0.0338
5.2380 -3.5486 0.1228
5.2108 -3.6169 0.1271
5.1245 -3.6749 0.1386
5.1384 -3.7442 0.1379
5.1140 -3.8062 0.1418
5.1277 -3.8745 0.1412
5.5142 -4.0320 0.0961
5.6601 -4.1443 0.0799
6.0108 -4.3217 0.0395
6.5293 -4.5674 -0.0204
6.3398 -4.5995 0.0033
5.9021 -4.5327 0.0560
5.9512 -4.6306 0.0515
5.5723 -4.5566 0.0968
5.4660 -4.5813 0.1102
5.6545 -4.7331 0.0894
5.8357 -4.8892 0.0695
7.5129 -5.7921 -0.1227
6.6885 -5.5673 -0.0250
6.8018 -5.7206 -0.0366
6.6840 -5.7438 -0.0218
6.7957 -5.8992 -0.0332
6.7696 -5.9726 -0.0289
4.9301 -0.4669 0.0310
5.0822 -0.3966 0.0066
5.1728 -0.4038 -0.0068
5.0925 -0.5949 0.0092
4.7408 -1.0501 0.0714
3.9365 -2.0233 0.2123
3.9744 -2.0455 0.2070
3.9996 -2.0801 0.2040
4.0907 -2.0646 0.1899
6.1263 -1.3720 -0.1304
6.1925 -1.9360 -0.1288
6.1519 -2.1785 -0.1177
6.1731 -2.2844 -0.1188
5.9829 -2.7517 -0.0806
5.9660 -2.8547 -0.0759
6.0599 -2.9442 -0.0882
5.9699 -3.0515 -0.0725
5.9892 -3.1477 -0.0734
6.0469 -3.4363 -0.0762
5.6078 -3.5861 -0.0071
5.2345 -3.6246 0.0499
5.1668 -3.6860 0.0613
5.1611 -3.7536 0.0636
5.1351 -3.8162 0.0687
5.1490 -3.8855 0.0681
5.3757 -4.0063 0.0364
5.8123 -4.1934 -0.0254
6.2393 -4.3981 -0.0854
6.1461 -4.4589 -0.0701
5.9268 -4.4717 -0.0369
5.8503 -4.5250 -0.0243
5.6401 -4.5224 0.0073
5.7376 -4.6349 -0.0051
5.7261 -4.7042 -0.0020
5.6352 -4.7362 0.0124
5.8445 -4.9064 -0.0156
5.8915 -5.0042 -0.0207
6.1332 -5.2047 -0.0529
6.3714 -5.4130 -0.0845
6.4702 -5.5523 -0.0965
6.5917 -5.7950 -0.1098
6.8870 -6.0660 -0.1487
4.6572 -1.0327 0.0097
4.6230 -1.1536 0.0190
3.9859 -2.0275 0.1556
4.0111 -2.0629 0.1520
4.0530 -2.0864 0.1451
4.1593 -2.0643 0.1256
5.2256 -1.3694 -0.0830
5.4591 -1.3096 -0.1262
5.5373 -1.3639 -0.1388
5.5257 -1.4765 -0.1337
5.5443 -1.5699 -0.1346
5.5939 -1.6467 -0.1415
5.6128 -1.7409 -0.1424
5.6003 -1.8498 -0.1373
5.5885 -1.9564 -0.1324
5.5762 -2.0612 -0.1275
5.5945 -2.1527 -0.1284
5.6439 -2.2337 -0.1351
5.6624 -2.3261 -0.1360
5.5599 -2.4522 -0.1144
5.6371 -2.5263 -0.1262
5.6253 -2.6235 -0.1216
5.5841 -2.7244 -0.1116
5.6018 -2.8125 -0.1124
5.6488 -2.8967 -0.1186
5.6971 -2.9825 -0.1250
5.6844 -3.0745 -0.1203
5.6782 -3.3406 -0.1123
5.7555 -3.4301 -0.1238
5.5430 -3.5042 -0.0839
5.2890 -3.5624 -0.0370
5.0960 -3.6134 -0.0012
5.1897 -3.6946 -0.0158
5.2041 -3.7666 -0.0165
5.0426 -3.8044 0.0133
5.1918 -3.9015 -0.0108
5.6476 -4.1582 -0.0855
5.6095 -4.2241 -0.0769
5.7373 -4.3402 -0.0967
5.6850 -4.4757 -0.0839
5.7296 -4.5680 -0.0894
5.6100 -4.5939 -0.0674
5.6004 -4.6614 -0.0639
5.5396 -4.7044 -0.0519
5.7825 -4.9631 -0.0885
5.7425 -5.0149 -0.0801
5.9968 -5.2249 -0.1200
4.7643 -0.8108 -0.0944
4.7606 -0.9075 -0.0906
4.7401 -1.0198 -0.0828
4.7726 -1.0774 -0.0877
4.7877 -1.1528 -0.0884
3.9894 -2.0162 0.1044
4.0643 -2.0112 0.0887
4.0244 -2.1012 0.0999
5.1731 -1.4913 -0.1574
5.0678 -1.7439 -0.1276
5.0623 -1.8360 -0.1235
5.0357 -1.9380 -0.1147
5.0722 -2.0054 -0.1201
5.1098 -2.0736 -0.1258
5.1036 -2.1625 -0.1217
5.0343 -2.2755 -0.1037
4.9695 -2.3813 -0.0869
5.0039 -2.4482 -0.0919
5.0799 -2.5035 -0.1059
5.1169 -2.5734 -0.1113
5.0694 -2.6656 -0.0986
5.0432 -2.7495 -0.0905
5.0579 -2.8231 -0.0912
5.0726 -2.8967 -0.0919
5.1078 -2.9677 -0.0969
5.2088 -3.0332 -0.1157
5.2242 -3.1098 -0.1165
5.1949 -3.1884 -0.1079
5.1891 -3.2641 -0.1043
5.2702 -3.3397 -0.1187
5.2855 -3.4163 -0.1194
5.1085 -3.4803 -0.0807
5.1635 -3.5555 -0.0897
5.1370 -3.6231 -0.0821
5.1122 -3.6888 -0.0749
4.8887 -3.7801 -0.0257
5.3238 -3.9375 -0.1108
5.3608 -4.0177 -0.1159
5.1625 -4.0351 -0.0743
5.0389 -4.1261 -0.0458
5.1647 -4.2309 -0.0685
5.6110 -4.4591 -0.1536
5.5001 -4.4892 -0.1297
5.6429 -4.6188 -0.1552
5.4344 -4.6002 -0.1126
5.4030 -4.6531 -0.1044
5.5117 -4.7716 -0.1231
5.6279 -4.8983 -0.1432
5.6167 -4.9620 -0.1388
5.7668 -5.1134 -0.1651
4.6397 -0.9306 -0.1408
4.6216 -1.0384 -0.1325
4.6525 -1.0935 -0.1377
4.6835 -1.1497 -0.1430
4.6982 -1.2228 -0.1437
4.0247 -1.9772 0.0437
4.0347 -2.0273 0.0432
4.0448 -2.0775 0.0427
4.0298 -2.1464 0.0488
4.6458 -1.9923 -0.1023
4.7909 -1.9839 -0.1369
4.8410 -2.0360 -0.1468
4.8375 -2.1176 -0.1429
4.7926 -2.3693 -0.1228
4.8415 -2.4254 -0.1323
4.8909 -2.4837 -0.1417
4.8697 -2.5661 -0.1336
4.8142 -2.6559 -0.1171
4.8109 -2.7285 -0.1136
4.8245 -2.7963 -0.1143
4.7883 -2.8735 -0.1028
4.8179 -2.9373 -0.1074
4.8652 -2.9997 -0.1162
4.8962 -3.0658 -0.1211
4.9275 -3.1328 -0.1259
4.9413 -3.2016 -0.1266
4.9372 -3.2707 -0.1230
4.9509 -3.3390 -0.1237
5.0765 -3.4118 -0.1506
5.0717 -3.4819 -0.1469
5.0859 -3.5528 -0.1475
5.1001 -3.6236 -0.1482
5.1143 -3.6945 -0.1489
4.9959 -3.7424 -0.1191
4.8110 -3.7703 -0.0745
5.1173 -3.8983 -0.1420
5.2117 -3.9881 -0.1608
5.3122 -4.0837 -0.1810
5.1592 -4.1077 -0.1440
4.9174 -4.1535 -0.0852
5.0672 -4.2674 -0.1162
5.1365 -4.3559 -0.1293
5.2291 -4.4568 -0.1473
5.2844 -4.5449 -0.1571
5.3193 -4.6255 -0.1623
5.3556 -4.7076 -0.1678
5.3059 -4.7468 -0.1545
5.3200 -4.8172 -0.1552
5.3988 -4.9234 -0.1698
5.3908 -4.9824 -0.1657
5.3836 -5.0410 -0.1618
5.3333 -5.0719 -0.1488
5.4336 -5.1966 -0.1678
4.4123 -1.4032 -0.1371
3.9923 -1.8789 -0.0049
3.9631 -1.9647 0.0065
3.9805 -2.0070 0.0038
3.9675 -2.0750 0.0102
4.0077 -2.0991 0.0005
3.9945 -2.1659 0.0069
4.0774 -2.1617 -0.0152
4.2826 -2.1437 -0.0705
4.3273 -2.1800 -0.0808
4.3972 -2.2042 -0.0982
4.2634 -2.3430 -0.0567
4.4210 -2.3235 -0.0994
4.4455 -2.3771 -0.1036
4.4449 -2.4428 -0.1005
4.4568 -2.5024 -0.1011
4.4687 -2.5621 -0.1017
4.4936 -2.6173 -0.1059
4.5056 -2.6773 -0.1064
4.4672 -2.7515 -0.0930
4.4790 -2.8100 -0.0936
4.4907 -2.8686 -0.0942
4.5147 -2.9248 -0.0981
4.5265 -2.9837 -0.0987
4.5383 -3.0426 -0.0992
4.5501 -3.1015 -0.0998
4.5492 -3.1613 -0.0970
4.5609 -3.2198 -0.0975
4.5599 -3.2786 -0.0947
4.5844 -3.3369 -0.0987
4.6229 -3.3966 -0.1063
4.6347 -3.4559 -0.1069
4.7310 -3.5232 -0.1295
4.7726 -3.5884 -0.1377
4.7556 -3.6464 -0.1306
4.6679 -3.6905 -0.1055
4.7074 -3.7550 -0.1131
4.8225 -3.8380 -0.1401
4.8993 -3.9167 -0.1570
4.8642 -3.9675 -0.1455
4.9417 -4.0500 -0.1625
4.8724 -4.0877 -0.1425
4.7091 -4.0883 -0.0991
4.8825 -4.2069 -0.1399
4.9591 -4.2945 -0.1565
4.8912 -4.3241 -0.1371
4.8419 -4.3582 -0.1226
4.8539 -4.4182 -0.1232
4.9937 -4.5412 -0.1549
4.9086 -4.5541 -0.1318
4.8899 -4.5983 -0.1249
4.9818 -4.7030 -0.1447
5.0098 -4.7741 -0.1491
5.0738 -4.8676 -0.1620
5.1045 -4.9425 -0.1669
5.1535 -5.0300 -0.1761
4.2056 -1.4546 -0.1422
4.1153 -1.6194 -0.1074
3.9044 -1.9532 -0.0286
3.9436 -1.9735 -0.0392
3.9999 -1.9812 -0.0555
4.0602 -1.9892 -0.0729
4.0883 -2.0268 -0.0793
3.9825 -2.1678 -0.0411
3.9769 -2.2276 -0.0365
4.2675 -2.0821 -0.1295
4.2686 -2.1460 -0.1266
4.2799 -2.2028 -0.1272
4.2913 -2.2595 -0.1277
4.3247 -2.3676 -0.1322
4.3254 -2.4299 -0.1293
4.3143 -2.4966 -0.1228
4.3589 -2.5390 -0.1338
4.3598 -2.6608 -0.1281
4.3592 -2.7210 -0.1249
4.3824 -2.7737 -0.1292
4.4049 -2.8273 -0.1331
4.3703 -2.8942 -0.1196
4.4041 -2.9453 -0.1271
4.3925 -3.0050 -0.1207
4.4265 -3.0575 -0.1281
4.4617 -3.1112 -0.1359
4.4971 -3.1663 -0.1436
4.4728 -3.2252 -0.1335
4.4841 -3.2817 -0.1340
4.5189 -3.3385 -0.1415
4.5185 -3.3951 -0.1386
4.5546 -3.4536 -0.1464
4.6050 -3.5149 -0.1582
4.5776 -3.5686 -0.1475
4.5696 -3.9438 -0.1265
4.5921 -4.0027 -0.1303
4.6158 -4.0626 -0.1343
4.6661 -4.1332 -0.1457
4.7873 -4.5532 -0.1607
4.8871 -4.6608 -0.1848
4.7961 -4.6604 -0.1580
4.7519 -4.6841 -0.1438
4.7363 -4.7233 -0.1372
4.8159 -4.8233 -0.1558
3.8418 -1.9488 -0.0595
3.9439 -1.9057 -0.0951
3.9620 -1.9474 -0.0987
3.9793 -1.9905 -0.1019
3.9893 -2.0403 -0.1024
3.9993 -2.0902 -0.1029
3.9932 -2.1523 -0.0975
3.9497 -2.2406 -0.0784
3.8689 -2.3509 -0.0460
4.0391 -2.2896 -0.1048
4.0578 -2.3341 -0.1084
4.0765 -2.3792 -0.1120
4.0778 -2.4344 -0.1094
4.0790 -2.4891 -0.1067
4.0890 -2.5389 -0.1072
4.0910 -2.5924 -0.1049
4.0919 -2.6457 -0.1022
4.0937 -2.6981 -0.0999
4.1035 -2.7472 -0.1004
4.1051 -2.7988 -0.0980
4.1066 -2.8500 -0.0957
4.1413 -2.8923 -0.1046
4.1511 -2.9417 -0.1051
4.1704 -2.9892 -0.1087
4.1803 -3.0388 -0.1092
4.1807 -3.0897 -0.1065
4.1906 -3.1390 -0.1070
4.2187 -3.1871 -0.1134
4.2286 -3.2369 -0.1139
4.2299 -3.2869 -0.1115
4.2398 -3.3365 -0.1120
4.2311 -3.3853 -0.1065
4.2321 -3.4337 -0.1041
4.2597 -3.4843 -0.1103
4.2606 -3.5325 -0.1079
4.2794 -3.5830 -0.1112
4.3286 -3.6394 -0.1241
4.3387 -3.6898 -0.1246
4.3386 -3.7378 -0.1219
4.3384 -3.7853 -0.1192
4.4204 -3.8556 -0.1420
4.4525 -3.9141 -0.1492
4.4515 -3.9626 -0.1461
4.4734 -4.0188 -0.1502
4.4839 -4.0712 -0.1507
4.5631 -4.1515 -0.1720
4.6102 -4.6543 -0.1594
4.5750 -4.6769 -0.1467
3.7621 -1.9128 -0.0832
3.7535 -1.9757 -0.0763
3.8304 -1.9507 -0.1052
3.8954 -1.9429 -0.1288
3.8904 -2.0046 -0.1232
3.8860 -2.0645 -0.1179
3.8880 -2.1179 -0.1154
3.9115 -2.1534 -0.1215
3.9284 -2.1949 -0.1250
3.8237 -2.3265 -0.0796
3.8578 -2.3526 -0.0902
3.9647 -2.3327 -0.1294
3.9742 -2.3805 -0.1299
3.9761 -2.4329 -0.1273
3.9778 -2.4848 -0.1247
3.9802 -2.5358 -0.1225
3.9897 -2.5829 -0.1229
3.9841 -2.6368 -0.1176
4.0085 -2.6772 -0.1238
4.0891 -2.9546 -0.1354
4.0815 -3.2443 -0.1149
4.1388 -3.2897 -0.1325
4.1405 -3.3369 -0.1302
4.1752 -3.3852 -0.1396
4.1521 -3.4766 -0.1257
4.1693 -3.5243 -0.1289
4.1628 -3.5687 -0.1238
4.1551 -3.6120 -0.1184
4.1735 -3.7040 -0.1193
4.2254 -3.7611 -0.1342
4.2348 -3.8082 -0.1347
4.2894 -3.8694 -0.1504
4.2805 -3.9115 -0.1446
4.2807 -3.9560 -0.1419
4.2903 -4.0036 -0.1424
4.2725 -4.0400 -0.1338
4.3093 -4.0988 -0.1433
4.3188 -4.1464 -0.1438
4.3006 -4.1806 -0.1352
4.3379 -4.2415 -0.1447
4.3377 -4.2840 -0.1420
4.3569 -4.4619 -0.1379
4.3668 -4.5498 -0.1360
3.7080 -1.9094 -0.1108
3.6994 -1.9717 -0.1033
3.7079 -2.0143 -0.1037
3.7395 -2.0335 -0.1146
3.7722 -2.0534 -0.1259
3.7690 -2.1090 -0.1209
3.7485 -2.1790 -0.1082
3.7686 -2.2121 -0.1137
3.7830 -2.2506 -0.1167
3.7801 -2.3031 -0.1120
3.7595 -2.3677 -0.0997
3.7562 -2.4180 -0.0949
3.7882 -2.4440 -0.1056
3.8086 -2.4790 -0.1111
3.8291 -2.5148 -0.1166
3.8257 -2.5647 -0.1119
3.8221 -2.6139 -0.1072
3.8245 -2.6593 -0.1050
3.8207 -2.7071 -0.1003
3.8724 -2.7309 -0.1187
3.8686 -2.7790 -0.1140
3.8584 -2.8284 -0.1067
3.8731 -2.8687 -0.1096
3.8816 -2.9111 -0.1101
3.8837 -2.9552 -0.1079
3.8858 -2.9989 -0.1057
3.8942 -3.0410 -0.1061
3.8961 -3.0841 -0.1039
3.9045 -3.1260 -0.1043
3.9260 -3.1666 -0.1099
3.9345 -3.2088 -0.1103
3.9363 -3.2514 -0.1081
3.9581 -3.2933 -0.1137
3.9397 -3.3353 -0.1038
3.9886 -3.3789 -0.1197
3.9563 -3.4187 -0.1046
3.9715 -3.4611 -0.1076
3.9799 -3.5030 -0.1080
4.0150 -3.5490 -0.1184
3.9837 -3.5843 -0.1039
3.9981 -3.6271 -0.1066
4.0275 -3.6738 -0.1148
4.0430 -3.7180 -0.1178
4.0657 -3.7646 -0.1234
4.0110 -3.7875 -0.1007
4.0336 -3.8335 -0.1063
4.1059 -3.8984 -0.1299
4.0855 -3.9303 -0.1198
4.1086 -3.9788 -0.1255
4.1245 -4.0249 -0.1285
4.1637 -4.0821 -0.1398
4.1503 -4.1540 -0.1298
4.1365 -4.1851 -0.1223
4.1676 -4.2401 -0.1306
4.1913 -4.2919 -0.1363
4.1848 -4.3262 -0.1314
4.2251 -4.3890 -0.1428
4.2251 -4.4272 -0.1402
4.2106 -4.4553 -0.1327
3.6222 -1.8966 -0.1232
3.6412 -1.9248 -0.1290
3.6341 -1.9842 -0.1217
3.6321 -2.0364 -0.1170
3.6551 -2.0611 -0.1248
3.6634 -2.1023 -0.1252
3.6621 -2.1528 -0.1209
3.6702 -2.1936 -0.1213
3.6832 -2.2301 -0.1240
3.6914 -2.2710 -0.1244
3.6947 -2.3160 -0.1225
3.7078 -2.3530 -0.1252
3.7111 -2.3977 -0.1232
3.7134 -2.4426 -0.1209
3.7215 -2.4832 -0.1213
3.7246 -2.5270 -0.1193
3.7437 -2.5609 -0.1248
3.7519 -2.6017 -0.1252
3.7540 -2.6457 -0.1228
3.7518 -2.6914 -0.1185
3.7651 -2.7293 -0.1212
3.7732 -2.7697 -0.1216
3.7812 -2.8102 -0.1220
3.7885 -2.9364 -0.1157
3.7910 -2.9777 -0.1137
3.7771 -3.1030 -0.0986
3.8485 -3.1748 -0.1231
3.8784 -3.2956 -0.1267
3.9210 -3.4184 -0.1354
3.9049 -3.4568 -0.1258
3.9003 -3.4954 -0.1211
3.9142 -3.5363 -0.1238
3.9409 -3.5799 -0.1318
3.9491 -3.6205 -0.1322
3.9222 -3.6903 -0.1158
3.9613 -3.7388 -0.1286
4.0111 -3.8692 -0.1397
4.0255 -3.9126 -0.1426
4.0410 -3.9567 -0.1458
4.0357 -3.9921 -0.1409
4.0303 -4.0267 -0.1361
4.0458 -4.0709 -0.1393
4.0339 -4.1014 -0.1320
4.0483 -4.1452 -0.1348
4.0703 -4.1934 -0.1405
4.0785 -4.2342 -0.1409
4.0726 -4.2665 -0.1360
4.1013 -4.3199 -0.1441
4.0953 -4.3517 -0.1392
3.4047 -2.1999 -0.0461
3.5291 -2.0962 -0.1105
3.5405 -2.1294 -0.1130
3.5441 -2.1713 -0.1113
3.5602 -2.2000 -0.1162
3.5591 -2.2464 -0.1120
3.5453 -2.3043 -0.1011
3.5830 -2.3135 -0.1173
3.6082 -2.3361 -0.1269
3.5932 -2.3933 -0.1155
3.5878 -2.4412 -0.1092
3.5952 -2.4785 -0.1095
3.5985 -2.5187 -0.1078
3.6143 -2.5502 -0.1123
3.6084 -2.5961 -0.1060
3.6208 -2.6300 -0.1089
3.6604 -2.6491 -0.1252
3.6305 -2.7070 -0.1071
3.6165 -2.7544 -0.0969
3.6410 -2.7828 -0.1057
3.6353 -2.8251 -0.0997
3.6697 -2.8510 -0.1131
3.6587 -2.8948 -0.1046
3.6705 -2.9301 -0.1071
3.6645 -2.9707 -0.1011
3.6673 -3.0083 -0.0993
3.6880 -3.0415 -0.1060
3.6763 -3.0818 -0.0975
3.6835 -3.1179 -0.0978
3.7009 -3.1527 -0.1028
3.7266 -3.1873 -0.1117
3.7294 -3.2246 -0.1099
3.7517 -3.2608 -0.1170
3.7394 -3.2983 -0.1085
3.7562 -3.3351 -0.1131
3.7541 -3.3716 -0.1092
3.7710 -3.4090 -0.1138
3.7938 -3.4476 -0.1210
3.7809 -3.4823 -0.1124
3.7883 -3.5191 -0.1127
3.8064 -3.5580 -0.1178
3.8030 -3.5927 -0.1134
3.8104 -3.6295 -0.1138
3.8227 -3.6677 -0.1163
3.8301 -3.7046 -0.1166
3.8375 -3.7416 -0.1170
3.8611 -3.7842 -0.1242
3.8421 -3.8117 -0.1134
3.8710 -3.8569 -0.1228
3.8784 -3.8942 -0.1231
3.9024 -3.9388 -0.1304
3.8819 -3.9633 -0.1191
3.9060 -4.0085 -0.1263
3.9135 -4.0459 -0.1267
3.9326 -4.0896 -0.1318
3.9518 -4.1339 -0.1369
3.9541 -4.1688 -0.1351
3.9380 -4.1922 -0.1260
3.9282 -4.2186 -0.1194
3.9475 -4.2632 -0.1245
3.9484 -4.2959 -0.1223
3.4226 -2.1264 -0.0982
3.3746 -2.2278 -0.0662
3.3932 -2.2461 -0.0736
3.4685 -2.2015 -0.1138
3.4833 -2.2286 -0.1186
3.4905 -2.2643 -0.1190
3.4976 -2.3001 -0.1193
3.5047 -2.3358 -0.1197
3.5000 -2.3823 -0.1133
3.4920 -2.4308 -0.1052
3.4989 -2.4656 -0.1055
3.5026 -2.5029 -0.1041
3.5242 -2.5266 -0.1124
3.5383 -2.5969 -0.1131
3.5762 -2.6929 -0.1231
3.5791 -2.7308 -0.1212
3.5981 -2.7605 -0.1278
3.5890 -2.8039 -0.1196
3.5599 -2.8547 -0.1011
3.6285 -3.1974 -0.1044
3.6307 -3.2320 -0.1025
3.6375 -3.2662 -0.1028
3.6406 -3.3003 -0.1013
3.6597 -3.3346 -0.1075
3.6798 -3.3697 -0.1142
3.6696 -3.4031 -0.1064
3.6717 -3.4369 -0.1045
3.6747 -3.4705 -0.1030
3.7523 -3.6856 -0.1218
3.7683 -3.7236 -0.1262
3.7955 -3.7659 -0.1357
3.7926 -3.7980 -0.1314
3.8139 -3.8393 -0.1382
3.8017 -3.8670 -0.1298
3.8037 -3.9001 -0.1279
3.8427 -3.9831 -0.1395
3.8457 -4.0169 -0.1381
3.8372 -4.0441 -0.1315
3.8495 -4.0826 -0.1342
3.8619 -4.1213 -0.1368
3.8691 -4.1570 -0.1371
3.8859 -4.1989 -0.1416
3.8743 -4.2531 -0.1313
3.3616 -2.1116 -0.1068
3.3653 -2.1485 -0.1052
3.3778 -2.1739 -0.1093
3.3725 -2.2218 -0.1021
3.3761 -2.2580 -0.1005
3.3977 -2.2735 -0.1102
3.4013 -2.3100 -0.1087
3.4049 -2.3463 -0.1071
3.4084 -2.3823 -0.1055
3.4181 -2.4122 -0.1077
3.4246 -2.4451 -0.1081
3.4415 -2.4690 -0.1145
3.4346 -2.5137 -0.1068
3.4412 -2.5465 -0.1071
3.4413 -2.5843 -0.1036
3.4511 -2.6146 -0.1059
3.4675 -2.6406 -0.1119
3.4741 -2.6737 -0.1122
3.4807 -2.7067 -0.1125
3.4706 -2.7493 -0.1033
3.4662 -2.7876 -0.0974
3.4938 -2.8093 -0.1096
3.4935 -2.8452 -0.1061
3.5035 -2.8764 -0.1084
3.5066 -2.9105 -0.1068
3.5131 -2.9431 -0.1071
3.5197 -2.9757 -0.1074
3.5183 -3.0106 -0.1034
3.5398 -3.0392 -0.1118
3.5499 -3.0712 -0.1141
3.5493 -3.1055 -0.1106
3.5559 -3.1383 -0.1109
3.5588 -3.1715 -0.1093
3.5571 -3.2049 -0.1053
3.5755 -3.2365 -0.1118
3.5784 -3.2693 -0.1102
3.5812 -3.3020 -0.1086
3.5756 -3.3342 -0.1027
3.5980 -3.3672 -0.1112
3.6083 -3.4001 -0.1134
3.6110 -3.4324 -0.1118
3.6214 -3.4656 -0.1140
3.6010 -3.4938 -0.1009
3.6267 -3.5296 -0.1108
3.6410 -3.5638 -0.1150
3.6476 -3.5965 -0.1153
3.6502 -3.6282 -0.1137
3.6369 -3.6548 -0.1043
3.6712 -3.6960 -0.1182
3.6697 -3.7260 -0.1146
3.6843 -3.7617 -0.1188
3.6949 -3.7962 -0.1210
3.7056 -3.8309 -0.1233
3.6867 -3.8524 -0.1115
3.7024 -3.8891 -0.1162
3.7388 -3.9368 -0.1305
3.7725 -3.9844 -0.1435
3.7345 -3.9939 -0.1229
3.7453 -4.0293 -0.1252
3.7614 -4.0680 -0.1299
3.7765 -4.1065 -0.1341
3.7651 -4.1284 -0.1261
3.7503 -4.1473 -0.1167
3.7396 -4.1680 -0.1093
3.7579 -4.2085 -0.1149
3.3281 -2.1886 -0.1179
3.3286 -2.2280 -0.1142
3.3378 -2.2560 -0.1165
3.3502 -2.2806 -0.1208
3.3565 -2.3126 -0.1211
3.3569 -2.3512 -0.1174
3.3541 -2.3926 -0.1118
3.3727 -2.4116 -0.1200
3.3906 -2.4322 -0.1278
3.3916 -2.4695 -0.1246
3.3886 -2.5099 -0.1190
3.3950 -2.5416 -0.1193
3.3886 -2.5836 -0.1116
3.4077 -2.6051 -0.1199
3.4076 -2.6415 -0.1162
3.4204 -2.6686 -0.1205
3.4137 -2.7088 -0.1128
3.4328 -2.7676 -0.1174
3.4458 -2.7955 -0.1217
3.4450 -2.8653 -0.1143
3.4609 -2.9265 -0.1169
3.4638 -2.9592 -0.1152
3.4770 -2.9882 -0.1195
3.4798 -3.0208 -0.1178
3.5013 -3.1470 -0.1170
3.5039 -3.2105 -0.1120
3.5185 -3.3342 -0.1076
3.5219 -3.3648 -0.1064
3.5411 -3.3965 -0.1138
3.5507 -3.4581 -0.1129
3.5530 -3.4883 -0.1111
3.6196 -3.6830 -0.1282
3.6418 -3.7202 -0.1367
3.6403 -3.7493 -0.1329
3.6577 -3.7856 -0.1388
3.6570 -3.8147 -0.1355
3.6634 -3.8467 -0.1358
3.6698 -3.8786 -0.1362
3.6704 -3.9920 -0.1251
3.6767 -4.0233 -0.1254
3.6829 -4.0546 -0.1257
3.6934 -4.0886 -0.1280
3.6750 -4.1300 -0.1137
3.2647 -2.2644 -0.1090
3.2706 -2.2942 -0.1093
3.2868 -2.3111 -0.1169
3.2899 -2.3448 -0.1151
3.2959 -2.3748 -0.1154
3.2922 -2.4156 -0.1088
3.3004 -2.4428 -0.1107
3.3040 -2.4749 -0.1094
3.2969 -2.5172 -0.1007
3.3159 -2.5341 -0.1100
3.3164 -2.5686 -0.1066
3.3223 -2.5981 -0.1069
3.3258 -2.6294 -0.1056
3.3285 -2.6612 -0.1037
3.3423 -2.6847 -0.1093
3.3539 -2.7103 -0.1133
3.3542 -2.7438 -0.1099
3.3601 -2.7733 -0.1101
3.3693 -2.8009 -0.1125
3.3752 -2.8306 -0.1128
3.3728 -2.8644 -0.1078
3.3753 -2.8953 -0.1060
3.3846 -2.9231 -0.1084
3.3930 -2.9515 -0.1102
3.3852 -2.9858 -0.1020
3.4048 -3.0104 -0.1108
3.4132 -3.0391 -0.1127
3.4139 -3.0700 -0.1098
3.4224 -3.0987 -0.1117
3.4345 -3.1270 -0.1157
3.4200 -3.1599 -0.1037
3.4339 -3.1879 -0.1088
3.4433 -3.2168 -0.1112
3.4492 -3.2462 -0.1115
3.4551 -3.2755 -0.1118
3.4545 -3.3049 -0.1083
3.4668 -3.3343 -0.1123
3.4662 -3.3633 -0.1089
3.4841 -3.3935 -0.1161
3.4872 -3.4227 -0.1148
3.4837 -3.4508 -0.1097
3.4962 -3.4811 -0.1137
3.5021 -3.5105 -0.1140
3.5079 -3.5399 -0.1143
3.5167 -3.5700 -0.1162
3.5226 -3.5994 -0.1165
3.5314 -3.6298 -0.1184
3.5412 -3.6606 -0.1208
3.5304 -3.6842 -0.1119
3.5531 -3.7199 -0.1214
3.5520 -3.7467 -0.1179
3.5750 -3.7836 -0.1273
3.5779 -3.8121 -0.1260
3.5900 -3.8449 -0.1295
3.5787 -3.8660 -0.1206
3.5743 -3.8901 -0.1155
3.5740 -3.9159 -0.1126
3.5902 -3.9510 -0.1182
3.5919 -3.9778 -0.1164
3.6082 -4.0137 -0.1221
3.6036 -4.0364 -0.1169
3.6031 -4.0613 -0.1140
3.6089 -4.0904 -0.1142
3.6212 -4.1241 -0.1178
3.2331 -2.3348 -0.1155
3.2431 -2.3579 -0.1191
3.2445 -2.3919 -0.1160
3.2546 -2.4154 -0.1196
3.2581 -2.4466 -0.1182
3.2616 -2.4777 -0.1168
3.2696 -2.5039 -0.1188
3.2799 -2.5281 -0.1224
3.2834 -2.5590 -0.1210
3.2868 -2.5899 -0.1196
3.2949 -2.6165 -0.1215
3.2891 -2.6874 -0.1099
3.3073 -2.7062 -0.1190
3.3202 -2.7298 -0.1243
3.3260 -2.7586 -0.1246
3.3245 -2.7919 -0.1199
3.3302 -2.8205 -0.1201
3.3622 -3.0530 -0.1134
3.3601 -3.0831 -0.1086
3.3607 -3.1409 -0.1025
3.3794 -3.1664 -0.1111
3.3771 -3.1953 -0.1063
3.3799 -3.2233 -0.1049
3.4016 -3.2499 -0.1153
3.4240 -3.3344 -0.1195
3.4158 -3.3619 -0.1113
3.4159 -3.3893 -0.1082
3.4326 -3.4456 -0.1121
3.4350 -3.5259 -0.1045
3.4549 -3.5571 -0.1132
3.4689 -3.6138 -0.1154
3.5103 -3.7072 -0.1303
3.5059 -3.7575 -0.1218
3.5232 -3.8169 -0.1258
3.5341 -3.8986 -0.1232
3.5459 -3.9304 -0.1269
3.5485 -3.9569 -0.1254
3.5504 -4.0073 -0.1209
3.5528 -4.0332 -0.1194
3.5553 -4.0589 -0.1180
3.5513 -4.0799 -0.1132
3.1918 -2.3810 -0.1159
3.1972 -2.4082 -0.1162
3.2048 -2.4328 -0.1182
3.2016 -2.4704 -0.1115
3.2070 -2.4974 -0.1117
3.2124 -2.5244 -0.1120
3.2140 -2.5553 -0.1093
3.2254 -2.5762 -0.1143
3.2271 -2.6068 -0.1116
3.2324 -2.6338 -0.1119
3.2332 -2.6647 -0.1086
3.2386 -2.6915 -0.1089
3.2393 -2.7219 -0.1056
3.2469 -2.7468 -0.1077
3.2499 -2.7751 -0.1062
3.2489 -2.8059 -0.1017
3.2606 -2.8283 -0.1067
3.2659 -2.8550 -0.1069
3.2712 -2.8816 -0.1072
3.2790 -2.9069 -0.1092
3.2843 -2.9336 -0.1094
3.2872 -2.9614 -0.1079
3.2975 -2.9860 -0.1117
3.3054 -3.0119 -0.1137
3.3015 -3.0418 -0.1075
3.3042 -3.0691 -0.1060
3.3138 -3.0944 -0.1092
3.3243 -3.1199 -0.1130
3.3270 -3.1472 -0.1115
3.3324 -3.1739 -0.1118
3.3281 -3.2018 -0.1055
3.3404 -3.2275 -0.1105
3.3511 -3.2538 -0.1143
3.3564 -3.2805 -0.1145
3.3672 -3.3073 -0.1183
3.3617 -3.3339 -0.1115
3.3652 -3.3604 -0.1106
3.3852 -3.3883 -0.1203
3.3777 -3.4138 -0.1123
3.3858 -3.4408 -0.1143
3.3864 -3.4667 -0.1116
3.3965 -3.4942 -0.1148
3.3942 -3.5191 -0.1104
3.3995 -3.5456 -0.1106
3.4020 -3.5712 -0.1091
3.4236 -3.6028 -0.1194
3.4203 -3.6267 -0.1143
3.4256 -3.6533 -0.1146
3.4309 -3.6799 -0.1148
3.4362 -3.7065 -0.1151
3.4445 -3.7344 -0.1171
3.4499 -3.7611 -0.1174
3.4522 -3.7863 -0.1159
3.4666 -3.8176 -0.1215
3.4831 -3.8506 -0.1283
3.4682 -3.8662 -0.1166
3.4796 -3.8964 -0.1205
3.4850 -3.9232 -0.1207
3.4821 -3.9447 -0.1162
3.4926 -3.9747 -0.1194
3.5010 -4.0035 -0.1215
3.4917 -4.0199 -0.1134
3.1535 -2.4566 -0.1115
3.1572 -2.4842 -0.1106
3.1660 -2.5057 -0.1139
3.1712 -2.5316 -0.1141
3.1705 -2.5639 -0.1095
3.1852 -2.5795 -0.1177
3.1942 -2.6018 -0.1209
3.1919 -2.6352 -0.1151
3.1872 -2.6700 -0.1074
3.1924 -2.6955 -0.1077
3.1959 -2.7223 -0.1067
3.2064 -2.7436 -0.1112
3.2077 -2.7721 -0.1084
3.2218 -2.8206 -0.1120
3.2316 -2.9007 -0.1084
3.2408 -2.9241 -0.1117
3.2529 -3.0296 -0.1066
3.2706 -3.0508 -0.1160
3.3105 -3.3084 -0.1105
3.3228 -3.3340 -0.1157
3.3427 -3.4114 -0.1195
3.3367 -3.4842 -0.1060
3.3605 -3.5138 -0.1186
3.3843 -3.6414 -0.1186
3.3962 -3.6697 -0.1232
3.4144 -3.7249 -0.1286
3.4196 -3.7509 -0.1289
3.4297 -3.7794 -0.1323
3.4250 -3.8004 -0.1263
3.4051 -3.8125 -0.1110
3.4152 -3.8629 -0.1115
3.4253 -3.8912 -0.1149
3.4324 -3.9179 -0.1163
3.4303 -3.9385 -0.1122
3.4477 -3.9941 -0.1171
3.4328 -4.0048 -0.1055
3.0522 -2.5236 -0.0593
3.0720 -2.5255 -0.0734
3.1267 -2.4840 -0.1187
3.1281 -2.5134 -0.1157
3.1331 -2.5383 -0.1160
3.1381 -2.5632 -0.1162
3.1343 -2.5976 -0.1088
3.1480 -2.6129 -0.1167
3.1530 -2.6378 -0.1169
3.1476 -2.6727 -0.1083
3.1540 -2.6958 -0.1098
3.1536 -2.7250 -0.1056
3.1653 -2.7436 -0.1115
3.1649 -2.7724 -0.1073
3.1752 -2.7928 -0.1120
3.1715 -2.8235 -0.1052
3.1819 -2.8441 -0.1099
3.1813 -2.8720 -0.1057
3.1948 -2.8912 -0.1129
3.1966 -2.9176 -0.1106
3.2015 -2.9420 -0.1109
3.1991 -2.9700 -0.1053
3.2088 -2.9921 -0.1094
3.2178 -3.0148 -0.1128
3.2211 -3.0400 -0.1118
3.2235 -3.0653 -0.1101
3.2325 -3.0885 -0.1135
3.2374 -3.1130 -0.1138
3.2407 -3.1379 -0.1127
3.2430 -3.1629 -0.1110
3.2479 -3.1873 -0.1113
3.2553 -3.2114 -0.1134
3.2559 -3.2363 -0.1105
3.2651 -3.2604 -0.1139
3.2621 -3.2851 -0.1084
3.2705 -3.3093 -0.1112
3.2861 -3.3340 -0.1191
3.2847 -3.3583 -0.1149
3.2869 -3.3826 -0.1132
3.2945 -3.4073 -0.1153
3.2967 -3.4314 -0.1136
3.2961 -3.4548 -0.1100
3.3065 -3.4802 -0.1141
3.3160 -3.5057 -0.1176
3.3190 -3.5297 -0.1165
3.3324 -3.5567 -0.1225
3.3355 -3.5808 -0.1215
3.3337 -3.6032 -0.1172
3.3357 -3.6266 -0.1155
3.3387 -3.6502 -0.1144
3.3523 -3.6783 -0.1205
3.3689 -3.7082 -0.1285
3.3670 -3.7299 -0.1242
3.3562 -3.7466 -0.1141
3.3631 -3.7720 -0.1156
3.3638 -3.8154 -0.1102
3.3736 -3.8426 -0.1137
3.3805 -3.8681 -0.1152
3.3874 -3.8937 -0.1168
3.3882 -3.9153 -0.1144
3.4023 -3.9460 -0.1205
3.4020 -3.9668 -0.1175
3.4048 -3.9896 -0.1164
3.0394 -2.5060 -0.0786
3.0466 -2.5245 -0.0815
3.0622 -2.5320 -0.0922
3.0884 -2.5267 -0.1130
3.0995 -2.5426 -0.1192
3.0993 -2.5725 -0.1148
3.0962 -2.6054 -0.1077
3.1056 -2.6524 -0.1081
3.1216 -2.6929 -0.1146
3.1279 -2.7153 -0.1161
3.1244 -2.7464 -0.1091
3.1291 -2.7699 -0.1093
3.1376 -2.7903 -0.1128
3.1370 -2.8180 -0.1084
3.1417 -2.8680 -0.1049
3.1511 -2.8883 -0.1091
3.1573 -2.9370 -0.1069
3.1635 -2.9595 -0.1084
3.1666 -2.9836 -0.1073
3.1776 -3.0296 -0.1091
3.1724 -3.0566 -0.1013
3.1963 -3.1231 -0.1100
3.2009 -3.1465 -0.1102
3.2137 -3.1928 -0.1133
3.2150 -3.2167 -0.1109
3.2191 -3.2638 -0.1073
3.2325 -3.2867 -0.1142
3.2348 -3.3335 -0.1093
3.2341 -3.3564 -0.1055
3.2495 -3.3805 -0.1138
3.2563 -3.4495 -0.1091
3.2758 -3.5207 -0.1138
3.2917 -3.5915 -0.1158
3.3097 -3.6419 -0.1223
3.3222 -3.6689 -0.1280
3.3326 -3.8222 -0.1140
3.3373 -3.8455 -0.1142
3.3480 -3.8728 -0.1185
3.3492 -3.9139 -0.1136
3.3600 -3.9416 -0.1178
3.0334 -2.4785 -0.1046
3.0393 -2.4990 -0.1062
3.0465 -2.5177 -0.1092
3.0428 -2.5516 -0.1011
3.0556 -2.5630 -0.1096
