ply
format ascii 1.0
element vertex 2113
property float x
property float y
property float z
end_header
2.9716 -3.6330 -0.1703
2.9649 -3.6004 -0.1716
2.9574 -3.5596 -0.1636
2.9510 -3.5252 -0.1588
2.9455 -3.4979 -0.1586
2.9358 -3.4519 -0.1621
2.9271 -3.4114 -0.1661
2.9228 -3.3880 -0.1622
2.9188 -3.3666 -0.1591
2.9117 -3.3314 -0.1588
2.9053 -3.2997 -0.1584
2.8996 -3.2718 -0.1595
2.8943 -3.2457 -0.1593
2.8918 -3.2327 -0.1577
2.8895 -3.2193 -0.1544
2.8851 -3.1977 -0.1544
2.8830 -3.1892 -0.1581
2.8810 -3.1803 -0.1602
2.8790 -3.1710 -0.1606
3.9792 -7.5517 0.8683
3.5347 -5.8428 0.2561
3.5855 -6.1023 0.1702
3.5688 -6.1613 -0.1491
3.4498 -5.6592 -0.2063
3.1695 -4.4118 -0.1831
3.1527 -4.3446 -0.2001
3.1190 -4.1843 -0.1718
3.0996 -4.0980 -0.1702
3.0838 -4.0292 -0.1729
3.0647 -3.9396 -0.1604
3.0526 -3.8883 -0.1651
3.0293 -3.7859 -0.1662
3.0094 -3.6978 -0.1659
2.9940 -3.6333 -0.1743
2.9764 -3.5484 -0.1567
2.9645 -3.4973 -0.1608
2.9587 -3.4713 -0.1600
2.9539 -3.4528 -0.1656
2.9436 -3.4054 -0.1613
2.9393 -3.3873 -0.1634
2.9350 -3.3680 -0.1630
2.9269 -3.3307 -0.1594
2.9196 -3.2976 -0.1566
2.9163 -3.2829 -0.1562
2.9133 -3.2704 -0.1584
2.9103 -3.2576 -0.1590
2.9073 -3.2424 -0.1544
2.9020 -3.2186 -0.1538
2.8973 -3.2011 -0.1622
2.8949 -3.1903 -0.1609
2.8927 -3.1791 -0.1578
3.6277 -5.9403 0.2346
3.6381 -6.0070 0.1598
3.7929 -6.7037 -0.0737
3.6595 -6.1748 -0.0880
3.6512 -6.1687 -0.1685
3.5160 -5.6447 -0.2183
3.2961 -4.7479 -0.1649
3.2051 -4.3901 -0.1827
3.1790 -4.2854 -0.1827
3.1478 -4.1550 -0.1653
3.1306 -4.0887 -0.1721
3.1127 -4.0171 -0.1726
3.0944 -3.9423 -0.1675
3.0677 -3.8368 -0.1718
3.0565 -3.7935 -0.1759
3.0210 -3.6465 -0.1600
3.0132 -3.6169 -0.1644
2.9964 -3.5478 -0.1593
2.9884 -3.5143 -0.1544
2.9825 -3.4919 -0.1582
2.9711 -3.4475 -0.1623
2.9603 -3.4047 -0.1626
2.9555 -3.3859 -0.1637
2.9506 -3.3651 -0.1611
2.9465 -3.3499 -0.1644
2.9419 -3.3306 -0.1610
2.9340 -3.2982 -0.1590
2.9307 -3.2862 -0.1627
2.9269 -3.2697 -0.1584
2.9239 -3.2588 -0.1622
2.9206 -3.2449 -0.1598
2.9177 -3.2338 -0.1615
2.9146 -3.2204 -0.1579
2.9093 -3.1993 -0.1588
2.9068 -3.1908 -0.1624
2.9044 -3.1813 -0.1631
4.2641 -7.7440 1.2071
4.1595 -7.3995 1.0648
4.1286 -7.3122 0.9678
4.1642 -7.4607 0.8990
3.6819 -5.8781 0.2215
3.7198 -6.0383 0.1401
3.7481 -6.1649 0.0532
3.7409 -6.1592 -0.0241
3.7193 -6.0989 -0.0944
3.6514 -5.8816 -0.2108
3.6030 -5.7150 -0.2497
3.4877 -5.2840 -0.2130
3.3960 -4.9396 -0.1790
3.3332 -4.7057 -0.1618
3.2711 -4.4839 -0.1820
3.2411 -4.3752 -0.1847
3.2170 -4.2888 -0.1916
3.1825 -4.1582 -0.1735
3.1581 -4.0671 -0.1677
3.1190 -3.9229 -0.1620
3.0902 -3.8185 -0.1651
3.0632 -3.7183 -0.1593
3.0452 -3.6554 -0.1707
3.0094 -3.5234 -0.1659
3.0029 -3.5008 -0.1699
2.9946 -3.4684 -0.1622
2.9892 -3.4499 -0.1674
2.9763 -3.4010 -0.1603
2.9713 -3.3829 -0.1620
2.9655 -3.3607 -0.1573
2.9564 -3.3278 -0.1586
2.9523 -3.3131 -0.1603
2.9480 -3.2967 -0.1582
2.9404 -3.2696 -0.1594
2.9369 -3.2567 -0.1597
2.9332 -3.2422 -0.1560
2.9302 -3.2324 -0.1598
2.9271 -3.2209 -0.1597
2.9241 -3.2102 -0.1603
2.9182 -3.1872 -0.1550
2.9157 -3.1783 -0.1567
4.4950 -8.1645 1.2497
4.4186 -7.9349 1.1180
3.7692 -5.8466 0.6450
3.7933 -6.0075 0.2668
3.7665 -5.9309 0.2018
3.8183 -6.1234 0.1154
3.7902 -6.0591 -0.0285
3.7687 -6.0010 -0.0963
3.6759 -5.7080 -0.1906
3.6515 -5.6376 -0.2468
3.5537 -5.3052 -0.2316
3.4277 -4.8674 -0.1690
3.3883 -4.7374 -0.1817
3.3136 -4.4878 -0.1920
3.2712 -4.3424 -0.1793
3.2461 -4.2593 -0.1861
3.1939 -4.0824 -0.1815
3.1139 -3.8092 -0.1639
3.0879 -3.7222 -0.1663
3.0655 -3.6471 -0.1679
3.0428 -3.5682 -0.1573
3.0270 -3.5162 -0.1620
3.0209 -3.4969 -0.1688
3.0130 -3.4700 -0.1665
2.9868 -3.3806 -0.1612
2.9815 -3.3629 -0.1620
2.9765 -3.3462 -0.1629
2.9713 -3.3284 -0.1612
2.9676 -3.3173 -0.1679
2.9620 -3.2967 -0.1594
2.9574 -3.2806 -0.1564
2.9534 -3.2668 -0.1560
2.9498 -3.2553 -0.1583
2.9431 -3.2336 -0.1629
2.9360 -3.2089 -0.1583
2.9329 -3.1985 -0.1582
2.9301 -3.1894 -0.1603
2.9272 -3.1793 -0.1595
4.3601 -7.4047 1.1839
4.3710 -7.4645 1.0253
4.2124 -6.9920 0.8816
4.0921 -6.6348 0.7664
3.8214 -5.8114 0.6263
3.9699 -6.3150 0.3848
3.8957 -6.0942 0.3163
3.8369 -5.9205 0.2539
3.8534 -5.9838 0.1816
3.9676 -6.3579 0.0760
3.9015 -6.1738 -0.0619
3.7865 -5.8178 -0.0829
3.8015 -5.8782 -0.1671
3.7535 -5.7357 -0.2120
3.7276 -5.6639 -0.2681
3.4632 -4.8205 -0.1658
3.4338 -4.7326 -0.1901
3.3865 -4.5848 -0.1893
3.3459 -4.4577 -0.1890
3.2999 -4.3115 -0.1743
3.2739 -4.2315 -0.1810
3.2220 -4.0692 -0.1811
3.1379 -3.8034 -0.1648
3.1090 -3.7129 -0.1637
3.0890 -3.6526 -0.1760
3.0640 -3.5726 -0.1644
3.0478 -3.5229 -0.1713
3.0287 -3.4614 -0.1600
3.0154 -3.4202 -0.1633
3.0023 -3.3791 -0.1613
2.9914 -3.3454 -0.1636
2.9865 -3.3305 -0.1657
2.9811 -3.3130 -0.1631
2.9708 -3.2798 -0.1564
2.9632 -3.2572 -0.1626
2.9552 -3.2316 -0.1599
2.9485 -3.2112 -0.1636
2.9444 -3.1971 -0.1560
2.9416 -3.1893 -0.1605
2.9382 -3.1781 -0.1569
4.4764 -7.4331 1.4835
4.4909 -7.4929 1.3393
4.4735 -7.4532 1.2503
4.4402 -7.3677 1.1534
4.4388 -7.3736 1.0722
4.4058 -7.2890 0.9772
4.3586 -7.1631 0.8792
3.9793 -6.1275 0.2979
3.9833 -6.1480 0.2256
3.9186 -5.9666 0.1661
4.2409 -6.9390 -0.0949
3.9725 -6.1535 -0.0768
3.8922 -5.9335 -0.1941
3.4063 -4.5131 -0.1726
3.3829 -4.4475 -0.1934
3.3324 -4.2981 -0.1762
3.2991 -4.2006 -0.1742
3.2868 -4.1676 -0.1981
3.2532 -4.0684 -0.1868
3.1634 -3.8040 -0.1698
3.1112 -3.6529 -0.1799
3.0955 -3.6061 -0.1694
3.0840 -3.5720 -0.1670
3.0727 -3.5386 -0.1631
3.0649 -3.5164 -0.1680
3.0551 -3.4875 -0.1647
3.0453 -3.4583 -0.1592
3.0384 -3.4383 -0.1619
3.0309 -3.4164 -0.1611
3.0240 -3.3964 -0.1612
3.0174 -3.3768 -0.1604
3.0100 -3.3547 -0.1549
3.0043 -3.3381 -0.1553
2.9997 -3.3254 -0.1601
2.9935 -3.3066 -0.1550
2.9888 -3.2930 -0.1565
2.9846 -3.2810 -0.1597
2.9799 -3.2673 -0.1590
2.9758 -3.2558 -0.1612
2.9714 -3.2425 -0.1594
2.9677 -3.2321 -0.1617
2.9634 -3.2193 -0.1588
2.9596 -3.2080 -0.1578
2.9527 -3.1880 -0.1581
2.9498 -3.1797 -0.1609
4.5864 -7.4801 1.5479
4.5862 -7.4863 1.4722
4.6217 -7.5884 1.4160
4.4281 -7.0745 1.2304
4.5524 -7.4157 1.2191
4.5182 -7.3305 1.1235
4.4076 -7.0453 0.9224
4.2718 -6.6838 0.8039
4.2104 -6.5234 0.7162
4.1848 -6.4600 0.6403
4.1387 -6.3406 0.5628
4.3675 -6.9788 0.4256
4.4438 -7.1953 0.3358
4.4259 -7.1543 0.2439
4.3312 -6.9021 0.1643
4.2862 -6.7858 0.0834
4.2972 -6.8242 -0.0100
4.3092 -6.8654 -0.1075
4.0724 -6.2170 -0.1041
3.9816 -5.9717 -0.1418
3.9594 -5.9166 -0.2072
3.8891 -5.7273 -0.2408
3.8064 -5.5022 -0.2571
3.5591 -4.8192 -0.1860
3.4924 -4.6359 -0.1773
3.4366 -4.4825 -0.1701
3.4125 -4.4182 -0.1901
3.3606 -4.2748 -0.1737
3.3344 -4.2038 -0.1825
3.2387 -3.9398 -0.1593
3.1869 -3.7991 -0.1712
3.1267 -3.6342 -0.1685
3.1132 -3.5969 -0.1650
3.0897 -3.5320 -0.1600
3.0694 -3.4762 -0.1559
3.0632 -3.4599 -0.1634
3.0542 -3.4352 -0.1607
3.0473 -3.4164 -0.1633
3.0397 -3.3956 -0.1623
3.0257 -3.3568 -0.1595
3.0196 -3.3402 -0.1598
3.0134 -3.3231 -0.1584
3.0089 -3.3114 -0.1636
3.0043 -3.2991 -0.1674
2.9981 -3.2816 -0.1618
2.9876 -3.2523 -0.1562
2.9834 -3.2411 -0.1577
2.9797 -3.2313 -0.1611
2.9717 -3.2091 -0.1606
2.9645 -3.1896 -0.1621
2.9610 -3.1801 -0.1623
2.9578 -3.1714 -0.1634
4.6784 -7.4815 1.6002
4.6272 -7.3555 1.4929
4.6989 -7.5423 1.4611
4.4022 -6.7945 1.1533
4.2144 -6.3187 0.9991
4.0925 -6.0170 0.7737
4.0978 -6.0339 0.7162
4.1214 -6.0979 0.6610
4.1865 -6.2686 0.6089
4.2729 -6.4948 0.5512
4.4606 -6.9872 0.4037
4.4438 -6.9486 0.3173
4.3263 -6.6499 0.2417
4.1670 -6.2423 0.1846
4.1120 -6.1040 0.1211
4.1083 -6.0986 0.0481
4.0807 -6.0353 -0.0934
3.9943 -5.8145 -0.1298
3.9569 -5.7209 -0.1829
3.9208 -5.6309 -0.2336
3.6544 -4.9407 -0.1794
3.5975 -4.7946 -0.1886
3.5376 -4.6400 -0.1879
3.4805 -4.4923 -0.1821
3.4053 -4.2990 -0.1913
3.3267 -4.0954 -0.1758
3.2246 -3.8315 -0.1654
3.2014 -3.7712 -0.1573
3.1905 -3.7438 -0.1685
3.1598 -3.6646 -0.1683
3.1333 -3.5962 -0.1678
3.1070 -3.5280 -0.1592
3.0864 -3.4746 -0.1568
3.0704 -3.4336 -0.1613
3.0644 -3.4187 -0.1682
3.0534 -3.3894 -0.1568
3.0400 -3.3552 -0.1592
3.0286 -3.3259 -0.1640
3.0221 -3.3092 -0.1618
3.0104 -3.2787 -0.1584
3.0068 -3.2697 -0.1653
3.0006 -3.2535 -0.1593
2.9960 -3.2416 -0.1595
2.9917 -3.2305 -0.1604
2.9861 -3.2159 -0.1535
2.9835 -3.2096 -0.1622
2.9790 -3.1979 -0.1592
2.9757 -3.1895 -0.1622
2.9724 -3.1812 -0.1650
4.1544 -5.6549 0.9156
4.1435 -5.6305 0.8602
4.1499 -5.6410 0.8102
4.1561 -5.6508 0.7588
4.1449 -5.6257 0.7020
4.1249 -5.5830 0.6434
4.1398 -5.6103 0.5909
4.2275 -5.7773 0.4203
4.2357 -5.7908 0.3567
4.2336 -5.7835 0.2919
4.2208 -5.7550 0.2274
4.2184 -5.7471 0.1612
4.1954 -5.6981 0.0984
4.2035 -5.7110 0.0284
4.2334 -5.7670 -0.0505
4.2091 -5.7154 -0.1140
4.2399 -5.7731 -0.1994
4.0238 -5.3427 -0.1731
3.9077 -5.1109 -0.1775
3.8220 -4.9391 -0.1879
3.6953 -4.6873 -0.1637
3.5633 -4.4238 -0.1661
3.4648 -4.2269 -0.1700
3.4320 -4.1610 -0.1796
3.3829 -4.0634 -0.1694
3.3154 -3.9287 -0.1672
3.2143 -3.7272 -0.1638
3.1886 -3.6762 -0.1548
3.1702 -3.6395 -0.1541
3.1415 -3.5819 -0.1599
3.1298 -3.5583 -0.1651
3.1113 -3.5219 -0.1562
3.0656 -3.4305 -0.1573
3.0453 -3.3900 -0.1550
3.0272 -3.3540 -0.1529
3.0204 -3.3402 -0.1560
3.0133 -3.3261 -0.1576
3.0053 -3.3102 -0.1555
2.9981 -3.2959 -0.1547
2.9846 -3.2690 -0.1523
2.9728 -3.2455 -0.1521
2.9676 -3.2350 -0.1530
2.9624 -3.2247 -0.1535
2.9577 -3.2152 -0.1547
2.9530 -3.2058 -0.1555
2.9475 -3.1950 -0.1521
2.9446 -3.1888 -0.1587
2.9404 -3.1804 -0.1597
4.2132 -5.6565 1.0400
4.2206 -5.6673 0.9924
4.2183 -5.6594 0.9397
4.1891 -5.5999 0.8769
4.1873 -5.5930 0.8240
4.1763 -5.5682 0.7679
4.1737 -5.5597 0.7138
4.1805 -5.5693 0.6608
4.1782 -5.5611 0.6050
4.1945 -5.5886 0.5505
4.2387 -5.6649 0.4349
4.2680 -5.7164 0.3725
4.2765 -5.7284 0.3077
4.2746 -5.7203 0.2421
4.2511 -5.6715 0.1787
4.2489 -5.6630 0.1122
4.2361 -5.6343 0.0472
4.2342 -5.6262 -0.0210
4.2212 -5.5973 -0.0864
4.2405 -5.6286 -0.1645
3.9726 -5.1187 -0.1786
3.8997 -4.9788 -0.1999
3.7387 -4.6754 -0.1612
3.6137 -4.4369 -0.1744
3.4850 -4.1933 -0.1596
3.4012 -4.0339 -0.1602
3.3269 -3.8932 -0.1533
3.1514 -3.5599 -0.1501
3.1255 -3.5103 -0.1556
3.0909 -3.4442 -0.1611
3.0691 -3.4028 -0.1605
3.0573 -3.3807 -0.1559
3.0315 -3.3316 -0.1576
3.0231 -3.3157 -0.1563
3.0137 -3.2983 -0.1512
3.0075 -3.2862 -0.1537
3.0002 -3.2725 -0.1524
2.9945 -3.2615 -0.1549
2.9879 -3.2489 -0.1535
2.9824 -3.2384 -0.1551
2.9759 -3.2263 -0.1526
2.9716 -3.2179 -0.1568
2.9651 -3.2057 -0.1520
2.9606 -3.1971 -0.1541
2.9562 -3.1886 -0.1560
2.9516 -3.1798 -0.1561
2.9476 -3.1721 -0.1585
4.3059 -5.7078 1.0266
4.2469 -5.5946 0.9500
4.2064 -5.5114 0.8320
4.2413 -5.5709 0.7893
4.2486 -5.5798 0.7366
4.2569 -5.5903 0.6826
4.3164 -5.6939 0.6352
4.3479 -5.7462 0.5788
4.3577 -5.7587 0.5170
4.3115 -5.6696 0.4512
4.4805 -5.9640 0.3160
4.4011 -5.8149 0.2505
4.4003 -5.8075 0.1802
4.3321 -5.6550 -0.1655
4.3064 -5.6031 -0.2296
4.0329 -5.1127 -0.1760
3.9147 -4.8989 -0.1767
3.7741 -4.6463 -0.1532
3.7176 -4.5429 -0.1687
3.6002 -4.3295 -0.1807
3.4319 -4.0264 -0.1623
3.3586 -3.8940 -0.1609
3.2999 -3.7878 -0.1608
3.2753 -3.7433 -0.1620
3.2455 -3.6900 -0.1539
3.1613 -3.5365 -0.1661
3.1340 -3.4868 -0.1693
3.0877 -3.4046 -0.1512
3.0706 -3.3731 -0.1595
3.0619 -3.3571 -0.1617
3.0505 -3.3369 -0.1565
3.0425 -3.3222 -0.1581
3.0334 -3.3060 -0.1560
3.0256 -3.2919 -0.1563
3.0176 -3.2775 -0.1548
3.0098 -3.2635 -0.1526
3.0043 -3.2533 -0.1563
2.9974 -3.2409 -0.1551
2.9913 -3.2299 -0.1557
2.9840 -3.2170 -0.1509
2.9735 -3.1979 -0.1530
2.9689 -3.1893 -0.1553
2.9637 -3.1800 -0.1546
2.9589 -3.1713 -0.1548
2.9555 -3.1647 -0.1600
4.4090 -5.7720 1.0681
4.3970 -5.7454 1.0077
4.4656 -5.8602 0.9757
4.4893 -5.8834 0.7999
4.5835 -6.0412 0.7560
4.5696 -6.0102 0.6857
4.5420 -5.9553 0.6137
4.4750 -5.8323 0.5393
4.4119 -5.7166 0.4695
4.4111 -5.7087 0.4041
4.4223 -5.7211 0.3372
4.4343 -5.7347 0.2683
4.4208 -5.7047 0.2002
4.3950 -5.6536 0.1342
4.4062 -5.6655 0.0616
4.4054 -5.6569 -0.0103
4.3656 -5.5748 -0.1442
4.2939 -5.4466 -0.1897
3.8196 -4.6333 -0.1505
3.7653 -4.5379 -0.1695
3.6288 -4.3023 -0.1736
3.4334 -3.9656 -0.1736
3.3493 -3.8223 -0.1585
3.3008 -3.7378 -0.1671
3.2494 -3.6497 -0.1622
3.2344 -3.6231 -0.1702
3.2092 -3.5805 -0.1622
3.1764 -3.5237 -0.1650
3.1428 -3.4664 -0.1594
3.1144 -3.4178 -0.1554
3.0917 -3.3786 -0.1563
3.0605 -3.3251 -0.1539
3.0531 -3.3120 -0.1576
3.0358 -3.2823 -0.1561
3.0287 -3.2699 -0.1579
3.0194 -3.2544 -0.1527
3.0063 -3.2316 -0.1544
2.9924 -3.2082 -0.1505
2.9816 -3.1893 -0.1527
2.9708 -3.1708 -0.1520
2.9666 -3.1632 -0.1549
2.9625 -3.1558 -0.1574
4.5992 -5.9595 1.0236
4.5999 -5.9534 0.9610
4.5866 -5.9236 0.8935
4.5871 -5.9169 0.8294
4.6016 -5.9335 0.7672
4.6022 -5.9266 0.7005
4.5602 -5.8491 0.6270
4.5467 -5.8188 0.5585
4.5199 -5.7667 0.4891
4.4676 -5.6729 0.4205
4.4421 -5.6232 0.3543
4.4537 -5.6343 0.2867
4.5059 -5.7113 0.2127
4.4921 -5.6805 0.1430
4.4916 -5.6712 0.0707
4.4646 -5.6190 0.0036
4.4639 -5.6092 -0.0698
4.4635 -5.5998 -0.1444
4.4105 -5.5063 -0.2007
3.8785 -4.6388 -0.1539
3.8198 -4.5402 -0.1731
3.6697 -4.2937 -0.1745
3.6188 -4.2094 -0.1823
3.3197 -3.7207 -0.1639
3.2465 -3.6008 -0.1616
3.2260 -3.5672 -0.1612
3.2014 -3.5279 -0.1527
3.1845 -3.5001 -0.1530
3.1609 -3.4600 -0.1650
3.1302 -3.4102 -0.1595
3.1136 -3.3838 -0.1519
3.1054 -3.3696 -0.1585
3.0951 -3.3525 -0.1601
3.0845 -3.3352 -0.1599
3.0626 -3.2999 -0.1541
3.0559 -3.2883 -0.1593
3.0468 -3.2736 -0.1579
3.0404 -3.2626 -0.1620
3.0320 -3.2490 -0.1603
3.0217 -3.2330 -0.1524
3.0152 -3.2222 -0.1537
3.0033 -3.2023 -0.1570
2.9956 -3.1901 -0.1520
2.9899 -3.1807 -0.1524
2.9843 -3.1715 -0.1524
2.9787 -3.1625 -0.1519
2.9740 -3.1546 -0.1536
2.9698 -3.1473 -0.1562
4.7807 -6.1227 1.0885
4.6593 -5.9188 0.9822
4.6899 -5.9593 0.9267
4.6049 -5.8064 0.7750
4.6937 -5.9386 0.7256
4.8297 -6.1443 0.6752
4.7452 -6.0011 0.5909
4.6074 -5.7748 0.5085
4.5518 -5.6786 0.4378
4.5384 -5.6485 0.3697
4.5382 -5.6392 0.3010
4.5523 -5.6518 0.2298
4.5386 -5.6210 0.1601
4.5112 -5.5693 0.0928
4.4976 -5.5388 0.0237
4.5247 -5.5706 -0.0562
4.5830 -5.6495 -0.1494
4.4829 -5.4872 -0.1930
3.8556 -4.5104 -0.1652
3.6797 -4.2369 -0.1548
3.6502 -4.1877 -0.1779
3.5602 -4.0503 -0.1540
3.5420 -4.0186 -0.1783
3.4779 -3.9205 -0.1626
3.2450 -3.5564 -0.1627
3.2057 -3.4954 -0.1605
3.1716 -3.4424 -0.1582
3.1320 -3.3800 -0.1614
3.1189 -3.3597 -0.1598
3.1050 -3.3386 -0.1554
3.0964 -3.3246 -0.1599
3.0839 -3.3057 -0.1553
3.0761 -3.2929 -0.1594
3.0563 -3.2625 -0.1556
3.0485 -3.2501 -0.1567
3.0398 -3.2368 -0.1550
3.0330 -3.2259 -0.1570
3.0230 -3.2112 -0.1495
3.0185 -3.2033 -0.1561
3.0124 -3.1936 -0.1576
3.0044 -3.1818 -0.1528
2.9986 -3.1725 -0.1533
2.9916 -3.1621 -0.1497
2.9875 -3.1551 -0.1543
2.9815 -3.1460 -0.1523
2.9775 -3.1392 -0.1563
5.0205 -6.3348 1.0253
5.0668 -6.3942 0.9609
4.9115 -6.1465 0.8484
4.6837 -5.7601 0.5278
4.6255 -5.6628 0.4555
4.5975 -5.6109 0.3864
4.5839 -5.5806 0.3178
4.5704 -5.5503 0.2492
4.5568 -5.5201 0.1806
4.5573 -5.5103 0.1098
4.5436 -5.4798 0.0406
4.5300 -5.4492 -0.0285
4.6168 -5.5640 -0.1267
4.6177 -5.5538 -0.2051
3.8911 -4.4793 -0.1568
3.8290 -4.3846 -0.1725
3.6067 -4.0551 -0.1629
3.5788 -4.0108 -0.1814
3.4692 -3.8500 -0.1656
3.2497 -3.5223 -0.1718
3.2016 -3.4531 -0.1562
3.1431 -3.3658 -0.1573
3.1187 -3.3295 -0.1578
3.1075 -3.3128 -0.1580
3.0984 -3.2987 -0.1611
3.0755 -3.2656 -0.1544
3.0605 -3.2423 -0.1607
3.0516 -3.2293 -0.1593
3.0402 -3.2136 -0.1506
3.0338 -3.2036 -0.1532
3.0270 -3.1934 -0.1542
3.0204 -3.1835 -0.1547
3.0134 -3.1733 -0.1535
3.0065 -3.1633 -0.1518
2.9951 -3.1462 -0.1529
2.9902 -3.1385 -0.1548
5.2710 -6.5683 1.1834
5.2539 -6.5301 1.0969
5.2128 -6.4569 1.0044
4.7793 -5.7688 0.5490
4.6716 -5.6038 0.4724
4.6431 -5.5523 0.4032
4.6156 -5.5022 0.3351
4.6022 -5.4722 0.2670
4.6170 -5.4817 0.1959
4.6177 -5.4712 0.1246
4.6330 -5.4808 0.0494
4.6492 -5.4912 -0.0284
4.6197 -5.4384 -0.0963
3.9453 -4.4724 -0.1574
3.8790 -4.3759 -0.1733
3.5025 -3.8427 -0.1699
3.2561 -3.4954 -0.1572
3.2206 -3.4445 -0.1603
3.1778 -3.3863 -0.1456
3.1682 -3.3714 -0.1535
3.1567 -3.3545 -0.1574
3.1312 -3.3183 -0.1574
3.1098 -3.2876 -0.1602
3.0977 -3.2709 -0.1571
3.0882 -3.2572 -0.1579
3.0769 -3.2418 -0.1539
3.0699 -3.2313 -0.1584
3.0608 -3.2185 -0.1571
3.0513 -3.2056 -0.1540
3.0356 -3.1835 -0.1524
3.0229 -3.1650 -0.1554
3.0154 -3.1549 -0.1526
3.0093 -3.1462 -0.1529
3.0045 -3.1388 -0.1566
2.9982 -3.1301 -0.1548
4.8420 -5.7389 0.6394
4.7159 -5.5542 0.5572
4.7176 -5.5447 0.4894
4.7040 -5.5142 0.4202
4.6753 -5.4634 0.3515
4.7541 -5.5568 0.2773
4.8059 -5.6130 0.1988
4.8289 -5.6164 0.0406
4.8315 -5.6060 -0.0397
4.7810 -5.5259 -0.1079
4.7323 -5.4487 -0.1737
3.9371 -4.3745 -0.1771
3.7615 -4.1381 -0.1727
3.6735 -4.0217 -0.1593
3.6266 -3.9571 -0.1670
3.5201 -3.8143 -0.1607
3.3806 -3.6254 -0.1644
3.3286 -3.5547 -0.1671
3.2775 -3.4867 -0.1616
3.2410 -3.4366 -0.1657
3.2199 -3.4089 -0.1613
3.1991 -3.3819 -0.1553
3.1747 -3.3475 -0.1640
3.1438 -3.3069 -0.1571
3.1330 -3.2920 -0.1595
3.1214 -3.2763 -0.1593
3.1006 -3.2480 -0.1602
3.0885 -3.2325 -0.1556
3.0804 -3.2212 -0.1581
3.0705 -3.2082 -0.1560
3.0618 -3.1965 -0.1552
3.0526 -3.1846 -0.1526
3.0465 -3.1757 -0.1561
3.0399 -3.1665 -0.1581
3.0330 -3.1571 -0.1584
3.0257 -3.1475 -0.1570
3.0189 -3.1385 -0.1563
3.0128 -3.1302 -0.1564
3.0071 -3.1224 -0.1572
5.2476 -6.2197 1.1038
5.0806 -5.9258 0.6814
4.8965 -5.6579 0.5140
4.9934 -5.7690 0.4427
5.0180 -5.7859 0.3643
5.0023 -5.7509 0.2850
5.3585 -6.1335 -0.1164
5.2593 -5.9918 -0.1921
5.1427 -5.8298 -0.2564
3.9916 -4.3649 -0.1779
3.7829 -4.0998 -0.1606
3.7302 -4.0302 -0.1712
3.6392 -3.9167 -0.1521
3.5858 -3.8481 -0.1521
3.5479 -3.7979 -0.1594
3.4699 -3.6970 -0.1630
3.4526 -3.6717 -0.1795
3.3988 -3.6063 -0.1600
3.3735 -3.5729 -0.1641
3.3185 -3.5028 -0.1612
3.2925 -3.4700 -0.1578
3.2138 -3.3694 -0.1547
3.2009 -3.3520 -0.1593
3.1893 -3.3361 -0.1647
3.1586 -3.2975 -0.1601
3.1444 -3.2797 -0.1575
3.1340 -3.2659 -0.1602
3.1207 -3.2494 -0.1565
3.1091 -3.2348 -0.1548
3.0997 -3.2225 -0.1561
3.0879 -3.2082 -0.1517
3.0793 -3.1969 -0.1527
3.0703 -3.1855 -0.1520
3.0634 -3.1760 -0.1550
3.0561 -3.1664 -0.1565
3.0404 -3.1466 -0.1543
3.0329 -3.1372 -0.1530
3.0270 -3.1292 -0.1548
3.0206 -3.1210 -0.1549
3.0144 -3.1131 -0.1545
5.5638 -6.4846 1.2009
5.4816 -6.3283 0.9224
5.4104 -6.2214 0.8235
5.3671 -6.1503 0.7319
5.2994 -6.0489 0.6396
5.2901 -6.0036 0.4692
5.3233 -6.0268 0.3825
5.4113 -6.1161 0.2901
5.2637 -5.9191 0.2081
5.5190 -6.2079 0.0901
5.4698 -6.1292 -0.0026
5.4806 -6.1222 -0.1042
5.3749 -5.9772 -0.1818
5.1775 -5.7265 -0.2285
4.8345 -5.3090 -0.2169
4.4391 -4.8363 -0.1615
4.3116 -4.6770 -0.1781
3.9643 -4.2501 -0.1879
3.7547 -3.9988 -0.1622
3.6850 -3.9141 -0.1590
3.5730 -3.7776 -0.1557
3.4056 -3.5692 -0.1740
3.3450 -3.4961 -0.1685
3.2913 -3.4320 -0.1605
3.2620 -3.3935 -0.1742
3.2121 -3.3364 -0.1542
3.1986 -3.3193 -0.1572
3.1858 -3.3030 -0.1601
3.1420 -3.2509 -0.1528
3.1359 -3.2415 -0.1623
3.1218 -3.2253 -0.1570
3.1096 -3.2110 -0.1537
3.0907 -3.1877 -0.1547
3.0734 -3.1664 -0.1552
3.0659 -3.1569 -0.1568
3.0421 -3.1284 -0.1537
3.0355 -3.1202 -0.1544
3.0280 -3.1115 -0.1522
3.0230 -3.1047 -0.1557
3.0190 -3.0986 -0.1615
5.5013 -6.2730 1.2682
5.4320 -6.1708 1.1663
5.4153 -6.1334 1.0816
5.4770 -6.1913 1.0152
5.5706 -6.2865 0.9503
5.6111 -6.3165 0.8693
5.5346 -6.2062 0.7684
5.4882 -6.1323 0.6744
5.4169 -6.0294 0.5806
5.3995 -5.9904 0.4924
5.5193 -6.1115 0.4047
5.5010 -6.0705 0.3118
5.5717 -6.1320 0.2130
5.4089 -5.9252 0.1316
5.4181 -5.9159 0.0369
5.6077 -6.1096 -0.0912
5.4374 -5.8970 -0.1587
5.0141 -5.4055 -0.1519
4.8665 -5.2249 -0.1933
4.2627 -4.5225 -0.1901
3.9878 -4.2058 -0.1741
3.8529 -4.0535 -0.1515
3.8089 -3.9983 -0.1701
3.5635 -3.7145 -0.1609
3.4406 -3.5725 -0.1556
3.4220 -3.5483 -0.1680
3.3938 -3.5151 -0.1696
3.3684 -3.4851 -0.1719
3.3127 -3.4217 -0.1643
3.2638 -3.3667 -0.1555
3.2302 -3.3270 -0.1585
3.1998 -3.2912 -0.1602
3.1453 -3.2282 -0.1577
3.1216 -3.2012 -0.1552
3.1028 -3.1787 -0.1576
3.0907 -3.1658 -0.1520
3.0824 -3.1559 -0.1532
3.0762 -3.1477 -0.1582
3.0676 -3.1379 -0.1571
3.0592 -3.1284 -0.1555
3.0513 -3.1195 -0.1544
3.0450 -3.1118 -0.1565
3.0388 -3.1042 -0.1581
3.0323 -3.0965 -0.1580
3.0258 -3.0891 -0.1575
5.5418 -6.1610 1.2030
5.6086 -6.2208 1.1389
5.5910 -6.1814 1.0498
5.6608 -6.2430 0.9787
5.6730 -6.2371 0.8921
5.6546 -6.1961 0.7992
5.5482 -6.0554 0.6965
5.4756 -5.9540 0.6022
5.5414 -6.0081 0.5178
5.5519 -5.9996 0.4272
5.5338 -5.9590 0.3352
5.4327 -5.8276 0.2480
5.4975 -5.8779 0.1514
5.3975 -5.7489 0.0698
5.3538 -5.6816 -0.0151
5.5000 -5.8168 -0.1357
4.8806 -5.1240 -0.1654
4.7214 -4.9414 -0.1939
4.0357 -4.1868 -0.1719
3.8659 -3.9973 -0.1782
3.5217 -3.6173 -0.1723
3.4365 -3.5255 -0.1603
3.3836 -3.4656 -0.1663
3.3474 -3.4279 -0.1560
3.3278 -3.4051 -0.1606
3.2862 -3.3586 -0.1624
3.2667 -3.3371 -0.1624
3.2433 -3.3127 -0.1556
3.2157 -3.2805 -0.1626
3.1842 -3.2464 -0.1591
3.1702 -3.2311 -0.1580
3.1564 -3.2163 -0.1559
3.1478 -3.2056 -0.1614
3.1349 -3.1919 -0.1585
3.1232 -3.1794 -0.1568
3.1145 -3.1691 -0.1594
3.0946 -3.1475 -0.1576
3.0764 -3.1278 -0.1552
3.0586 -3.1092 -0.1504
3.0479 -3.0954 -0.1590
3.0406 -3.0876 -0.1578
5.7097 -6.1712 1.0859
5.7221 -6.1645 1.0013
5.7666 -6.1925 0.9206
5.7165 -6.1168 0.8220
5.6379 -6.0106 0.7221
5.5904 -5.9388 0.6286
5.6313 -5.9616 0.5417
5.6132 -5.9211 0.4497
5.5950 -5.8805 0.3578
5.5193 -5.7799 0.2686
5.4473 -5.6841 0.1829
5.5997 -5.8195 0.0752
5.6116 -5.8090 -0.0232
5.5928 -5.7671 -0.1182
5.6364 -5.7876 -0.2269
4.7978 -4.9138 -0.1863
4.4240 -4.5177 -0.1969
3.8733 -3.9465 -0.1588
3.7358 -3.8011 -0.1614
3.6303 -3.6889 -0.1655
3.4619 -3.5124 -0.1622
3.4032 -3.4499 -0.1650
3.3256 -3.3686 -0.1632
3.3010 -3.3435 -0.1598
3.2848 -3.3253 -0.1645
3.1955 -3.2332 -0.1561
3.1858 -3.2216 -0.1622
3.1740 -3.2087 -0.1641
3.1565 -3.1922 -0.1558
3.1456 -3.1804 -0.1570
3.1236 -3.1575 -0.1561
3.1153 -3.1480 -0.1592
3.1060 -3.1381 -0.1597
3.0936 -3.1266 -0.1531
3.0873 -3.1188 -0.1578
3.0784 -3.1097 -0.1565
3.0712 -3.1018 -0.1581
3.0614 -3.0927 -0.1532
3.0544 -3.0852 -0.1538
3.0486 -3.0784 -0.1563
5.7977 -6.2258 1.5391
5.9532 -6.3096 1.2440
5.8015 -6.1265 1.1158
5.8151 -6.1194 1.0306
5.7652 -6.0454 0.9319
5.7470 -6.0048 0.8400
5.6985 -5.9329 0.7444
5.6805 -5.8928 0.6534
5.6626 -5.8527 0.5624
5.7050 -5.8734 0.4731
5.8561 -5.8778 -0.1294
5.6374 -5.6441 -0.1899
4.6149 -4.6253 -0.1707
3.9088 -3.9224 -0.1544
3.7661 -3.7788 -0.1576
3.7232 -3.7330 -0.1693
3.6274 -3.6353 -0.1764
3.5347 -3.5436 -0.1719
3.3970 -3.4072 -0.1658
3.2962 -3.3082 -0.1583
3.2754 -3.2878 -0.1567
3.2104 -3.2223 -0.1582
3.1975 -3.2090 -0.1601
3.1872 -3.1975 -0.1649
3.1705 -3.1822 -0.1588
3.1557 -3.1685 -0.1544
3.1459 -3.1580 -0.1569
3.1248 -3.1369 -0.1570
3.1031 -3.1164 -0.1522
3.0950 -3.1079 -0.1537
3.0875 -3.0999 -0.1558
3.0630 -3.0760 -0.1534
3.0565 -3.0691 -0.1548
5.9631 -6.1497 1.1629
5.7901 -5.8857 0.7706
5.8036 -5.8760 0.6818
5.7538 -5.8046 0.5868
5.6692 -5.5347 -0.1604
4.7102 -4.6199 -0.1718
4.3388 -4.2671 -0.1702
4.1672 -4.1076 -0.1561
4.0710 -4.0143 -0.1635
3.9760 -3.9236 -0.1649
3.8837 -3.8367 -0.1610
3.7925 -3.7525 -0.1512
3.7522 -3.7106 -0.1655
3.6473 -3.6099 -0.1691
3.5525 -3.5207 -0.1653
3.4731 -3.4465 -0.1604
3.4151 -3.3906 -0.1635
3.3121 -3.2942 -0.1573
3.2834 -3.2637 -0.1697
3.2446 -3.2281 -0.1646
3.2105 -3.1970 -0.1598
3.1816 -3.1702 -0.1570
3.1564 -3.1467 -0.1554
3.1459 -3.1364 -0.1565
3.1367 -3.1270 -0.1589
3.1269 -3.1175 -0.1597
3.1150 -3.1072 -0.1556
3.1033 -3.0973 -0.1506
3.0957 -3.0895 -0.1528
3.0813 -3.0748 -0.1570
3.0734 -3.0674 -0.1567
3.0656 -3.0602 -0.1558
5.9022 -6.0808 1.6588
5.9914 -6.0347 1.1776
5.8236 -5.8273 0.9649
5.8377 -5.8177 0.8800
5.9172 -5.8689 0.8019
4.8732 -4.6655 -0.1905
4.1530 -4.0193 -0.1756
4.0311 -3.9113 -0.1681
3.9373 -3.8271 -0.1663
3.8234 -3.7293 -0.1472
3.7860 -3.6911 -0.1641
3.6671 -3.5844 -0.1618
3.5654 -3.4944 -0.1551
3.4948 -3.4296 -0.1590
3.4335 -3.3738 -0.1611
3.3751 -3.3221 -0.1569
3.3281 -3.2799 -0.1563
3.2922 -3.2462 -0.1614
3.2723 -3.2287 -0.1595
3.2533 -3.2121 -0.1572
3.2409 -3.1997 -0.1621
3.2198 -3.1827 -0.1541
3.2091 -3.1717 -0.1591
3.1959 -3.1597 -0.1598
3.1720 -3.1376 -0.1617
3.1450 -3.1151 -0.1545
3.1351 -3.1060 -0.1554
3.1283 -3.0984 -0.1610
3.1079 -3.0808 -0.1577
3.0990 -3.0729 -0.1574
3.0909 -3.0654 -0.1577
3.0748 -3.0512 -0.1567
3.0692 -3.0451 -0.1605
5.9013 -5.7901 1.0770
5.9163 -5.7801 0.9933
6.0146 -5.8198 0.8297
5.0210 -4.6883 -0.2018
4.3343 -4.1082 -0.1729
4.1399 -3.9359 -0.1943
3.9733 -3.8021 -0.1620
3.8232 -3.6730 -0.1641
3.6965 -3.5655 -0.1605
3.6027 -3.4846 -0.1625
3.5533 -3.4440 -0.1567
3.5311 -3.4216 -0.1689
3.4563 -3.3593 -0.1623
3.3916 -3.3061 -0.1545
3.3471 -3.2671 -0.1580
3.3324 -3.2524 -0.1656
3.2705 -3.2008 -0.1604
3.2533 -3.1862 -0.1598
3.2079 -3.1477 -0.1589
3.1941 -3.1360 -0.1580
3.1829 -3.1259 -0.1601
3.1668 -3.1139 -0.1537
3.1578 -3.1052 -0.1573
3.1477 -3.0962 -0.1584
3.1296 -3.0797 -0.1621
3.1083 -3.0629 -0.1567
3.0987 -3.0553 -0.1548
3.0899 -3.0481 -0.1534
3.0841 -3.0420 -0.1576
6.3273 -6.0333 1.1812
6.3555 -5.7388 0.0519
6.2906 -5.6573 -0.0505
6.0318 -5.4280 -0.1192
5.5160 -5.0083 -0.1233
5.3760 -4.8789 -0.1795
5.1252 -4.6699 -0.1991
4.8390 -4.4395 -0.1927
4.6141 -4.2583 -0.1878
4.1621 -3.8936 -0.1805
3.9990 -3.7692 -0.1526
3.9416 -3.7187 -0.1662
3.8420 -3.6414 -0.1538
3.7256 -3.5456 -0.1586
3.5985 -3.4390 -0.1707
3.5478 -3.4002 -0.1627
3.5087 -3.3691 -0.1603
3.4605 -3.3262 -0.1738
3.4154 -3.2939 -0.1587
3.3893 -3.2727 -0.1585
3.3650 -3.2530 -0.1582
3.3478 -3.2376 -0.1638
3.3059 -3.2039 -0.1627
3.2691 -3.1743 -0.1616
3.2344 -3.1472 -0.1578
3.2201 -3.1356 -0.1579
3.2065 -3.1245 -0.1581
3.1806 -3.1037 -0.1572
3.1701 -3.0947 -0.1591
3.1572 -3.0850 -0.1562
3.1495 -3.0774 -0.1610
3.1368 -3.0684 -0.1568
3.1275 -3.0606 -0.1572
3.1195 -3.0535 -0.1595
3.1091 -3.0459 -0.1565
3.1031 -3.0397 -0.1613
6.0099 -5.3643 0.2115
5.5719 -4.9367 -0.1028
5.2554 -4.6650 -0.2013
4.9126 -4.4061 -0.1856
4.0014 -3.7093 -0.1742
3.8262 -3.5782 -0.1618
3.7590 -3.5274 -0.1589
3.7269 -3.4985 -0.1735
3.6709 -3.4564 -0.1702
3.6230 -3.4201 -0.1690
3.5365 -3.3551 -0.1637
3.4704 -3.3042 -0.1639
3.4375 -3.2799 -0.1607
3.4123 -3.2600 -0.1624
3.3627 -3.2222 -0.1613
3.3178 -3.1886 -0.1583
3.2865 -3.1626 -0.1649
3.2476 -3.1349 -0.1574
3.2178 -3.1123 -0.1564
3.2068 -3.1029 -0.1598
3.1926 -3.0926 -0.1577
3.1799 -3.0831 -0.1567
3.1694 -3.0746 -0.1581
3.1608 -3.0669 -0.1621
3.1511 -3.0591 -0.1634
3.1283 -3.0432 -0.1576
3.1183 -3.0360 -0.1559
3.1128 -3.0300 -0.1620
3.1018 -3.0230 -0.1569
3.0934 -3.0168 -0.1560
6.4660 -5.7485 0.8388
5.7484 -5.1767 0.6702
5.8147 -5.1510 0.4220
5.5774 -4.9541 0.3399
5.6395 -4.9742 0.2561
5.6233 -4.9379 0.1738
5.8826 -5.0653 -0.0314
5.5229 -4.7941 -0.0644
5.1959 -4.5509 -0.0827
5.1250 -4.4821 -0.1409
5.0223 -4.3937 -0.1872
4.5009 -4.0233 -0.1584
4.3790 -3.9312 -0.1698
4.0540 -3.6928 -0.1774
3.8520 -3.5524 -0.1558
3.7437 -3.4712 -0.1642
3.6464 -3.3999 -0.1660
3.5997 -3.3667 -0.1635
3.5611 -3.3385 -0.1640
3.5321 -3.3158 -0.1695
3.4958 -3.2902 -0.1671
3.4622 -3.2665 -0.1645
3.4305 -3.2444 -0.1614
3.3755 -3.2058 -0.1566
3.3587 -3.1919 -0.1623
3.2999 -3.1489 -0.1633
3.2651 -3.1239 -0.1623
3.2474 -3.1119 -0.1594
3.2298 -3.1003 -0.1555
3.2055 -3.0815 -0.1591
3.1925 -3.0723 -0.1583
3.1830 -3.0644 -0.1620
3.1710 -3.0559 -0.1609
3.1572 -3.0474 -0.1559
3.1500 -3.0406 -0.1610
3.1403 -3.0335 -0.1613
3.1162 -3.0191 -0.1508
3.1107 -3.0134 -0.1565
6.9396 -6.0548 1.2436
5.5669 -4.9359 0.6670
5.5518 -4.9021 0.5905
5.3778 -4.7571 0.5070
5.4287 -4.7704 0.4361
5.4226 -4.6507 0.0582
5.2990 -4.5479 -0.0004
5.5359 -4.6738 -0.1206
5.4238 -4.5788 -0.1794
4.9356 -4.2563 -0.1377
4.7411 -4.1192 -0.1493
4.5354 -3.9791 -0.1457
4.4286 -3.9002 -0.1640
4.3503 -3.8394 -0.1867
4.0914 -3.6659 -0.1730
3.9120 -3.5444 -0.1673
3.7804 -3.4542 -0.1667
3.5798 -3.3186 -0.1597
3.5541 -3.2983 -0.1684
3.4398 -3.2247 -0.1522
3.4275 -3.2123 -0.1653
3.4025 -3.1950 -0.1656
3.3734 -3.1767 -0.1600
3.3556 -3.1633 -0.1642
3.3344 -3.1489 -0.1635
3.3149 -3.1356 -0.1632
3.2992 -3.1240 -0.1660
3.2461 -3.0893 -0.1601
3.2298 -3.0789 -0.1573
3.2185 -3.0702 -0.1604
3.2025 -3.0606 -0.1559
3.1915 -3.0525 -0.1576
3.1785 -3.0443 -0.1555
3.1691 -3.0370 -0.1581
3.1585 -3.0298 -0.1579
3.1493 -3.0230 -0.1594
3.1382 -3.0162 -0.1569
3.1299 -3.0100 -0.1585
3.1204 -3.0038 -0.1572
5.5985 -4.9035 0.8310
5.3830 -4.7320 0.7296
5.3285 -4.6736 0.6556
5.2203 -4.5797 0.5797
5.3216 -4.6264 0.5195
5.4334 -4.6781 0.4532
5.3142 -4.5783 0.3811
5.2231 -4.4982 0.3140
5.2866 -4.5168 0.2417
5.0897 -4.3725 0.1886
5.0442 -4.3240 0.1281
5.3685 -4.4985 0.0143
5.5385 -4.5754 -0.0919
5.3830 -4.4592 -0.1412
4.8730 -4.1425 -0.0972
4.6929 -4.0030 -0.1701
4.4245 -3.8225 -0.1910
4.0535 -3.5866 -0.1765
3.5701 -3.2777 -0.1625
3.4982 -3.2321 -0.1596
3.4676 -3.2124 -0.1591
3.4088 -3.1758 -0.1543
3.3958 -3.1640 -0.1649
3.3507 -3.1352 -0.1638
3.3074 -3.1088 -0.1585
3.2753 -3.0873 -0.1607
3.2417 -3.0668 -0.1565
3.2302 -3.0584 -0.1598
3.2182 -3.0500 -0.1614
3.2041 -3.0416 -0.1593
3.1930 -3.0340 -0.1606
3.1806 -3.0264 -0.1592
3.1670 -3.0189 -0.1548
3.1583 -3.0125 -0.1575
3.1477 -3.0060 -0.1563
3.1392 -2.9999 -0.1579
3.1301 -2.9941 -0.1580
5.4431 -4.7033 0.8164
5.4502 -4.6861 0.7495
5.4156 -4.6418 0.6770
5.3410 -4.5722 0.6023
5.1963 -4.4597 0.5269
5.5040 -4.6299 0.4717
5.3809 -4.5311 0.3983
5.2873 -4.4521 0.3301
5.2738 -4.4221 0.2620
5.5151 -4.5409 0.1731
5.6684 -4.5515 -0.0857
4.6046 -3.8731 -0.1754
4.3789 -3.7428 -0.1520
4.3297 -3.7030 -0.1824
4.0895 -3.5596 -0.1722
3.8467 -3.4135 -0.1658
3.7844 -3.3758 -0.1644
3.6715 -3.3090 -0.1578
3.6290 -3.2828 -0.1587
3.5821 -3.2557 -0.1537
3.5169 -3.2147 -0.1574
3.4515 -3.1764 -0.1526
3.4288 -3.1614 -0.1559
3.4124 -3.1489 -0.1639
3.3642 -3.1203 -0.1610
3.3253 -3.0963 -0.1619
3.2873 -3.0742 -0.1586
3.2746 -3.0651 -0.1626
3.2575 -3.0554 -0.1604
3.2254 -3.0375 -0.1550
3.2133 -3.0298 -0.1560
3.2041 -3.0228 -0.1604
3.1900 -3.0153 -0.1570
3.1775 -3.0083 -0.1549
3.1694 -3.0021 -0.1589
3.1606 -2.9960 -0.1612
3.1492 -2.9899 -0.1585
3.1386 -2.9841 -0.1563
3.1336 -2.9788 -0.1632
5.8574 -4.8749 0.8940
5.6106 -4.6966 0.7825
5.4831 -4.5951 0.6965
5.4483 -4.5515 0.6244
5.3530 -4.4722 0.5497
5.4352 -4.4523 0.3448
5.2802 -4.3422 0.2805
5.7433 -4.5747 0.1784
6.1417 -4.7328 -0.0375
5.7776 -4.5115 -0.0746
4.9682 -4.0477 -0.0710
5.1340 -4.1088 -0.1752
4.9746 -4.0090 -0.2003
4.6286 -3.8236 -0.1594
4.4788 -3.7360 -0.1642
4.3672 -3.6685 -0.1744
4.1943 -3.5760 -0.1537
4.1208 -3.5299 -0.1655
3.9556 -3.4343 -0.1674
3.8209 -3.3572 -0.1667
3.7049 -3.2923 -0.1613
3.6153 -3.2413 -0.1599
3.5802 -3.2204 -0.1621
3.5519 -3.2024 -0.1675
3.5095 -3.1806 -0.1598
3.4851 -3.1650 -0.1644
3.4300 -3.1337 -0.1635
3.3801 -3.1060 -0.1605
3.3374 -3.0821 -0.1586
3.3009 -3.0613 -0.1582
3.2864 -3.0521 -0.1606
3.2705 -3.0431 -0.1604
3.2548 -3.0344 -0.1593
3.2415 -3.0265 -0.1603
3.2269 -3.0186 -0.1586
3.2109 -3.0109 -0.1540
3.1918 -2.9979 -0.1604
3.1785 -2.9914 -0.1569
3.1710 -2.9855 -0.1616
3.1601 -2.9797 -0.1601
3.1506 -2.9742 -0.1605
5.8192 -4.8266 1.1180
5.6550 -4.7017 1.0098
5.6646 -4.6843 0.9424
5.4247 -4.4742 0.7013
5.6305 -4.5694 0.6541
5.2282 -4.3192 0.5549
5.0996 -4.2271 0.4871
5.2386 -4.2827 0.4293
5.0151 -4.1416 0.3678
5.0036 -4.1158 0.3094
4.8802 -4.0321 0.2584
4.9235 -4.0353 0.1979
5.6046 -4.3032 -0.0993
5.2272 -4.0990 -0.1012
5.1249 -4.0285 -0.1468
4.6415 -3.7699 -0.1404
4.5795 -3.7249 -0.1747
4.2820 -3.5669 -0.1674
4.1576 -3.5019 -0.1609
4.1211 -3.4737 -0.1864
4.0102 -3.4178 -0.1745
3.9238 -3.3732 -0.1685
3.8520 -3.3356 -0.1654
3.7313 -3.2723 -0.1599
3.6408 -3.2233 -0.1601
3.6133 -3.2056 -0.1688
3.5712 -3.1842 -0.1650
3.5345 -3.1651 -0.1628
3.4991 -3.1472 -0.1593
3.4778 -3.1336 -0.1657
3.4487 -3.1185 -0.1638
3.4158 -3.1032 -0.1566
3.3921 -3.0906 -0.1561
3.3774 -3.0803 -0.1630
3.3139 -3.0481 -0.1569
3.2975 -3.0390 -0.1577
3.2684 -3.0224 -0.1604
3.2549 -3.0146 -0.1617
3.2369 -3.0068 -0.1562
3.2266 -3.0000 -0.1599
3.2142 -2.9933 -0.1600
3.2020 -2.9869 -0.1594
3.1906 -2.9808 -0.1593
3.1786 -2.9749 -0.1574
3.1696 -2.9694 -0.1595
3.1600 -2.9640 -0.1599
3.1512 -2.9589 -0.1610
5.6237 -4.6169 1.0768
5.5230 -4.5357 0.9879
5.6415 -4.5814 0.9462
5.6275 -4.5501 0.8754
5.3764 -4.3436 0.6426
5.1838 -4.2195 0.5642
5.0614 -4.1351 0.4982
4.9635 -4.0651 0.4384
4.8993 -4.0138 0.3830
4.8751 -3.9831 0.3290
4.8645 -3.9593 0.2750
4.9062 -3.9604 0.2166
5.5727 -4.2268 0.0097
5.5816 -4.2047 -0.0681
4.9444 -3.8986 -0.0210
4.8515 -3.8382 -0.0604
4.8157 -3.8033 -0.1095
4.7554 -3.7589 -0.1502
4.7211 -3.7259 -0.1962
4.3026 -3.5285 -0.1545
4.2074 -3.4781 -0.1612
4.1515 -3.4435 -0.1795
4.0430 -3.3917 -0.1706
3.9664 -3.3528 -0.1711
3.8836 -3.3134 -0.1639
3.7614 -3.2528 -0.1604
3.6623 -3.2037 -0.1575
3.5882 -3.1651 -0.1606
3.5618 -3.1496 -0.1670
3.5197 -3.1309 -0.1595
3.5022 -3.1186 -0.1696
3.4107 -3.0764 -0.1577
3.3900 -3.0653 -0.1594
3.3696 -3.0548 -0.1601
3.3509 -3.0449 -0.1614
3.3285 -3.0349 -0.1573
3.3182 -3.0269 -0.1655
3.3009 -3.0184 -0.1649
3.2798 -3.0099 -0.1587
3.2668 -3.0025 -0.1610
3.2485 -2.9950 -0.1557
3.2396 -2.9885 -0.1616
3.2270 -2.9820 -0.1619
3.2129 -2.9758 -0.1594
3.2006 -2.9699 -0.1583
3.1876 -2.9643 -0.1555
3.1777 -2.9590 -0.1565
5.6701 -4.5574 1.0939
5.7263 -4.5651 1.0397
5.4071 -4.2588 0.5932
5.3365 -4.2016 0.5247
5.2003 -4.1138 0.4574
5.0848 -3.9127 0.0365
4.9126 -3.8207 0.0062
4.9290 -3.8071 -0.0554
4.9601 -3.7986 -0.1221
4.8796 -3.7469 -0.1611
4.8045 -3.6987 -0.1977
4.6461 -3.6218 -0.2033
4.4313 -3.5283 -0.1803
4.2800 -3.4604 -0.1696
4.1830 -3.4134 -0.1729
4.0915 -3.3700 -0.1733
4.0350 -3.3391 -0.1853
3.9273 -3.2941 -0.1682
3.7506 -3.2110 -0.1668
3.6833 -3.1836 -0.1541
3.6549 -3.1669 -0.1634
3.5792 -3.1311 -0.1634
3.5406 -3.1142 -0.1595
3.5160 -3.1009 -0.1645
3.4600 -3.0745 -0.1642
3.4043 -3.0505 -0.1574
3.3645 -3.0309 -0.1597
3.3441 -3.0217 -0.1585
3.3239 -3.0129 -0.1563
3.2937 -2.9974 -0.1597
3.2642 -2.9833 -0.1602
3.2313 -2.9704 -0.1524
3.2106 -2.9590 -0.1574
3.1858 -2.9486 -0.1535
3.1796 -2.9434 -0.1599
5.4984 -4.2020 0.5472
4.9151 -3.8194 0.1935
4.9181 -3.8010 0.1379
4.9336 -3.7872 0.0796
4.9227 -3.7629 0.0246
5.1207 -3.7933 -0.1361
4.9310 -3.7043 -0.1511
4.8537 -3.6571 -0.1882
4.6690 -3.5757 -0.1878
4.5039 -3.5042 -0.1842
4.3423 -3.4369 -0.1728
4.2018 -3.3791 -0.1610
4.1051 -3.3367 -0.1602
4.0432 -3.3059 -0.1702
3.9864 -3.2776 -0.1793
3.8949 -3.2415 -0.1672
3.7711 -3.1888 -0.1618
3.6879 -3.1497 -0.1684
3.5298 -3.0832 -0.1594
3.4806 -3.0591 -0.1660
3.4247 -3.0363 -0.1608
3.3774 -3.0167 -0.1573
3.3418 -3.0000 -0.1603
3.3264 -2.9923 -0.1627
3.3094 -2.9849 -0.1625
3.2902 -2.9778 -0.1586
3.2777 -2.9712 -0.1616
3.2628 -2.9649 -0.1609
3.2481 -2.9589 -0.1594
3.2231 -2.9478 -0.1596
3.2001 -2.9377 -0.1595
3.1877 -2.9331 -0.1569
3.1784 -2.9285 -0.1583
4.8344 -3.7661 0.3199
4.8485 -3.7531 0.2678
4.8504 -3.7351 0.2157
4.9017 -3.7351 0.1572
4.9574 -3.7355 0.0949
4.9594 -3.7159 0.0381
4.9358 -3.6873 -0.0145
4.9377 -3.6673 -0.0720
4.9539 -3.6517 -0.1337
4.8514 -3.5986 -0.1643
4.5256 -3.4628 -0.1702
4.4646 -3.4282 -0.1967
4.2854 -3.3627 -0.1744
4.0610 -3.2759 -0.1598
3.8008 -3.1683 -0.1619
3.4909 -3.0422 -0.1591
3.4453 -3.0216 -0.1641
3.4160 -3.0116 -0.1585
3.3920 -3.0025 -0.1564
3.3734 -2.9943 -0.1582
3.3609 -2.9866 -0.1651
3.3418 -2.9791 -0.1643
3.3229 -2.9719 -0.1625
3.3041 -2.9652 -0.1598
3.2889 -2.9589 -0.1600
3.2738 -2.9529 -0.1594
3.2621 -2.9471 -0.1622
3.2448 -2.9419 -0.1571
3.2317 -2.9367 -0.1564
3.2196 -2.9318 -0.1562
3.2132 -2.9266 -0.1632
3.1981 -2.9226 -0.1574
4.7281 -3.7559 0.5677
4.7399 -3.7440 0.5231
4.7204 -3.7194 0.4762
4.6916 -3.6914 0.4296
4.7638 -3.7020 0.3834
4.8826 -3.7094 0.2804
4.8725 -3.6869 0.2293
4.8987 -3.6767 0.1743
4.9657 -3.6795 0.1121
4.9831 -3.6647 0.0537
4.9852 -3.6446 -0.0034
5.0307 -3.6374 -0.0703
5.0343 -3.6168 -0.1303
4.5645 -3.4265 -0.1619
4.4774 -3.3866 -0.1803
4.1233 -3.2560 -0.1687
3.7840 -3.1282 -0.1652
3.6085 -3.0627 -0.1617
3.5083 -3.0259 -0.1579
3.4859 -3.0159 -0.1619
3.4602 -3.0061 -0.1619
3.4355 -2.9970 -0.1613
3.3862 -2.9802 -0.1558
3.3531 -2.9656 -0.1613
3.3356 -2.9589 -0.1615
3.3174 -2.9525 -0.1599
3.3010 -2.9465 -0.1593
3.2831 -2.9409 -0.1560
3.2671 -2.9356 -0.1537
3.2545 -2.9304 -0.1549
3.2453 -2.9252 -0.1596
3.2354 -2.9202 -0.1629
3.2086 -2.9119 -0.1578
3.1998 -2.9075 -0.1607
5.2956 -4.0085 0.8563
4.9081 -3.8278 0.7369
4.7070 -3.7289 0.6610
4.7175 -3.7170 0.6190
4.7385 -3.7088 0.5770
4.8027 -3.7164 0.5368
4.7934 -3.6955 0.4896
4.8051 -3.6823 0.4429
4.8291 -3.6730 0.3952
4.8778 -3.6716 0.3453
4.9674 -3.6827 0.2905
4.9313 -3.6512 0.2400
4.9334 -3.6323 0.1870
4.9885 -3.6293 0.1269
5.0469 -3.6261 0.0630
5.2382 -3.6596 -0.0277
4.9484 -3.5142 -0.1447
4.8139 -3.4597 -0.1640
4.6431 -3.3991 -0.1655
4.4887 -3.3455 -0.1637
4.4099 -3.3112 -0.1813
4.3028 -3.2726 -0.1838
4.1040 -3.2045 -0.1791
3.7120 -3.0729 -0.1621
3.6278 -3.0443 -0.1594
3.5671 -3.0209 -0.1649
3.5067 -3.0001 -0.1639
3.4545 -2.9820 -0.1632
3.4016 -2.9661 -0.1559
3.3680 -2.9521 -0.1618
3.3484 -2.9457 -0.1605
3.3299 -2.9397 -0.1591
3.3175 -2.9337 -0.1635
3.2967 -2.9286 -0.1575
3.2795 -2.9237 -0.1544
3.2676 -2.9186 -0.1568
3.2448 -2.9091 -0.1608
3.2307 -2.9051 -0.1582
3.2183 -2.9012 -0.1571
5.3974 -4.0057 0.9390
4.9055 -3.7726 0.7430
4.8731 -3.7427 0.6917
4.8865 -3.7302 0.6470
4.9236 -3.7258 0.6036
4.8794 -3.6920 0.5519
4.8141 -3.6515 0.5006
4.8048 -3.6308 0.4536
4.8508 -3.6281 0.4070
4.9111 -3.6289 0.3575
4.9886 -3.6337 0.3039
5.0803 -3.5991 0.1337
5.0983 -3.5827 0.0746
5.3134 -3.6171 -0.0186
5.4496 -3.6274 -0.1082
5.0543 -3.4843 -0.1484
5.0151 -3.4534 -0.1966
4.7465 -3.3745 -0.1754
4.6072 -3.3269 -0.1821
4.3561 -3.2446 -0.1848
4.1362 -3.1772 -0.1750
3.9612 -3.1247 -0.1640
3.8565 -3.0875 -0.1727
3.7253 -3.0520 -0.1545
3.6753 -3.0375 -0.1498
3.6529 -3.0261 -0.1609
3.5754 -3.0030 -0.1558
3.5241 -2.9837 -0.1628
3.4665 -2.9666 -0.1588
3.4190 -2.9517 -0.1576
3.3821 -2.9383 -0.1615
3.3649 -2.9321 -0.1630
3.3486 -2.9262 -0.1647
3.3273 -2.9211 -0.1599
3.3113 -2.9160 -0.1599
3.2834 -2.9062 -0.1617
3.2713 -2.9016 -0.1637
3.2542 -2.8979 -0.1588
3.2424 -2.8938 -0.1595
3.2315 -2.8898 -0.1609
3.2266 -2.8848 -0.1698
4.9235 -3.7440 0.7983
4.9029 -3.7191 0.7489
4.9158 -3.7061 0.7050
4.8843 -3.6774 0.6545
4.8640 -3.6528 0.6061
4.8766 -3.6393 0.5609
4.9021 -3.6294 0.5155
4.8925 -3.6081 0.4672
4.8938 -3.5901 0.4190
4.9079 -3.5755 0.3702
4.9591 -3.5711 0.3190
5.2041 -3.5966 0.1958
5.1032 -3.5486 0.1486
5.1512 -3.5389 0.0862
5.8473 -3.6812 -0.0809
5.1522 -3.4492 -0.1489
5.0517 -3.4064 -0.1831
4.7686 -3.3311 -0.1606
4.6373 -3.2882 -0.1710
4.5042 -3.2475 -0.1744
4.4034 -3.2144 -0.1828
4.1758 -3.1504 -0.1737
3.9978 -3.1012 -0.1646
3.8581 -3.0626 -0.1572
3.7578 -3.0325 -0.1582
3.7270 -3.0201 -0.1667
3.6745 -3.0073 -0.1597
3.6406 -2.9962 -0.1623
3.6080 -2.9859 -0.1641
3.5389 -2.9672 -0.1595
3.4859 -2.9511 -0.1606
3.4648 -2.9436 -0.1636
3.4385 -2.9369 -0.1608
3.4160 -2.9305 -0.1601
3.3973 -2.9243 -0.1619
3.3779 -2.9186 -0.1619
3.3614 -2.9130 -0.1637
3.3433 -2.9079 -0.1629
3.3084 -2.8988 -0.1597
3.2969 -2.8939 -0.1635
3.2802 -2.8902 -0.1605
3.2672 -2.8861 -0.1610
3.2534 -2.8825 -0.1597
3.2323 -2.8748 -0.1634
5.0010 -3.7374 0.8653
4.8983 -3.6839 0.7989
4.8677 -3.6562 0.7489
4.8800 -3.6431 0.7065
4.8821 -3.6263 0.6617
4.8953 -3.6127 0.6176
4.9193 -3.6021 0.5735
4.9453 -3.5914 0.5280
4.9974 -3.5876 0.4819
5.0522 -3.5835 0.4331
5.0683 -3.5678 0.3815
5.0450 -3.5414 0.3298
5.0888 -3.5321 0.2753
5.0783 -3.5087 0.2223
5.1397 -3.5019 0.1621
6.0904 -3.6599 -0.0918
6.2282 -3.6566 -0.1962
5.7431 -3.5301 -0.1848
5.2217 -3.4061 -0.1418
5.0603 -3.3545 -0.1626
4.8930 -3.3049 -0.1740
4.7376 -3.2603 -0.1809
4.5579 -3.2152 -0.1724
4.4453 -3.1824 -0.1785
4.0429 -3.0776 -0.1687
3.9790 -3.0594 -0.1714
3.7879 -3.0122 -0.1601
3.7556 -3.0002 -0.1685
3.6610 -2.9777 -0.1608
3.6239 -2.9679 -0.1602
3.5329 -2.9425 -0.1623
3.4794 -2.9283 -0.1617
3.4498 -2.9223 -0.1566
3.4316 -2.9160 -0.1603
3.3911 -2.9049 -0.1607
3.3568 -2.8947 -0.1630
3.3213 -2.8862 -0.1602
3.2927 -2.8781 -0.1614
3.2768 -2.8748 -0.1588
3.2637 -2.8712 -0.1588
3.2559 -2.8668 -0.1649
5.0265 -3.7298 0.9671
5.0171 -3.7088 0.9193
4.9266 -3.6610 0.8539
4.9175 -3.6407 0.8080
4.8981 -3.6172 0.7602
4.8994 -3.6001 0.7160
4.8903 -3.5798 0.6701
4.9492 -3.5791 0.6317
5.0121 -3.5783 0.5907
5.1338 -3.5922 0.5505
5.3527 -3.6293 0.5088
5.5207 -3.6494 0.4556
5.6271 -3.6513 0.3943
5.0927 -3.5004 0.3422
5.1241 -3.4868 0.2883
5.1421 -3.4696 0.2333
5.1456 -3.4488 0.1783
6.2192 -3.5756 -0.1658
5.8904 -3.4871 -0.1866
5.5336 -3.4003 -0.1860
5.1113 -3.3103 -0.1528
4.9773 -3.2689 -0.1750
4.7794 -3.2216 -0.1724
4.6313 -3.1840 -0.1760
4.2443 -3.0936 -0.1657
4.1658 -3.0725 -0.1707
4.0027 -3.0345 -0.1661
3.6825 -2.9588 -0.1598
3.5475 -2.9262 -0.1591
3.4913 -2.9132 -0.1573
3.4503 -2.9010 -0.1629
3.4263 -2.8959 -0.1608
3.4082 -2.8906 -0.1630
3.3705 -2.8814 -0.1631
3.3546 -2.8769 -0.1647
3.3362 -2.8732 -0.1626
3.3044 -2.8660 -0.1612
3.2784 -2.8589 -0.1633
3.2617 -2.8567 -0.1584
3.2539 -2.8525 -0.1642
4.9618 -3.6751 0.9967
4.9872 -3.6661 0.9602
4.9899 -3.6494 0.9168
4.9572 -3.6217 0.8652
4.9482 -3.6014 0.8192
4.9391 -3.5811 0.7733
4.9300 -3.5609 0.7273
4.9671 -3.5532 0.6877
5.0292 -3.5514 0.6489
5.0837 -3.5464 0.6064
5.2562 -3.5695 0.5696
5.3080 -3.5606 0.5187
5.5615 -3.5970 0.4707
5.8025 -3.6260 0.4108
5.1739 -3.4445 0.3007
5.2078 -3.4296 0.2446
5.1816 -3.4027 0.1916
6.2093 -3.4973 -0.1362
5.9919 -3.4329 -0.1784
5.1617 -3.2654 -0.1425
5.0246 -3.2262 -0.1655
4.8439 -3.1848 -0.1701
4.7188 -3.1523 -0.1830
4.6149 -3.1239 -0.1969
4.4237 -3.0908 -0.1751
4.2098 -3.0454 -0.1714
4.0563 -3.0105 -0.1745
3.9847 -2.9955 -0.1729
3.9239 -2.9820 -0.1732
3.8444 -2.9697 -0.1605
3.7879 -2.9588 -0.1566
3.7043 -2.9397 -0.1588
3.6281 -2.9235 -0.1575
3.5680 -2.9093 -0.1602
3.4458 -2.8808 -0.1645
3.4254 -2.8760 -0.1653
3.3995 -2.8726 -0.1597
3.3786 -2.8689 -0.1575
3.3504 -2.8601 -0.1640
3.3299 -2.8575 -0.1594
3.3125 -2.8546 -0.1568
3.3034 -2.8502 -0.1629
3.2907 -2.8469 -0.1644
3.2737 -2.8450 -0.1598
4.9813 -3.6329 1.0048
5.0060 -3.6230 0.9684
5.0807 -3.6272 0.9428
5.1225 -3.6207 0.9064
5.0998 -3.5956 0.8550
4.9933 -3.5482 0.7888
4.9724 -3.5246 0.7405
4.9867 -3.5101 0.6975
5.0615 -3.5099 0.6608
5.5236 -3.5989 0.6584
5.5490 -3.5813 0.6024
5.5439 -3.5325 0.4838
5.8472 -3.5688 0.4272
7.7179 -3.7185 -0.1051
5.9483 -3.3880 -0.0704
5.9871 -3.3631 -0.1510
5.5987 -3.2877 -0.1503
5.2290 -3.2216 -0.1358
5.1006 -3.1857 -0.1628
4.7490 -3.1136 -0.1719
4.4867 -3.0599 -0.1784
4.2492 -3.0171 -0.1698
4.0807 -2.9847 -0.1689
3.9494 -2.9586 -0.1702
3.8204 -2.9377 -0.1598
3.7334 -2.9199 -0.1620
3.6479 -2.9055 -0.1564
3.6167 -2.8986 -0.1585
3.5938 -2.8915 -0.1649
3.5259 -2.8815 -0.1571
3.5046 -2.8758 -0.1608
3.4607 -2.8660 -0.1638
3.4410 -2.8615 -0.1657
3.4128 -2.8588 -0.1586
3.3963 -2.8546 -0.1612
3.3838 -2.8498 -0.1670
3.3590 -2.8480 -0.1595
3.3402 -2.8453 -0.1569
3.3141 -2.8383 -0.1618
3.2876 -2.8326 -0.1633
5.1314 -3.6286 1.0500
5.1487 -3.6150 1.0093
5.2472 -3.6229 0.9874
5.1621 -3.5424 0.8256
5.0748 -3.5022 0.7636
5.6039 -3.6047 0.7930
5.7532 -3.6141 0.7535
5.6995 -3.5777 0.6867
5.4092 -3.4938 0.6026
5.4496 -3.4792 0.5499
5.7037 -3.5036 0.5031
6.0413 -3.5381 0.4461
7.4763 -3.6675 0.1616
6.4937 -3.4860 0.1284
6.6590 -3.4740 0.0296
6.6049 -3.4317 -0.0516
6.3465 -3.3668 -0.1023
6.1183 -3.3097 -0.1467
5.7962 -3.2477 -0.1636
5.4358 -3.1884 -0.1579
5.2871 -3.1518 -0.1853
4.9925 -3.1083 -0.1684
4.8426 -3.0785 -0.1787
4.6722 -3.0505 -0.1758
4.5445 -3.0273 -0.1792
4.4103 -3.0064 -0.1743
4.2945 -2.9883 -0.1700
4.1690 -2.9724 -0.1563
4.1010 -2.9587 -0.1614
4.0431 -2.9461 -0.1680
3.8514 -2.9160 -0.1616
3.7987 -2.9078 -0.1596
3.7527 -2.9002 -0.1588
3.6362 -2.8808 -0.1577
3.6069 -2.8748 -0.1600
3.5748 -2.8697 -0.1589
3.5479 -2.8646 -0.1603
3.4708 -2.8520 -0.1589
3.4518 -2.8476 -0.1617
3.4329 -2.8436 -0.1637
3.3860 -2.8388 -0.1557
3.3705 -2.8352 -0.1579
3.3523 -2.8327 -0.1565
3.3268 -2.8259 -0.1626
3.3100 -2.8240 -0.1601
3.2999 -2.8205 -0.1645
3.6009 -0.7823 0.7718
3.5986 -0.8471 0.7644
3.6108 -0.8852 0.7629
3.6397 -0.8960 0.7680
3.6372 -0.9574 0.7608
5.8540 0.6915 1.4138
4.4067 -1.9449 0.8204
4.3790 -1.9958 0.8090
4.2911 -2.0569 0.7836
7.6337 -2.1810 1.4885
7.1735 -2.5802 1.3469
6.9015 -2.7368 1.2717
6.5294 -2.7800 1.1871
6.6328 -2.8662 1.2001
6.5989 -2.9353 1.1854
3.5667 -0.9494 0.7146
3.5941 -0.9600 0.7188
3.6086 -0.9925 0.7185
5.7309 0.5841 1.2825
5.3286 0.0726 1.1549
4.3694 -1.9996 0.7674
7.5487 -2.1939 1.3632
4.5207 -2.3913 0.7585
6.4421 -2.7071 1.0992
6.4440 -2.7806 1.0924
6.3820 -2.8448 1.0742
6.3846 -2.9147 1.0679
7.1990 -3.2789 1.1898
6.9818 -3.3108 1.1447
6.8255 -3.3482 1.1108
3.4061 -1.0671 0.6443
3.4074 -1.1150 0.6403
3.4176 -1.1457 0.6393
3.4230 -1.1843 0.6369
3.4922 -1.2145 0.6461
5.7080 0.5749 1.1833
5.3332 0.0876 1.0762
4.5710 -0.7132 0.8752
4.5571 -2.3147 0.7323
4.5010 -2.3563 0.7190
4.4803 -2.3949 0.7121
6.5232 -2.7236 1.0338
6.3005 -2.7745 0.9911
6.8853 -3.2283 1.0516
6.7707 -3.2769 1.0277
3.4053 -1.1093 0.6127
3.7775 -1.2829 0.6549
5.1648 0.0483 0.9660
5.4118 0.1732 1.0126
4.6175 -0.6640 0.8287
4.5942 -0.7647 0.8174
4.4433 -1.8442 0.7107
4.4133 -1.9010 0.7018
4.3400 -1.9663 0.6858
4.2871 -2.0219 0.6735
4.2511 -2.0703 0.6644
4.4567 -2.2825 0.6786
4.4903 -2.3207 0.6807
4.5079 -2.3599 0.6802
4.5088 -2.3989 0.6773
6.4027 -2.6476 0.9411
6.3097 -2.7135 0.9221
6.3432 -2.7885 0.9213
6.7912 -3.1473 0.9603
6.4473 -3.1503 0.9087
6.7880 -3.2929 0.9485
3.4188 -1.0213 0.5924
3.2640 -1.4420 0.5442
3.2667 -1.4743 0.5423
3.2775 -1.4930 0.5424
5.3174 0.0945 0.9096
4.6681 -0.6106 0.7792
4.5567 -0.7907 0.7528
4.7187 -1.1896 0.7463
4.5902 -1.3314 0.7203
4.3763 -1.8661 0.6568
4.4353 -1.8960 0.6623
4.5390 -2.3633 0.6438
6.4137 -2.5811 0.8674
6.2274 -2.6437 0.8395
6.3854 -2.7298 0.8538
6.4531 -2.8106 0.8569
6.4878 -2.8882 0.8560
6.6621 -2.9872 0.8715
6.9290 -3.1075 0.8973
6.6970 -3.1412 0.8655
6.4925 -3.1708 0.8374
3.3963 -1.0545 0.5586
3.2506 -1.4206 0.5222
3.2536 -1.4532 0.5206
3.2589 -1.4808 0.5196
3.2710 -1.4972 0.5199
4.5776 -1.3365 0.6658
4.0381 -1.6856 0.5892
4.0427 -1.7272 0.5873
4.0481 -1.7678 0.5855
4.0746 -1.7985 0.5865
4.0580 -1.8472 0.5820
4.0796 -1.8798 0.5823
4.2605 -2.2997 0.5770
4.2462 -2.3354 0.5734
4.4202 -2.3682 0.5897
6.4605 -2.5133 0.7947
6.4277 -2.5907 0.7868
6.3320 -2.6604 0.7728
6.2424 -2.7253 0.7597
6.5022 -2.9004 0.7767
6.8699 -3.0307 0.8076
6.8677 -3.1088 0.8029
6.5055 -3.1157 0.7646
6.5730 -3.1991 0.7669
3.4466 -0.8854 0.5416
3.4115 -1.0136 0.5326
3.8362 -1.2575 0.5557
3.9872 -1.2204 0.5698
4.0473 -1.2230 0.5746
4.0507 -1.6777 0.5533
4.0453 -1.7250 0.5506
4.0088 -1.7854 0.5447
4.0446 -1.8112 0.5464
4.0446 -1.8526 0.5445
4.0869 -1.8773 0.5467
4.1087 -1.9107 0.5469
4.1297 -1.9446 0.5470
4.1405 -1.9817 0.5462
4.1678 -2.0143 0.5468
4.1838 -2.0502 0.5464
4.1998 -2.0860 0.5461
4.2159 -2.1218 0.5457
4.2892 -2.3012 0.5431
4.2743 -2.3377 0.5402
6.4746 -2.5226 0.7111
6.2170 -2.5874 0.6869
6.2508 -2.6630 0.6861
6.2241 -2.7326 0.6806
6.0070 -2.7769 0.6608
6.3572 -3.0300 0.6774
6.3600 -3.0983 0.6743
6.2446 -3.1402 0.6629
6.4589 -3.3195 0.6719
6.7283 -3.4565 0.6874
3.4110 -1.0031 0.5027
3.6766 -1.2220 0.5101
4.0190 -1.1272 0.5337
4.0628 -1.1456 0.5355
4.0949 -1.1764 0.5363
4.3156 -1.1818 0.5490
4.1907 -1.3903 0.5339
4.2588 -1.4580 0.5354
4.2261 -1.5312 0.5308
4.0529 -1.6754 0.5153
4.0525 -1.7206 0.5136
4.0469 -1.7672 0.5115
4.0735 -1.7984 0.5119
4.0847 -1.8365 0.5112
4.0673 -1.8848 0.5084
4.0940 -1.9162 0.5087
4.1098 -1.9516 0.5084
4.1206 -1.9884 0.5076
4.1765 -2.0134 0.5100
4.1990 -2.0482 0.5100
4.1974 -2.0882 0.5084
4.2188 -2.1233 0.5084
4.2296 -2.1602 0.5076
4.2576 -2.1946 0.5080
4.3367 -2.2637 0.5100
4.3130 -2.3030 0.5072
6.3811 -2.3667 0.6257
6.2253 -2.5216 0.6108
6.0827 -2.5878 0.6000
5.9545 -2.6477 0.5903
5.8364 -2.7021 0.5814
5.8199 -2.7629 0.5782
5.8259 -2.8251 0.5762
5.7213 -2.8684 0.5685
5.7279 -2.9268 0.5667
5.6130 -2.9602 0.5588
5.5999 -3.0105 0.5561
5.6079 -3.0643 0.5546
5.7737 -3.1576 0.5608
5.8067 -3.2725 0.5585
5.5749 -3.3472 0.5422
3.8294 -1.1998 0.4814
4.0597 -1.0819 0.4925
4.1347 -1.0735 0.4954
4.1474 -1.1250 0.4945
4.1749 -1.1635 0.4944
4.2178 -1.1905 0.4952
4.2544 -1.2239 0.4956
4.3166 -1.2404 0.4973
4.3465 -1.2819 0.4972
4.3954 -1.3119 0.4981
4.4269 -1.3544 0.4981
4.0604 -1.6702 0.4769
4.0491 -1.7214 0.4752
4.0541 -1.7633 0.4742
4.0933 -1.7896 0.4749
4.0866 -1.8357 0.4734
4.0430 -1.8941 0.4703
4.0635 -1.9271 0.4702
4.1182 -1.9498 0.4715
4.1119 -1.9918 0.4702
4.1615 -2.0185 0.4712
4.1662 -2.0572 0.4703
4.1760 -2.0943 0.4697
4.1750 -2.1328 0.4686
4.2261 -2.1629 0.4696
4.2552 -2.1974 0.4697
4.3773 -2.2638 0.4722
6.4305 -2.3746 0.5410
6.4322 -2.4574 0.5388
6.2064 -2.5292 0.5290
6.1798 -2.6023 0.5261
6.1543 -2.6729 0.5234
6.1876 -2.7472 0.5226
6.1628 -2.8143 0.5199
6.6187 -3.0248 0.5302
6.8863 -3.1485 0.5363
6.6914 -3.1873 0.5285
