ply
format ascii 1.0
element vertex 2215
property float x
property float y
property float z
end_header
4.4568 1.6065 -0.5588
4.4264 1.6320 -0.5758
4.4323 1.6519 -0.5664
4.4287 1.6731 -0.5639
4.4114 1.6974 -0.5711
4.4019 1.7201 -0.5728
4.3943 1.7423 -0.5731
4.3989 1.7608 -0.5650
4.3956 1.7814 -0.5625
4.3840 1.8047 -0.5656
4.3807 1.8251 -0.5631
4.3574 1.8723 -0.5693
4.3457 1.8963 -0.5724
4.3532 1.9114 -0.5629
4.3415 1.9353 -0.5660
4.3275 1.9605 -0.5705
4.3222 1.9814 -0.5694
4.3258 1.9973 -0.5626
4.3095 2.0241 -0.5686
4.8125 0.6269 -0.5542
4.8085 0.6546 -0.5502
4.7964 0.7009 -0.5480
4.7881 0.7199 -0.5497
4.7674 0.7518 -0.5580
4.7590 0.7713 -0.5598
4.7456 0.8158 -0.5589
4.7299 0.8569 -0.5609
4.7213 0.8768 -0.5626
4.7166 0.9013 -0.5601
4.7126 0.9262 -0.5568
4.7008 0.9426 -0.5621
4.6922 0.9626 -0.5638
4.6849 0.9841 -0.5641
4.6550 1.0960 -0.5590
4.6463 1.1162 -0.5608
4.6394 1.1631 -0.5542
4.6276 1.1817 -0.5588
4.6092 1.2465 -0.5567
4.6037 1.2681 -0.5556
4.5878 1.3097 -0.5576
4.5806 1.3307 -0.5579
4.5751 1.3522 -0.5567
4.5680 1.3732 -0.5570
4.5537 1.4152 -0.5575
4.5492 1.4365 -0.5557
4.5359 1.4570 -0.5610
4.5288 1.4781 -0.5613
4.5252 1.4992 -0.5587
4.5162 1.5203 -0.5604
4.5091 1.5413 -0.5607
4.5038 1.5623 -0.5595
4.4873 1.5843 -0.5670
4.4876 1.6045 -0.5615
4.4766 1.6262 -0.5647
4.4512 1.6907 -0.5685
4.4410 1.7127 -0.5709
4.4427 1.7315 -0.5647
4.4315 1.7539 -0.5679
4.4263 1.7930 -0.5619
4.4017 1.8573 -0.5649
4.3882 1.8812 -0.5696
4.3853 1.9004 -0.5669
4.3824 1.9194 -0.5643
4.3715 1.9597 -0.5627
4.3566 1.9849 -0.5681
4.8423 0.6452 -0.5507
4.8349 0.6645 -0.5517
4.8280 0.6849 -0.5520
4.8275 0.7178 -0.5434
4.8105 0.7520 -0.5484
4.8020 0.7694 -0.5509
4.7951 0.7897 -0.5511
4.7870 0.8082 -0.5529
4.7842 0.8347 -0.5480
4.7701 0.8447 -0.5571
4.7693 0.8734 -0.5500
4.7593 0.8897 -0.5540
4.7492 0.9062 -0.5580
4.7455 0.9304 -0.5545
4.7398 0.9522 -0.5533
4.7415 0.9816 -0.5440
4.7260 0.9929 -0.5539
4.7144 1.0087 -0.5593
4.7102 1.0316 -0.5566
4.7067 1.0550 -0.5532
4.7019 1.0769 -0.5512
4.6915 1.0944 -0.5552
4.6861 1.1158 -0.5540
4.6814 1.1375 -0.5521
4.6730 1.1568 -0.5538
4.6677 1.1778 -0.5526
4.6570 1.1960 -0.5566
4.6501 1.2163 -0.5569
4.6409 1.2356 -0.5594
4.6363 1.2570 -0.5574
4.6270 1.2764 -0.5599
4.6249 1.2984 -0.5557
4.6197 1.3191 -0.5545
4.6104 1.3387 -0.5570
4.6076 1.3599 -0.5535
4.6033 1.3805 -0.5516
4.5922 1.3999 -0.5556
4.5871 1.4203 -0.5543
4.5854 1.4409 -0.5501
4.5656 1.4600 -0.5616
4.5586 1.4804 -0.5619
4.5508 1.5008 -0.5629
4.5439 1.5212 -0.5632
4.5352 1.5416 -0.5650
4.5374 1.5613 -0.5577
4.5305 1.5815 -0.5580
4.5190 1.6023 -0.5620
4.5149 1.6222 -0.5601
4.5052 1.6430 -0.5626
4.4867 1.6658 -0.5719
4.4797 1.6865 -0.5722
4.4894 1.7026 -0.5596
4.4825 1.7228 -0.5599
4.4687 1.7452 -0.5655
4.4638 1.7649 -0.5642
4.4640 1.7826 -0.5592
4.4551 1.8035 -0.5610
4.4400 1.8271 -0.5673
4.4456 1.8421 -0.5585
4.4293 1.8665 -0.5656
4.4192 1.8883 -0.5681
4.4058 1.9119 -0.5730
4.4107 1.9263 -0.5649
4.4049 1.9460 -0.5644
4.3893 1.9711 -0.5707
4.3857 1.9896 -0.5687
4.8533 0.6943 -0.5528
4.8383 0.7306 -0.5556
4.8332 0.7534 -0.5536
4.8265 0.7732 -0.5538
4.8006 0.8232 -0.5623
4.8038 0.8581 -0.5495
4.7960 0.8759 -0.5513
4.7845 0.8889 -0.5577
4.7790 0.9103 -0.5564
4.7698 0.9269 -0.5598
4.7656 0.9497 -0.5570
4.7548 0.9920 -0.5544
4.7475 1.0109 -0.5555
4.7357 1.0769 -0.5470
4.7162 1.1108 -0.5545
4.7082 1.1293 -0.5563
4.7051 1.1514 -0.5527
4.6875 1.2110 -0.5511
4.6809 1.2304 -0.5514
4.6646 1.2680 -0.5550
4.6587 1.2878 -0.5545
4.6479 1.3275 -0.5527
4.6438 1.3476 -0.5506
4.6372 1.3669 -0.5509
4.6248 1.3851 -0.5566
4.6207 1.4050 -0.5545
4.6166 1.4248 -0.5525
4.6084 1.4440 -0.5543
4.6009 1.4633 -0.5553
4.5899 1.4826 -0.5595
4.5833 1.5022 -0.5597
4.5718 1.5412 -0.5587
4.5651 1.5607 -0.5589
4.5519 1.5998 -0.5595
4.5367 1.6392 -0.5616
4.5253 1.6598 -0.5657
4.5215 1.6788 -0.5636
4.5197 1.6971 -0.5600
4.5023 1.7198 -0.5689
4.4955 1.7396 -0.5691
4.4888 1.7594 -0.5694
4.4932 1.7751 -0.5610
4.4897 1.7934 -0.5590
4.4820 1.8132 -0.5600
4.4754 1.8326 -0.5603
4.4657 1.8535 -0.5629
4.4548 1.8750 -0.5663
4.4450 1.8963 -0.5689
4.4318 1.9193 -0.5739
4.4305 1.9363 -0.5702
4.4282 1.9535 -0.5673
6.0406 1.6388 -0.5426
6.0350 1.6579 -0.5436
6.0254 1.6763 -0.5407
6.0214 1.6958 -0.5433
6.0158 1.7151 -0.5443
5.9999 1.7521 -0.5417
6.0005 1.7737 -0.5489
5.9918 1.7919 -0.5468
5.9831 1.8100 -0.5448
5.9730 1.8271 -0.5411
5.9683 1.8696 -0.5501
5.9575 1.8860 -0.5457
5.9511 1.9051 -0.5460
5.9433 1.9231 -0.5447
5.9411 1.9452 -0.5496
5.9340 1.9638 -0.5490
5.9256 1.9811 -0.5469
5.9238 2.0044 -0.5526
5.9174 2.0236 -0.5529
5.9071 2.0389 -0.5485
5.9007 2.0579 -0.5487
5.8962 2.0791 -0.5513
5.8897 2.0982 -0.5515
5.8833 2.1173 -0.5518
5.8751 2.1341 -0.5497
5.8651 2.1482 -0.5453
5.8588 2.1671 -0.5455
5.8553 2.1904 -0.5496
5.8512 2.2130 -0.5530
5.8448 2.2321 -0.5532
5.8378 2.2503 -0.5527
5.8297 2.2664 -0.5506
5.8234 2.2855 -0.5509
5.8170 2.3045 -0.5511
5.8106 2.3235 -0.5513
5.8072 2.3490 -0.5563
5.7993 2.3649 -0.5542
5.7919 2.3817 -0.5529
6.0361 1.6794 -0.5267
6.0321 1.7200 -0.5353
6.0240 1.7390 -0.5341
6.0175 1.7583 -0.5343
6.0139 1.8237 -0.5507
5.9886 1.9043 -0.5532
5.9615 1.9589 -0.5465
5.9584 1.9814 -0.5505
5.9503 2.0001 -0.5493
5.9470 2.0229 -0.5533
5.9337 2.0628 -0.5538
5.9184 2.1004 -0.5520
5.9098 2.1180 -0.5500
5.9007 2.1347 -0.5473
5.8965 2.1576 -0.5506
5.8923 2.1806 -0.5538
5.8839 2.1979 -0.5518
5.8706 2.2375 -0.5523
5.8573 2.2771 -0.5528
5.8342 2.3302 -0.5491
5.8317 2.3583 -0.5554
5.8251 2.3782 -0.5556
5.8174 2.3958 -0.5544
5.8117 2.4179 -0.5561
6.0409 1.7666 -0.5311
6.0445 1.8137 -0.5474
6.0391 1.8349 -0.5491
6.0345 1.8566 -0.5515
6.0238 1.8753 -0.5482
6.0139 1.8941 -0.5456
6.0063 1.9141 -0.5451
5.9995 1.9345 -0.5454
5.9926 1.9550 -0.5457
5.9822 1.9727 -0.5423
5.9810 1.9975 -0.5483
5.9693 2.0139 -0.5436
5.9659 2.0373 -0.5474
5.9603 2.0590 -0.5491
5.9521 2.0782 -0.5480
5.9453 2.0986 -0.5482
5.9384 2.1190 -0.5485
5.9296 2.1372 -0.5466
5.9240 2.1592 -0.5483
5.9147 2.1764 -0.5457
5.9091 2.1983 -0.5474
5.9023 2.2187 -0.5476
5.8984 2.2435 -0.5515
5.8897 2.2613 -0.5496
5.8834 2.2826 -0.5506
5.8777 2.3050 -0.5523
5.8708 2.3255 -0.5526
5.8623 2.3429 -0.5506
5.8560 2.3644 -0.5516
5.8486 2.3838 -0.5512
5.8417 2.4042 -0.5514
5.8349 2.4246 -0.5517
5.8285 2.4462 -0.5527
5.8216 2.4666 -0.5529
6.0138 2.0216 -0.5545
6.0073 2.0437 -0.5555
5.9980 2.0634 -0.5537
5.9836 2.1064 -0.5542
5.9691 2.1494 -0.5548
5.9547 2.1923 -0.5553
5.9139 2.2924 -0.5511
5.9068 2.3137 -0.5514
5.8996 2.3349 -0.5517
5.8820 2.3714 -0.5480
5.8721 2.4221 -0.5542
5.8660 2.4456 -0.5559
5.8558 2.4603 -0.5519
5.8486 2.4815 -0.5522
6.0533 1.3470 -0.3824
6.0465 1.4369 -0.4006
6.0259 2.0289 -0.5386
6.0270 2.0578 -0.5469
6.0224 2.0824 -0.5499
6.0163 2.1059 -0.5515
6.0061 2.1254 -0.5491
5.9960 2.1448 -0.5467
5.9912 2.1697 -0.5497
5.9864 2.1948 -0.5526
5.9763 2.2140 -0.5502
5.9626 2.2281 -0.5438
5.9615 2.2582 -0.5508
5.9442 2.2990 -0.5487
5.9368 2.3210 -0.5490
5.9329 2.3487 -0.5533
5.9220 2.3651 -0.5495
5.9157 2.3891 -0.5512
5.9094 2.4132 -0.5528
5.9020 2.4353 -0.5531
5.8946 2.4575 -0.5534
5.8892 2.4840 -0.5563
5.8807 2.5040 -0.5553
5.8722 2.5239 -0.5542
5.8658 2.5484 -0.5558
6.0365 2.1520 -0.5497
6.0211 2.2304 -0.5582
6.0113 2.2514 -0.5566
6.0053 2.2772 -0.5588
5.9899 2.2905 -0.5514
5.9697 2.3644 -0.5555
5.9607 2.3857 -0.5546
5.9552 2.4128 -0.5574
5.9451 2.4321 -0.5551
5.9356 2.4522 -0.5535
5.9279 2.4753 -0.5538
5.9124 2.5214 -0.5544
5.9062 2.5479 -0.5566
5.8948 2.5630 -0.5524
6.0358 2.2426 -0.5425
6.0298 2.2687 -0.5446
6.0218 2.2925 -0.5449
6.0183 2.3222 -0.5495
6.0083 2.3436 -0.5480
6.0034 2.3720 -0.5514
5.9902 2.4249 -0.5551
5.9791 2.4442 -0.5523
5.9658 2.4593 -0.5470
5.9618 2.4903 -0.5517
5.9520 2.5112 -0.5501
5.9457 2.5383 -0.5523
5.9349 2.5568 -0.5495
5.9193 2.5649 -0.5411
5.8929 2.5480 -0.5198
6.0448 1.4007 -0.3318
6.0477 1.4910 -0.3537
6.0196 2.4633 -0.5529
6.0142 2.4933 -0.5562
6.0027 2.5137 -0.5536
5.9942 2.5389 -0.5539
5.9812 2.5557 -0.5495
6.0479 1.4026 -0.3153
6.0290 2.5493 -0.5466
6.0056 2.5497 -0.5328
5.9060 2.5549 -0.4750
6.0447 2.5259 -0.5197
6.0341 2.5489 -0.5184
6.0076 2.5440 -0.5027
5.9590 2.5348 -0.4737
5.9419 2.5408 -0.4654
5.9229 2.5414 -0.4549
5.9037 2.5398 -0.4439
6.0500 1.4074 -0.2804
6.0457 1.4372 -0.2838
6.0434 1.4523 -0.2855
6.0441 1.4672 -0.2886
6.0477 1.4819 -0.2933
6.0373 2.5455 -0.4890
6.0142 2.5466 -0.4770
5.9681 2.5427 -0.4521
5.9135 2.5502 -0.4249
5.8999 2.5595 -0.4195
6.0506 1.2915 -0.2419
6.0524 1.3030 -0.2449
6.0520 1.3157 -0.2470
6.0492 1.3295 -0.2481
6.0476 1.3430 -0.2497
6.0473 1.3694 -0.2542
6.0465 1.3832 -0.2563
6.0510 1.4240 -0.2658
6.0539 1.4379 -0.2697
6.0476 1.4539 -0.2694
6.0443 1.4694 -0.2706
6.0430 1.4847 -0.2726
6.0386 1.5005 -0.2733
6.0447 1.5479 -0.2847
6.0477 1.5645 -0.2892
6.0421 1.5813 -0.2894
6.0439 1.6898 -0.3096
6.0379 1.7076 -0.3099
6.0328 1.7257 -0.3106
6.0411 2.5431 -0.4603
6.0239 2.5543 -0.4539
5.9786 2.5527 -0.4313
5.9612 2.5590 -0.4238
6.0487 1.2954 -0.2252
6.0518 1.3064 -0.2284
6.0447 1.3216 -0.2277
6.0498 1.3322 -0.2319
6.0471 1.3460 -0.2329
6.0476 1.3589 -0.2353
6.0448 1.3730 -0.2364
6.0462 1.3859 -0.2392
6.0454 1.3998 -0.2412
6.0477 1.4131 -0.2444
6.0499 1.4267 -0.2477
6.0488 1.4414 -0.2497
6.0518 1.4555 -0.2534
6.0505 1.4707 -0.2554
6.0482 1.4862 -0.2569
6.0448 1.5020 -0.2580
6.0444 1.5176 -0.2604
6.0423 1.5497 -0.2648
6.0397 1.5661 -0.2664
6.0379 1.5827 -0.2683
6.0387 1.6894 -0.2866
6.0426 1.7094 -0.2917
6.0547 2.5569 -0.4392
6.0325 2.5600 -0.4295
6.0033 2.5492 -0.4143
5.9724 2.5323 -0.3972
5.9604 2.5479 -0.3943
5.9491 2.5644 -0.3918
5.9127 2.5665 -0.3754
6.0502 1.2978 -0.2099
6.0499 1.3101 -0.2117
6.0496 1.3227 -0.2136
6.0503 1.3350 -0.2158
6.0499 1.3479 -0.2176
6.0493 1.3611 -0.2195
6.0509 1.3738 -0.2221
6.0491 1.3878 -0.2236
6.0430 1.4030 -0.2233
6.0433 1.4167 -0.2256
6.0456 1.4444 -0.2310
6.0456 1.4589 -0.2332
6.0435 1.4739 -0.2347
6.0494 1.4882 -0.2394
6.0431 1.5042 -0.2392
6.0407 1.5198 -0.2407
6.0432 1.5354 -0.2442
6.0398 1.5515 -0.2453
6.0401 1.5678 -0.2480
6.0462 1.5846 -0.2532
6.0444 1.6015 -0.2551
6.0406 1.6184 -0.2561
6.0340 1.6352 -0.2559
6.0339 1.6528 -0.2586
6.0383 1.6716 -0.2635
6.0425 1.6910 -0.2683
6.0428 1.7101 -0.2715
6.0342 1.7271 -0.2704
6.0318 1.7459 -0.2723
6.0293 1.7648 -0.2742
6.0345 1.7869 -0.2799
6.0417 1.8321 -0.2901
6.0382 1.8745 -0.2952
6.0423 2.5678 -0.4058
6.0117 2.5549 -0.3906
5.9901 2.5554 -0.3815
5.9630 2.5436 -0.3680
5.9347 2.5641 -0.3591
5.9237 2.5795 -0.3568
6.0516 1.3003 -0.1948
6.0469 1.3144 -0.1949
6.0444 1.3276 -0.1959
6.0441 1.3401 -0.1976
6.0482 1.3513 -0.2009
6.0488 1.3640 -0.2030
6.0483 1.3773 -0.2047
6.0498 1.3902 -0.2072
6.0491 1.4040 -0.2090
6.0473 1.4182 -0.2103
6.0454 1.4326 -0.2117
6.0413 1.4475 -0.2122
6.0477 1.4608 -0.2167
6.0486 1.4754 -0.2192
6.0454 1.4908 -0.2202
6.0472 1.5058 -0.2231
6.0429 1.5216 -0.2237
6.0396 1.5374 -0.2247
6.0431 1.5532 -0.2284
6.0425 1.5694 -0.2306
6.0419 1.5859 -0.2327
6.0469 1.6031 -0.2372
6.0422 1.6199 -0.2378
6.0375 1.6367 -0.2384
6.0384 1.6545 -0.2414
6.0419 1.6732 -0.2455
6.0425 1.6918 -0.2485
6.0403 1.7101 -0.2503
6.0425 1.7299 -0.2541
6.0374 1.7479 -0.2547
6.0314 1.7657 -0.2549
6.0324 1.7862 -0.2583
6.0346 2.5464 -0.3706
6.0213 2.5628 -0.3677
5.9903 2.5469 -0.3530
5.9782 2.5628 -0.3505
5.9319 2.5488 -0.3301
5.9210 2.5638 -0.3279
6.0472 1.3172 -0.1795
6.0425 1.3312 -0.1797
6.0423 1.3436 -0.1813
6.0464 1.3547 -0.1844
6.0527 1.3655 -0.1881
6.0423 1.3818 -0.1865
6.0440 1.3944 -0.1889
6.0466 1.4071 -0.1916
6.0459 1.4210 -0.1932
6.0462 1.4348 -0.1952
6.0464 1.4489 -0.1972
6.0476 1.4630 -0.1996
6.0497 1.4774 -0.2023
6.0465 1.4927 -0.2032
6.0471 1.5232 -0.2076
6.0438 1.5390 -0.2085
6.0429 1.5710 -0.2126
6.0375 1.5872 -0.2128
6.0397 1.6039 -0.2159
6.0485 1.6218 -0.2215
6.0467 1.6391 -0.2232
6.0390 1.6736 -0.2251
6.0462 1.6934 -0.2305
6.0458 1.7122 -0.2329
6.0436 1.7307 -0.2346
6.0376 1.7484 -0.2348
6.0414 1.7694 -0.2391
6.0363 1.7876 -0.2396
6.0346 1.8074 -0.2417
6.0319 1.8271 -0.2434
6.0368 1.8506 -0.2484
6.0407 1.8744 -0.2531
6.0443 1.8989 -0.2578
6.0379 1.9180 -0.2580
6.0428 1.9445 -0.2634
6.0453 2.1839 -0.2970
6.0507 2.5646 -0.3509
6.0341 2.5760 -0.3463
6.0071 2.5680 -0.3353
5.9874 2.5708 -0.3285
5.9390 2.5534 -0.3083
6.0532 1.3177 -0.1659
6.0473 1.3322 -0.1658
6.0517 1.3430 -0.1686
6.0525 1.3554 -0.1705
6.0510 1.3688 -0.1716
6.0439 1.3839 -0.1712
6.0467 1.3962 -0.1737
6.0516 1.4084 -0.1768
6.0552 1.4213 -0.1797
6.0470 1.4370 -0.1789
6.0504 1.4504 -0.1818
6.0495 1.4649 -0.1833
6.0517 1.4793 -0.1858
6.0527 1.4941 -0.1880
6.0444 1.5100 -0.1872
6.0503 1.5249 -0.1911
6.0490 1.5406 -0.1927
6.0387 1.5566 -0.1912
6.0412 1.5725 -0.1941
6.0417 1.5888 -0.1963
6.0431 1.6055 -0.1989
6.0472 1.6229 -0.2025
6.0454 1.6400 -0.2040
6.0408 1.6569 -0.2046
6.0351 1.6737 -0.2048
6.0341 1.6915 -0.2067
6.0404 1.7114 -0.2113
6.0437 1.7312 -0.2149
6.0423 1.7502 -0.2169
6.0399 1.7690 -0.2184
6.0340 1.7868 -0.2187
6.0420 1.8103 -0.2243
6.0454 1.8328 -0.2283
6.0426 1.8529 -0.2299
6.0406 1.8737 -0.2319
6.0427 1.8971 -0.2355
6.0454 1.9215 -0.2396
6.0439 1.9439 -0.2419
6.0447 1.9682 -0.2452
6.0477 1.9947 -0.2496
6.0370 2.0117 -0.2481
6.0425 2.5051 -0.3122
6.0362 2.5326 -0.3136
6.0293 2.5592 -0.3146
6.0029 2.5518 -0.3048
5.9771 2.5428 -0.2949
5.9639 2.5554 -0.2920
5.9461 2.5580 -0.2864
6.0476 1.3349 -0.1506
6.0452 1.3481 -0.1514
6.0518 1.3584 -0.1546
6.0481 1.3723 -0.1551
6.0444 1.3863 -0.1556
6.0506 1.3977 -0.1588
6.0490 1.4115 -0.1599
6.0451 1.4259 -0.1604
6.0466 1.4394 -0.1624
6.0459 1.4535 -0.1639
6.0377 1.4689 -0.1631
6.0421 1.4826 -0.1661
6.0464 1.4968 -0.1691
6.0464 1.5117 -0.1708
6.0484 1.5268 -0.1732
6.0421 1.5425 -0.1730
6.0469 1.5582 -0.1763
6.0435 1.5741 -0.1772
6.0460 1.5905 -0.1798
6.0406 1.6067 -0.1801
6.0419 1.6236 -0.1824
6.0422 1.6407 -0.1845
6.0433 1.6583 -0.1869
6.0424 1.6760 -0.1887
6.0405 1.6936 -0.1901
6.0412 1.7122 -0.1925
6.0437 1.7317 -0.1956
6.0442 1.7511 -0.1980
6.0518 1.7733 -0.2029
6.0395 1.7889 -0.2009
6.0397 1.8093 -0.2034
6.0442 1.8319 -0.2074
6.0441 1.8531 -0.2098
6.0481 1.8769 -0.2138
6.0469 1.8985 -0.2160
6.0464 1.9210 -0.2184
6.0391 1.9396 -0.2183
6.0376 1.9620 -0.2205
6.0400 1.9876 -0.2242
6.0431 2.0143 -0.2283
6.0380 2.0355 -0.2292
6.0430 2.0652 -0.2342
6.0393 2.0883 -0.2357
6.0401 2.1158 -0.2391
6.0316 2.1350 -0.2388
6.0244 2.1833 -0.2422
6.0174 2.2042 -0.2424
6.0035 2.5442 -0.2777
5.9912 2.5598 -0.2758
5.9662 2.5507 -0.2670
5.9483 2.5532 -0.2618
6.0535 1.3479 -0.1382
6.0510 1.3613 -0.1390
6.0508 1.3741 -0.1403
6.0448 1.3887 -0.1402
6.0467 1.4012 -0.1420
6.0496 1.4138 -0.1442
6.0501 1.4272 -0.1457
6.0527 1.4405 -0.1479
6.0488 1.4552 -0.1484
6.0459 1.4698 -0.1491
6.0472 1.4840 -0.1510
6.0473 1.4986 -0.1526
6.0513 1.5440 -0.1585
6.0409 1.5598 -0.1573
6.0447 1.5757 -0.1601
6.0453 1.5919 -0.1620
6.0439 1.6083 -0.1633
6.0456 1.6423 -0.1674
6.0439 1.6594 -0.1688
6.0430 1.6769 -0.1704
6.0440 1.6952 -0.1726
6.0411 1.7128 -0.1737
6.0446 1.7324 -0.1768
6.0460 1.7914 -0.1835
6.0445 1.8111 -0.1851
6.0428 1.8310 -0.1868
6.0359 1.8487 -0.1867
6.0463 1.9199 -0.1972
6.0450 1.9420 -0.1992
6.0435 1.9645 -0.2012
6.0436 1.9884 -0.2038
6.0393 2.0343 -0.2075
6.0421 2.0620 -0.2112
6.0392 2.0855 -0.2129
6.0417 2.1143 -0.2167
6.0440 2.1437 -0.2204
6.0385 2.1661 -0.2213
6.0396 2.1957 -0.2248
6.0340 2.2186 -0.2256
6.0436 2.2592 -0.2326
6.0480 2.3272 -0.2411
6.0481 2.3932 -0.2482
6.0430 2.4203 -0.2497
6.0377 2.5566 -0.2627
6.0199 2.5643 -0.2586
5.9961 2.5599 -0.2515
5.9759 2.5600 -0.2458
5.9621 2.5709 -0.2431
6.0492 1.3399 -0.1209
6.0515 1.3513 -0.1226
6.0513 1.3639 -0.1238
6.0568 1.3749 -0.1262
6.0531 1.3889 -0.1267
6.0505 1.4027 -0.1274
6.0512 1.4158 -0.1288
6.0485 1.4299 -0.1295
6.0447 1.4443 -0.1299
6.0419 1.4586 -0.1306
6.0445 1.4721 -0.1326
6.0512 1.4856 -0.1356
6.0493 1.5004 -0.1365
6.0462 1.5155 -0.1372
6.0421 1.5307 -0.1377
6.0432 1.5459 -0.1394
6.0451 1.5614 -0.1414
6.0449 1.5772 -0.1429
6.0416 1.5931 -0.1436
6.0392 1.6092 -0.1446
6.0457 1.6264 -0.1479
6.0454 1.6606 -0.1511
6.0408 1.6774 -0.1516
6.0362 1.6941 -0.1521
6.0475 1.7150 -0.1569
6.0427 1.7323 -0.1574
6.0412 1.7700 -0.1607
6.0417 1.7898 -0.1627
6.0394 1.8089 -0.1640
6.0441 1.8313 -0.1674
6.0415 1.8510 -0.1686
6.0388 1.8924 -0.1720
6.0386 1.9143 -0.1740
6.0425 1.9392 -0.1774
6.0461 1.9648 -0.1808
6.0471 1.9892 -0.1834
6.0462 2.0129 -0.1855
6.0405 2.0332 -0.1860
6.0474 2.0641 -0.1908
6.0430 2.0862 -0.1918
6.0378 2.1078 -0.1926
6.0310 2.1281 -0.1929
6.0387 2.1629 -0.1982
6.0493 2.2314 -0.2075
6.0398 2.2505 -0.2070
6.0391 2.2799 -0.2096
6.0390 2.3106 -0.2126
6.0436 2.3484 -0.2174
6.0462 2.4530 -0.2282
6.0457 2.4878 -0.2315
6.0350 2.5073 -0.2307
6.0271 2.5309 -0.2310
6.0314 2.5757 -0.2364
5.9940 2.5475 -0.2243
5.9794 2.5577 -0.2216
5.9526 2.5434 -0.2135
6.0552 1.3404 -0.1073
6.0517 1.3539 -0.1077
6.0551 1.3653 -0.1095
6.0469 1.3804 -0.1090
6.0524 1.3916 -0.1112
6.0521 1.4047 -0.1123
6.0495 1.4186 -0.1129
6.0513 1.4316 -0.1144
6.0486 1.4458 -0.1151
6.0502 1.4593 -0.1166
6.0452 1.4741 -0.1168
6.0520 1.4875 -0.1195
6.0448 1.5028 -0.1192
6.0471 1.5173 -0.1210
6.0483 1.5475 -0.1239
6.0441 1.5630 -0.1243
6.0430 1.5786 -0.1255
6.0437 1.5946 -0.1270
6.0494 1.6113 -0.1298
6.0480 1.6278 -0.1309
6.0465 1.6446 -0.1320
6.0439 1.6613 -0.1329
6.0413 1.6783 -0.1338
6.0415 1.6960 -0.1354
6.0406 1.7139 -0.1368
6.0416 1.7325 -0.1386
6.0422 1.7705 -0.1421
6.0436 1.7906 -0.1442
6.0423 1.8099 -0.1456
6.0408 1.8295 -0.1470
6.0454 1.8524 -0.1500
6.0455 1.8736 -0.1519
6.0437 1.8943 -0.1533
6.0401 1.9142 -0.1542
6.0398 1.9364 -0.1561
6.0361 1.9567 -0.1571
6.0373 1.9807 -0.1594
6.0325 2.0009 -0.1601
6.0326 2.0495 -0.1644
6.0364 2.0779 -0.1678
6.0309 2.1249 -0.1706
6.0402 2.1889 -0.1783
6.0410 2.2476 -0.1836
6.0419 2.2786 -0.1866
6.0390 2.3056 -0.1883
6.0417 2.3404 -0.1919
6.0370 2.3665 -0.1932
6.0414 2.4054 -0.1976
6.0372 2.4332 -0.1991
6.0350 2.4643 -0.2013
6.0353 2.5002 -0.2045
6.0347 2.5355 -0.2074
6.0254 2.5570 -0.2073
5.9559 2.5409 -0.1904
6.0530 1.3439 -0.0922
6.0554 1.3554 -0.0936
6.0530 1.3686 -0.0941
6.0540 1.3808 -0.0953
6.0493 1.3950 -0.0955
6.0480 1.4082 -0.0963
6.0510 1.4206 -0.0978
6.0496 1.4343 -0.0986
6.0469 1.4483 -0.0992
6.0426 1.4765 -0.1006
6.0452 1.4903 -0.1022
6.0509 1.5041 -0.1044
6.0395 1.5196 -0.1033
6.0366 1.5345 -0.1039
6.0441 1.5492 -0.1066
6.0420 1.5645 -0.1074
6.0450 1.5801 -0.1092
6.0510 1.5964 -0.1116
6.0416 1.6119 -0.1110
6.0443 1.6286 -0.1128
6.0429 1.6451 -0.1138
6.0463 1.6627 -0.1159
6.0486 1.6805 -0.1177
6.0469 1.6979 -0.1187
6.0403 1.7143 -0.1188
6.0423 1.7331 -0.1206
6.0450 1.7526 -0.1227
6.0449 1.7716 -0.1241
6.0437 1.7906 -0.1254
6.0469 1.8117 -0.1277
6.0383 1.8281 -0.1273
6.0440 1.8512 -0.1302
6.0406 1.8705 -0.1310
6.0416 1.8923 -0.1329
6.0389 1.9125 -0.1340
6.0422 1.9367 -0.1365
6.0402 1.9580 -0.1378
6.0389 1.9803 -0.1393
6.0525 2.0138 -0.1446
6.0508 2.0372 -0.1461
6.0475 2.0595 -0.1472
6.0521 2.0890 -0.1504
6.0445 2.1084 -0.1504
6.0386 2.1292 -0.1509
6.0388 2.1563 -0.1531
6.0396 2.1846 -0.1554
6.0452 2.2480 -0.1615
6.0425 2.2746 -0.1631
6.0448 2.3079 -0.1661
6.0418 2.3353 -0.1677
6.0372 2.3611 -0.1688
6.0445 2.4719 -0.1789
6.0442 2.5068 -0.1816
6.0396 2.5357 -0.1829
6.0317 2.5594 -0.1832
6.0074 2.5545 -0.1781
5.9888 2.5576 -0.1747
5.9616 2.5431 -0.1683
5.9499 2.5563 -0.1671
6.0495 1.3478 -0.0772
6.0497 1.3599 -0.0781
6.0497 1.3721 -0.0789
6.0532 1.3836 -0.0803
6.0507 1.3970 -0.0808
6.0540 1.4091 -0.0822
6.0481 1.4236 -0.0822
6.0489 1.4366 -0.0833
6.0496 1.4500 -0.0843
6.0481 1.4639 -0.0850
6.0454 1.4782 -0.0855
6.0448 1.4923 -0.0864
6.0474 1.5063 -0.0878
6.0466 1.5209 -0.0887
6.0479 1.5357 -0.0899
6.0491 1.5507 -0.0912
6.0389 1.5814 -0.0916
6.0419 1.5972 -0.0932
6.0417 1.6132 -0.0943
6.0415 1.6294 -0.0953
6.0441 1.6463 -0.0970
6.0476 1.6638 -0.0988
6.0461 1.6809 -0.0997
6.0445 1.6981 -0.1006
6.0409 1.7150 -0.1012
6.0429 1.7337 -0.1028
6.0401 1.7514 -0.1035
6.0392 1.7698 -0.1047
6.0362 1.7878 -0.1054
6.0366 1.8271 -0.1082
6.0442 1.8509 -0.1111
6.0418 1.8705 -0.1121
6.0411 1.9128 -0.1149
6.0428 1.9359 -0.1167
6.0485 1.9622 -0.1195
6.0422 1.9810 -0.1198
6.0459 2.0072 -0.1222
6.0461 2.0315 -0.1239
6.0470 2.0568 -0.1258
6.0418 2.1032 -0.1282
6.0415 2.1290 -0.1299
6.0426 2.1568 -0.1320
6.0319 2.1731 -0.1313
6.0377 2.2645 -0.1386
6.0395 2.2965 -0.1411
6.0432 2.3319 -0.1442
6.0373 2.3556 -0.1449
6.0399 2.3913 -0.1478
6.0388 2.4227 -0.1497
6.0442 2.4996 -0.1560
6.0458 2.5382 -0.1589
6.0319 2.5517 -0.1575
6.0089 2.5488 -0.1535
5.9850 2.5423 -0.1490
5.9673 2.5453 -0.1462
5.9600 2.5670 -0.1465
6.0496 1.3504 -0.0630
6.0474 1.3632 -0.0634
6.0487 1.3750 -0.0643
6.0487 1.3874 -0.0651
6.0510 1.3994 -0.0661
6.0509 1.4122 -0.0669
6.0518 1.4250 -0.0678
6.0448 1.4397 -0.0677
6.0434 1.4532 -0.0683
6.0475 1.4661 -0.0696
6.0492 1.4797 -0.0707
6.0509 1.4936 -0.0718
6.0459 1.5083 -0.0719
6.0431 1.5229 -0.0724
6.0456 1.5375 -0.0736
6.0448 1.5524 -0.0744
6.0460 1.5676 -0.0755
6.0439 1.5987 -0.0771
6.0438 1.6146 -0.0780
6.0426 1.6307 -0.0788
6.0424 1.6471 -0.0798
6.0420 1.6638 -0.0807
6.0386 1.6802 -0.0812
6.0433 1.7162 -0.0841
6.0435 1.7343 -0.0852
6.0389 1.7513 -0.0856
6.0371 1.7692 -0.0864
6.0389 1.7888 -0.0878
6.0396 1.8084 -0.0891
6.0394 1.8280 -0.0902
6.0399 1.8484 -0.0915
6.0465 1.8723 -0.0939
6.0405 1.8902 -0.0941
6.0389 1.9106 -0.0951
6.0364 1.9307 -0.0960
6.0389 1.9545 -0.0978
6.0412 1.9788 -0.0996
6.0409 2.0017 -0.1009
6.0362 2.0218 -0.1015
6.0332 2.0434 -0.1023
6.0407 2.0742 -0.1052
6.0414 2.1001 -0.1069
6.0444 2.1288 -0.1090
6.0456 2.1566 -0.1109
6.0443 2.1824 -0.1122
6.0413 2.2070 -0.1133
6.0366 2.2301 -0.1140
6.0312 2.2525 -0.1146
6.0400 2.4516 -0.1278
6.0398 2.5209 -0.1320
6.0421 2.5608 -0.1347
6.0196 2.5592 -0.1314
5.9994 2.5598 -0.1286
5.9757 2.5523 -0.1248
6.0472 1.3539 -0.0486
6.0498 1.3650 -0.0495
6.0476 1.3778 -0.0499
6.0430 1.3914 -0.0501
6.0501 1.4020 -0.0514
6.0489 1.4150 -0.0520
6.0510 1.4275 -0.0529
6.0452 1.4418 -0.0529
6.0449 1.4551 -0.0536
6.0435 1.4688 -0.0541
6.0453 1.4822 -0.0550
6.0482 1.4958 -0.0560
6.0433 1.5104 -0.0562
6.0459 1.5245 -0.0572
6.0442 1.5392 -0.0578
6.0456 1.5540 -0.0587
6.0416 1.5690 -0.0590
6.0417 1.5843 -0.0598
6.0439 1.6000 -0.0609
6.0438 1.6158 -0.0617
6.0427 1.6318 -0.0624
6.0405 1.6478 -0.0629
6.0472 1.6656 -0.0646
6.0379 1.6808 -0.0643
6.0414 1.6987 -0.0657
6.0447 1.7172 -0.0670
6.0479 1.7360 -0.0683
6.0433 1.7530 -0.0686
6.0415 1.7709 -0.0694
6.0377 1.7884 -0.0698
6.0312 1.8048 -0.0699
6.0412 1.8286 -0.0723
6.0399 1.8480 -0.0731
6.0468 1.8718 -0.0751
6.0402 1.9103 -0.0764
6.0324 1.9271 -0.0763
6.0351 1.9507 -0.0778
6.0350 1.9729 -0.0790
6.0382 1.9980 -0.0806
6.0412 2.0237 -0.0823
6.0357 2.0433 -0.0827
6.0417 2.0727 -0.0849
6.0458 2.1014 -0.0868
6.0374 2.1454 -0.0881
6.0397 2.2016 -0.0912
6.0367 2.2262 -0.0921
6.0314 2.2484 -0.0927
6.0312 2.2771 -0.0941
6.0406 2.3185 -0.0973
6.0474 2.3582 -0.1001
6.0357 2.3740 -0.0996
6.0399 2.4120 -0.1020
6.0339 2.4362 -0.1026
6.0425 2.4829 -0.1060
6.0397 2.5133 -0.1072
6.0409 2.5509 -0.1093
6.0317 2.5719 -0.1093
6.0007 2.5539 -0.1048
5.9814 2.5545 -0.1027
6.0516 1.3431 -0.0346
6.0507 1.3552 -0.0350
6.0522 1.3667 -0.0356
6.0524 1.3788 -0.0362
6.0466 1.3928 -0.0363
6.0444 1.4058 -0.0366
6.0468 1.4178 -0.0373
6.0467 1.4306 -0.0379
6.0512 1.4428 -0.0388
6.0498 1.4563 -0.0392
6.0473 1.4702 -0.0396
6.0403 1.4848 -0.0396
6.0432 1.4982 -0.0404
6.0471 1.5119 -0.0414
6.0455 1.5263 -0.0418
6.0470 1.5408 -0.0426
6.0474 1.5555 -0.0433
6.0413 1.5705 -0.0433
6.0373 1.5855 -0.0436
6.0417 1.6011 -0.0447
6.0428 1.6169 -0.0454
6.0416 1.6490 -0.0467
6.0454 1.6662 -0.0478
6.0451 1.6830 -0.0485
6.0457 1.7004 -0.0493
6.0481 1.7186 -0.0502
6.0504 1.7372 -0.0512
6.0467 1.7543 -0.0516
6.0373 1.7696 -0.0515
6.0441 1.7908 -0.0530
6.0412 1.8088 -0.0535
6.0420 1.8287 -0.0544
6.0374 1.8869 -0.0564
6.0476 1.9137 -0.0585
6.0380 1.9295 -0.0583
6.0381 1.9514 -0.0593
6.0390 1.9742 -0.0603
6.0335 2.0159 -0.0616
6.0432 2.0472 -0.0638
6.0393 2.0683 -0.0643
6.0370 2.0910 -0.0651
6.0485 2.1268 -0.0676
6.0563 2.1607 -0.0698
6.0423 2.1736 -0.0691
6.0411 2.1995 -0.0701
6.0437 2.2300 -0.0716
6.0405 2.2838 -0.0736
6.0406 2.3439 -0.0762
6.0444 2.3802 -0.0780
6.0356 2.3999 -0.0781
6.0340 2.4300 -0.0792
6.0415 2.4745 -0.0818
6.0444 2.5135 -0.0837
6.0422 2.5454 -0.0849
6.0392 2.5765 -0.0859
6.0053 2.5538 -0.0820
5.9872 2.5568 -0.0805
5.9786 2.5761 -0.0805
6.0502 1.3462 -0.0208
6.0506 1.3578 -0.0212
6.0486 1.3704 -0.0215
6.0476 1.3827 -0.0219
6.0479 1.3948 -0.0223
6.0421 1.4087 -0.0224
6.0469 1.4200 -0.0231
6.0481 1.4325 -0.0236
6.0457 1.4460 -0.0239
6.0536 1.4578 -0.0248
6.0522 1.4715 -0.0252
6.0485 1.4857 -0.0254
6.0481 1.4995 -0.0259
6.0510 1.5133 -0.0265
6.0472 1.5279 -0.0268
6.0444 1.5425 -0.0271
6.0514 1.5571 -0.0280
6.0442 1.5720 -0.0281
6.0445 1.5872 -0.0286
6.0363 1.6020 -0.0286
6.0375 1.6176 -0.0292
6.0427 1.6340 -0.0301
6.0457 1.6506 -0.0308
6.0496 1.6678 -0.0317
6.0493 1.6847 -0.0322
6.0340 1.6983 -0.0317
6.0435 1.7179 -0.0330
6.0434 1.7536 -0.0342
6.0388 1.7703 -0.0345
6.0399 1.7893 -0.0352
6.0419 1.8090 -0.0360
6.0372 1.8262 -0.0363
6.0399 1.8471 -0.0371
6.0429 1.8892 -0.0387
6.0460 1.9119 -0.0397
6.0427 1.9313 -0.0402
6.0367 1.9492 -0.0404
6.0403 1.9736 -0.0414
6.0359 1.9930 -0.0418
6.0375 2.0171 -0.0427
6.0398 2.0424 -0.0437
6.0410 2.0674 -0.0447
6.0396 2.0908 -0.0454
6.0516 2.1797 -0.0491
6.0449 2.1999 -0.0494
6.0381 2.2200 -0.0497
6.0329 2.2419 -0.0501
6.0422 2.2813 -0.0520
6.0436 2.3125 -0.0531
6.0380 2.3354 -0.0536
6.0398 2.4323 -0.0570
6.0368 2.4607 -0.0577
6.0427 2.5037 -0.0596
6.0393 2.5330 -0.0603
6.0316 2.5558 -0.0606
6.0111 2.5561 -0.0593
5.9856 2.5457 -0.0574
6.0483 1.3380 -0.0069
6.0476 1.3497 -0.0072
6.0505 1.3604 -0.0076
6.0485 1.3728 -0.0078
6.0548 1.3830 -0.0083
6.0502 1.3965 -0.0085
6.0457 1.4101 -0.0087
6.0482 1.4220 -0.0091
6.0471 1.4349 -0.0094
6.0482 1.4476 -0.0097
6.0447 1.4613 -0.0099
6.0434 1.4748 -0.0102
6.0466 1.4878 -0.0107
6.0463 1.5015 -0.0110
6.0427 1.5158 -0.0112
6.0500 1.5294 -0.0119
6.0451 1.5441 -0.0121
6.0488 1.5586 -0.0126
6.0438 1.5734 -0.0128
6.0442 1.5885 -0.0132
6.0423 1.6037 -0.0135
6.0436 1.6193 -0.0139
6.0426 1.6350 -0.0143
6.0519 1.6525 -0.0151
6.0466 1.6681 -0.0153
6.0404 1.6836 -0.0154
6.0472 1.7020 -0.0161
6.0438 1.7185 -0.0164
6.0433 1.7360 -0.0169
6.0477 1.7552 -0.0175
6.0441 1.7723 -0.0178
6.0424 1.7902 -0.0182
6.0435 1.8095 -0.0187
6.0388 1.8267 -0.0190
6.0444 1.8488 -0.0198
6.0442 1.8687 -0.0203
6.0402 1.8870 -0.0206
6.0525 1.9148 -0.0217
6.0429 1.9304 -0.0218
6.0423 1.9516 -0.0223
6.0398 1.9719 -0.0227
6.0371 2.0381 -0.0243
6.0384 2.0630 -0.0250
6.0347 2.0839 -0.0254
6.0432 2.1164 -0.0265
6.0456 2.1704 -0.0280
6.0438 2.1952 -0.0285
6.0387 2.2168 -0.0289
6.0382 2.2440 -0.0296
6.0423 2.2770 -0.0305
6.0392 2.3023 -0.0311
6.0421 2.3356 -0.0320
6.0462 2.3717 -0.0331
6.0419 2.3972 -0.0336
6.0354 2.4198 -0.0339
6.0354 2.4521 -0.0347
6.0323 2.4806 -0.0353
6.0292 2.5093 -0.0360
6.0321 2.5488 -0.0371
6.0102 2.5465 -0.0362
5.9933 2.5515 -0.0357
6.0480 1.3406 0.0063
6.0474 1.3523 0.0061
6.0491 1.3633 0.0059
6.0459 1.3761 0.0057
6.0511 1.3865 0.0055
6.0514 1.3985 0.0053
6.0528 1.4106 0.0050
6.0495 1.4239 0.0049
6.0519 1.4361 0.0046
6.0484 1.4497 0.0044
6.0472 1.4629 0.0042
6.0460 1.4763 0.0040
6.0436 1.4900 0.0038
6.0456 1.5034 0.0035
6.0442 1.5174 0.0033
6.0461 1.5313 0.0031
6.0456 1.5456 0.0028
6.0462 1.5601 0.0026
6.0456 1.5749 0.0023
6.0471 1.5900 0.0021
6.0421 1.6049 0.0019
6.0434 1.6205 0.0016
6.0425 1.6361 0.0013
6.0446 1.6523 0.0010
6.0518 1.6699 0.0006
6.0527 1.6869 0.0003
6.0463 1.7025 0.0002
6.0430 1.7188 -0.0001
6.0397 1.7353 -0.0003
6.0491 1.7559 -0.0008
6.0485 1.7740 -0.0011
6.0420 1.7901 -0.0013
6.0441 1.8097 -0.0016
6.0385 1.8263 -0.0019
6.0386 1.8456 -0.0022
6.0394 1.8657 -0.0025
6.0448 1.8887 -0.0030
6.0454 1.9097 -0.0034
6.0413 1.9283 -0.0036
6.0399 1.9488 -0.0040
6.0357 1.9676 -0.0042
6.0403 1.9930 -0.0047
6.0497 2.0462 -0.0057
6.0442 2.0656 -0.0060
6.0405 2.0865 -0.0063
6.0408 2.1115 -0.0067
6.0369 2.1328 -0.0070
6.0313 2.1528 -0.0073
6.0426 2.1905 -0.0081
6.0408 2.2154 -0.0085
6.0396 2.2415 -0.0089
6.0438 2.2745 -0.0095
6.0393 2.2978 -0.0099
6.0354 2.3222 -0.0102
6.0375 2.3548 -0.0108
6.0360 2.4146 -0.0118
6.0412 2.4543 -0.0126
6.0353 2.4784 -0.0129
6.0364 2.5139 -0.0135
6.0262 2.5314 -0.0137
6.0229 2.5606 -0.0141
6.0004 2.5562 -0.0138
5.9884 2.5691 -0.0139
6.0452 1.3442 0.0193
6.0520 1.3532 0.0193
6.0489 1.3658 0.0192
6.0421 1.3796 0.0190
6.0498 1.3892 0.0190
6.0490 1.4015 0.0189
6.0517 1.4131 0.0188
6.0542 1.4250 0.0187
6.0485 1.4389 0.0185
6.0486 1.4517 0.0184
6.0463 1.4651 0.0183
6.0462 1.4782 0.0182
6.0461 1.4916 0.0180
6.0482 1.5050 0.0179
6.0446 1.5191 0.0178
6.0443 1.5330 0.0177
6.0417 1.5473 0.0175
6.0446 1.5616 0.0174
6.0495 1.5764 0.0173
6.0499 1.5914 0.0172
6.0503 1.6067 0.0171
6.0431 1.6216 0.0169
6.0454 1.6375 0.0168
6.0414 1.6528 0.0166
6.0435 1.6693 0.0165
6.0435 1.6857 0.0163
6.0454 1.7029 0.0162
6.0432 1.7194 0.0160
6.0469 1.7378 0.0159
6.0445 1.7547 0.0157
6.0420 1.7719 0.0155
6.0512 1.7936 0.0155
6.0495 1.8118 0.0153
6.0439 1.8284 0.0151
6.0421 1.8469 0.0149
6.0355 1.8632 0.0147
6.0419 1.8865 0.0145
6.0417 1.9067 0.0144
6.0396 1.9262 0.0142
6.0382 1.9465 0.0140
6.0422 1.9707 0.0138
6.0415 1.9923 0.0136
6.0460 2.0181 0.0134
6.0459 2.0412 0.0132
6.0432 2.0625 0.0130
6.0433 2.1111 0.0126
6.0378 2.1308 0.0123
6.0355 2.1539 0.0121
6.0373 2.1815 0.0119
6.0372 2.2078 0.0117
6.0370 2.2346 0.0114
6.0343 2.2590 0.0112
6.0385 2.2922 0.0109
6.0324 2.3135 0.0107
6.0393 2.3519 0.0104
6.0345 2.3758 0.0102
6.0286 2.4295 0.0096
6.0316 2.4662 0.0093
6.0308 2.4979 0.0091
6.0348 2.5383 0.0088
6.0302 2.5653 0.0085
6.0117 2.5681 0.0082
5.9955 2.5738 0.0080
6.0503 1.3337 0.0324
6.0523 1.3442 0.0324
6.0505 1.3562 0.0324
6.0474 1.3687 0.0323
6.0467 1.3806 0.0322
6.0472 1.3922 0.0322
6.0464 1.4044 0.0322
6.0480 1.4162 0.0322
6.0438 1.4419 0.0321
6.0475 1.4539 0.0322
6.0499 1.4665 0.0323
6.0499 1.4796 0.0323
6.0487 1.4932 0.0322
6.0463 1.5069 0.0321
6.0461 1.5207 0.0321
6.0425 1.5347 0.0320
6.0455 1.5487 0.0321
6.0473 1.5631 0.0321
6.0490 1.5778 0.0322
6.0474 1.5926 0.0321
6.0446 1.6075 0.0320
6.0471 1.6231 0.0321
6.0442 1.6383 0.0320
6.0412 1.6537 0.0319
6.0403 1.6695 0.0318
6.0404 1.6858 0.0318
6.0434 1.7031 0.0319
6.0392 1.7189 0.0317
6.0441 1.7374 0.0319
6.0378 1.7529 0.0317
6.0443 1.7728 0.0319
6.0403 1.8078 0.0317
6.0367 1.8250 0.0316
6.0417 1.8463 0.0318
6.0399 1.8649 0.0317
6.0399 1.8847 0.0317
6.0361 1.9026 0.0315
6.0405 1.9258 0.0317
6.0392 1.9459 0.0316
6.0370 1.9658 0.0315
6.0427 1.9915 0.0317
6.0367 2.0094 0.0315
6.0395 2.0341 0.0316
6.0394 2.0572 0.0315
6.0433 2.1084 0.0317
6.0395 2.1296 0.0315
6.0381 2.1534 0.0314
6.0251 2.1656 0.0310
6.0446 2.2393 0.0316
6.0514 2.2749 0.0319
6.0446 2.2953 0.0316
6.0378 2.3156 0.0313
6.0379 2.3450 0.0313
6.0332 2.3686 0.0311
6.0308 2.3956 0.0310
6.0357 2.4338 0.0312
6.0329 2.4617 0.0311
6.0351 2.4979 0.0311
6.0378 2.5359 0.0312
6.0382 2.5711 0.0312
6.0119 2.5606 0.0302
6.0519 1.3468 0.0453
6.0526 1.3579 0.0454
6.0508 1.3700 0.0454
6.0452 1.3833 0.0452
6.0495 1.3939 0.0455
6.0499 1.4058 0.0456
6.0491 1.4181 0.0457
6.0567 1.4288 0.0462
6.0533 1.4422 0.0461
6.0464 1.4561 0.0458
6.0477 1.4688 0.0460
6.0454 1.4821 0.0459
6.0489 1.4950 0.0462
6.0477 1.5086 0.0462
6.0453 1.5224 0.0462
6.0462 1.5362 0.0464
6.0426 1.5503 0.0462
6.0456 1.5646 0.0465
6.0441 1.5790 0.0466
6.0480 1.5939 0.0469
6.0485 1.6090 0.0470
6.0489 1.6244 0.0472
6.0407 1.6389 0.0468
6.0410 1.6546 0.0469
6.0443 1.6711 0.0472
6.0413 1.6867 0.0472
6.0434 1.7037 0.0474
6.0444 1.7207 0.0476
6.0432 1.7375 0.0477
6.0429 1.7548 0.0478
6.0426 1.7724 0.0479
6.0441 1.7910 0.0481
6.0391 1.8258 0.0481
6.0394 1.8448 0.0482
6.0434 1.8661 0.0486
6.0462 1.9076 0.0491
6.0441 1.9269 0.0491
6.0443 1.9694 0.0495
6.0447 1.9914 0.0496
6.0432 2.0125 0.0497
6.0354 2.0290 0.0494
6.0443 2.0591 0.0501
6.0433 2.0818 0.0502
6.0431 2.1057 0.0504
6.0444 2.1315 0.0507
6.0389 2.1512 0.0505
6.0376 2.1752 0.0506
6.0402 2.2039 0.0510
6.0434 2.2341 0.0514
6.0424 2.2603 0.0515
6.0444 2.2906 0.0519
6.0392 2.3127 0.0517
6.0325 2.3329 0.0514
6.0333 2.3634 0.0517
6.0363 2.3977 0.0522
6.0401 2.4661 0.0529
6.0365 2.4932 0.0529
6.0350 2.5241 0.0530
6.0348 2.5578 0.0533
6.0218 2.5701 0.0526
6.0540 1.3486 0.0582
6.0485 1.3617 0.0579
6.0467 1.3737 0.0580
6.0449 1.3857 0.0580
6.0480 1.3966 0.0584
6.0436 1.4096 0.0583
6.0441 1.4214 0.0585
6.0458 1.4333 0.0588
6.0473 1.4454 0.0591
6.0464 1.4581 0.0592
6.0466 1.4709 0.0594
6.0467 1.4838 0.0597
6.0491 1.4967 0.0601
6.0491 1.5102 0.0603
6.0478 1.5239 0.0604
6.0443 1.5378 0.0603
6.0441 1.5518 0.0605
6.0449 1.5660 0.0608
6.0412 1.5803 0.0607
6.0474 1.5952 0.0614
6.0480 1.6102 0.0617
6.0572 1.6264 0.0627
6.0460 1.6563 0.0622
6.0388 1.6709 0.0619
6.0422 1.6876 0.0624
6.0444 1.7045 0.0628
6.0464 1.7217 0.0633
6.0545 1.7412 0.0642
6.0451 1.7557 0.0637
6.0448 1.7733 0.0639
6.0405 1.7896 0.0638
6.0440 1.8091 0.0644
6.0415 1.8266 0.0645
6.0318 1.8789 0.0645
6.0413 1.9040 0.0656
6.0440 1.9259 0.0662
6.0438 1.9465 0.0665
6.0449 1.9900 0.0673
6.0390 2.0076 0.0670
6.0437 2.0336 0.0678
6.0430 2.0559 0.0681
6.0430 2.0792 0.0685
6.0420 2.1021 0.0687
6.0443 2.1286 0.0693
6.0414 2.1506 0.0694
6.0393 2.1737 0.0696
6.0329 2.1926 0.0694
6.0460 2.2604 0.0715
6.0430 2.3128 0.0720
6.0394 2.3370 0.0721
6.0380 2.3645 0.0724
6.0334 2.3881 0.0724
6.0386 2.4261 0.0734
6.0398 2.4593 0.0740
6.0452 2.5000 0.0751
6.0379 2.5217 0.0748
6.0364 2.5529 0.0752
6.0169 2.5540 0.0736
6.0527 1.3403 0.0704
6.0510 1.3520 0.0705
6.0551 1.3734 0.0715
6.0483 1.3871 0.0710
6.0477 1.3989 0.0713
6.0458 1.4112 0.0713
6.0403 1.4245 0.0710
6.0493 1.4346 0.0722
6.0448 1.4479 0.0721
6.0440 1.4605 0.0723
6.0478 1.4726 0.0730
6.0468 1.4857 0.0732
6.0422 1.4992 0.0730
6.0493 1.5119 0.0740
6.0527 1.5252 0.0747
6.0491 1.5392 0.0747
6.0433 1.5533 0.0744
6.0464 1.5674 0.0750
6.0450 1.5817 0.0752
6.0491 1.5965 0.0760
6.0431 1.6110 0.0757
6.0448 1.6261 0.0762
6.0463 1.6416 0.0767
6.0446 1.6569 0.0769
6.0439 1.6726 0.0772
6.0420 1.6882 0.0773
6.0390 1.7038 0.0774
6.0422 1.7211 0.0781
6.0453 1.7389 0.0789
6.0411 1.7547 0.0788
6.0379 1.7710 0.0788
6.0477 1.7923 0.0804
6.0423 1.8083 0.0801
6.0418 1.8265 0.0805
6.0423 1.8454 0.0810
6.0390 1.8821 0.0815
6.0344 1.8992 0.0814
6.0382 1.9214 0.0823
6.0428 1.9447 0.0834
6.0398 1.9637 0.0835
6.0404 1.9854 0.0840
6.0445 2.0101 0.0851
6.0413 2.0298 0.0852
6.0433 2.0541 0.0859
6.0408 2.0751 0.0862
6.0407 2.1225 0.0872
6.0413 2.1476 0.0879
6.0443 2.1756 0.0889
6.0362 2.1928 0.0884
6.0472 2.2308 0.0904
6.0403 2.3050 0.0914
6.0392 2.3319 0.0919
6.0364 2.3572 0.0922
6.0373 2.3881 0.0930
6.0348 2.4458 0.0941
6.0345 2.4769 0.0948
6.0355 2.5109 0.0957
6.0407 2.5527 0.0972
6.0255 2.5610 0.0958
6.0496 1.3439 0.0824
6.0518 1.3542 0.0831
6.0476 1.3668 0.0829
6.0484 1.3778 0.0833
6.0492 1.3891 0.0838
6.0474 1.4012 0.0839
6.0468 1.4131 0.0842
6.0474 1.4249 0.0847
6.0503 1.4365 0.0854
6.0495 1.4490 0.0857
6.0463 1.4620 0.0857
6.0466 1.4747 0.0861
6.0468 1.4875 0.0865
6.0482 1.5004 0.0871
6.0389 1.5144 0.0863
6.0425 1.5274 0.0872
6.0448 1.5409 0.0879
6.0424 1.5548 0.0880
6.0468 1.5688 0.0890
6.0477 1.5831 0.0896
6.0429 1.5974 0.0894
6.0425 1.6121 0.0898
6.0432 1.6270 0.0903
6.0470 1.6427 0.0913
6.0496 1.6586 0.0921
6.0435 1.6733 0.0918
6.0396 1.6884 0.0918
6.0462 1.7061 0.0932
6.0452 1.7224 0.0935
6.0391 1.7543 0.0937
6.0400 1.7719 0.0944
6.0438 1.7909 0.0955
6.0475 1.8104 0.0966
6.0402 1.8255 0.0961
6.0417 1.8448 0.0969
6.0443 1.8843 0.0984
6.0454 1.9047 0.0992
6.0436 1.9237 0.0995
6.0361 1.9393 0.0990
6.0416 1.9635 0.1005
6.0437 2.0079 0.1021
6.0424 2.0288 0.1026
6.0409 2.0501 0.1031
6.0420 2.0739 0.1040
6.0360 2.0919 0.1037
6.0419 2.1453 0.1061
6.0479 2.2018 0.1087
6.0324 2.2109 0.1069
6.0409 2.2466 0.1091
6.0433 2.2765 0.1104
6.0424 2.3030 0.1111
6.0389 2.3268 0.1114
6.0378 2.3540 0.1120
6.0365 2.3816 0.1127
6.0258 2.3963 0.1118
6.0244 2.4243 0.1125
6.0251 2.4561 0.1135
6.0330 2.5002 0.1159
6.0369 2.5393 0.1176
6.0377 2.5743 0.1188
6.0477 1.3470 0.0944
6.0487 1.3576 0.0949
6.0458 1.3697 0.0950
6.0454 1.3810 0.0953
6.0462 1.3921 0.0959
6.0483 1.4032 0.0966
6.0502 1.4144 0.0973
6.0483 1.4268 0.0975
6.0477 1.4390 0.0979
6.0482 1.4512 0.0984
6.0498 1.4634 0.0992
6.0489 1.4762 0.0995
6.0516 1.4887 0.1004
6.0459 1.5023 0.1001
6.0402 1.5159 0.0997
6.0450 1.5289 0.1009
6.0450 1.5424 0.1015
6.0460 1.5702 0.1027
6.0424 1.5843 0.1027
6.0455 1.5988 0.1037
6.0407 1.6130 0.1035
6.0448 1.6283 0.1047
6.0465 1.6436 0.1056
6.0405 1.6580 0.1052
6.0475 1.6748 0.1069
6.0457 1.6904 0.1073
6.0407 1.7053 0.1071
6.0409 1.7217 0.1077
6.0441 1.7393 0.1089
6.0442 1.7562 0.1096
6.0451 1.7738 0.1104
6.0470 1.7921 0.1114
6.0467 1.8099 0.1120
6.0424 1.8263 0.1120
6.0449 1.8459 0.1131
6.0464 1.8655 0.1141
6.0428 1.8829 0.1142
6.0393 1.9004 0.1143
6.0423 1.9219 0.1156
6.0396 1.9404 0.1159
6.0433 1.9634 0.1174
6.0339 1.9778 0.1165
6.0443 2.0285 0.1200
6.0465 2.0526 0.1213
6.0405 2.0704 0.1211
6.0381 2.0913 0.1215
6.0356 2.1125 0.1219
6.0382 2.1388 0.1233
6.0389 2.1640 0.1244
6.0454 2.1958 0.1266
6.0466 2.2229 0.1278
6.0460 2.2486 0.1287
6.0436 2.2727 0.1293
6.0306 2.2841 0.1278
6.0394 2.3227 0.1306
6.0415 2.3540 0.1321
6.0387 2.3793 0.1326
6.0404 2.4116 0.1341
6.0397 2.4410 0.1352
6.0396 2.4720 0.1363
6.0386 2.5023 0.1374
6.0376 2.5667 0.1397
6.0507 1.3593 0.1074
6.0452 1.3721 0.1070
6.0449 1.3834 0.1075
6.0471 1.3941 0.1083
6.0479 1.4054 0.1090
6.0511 1.4164 0.1101
6.0505 1.4284 0.1105
6.0523 1.4401 0.1114
6.0492 1.4530 0.1114
6.0472 1.4657 0.1116
6.0480 1.4909 0.1129
6.0447 1.5042 0.1130
6.0473 1.5170 0.1140
6.0497 1.5302 0.1150
6.0440 1.5440 0.1147
6.0440 1.5576 0.1153
6.0440 1.5715 0.1159
6.0495 1.5858 0.1176
6.0470 1.6001 0.1178
6.0456 1.6146 0.1182
6.0486 1.6297 0.1194
6.0471 1.6446 0.1198
6.0444 1.6595 0.1200
6.0416 1.6745 0.1203
6.0464 1.6912 0.1218
6.0425 1.7064 0.1219
6.0417 1.7224 0.1225
6.0409 1.7386 0.1231
6.0410 1.7554 0.1238
6.0420 1.7729 0.1248
6.0512 1.7937 0.1274
6.0479 1.8103 0.1276
6.0386 1.8244 0.1266
6.0363 1.8415 0.1270
6.0369 1.8603 0.1279
6.0423 1.8820 0.1299
6.0426 1.9015 0.1308
6.0419 1.9208 0.1316
6.0411 1.9403 0.1324
6.0459 1.9639 0.1343
6.0467 1.9854 0.1354
6.0447 2.0053 0.1360
6.0499 2.0310 0.1380
6.0467 2.0508 0.1384
6.0372 2.0654 0.1374
6.0348 2.0861 0.1379
6.0395 2.1135 0.1400
6.0452 2.1923 0.1446
6.0373 2.2092 0.1440
6.0410 2.2392 0.1461
6.0371 2.2611 0.1464
6.0299 2.2791 0.1459
6.0397 2.3186 0.1495
6.0380 2.3445 0.1503
6.0440 2.3814 0.1531
6.0427 2.4092 0.1542
6.0351 2.4284 0.1537
6.0396 2.4974 0.1577
6.0425 2.5676 0.1614
6.0251 2.5715 0.1585
6.0540 1.3606 0.1200
6.0537 1.3718 0.1205
6.0418 1.3865 0.1190
6.0465 1.3964 0.1204
6.0500 1.4070 0.1217
6.0470 1.4194 0.1217
6.0464 1.4313 0.1223
6.0446 1.4436 0.1226
6.0440 1.4558 0.1231
6.0446 1.4680 0.1239
6.0463 1.4802 0.1248
6.0479 1.4927 0.1258
6.0470 1.5056 0.1263
6.0449 1.5188 0.1266
6.0439 1.5321 0.1271
6.0441 1.5455 0.1279
6.0418 1.5591 0.1282
6.0476 1.5729 0.1301
6.0464 1.5870 0.1306
6.0474 1.6013 0.1315
6.0449 1.6156 0.1318
6.0480 1.6307 0.1332
6.0420 1.6449 0.1328
6.0482 1.6610 0.1349
6.0432 1.7071 0.1363
6.0457 1.7239 0.1377
6.0427 1.7396 0.1380
6.0398 1.7553 0.1382
6.0420 1.7730 0.1396
6.0430 1.7906 0.1407
6.0419 1.8077 0.1414
6.0488 1.8286 0.1439
6.0374 1.8417 0.1424
6.0371 1.8599 0.1433
6.0377 1.8789 0.1444
6.0424 1.9201 0.1475
6.0427 1.9402 0.1486
6.0390 1.9581 0.1489
6.0400 1.9793 0.1502
6.0390 1.9995 0.1511
6.0395 2.0430 0.1535
6.0409 2.0664 0.1550
6.0386 2.0871 0.1557
6.0380 2.1096 0.1567
6.0426 2.1375 0.1591
6.0478 2.1669 0.1617
6.0485 2.1924 0.1632
6.0439 2.2129 0.1634
6.0528 2.2487 0.1671
6.0438 2.2649 0.1662
6.0367 2.3103 0.1672
6.0378 2.3969 0.1720
6.0374 2.4260 0.1735
6.0344 2.4519 0.1743
6.0345 2.4829 0.1759
6.0381 2.5204 0.1786
6.0378 2.5525 0.1803
6.0336 2.5787 0.1809
6.0494 1.3644 0.1310
6.0492 1.3755 0.1317
6.0515 1.3859 0.1328
6.0460 1.3988 0.1324
6.0482 1.4096 0.1335
6.0478 1.4213 0.1341
6.0460 1.4334 0.1345
6.0499 1.4567 0.1367
6.0456 1.4697 0.1366
6.0473 1.4819 0.1377
6.0490 1.4943 0.1388
6.0445 1.5075 0.1386
6.0425 1.5206 0.1390
6.0439 1.5336 0.1401
6.0430 1.5470 0.1407
6.0466 1.5605 0.1423
6.0513 1.5743 0.1442
6.0478 1.5883 0.1442
6.0420 1.6021 0.1438
6.0464 1.6169 0.1457
6.0450 1.6314 0.1462
6.0436 1.6460 0.1468
6.0454 1.6614 0.1482
6.0472 1.6771 0.1495
6.0434 1.6919 0.1496
6.0471 1.7086 0.1514
6.0453 1.7243 0.1519
6.0446 1.7405 0.1528
6.0438 1.7568 0.1536
6.0397 1.7723 0.1536
6.0471 1.7922 0.1564
6.0439 1.8085 0.1567
6.0469 1.8276 0.1585
6.0396 1.8423 0.1578
6.0393 1.8605 0.1589
6.0434 1.9004 0.1622
6.0400 1.9178 0.1625
6.0357 1.9547 0.1638
6.0416 1.9790 0.1665
6.0416 1.9999 0.1678
6.0378 2.0182 0.1681
6.0431 2.0440 0.1708
6.0492 2.0713 0.1738
6.0442 2.0897 0.1738
6.0454 2.1139 0.1755
6.0429 2.1351 0.1763
6.0465 2.1626 0.1787
6.0471 2.2130 0.1819
6.0426 2.2335 0.1822
6.0388 2.2552 0.1827
6.0308 2.2720 0.1819
6.0270 2.2938 0.1824
6.0402 2.3379 0.1880
6.0393 2.3649 0.1894
6.0415 2.3967 0.1918
6.0403 2.4246 0.1933
6.0344 2.4459 0.1932
6.0361 2.4791 0.1956
6.0414 2.5189 0.1992
6.0474 2.5948 0.2051
5.9890 0.9499 0.1044
5.9835 0.9410 0.1060
5.9743 0.9345 0.1069
5.9693 0.9247 0.1088
5.9597 0.9180 0.1097
5.9602 0.9031 0.1132
5.9530 0.8937 0.1148
5.9455 0.8842 0.1165
5.9405 0.8721 0.1189
5.9323 0.8624 0.1206
5.9246 0.8517 0.1225
5.9192 0.8383 0.1252
5.8994 0.8189 0.1283
5.8871 0.8113 0.1292
5.8883 0.7873 0.1348
5.8767 0.7776 0.1362
5.8691 0.7623 0.1392
5.8554 0.7542 0.1401
5.8494 0.7348 0.1442
5.8407 0.7180 0.1475
5.8284 0.7057 0.1494
5.8163 0.6924 0.1517
5.8071 0.6730 0.1555
5.7976 0.6525 0.1596
4.3877 -2.2645 0.7332
4.3232 -2.2605 0.7278
5.9787 0.9591 0.0900
5.9824 0.9441 0.0933
5.9787 0.9337 0.0953
5.9714 0.9255 0.0965
5.9659 0.9156 0.0982
5.9600 0.9055 0.1000
5.9548 0.8945 0.1019
5.9481 0.8842 0.1036
5.9402 0.8747 0.1051
5.9283 0.8684 0.1057
5.9198 0.8586 0.1072
5.9204 0.8392 0.1113
5.9102 0.8300 0.1126
5.8997 0.8207 0.1139
5.8967 0.8024 0.1175
5.8877 0.7902 0.1195
5.8826 0.7723 0.1229
5.8704 0.7625 0.1242
5.8607 0.7489 0.1264
5.8492 0.7369 0.1282
5.8380 0.7240 0.1302
5.8251 0.7127 0.1317
5.8199 0.6879 0.1366
5.8071 0.6744 0.1386
5.7939 0.6608 0.1406
5.7813 0.6450 0.1431
5.7704 0.6241 0.1468
4.8135 -0.4007 0.3007
4.7557 -0.4720 0.3119
4.7168 -0.4919 0.3136
5.9857 0.9568 0.0790
5.9880 0.9426 0.0818
5.9775 0.9368 0.0823
5.9681 0.9302 0.0830
5.9647 0.9188 0.0850
5.9537 0.9128 0.0855
5.9536 0.8979 0.0882
5.9459 0.8884 0.0896
5.9417 0.8756 0.0917
5.9316 0.8676 0.0927
5.9238 0.8570 0.0942
5.9209 0.8411 0.0970
5.9114 0.8310 0.0984
5.9032 0.8191 0.1001
5.8930 0.8088 0.1015
5.8871 0.7931 0.1041
5.8754 0.7835 0.1052
5.8641 0.7728 0.1066
5.8559 0.7575 0.1090
5.8396 0.7233 0.1144
5.8313 0.7045 0.1175
5.8218 0.6864 0.1203
5.8056 0.6787 0.1209
5.7949 0.6602 0.1237
5.7850 0.6386 0.1272
5.7706 0.6246 0.1290
4.7931 -0.4381 0.2731
4.7525 -0.4631 0.2756
4.7224 -0.4618 0.2736
5.9937 0.9538 0.0679
5.9846 0.9473 0.0685
5.9786 0.9384 0.0697
5.9787 0.9248 0.0719
5.9687 0.9181 0.0726
5.9597 0.9105 0.0734
5.9494 0.9036 0.0740
5.9495 0.8877 0.0766
5.9452 0.8749 0.0785
5.9348 0.8669 0.0793
5.9287 0.8546 0.0811
5.9238 0.8404 0.0831
5.9109 0.8338 0.0836
5.8986 0.8263 0.0843
5.8917 0.8126 0.0862
5.8864 0.7960 0.0886
5.8754 0.7855 0.0898
5.8655 0.7731 0.0914
5.8598 0.7541 0.0942
5.8482 0.7422 0.0956
5.8399 0.7247 0.0981
5.8310 0.7068 0.1006
5.8185 0.6936 0.1022
5.8137 0.6657 0.1065
5.7928 0.6656 0.1055
5.7848 0.6402 0.1093
5.7717 0.6232 0.1114
4.4651 -2.1031 0.4952
4.9503 -0.2276 0.2117
4.9384 -0.1803 0.2034
4.7924 -0.4228 0.2361
4.7493 -0.4543 0.2392
4.7274 -0.4331 0.2347
5.9868 0.9481 0.0561
5.9763 0.9424 0.0565
5.9732 0.9311 0.0580
5.9696 0.9198 0.0595
5.9605 0.9122 0.0602
5.9561 0.9005 0.0616
5.9531 0.8871 0.0634
5.9439 0.8783 0.0643
5.9345 0.8695 0.0651
5.9301 0.8556 0.0669
5.9174 0.8491 0.0673
5.9104 0.8366 0.0688
5.9077 0.8187 0.0712
5.8996 0.8058 0.0727
5.8858 0.7989 0.0731
5.8783 0.7840 0.0749
5.8696 0.7698 0.0766
5.8610 0.7545 0.0784
5.8532 0.7371 0.0805
5.8440 0.7205 0.0825
5.8192 0.6941 0.0852
5.8072 0.6787 0.0869
5.7958 0.6613 0.0889
5.7861 0.6389 0.0917
5.2380 -0.3309 0.2062
5.0121 -0.1042 0.1654
4.9790 -0.1243 0.1669
4.9638 -0.0920 0.1618
4.9362 -0.0978 0.1615
4.9022 -0.1205 0.1634
4.8709 -0.1355 0.1642
4.8338 -0.1637 0.1667
5.9983 0.9555 0.0431
5.9879 0.9498 0.0435
5.9817 0.9410 0.0443
5.9742 0.9328 0.0450
5.9726 0.9199 0.0465
5.9694 0.9076 0.0478
5.9588 0.9007 0.0483
5.9518 0.8905 0.0493
5.9445 0.8802 0.0503
5.9368 0.8697 0.0512
5.9332 0.8550 0.0528
5.9220 0.8468 0.0535
5.9107 0.8385 0.0541
5.9064 0.8225 0.0558
5.8959 0.8122 0.0567
5.8889 0.7975 0.0582
5.8805 0.7835 0.0596
5.8675 0.7746 0.0602
5.8616 0.7558 0.0622
5.8529 0.7394 0.0639
5.8443 0.7219 0.0656
5.8199 0.6946 0.0681
5.8120 0.6718 0.0705
5.7952 0.6639 0.0709
5.7854 0.6415 0.0732
5.2758 -0.2709 0.1640
5.2471 -0.2288 0.1581
5.2205 -0.1882 0.1525
5.9949 0.9601 0.0300
5.9912 0.9500 0.0309
5.9838 0.9419 0.0315
5.9772 0.9330 0.0321
5.9693 0.9248 0.0327
5.9682 0.9110 0.0340
5.9644 0.8986 0.0351
5.9544 0.8907 0.0356
5.9442 0.8829 0.0360
5.9437 0.8659 0.0376
5.9257 0.8644 0.0373
5.9201 0.8312 0.0403
5.9106 0.8202 0.0411
5.8984 0.8117 0.0416
5.8882 0.8005 0.0424
5.8791 0.7874 0.0434
5.8729 0.7697 0.0450
5.8621 0.7571 0.0459
5.8508 0.7444 0.0468
5.8427 0.7261 0.0483
5.8205 0.6952 0.0507
5.8104 0.6762 0.0522
5.7966 0.6626 0.0532
5.7837 0.6460 0.0544
5.7716 0.6264 0.0560
4.8336 -0.5237 0.1414
4.8112 -0.4910 0.1377
4.7845 -0.4742 0.1355
4.7672 -0.4364 0.1316
6.0017 0.9582 0.0176
5.9945 0.9502 0.0181
5.9837 0.9444 0.0183
5.9792 0.9340 0.0190
5.9681 0.9281 0.0192
5.9659 0.9151 0.0201
5.9632 0.9020 0.0209
5.9531 0.8942 0.0213
5.9448 0.8847 0.0219
5.9370 0.8744 0.0225
5.9331 0.8598 0.0234
5.9228 0.8508 0.0239
5.9171 0.8367 0.0248
5.9036 0.8299 0.0250
5.8954 0.8172 0.0258
5.8905 0.8000 0.0269
5.8848 0.7826 0.0280
5.8708 0.7746 0.0284
5.8606 0.7612 0.0292
5.8537 0.7423 0.0304
5.8424 0.7285 0.0311
5.8335 0.7100 0.0323
5.8200 0.6977 0.0329
5.8120 0.6750 0.0344
5.7929 0.6709 0.0344
5.7835 0.6478 0.0359
5.7726 0.6253 0.0373
6.2613 -2.7045 0.2782
5.7949 -3.5283 0.3284
5.1170 -1.0995 0.1475
4.9511 -0.7455 0.1200
4.9391 -0.6352 0.1121
4.8370 -0.7204 0.1164
4.8026 -0.7064 0.1149
4.7660 -0.7020 0.1140
4.7401 -0.6695 0.1113
4.7312 -0.5971 0.1061
5.9949 0.9649 0.0044
5.9878 0.9571 0.0047
5.9826 0.9476 0.0051
5.9802 0.9358 0.0056
5.9710 0.9283 0.0058
5.9707 0.9139 0.0065
5.9619 0.9054 0.0068
5.9527 0.8803 0.0079
5.9419 0.8723 0.0082
5.9336 0.8618 0.0086
5.9257 0.8503 0.0091
5.9124 0.8437 0.0093
5.9086 0.8270 0.0100
5.8986 0.8160 0.0104
5.8942 0.7979 0.0112
5.8826 0.7875 0.0116
5.8637 0.7591 0.0128
5.8497 0.7500 0.0131
5.8433 0.7291 0.0140
5.8308 0.7161 0.0145
5.8256 0.6901 0.0156
5.8077 0.6842 0.0157
5.7973 0.6641 0.0166
5.7865 0.6429 0.0175
5.7740 0.6233 0.0183
6.3203 -3.0200 0.1897
5.6577 -3.3560 0.1999
5.5461 -3.5157 0.2063
5.1079 -1.1148 0.0927
5.0148 -1.3620 0.1033
4.8504 -0.6531 0.0694
4.7987 -0.6957 0.0710
4.6089 -1.0093 0.0839
4.5647 -1.0131 0.0837
4.4955 -1.0803 0.0862
4.5031 -0.9598 0.0807
4.4504 -0.9884 0.0816
4.3978 -1.0159 0.0825
5.9960 0.9667 -0.0085
5.9866 0.9602 -0.0084
5.9825 0.9501 -0.0082
5.9779 0.9398 -0.0080
5.9688 0.9324 -0.0078
5.9635 0.9218 -0.0076
5.9606 0.9089 -0.0073
5.9506 0.9011 -0.0071
5.9450 0.8894 -0.0069
5.9340 0.8638 -0.0063
5.9260 0.8524 -0.0061
5.9209 0.8375 -0.0058
5.9104 0.8275 -0.0055
5.8988 0.8181 -0.0053
5.8869 0.8087 -0.0051
5.8854 0.7863 -0.0047
5.8747 0.7739 -0.0044
5.8675 0.7562 -0.0040
5.8460 0.7271 -0.0034
5.8321 0.7159 -0.0031
5.8169 0.7064 -0.0029
5.8097 0.6822 -0.0024
5.7991 0.6622 -0.0020
5.7867 0.6438 -0.0016
5.7709 0.6309 -0.0013
6.3765 -2.7567 0.0711
6.3315 -3.0991 0.0784
5.6550 -3.5091 0.0874
5.0895 -1.1931 0.0379
4.6466 -1.1341 0.0367
4.4749 -1.4926 0.0444
4.4011 -1.5501 0.0457
4.3330 -1.5893 0.0465
4.2871 -1.5717 0.0462
4.3676 -1.1551 0.0372
5.9971 0.9684 -0.0215
5.9888 0.9613 -0.0215
5.9910 0.9468 -0.0216
5.9830 0.9387 -0.0215
5.9707 0.9335 -0.0214
5.9682 0.9207 -0.0215
5.9633 0.9092 -0.0215
5.9579 0.8976 -0.0214
5.9464 0.8906 -0.0214
5.9411 0.8779 -0.0214
5.9344 0.8659 -0.0214
5.9288 0.8521 -0.0214
5.9195 0.8413 -0.0213
5.9027 0.8161 -0.0213
5.8958 0.8008 -0.0213
5.8861 0.7878 -0.0212
5.8725 0.7789 -0.0211
5.8640 0.7630 -0.0211
5.8580 0.7425 -0.0211
5.8420 0.7350 -0.0210
5.8300 0.7212 -0.0210
5.8268 0.6918 -0.0210
5.8117 0.6803 -0.0209
5.8009 0.6603 -0.0209
5.7897 0.6392 -0.0209
5.7728 0.6281 -0.0208
6.4115 -2.9275 -0.0382
6.3552 -3.2421 -0.0388
5.0672 -1.2943 -0.0213
