ply
format ascii 1.0
element vertex 2134
property float x
property float y
property float z
end_header
0.8521 2.1784 -0.3436
0.8574 2.1469 -0.3391
0.8716 2.1218 -0.3411
0.8859 2.0966 -0.3431
0.8956 2.0685 -0.3418
0.9075 2.0419 -0.3422
0.9268 2.0187 -0.3475
0.9266 1.9864 -0.3397
0.9435 1.9619 -0.3433
0.9580 1.9362 -0.3453
0.9674 1.9086 -0.3441
0.9768 1.8812 -0.3428
0.9861 1.8539 -0.3415
0.9918 1.8260 -0.3380
1.0009 1.7991 -0.3367
1.0419 1.7779 -0.3548
1.0421 1.7491 -0.3480
1.0541 1.7224 -0.3483
1.0756 1.6965 -0.3542
0.9234 1.6373 -0.2541
0.9177 1.6149 -0.2455
0.9176 1.5932 -0.2403
0.9173 1.5721 -0.2350
0.9310 1.5504 -0.2376
1.2398 1.3442 -0.3625
1.0027 1.3427 -0.2283
0.9190 1.3190 -0.1753
0.9379 1.2966 -0.1806
1.0010 1.2569 -0.2067
0.5586 2.7148 -0.3379
0.5701 2.6892 -0.3382
0.5831 2.6667 -0.3403
0.6343 2.5725 -0.3469
0.6442 2.5438 -0.3455
0.6490 2.5071 -0.3390
0.6605 2.4816 -0.3394
0.6755 2.4611 -0.3432
0.6835 2.4305 -0.3401
0.6832 2.3898 -0.3296
0.6945 2.3647 -0.3300
0.7128 2.3479 -0.3366
0.7150 2.3125 -0.3290
0.7375 2.2993 -0.3390
0.7429 2.2678 -0.3342
0.7563 2.2446 -0.3363
0.7634 2.2156 -0.3332
0.7832 2.1976 -0.3405
0.7824 2.1626 -0.3310
0.7936 2.1376 -0.3314
0.8153 2.1198 -0.3398
0.8221 2.0915 -0.3367
0.8381 2.0691 -0.3405
0.8424 2.0398 -0.3357
0.8585 2.0172 -0.3395
0.8634 1.9889 -0.3352
0.8698 1.9616 -0.3321
0.8859 1.9387 -0.3359
0.9039 1.9161 -0.3409
0.9034 1.8869 -0.3332
0.9146 1.8620 -0.3335
0.9284 1.8378 -0.3356
0.9369 1.8122 -0.3342
0.9455 1.7868 -0.3328
0.9593 1.7624 -0.3349
0.9733 1.7379 -0.3370
0.9892 1.7134 -0.3402
0.9957 1.6879 -0.3377
0.9689 1.6608 -0.3148
0.9219 1.6353 -0.2802
1.0187 1.6129 -0.3323
1.0239 1.5884 -0.3292
1.0549 1.5628 -0.3412
1.0631 1.5380 -0.3398
1.0682 1.5136 -0.3366
1.0825 1.4884 -0.3387
1.1020 1.4623 -0.3437
1.1228 1.4356 -0.3494
1.1374 1.4096 -0.3515
1.1542 1.3830 -0.3548
1.1602 1.3588 -0.3522
1.1562 1.3373 -0.3443
1.0179 1.3348 -0.2611
0.9007 1.3222 -0.1880
0.8948 1.3093 -0.1812
0.5436 2.6416 -0.3406
0.5586 2.6255 -0.3457
0.5672 2.5956 -0.3431
0.5767 2.5680 -0.3416
0.5877 2.5434 -0.3420
0.6031 2.5265 -0.3471
0.6131 2.4999 -0.3462
0.6197 2.4680 -0.3418
0.6336 2.4479 -0.3451
0.6370 2.4123 -0.3377
0.6527 2.3945 -0.3428
0.6650 2.3716 -0.3444
0.6797 2.3517 -0.3483
0.6889 2.3247 -0.3468
0.7000 2.3001 -0.3472
0.7091 2.2734 -0.3457
0.7241 2.2529 -0.3497
0.7298 2.2230 -0.3452
0.7408 2.1986 -0.3456
0.7476 2.1705 -0.3423
0.7642 2.1507 -0.3474
0.7716 2.1235 -0.3448
0.7789 2.0965 -0.3421
0.7898 2.0722 -0.3425
0.8008 2.0479 -0.3428
0.8179 2.0271 -0.3480
0.8265 2.0014 -0.3465
0.8295 1.9731 -0.3408
0.8444 1.9507 -0.3441
0.8704 1.9037 -0.3479
0.8747 1.8770 -0.3434
0.8949 1.8556 -0.3504
0.8964 1.8286 -0.3440
0.8985 1.8024 -0.3383
0.9066 1.7779 -0.3368
0.9390 1.7576 -0.3517
0.9500 1.7331 -0.3521
0.9508 1.7075 -0.3457
0.9720 1.6841 -0.3528
0.8903 1.6548 -0.2934
0.8935 1.6326 -0.2895
0.9140 1.6108 -0.2965
1.0033 1.5865 -0.3462
1.0270 1.5617 -0.3545
1.0320 1.5376 -0.3511
1.0379 1.5138 -0.3484
1.0539 1.4890 -0.3518
1.0711 1.4637 -0.3558
1.0905 1.4377 -0.3611
1.1101 1.4114 -0.3663
1.1062 1.3897 -0.3581
1.1238 1.3636 -0.3621
1.1141 1.3443 -0.3508
1.0352 1.3261 -0.2962
0.8848 1.3246 -0.2012
0.8695 1.3155 -0.1891
1.2071 1.1482 -0.3566
0.5075 2.6188 -0.3409
0.5326 2.5802 -0.3466
0.5417 2.5535 -0.3450
0.5498 2.5248 -0.3422
0.5577 2.4965 -0.3395
0.5661 2.4694 -0.3373
0.5815 2.4544 -0.3432
0.5937 2.4335 -0.3454
0.5946 2.3952 -0.3351
0.6079 2.3763 -0.3386
0.6183 2.3530 -0.3389
0.6288 2.3298 -0.3392
0.6405 2.3080 -0.3408
0.6585 2.2936 -0.3487
0.6602 2.2600 -0.3402
0.6628 2.2285 -0.3330
0.6811 2.2134 -0.3409
0.6915 2.1902 -0.3412
0.6986 2.1639 -0.3384
0.7020 2.1349 -0.3324
0.7194 2.1176 -0.3390
0.7298 2.0945 -0.3393
0.7402 2.0713 -0.3397
0.7431 2.0433 -0.3337
0.7610 2.0250 -0.3403
0.7752 2.0041 -0.3438
0.7763 1.9759 -0.3365
0.7842 1.9518 -0.3350
0.7985 1.9307 -0.3385
0.8048 1.9061 -0.3356
0.8209 1.8853 -0.3404
0.8296 1.8617 -0.3394
0.8382 1.8382 -0.3385
0.8425 1.8136 -0.3344
0.8588 1.7923 -0.3391
0.8586 1.7672 -0.3318
0.8830 1.7470 -0.3423
0.8807 1.7222 -0.3337
0.9019 1.7007 -0.3417
0.9076 1.6773 -0.3388
0.8826 1.6305 -0.3089
0.8942 1.6088 -0.3105
0.9517 1.5857 -0.3420
0.9551 1.5631 -0.3379
0.9813 1.5390 -0.3484
0.9968 1.5153 -0.3519
1.0001 1.4929 -0.3478
1.0074 1.4703 -0.3462
1.0261 1.4457 -0.3516
1.0461 1.4206 -0.3577
1.0513 1.3983 -0.3548
1.0467 1.3785 -0.3462
1.0647 1.3535 -0.3510
1.0674 1.3325 -0.3468
1.0755 1.3102 -0.3459
0.8607 1.3156 -0.2051
1.1374 1.1725 -0.3478
1.1525 1.1474 -0.3507
0.4825 2.5706 -0.3387
0.4950 2.5535 -0.3423
0.5027 2.5258 -0.3394
0.5197 2.5176 -0.3488
0.5254 2.4859 -0.3432
0.5376 2.4672 -0.3461
0.5467 2.4427 -0.3452
0.5531 2.4137 -0.3409
0.5582 2.3832 -0.3354
0.5783 2.3766 -0.3474
0.5845 2.3481 -0.3432
0.5934 2.3240 -0.3422
0.6034 2.3016 -0.3425
0.6178 2.2845 -0.3474
0.6280 2.2619 -0.3477
0.6381 2.2393 -0.3480
0.6379 2.2057 -0.3378
0.6630 2.1987 -0.3532
0.6612 2.1645 -0.3417
0.6726 2.1434 -0.3434
0.6854 2.1234 -0.3463
0.6913 2.0976 -0.3427
0.6978 2.0726 -0.3397
0.7415 1.9860 -0.3442
0.7615 1.9414 -0.3449
0.7556 1.9120 -0.3320
0.7792 1.8958 -0.3435
0.7916 1.8744 -0.3458
0.8016 1.8521 -0.3461
0.8117 1.8298 -0.3464
0.8174 1.8064 -0.3434
0.8395 1.7870 -0.3530
0.8391 1.7623 -0.3454
0.8473 1.7398 -0.3444
0.8555 1.7174 -0.3433
0.8671 1.6725 -0.3380
0.8751 1.6505 -0.3370
0.8774 1.6285 -0.3320
0.8909 1.6068 -0.3349
0.9359 1.5618 -0.3528
0.9391 1.5400 -0.3485
0.9541 1.5172 -0.3521
0.9712 1.4939 -0.3571
0.9875 1.4704 -0.3614
0.9842 1.4501 -0.3531
1.0058 1.4254 -0.3607
1.0065 1.4049 -0.3550
1.0144 1.3830 -0.3540
1.0320 1.3586 -0.3590
1.0367 1.3376 -0.3560
1.0423 1.3166 -0.3536
0.8301 1.3242 -0.2081
0.8271 1.3117 -0.2023
0.4608 2.5291 -0.3383
0.4695 2.5055 -0.3372
0.4811 2.4882 -0.3402
0.4868 2.4585 -0.3351
0.4954 2.4352 -0.3341
0.5219 2.4058 -0.3442
0.5306 2.3823 -0.3431
0.5392 2.3589 -0.3420
0.5500 2.3391 -0.3437
0.5620 2.3209 -0.3467
0.5717 2.2992 -0.3470
0.5815 2.2775 -0.3473
0.5803 2.2421 -0.3354
0.5948 2.2267 -0.3411
0.6032 2.2039 -0.3401
0.6064 2.1756 -0.3335
0.6159 2.1545 -0.3338
0.6334 2.1410 -0.3423
0.6349 2.1122 -0.3344
0.6444 2.0911 -0.3347
0.6525 2.0689 -0.3337
0.6691 2.0531 -0.3408
0.6729 2.0277 -0.3356
0.6795 2.0046 -0.3332
0.6978 1.9890 -0.3417
0.7089 1.9686 -0.3434
0.7109 1.9431 -0.3368
0.7282 1.9258 -0.3440
0.7346 1.9030 -0.3415
0.7362 1.8784 -0.3349
0.7489 1.8586 -0.3380
0.7666 1.8402 -0.3451
0.7746 1.8183 -0.3441
0.7808 1.7961 -0.3416
0.7903 1.7749 -0.3419
0.7981 1.7533 -0.3408
0.8077 1.7321 -0.3411
0.8100 1.7099 -0.3359
0.8177 1.6888 -0.3348
0.8399 1.6688 -0.3448
0.8383 1.6470 -0.3368
0.8496 1.6261 -0.3385
0.8724 1.6049 -0.3484
0.8762 1.5837 -0.3446
0.8838 1.5626 -0.3435
0.8953 1.5412 -0.3452
0.9089 1.5196 -0.3482
0.9124 1.4990 -0.3444
0.9321 1.4762 -0.3516
0.9397 1.4552 -0.3505
0.9535 1.4329 -0.3536
0.9526 1.4138 -0.3470
0.9600 1.3931 -0.3459
0.9781 1.3696 -0.3517
0.9834 1.3495 -0.3492
1.0040 1.3248 -0.3565
0.9959 1.3091 -0.3457
1.0031 1.2887 -0.3446
0.8031 1.3315 -0.2119
0.8046 1.3177 -0.2087
0.4261 2.5427 -0.3437
0.4449 2.5009 -0.3443
0.4524 2.4758 -0.3418
0.4618 2.4550 -0.3421
0.4721 2.4363 -0.3438
0.4874 2.4273 -0.3525
0.4928 2.3985 -0.3472
0.5001 2.3738 -0.3446
0.5084 2.3511 -0.3435
0.5178 2.3303 -0.3438
0.5260 2.3078 -0.3427
0.5398 2.2938 -0.3486
0.5446 2.2664 -0.3433
0.5575 2.2504 -0.3478
0.5681 2.2310 -0.3495
0.5738 2.2057 -0.3456
0.5794 2.1807 -0.3416
0.5887 2.1600 -0.3419
0.5992 2.1407 -0.3436
0.6098 2.1213 -0.3453
0.6192 2.1006 -0.3456
0.6258 2.0776 -0.3430
0.6378 2.0591 -0.3462
0.6443 2.0363 -0.3436
0.6536 2.0157 -0.3439
0.6614 1.9941 -0.3428
0.6823 1.9288 -0.3372
0.7060 1.8906 -0.3428
0.7129 1.8691 -0.3409
0.7261 1.8501 -0.3448
0.7329 1.8287 -0.3429
0.7429 1.8085 -0.3439
0.7606 1.7902 -0.3514
0.7699 1.7694 -0.3517
0.7741 1.7476 -0.3477
0.7816 1.7267 -0.3465
0.7882 1.7058 -0.3446
0.7938 1.6849 -0.3421
0.8093 1.6650 -0.3474
0.8259 1.6447 -0.3534
0.8315 1.6239 -0.3508
0.8389 1.6032 -0.3497
0.8463 1.5827 -0.3485
0.8555 1.5621 -0.3488
0.8726 1.5408 -0.3549
0.8780 1.5205 -0.3523
0.8873 1.4999 -0.3526
0.8905 1.4802 -0.3485
0.9059 1.4585 -0.3531
0.9193 1.4370 -0.3563
0.9223 1.4176 -0.3523
0.9337 1.3965 -0.3540
0.9537 1.3729 -0.3615
0.9588 1.3532 -0.3589
0.9572 1.3358 -0.3520
0.9609 1.3171 -0.3486
0.7901 1.3336 -0.2234
0.7904 1.3205 -0.2192
0.7940 1.3061 -0.2173
0.4056 2.4985 -0.3390
0.4137 2.4764 -0.3378
0.4195 2.4489 -0.3329
0.4261 2.4239 -0.3296
0.4340 2.4022 -0.3284
0.4470 2.3918 -0.3352
0.4574 2.3750 -0.3377
0.4658 2.3542 -0.3373
0.4752 2.3354 -0.3383
0.4852 2.3173 -0.3400
0.4887 2.2886 -0.3330
0.5052 2.2810 -0.3435
0.5092 2.2535 -0.3372
0.5192 2.2354 -0.3389
0.5246 2.2109 -0.3348
0.5358 2.1943 -0.3380
0.5477 2.1782 -0.3420
0.5566 2.1583 -0.3422
0.5593 2.1316 -0.3351
0.5700 2.1140 -0.3376
0.5769 2.0924 -0.3357
0.5877 2.0746 -0.3382
0.6013 2.0589 -0.3436
0.6034 2.0335 -0.3365
0.6157 2.0165 -0.3405
0.6210 1.9943 -0.3371
0.6320 1.9761 -0.3396
0.6409 1.9564 -0.3398
0.6482 1.9359 -0.3386
0.6563 1.9158 -0.3382
0.6659 1.8966 -0.3392
0.6708 1.8752 -0.3357
0.6812 1.8563 -0.3375
0.6972 1.8394 -0.3445
0.6988 1.8172 -0.3381
0.7051 1.7969 -0.3361
0.7105 1.7765 -0.3334
0.7268 1.7588 -0.3404
0.7340 1.7389 -0.3391
0.7445 1.7196 -0.3409
0.7533 1.7000 -0.3412
0.7746 1.6816 -0.3519
0.7709 1.6607 -0.3417
0.7761 1.6409 -0.3390
0.7839 1.6214 -0.3386
0.7936 1.6019 -0.3396
0.8072 1.5822 -0.3436
0.8131 1.5627 -0.3416
0.8268 1.5427 -0.3456
0.8405 1.5224 -0.3496
0.8564 1.5016 -0.3551
0.8453 1.4850 -0.3405
0.8551 1.4653 -0.3415
0.8710 1.4442 -0.3470
0.8799 1.4245 -0.3473
0.8866 1.4054 -0.3460
0.8955 1.3857 -0.3463
0.9064 1.3654 -0.3481
0.9131 1.3464 -0.3469
0.9220 1.3268 -0.3471
0.9330 1.3063 -0.3489
0.9464 1.2849 -0.3522
0.7706 1.3257 -0.2256
0.7729 1.3122 -0.2228
0.3901 2.4671 -0.3405
0.3983 2.4467 -0.3400
0.4074 2.4286 -0.3411
0.4156 2.4082 -0.3406
0.4242 2.3890 -0.3408
0.4406 2.3486 -0.3399
0.4521 2.3351 -0.3447
0.4608 2.3158 -0.3450
0.4675 2.2928 -0.3422
0.4782 2.2771 -0.3455
0.4848 2.2543 -0.3427
0.4906 2.2309 -0.3392
0.5009 2.2143 -0.3417
0.5124 2.1990 -0.3458
0.5193 2.1774 -0.3438
0.5354 2.1375 -0.3428
0.5422 2.1163 -0.3408
0.5679 2.0590 -0.3416
0.5797 2.0164 -0.3360
0.6023 1.9825 -0.3427
0.6216 1.9456 -0.3455
0.6277 1.9014 -0.3345
0.6593 1.8475 -0.3414
0.6670 1.8282 -0.3409
0.6816 1.7895 -0.3392
0.6992 1.7730 -0.3479
0.6995 1.7519 -0.3405
0.7294 1.7161 -0.3526
0.7311 1.6959 -0.3467
0.7353 1.6764 -0.3431
0.7581 1.6194 -0.3415
0.7619 1.6006 -0.3379
0.7732 1.5817 -0.3405
0.7874 1.5624 -0.3454
0.8091 1.5060 -0.3431
0.8216 1.4864 -0.3465
0.8372 1.4660 -0.3522
0.8438 1.4473 -0.3509
0.8513 1.4284 -0.3504
0.8652 1.4079 -0.3546
0.8643 1.3913 -0.3478
0.8771 1.3710 -0.3512
0.8922 1.3498 -0.3561
0.8954 1.3325 -0.3525
0.7418 1.3347 -0.2249
0.7473 1.3203 -0.2243
-0.9138 1.8461 -0.3339
-0.9056 1.8275 -0.3342
-0.8973 1.8089 -0.3344
-0.8911 1.7910 -0.3362
-0.8745 1.7538 -0.3367
-0.8579 1.7165 -0.3372
-0.8325 1.6774 -0.3308
-0.8199 1.6412 -0.3344
-0.8174 1.6234 -0.3392
-0.8081 1.6047 -0.3387
-0.7980 1.5859 -0.3374
-0.7897 1.5673 -0.3377
-0.7805 1.5487 -0.3371
-0.7642 1.5302 -0.3305
-0.7649 1.5116 -0.3384
-0.7531 1.4932 -0.3356
-0.7449 1.4747 -0.3358
-0.7350 1.4565 -0.3345
-0.7284 1.4378 -0.3363
-0.7161 1.4201 -0.3327
-0.7071 1.4019 -0.3322
-0.7013 1.3830 -0.3347
-0.6908 1.3653 -0.3327
-0.6810 1.3475 -0.3314
-0.6798 1.3266 -0.3386
-0.6670 1.3100 -0.3342
-0.6581 1.2920 -0.3336
-0.6521 1.2725 -0.3362
-0.6418 1.2553 -0.3341
-0.6315 1.2382 -0.3321
-0.6241 1.2195 -0.3331
-0.6180 1.1999 -0.3357
-0.6112 1.1805 -0.3375
-0.5910 1.1714 -0.3237
-0.5692 1.1648 -0.3076
-0.5460 1.1610 -0.2892
-0.5272 1.1548 -0.2754
-0.4676 1.1478 -0.2269
-0.4523 1.1435 -0.2154
-0.4424 1.1335 -0.2109
-0.4350 1.1207 -0.2095
-0.4342 1.0989 -0.2175
-0.4447 1.0340 -0.2523
-0.4552 0.9611 -0.2903
-0.4542 0.9327 -0.3007
-0.4568 0.8962 -0.3174
-0.4579 0.8606 -0.3325
-0.4531 0.8357 -0.3382
-0.4463 0.8144 -0.3408
-0.4382 0.7961 -0.3411
-0.4308 0.7756 -0.3429
-0.4189 0.7669 -0.3361
-0.4120 0.7454 -0.3387
-0.4055 0.7226 -0.3421
-0.3887 0.6871 -0.3418
-0.3799 0.6712 -0.3404
-0.9691 1.8792 -0.3422
-0.9582 1.8588 -0.3410
-0.9441 1.8373 -0.3375
-0.9333 1.8172 -0.3363
-0.9268 1.7986 -0.3380
-0.9193 1.7795 -0.3390
-0.9127 1.7607 -0.3408
-0.9061 1.7418 -0.3425
-0.8903 1.7206 -0.3376
-0.8707 1.6989 -0.3297
-0.8731 1.6820 -0.3381
-0.8645 1.6627 -0.3384
-0.8646 1.6446 -0.3453
-0.8473 1.6240 -0.3389
-0.8415 1.6050 -0.3414
-0.8319 1.5855 -0.3409
-0.8215 1.5660 -0.3397
-0.8043 1.5274 -0.3402
-0.7330 1.3735 -0.3400
-0.7268 1.3535 -0.3425
-0.7166 1.3347 -0.3413
-0.6995 1.3186 -0.3333
-0.6987 1.2965 -0.3411
-0.6871 1.2786 -0.3383
-0.6801 1.2587 -0.3401
-0.6730 1.2388 -0.3418
-0.6594 1.2224 -0.3368
-0.6382 1.1871 -0.3328
-0.6243 1.1721 -0.3271
-0.5911 1.1726 -0.2996
-0.5713 1.1646 -0.2863
-0.5284 1.1556 -0.2544
-0.4392 1.1402 -0.1869
-0.4319 1.1278 -0.1856
-0.4330 1.1039 -0.1956
-0.4371 1.0746 -0.2101
-0.4435 1.0401 -0.2284
-0.4543 0.9385 -0.2759
-0.4043 0.6516 -0.3437
-0.9932 1.8842 -0.3337
-0.9798 1.8458 -0.3371
-0.9709 1.8257 -0.3373
-0.9619 1.8056 -0.3376
-0.9466 1.7836 -0.3336
-0.9399 1.7643 -0.3353
-0.9310 1.7443 -0.3356
-0.9221 1.7243 -0.3358
-0.9152 1.7048 -0.3375
-0.9003 1.6836 -0.3335
-0.8816 1.6437 -0.3333
-0.8727 1.6238 -0.3336
-0.8668 1.6042 -0.3360
-0.8560 1.5842 -0.3348
-0.8425 1.5641 -0.3315
-0.8355 1.5444 -0.3332
-0.8222 1.5246 -0.3299
-0.8179 1.5048 -0.3338
-0.8073 1.4851 -0.3326
-0.7941 1.4658 -0.3293
-0.7897 1.4456 -0.3331
-0.7792 1.4261 -0.3319
-0.7721 1.4061 -0.3336
-0.7633 1.3863 -0.3339
-0.7545 1.3666 -0.3342
-0.7457 1.3468 -0.3344
-0.7330 1.3284 -0.3311
-0.7313 1.3061 -0.3378
-0.7193 1.2875 -0.3352
-0.7067 1.2695 -0.3319
-0.7002 1.2488 -0.3343
-0.6907 1.2295 -0.3339
-0.6820 1.2098 -0.3341
-0.6782 1.1870 -0.3394
-0.6595 1.1737 -0.3296
-0.6301 1.1691 -0.3081
-0.5472 1.1633 -0.2451
-0.5263 1.1594 -0.2301
-0.4670 1.1533 -0.1857
-0.4534 1.1473 -0.1772
-0.4430 1.1383 -0.1723
-0.4362 1.1252 -0.1717
-0.4323 1.1082 -0.1748
-0.4394 1.0750 -0.1925
-0.4515 1.0057 -0.2271
-0.4486 0.9829 -0.2332
-0.4097 0.9693 -0.2075
-0.4694 0.7427 -0.3368
-0.4620 0.7200 -0.3393
-0.4554 0.6949 -0.3432
-0.4458 0.6774 -0.3420
-0.4282 0.6380 -0.3425
-0.4183 0.6218 -0.3406
-0.4114 0.5962 -0.3445
-1.0445 1.8996 -0.3407
-1.0329 1.8778 -0.3396
-1.0236 1.8568 -0.3399
-1.0185 1.8373 -0.3429
-1.0027 1.8141 -0.3391
-1.0019 1.7957 -0.3449
-0.9925 1.7746 -0.3452
-0.9654 1.7490 -0.3338
-0.9583 1.7288 -0.3354
-0.9582 1.7099 -0.3419
-0.9398 1.6873 -0.3360
-0.9286 1.6662 -0.3349
-0.9242 1.6462 -0.3386
-0.9208 1.6260 -0.3430
-0.9038 1.6044 -0.3378
-0.8983 1.5838 -0.3408
-0.8787 1.5626 -0.3335
-0.8696 1.5420 -0.3338
-0.8531 1.5215 -0.3285
-0.8494 1.5009 -0.3329
-0.8403 1.4803 -0.3332
-0.8381 1.4591 -0.3390
-0.8239 1.4169 -0.3430
-0.8130 1.3963 -0.3419
-0.8020 1.3759 -0.3408
-0.7811 1.3351 -0.3393
-0.7611 1.2943 -0.3385
-0.7550 1.2723 -0.3415
-0.7320 1.2331 -0.3379
-0.7243 1.2117 -0.3396
-0.7056 1.1966 -0.3308
-0.6857 1.1830 -0.3206
-0.6563 1.1768 -0.3007
-0.6365 1.1656 -0.2898
-0.5725 1.1666 -0.2415
-0.5510 1.1617 -0.2270
-0.5299 1.1578 -0.2126
-0.4697 1.1528 -0.1692
-0.4432 1.1409 -0.1534
-0.4353 1.1294 -0.1515
-0.4344 1.1087 -0.1580
-0.4321 1.0891 -0.1631
-0.4402 1.0535 -0.1815
-0.4182 0.9587 -0.1980
-0.4153 0.9355 -0.2038
-1.0805 1.9086 -0.3363
-1.0491 1.8609 -0.3297
-1.0330 1.8373 -0.3260
-1.0258 1.7982 -0.3338
-1.0183 1.7772 -0.3355
-1.0034 1.7543 -0.3324
-0.9969 1.7335 -0.3347
-0.9976 1.7140 -0.3416
-0.9858 1.6919 -0.3406
-0.9548 1.6263 -0.3401
-0.9364 1.6039 -0.3345
-0.9192 1.5820 -0.3294
-0.9079 1.5606 -0.3284
-0.9059 1.5394 -0.3340
-0.8963 1.5180 -0.3343
-0.8721 1.4532 -0.3385
-0.8599 1.4320 -0.3368
-0.8486 1.4108 -0.3357
-0.8339 1.3904 -0.3320
-0.8211 1.3699 -0.3296
-0.8055 1.3266 -0.3329
-0.7960 1.3053 -0.3332
-0.7897 1.2828 -0.3361
-0.7771 1.2627 -0.3337
-0.7660 1.2422 -0.3327
-0.7627 1.2179 -0.3383
-0.7471 1.1997 -0.3332
-0.7192 1.1891 -0.3168
-0.6442 1.1857 -0.2644
-0.6212 1.1777 -0.2506
-0.5474 1.1664 -0.2016
-0.5316 1.1581 -0.1931
-0.4723 1.1522 -0.1527
-0.4579 1.1471 -0.1442
-0.4433 1.1434 -0.1349
-0.4360 1.1313 -0.1338
-0.4317 1.1154 -0.1360
-0.4359 1.0873 -0.1483
-0.4430 1.0532 -0.1647
-0.4420 1.0299 -0.1716
-0.4439 1.0008 -0.1826
-0.4360 0.9872 -0.1815
-0.4240 0.9813 -0.1749
-0.4351 0.9019 -0.2092
-0.4274 0.8866 -0.2087
-0.4192 0.8723 -0.2076
-0.4945 0.6199 -0.3450
-0.4807 0.6097 -0.3385
-0.4721 0.5863 -0.3401
-0.4643 0.5604 -0.3431
-0.4556 0.5368 -0.3448
-0.4469 0.5130 -0.3464
-1.1339 1.9240 -0.3400
-1.1361 1.9057 -0.3472
-1.1236 1.8819 -0.3463
-1.1057 1.8564 -0.3422
-1.0977 1.8342 -0.3437
-1.0735 1.8073 -0.3358
-1.0634 1.7847 -0.3361
-1.0723 1.7668 -0.3478
-1.0600 1.7433 -0.3469
-1.0354 1.7175 -0.3383
-1.0202 1.6940 -0.3354
-1.0173 1.6726 -0.3402
-1.0191 1.6515 -0.3481
-1.0059 1.6282 -0.3465
-0.9831 1.6043 -0.3385
-0.9564 1.5590 -0.3347
-0.9483 1.5366 -0.3363
-0.9365 1.4913 -0.3426
-0.9283 1.4685 -0.3442
-0.9101 1.4467 -0.3387
-0.9001 1.4243 -0.3390
-0.8901 1.4018 -0.3393
-0.8826 1.3788 -0.3416
-0.8684 1.3572 -0.3387
-0.8584 1.3348 -0.3390
-0.8451 1.3134 -0.3367
-0.8425 1.2886 -0.3428
-0.8228 1.2696 -0.3354
-0.8030 1.2251 -0.3360
-0.7846 1.2071 -0.3292
-0.6590 1.2009 -0.2459
-0.6341 1.1933 -0.2314
-0.6168 1.1818 -0.2232
-0.5949 1.1748 -0.2106
-0.5741 1.1681 -0.1986
-0.5551 1.1613 -0.1879
-0.4889 1.1580 -0.1440
-0.4742 1.1523 -0.1358
-0.4337 1.1371 -0.1130
-0.4307 1.1199 -0.1165
-0.4305 1.0984 -0.1231
-0.4385 1.0637 -0.1395
-0.4426 1.0076 -0.1600
-0.4359 0.9925 -0.1602
-0.4488 0.8488 -0.2143
-0.4359 0.8431 -0.2074
-0.4880 0.5073 -0.3488
-0.4760 0.4909 -0.3458
-1.1376 1.8815 -0.3263
-1.1273 1.8583 -0.3266
-1.1202 1.8361 -0.3287
-1.1099 1.8128 -0.3290
-1.0840 1.7441 -0.3330
-1.0632 1.7187 -0.3273
-1.0550 1.6959 -0.3288
-1.0548 1.6743 -0.3352
-1.0444 1.6508 -0.3355
-1.0290 1.6269 -0.3328
-1.0166 1.6034 -0.3319
-0.9985 1.5797 -0.3273
-0.9911 1.5567 -0.3294
-0.9827 1.5336 -0.3310
-0.9770 1.5103 -0.3343
-0.9574 1.4875 -0.3285
-0.9499 1.4642 -0.3307
-0.9396 1.4410 -0.3310
-0.9355 1.4170 -0.3356
-0.9207 1.3945 -0.3328
-0.9147 1.3704 -0.3362
-0.8984 1.3485 -0.3322
-0.8821 1.3270 -0.3282
-0.8794 1.3017 -0.3341
-0.8732 1.2771 -0.3374
-0.8412 1.2351 -0.3295
-0.8216 1.2164 -0.3224
-0.6912 1.2062 -0.2414
-0.6640 1.1984 -0.2263
-0.6309 1.1962 -0.2056
-0.6187 1.1815 -0.2021
-0.5960 1.1751 -0.1894
-0.5465 1.1703 -0.1590
-0.5294 1.1637 -0.1499
-0.4876 1.1613 -0.1237
-0.4573 1.1526 -0.1068
-0.4444 1.1471 -0.1001
-0.4312 1.1430 -0.0929
-0.4236 1.1323 -0.0912
-0.4260 1.1079 -0.1000
-0.4332 1.0753 -0.1145
-0.4383 1.0441 -0.1271
-0.4356 0.9978 -0.1393
-0.5299 0.5572 -0.3325
-0.5242 0.5233 -0.3390
-0.5171 0.4923 -0.3437
-0.5038 0.4774 -0.3396
-0.4952 0.4496 -0.3424
-0.4833 0.4315 -0.3402
-1.1489 1.7974 -0.3280
-1.1519 1.7764 -0.3359
-1.1473 1.7531 -0.3397
-1.1279 1.7268 -0.3354
-1.1190 1.7026 -0.3369
-1.1193 1.6796 -0.3436
-1.1143 1.6554 -0.3474
-1.0653 1.6034 -0.3324
-1.0437 1.5785 -0.3263
-1.0513 1.5548 -0.3377
-1.0423 1.5302 -0.3392
-1.0370 1.5054 -0.3430
-1.0259 1.4807 -0.3434
-1.0084 1.4306 -0.3470
-0.9845 1.3811 -0.3465
-0.9708 1.3568 -0.3450
-0.9572 1.3327 -0.3436
-0.9487 1.3073 -0.3457
-0.9259 1.2861 -0.3378
-0.9107 1.2348 -0.3432
-0.8869 1.2156 -0.3341
-0.8031 1.2246 -0.2803
-0.7597 1.2193 -0.2553
-0.7366 1.2060 -0.2450
-0.7032 1.1996 -0.2264
-0.6736 1.1931 -0.2102
-0.6335 1.1953 -0.1851
-0.6147 1.1853 -0.1765
-0.5963 1.1761 -0.1679
-0.5480 1.1705 -0.1400
-0.5315 1.1634 -0.1319
-0.4644 1.1672 -0.0899
-0.4533 1.1594 -0.0853
-0.4424 1.1520 -0.0807
-0.4329 1.1435 -0.0774
-0.4271 1.1306 -0.0775
-0.4220 1.1168 -0.0783
-0.4202 1.0979 -0.0826
-0.4396 1.0214 -0.1163
-0.4320 1.0087 -0.1153
-0.4282 0.9894 -0.1185
-0.4571 0.8462 -0.1770
-0.5352 0.4582 -0.3355
-0.5246 0.4343 -0.3358
-0.5195 0.3949 -0.3439
-1.1429 1.7250 -0.3140
-1.1496 1.7032 -0.3237
-1.1435 1.6787 -0.3268
-1.1292 1.6530 -0.3255
-1.1269 1.6286 -0.3309
-1.1126 1.6029 -0.3295
-1.1043 1.5776 -0.3315
-1.0871 1.5520 -0.3285
-1.0759 1.5010 -0.3359
-0.9681 1.2718 -0.3356
-0.9592 1.2455 -0.3377
-0.9248 1.2287 -0.3223
-0.8634 1.2249 -0.2879
-0.8090 1.2216 -0.2573
-0.7827 1.2080 -0.2458
-0.7459 1.2012 -0.2265
-0.7230 1.1886 -0.2166
-0.6308 1.1978 -0.1609
-0.6157 1.1856 -0.1555
-0.5958 1.1776 -0.1461
-0.5453 1.1743 -0.1178
-0.5322 1.1645 -0.1129
-0.5180 1.1563 -0.1069
-0.4754 1.1775 -0.0766
-0.4694 1.1640 -0.0768
-0.4646 1.1490 -0.0781
-0.4649 1.1279 -0.0839
-0.4581 1.1148 -0.0836
-0.4519 1.1009 -0.0837
-0.4290 1.0885 -0.0739
-0.4282 1.0673 -0.0792
-0.4301 1.0411 -0.0873
-0.4299 1.0169 -0.0938
-0.4268 0.9970 -0.0974
-0.5758 0.4213 -0.3392
-0.5682 0.3869 -0.3442
-0.5569 0.3616 -0.3445
-0.5397 0.3531 -0.3368
-0.5331 0.3146 -0.3435
-1.1503 1.6753 -0.3002
-1.1390 1.6500 -0.3005
-1.1565 1.5495 -0.3357
-1.1609 1.5224 -0.3451
-1.1458 1.4951 -0.3439
-1.1365 1.4676 -0.3458
-1.1215 1.4405 -0.3446
-1.0644 1.3623 -0.3335
-1.0511 1.2759 -0.3484
-1.0167 1.2554 -0.3349
-0.9787 1.2377 -0.3188
-0.8181 1.2172 -0.2364
-0.7916 1.2035 -0.2255
-0.7593 1.1942 -0.2103
-0.6159 1.1864 -0.1342
-0.6003 1.1753 -0.1285
-0.5599 1.1849 -0.1040
-0.5424 1.1782 -0.0962
-0.5301 1.1680 -0.0921
-0.5166 1.1595 -0.0869
-0.4959 1.1589 -0.0758
-0.4975 1.1363 -0.0824
-0.4897 1.1233 -0.0815
-0.4833 1.1088 -0.0817
-0.4781 1.0928 -0.0830
-0.4729 1.0767 -0.0843
-0.4646 1.0646 -0.0829
-0.4587 1.0493 -0.0836
-0.4350 1.0374 -0.0737
-0.4349 1.0131 -0.0798
-0.4307 0.9950 -0.0822
-0.4307 0.9689 -0.0889
-0.5851 0.3014 -0.3440
-0.5720 0.2785 -0.3427
-1.1616 1.7193 -0.2643
-1.1600 1.6959 -0.2692
-1.1540 1.6715 -0.2720
-1.1407 1.6460 -0.2714
-1.1797 1.5730 -0.3090
-1.1542 1.4344 -0.3295
-1.1418 1.4064 -0.3299
-1.0265 1.2510 -0.3083
-0.9467 1.2478 -0.2682
-0.9114 1.2323 -0.2538
-0.8759 1.2186 -0.2389
-0.8371 1.2083 -0.2214
-0.6116 1.1904 -0.1101
-0.5946 1.1808 -0.1037
-0.5634 1.1834 -0.0871
-0.5465 1.1762 -0.0802
-0.5369 1.1635 -0.0783
-0.5371 1.1419 -0.0836
-0.5296 1.1272 -0.0833
-0.5228 1.1119 -0.0835
-0.5140 1.0988 -0.0822
-0.5065 1.0843 -0.0819
-0.4972 1.0722 -0.0801
-0.4776 1.0259 -0.0812
-0.4732 1.0073 -0.0834
-0.4676 0.9902 -0.0847
-0.4390 0.9854 -0.0712
-0.4363 0.9640 -0.0750
-0.4444 0.8920 -0.0965
-0.4419 0.8667 -0.1014
-0.6382 0.2976 -0.3397
-0.6272 0.2664 -0.3416
-0.6103 0.2504 -0.3368
-0.5994 0.2192 -0.3387
-0.5888 0.1866 -0.3412
-1.1551 1.6908 -0.2375
-1.1493 1.6666 -0.2402
-1.1475 1.6426 -0.2448
-0.9697 1.2388 -0.2512
-0.9289 1.2249 -0.2347
-0.5908 1.1847 -0.0812
-0.5749 1.1755 -0.0756
-0.5700 1.1357 -0.0823
-0.5621 1.1202 -0.0820
-0.5508 1.1082 -0.0793
-0.4898 0.9867 -0.0776
-0.4764 0.9809 -0.0725
-0.4749 0.9288 -0.0836
-0.4531 0.9108 -0.0772
-0.4524 0.8826 -0.0833
-0.4473 0.8624 -0.0855
-0.6847 0.2017 -0.3503
-0.6658 0.1859 -0.3448
-0.6471 0.1706 -0.3393
-1.1592 1.6636 -0.2153
-1.1512 1.6389 -0.2170
-1.2422 1.3219 -0.3258
-1.2402 1.2883 -0.3321
-0.9765 1.2354 -0.2246
-0.9397 1.2199 -0.2114
-0.7575 1.1957 -0.1345
-0.7335 1.1843 -0.1261
-0.6543 1.1854 -0.0902
-0.6290 1.1800 -0.0799
-0.6281 1.1580 -0.0843
-0.5884 1.0732 -0.0845
-0.5938 1.0161 -0.0992
-0.6136 0.8748 -0.1383
-0.6144 0.8071 -0.1532
-0.6051 0.7863 -0.1534
-0.4943 0.8710 -0.0854
-0.4878 0.8519 -0.0866
-0.4574 0.8485 -0.0736
-0.7071 0.1002 -0.3462
-0.6890 0.0797 -0.3425
-0.6751 0.0486 -0.3429
-1.1739 1.6849 -0.1873
-1.1724 1.6610 -0.1915
-0.9737 1.2354 -0.1934
-0.9463 1.2167 -0.1856
-0.7589 1.1952 -0.1112
-0.7268 1.1885 -0.0990
-0.6906 1.1862 -0.0843
-0.6777 1.1709 -0.0820
-0.6734 1.1500 -0.0844
-0.6149 1.0231 -0.0852
-0.6081 1.0034 -0.0863
-0.6108 0.8830 -0.1116
-0.6088 0.8538 -0.1166
-0.6121 0.8159 -0.1256
-0.6119 0.7816 -0.1323
-0.6026 0.7607 -0.1326
-0.5101 0.8170 -0.0825
-0.5053 0.7928 -0.0854
-0.4978 0.7736 -0.0860
-0.4830 0.7697 -0.0806
-0.7513 0.0094 -0.3457
-0.7460 -0.0477 -0.3549
-0.7287 -0.0753 -0.3532
-0.7137 -0.1088 -0.3536
-1.0944 1.2557 -0.2071
-0.9761 1.2335 -0.1651
-0.8116 1.2190 -0.1036
-0.7545 1.1977 -0.0853
-0.7425 1.1799 -0.0840
-0.9029 0.8099 -0.2158
-0.6149 0.8821 -0.0900
-0.6074 0.8606 -0.0910
-0.6127 0.8203 -0.1007
-0.6133 0.7853 -0.1075
-0.6059 0.7617 -0.1090
-0.5468 0.7564 -0.0869
-0.5348 0.7433 -0.0847
-0.5066 0.6912 -0.0834
-0.7805 -0.1158 -0.3412
-0.7625 -0.1447 -0.3397
-0.7470 -0.1796 -0.3401
-1.1831 1.7007 -0.1293
-1.1754 1.6765 -0.1307
-0.9749 1.2330 -0.1356
-0.8223 1.2139 -0.0839
-0.8129 1.1929 -0.0842
-0.8069 1.1701 -0.0860
-1.0210 0.8320 -0.2220
-0.9075 0.8089 -0.1851
-0.8881 0.7882 -0.1817
-0.8099 0.7915 -0.1529
-0.7762 0.7915 -0.1408
-0.6402 0.8532 -0.0810
-0.6406 0.8196 -0.0870
-0.6350 0.7933 -0.0895
-0.6244 0.7742 -0.0891
-0.6163 0.7513 -0.0901
-0.6069 0.7303 -0.0904
-0.5740 0.7138 -0.0814
-0.5716 0.6808 -0.0863
-0.5543 0.6763 -0.0808
-0.5410 0.6648 -0.0780
-0.5268 0.6559 -0.0744
-0.8449 -0.2564 -0.3478
-0.8341 -0.3103 -0.3533
-0.8199 -0.3560 -0.3562
-1.1876 1.6971 -0.1027
-1.1744 1.6489 -0.1061
-1.1687 1.6246 -0.1081
-1.1724 1.6006 -0.1132
-0.9170 1.2259 -0.0889
-0.8945 1.2079 -0.0844
-0.8964 1.1797 -0.0895
-0.8726 1.1633 -0.0843
-1.0110 1.0277 -0.1520
-1.0012 0.9987 -0.1534
-0.9150 0.8052 -0.1560
-0.8933 0.7866 -0.1518
-0.7218 0.7877 -0.0948
-0.6965 0.7841 -0.0870
-0.6443 0.7500 -0.0751
-0.6334 0.6932 -0.0807
-0.6201 0.6773 -0.0788
-0.6019 0.6710 -0.0738
-0.5879 0.6580 -0.0712
-0.5729 0.6477 -0.0680
-0.5577 0.6389 -0.0643
-0.5395 0.6374 -0.0585
-0.5197 0.6415 -0.0513
-0.5084 0.6277 -0.0498
-0.8705 -0.3819 -0.3324
-0.8627 -0.4479 -0.3405
-1.1594 1.7532 -0.0575
-1.1684 1.7338 -0.0631
-1.1786 1.6915 -0.0725
-1.1745 1.6681 -0.0747
-1.1778 1.6452 -0.0791
-1.1733 1.6211 -0.0813
-1.1707 1.5967 -0.0842
-1.1807 1.5724 -0.0908
-1.1951 1.5208 -0.1028
-1.2170 1.4931 -0.1136
-1.2109 1.4654 -0.1158
-1.2056 1.4373 -0.1184
-1.0919 1.2518 -0.1114
-1.0007 1.2219 -0.0882
-0.9949 1.1949 -0.0905
-0.9741 1.1738 -0.0873
-0.9440 1.1577 -0.0806
-1.0579 0.8887 -0.1550
-1.0539 0.8518 -0.1593
-1.0343 0.8263 -0.1571
-0.9225 0.8014 -0.1269
-0.9029 0.7808 -0.1240
-0.8047 0.7678 -0.0962
-0.7347 0.7763 -0.0738
-0.7055 0.7036 -0.0757
-0.6919 0.6849 -0.0744
-0.6767 0.6692 -0.0720
-0.6598 0.6570 -0.0687
-0.6349 0.6593 -0.0608
-0.6128 0.6588 -0.0542
-0.5936 0.6552 -0.0489
-0.5797 0.6427 -0.0466
-0.5413 0.6427 -0.0350
-0.5250 0.6388 -0.0306
-0.5127 0.6275 -0.0285
-0.9060 -0.5390 -0.3208
-1.1756 1.7937 -0.0301
-1.1713 1.7721 -0.0318
-1.1553 1.7480 -0.0307
-1.1645 1.7288 -0.0358
-1.1756 1.7090 -0.0416
-1.1650 1.6853 -0.0419
-1.1578 1.6620 -0.0431
-1.1581 1.6392 -0.0462
-1.1734 1.6172 -0.0534
-1.1861 1.5938 -0.0601
-1.1971 1.5693 -0.0665
-1.2077 1.5437 -0.0729
-1.2126 1.5171 -0.0778
-1.2172 1.4897 -0.0828
-1.2122 1.4621 -0.0852
-1.2382 1.4313 -0.0965
-1.2484 1.3695 -0.1077
-1.2432 1.3390 -0.1104
-1.2493 1.3057 -0.1166
-1.1146 1.2124 -0.0923
-1.0906 1.1890 -0.0888
-1.0605 1.1686 -0.0833
-1.0292 1.1500 -0.0773
-1.0315 1.1174 -0.0823
-1.0419 1.0797 -0.0903
-1.0558 0.8524 -0.1250
-0.9247 0.8025 -0.0957
-0.8858 0.7621 -0.0905
-0.8223 0.7135 -0.0797
-0.8087 0.6900 -0.0791
-0.7872 0.6770 -0.0750
-0.7556 0.6789 -0.0660
-0.7291 0.6760 -0.0592
-0.7039 0.6734 -0.0526
-0.6817 0.6681 -0.0472
-0.6629 0.6588 -0.0433
-0.6016 0.6481 -0.0279
-0.5831 0.6442 -0.0233
-0.5456 0.6422 -0.0133
-0.5282 0.6408 -0.0087
-0.5159 0.6296 -0.0068
-0.8916 -0.4777 -0.2606
-1.1658 1.7664 -0.0051
-1.1672 1.7461 -0.0079
-1.1673 1.7250 -0.0106
-1.1570 1.7018 -0.0109
-1.1658 1.6813 -0.0156
-1.1768 1.6372 -0.0238
-1.2233 1.5664 -0.0440
-1.2413 1.5403 -0.0517
-1.2198 1.5135 -0.0497
-1.2172 1.4864 -0.0524
-1.2124 1.4589 -0.0546
-1.2277 1.4292 -0.0620
-1.2363 1.3988 -0.0679
-1.2533 1.3660 -0.0762
-1.1873 1.2533 -0.0738
-1.1775 1.1222 -0.0876
-1.1677 1.0908 -0.0890
-1.1718 1.0527 -0.0947
-1.1558 0.9858 -0.0990
-1.1454 0.9530 -0.1005
-1.1249 0.9261 -0.0988
-1.0875 0.9107 -0.0914
-1.0741 0.8807 -0.0918
-1.0278 0.7957 -0.0909
-0.9427 0.7892 -0.0706
-0.9436 0.7487 -0.0759
-0.9281 0.7233 -0.0752
-0.9076 0.7035 -0.0725
-0.8832 0.6889 -0.0683
-0.8571 0.6776 -0.0632
-0.8259 0.6740 -0.0560
-0.7961 0.6710 -0.0490
-0.7735 0.6605 -0.0447
-0.6847 0.6698 -0.0216
-0.6665 0.6597 -0.0183
-0.6233 0.6551 -0.0082
-0.6050 0.6495 -0.0044
-0.5910 0.6370 -0.0024
-0.5521 0.6373 0.0072
-0.5346 0.6359 0.0114
-0.5211 0.6270 0.0136
-1.1921 1.8088 0.0195
-1.1856 1.7870 0.0185
-1.1613 1.7611 0.0209
-1.1758 1.7435 0.0158
-1.1678 1.7209 0.0150
-1.1667 1.6992 0.0128
-1.1722 1.6781 0.0093
-1.2298 1.3968 -0.0348
-1.2353 1.3660 -0.0394
-1.2443 1.3337 -0.0450
-1.2538 1.3000 -0.0508
-1.1641 0.9816 -0.0666
-1.1393 0.9570 -0.0639
-1.1163 0.8122 -0.0749
-1.0983 0.7837 -0.0741
-1.0781 0.7574 -0.0726
-1.0603 0.7295 -0.0718
-1.0336 0.7101 -0.0681
-0.9931 0.7051 -0.0597
-0.6928 0.6638 0.0018
-0.6782 0.6478 0.0032
-0.6107 0.6467 0.0179
-0.5955 0.6364 0.0201
-0.5426 0.6274 0.0308
-0.5285 0.6196 0.0330
-0.5151 0.6111 0.0350
-1.1702 1.7789 0.0461
-1.1816 1.7611 0.0421
-1.1573 1.7356 0.0443
-1.1636 1.7159 0.0411
-1.1753 1.6965 0.0369
-1.1626 1.6729 0.0370
-1.2749 1.3257 -0.0193
-1.2461 1.2993 -0.0163
-1.2641 1.2628 -0.0234
-1.2737 1.2266 -0.0289
-1.2648 1.1946 -0.0304
-1.2708 1.1574 -0.0352
-1.2735 1.1201 -0.0394
-1.2712 1.0837 -0.0426
-1.2572 0.7586 -0.0723
-1.2148 0.7428 -0.0656
-1.0388 0.7088 -0.0350
-0.9183 0.7006 -0.0125
-0.9009 0.6784 -0.0114
-0.8695 0.6728 -0.0058
-0.8003 0.6763 0.0079
-0.6825 0.6477 0.0278
-0.6176 0.6417 0.0398
-0.6035 0.6292 0.0413
-0.5907 0.6149 0.0423
-0.5501 0.6201 0.0507
-0.5353 0.6134 0.0529
-0.5187 0.6122 0.0560
-1.1786 1.7764 0.0692
-1.1794 1.7563 0.0673
-1.1776 1.7353 0.0658
-1.1616 1.7115 0.0664
-1.1654 1.6909 0.0639
-1.2560 1.3266 0.0168
-1.2579 1.2946 0.0137
-1.2644 1.2606 0.0096
-1.2665 1.2267 0.0063
-1.3017 1.1819 -0.0035
-1.2962 1.1476 -0.0056
-1.3118 1.1051 -0.0120
-1.3286 1.0603 -0.0187
-1.3311 0.9786 -0.0263
-1.3792 0.8683 -0.0440
-1.3784 0.8228 -0.0479
-1.3619 0.7857 -0.0484
-1.2526 0.7635 -0.0321
-0.9011 0.6826 0.0196
-0.8050 0.6755 0.0350
-0.7863 0.6602 0.0368
-0.7585 0.6584 0.0413
-0.7110 0.6489 0.0484
-0.6931 0.6377 0.0504
-0.6716 0.6332 0.0536
-0.6104 0.6242 0.0630
-0.5963 0.6121 0.0643
-0.5555 0.6174 0.0716
-0.5406 0.6108 0.0735
-0.5212 0.6157 0.0771
-0.5023 0.6217 0.0808
-0.4884 0.6172 0.0828
-1.1653 1.7887 0.0967
-1.1786 1.7721 0.0935
-1.1855 1.7533 0.0911
-1.1730 1.7302 0.0911
-1.1700 1.7088 0.0899
-1.2658 1.2907 0.0445
-1.2842 1.2538 0.0391
-1.2902 1.2184 0.0356
-1.2766 1.1878 0.0352
-1.3000 1.1449 0.0286
-1.2906 1.1116 0.0274
-1.3319 1.0185 0.0145
-1.3358 0.9761 0.0107
-1.3447 0.9299 0.0059
-1.3582 0.8797 0.0001
-1.3884 0.8178 -0.0088
-1.3994 0.7642 -0.0145
-1.2578 0.7617 0.0053
-1.0553 0.7006 0.0292
-0.6172 0.6192 0.0848
-0.5996 0.6138 0.0869
-0.5586 0.6194 0.0931
-0.5481 0.6033 0.0934
-0.5121 0.6079 0.0988
-0.4990 0.6006 0.1001
-1.1834 1.8081 0.1196
-1.1786 1.7875 0.1189
-1.1773 1.7675 0.1177
-1.1699 1.7459 0.1172
-1.1684 1.7252 0.1160
-1.1714 1.7050 0.1143
-1.1801 1.6851 0.1120
-1.2844 1.2516 0.0718
-1.2789 1.2196 0.0704
-1.2810 1.1848 0.0679
-1.2798 1.1502 0.0658
-1.3294 1.0964 0.0566
-1.3149 1.0638 0.0561
-1.3317 1.0179 0.0512
-1.3351 0.9761 0.0481
-1.3343 0.9350 0.0455
-1.3288 0.8955 0.0436
-1.3721 0.8277 0.0342
-1.3867 0.7250 0.0259
-1.3042 0.7319 0.0358
-1.2467 0.7260 0.0421
-1.2060 0.7108 0.0458
-1.0667 0.6937 0.0608
-0.5628 0.6192 0.1142
-0.5506 0.6067 0.1148
-0.5359 0.6007 0.1161
-1.1681 1.7998 0.1442
-1.1721 1.7817 0.1429
-1.1759 1.7429 0.1405
-1.1768 1.7227 0.1393
-1.1716 1.7010 0.1386
-1.2752 1.2188 0.1033
-1.2980 1.1781 0.0991
-1.3007 1.1419 0.0969
-1.3249 1.0968 0.0923
-1.3190 1.0613 0.0909
-1.3315 1.0174 0.0874
-1.3350 0.9757 0.0849
-1.3436 0.9304 0.0817
-1.3525 0.8833 0.0783
-1.3616 0.8343 0.0749
-1.2994 0.7369 0.0753
-1.2477 0.7274 0.0795
-0.9329 0.6612 0.1044
-0.6287 0.6135 0.1293
-0.6132 0.6037 0.1302
-0.5565 0.6029 0.1353
-0.5450 0.5895 0.1356
-1.1492 1.8092 0.1689
-1.1688 1.7957 0.1670
-1.1780 1.7787 0.1657
-1.1952 1.7425 0.1630
-1.1877 1.7205 0.1626
-1.1753 1.6976 0.1624
-1.2779 1.1826 0.1337
-1.2878 1.1448 0.1314
-1.2904 1.1082 0.1297
-1.3107 1.0637 0.1265
-1.3226 1.0205 0.1238
-1.3488 0.9691 0.1199
-1.3337 0.9353 0.1195
-1.3286 0.8962 0.1182
-1.3365 0.8491 0.1156
-1.3861 0.7753 0.1092
-1.3854 0.7287 0.1073
-1.2611 0.7198 0.1151
-0.7165 0.6274 0.1469
-0.7017 0.6118 0.1472
-0.6356 0.6084 0.1514
-0.6164 0.6055 0.1525
-0.5769 0.6067 0.1552
-0.5618 0.6002 0.1559
-0.5502 0.5869 0.1561
-0.5361 0.5801 0.1567
-1.1713 1.8108 0.1901
-1.1746 1.7929 0.1894
-1.1726 1.7733 0.1889
-1.1791 1.7552 0.1880
-1.1768 1.7348 0.1875
-1.1731 1.7140 0.1870
-1.1705 1.6930 0.1864
-1.3214 1.1322 0.1623
-1.3162 1.0977 0.1615
-1.3486 0.9688 0.1560
-1.3529 0.9257 0.1545
-1.3278 0.8969 0.1546
-1.3755 0.8277 0.1504
-0.7240 0.6223 0.1708
-0.6413 0.6056 0.1737
-0.6270 0.5935 0.1739
-0.5829 0.6029 0.1760
-0.5671 0.5976 0.1765
-0.5544 0.5867 0.1767
-0.5401 0.5800 0.1770
-1.1812 1.8276 0.2126
-1.1668 1.8053 0.2124
-1.1676 1.7869 0.2120
-1.1800 1.7513 0.2110
-1.1728 1.7301 0.2107
-1.1754 1.7104 0.2102
-1.1716 1.6893 0.2098
-1.2925 1.1405 0.1962
-1.3286 1.0921 0.1945
-1.3279 1.0551 0.1938
-1.3714 0.9166 0.1901
-1.3763 0.8716 0.1891
-1.3652 0.8342 0.1885
-1.0797 0.6525 0.1896
-0.9332 0.6333 0.1917
-0.7301 0.6192 0.1949
-0.6642 0.6108 0.1958
-0.6470 0.6027 0.1960
-0.6314 0.5930 0.1960
-0.5894 0.5978 0.1968
-0.5747 0.5901 0.1969
-0.5607 0.5816 0.1970
-1.1648 1.8188 0.2344
-1.1685 1.8015 0.2342
-1.1657 1.7823 0.2340
-1.1690 1.7642 0.2338
-1.1771 1.7466 0.2337
-1.1762 1.7267 0.2335
-1.1666 1.7050 0.2332
-1.3192 1.0577 0.2274
-1.3176 1.0209 0.2270
-1.3564 0.9240 0.2262
-1.3654 0.8776 0.2258
-1.3701 0.8320 0.2253
-1.2557 0.6850 0.2230
-1.1080 0.6731 0.2220
-0.7349 0.6182 0.2190
-0.6732 0.6024 0.2184
-0.6553 0.5954 0.2182
-0.6383 0.5879 0.2180
-0.5984 0.5879 0.2178
-0.5800 0.5874 0.2176
-0.5648 0.5815 0.2175
-1.1834 1.8195 0.2563
-1.1841 1.7825 0.2564
-1.1671 1.7597 0.2559
-1.1678 1.7407 0.2559
-1.1733 1.7222 0.2560
-1.1638 1.7007 0.2557
-1.3136 1.0220 0.2601
-1.3386 0.9725 0.2609
-1.3806 0.9120 0.2621
-1.3951 0.8622 0.2625
-1.3447 0.8469 0.2610
-1.2829 0.6670 0.2592
-1.1270 0.6596 0.2545
-1.0961 0.6443 0.2536
-0.8437 0.6289 0.2461
-0.7411 0.6151 0.2430
-0.6585 0.5970 0.2405
-0.6414 0.5897 0.2400
-0.6026 0.5876 0.2389
-0.5859 0.5836 0.2384
-0.5724 0.5739 0.2380
-0.5580 0.5672 0.2375
-1.1785 1.8139 0.2777
-1.1718 1.7755 0.2777
-1.1651 1.7553 0.2775
-1.1583 1.7350 0.2774
-1.1641 1.7167 0.2779
-1.1671 1.6975 0.2782
-1.3509 0.9266 0.2957
-1.3690 0.8763 0.2972
-1.3733 0.8315 0.2979
-1.2922 0.6624 0.2953
-1.1010 0.6432 0.2854
-0.7536 0.6028 0.2675
-0.7337 0.5945 0.2665
-0.6655 0.5919 0.2629
-0.6509 0.5799 0.2623
-0.6321 0.5766 0.2613
-0.6056 0.5898 0.2598
-0.5894 0.5846 0.2590
-0.5795 0.5675 0.2586
-0.5678 0.5544 0.2581
-1.1840 1.8112 0.2993
-1.1775 1.7913 0.2992
-1.1709 1.7713 0.2991
-1.1707 1.7525 0.2995
-1.1640 1.7321 0.2994
-1.1673 1.7134 0.3000
-1.3984 0.8180 0.3355
-1.3154 0.6474 0.3327
-0.9626 0.6186 0.3067
-0.7598 0.5997 0.2917
-0.7419 0.5883 0.2906
-0.6752 0.5823 0.2857
-0.6605 0.5702 0.2848
-0.5947 0.5820 0.2796
-0.5842 0.5661 0.2792
-0.5713 0.5556 0.2784
-1.1720 1.8217 0.3188
-1.1605 1.8010 0.3183
-1.1699 1.7854 0.3197
-1.1739 1.7679 0.3206
-1.1789 1.7502 0.3216
-1.1722 1.7298 0.3216
-1.1730 1.7106 0.3222
-1.2510 0.6534 0.3617
-1.1207 0.6321 0.3496
-0.7681 0.5935 0.3163
-0.6796 0.5817 0.3080
-0.6609 0.5766 0.3063
-0.6176 0.5820 0.3019
-0.5894 0.5635 0.2997
-1.1664 1.7623 0.3408
-1.1781 1.7461 0.3428
-1.1727 1.7261 0.3430
-1.1812 1.7082 0.3447
-1.1819 1.6885 0.3456
-0.9822 0.6061 0.3649
-0.8729 0.6127 0.3516
-0.8512 0.6011 0.3494
-0.7708 0.5956 0.3400
-0.7521 0.5854 0.3382
-0.6840 0.5811 0.3302
-0.6679 0.5715 0.3287
-0.6072 0.5730 0.3213
-0.5947 0.5609 0.3203
-1.1806 1.7979 0.3615
-1.1743 1.7784 0.3616
-1.1679 1.7587 0.3617
-1.1758 1.7418 0.3637
-1.1757 1.7228 0.3646
-1.1716 1.7029 0.3650
-1.1688 0.6389 0.4174
-1.1065 0.6513 0.4080
-1.0322 0.6793 0.3961
-0.9925 0.6785 0.3905
-0.7821 0.5852 0.3653
-0.7603 0.5791 0.3625
-0.6884 0.5805 0.3523
-0.6763 0.5640 0.3514
-0.6570 0.5608 0.3488
-0.5975 0.5633 0.3403
-0.5845 0.5530 0.3390
-1.1761 1.8104 0.3802
-1.1834 1.7946 0.3824
-1.1744 1.7744 0.3821
-1.1748 1.7189 0.3854
-1.1682 1.6986 0.3856
-0.8834 0.7201 0.3970
-0.8663 0.7034 0.3953
-0.8534 0.6824 0.3944
-0.8468 0.6541 0.3950
-0.8385 0.6274 0.3952
-0.8203 0.6136 0.3931
-0.8046 0.5971 0.3915
-0.7796 0.5946 0.3876
-0.7665 0.5760 0.3865
-0.7528 0.5587 0.3853
-0.6793 0.5658 0.3729
-0.6204 0.5627 0.3635
-0.6090 0.5480 0.3625
-0.5941 0.5413 0.3605
-0.5793 0.5351 0.3585
-1.1787 1.8070 0.4006
-1.1664 1.7687 0.4010
-1.1764 1.7343 0.4052
-1.1673 1.7139 0.4049
-0.8153 0.6254 0.4148
-0.7929 0.6185 0.4111
-0.7791 0.6010 0.4098
-0.7624 0.5880 0.4076
-0.6761 0.5783 0.3924
-0.6244 0.5625 0.3839
-0.6125 0.5492 0.3827
-0.5993 0.5387 0.3810
-1.1684 1.7830 0.4199
-1.1637 1.7643 0.4204
-1.1670 1.7470 0.4224
-1.1607 1.7276 0.4226
-1.1702 1.7107 0.4259
-1.1742 1.6923 0.4281
-0.6790 0.6158 0.4105
-0.6589 0.6144 0.4065
-0.6406 0.6114 0.4029
-0.6286 0.5981 0.4015
-0.6173 0.5838 0.4003
-0.6068 0.5683 0.3994
-0.5983 0.5491 0.3991
-1.1785 2.3355 0.4103
-1.1620 2.3477 0.4117
-1.0254 2.6058 0.4584
-0.5666 2.5261 0.4016
-0.6259 2.7456 0.4561
-0.5960 2.7456 0.4536
-0.5727 2.7595 0.4548
-1.1514 2.3172 0.3832
-1.0171 2.5947 0.4298
-0.9773 2.5919 0.4263
-0.9612 2.6122 0.4292
-0.5615 2.5165 0.3796
-0.6406 2.7149 0.4261
-0.6199 2.7336 0.4284
-0.6052 2.7665 0.4340
-0.5890 2.7988 0.4394
-1.1781 2.3277 0.3659
-1.0139 2.5884 0.4028
-0.9717 2.5834 0.3991
-0.5089 2.2663 0.3108
-0.6415 2.7166 0.4018
-0.6197 2.7335 0.4035
-0.5563 3.0768 0.4621
-1.1695 2.2991 0.3391
-1.1803 2.3250 0.3439
-1.0013 2.5734 0.3739
-0.9761 2.5846 0.3743
-0.5059 2.2612 0.2958
-0.5799 3.1585 0.4446
-1.1669 2.2940 0.3170
-1.1582 2.3096 0.3188
-0.9862 2.5561 0.3451
-0.9613 2.5671 0.3455
-0.9453 2.5871 0.3475
-0.5748 2.4954 0.3177
-0.5773 3.1554 0.4096
-1.1652 2.3095 0.2973
-1.0351 2.5631 0.3222
-0.9873 2.5540 0.3194
-0.9673 2.5698 0.3206
-0.9422 2.5810 0.3209
-0.9101 2.5847 0.3202
-0.8942 2.6058 0.3221
-0.5900 3.0812 0.3665
-1.1617 2.2837 0.2728
-1.1794 2.3130 0.2760
-1.0240 2.5499 0.2942
-1.0012 2.5635 0.2949
-0.9880 2.5867 0.2967
-0.8948 2.6037 0.2959
-0.5564 2.8870 0.3136
-0.5960 3.1035 0.3351
-1.1767 2.3077 0.2530
-1.0287 2.5506 0.2679
-0.9725 2.5686 0.2683
-0.9383 2.5711 0.2679
-0.9000 2.5685 0.2671
-0.6090 2.5076 0.2581
-0.6471 2.7912 0.2789
-0.5593 2.8980 0.2851
-0.5985 3.1154 0.3012
-0.8969 2.5624 0.2409
-0.8781 2.5799 0.2416
-0.8531 2.5910 0.2420
-0.8116 2.5820 0.2413
-0.7123 2.5768 0.2405
-0.6673 2.5544 0.2392
-0.6646 2.7603 0.2490
-0.6482 2.7939 0.2505
-0.6238 2.8127 0.2513
-0.6030 2.8414 0.2526
-0.6012 3.1281 0.2663
0.3587 3.3581 0.2717
-0.6674 2.1274 0.2053
-0.6052 2.4595 0.2137
-0.6866 2.7391 0.2201
-0.6709 2.7722 0.2210
-0.6416 2.7806 0.2213
-0.6221 2.9767 0.2262
-0.6409 3.1308 0.2298
-0.5933 3.1088 0.2295
0.3100 3.3502 0.2396
0.3340 3.3426 0.2395
0.3659 3.3614 0.2401
0.4019 3.3909 0.2410
-0.6659 2.0972 0.1917
-0.5873 2.3633 0.1930
-0.5647 2.4343 0.1934
-0.6898 2.7443 0.1916
-0.6674 2.7655 0.1919
-0.6260 2.8990 0.1926
-0.6215 2.9777 0.1927
-0.6403 3.1329 0.1925
-0.6084 3.1595 0.1930
0.2865 3.3407 0.2067
0.3107 3.3323 0.2071
0.3444 3.3563 0.2076
0.3697 3.3539 0.2080
0.4160 3.4128 0.2087
-0.6037 2.2488 0.1766
-0.5952 2.2627 0.1765
-0.5856 2.3297 0.1752
-0.5845 2.3582 0.1745
-0.5778 2.3813 0.1741
-0.5680 2.4014 0.1739
-0.6914 2.7467 0.1625
-0.6735 2.7770 0.1622
0.2684 3.3526 0.1730
0.2951 3.3499 0.1738
0.3279 3.3689 0.1742
0.3504 3.3553 0.1751
0.3735 3.3465 0.1759
0.3981 3.3440 0.1766
-0.7312 2.1633 0.1598
-0.7244 2.1752 0.1594
-0.7826 2.4020 0.1463
-0.6341 2.3588 0.1539
-0.6075 2.3561 0.1550
-0.5898 2.3640 0.1553
-0.6945 2.7516 0.1327
-0.6785 2.7865 0.1316
0.2480 3.3586 0.1381
0.2786 3.3677 0.1388
0.3020 3.3525 0.1404
0.3302 3.3561 0.1412
0.3402 3.3049 0.1441
0.3773 3.3391 0.1438
-1.1707 2.3465 0.1095
-0.7108 2.2365 0.1396
-0.6963 2.2451 0.1397
-0.6671 2.2625 0.1398
-0.6554 2.2743 0.1395
-0.6291 2.3512 0.1351
-0.6163 2.3657 0.1347
-0.5969 2.3721 0.1351
-0.7372 2.7055 0.1040
-0.7099 2.7176 0.1044
-0.6861 2.7359 0.1042
-0.6749 3.1233 0.0763
-0.6427 3.1508 0.0759
0.2343 3.3959 0.0999
0.2549 3.3620 0.1034
0.2777 3.3423 0.1059
0.3010 3.3283 0.1081
0.3204 3.3048 0.1107
0.3507 3.3183 0.1112
0.3865 3.3474 0.1108
0.4277 3.3900 0.1096
-1.1831 2.2626 0.0915
-1.1885 2.2855 0.0889
-1.1696 2.2971 0.0889
-1.1754 2.3220 0.0861
-1.1523 2.3322 0.0864
-1.1637 2.3623 0.0828
-1.1725 2.3925 0.0793
-1.1734 2.4195 0.0766
-1.1691 2.4444 0.0744
-0.6473 2.2883 0.1206
-0.6333 2.2989 0.1204
-0.6171 2.3072 0.1205
-0.6041 2.3195 0.1201
-0.7651 2.6927 0.0738
-0.7360 2.7023 0.0746
-0.7137 2.7231 0.0739
-0.6959 2.7530 0.0720
-0.6798 2.7887 0.0694
-0.6748 3.1256 0.0365
0.2415 3.4001 0.0636
0.2576 3.3491 0.0696
0.2848 3.3458 0.0715
0.3083 3.3321 0.0743
0.3449 3.3626 0.0734
0.3709 3.3598 0.0752
0.3963 3.3568 0.0770
0.4253 3.3653 0.0779
-1.1892 2.2817 0.0648
-1.1956 2.3061 0.0613
-1.1748 2.3176 0.0613
-1.1747 2.3644 0.0555
-1.1841 2.3952 0.0510
-1.1652 2.4101 0.0505
-1.1634 2.4654 0.0438
-1.1805 2.5079 0.0373
-0.8477 2.3688 0.0780
-0.7971 2.3793 0.0803
-0.8049 2.4161 0.0752
-0.7449 2.7152 0.0423
-0.7246 2.7405 0.0406
-0.6996 3.1930 -0.0138
-0.6652 3.2224 -0.0151
0.2135 3.3831 0.0269
0.2365 3.3551 0.0320
0.2600 3.3350 0.0361
0.2938 3.3555 0.0360
0.3472 3.3497 0.0405
0.3748 3.3522 0.0421
0.3886 3.3169 0.0475
0.4228 3.3408 0.0469
-1.1640 2.2862 0.0413
-1.1674 2.3096 0.0376
-1.1839 2.3412 0.0315
-1.1803 2.3634 0.0284
-1.1841 2.3909 0.0240
-1.1671 2.4071 0.0229
-1.1567 2.4279 0.0207
-1.1659 2.4628 0.0147
-1.1827 2.5051 0.0070
-1.1815 2.5370 0.0023
-1.1877 2.6133 -0.0097
-0.8323 2.3802 0.0544
-0.8554 2.7649 -0.0052
-0.8168 2.8946 -0.0215
-0.8005 2.9397 -0.0269
-0.6672 3.2325 -0.0600
-0.6319 3.2634 -0.0617
-0.5900 3.2744 -0.0599
-0.5466 3.2784 -0.0570
-0.5056 3.2890 -0.0552
-0.4664 3.3064 -0.0546
-0.3859 3.3280 -0.0512
-0.3461 3.3381 -0.0495
-0.3074 3.3553 -0.0489
-0.2672 3.3515 -0.0450
-0.2283 3.3546 -0.0423
-0.1901 3.3586 -0.0398
-0.1525 3.3752 -0.0392
0.1814 3.3480 -0.0077
0.2106 3.3447 -0.0048
0.2362 3.3300 -0.0005
0.2626 3.3223 0.0028
0.3011 3.3588 0.0005
0.3231 3.3393 0.0052
0.3421 3.3142 0.0105
0.3713 3.3228 0.0116
0.4100 3.3584 0.0094
0.4413 3.3723 0.0099
-1.1860 2.2719 0.0168
-1.1841 2.2920 0.0134
-1.1880 2.3161 0.0088
-1.1787 2.3342 0.0065
-1.1794 2.3586 0.0021
-1.1747 2.3811 -0.0014
-1.1762 2.4084 -0.0063
-1.1773 2.4369 -0.0115
-1.1848 2.4711 -0.0182
-1.1830 2.5010 -0.0233
-1.2045 2.5495 -0.0339
-1.1930 2.5761 -0.0375
-1.1874 2.6086 -0.0427
-0.8140 2.9633 -0.0703
-0.7917 3.0032 -0.0753
-0.7569 3.1164 -0.0920
-0.7362 3.1750 -0.1004
-0.6691 3.2424 -0.1060
-0.6356 3.2809 -0.1096
-0.5908 3.2846 -0.1061
-0.5470 3.2890 -0.1028
-0.5054 3.2999 -0.1008
-0.4643 3.3107 -0.0989
-0.3413 3.3286 -0.0905
-0.3032 3.3530 -0.0912
-0.2643 3.3703 -0.0906
-0.1478 3.3790 -0.0813
-0.0755 3.3455 -0.0686
-0.0425 3.3171 -0.0605
-0.0089 3.3148 -0.0569
0.0252 3.3235 -0.0553
0.0600 3.3389 -0.0547
0.0917 3.3358 -0.0512
0.1284 3.3639 -0.0527
0.1592 3.3603 -0.0492
0.1934 3.3755 -0.0487
0.2262 3.3847 -0.0473
0.3588 3.3457 -0.0280
0.3826 3.3369 -0.0242
0.4139 3.3508 -0.0237
-1.1892 2.2903 -0.0125
-1.1884 2.3120 -0.0168
-1.1779 2.3295 -0.0193
-1.1678 2.3478 -0.0219
-1.1770 2.4323 -0.0401
-1.1884 3.2263 -0.2025
-1.1179 3.2096 -0.1917
-1.0418 3.1793 -0.1775
-0.8149 2.9641 -0.1099
-0.7796 2.9798 -0.1093
-0.6305 3.2709 -0.1528
-0.5898 3.2890 -0.1521
-0.5454 3.2927 -0.1482
-0.5020 3.2970 -0.1445
-0.4607 3.3078 -0.1423
-0.4173 3.3046 -0.1371
-0.2590 3.3535 -0.1303
-0.1812 3.3667 -0.1248
-0.1433 3.3429 -0.1160
-0.0390 3.2963 -0.0955
0.0289 3.3093 -0.0910
0.0643 3.3304 -0.0915
0.0990 3.3458 -0.0910
0.1293 3.3368 -0.0860
0.1635 3.3520 -0.0855
-1.1838 2.2424 -0.0270
-1.1850 2.2630 -0.0319
-1.1977 2.2902 -0.0396
-1.1933 2.3102 -0.0437
-0.8126 2.3826 -0.0156
-1.1705 3.1189 -0.2272
-0.9582 2.9705 -0.1681
-0.8403 2.9306 -0.1450
-0.7953 2.9283 -0.1392
-0.7608 2.9436 -0.1387
-0.7377 2.9824 -0.1449
-0.6684 3.2494 -0.1982
-0.6367 3.2963 -0.2053
-0.5888 3.2931 -0.1990
-0.5387 3.2761 -0.1892
-0.4955 3.2805 -0.1851
-0.4557 3.2981 -0.1845
-0.3347 3.3369 -0.1792
-0.2940 3.3401 -0.1751
-0.2546 3.3513 -0.1731
-0.2157 3.3685 -0.1725
-0.1768 3.3921 -0.1733
-0.1380 3.3881 -0.1679
-0.1009 3.3643 -0.1580
0.0004 3.3033 -0.1321
0.0363 3.3256 -0.1330
0.0714 3.3412 -0.1324
0.1045 3.3442 -0.1292
0.1346 3.3342 -0.1234
0.1665 3.3378 -0.1205
0.2006 3.3529 -0.1200
-1.2005 2.4681 -0.1124
-0.8278 2.3936 -0.0449
-1.2098 3.0213 -0.2562
-1.1540 3.0218 -0.2491
-0.9507 2.8890 -0.1885
-0.8912 2.8692 -0.1757
-0.8600 2.8893 -0.1768
-0.8305 2.9129 -0.1791
-0.7957 2.9283 -0.1785
-0.7538 2.9300 -0.1736
-0.7132 2.9323 -0.1689
-0.6576 3.0989 -0.2046
-0.6243 3.1273 -0.2076
-0.5683 3.2289 -0.2265
-0.5270 3.2399 -0.2240
-0.4890 3.2640 -0.2253
-0.4494 3.2816 -0.2247
-0.2892 3.3306 -0.2165
-0.2505 3.3551 -0.2178
-0.2113 3.3725 -0.2172
0.0055 3.3014 -0.1708
0.0414 3.3225 -0.1716
0.0777 3.3449 -0.1726
0.1098 3.3413 -0.1675
0.1424 3.3442 -0.1641
0.1760 3.3538 -0.1622
0.2076 3.3563 -0.1587
0.2390 3.3597 -0.1555
0.3713 3.4078 -0.1508
-1.1836 2.4526 -0.1376
-0.8543 2.3846 -0.0714
-0.8235 2.3868 -0.0677
-1.1710 2.9718 -0.2841
-1.0886 2.9373 -0.2626
-0.9184 2.8416 -0.2110
-0.8815 2.8527 -0.2090
-0.8096 2.9524 -0.2272
-0.7451 2.9132 -0.2069
-0.6944 2.8939 -0.1942
-0.6607 3.2366 -0.2873
-0.6217 3.2612 -0.2887
-0.5510 3.1757 -0.2543
-0.5254 3.2434 -0.2700
-0.4856 3.2610 -0.2693
-0.4445 3.2719 -0.2666
0.0138 3.3290 -0.2178
0.0458 3.3139 -0.2090
0.0802 3.3240 -0.2070
0.1164 3.3452 -0.2079
0.1492 3.3483 -0.2041
0.1763 3.3269 -0.1941
0.2105 3.3420 -0.1936
-0.8427 2.3717 -0.0913
-0.8246 2.3849 -0.0927
-0.9893 2.8113 -0.2520
-0.9454 2.8142 -0.2461
-0.9545 3.0340 -0.3165
-0.9114 3.0458 -0.3136
-0.8720 3.0633 -0.3130
-0.8176 3.0521 -0.3011
-0.6634 2.8304 -0.2076
-0.6305 2.8408 -0.2058
-0.6441 3.1933 -0.3186
-0.5980 3.1920 -0.3110
-0.5514 3.1847 -0.3015
-0.5155 3.2141 -0.3052
-0.4806 3.2513 -0.3115
-0.4447 3.2890 -0.3178
-0.3988 3.2730 -0.3057
-0.3585 3.2837 -0.3028
-0.3192 3.3011 -0.3022
-0.2789 3.3055 -0.2973
-0.2404 3.3288 -0.2987
-0.2011 3.3400 -0.2961
-0.1621 3.3427 -0.2910
-0.1234 3.3672 -0.2926
0.0874 3.3332 -0.2494
0.1208 3.3366 -0.2453
0.1525 3.3340 -0.2396
0.1846 3.3369 -0.2355
0.2178 3.3464 -0.2334
0.2475 3.3430 -0.2277
0.2766 3.3404 -0.2224
0.3068 3.3434 -0.2187
-0.8249 2.3822 -0.1176
-0.8078 2.3970 -0.1198
-0.9949 2.9424 -0.3380
-0.8807 2.9931 -0.3363
-0.8394 3.0042 -0.3332
-0.6121 3.1050 -0.3296
-0.5761 3.1281 -0.3316
-0.5030 3.1739 -0.3350
-0.3898 3.2375 -0.3378
-0.3460 3.2167 -0.3234
-0.3096 3.2463 -0.3274
-0.2720 3.2691 -0.3290
-0.1957 3.3101 -0.3303
-0.1573 3.3333 -0.3318
-0.0815 3.3402 -0.3215
0.0625 3.3536 -0.3020
0.0960 3.3500 -0.2951
0.1264 3.3347 -0.2848
0.1594 3.3379 -0.2804
0.1902 3.3341 -0.2739
0.2566 3.3533 -0.2694
0.2911 3.3686 -0.2688
0.4026 3.3553 -0.2456
-0.8634 2.3544 -0.1403
-0.8270 2.3522 -0.1329
-0.8053 2.3618 -0.1326
-0.7873 2.3749 -0.1342
-0.7856 2.4379 -0.1573
-0.7630 2.4867 -0.1714
-0.7415 2.9056 -0.3233
-0.7048 2.9167 -0.3208
-0.5717 2.9921 -0.3248
-0.5307 2.9878 -0.3158
-0.4000 3.0845 -0.3282
-0.3614 3.0792 -0.3193
-0.3274 3.1004 -0.3210
-0.2925 3.1158 -0.3205
-0.2568 3.1204 -0.3158
-0.2222 3.1358 -0.3152
-0.1881 3.1734 -0.3231
-0.0829 3.2139 -0.3192
-0.0133 3.2396 -0.3162
0.0216 3.2551 -0.3157
0.0565 3.2706 -0.3151
0.0923 3.2915 -0.3165
0.1263 3.3015 -0.3140
0.1586 3.3046 -0.3094
0.1891 3.3018 -0.3028
0.2233 3.3170 -0.3023
0.2560 3.3263 -0.2999
0.2917 3.3473 -0.3012
0.3205 3.3447 -0.2951
0.3524 3.3538 -0.2927
0.3840 3.3627 -0.2903
0.4176 3.3776 -0.2898
-0.9546 2.3387 -0.1778
-0.9222 2.3420 -0.1728
-0.8378 2.3307 -0.1520
-0.8038 2.3296 -0.1450
-0.7873 2.3430 -0.1472
-0.7706 2.3565 -0.1494
-0.7521 2.3687 -0.1507
-0.7334 2.3811 -0.1520
-0.6820 2.8699 -0.3383
-0.5875 2.8318 -0.3047
-0.2507 3.0865 -0.3418
-0.1158 3.1159 -0.3276
-0.0817 3.1461 -0.3331
-0.0482 3.1610 -0.3326
-0.0141 3.1812 -0.3341
0.0183 3.1854 -0.3296
0.0517 3.2003 -0.3290
0.0870 3.2260 -0.3326
0.1218 3.2465 -0.3341
0.1568 3.2671 -0.3355
0.1881 3.2708 -0.3310
0.2204 3.2801 -0.3285
0.2524 3.2892 -0.3259
0.2875 3.3098 -0.3274
0.3229 3.3306 -0.3289
0.3566 3.3455 -0.3284
0.3862 3.3485 -0.3239
0.4174 3.3573 -0.3214
0.4460 3.3599 -0.3169
0.4889 3.3991 -0.3243
-0.9892 2.3074 -0.1988
-0.9665 2.3175 -0.1984
-0.9420 2.3264 -0.1972
-0.9073 2.3277 -0.1906
-0.8157 2.3100 -0.1640
-0.8012 2.3245 -0.1673
-0.7892 2.3418 -0.1723
-0.7708 2.3540 -0.1737
