ply
format ascii 1.0
element vertex 2216
property float x
property float y
property float z
end_header
5.7267 2.5466 -0.0964
5.7030 2.5468 -0.0947
5.6811 2.5518 -0.0935
5.6361 2.5498 -0.0900
5.6147 2.5500 -0.0884
5.5934 2.5467 -0.0866
5.5731 2.5473 -0.0851
5.5532 2.5467 -0.0836
5.5339 2.5491 -0.0824
5.4964 2.5488 -0.0796
5.4604 2.5546 -0.0775
5.4429 2.5560 -0.0763
5.4253 2.5621 -0.0756
5.4094 2.5536 -0.0736
5.3934 2.5508 -0.0722
5.3766 2.5576 -0.0716
5.3611 2.5568 -0.0704
5.3477 2.5458 -0.0684
5.3321 2.5496 -0.0676
5.3168 2.5533 -0.0668
5.3019 2.5557 -0.0659
5.2873 2.5579 -0.0651
5.2746 2.5533 -0.0637
5.2629 2.5471 -0.0622
6.0311 1.9262 -0.0475
6.0316 1.9375 -0.0483
6.0338 1.9501 -0.0493
6.0310 1.9608 -0.0499
6.0364 1.9762 -0.0514
6.0306 1.9863 -0.0517
6.0347 2.0024 -0.0531
6.0330 2.0160 -0.0540
6.0308 2.0298 -0.0548
6.0280 2.0439 -0.0556
6.0331 2.0642 -0.0574
6.0300 2.0797 -0.0583
6.0296 2.1178 -0.0609
6.0311 2.1399 -0.0626
6.0325 2.1633 -0.0643
6.0391 2.1931 -0.0668
6.0283 2.2081 -0.0672
6.0341 2.2406 -0.0699
6.0298 2.2648 -0.0713
6.0239 2.2887 -0.0726
6.0235 2.3934 -0.0800
6.0244 2.5286 -0.0896
6.0134 2.5632 -0.0914
5.9767 2.5543 -0.0885
5.9416 2.5457 -0.0858
5.9148 2.5510 -0.0845
5.8855 2.5496 -0.0827
5.8549 2.5431 -0.0803
5.8301 2.5484 -0.0792
5.8057 2.5536 -0.0781
5.7796 2.5527 -0.0765
5.7516 2.5425 -0.0740
5.7284 2.5458 -0.0729
5.7071 2.5550 -0.0722
5.6817 2.5446 -0.0699
5.6626 2.5618 -0.0700
5.6168 2.5475 -0.0662
5.5967 2.5537 -0.0654
5.5764 2.5544 -0.0642
5.5565 2.5548 -0.0631
5.5368 2.5516 -0.0616
5.5179 2.5526 -0.0606
5.4994 2.5534 -0.0595
5.4813 2.5517 -0.0583
5.4461 2.5546 -0.0564
5.4296 2.5485 -0.0549
5.4128 2.5519 -0.0541
5.3956 2.5600 -0.0537
5.3650 2.5536 -0.0514
5.3504 2.5500 -0.0502
5.3355 2.5499 -0.0493
5.3218 2.5458 -0.0482
5.3069 2.5493 -0.0475
5.2934 2.5474 -0.0466
5.2789 2.5506 -0.0459
6.0364 1.9306 -0.0356
6.0322 1.9398 -0.0358
6.0334 1.9519 -0.0364
6.0296 1.9621 -0.0367
6.0378 2.0062 -0.0392
6.0311 2.0168 -0.0394
6.0339 2.0338 -0.0403
6.0283 2.0461 -0.0406
6.0307 2.0645 -0.0416
6.0304 2.0820 -0.0424
6.0259 2.0971 -0.0429
6.0364 2.1251 -0.0447
6.0278 2.1389 -0.0449
6.0302 2.1631 -0.0462
6.0347 2.1908 -0.0477
6.0273 2.2087 -0.0482
6.0229 2.2307 -0.0490
6.0170 2.2524 -0.0497
6.0295 2.3290 -0.0539
6.0228 2.3558 -0.0548
6.0220 2.3921 -0.0565
6.0160 2.4243 -0.0577
6.0185 2.4715 -0.0600
6.0179 2.5182 -0.0622
6.0116 2.5597 -0.0638
5.9671 2.5363 -0.0606
5.8900 2.5571 -0.0579
5.8605 2.5534 -0.0563
5.8355 2.5587 -0.0554
5.8078 2.5552 -0.0539
5.7795 2.5473 -0.0521
5.7318 2.5511 -0.0500
5.6845 2.5477 -0.0476
5.6639 2.5565 -0.0470
5.6407 2.5493 -0.0456
5.6183 2.5406 -0.0441
5.5973 2.5368 -0.0429
5.5778 2.5416 -0.0422
5.5587 2.5484 -0.0416
5.5396 2.5506 -0.0408
5.4843 2.5469 -0.0380
5.4667 2.5483 -0.0372
5.4492 2.5543 -0.0367
5.4324 2.5529 -0.0358
5.4160 2.5514 -0.0349
5.4002 2.5483 -0.0341
5.3692 2.5477 -0.0325
5.3545 2.5452 -0.0317
5.3389 2.5502 -0.0312
5.3100 2.5507 -0.0298
5.2975 2.5447 -0.0290
5.2821 2.5519 -0.0286
6.0299 1.9297 -0.0230
6.0352 1.9432 -0.0235
6.0352 1.9548 -0.0238
6.0314 1.9650 -0.0239
6.0295 1.9766 -0.0241
6.0313 1.9907 -0.0245
6.0388 2.0088 -0.0251
6.0342 2.0207 -0.0252
6.0311 2.0340 -0.0254
6.0263 2.0634 -0.0260
6.0291 2.0829 -0.0265
6.0220 2.0960 -0.0266
6.0267 2.1191 -0.0273
6.0210 2.1350 -0.0274
6.0263 2.1846 -0.0288
6.0308 2.2137 -0.0296
6.0220 2.2313 -0.0297
6.0278 2.2654 -0.0307
6.0279 2.3283 -0.0322
6.0202 2.3535 -0.0325
6.0197 2.3899 -0.0333
6.0347 2.4960 -0.0363
6.0337 2.5432 -0.0374
6.0155 2.5658 -0.0373
5.9764 2.5520 -0.0356
5.9444 2.5483 -0.0344
5.8592 2.5476 -0.0314
5.8357 2.5557 -0.0307
5.8074 2.5499 -0.0296
5.7544 2.5401 -0.0275
5.7321 2.5452 -0.0268
5.7090 2.5460 -0.0261
5.6868 2.5486 -0.0253
5.6012 2.5482 -0.0223
5.5814 2.5519 -0.0217
5.5619 2.5554 -0.0211
5.5425 2.5531 -0.0204
5.5236 2.5528 -0.0197
5.4872 2.5538 -0.0184
5.4697 2.5504 -0.0177
5.4522 2.5563 -0.0173
5.4354 2.5549 -0.0166
5.4188 2.5557 -0.0161
5.4027 2.5551 -0.0155
5.3719 2.5519 -0.0143
5.3572 2.5493 -0.0138
5.3417 2.5530 -0.0133
5.3273 2.5526 -0.0128
5.3132 2.5521 -0.0123
5.3010 2.5447 -0.0117
5.2860 2.5505 -0.0113
5.2700 2.5602 -0.0109
6.0342 1.9229 -0.0110
6.0293 1.9314 -0.0109
6.0324 1.9438 -0.0109
6.0337 1.9560 -0.0110
6.0345 1.9685 -0.0110
6.0314 1.9796 -0.0109
6.0312 1.9926 -0.0109
6.0294 2.0053 -0.0109
6.0342 2.0227 -0.0110
6.0273 2.0335 -0.0108
6.0326 2.0529 -0.0110
6.0295 2.0675 -0.0109
6.0314 2.0865 -0.0109
6.0270 2.1017 -0.0109
6.0265 2.1208 -0.0108
6.0252 2.1403 -0.0108
6.0280 2.1646 -0.0109
6.0273 2.1873 -0.0109
6.0350 2.2195 -0.0111
6.0307 2.2418 -0.0110
6.0343 2.2739 -0.0110
6.0209 2.3210 -0.0107
6.0205 2.4316 -0.0108
6.0298 2.4889 -0.0110
6.0226 2.5256 -0.0108
5.9160 2.5480 -0.0084
5.8891 2.5507 -0.0078
5.8583 2.5427 -0.0071
5.8373 2.5563 -0.0066
5.8077 2.5465 -0.0060
5.7571 2.5433 -0.0048
5.7331 2.5422 -0.0043
5.7107 2.5449 -0.0038
5.6896 2.5516 -0.0033
5.6685 2.5571 -0.0028
5.6467 2.5571 -0.0023
5.6040 2.5508 -0.0013
5.5849 2.5611 -0.0009
5.5640 2.5477 -0.0004
5.5451 2.5509 0.0000
5.5266 2.5574 0.0004
5.5081 2.5579 0.0008
5.4901 2.5547 0.0012
5.4726 2.5536 0.0016
5.4549 2.5632 0.0020
5.4383 2.5581 0.0024
5.4223 2.5514 0.0028
5.4066 2.5481 0.0031
5.3908 2.5496 0.0035
5.3747 2.5548 0.0039
5.3598 2.5535 0.0042
5.3453 2.5519 0.0045
5.3166 2.5521 0.0052
5.3022 2.5540 0.0055
5.2888 2.5530 0.0058
5.2761 2.5505 0.0061
6.0347 1.9251 0.0009
6.0347 1.9358 0.0011
6.0341 1.9704 0.0019
6.0279 1.9796 0.0022
6.0321 1.9951 0.0025
6.0314 2.0085 0.0028
6.0332 2.0240 0.0031
6.0254 2.0342 0.0034
6.0290 2.0524 0.0038
6.0241 2.0656 0.0042
6.0309 2.0880 0.0046
6.0293 2.1054 0.0050
6.0341 2.1288 0.0055
6.0302 2.1463 0.0059
6.0330 2.1708 0.0065
6.0259 2.1876 0.0069
6.0290 2.2415 0.0081
6.0336 2.2745 0.0088
6.0268 2.2971 0.0094
6.0301 2.3332 0.0102
6.0209 2.4327 0.0125
6.0276 2.4859 0.0137
6.0264 2.5314 0.0147
6.0127 2.5601 0.0155
5.9465 2.5498 0.0159
5.8949 2.5611 0.0167
5.8655 2.5568 0.0169
5.8339 2.5443 0.0170
5.7828 2.5423 0.0175
5.7611 2.5505 0.0179
5.7364 2.5473 0.0181
5.7150 2.5541 0.0184
5.6938 2.5608 0.0188
5.6696 2.5514 0.0188
5.5864 2.5502 0.0197
5.5667 2.5490 0.0199
5.5482 2.5590 0.0203
5.5293 2.5562 0.0204
5.5107 2.5426 0.0203
5.4930 2.5592 0.0208
5.4757 2.5473 0.0208
5.4582 2.5567 0.0212
5.4416 2.5551 0.0213
5.4255 2.5507 0.0214
5.4096 2.5499 0.0215
5.3935 2.5538 0.0218
5.3779 2.5551 0.0219
5.3630 2.5537 0.0221
5.3495 2.5468 0.0221
5.3211 2.5468 0.0223
5.2913 2.5570 0.0229
6.0328 1.9262 0.0126
6.0304 1.9358 0.0131
6.0336 1.9484 0.0136
6.0328 1.9596 0.0141
6.0360 1.9733 0.0148
6.0331 1.9844 0.0153
6.0319 1.9969 0.0158
6.0285 2.0381 0.0177
6.0311 2.0557 0.0185
6.0330 2.0738 0.0193
6.0322 2.0908 0.0201
6.0280 2.1062 0.0207
6.0295 2.1268 0.0217
6.0314 2.1711 0.0237
6.0277 2.1909 0.0246
6.0241 2.2119 0.0255
6.0284 2.2703 0.0282
6.0305 2.3026 0.0296
6.0264 2.3298 0.0308
6.0285 2.3667 0.0325
6.0334 2.4105 0.0345
6.0312 2.4915 0.0381
6.0329 2.5418 0.0404
6.0138 2.5616 0.0413
5.9769 2.5505 0.0407
5.9525 2.5601 0.0411
5.9195 2.5518 0.0407
5.8950 2.5591 0.0410
5.8699 2.5643 0.0411
5.8416 2.5605 0.0409
5.7831 2.5385 0.0398
5.7391 2.5503 0.0403
5.7156 2.5487 0.0402
5.6944 2.5542 0.0404
5.6717 2.5510 0.0402
5.6492 2.5453 0.0399
5.6275 2.5391 0.0396
5.6084 2.5471 0.0399
5.5890 2.5516 0.0401
5.5694 2.5502 0.0400
5.5504 2.5510 0.0400
5.5320 2.5550 0.0401
5.5135 2.5411 0.0395
5.4959 2.5506 0.0399
5.4784 2.5565 0.0401
5.4615 2.5513 0.0398
5.4133 2.5440 0.0394
5.3968 2.5529 0.0398
5.3816 2.5516 0.0397
5.3667 2.5513 0.0397
5.3516 2.5535 0.0397
5.3363 2.5582 0.0399
5.3252 2.5427 0.0392
5.3100 2.5498 0.0395
5.2951 2.5554 0.0397
5.2814 2.5569 0.0398
6.0320 1.9278 0.0243
6.0310 1.9380 0.0249
6.0354 1.9512 0.0259
6.0289 1.9595 0.0264
6.0356 1.9751 0.0275
6.0295 1.9844 0.0280
6.0339 2.0000 0.0292
6.0364 2.0154 0.0302
6.0373 2.0305 0.0313
6.0295 2.0407 0.0318
6.0323 2.0584 0.0331
6.0256 2.0704 0.0338
6.0280 2.0895 0.0351
6.0304 2.1098 0.0365
6.0275 2.1270 0.0376
6.0351 2.1540 0.0395
6.0348 2.1758 0.0410
6.0315 2.2207 0.0440
6.0217 2.2368 0.0449
6.0217 2.2644 0.0468
6.0292 2.3023 0.0494
6.0219 2.3254 0.0509
6.0317 2.4089 0.0567
6.0277 2.4434 0.0589
6.0254 2.4830 0.0616
6.0282 2.5342 0.0650
6.0160 2.5648 0.0669
5.9479 2.5500 0.0650
5.9166 2.5441 0.0642
5.8659 2.5523 0.0640
5.7895 2.5528 0.0630
5.7665 2.5568 0.0630
5.7441 2.5617 0.0630
5.7226 2.5685 0.0632
5.6728 2.5462 0.0610
5.6517 2.5468 0.0607
5.6305 2.5439 0.0602
5.6108 2.5473 0.0602
5.5912 2.5483 0.0600
5.5534 2.5555 0.0599
5.5342 2.5431 0.0588
5.5164 2.5515 0.0592
5.4987 2.5575 0.0593
5.4814 2.5500 0.0586
5.4646 2.5471 0.0582
5.4477 2.5538 0.0584
5.4315 2.5518 0.0580
5.4159 2.5494 0.0576
5.3999 2.5533 0.0577
5.3848 2.5518 0.0574
5.3546 2.5549 0.0572
5.3398 2.5569 0.0571
5.3253 2.5587 0.0570
5.2979 2.5579 0.0566
6.0362 1.9316 0.0361
6.0315 1.9402 0.0368
6.0325 1.9517 0.0378
6.0341 1.9641 0.0390
6.0352 1.9768 0.0401
6.0336 1.9886 0.0411
6.0347 2.0025 0.0424
6.0321 2.0147 0.0434
6.0353 2.0311 0.0450
6.0306 2.0433 0.0459
6.0305 2.0591 0.0473
6.0355 2.0793 0.0493
6.0311 2.0937 0.0505
6.0272 2.1091 0.0517
6.0343 2.1343 0.0542
6.0298 2.1512 0.0556
6.0323 2.1752 0.0578
6.0255 2.2163 0.0612
6.0251 2.2419 0.0635
6.0208 2.2647 0.0654
6.0242 2.2979 0.0685
6.0247 2.4003 0.0776
6.0194 2.4743 0.0841
6.0319 2.5400 0.0903
6.0154 2.5634 0.0920
5.9817 2.5575 0.0906
5.9540 2.5604 0.0901
5.9234 2.5564 0.0890
5.8932 2.5509 0.0877
5.8664 2.5509 0.0870
5.8150 2.5509 0.0857
5.7883 2.5448 0.0845
5.7640 2.5434 0.0837
5.7420 2.5480 0.0836
5.6960 2.5439 0.0820
5.6780 2.5609 0.0831
5.6550 2.5527 0.0818
5.6332 2.5464 0.0807
5.6134 2.5486 0.0804
5.5937 2.5496 0.0799
5.5742 2.5468 0.0792
5.5551 2.5415 0.0782
5.5368 2.5405 0.0777
5.5192 2.5500 0.0781
5.5015 2.5474 0.0774
5.4673 2.5514 0.0769
5.4517 2.5357 0.0751
5.4344 2.5535 0.0762
5.4184 2.5549 0.0759
5.4027 2.5561 0.0756
5.3877 2.5533 0.0750
5.3581 2.5536 0.0743
5.3302 2.5506 0.0733
5.3170 2.5480 0.0727
5.3017 2.5563 0.0731
5.2884 2.5563 0.0727
6.0318 1.9316 0.0473
6.0333 1.9429 0.0487
6.0390 1.9568 0.0504
6.0348 1.9664 0.0513
6.0314 1.9767 0.0523
6.0323 2.0030 0.0553
6.0330 2.0172 0.0569
6.0238 2.0258 0.0575
6.0296 2.0446 0.0598
6.0287 2.0597 0.0614
6.0300 2.0772 0.0634
6.0249 2.0909 0.0647
6.0286 2.1120 0.0672
6.0233 2.1270 0.0687
6.0279 2.1513 0.0715
6.0331 2.1776 0.0747
6.0298 2.1977 0.0767
6.0281 2.2204 0.0792
6.0271 2.2453 0.0819
6.0202 2.3256 0.0906
6.0333 2.3757 0.0966
6.0234 2.3993 0.0988
6.0308 2.4488 0.1046
6.0294 2.4896 0.1091
6.0282 2.5340 0.1140
6.0110 2.5555 0.1157
5.9739 2.5427 0.1129
5.9446 2.5415 0.1117
5.9213 2.5504 0.1118
5.8945 2.5515 0.1109
5.7930 2.5540 0.1074
5.7679 2.5506 0.1061
5.7202 2.5447 0.1037
5.7007 2.5552 0.1041
5.6777 2.5494 0.1026
5.6554 2.5432 0.1011
5.6368 2.5545 0.1017
5.6179 2.5647 0.1021
5.5582 2.5495 0.0982
5.5399 2.5509 0.0976
5.5221 2.5580 0.0978
5.5043 2.5567 0.0970
5.4871 2.5526 0.0959
5.4533 2.5599 0.0954
5.4369 2.5602 0.0949
5.4213 2.5565 0.0939
5.4057 2.5564 0.0933
5.3764 2.5504 0.0915
5.3611 2.5550 0.0914
5.3464 2.5568 0.0911
5.3338 2.5490 0.0898
5.3192 2.5533 0.0897
5.3038 2.5616 0.0900
6.0384 1.9365 0.0595
6.0387 1.9474 0.0609
6.0301 1.9544 0.0615
6.0320 1.9669 0.0632
6.0329 1.9921 0.0666
6.0288 2.0029 0.0678
6.0329 2.0190 0.0701
6.0373 2.0362 0.0726
6.0307 2.0471 0.0737
6.0278 2.0609 0.0754
6.0273 2.0771 0.0775
6.0328 2.0986 0.0806
6.0327 2.1170 0.0831
6.0301 2.1344 0.0852
6.0294 2.1543 0.0878
6.0229 2.1700 0.0896
6.0323 2.2017 0.0942
6.0244 2.2182 0.0960
6.0234 2.2702 0.1028
6.0239 2.3311 0.1109
6.0263 2.3677 0.1159
6.0240 2.4008 0.1201
6.0223 2.4372 0.1248
6.0197 2.4753 0.1298
6.0393 2.5516 0.1408
6.0191 2.5687 0.1421
5.9712 2.5370 0.1355
5.9527 2.5556 0.1371
5.9229 2.5521 0.1352
5.8988 2.5589 0.1349
5.8699 2.5537 0.1328
5.8450 2.5561 0.1319
5.8161 2.5461 0.1292
5.7934 2.5510 0.1287
5.7698 2.5515 0.1276
5.7451 2.5465 0.1258
5.7203 2.5378 0.1234
5.6787 2.5444 0.1223
5.6591 2.5513 0.1222
5.6389 2.5536 0.1215
5.6186 2.5523 0.1204
5.5987 2.5508 0.1192
5.5595 2.5328 0.1149
5.5422 2.5458 0.1158
5.5246 2.5516 0.1157
5.5071 2.5538 0.1151
5.4731 2.5513 0.1132
5.4568 2.5478 0.1119
5.4403 2.5543 0.1120
5.4251 2.5478 0.1104
5.3791 2.5531 0.1088
5.3649 2.5510 0.1078
5.3491 2.5595 0.1082
5.3365 2.5516 0.1065
5.3208 2.5613 0.1071
5.3087 2.5543 0.1056
6.0307 1.9566 0.0733
6.0314 1.9685 0.0752
6.0283 1.9788 0.0766
6.0348 1.9950 0.0794
6.0318 2.0065 0.0810
6.0338 2.0215 0.0834
6.0278 2.0321 0.0847
6.0317 2.0497 0.0876
6.0279 2.0628 0.0894
6.0324 2.0826 0.0927
6.0284 2.0971 0.0947
6.0304 2.1170 0.0978
6.0318 2.1581 0.1042
6.0279 2.1762 0.1068
6.0349 2.2057 0.1117
6.0262 2.2215 0.1136
6.0286 2.2497 0.1181
6.0239 2.2720 0.1212
6.0286 2.3065 0.1267
6.0233 2.4005 0.1408
6.0281 2.4460 0.1481
6.0153 2.4689 0.1508
6.0367 2.5473 0.1641
5.9456 2.5410 0.1577
5.9221 2.5488 0.1575
5.8946 2.5476 0.1556
5.8703 2.5521 0.1548
5.8443 2.5513 0.1532
5.8163 2.5430 0.1502
5.7730 2.5565 0.1497
5.7489 2.5536 0.1478
5.7265 2.5545 0.1466
5.7036 2.5509 0.1447
5.6602 2.5460 0.1413
5.6413 2.5549 0.1415
5.6022 2.5600 0.1400
5.5822 2.5524 0.1376
5.5637 2.5550 0.1369
5.5453 2.5538 0.1356
5.5272 2.5512 0.1341
5.5098 2.5520 0.1332
5.4926 2.5539 0.1324
5.4760 2.5481 0.1306
5.4599 2.5432 0.1288
5.4433 2.5534 0.1294
5.4275 2.5545 0.1286
5.3966 2.5564 0.1271
5.3822 2.5531 0.1257
5.3680 2.5509 0.1245
5.3535 2.5526 0.1239
5.3405 2.5472 0.1223
5.3264 2.5500 0.1219
5.3118 2.5554 0.1218
6.0344 1.9384 0.0818
6.0336 1.9488 0.0836
6.0289 1.9576 0.0847
6.0321 1.9707 0.0873
6.0289 1.9811 0.0888
6.0345 1.9967 0.0919
6.0326 2.0089 0.0939
6.0336 2.0232 0.0965
6.0298 2.0352 0.0983
6.0328 2.0522 0.1015
6.0260 2.0633 0.1029
6.0316 2.0838 0.1069
6.0268 2.0976 0.1089
6.0280 2.1168 0.1124
6.0293 2.1372 0.1160
6.0325 2.1603 0.1202
6.0317 2.2042 0.1278
6.0259 2.2482 0.1350
6.0293 2.3084 0.1458
6.0242 2.3335 0.1497
6.0127 2.3521 0.1522
6.0205 2.3975 0.1606
6.0314 2.4512 0.1707
6.0266 2.4860 0.1764
6.0234 2.5262 0.1832
5.9820 2.5548 0.1852
5.9481 2.5445 0.1810
5.8702 2.5494 0.1763
5.8407 2.5392 0.1724
5.7698 2.5415 0.1678
5.7492 2.5489 0.1676
5.7279 2.5530 0.1668
5.7056 2.5514 0.1649
5.6836 2.5484 0.1628
5.6626 2.5473 0.1612
5.6420 2.5460 0.1595
5.6222 2.5455 0.1580
5.6030 2.5472 0.1569
5.5846 2.5522 0.1564
5.5664 2.5583 0.1562
5.5482 2.5606 0.1553
5.5298 2.5483 0.1519
5.5124 2.5477 0.1505
5.4954 2.5445 0.1488
5.4787 2.5523 0.1489
5.4623 2.5524 0.1478
5.4460 2.5575 0.1475
5.4155 2.5491 0.1439
5.4020 2.5366 0.1407
5.3856 2.5504 0.1420
5.3711 2.5508 0.1410
5.3576 2.5469 0.1394
5.3154 2.5536 0.1375
6.0373 1.9417 0.0936
6.0329 1.9503 0.0949
6.0258 1.9579 0.0958
6.0315 1.9723 0.0991
6.0285 1.9827 0.1008
6.0352 1.9990 0.1046
6.0313 2.0099 0.1063
6.0323 2.0243 0.1092
6.0297 2.0370 0.1115
6.0358 2.0561 0.1157
6.0311 2.0687 0.1177
6.0328 2.0865 0.1213
6.0271 2.0996 0.1234
6.0312 2.1211 0.1279
6.0289 2.1385 0.1311
6.0269 2.1571 0.1346
6.0260 2.1776 0.1385
6.0217 2.1961 0.1417
6.0257 2.2239 0.1475
6.0325 2.2565 0.1543
6.0264 2.2773 0.1579
6.0196 2.2984 0.1614
6.0150 2.3234 0.1659
6.0178 2.3594 0.1731
6.0263 2.4060 0.1829
6.0300 2.4914 0.1998
6.0246 2.5280 0.2064
5.9780 2.5469 0.2063
5.9541 2.5548 0.2059
5.9202 2.5419 0.2006
5.8972 2.5493 0.2001
5.8687 2.5435 0.1966
5.8431 2.5423 0.1943
5.7706 2.5390 0.1877
5.7517 2.5517 0.1886
5.7275 2.5448 0.1853
5.7073 2.5507 0.1847
5.6864 2.5520 0.1833
5.6651 2.5497 0.1811
5.6444 2.5472 0.1789
5.6244 2.5455 0.1769
5.6053 2.5470 0.1756
5.5872 2.5543 0.1756
5.5684 2.5520 0.1736
5.5503 2.5518 0.1720
5.5324 2.5489 0.1700
5.5151 2.5520 0.1692
5.4981 2.5425 0.1659
5.4816 2.5464 0.1653
5.4654 2.5451 0.1638
5.4334 2.5537 0.1628
5.4030 2.5539 0.1603
5.3888 2.5490 0.1582
5.3746 2.5479 0.1568
5.3594 2.5549 0.1569
5.3449 2.5577 0.1563
6.0365 1.9432 0.1047
6.0322 1.9518 0.1061
6.0336 1.9636 0.1088
6.0309 1.9739 0.1107
6.0291 1.9849 0.1129
6.0360 2.0013 0.1171
6.0309 2.0116 0.1188
6.0267 2.0226 0.1208
6.0317 2.0401 0.1250
6.0296 2.0538 0.1278
6.0291 2.0691 0.1310
6.0241 2.0819 0.1333
6.0292 2.1030 0.1383
6.0278 2.1201 0.1418
6.0285 2.1398 0.1461
6.0258 2.1577 0.1497
6.0284 2.1814 0.1550
6.0250 2.2008 0.1589
6.0250 2.2247 0.1640
6.0284 2.2807 0.1763
6.0372 2.3514 0.1923
6.0290 2.3747 0.1965
6.0268 2.4073 0.2033
6.0253 2.4433 0.2109
6.0304 2.4921 0.2218
6.0252 2.5289 0.2292
6.0124 2.5559 0.2338
5.9815 2.5524 0.2302
5.9280 2.5562 0.2260
5.8694 2.5426 0.2177
5.8481 2.5516 0.2176
5.8253 2.5563 0.2165
5.7754 2.5493 0.2103
5.7520 2.5468 0.2076
5.7300 2.5474 0.2057
5.7082 2.5466 0.2035
5.6876 2.5489 0.2021
5.6667 2.5476 0.1999
5.6277 2.5524 0.1972
5.6078 2.5480 0.1944
5.5710 2.5540 0.1923
5.5534 2.5622 0.1924
5.5349 2.5471 0.1875
5.5008 2.5517 0.1853
5.4842 2.5556 0.1846
5.4681 2.5492 0.1817
5.4523 2.5477 0.1799
5.4208 2.5559 0.1787
5.4057 2.5565 0.1774
5.3917 2.5502 0.1748
5.3777 2.5477 0.1730
5.3634 2.5492 0.1719
5.3496 2.5491 0.1706
5.3353 2.5530 0.1701
5.3220 2.5527 0.1688
6.0235 1.4504 0.0366
6.0251 1.4417 0.0377
6.0246 1.4244 0.0394
6.0247 1.4154 0.0403
6.0237 1.4065 0.0410
6.0226 1.3975 0.0417
6.0235 1.3875 0.0428
6.0232 1.3777 0.0438
6.0248 1.3668 0.0451
6.0243 1.3565 0.0461
6.0267 1.3446 0.0477
6.0249 1.3344 0.0484
6.0279 1.3213 0.0502
6.0241 1.3118 0.0505
6.0258 1.2987 0.0521
6.0264 1.2859 0.0535
6.0259 1.2734 0.0546
6.0263 1.2600 0.0560
6.0237 1.2484 0.0567
6.0273 1.2316 0.0590
6.0271 1.2173 0.0604
6.0259 1.2035 0.0615
6.0279 1.1863 0.0636
6.0263 1.1555 0.0664
6.0249 1.1227 0.0694
6.0297 1.0989 0.0726
6.0251 1.0858 0.0731
6.0248 1.0667 0.0749
6.0215 1.0512 0.0759
6.0152 1.0396 0.0759
6.0103 1.0259 0.0764
6.0032 1.0152 0.0761
5.9969 1.0036 0.0761
5.9886 0.9952 0.0755
5.9836 0.9814 0.0759
5.9760 0.9721 0.0755
5.9716 0.9569 0.0762
5.9622 0.9513 0.0751
5.9572 0.9373 0.0755
5.9497 0.9282 0.0751
5.9457 0.9116 0.0760
5.9366 0.9065 0.0749
5.9309 0.8936 0.0751
5.9257 0.8794 0.0756
5.9215 0.8622 0.0765
6.0243 1.4592 0.0282
6.0226 1.4513 0.0287
6.0252 1.4424 0.0299
6.0244 1.4339 0.0305
6.0257 1.4247 0.0315
6.0236 1.4070 0.0327
6.0245 1.3972 0.0338
6.0222 1.3883 0.0342
6.0270 1.3764 0.0360
6.0245 1.3671 0.0364
6.0239 1.3569 0.0372
6.0243 1.3459 0.0383
6.0235 1.3352 0.0391
6.0235 1.3237 0.0401
6.0225 1.3126 0.0409
6.0232 1.3001 0.0421
6.0238 1.2873 0.0434
6.0233 1.2748 0.0444
6.0254 1.2601 0.0460
6.0246 1.2471 0.0470
6.0254 1.2324 0.0485
6.0243 1.2189 0.0495
6.0272 1.2012 0.0515
6.0258 1.1871 0.0525
6.0275 1.1694 0.0544
6.0265 1.1538 0.0556
6.0262 1.1370 0.0570
6.0273 1.1181 0.0589
6.0250 1.1025 0.0599
6.0234 1.0856 0.0611
6.0245 1.0646 0.0632
6.0211 1.0490 0.0640
6.0147 1.0373 0.0640
6.0097 1.0235 0.0644
6.0033 1.0117 0.0644
5.9969 0.9999 0.0644
5.9892 0.9904 0.0640
5.9829 0.9786 0.0640
5.9746 0.9704 0.0634
5.9683 0.9587 0.0635
5.9620 0.9470 0.0635
5.9551 0.9366 0.0633
5.9424 0.9133 0.0633
5.9367 0.9004 0.0635
5.9298 0.8901 0.0633
5.9235 0.8784 0.0633
5.9182 0.8640 0.0637
6.0251 1.4679 0.0200
6.0234 1.4601 0.0203
6.0227 1.4520 0.0208
6.0242 1.4433 0.0217
6.0233 1.4348 0.0223
6.0246 1.4256 0.0231
6.0235 1.4168 0.0237
6.0235 1.4075 0.0244
6.0243 1.3977 0.0253
6.0271 1.3868 0.0265
6.0247 1.3777 0.0269
6.0242 1.3675 0.0276
6.0245 1.3567 0.0285
6.0248 1.3457 0.0294
6.0249 1.3344 0.0302
6.0248 1.3229 0.0311
6.0256 1.3106 0.0322
6.0244 1.2991 0.0329
6.0248 1.2862 0.0340
6.0243 1.2737 0.0348
6.0244 1.2603 0.0359
6.0236 1.2472 0.0368
6.0260 1.2311 0.0384
6.0257 1.2167 0.0395
6.0252 1.2020 0.0405
6.0262 1.1855 0.0419
6.0253 1.1702 0.0430
6.0251 1.1537 0.0442
6.0270 1.1344 0.0460
6.0249 1.1189 0.0469
6.0233 1.1024 0.0480
6.0283 1.0771 0.0506
6.0241 1.0625 0.0512
6.0206 1.0469 0.0519
6.0078 1.0232 0.0519
6.0027 1.0093 0.0523
5.9976 0.9952 0.0526
5.9892 0.9866 0.0521
5.9827 0.9748 0.0521
5.9763 0.9629 0.0521
5.9692 0.9522 0.0520
5.9616 0.9428 0.0516
5.9535 0.9347 0.0511
5.9466 0.9242 0.0509
5.9414 0.9100 0.0513
5.9339 0.9009 0.0510
5.9255 0.8945 0.0503
5.9212 0.8775 0.0510
6.0242 1.4689 0.0120
6.0224 1.4611 0.0123
6.0251 1.4523 0.0132
6.0242 1.4440 0.0137
6.0266 1.4347 0.0146
6.0245 1.4262 0.0149
6.0256 1.4168 0.0156
6.0254 1.4074 0.0162
6.0241 1.3982 0.0167
6.0217 1.3892 0.0170
6.0223 1.3789 0.0177
6.0248 1.3675 0.0188
6.0270 1.3557 0.0198
6.0242 1.3461 0.0201
6.0252 1.3342 0.0210
6.0242 1.3232 0.0216
6.0230 1.3120 0.0222
6.0245 1.2988 0.0233
6.0240 1.2865 0.0241
6.0252 1.2726 0.0251
6.0235 1.2604 0.0257
6.0277 1.2432 0.0274
6.0258 1.2305 0.0280
6.0270 1.2146 0.0292
6.0264 1.1998 0.0301
6.0297 1.1808 0.0317
6.0263 1.1678 0.0322
6.0236 1.1537 0.0328
6.0262 1.1335 0.0344
6.0270 1.1145 0.0358
6.0291 1.0932 0.0374
6.0257 1.0779 0.0380
6.0223 1.0624 0.0386
6.0208 1.0438 0.0397
6.0171 1.0278 0.0403
6.0072 1.0209 0.0396
6.0007 1.0090 0.0396
5.9942 0.9970 0.0396
5.9877 0.9851 0.0396
5.9825 0.9709 0.0399
5.9736 0.9636 0.0393
5.9665 0.9528 0.0392
5.9607 0.9398 0.0394
5.9531 0.9304 0.0391
5.9466 0.9185 0.0391
5.9402 0.9067 0.0391
5.9343 0.8936 0.0392
5.9274 0.8830 0.0391
5.9199 0.8739 0.0388
6.0250 1.4776 0.0038
6.0221 1.4700 0.0039
6.0248 1.4615 0.0046
6.0251 1.4530 0.0051
6.0232 1.4449 0.0054
6.0255 1.4356 0.0061
6.0234 1.4272 0.0064
6.0233 1.4180 0.0069
6.0231 1.4086 0.0074
6.0228 1.3991 0.0079
6.0245 1.3886 0.0086
6.0240 1.3786 0.0091
6.0243 1.3679 0.0097
6.0246 1.3571 0.0103
6.0247 1.3460 0.0109
6.0227 1.3356 0.0113
6.0245 1.3230 0.0122
6.0251 1.3106 0.0129
6.0246 1.2984 0.0135
6.0258 1.2849 0.0144
6.0260 1.2716 0.0151
6.0260 1.2580 0.0159
6.0258 1.2441 0.0166
6.0271 1.2285 0.0176
6.0266 1.2140 0.0184
6.0259 1.1991 0.0191
6.0267 1.1825 0.0201
6.0265 1.1662 0.0210
6.0245 1.1512 0.0216
6.0269 1.1309 0.0229
6.0254 1.1145 0.0237
6.0295 1.0905 0.0254
6.0246 1.0769 0.0256
6.0239 1.0576 0.0266
6.0195 1.0427 0.0270
6.0144 1.0287 0.0273
6.0078 1.0166 0.0273
5.9980 1.0097 0.0267
5.9856 0.9847 0.0268
5.9810 0.9694 0.0272
5.9714 0.9631 0.0266
5.9661 0.9488 0.0269
5.9590 0.9380 0.0267
5.9514 0.9285 0.0265
5.9466 0.9128 0.0269
5.9390 0.9034 0.0267
5.9326 0.8915 0.0267
5.9196 0.8676 0.0267
5.9141 0.8529 0.0269
6.0229 1.4787 -0.0043
6.0223 1.4708 -0.0040
6.0249 1.4622 -0.0034
6.0230 1.4542 -0.0032
6.0243 1.4454 -0.0028
6.0243 1.4365 -0.0024
6.0222 1.4281 -0.0022
6.0242 1.4183 -0.0016
6.0239 1.4089 -0.0012
6.0236 1.3993 -0.0008
6.0211 1.3902 -0.0006
6.0256 1.3782 0.0002
6.0239 1.3684 0.0005
6.0250 1.3570 0.0011
6.0250 1.3459 0.0016
6.0221 1.3360 0.0018
6.0256 1.3222 0.0027
6.0262 1.3098 0.0032
6.0220 1.2999 0.0033
6.0258 1.2845 0.0043
6.0277 1.2699 0.0051
6.0267 1.2569 0.0056
6.0268 1.2279 0.0068
6.0254 1.2141 0.0073
6.0254 1.1985 0.0080
6.0261 1.1818 0.0087
6.0265 1.1646 0.0095
6.0291 1.1447 0.0106
6.0261 1.1301 0.0110
6.0274 1.1101 0.0119
6.0277 1.0905 0.0128
6.0242 1.0750 0.0132
6.0234 1.0556 0.0140
6.0189 1.0406 0.0143
6.0130 1.0275 0.0144
5.9979 1.0063 0.0141
5.9919 0.9932 0.0142
5.9847 0.9822 0.0141
5.9788 0.9690 0.0142
5.9716 0.9580 0.0142
5.9651 0.9459 0.0142
5.9580 0.9351 0.0141
5.9497 0.9267 0.0138
5.9438 0.9134 0.0139
5.9378 0.9002 0.0140
5.9292 0.8933 0.0136
5.9237 0.8787 0.0138
5.9167 0.8681 0.0138
6.0248 1.4872 -0.0124
6.0242 1.4794 -0.0122
6.0213 1.4718 -0.0121
6.0239 1.4632 -0.0117
6.0253 1.4459 -0.0111
6.0232 1.4375 -0.0109
6.0242 1.4282 -0.0106
6.0209 1.4198 -0.0105
6.0227 1.4098 -0.0101
6.0223 1.4002 -0.0098
6.0208 1.3907 -0.0096
6.0242 1.3791 -0.0090
6.0244 1.3684 -0.0087
6.0235 1.3579 -0.0084
6.0244 1.3463 -0.0080
6.0243 1.3348 -0.0076
6.0230 1.3236 -0.0074
6.0235 1.3112 -0.0069
6.0256 1.2973 -0.0064
6.0231 1.2860 -0.0062
6.0249 1.2714 -0.0056
6.0264 1.2564 -0.0051
6.0261 1.2424 -0.0046
6.0256 1.2281 -0.0042
6.0224 1.2156 -0.0040
6.0257 1.1971 -0.0033
6.0270 1.1795 -0.0026
6.0281 1.1615 -0.0020
6.0259 1.1464 -0.0016
6.0206 1.1343 -0.0016
6.0249 1.1110 -0.0006
6.0251 1.0914 0.0000
6.0265 1.0695 0.0008
6.0249 1.0508 0.0013
6.0189 1.0377 0.0014
6.0123 1.0254 0.0014
6.0030 1.0172 0.0011
5.9977 1.0030 0.0013
5.9904 0.9918 0.0012
5.9832 0.9808 0.0011
5.9754 0.9708 0.0010
5.9700 0.9564 0.0012
5.9640 0.9431 0.0013
5.9546 0.9369 0.0009
5.9502 0.9200 0.0012
5.9431 0.9091 0.0011
5.9344 0.9020 0.0009
5.9294 0.8861 0.0011
5.9228 0.8740 0.0011
5.9153 0.8646 0.0010
5.9088 0.8525 0.0010
6.0239 1.4883 -0.0204
6.0244 1.4803 -0.0203
6.0259 1.4720 -0.0201
6.0228 1.4642 -0.0200
6.0252 1.4553 -0.0198
6.0242 1.4468 -0.0196
6.0231 1.4382 -0.0195
6.0251 1.4286 -0.0192
6.0238 1.4196 -0.0191
6.0244 1.4098 -0.0189
6.0230 1.4004 -0.0188
6.0214 1.3909 -0.0186
6.0237 1.3797 -0.0183
6.0219 1.3698 -0.0182
6.0249 1.3575 -0.0179
6.0257 1.3457 -0.0176
6.0236 1.3352 -0.0175
6.0250 1.3224 -0.0172
6.0254 1.3099 -0.0169
6.0256 1.2970 -0.0167
6.0239 1.2850 -0.0165
6.0247 1.2710 -0.0162
6.0245 1.2573 -0.0159
6.0257 1.2419 -0.0156
6.0260 1.2269 -0.0153
6.0252 1.2122 -0.0150
6.0275 1.1943 -0.0146
6.0294 1.1758 -0.0142
6.0265 1.1616 -0.0140
6.0251 1.1456 -0.0137
6.0301 1.1218 -0.0131
6.0260 1.1075 -0.0130
6.0246 1.0896 -0.0127
6.0245 1.0695 -0.0123
6.0221 1.0518 -0.0120
6.0168 1.0376 -0.0119
6.0088 1.0273 -0.0120
6.0041 1.0120 -0.0119
5.9961 1.0017 -0.0119
5.9895 0.9894 -0.0119
5.9810 0.9804 -0.0120
5.9750 0.9671 -0.0120
5.9689 0.9538 -0.0119
5.9617 0.9427 -0.0120
5.9551 0.9304 -0.0119
5.9479 0.9194 -0.0120
5.9397 0.9109 -0.0121
5.9341 0.8963 -0.0120
5.9260 0.8879 -0.0121
5.9204 0.8732 -0.0120
5.9138 0.8611 -0.0120
6.0246 1.4969 -0.0286
6.0218 1.4894 -0.0286
6.0234 1.4813 -0.0285
6.0226 1.4734 -0.0284
6.0228 1.4650 -0.0284
6.0230 1.4478 -0.0282
6.0230 1.4389 -0.0282
6.0249 1.4293 -0.0281
6.0256 1.4196 -0.0280
6.0252 1.4101 -0.0279
6.0236 1.4006 -0.0279
6.0250 1.3900 -0.0278
6.0242 1.3798 -0.0277
6.0272 1.3677 -0.0276
6.0243 1.3579 -0.0276
6.0250 1.3462 -0.0275
6.0247 1.3346 -0.0274
6.0224 1.3239 -0.0273
6.0254 1.3097 -0.0272
6.0238 1.2979 -0.0271
6.0238 1.2847 -0.0270
6.0262 1.2694 -0.0269
6.0250 1.2563 -0.0268
6.0270 1.2402 -0.0267
6.0230 1.2285 -0.0266
6.0279 1.2088 -0.0264
6.0268 1.1937 -0.0263
6.0248 1.1790 -0.0262
6.0265 1.1602 -0.0261
6.0264 1.1425 -0.0260
6.0239 1.1269 -0.0259
6.0256 1.1059 -0.0257
6.0241 1.0879 -0.0256
6.0260 1.0650 -0.0254
6.0221 1.0490 -0.0253
6.0113 1.0203 -0.0252
6.0051 1.0068 -0.0252
5.9946 1.0005 -0.0253
5.9879 0.9881 -0.0253
5.9812 0.9758 -0.0253
5.9745 0.9634 -0.0253
5.9594 0.9422 -0.0253
5.9538 0.9276 -0.0252
5.9455 0.9189 -0.0253
5.9404 0.9029 -0.0252
5.9327 0.8931 -0.0252
5.9236 0.8872 -0.0253
5.9170 0.8751 -0.0253
5.9047 0.8481 -0.0252
6.0226 1.4980 -0.0367
6.0231 1.4902 -0.0367
6.0223 1.4824 -0.0367
6.0226 1.4742 -0.0368
6.0261 1.4654 -0.0369
6.0240 1.4571 -0.0369
6.0219 1.4488 -0.0369
6.0186 1.4406 -0.0369
6.0205 1.4311 -0.0370
6.0273 1.4197 -0.0371
6.0228 1.4113 -0.0371
6.0252 1.4006 -0.0372
6.0255 1.3902 -0.0372
6.0237 1.3803 -0.0373
6.0247 1.3691 -0.0373
6.0227 1.3589 -0.0373
6.0224 1.3476 -0.0374
6.0239 1.3351 -0.0375
6.0261 1.3217 -0.0376
6.0272 1.3084 -0.0376
6.0237 1.2977 -0.0377
6.0254 1.2833 -0.0378
6.0234 1.2710 -0.0378
6.0289 1.2527 -0.0379
6.0266 1.2398 -0.0380
6.0274 1.2239 -0.0381
6.0264 1.2090 -0.0381
6.0269 1.1924 -0.0382
6.0271 1.1754 -0.0383
6.0248 1.1603 -0.0384
6.0261 1.1410 -0.0385
6.0265 1.1025 -0.0387
6.0250 1.0844 -0.0387
6.0239 1.0650 -0.0388
6.0220 1.0462 -0.0389
6.0172 1.0308 -0.0389
6.0084 1.0212 -0.0389
6.0022 1.0077 -0.0389
5.9973 0.9921 -0.0389
5.9899 0.9805 -0.0389
5.9831 0.9680 -0.0389
5.9762 0.9554 -0.0388
5.9677 0.9462 -0.0388
5.9609 0.9337 -0.0388
5.9520 0.9259 -0.0387
5.9447 0.9147 -0.0387
5.9406 0.8962 -0.0388
5.9328 0.8862 -0.0387
5.9169 0.8678 -0.0386
5.9102 0.8555 -0.0386
6.0268 1.5065 -0.0448
6.0250 1.4989 -0.0449
6.0221 1.4913 -0.0449
6.0249 1.4748 -0.0453
6.0228 1.4667 -0.0454
6.0229 1.4582 -0.0455
6.0249 1.4489 -0.0458
6.0247 1.4399 -0.0459
6.0223 1.4312 -0.0460
6.0240 1.4213 -0.0462
6.0224 1.4120 -0.0463
6.0248 1.4012 -0.0466
6.0230 1.3915 -0.0467
6.0260 1.3797 -0.0470
6.0241 1.3696 -0.0471
6.0220 1.3594 -0.0472
6.0254 1.3462 -0.0476
6.0231 1.3355 -0.0477
6.0252 1.3221 -0.0480
6.0236 1.3104 -0.0481
6.0253 1.2964 -0.0484
6.0252 1.2831 -0.0487
6.0257 1.2688 -0.0489
6.0268 1.2536 -0.0492
6.0261 1.2394 -0.0495
6.0284 1.2221 -0.0498
6.0297 1.2050 -0.0502
6.0246 1.1933 -0.0502
6.0285 1.1725 -0.0507
6.0261 1.1574 -0.0509
6.0251 1.1403 -0.0512
6.0246 1.1221 -0.0515
6.0274 1.0992 -0.0519
6.0257 1.0810 -0.0522
6.0279 1.0570 -0.0527
6.0184 1.0481 -0.0525
6.0149 1.0308 -0.0527
6.0068 1.0202 -0.0526
6.0000 1.0076 -0.0526
5.9938 0.9940 -0.0526
5.9863 0.9824 -0.0526
5.9801 0.9688 -0.0526
5.9744 0.9540 -0.0527
5.9659 0.9447 -0.0526
5.9574 0.9356 -0.0524
5.9522 0.9196 -0.0525
5.9443 0.9094 -0.0524
5.9386 0.8944 -0.0525
5.9308 0.8844 -0.0524
5.9225 0.8757 -0.0523
5.9153 0.8645 -0.0522
5.9090 0.8508 -0.0523
6.0235 1.5076 -0.0529
6.0252 1.4999 -0.0532
6.0244 1.4921 -0.0534
6.0236 1.4841 -0.0536
6.0249 1.4757 -0.0539
6.0238 1.4674 -0.0541
6.0227 1.4590 -0.0543
6.0247 1.4498 -0.0547
6.0234 1.4409 -0.0549
6.0251 1.4312 -0.0553
6.0226 1.4223 -0.0554
6.0230 1.4124 -0.0557
6.0204 1.4032 -0.0559
6.0216 1.3925 -0.0563
6.0254 1.3803 -0.0568
6.0225 1.3706 -0.0570
6.0204 1.3603 -0.0572
6.0246 1.3467 -0.0578
6.0250 1.3345 -0.0582
6.0252 1.3220 -0.0586
6.0244 1.3098 -0.0589
6.0243 1.2967 -0.0593
6.0240 1.2834 -0.0597
6.0261 1.2680 -0.0603
6.0247 1.2546 -0.0606
6.0223 1.2416 -0.0608
6.0262 1.2230 -0.0616
6.0251 1.2081 -0.0620
6.0284 1.1885 -0.0628
6.0253 1.1743 -0.0630
6.0296 1.1521 -0.0639
6.0262 1.1373 -0.0642
6.0291 1.1148 -0.0650
6.0289 1.0951 -0.0656
6.0264 1.0776 -0.0660
6.0217 1.0625 -0.0662
6.0195 1.0435 -0.0666
6.0120 1.0318 -0.0666
6.0077 1.0153 -0.0668
6.0014 1.0015 -0.0669
5.9920 0.9928 -0.0666
5.9870 0.9770 -0.0668
5.9777 0.9686 -0.0665
5.9680 0.9614 -0.0662
5.9612 0.9489 -0.0662
5.9539 0.9375 -0.0661
5.9497 0.9192 -0.0664
5.9434 0.9053 -0.0664
5.9360 0.8939 -0.0664
5.9277 0.8850 -0.0662
5.9195 0.8763 -0.0660
5.9155 0.8561 -0.0663
5.9073 0.8474 -0.0661
6.0266 1.5162 -0.0611
6.0237 1.5087 -0.0612
6.0242 1.5010 -0.0616
6.0245 1.4931 -0.0619
6.0225 1.4852 -0.0621
6.0227 1.4769 -0.0625
6.0238 1.4683 -0.0629
6.0247 1.4595 -0.0634
6.0242 1.4415 -0.0641
6.0238 1.4322 -0.0645
6.0212 1.4233 -0.0647
6.0256 1.4121 -0.0655
6.0238 1.4025 -0.0658
6.0210 1.3931 -0.0659
6.0248 1.3809 -0.0668
6.0228 1.3707 -0.0670
6.0252 1.3583 -0.0678
6.0257 1.3463 -0.0683
6.0268 1.3336 -0.0690
6.0252 1.3220 -0.0693
6.0234 1.3102 -0.0697
6.0267 1.2949 -0.0706
6.0246 1.2826 -0.0710
6.0257 1.2677 -0.0717
6.0259 1.2530 -0.0724
6.0295 1.2193 -0.0741
6.0266 1.2055 -0.0745
6.0275 1.1880 -0.0753
6.0259 1.1722 -0.0758
6.0278 1.1523 -0.0768
6.0258 1.1359 -0.0774
6.0279 1.1142 -0.0785
6.0276 1.0944 -0.0793
6.0222 1.0804 -0.0795
6.0215 1.0599 -0.0803
6.0193 1.0408 -0.0809
6.0117 1.0290 -0.0808
6.0060 1.0143 -0.0810
5.9921 0.9887 -0.0810
5.9834 0.9790 -0.0807
5.9759 0.9673 -0.0806
5.9707 0.9513 -0.0809
5.9626 0.9407 -0.0807
5.9546 0.9303 -0.0805
5.9419 0.9025 -0.0806
5.9330 0.8946 -0.0802
5.9256 0.8832 -0.0801
5.9197 0.8681 -0.0803
5.9133 0.8541 -0.0804
5.9060 0.8427 -0.0803
5.8978 0.8341 -0.0800
6.0234 1.5173 -0.0691
6.0239 1.5098 -0.0696
6.0265 1.5019 -0.0703
6.0234 1.4942 -0.0704
6.0247 1.4859 -0.0710
6.0226 1.4779 -0.0713
6.0226 1.4694 -0.0717
6.0235 1.4605 -0.0723
6.0222 1.4518 -0.0727
6.0249 1.4421 -0.0735
6.0214 1.4335 -0.0736
6.0209 1.4240 -0.0741
6.0241 1.4131 -0.0750
6.0233 1.4032 -0.0755
6.0243 1.3923 -0.0762
6.0232 1.3819 -0.0767
6.0239 1.3705 -0.0774
6.0244 1.3588 -0.0781
6.0239 1.3473 -0.0787
6.0250 1.3345 -0.0795
6.0233 1.3230 -0.0800
6.0267 1.3080 -0.0812
6.0238 1.2965 -0.0815
6.0243 1.2825 -0.0824
6.0237 1.2687 -0.0831
6.0278 1.2509 -0.0845
6.0248 1.2223 -0.0858
6.0297 1.2017 -0.0875
6.0274 1.1868 -0.0881
6.0264 1.1703 -0.0889
6.0274 1.1510 -0.0901
6.0253 1.1345 -0.0908
6.0273 1.1128 -0.0922
6.0241 1.0963 -0.0928
6.0201 1.0805 -0.0933
6.0246 1.0529 -0.0953
6.0189 1.0382 -0.0955
6.0042 1.0133 -0.0954
5.9991 0.9975 -0.0957
5.9909 0.9865 -0.0954
5.9827 0.9757 -0.0952
5.9763 0.9618 -0.0953
5.9676 0.9522 -0.0949
5.9606 0.9393 -0.0949
5.9537 0.9265 -0.0949
5.9467 0.9137 -0.0949
5.9403 0.8997 -0.0950
5.9328 0.8881 -0.0949
5.9180 0.8650 -0.0946
5.9088 0.8586 -0.0940
5.8951 0.8333 -0.0940
6.0265 1.5259 -0.0774
6.0258 1.5184 -0.0778
6.0262 1.5108 -0.0784
6.0221 1.5032 -0.0784
6.0245 1.4951 -0.0793
6.0236 1.4870 -0.0797
6.0225 1.4788 -0.0801
6.0256 1.4698 -0.0812
6.0233 1.4614 -0.0815
6.0220 1.4527 -0.0819
6.0246 1.4429 -0.0829
6.0231 1.4338 -0.0833
6.0254 1.4234 -0.0844
6.0236 1.4139 -0.0848
6.0257 1.4029 -0.0858
6.0227 1.3933 -0.0861
6.0235 1.3822 -0.0870
6.0223 1.3715 -0.0875
6.0236 1.3594 -0.0886
6.0257 1.3465 -0.0897
6.0232 1.3355 -0.0902
6.0232 1.3230 -0.0910
6.0239 1.3096 -0.0920
6.0261 1.2947 -0.0934
6.0247 1.2817 -0.0941
6.0216 1.2697 -0.0945
6.0288 1.2494 -0.0968
6.0261 1.2361 -0.0974
6.0287 1.2180 -0.0990
6.0250 1.2048 -0.0995
6.0279 1.1850 -0.1012
6.0283 1.1668 -0.1025
6.0270 1.1498 -0.1035
6.0297 1.1276 -0.1054
6.0259 1.1122 -0.1060
6.0226 1.0957 -0.1067
6.0273 1.0686 -0.1092
6.0249 1.0495 -0.1102
6.0191 1.0347 -0.1105
6.0126 1.0207 -0.1106
6.0012 1.0143 -0.1096
5.9966 0.9975 -0.1101
5.9890 0.9855 -0.1100
5.9831 0.9704 -0.1103
5.9766 0.9563 -0.1104
5.9673 0.9476 -0.1098
5.9537 0.9205 -0.1099
5.9381 0.8981 -0.1095
5.9241 0.8723 -0.1094
5.9153 0.8644 -0.1088
5.9083 0.8516 -0.1088
5.9010 0.8400 -0.1087
5.8932 0.8299 -0.1084
6.0244 1.5270 -0.0855
6.0226 1.5196 -0.0859
6.0241 1.5120 -0.0867
6.0255 1.5041 -0.0876
6.0223 1.4963 -0.0878
6.0235 1.4880 -0.0886
6.0235 1.4797 -0.0893
6.0233 1.4711 -0.0900
6.0251 1.4620 -0.0910
6.0258 1.4527 -0.0919
6.0212 1.4444 -0.0919
6.0257 1.4338 -0.0934
6.0240 1.4244 -0.0940
6.0251 1.4140 -0.0950
6.0260 1.4033 -0.0960
6.0240 1.3933 -0.0965
6.0237 1.3824 -0.0974
6.0233 1.3713 -0.0983
6.0246 1.3591 -0.0995
6.0248 1.3471 -0.1005
6.0222 1.3361 -0.1010
6.0239 1.3225 -0.1024
6.0219 1.3106 -0.1031
6.0265 1.2941 -0.1051
6.0243 1.2816 -0.1058
6.0251 1.2665 -0.1072
6.0249 1.2517 -0.1084
6.0238 1.2371 -0.1094
6.0256 1.2196 -0.1112
6.0264 1.2023 -0.1127
6.0261 1.1853 -0.1141
6.0243 1.1694 -0.1151
6.0236 1.1516 -0.1165
6.0249 1.1311 -0.1184
6.0217 1.1149 -0.1192
6.0272 1.0876 -0.1223
6.0263 1.0671 -0.1239
6.0225 1.0498 -0.1247
6.0160 1.0358 -0.1249
6.0127 1.0171 -0.1259
6.0025 1.0086 -0.1251
5.9953 0.9955 -0.1250
5.9871 0.9844 -0.1247
5.9817 0.9683 -0.1252
5.9757 0.9530 -0.1255
5.9647 0.9474 -0.1243
5.9576 0.9344 -0.1243
5.9506 0.9214 -0.1243
5.9420 0.9118 -0.1238
5.9335 0.9024 -0.1232
5.9299 0.8811 -0.1244
5.9219 0.8705 -0.1241
5.9148 0.8576 -0.1241
5.9065 0.8484 -0.1235
6.0240 1.5355 -0.0933
6.0268 1.5283 -0.0945
6.0250 1.5208 -0.0949
6.0231 1.5131 -0.0953
6.0255 1.5052 -0.0965
6.0245 1.4972 -0.0971
6.0223 1.4891 -0.0974
6.0244 1.4805 -0.0986
6.0242 1.4719 -0.0994
6.0218 1.4634 -0.0998
6.0224 1.4542 -0.1008
6.0219 1.4450 -0.1016
6.0232 1.4351 -0.1028
6.0235 1.4252 -0.1038
6.0245 1.4148 -0.1050
6.0244 1.4043 -0.1060
6.0252 1.3933 -0.1072
6.0248 1.3824 -0.1082
6.0234 1.3716 -0.1090
6.0228 1.3602 -0.1100
6.0230 1.3481 -0.1112
6.0230 1.3357 -0.1124
6.0242 1.3090 -0.1152
6.0245 1.2951 -0.1165
6.0238 1.2815 -0.1177
6.0269 1.2646 -0.1199
6.0267 1.2497 -0.1213
6.0239 1.2363 -0.1221
6.0263 1.2180 -0.1243
6.0262 1.2013 -0.1259
6.0273 1.1828 -0.1279
6.0267 1.1653 -0.1295
6.0274 1.1458 -0.1315
6.0256 1.1282 -0.1329
6.0271 1.1062 -0.1352
6.0270 1.0853 -0.1372
6.0233 1.0682 -0.1382
6.0240 1.0447 -0.1406
6.0149 1.0342 -0.1400
6.0059 1.0238 -0.1394
6.0024 1.0049 -0.1406
5.9952 0.9917 -0.1406
5.9862 0.9814 -0.1400
5.9780 0.9703 -0.1395
5.9714 0.9561 -0.1397
5.9621 0.9472 -0.1389
5.9555 0.9331 -0.1391
5.9495 0.9177 -0.1395
5.9408 0.9080 -0.1389
5.9347 0.8926 -0.1393
5.9295 0.8747 -0.1401
5.9196 0.8688 -0.1388
5.9125 0.8558 -0.1388
5.9062 0.8402 -0.1392
5.8991 0.8271 -0.1392
5.8912 0.8166 -0.1388
6.0271 1.5441 -0.1016
6.0265 1.5369 -0.1023
6.0247 1.5294 -0.1027
6.0250 1.5219 -0.1036
6.0242 1.5142 -0.1043
6.0265 1.5063 -0.1057
6.0233 1.4983 -0.1059
6.0254 1.4899 -0.1072
6.0242 1.4815 -0.1079
6.0250 1.4727 -0.1090
6.0246 1.4638 -0.1099
6.0231 1.4549 -0.1106
6.0238 1.4357 -0.1129
6.0249 1.4255 -0.1142
6.0239 1.4155 -0.1151
6.0238 1.4051 -0.1163
6.0272 1.3930 -0.1183
6.0241 1.3831 -0.1187
6.0226 1.3722 -0.1196
6.0246 1.3596 -0.1215
6.0229 1.3482 -0.1224
6.0263 1.3340 -0.1246
6.0243 1.3221 -0.1255
6.0272 1.3070 -0.1278
6.0265 1.2935 -0.1291
6.0257 1.2797 -0.1305
6.0287 1.2628 -0.1330
6.0244 1.2507 -0.1334
6.0254 1.2341 -0.1355
6.0254 1.2178 -0.1373
6.0266 1.1997 -0.1395
6.0255 1.1832 -0.1411
6.0277 1.1627 -0.1438
6.0267 1.1447 -0.1456
6.0235 1.1285 -0.1467
6.0270 1.1042 -0.1501
6.0240 1.0865 -0.1515
6.0229 1.0659 -0.1535
6.0202 1.0467 -0.1551
6.0149 1.0308 -0.1558
6.0052 1.0211 -0.1548
5.9986 1.0069 -0.1551
5.9926 0.9917 -0.1555
5.9781 0.9651 -0.1555
5.9698 0.9539 -0.1550
5.9637 0.9385 -0.1554
5.9554 0.9274 -0.1550
5.9457 0.9197 -0.1538
5.9411 0.9009 -0.1550
5.9339 0.8876 -0.1549
5.9257 0.8767 -0.1545
5.9181 0.8647 -0.1542
5.9105 0.8528 -0.1540
5.9042 0.8371 -0.1544
5.8967 0.8252 -0.1542
6.0273 1.5454 -0.1102
6.0255 1.5381 -0.1107
6.0248 1.5307 -0.1115
6.0218 1.5231 -0.1117
6.0231 1.5154 -0.1130
6.0243 1.5075 -0.1143
6.0222 1.4995 -0.1148
6.0242 1.4910 -0.1163
6.0219 1.4827 -0.1168
6.0247 1.4737 -0.1185
6.0243 1.4648 -0.1196
6.0217 1.4560 -0.1201
6.0250 1.4459 -0.1221
6.0242 1.4363 -0.1231
6.0243 1.4263 -0.1244
6.0242 1.4160 -0.1256
6.0231 1.4058 -0.1266
6.0256 1.3941 -0.1287
6.0251 1.3831 -0.1299
6.0244 1.3718 -0.1312
6.0237 1.3602 -0.1324
6.0263 1.3467 -0.1347
6.0235 1.3355 -0.1355
6.0240 1.3222 -0.1372
6.0251 1.3080 -0.1393
6.0244 1.2946 -0.1408
6.0259 1.2791 -0.1431
6.0248 1.2650 -0.1446
6.0267 1.2482 -0.1471
6.0276 1.2315 -0.1494
6.0289 1.2136 -0.1519
6.0293 1.1960 -0.1542
6.0258 1.1815 -0.1552
6.0264 1.1624 -0.1577
6.0261 1.1435 -0.1600
6.0262 1.1234 -0.1625
6.0280 1.1005 -0.1658
6.0243 1.0835 -0.1671
6.0237 1.0620 -0.1696
6.0209 1.0426 -0.1713
6.0111 1.0328 -0.1703
6.0033 1.0204 -0.1700
5.9984 1.0033 -0.1710
5.9917 0.9889 -0.1713
5.9805 0.9824 -0.1695
5.9744 0.9671 -0.1700
5.9672 0.9538 -0.1700
5.9610 0.9384 -0.1705
5.9542 0.9239 -0.1707
5.9455 0.9139 -0.1699
5.9397 0.8972 -0.1707
5.9311 0.8873 -0.1699
5.9252 0.8704 -0.1707
5.9171 0.8594 -0.1702
5.9085 0.8498 -0.1694
5.8937 0.8246 -0.1691
6.0258 1.5537 -0.1175
6.0252 1.5466 -0.1184
6.0279 1.5395 -0.1201
6.0249 1.5319 -0.1203
6.0240 1.5243 -0.1212
6.0242 1.5166 -0.1223
6.0232 1.5086 -0.1231
6.0242 1.5004 -0.1245
6.0240 1.4921 -0.1256
6.0196 1.4840 -0.1256
6.0264 1.4744 -0.1287
6.0229 1.4659 -0.1290
6.0233 1.4566 -0.1304
6.0226 1.4472 -0.1315
6.0237 1.4372 -0.1332
6.0247 1.4269 -0.1349
6.0274 1.4157 -0.1371
6.0261 1.4054 -0.1382
6.0239 1.3952 -0.1391
6.0269 1.3827 -0.1416
6.0244 1.3721 -0.1424
6.0236 1.3605 -0.1438
6.0269 1.3465 -0.1466
6.0257 1.3343 -0.1480
6.0253 1.3213 -0.1497
6.0238 1.3086 -0.1511
6.0279 1.2920 -0.1544
6.0261 1.2786 -0.1558
6.0234 1.2655 -0.1569
6.0282 1.2463 -0.1609
6.0281 1.2301 -0.1631
6.0271 1.2141 -0.1651
6.0267 1.1791 -0.1698
6.0265 1.1606 -0.1723
6.0212 1.1469 -0.1729
6.0301 1.1169 -0.1793
6.0251 1.1017 -0.1801
6.0284 1.0756 -0.1846
6.0244 1.0581 -0.1860
6.0171 1.0447 -0.1860
6.0153 1.0232 -0.1885
6.0055 1.0132 -0.1874
5.9896 0.9880 -0.1868
5.9806 0.9775 -0.1859
5.9728 0.9651 -0.1857
5.9655 0.9517 -0.1856
5.9582 0.9383 -0.1856
5.9505 0.9260 -0.1853
5.9437 0.9115 -0.1856
5.9364 0.8980 -0.1856
5.9291 0.8846 -0.1856
5.9192 0.8784 -0.1839
5.9124 0.8639 -0.1842
5.9073 0.8444 -0.1855
5.8996 0.8323 -0.1852
5.8908 0.8240 -0.1841
5.8836 0.8107 -0.1841
6.0260 1.5551 -0.1262
6.0242 1.5478 -0.1269
6.0258 1.5407 -0.1284
6.0227 1.5331 -0.1287
6.0240 1.5255 -0.1302
6.0241 1.5177 -0.1314
6.0252 1.5097 -0.1330
6.0261 1.5015 -0.1345
6.0228 1.4933 -0.1348
6.0245 1.4845 -0.1367
6.0241 1.4757 -0.1379
6.0225 1.4669 -0.1388
6.0239 1.4573 -0.1406
6.0231 1.4479 -0.1419
6.0251 1.4376 -0.1440
6.0241 1.4278 -0.1452
6.0267 1.4166 -0.1477
6.0263 1.4059 -0.1492
6.0249 1.3953 -0.1504
6.0269 1.3831 -0.1529
6.0235 1.3728 -0.1535
6.0260 1.3596 -0.1563
6.0250 1.3476 -0.1578
6.0263 1.3340 -0.1603
6.0249 1.3215 -0.1618
6.0250 1.3077 -0.1639
6.0249 1.2936 -0.1661
6.0262 1.2780 -0.1688
6.0249 1.2637 -0.1707
6.0258 1.2474 -0.1734
6.0257 1.2312 -0.1759
6.0268 1.2133 -0.1789
6.0262 1.1963 -0.1814
6.0268 1.1775 -0.1845
6.0244 1.1610 -0.1863
6.0239 1.1421 -0.1890
6.0244 1.1211 -0.1924
6.0267 1.0973 -0.1967
6.0279 1.0736 -0.2007
6.0225 1.0576 -0.2016
6.0194 1.0381 -0.2037
6.0162 1.0182 -0.2059
5.9972 0.9970 -0.2037
5.9909 0.9814 -0.2043
5.9801 0.9736 -0.2025
5.9728 0.9600 -0.2024
5.9654 0.9465 -0.2024
5.9575 0.9339 -0.2021
5.9502 0.9204 -0.2021
5.9418 0.9090 -0.2015
5.9340 0.8967 -0.2011
5.9267 0.8832 -0.2011
5.9190 0.8709 -0.2008
5.9108 0.8599 -0.2002
5.8943 0.8393 -0.1986
5.8867 0.8273 -0.1983
6.0268 1.5635 -0.1341
6.0250 1.5563 -0.1347
6.0244 1.5491 -0.1357
6.0247 1.5419 -0.1370
6.0261 1.5345 -0.1387
6.0251 1.5268 -0.1397
6.0230 1.5189 -0.1404
6.0239 1.5027 -0.1434
6.0226 1.4943 -0.1444
6.0242 1.4856 -0.1464
6.0257 1.4765 -0.1484
6.0241 1.4676 -0.1494
6.0254 1.4580 -0.1514
6.0255 1.4483 -0.1530
6.0235 1.4388 -0.1540
6.0262 1.4279 -0.1567
6.0259 1.4174 -0.1584
6.0237 1.4073 -0.1594
6.0249 1.3958 -0.1617
6.0242 1.3846 -0.1634
6.0234 1.3732 -0.1650
6.0267 1.3595 -0.1684
6.0281 1.3462 -0.1710
6.0251 1.3347 -0.1720
6.0244 1.3217 -0.1740
6.0261 1.3068 -0.1770
6.0259 1.2926 -0.1794
6.0223 1.2802 -0.1804
6.0287 1.2603 -0.1857
6.0256 1.2467 -0.1870
6.0269 1.2292 -0.1904
6.0257 1.2132 -0.1927
6.0243 1.1967 -0.1950
6.0248 1.1779 -0.1984
6.0237 1.1600 -0.2010
6.0237 1.1403 -0.2044
6.0249 1.0969 -0.2120
6.0241 1.0756 -0.2154
6.0205 1.0572 -0.2174
6.0150 1.0410 -0.2183
6.0117 1.0211 -0.2207
6.0042 1.0073 -0.2207
5.9956 0.9954 -0.2200
5.9886 0.9806 -0.2203
5.9790 0.9708 -0.2189
5.9747 0.9510 -0.2209
5.9662 0.9392 -0.2203
5.9547 0.9339 -0.2176
5.9493 0.9159 -0.2189
5.9418 0.9022 -0.2189
5.9330 0.8919 -0.2179
5.9256 0.8783 -0.2179
5.9178 0.8659 -0.2175
5.9100 0.8535 -0.2172
5.9026 0.8399 -0.2172
5.8941 0.8301 -0.2161
5.8856 0.8204 -0.2151
5.8779 0.8083 -0.2148
6.0247 1.5646 -0.1422
6.0229 1.5575 -0.1429
6.0256 1.5506 -0.1450
6.0237 1.5431 -0.1458
6.0239 1.5357 -0.1472
6.0251 1.5280 -0.1490
6.0240 1.5201 -0.1501
6.0249 1.5121 -0.1519
6.0247 1.5038 -0.1533
6.0244 1.4953 -0.1548
6.0249 1.4865 -0.1566
6.0234 1.4778 -0.1576
6.0237 1.4686 -0.1594
6.0268 1.4586 -0.1623
6.0259 1.4490 -0.1638
6.0239 1.4395 -0.1649
6.0274 1.4283 -0.1681
6.0252 1.4183 -0.1692
6.0238 1.4079 -0.1706
6.0240 1.3966 -0.1728
6.0241 1.3850 -0.1749
6.0267 1.3721 -0.1782
6.0239 1.3610 -0.1793
6.0244 1.3481 -0.1818
6.0255 1.3345 -0.1847
6.0247 1.3214 -0.1868
6.0239 1.3080 -0.1890
6.0262 1.2770 -0.1955
6.0263 1.2615 -0.1983
6.0284 1.2437 -0.2023
6.0236 1.2310 -0.2030
6.0260 1.2118 -0.2073
6.0273 1.1926 -0.2113
6.0262 1.1750 -0.2142
6.0257 1.1562 -0.2174
6.0275 1.1341 -0.2221
6.0218 1.1197 -0.2228
6.0231 1.0966 -0.2275
6.0234 1.0736 -0.2318
6.0210 1.0534 -0.2347
6.0153 1.0371 -0.2358
6.0096 1.0206 -0.2368
6.0015 1.0076 -0.2365
5.9945 0.9928 -0.2368
5.9842 0.9837 -0.2350
5.9783 0.9670 -0.2361
5.9708 0.9531 -0.2361
5.9628 0.9403 -0.2357
5.9568 0.9233 -0.2368
5.9483 0.9116 -0.2360
5.9403 0.8988 -0.2357
5.9346 0.8805 -0.2371
5.9257 0.8700 -0.2360
5.9173 0.8585 -0.2353
5.9070 0.8531 -0.2327
5.8984 0.8432 -0.2316
5.8914 0.8284 -0.2320
5.8844 0.8135 -0.2323
6.0255 1.5730 -0.1499
6.0226 1.5658 -0.1503
6.0219 1.5587 -0.1514
6.0257 1.5520 -0.1542
6.0248 1.5445 -0.1553
6.0249 1.5370 -0.1569
6.0239 1.5293 -0.1580
6.0249 1.5214 -0.1600
6.0237 1.5133 -0.1611
6.0234 1.5050 -0.1627
6.0230 1.4965 -0.1642
6.0225 1.4878 -0.1658
6.0229 1.4788 -0.1677
6.0242 1.4695 -0.1700
6.0262 1.4596 -0.1727
6.0253 1.4500 -0.1743
6.0242 1.4402 -0.1758
6.0257 1.4295 -0.1785
6.0235 1.4195 -0.1797
6.0265 1.4076 -0.1832
6.0258 1.3965 -0.1851
6.0258 1.3848 -0.1874
6.0265 1.3725 -0.1901
6.0236 1.3614 -0.1913
6.0257 1.3476 -0.1948
6.0250 1.3348 -0.1971
6.0258 1.3207 -0.2002
6.0232 1.3081 -0.2017
6.0229 1.2939 -0.2045
6.0262 1.2766 -0.2091
6.0239 1.2626 -0.2110
6.0266 1.2443 -0.2157
6.0247 1.2291 -0.2180
6.0269 1.2098 -0.2226
6.0262 1.1734 -0.2296
6.0288 1.1511 -0.2350
6.0252 1.1346 -0.2370
6.0264 1.0668 -0.2509
6.0195 1.0522 -0.2513
6.0132 1.0366 -0.2520
5.9998 1.0061 -0.2532
5.9836 0.9801 -0.2524
5.9750 0.9681 -0.2516
5.9674 0.9542 -0.2516
5.9594 0.9414 -0.2512
5.9396 0.8932 -0.2535
5.9316 0.8803 -0.2531
5.9222 0.8710 -0.2515
6.0245 1.5743 -0.1584
6.0228 1.5672 -0.1592
6.0266 1.5607 -0.1621
6.0246 1.5532 -0.1629
6.0259 1.5460 -0.1650
6.0260 1.5384 -0.1667
6.0270 1.5306 -0.1687
6.0258 1.5226 -0.1700
6.0235 1.5145 -0.1708
6.0231 1.5062 -0.1725
6.0237 1.4976 -0.1745
6.0252 1.4887 -0.1770
6.0255 1.4796 -0.1791
6.0247 1.4704 -0.1807
6.0218 1.4613 -0.1816
6.0237 1.4512 -0.1845
6.0244 1.4409 -0.1870
6.0250 1.4304 -0.1894
6.0254 1.4196 -0.1919
6.0265 1.4082 -0.1948
6.0266 1.3967 -0.1973
6.0274 1.3846 -0.2002
6.0237 1.3740 -0.2010
6.0250 1.3610 -0.2043
6.0261 1.3476 -0.2076
6.0237 1.3355 -0.2093
6.0252 1.3209 -0.2130
6.0234 1.3078 -0.2151
6.0283 1.2900 -0.2209
6.0253 1.2767 -0.2225
6.0274 1.2593 -0.2271
6.0226 1.2467 -0.2279
6.0243 1.2285 -0.2325
6.0270 1.2085 -0.2379
6.0232 1.1937 -0.2395
6.0110 1.0362 -0.2685
6.0052 1.0196 -0.2697
5.9888 0.9933 -0.2688
5.9812 0.9793 -0.2688
5.9731 0.9663 -0.2684
6.0236 1.5756 -0.1669
6.0252 1.5690 -0.1692
6.0233 1.5617 -0.1700
6.0235 1.5545 -0.1718
6.0259 1.5473 -0.1744
6.0237 1.5396 -0.1753
6.0258 1.5319 -0.1780
6.0246 1.5239 -0.1793
6.0263 1.5157 -0.1819
6.0239 1.5073 -0.1828
6.0234 1.4987 -0.1846
6.0267 1.4896 -0.1881
6.0250 1.4807 -0.1894
6.0251 1.4713 -0.1916
6.0251 1.4617 -0.1938
6.0249 1.4518 -0.1960
6.0265 1.4413 -0.1991
6.0242 1.4313 -0.2004
6.0281 1.4195 -0.2049
6.0238 1.4096 -0.2053
6.0273 1.3970 -0.2097
6.0263 1.3855 -0.2119
6.0234 1.3745 -0.2132
6.0271 1.3602 -0.2181
6.0273 1.3471 -0.2212
6.0240 1.3354 -0.2225
6.0238 1.3216 -0.2256
6.0258 1.3061 -0.2300
6.0260 1.2911 -0.2335
6.0267 1.2752 -0.2375
6.0242 1.2611 -0.2397
6.0123 1.0307 -0.2877
6.0035 1.0182 -0.2868
6.0273 1.5912 -0.1742
6.0232 1.5838 -0.1742
6.0237 1.5772 -0.1760
6.0264 1.5707 -0.1788
6.0245 1.5633 -0.1798
6.0225 1.5558 -0.1807
6.0258 1.5487 -0.1840
6.0258 1.5411 -0.1858
6.0256 1.5332 -0.1877
6.0243 1.5252 -0.1891
6.0250 1.5169 -0.1915
6.0246 1.5085 -0.1933
6.0270 1.4997 -0.1966
6.0253 1.4909 -0.1980
6.0235 1.4819 -0.1994
6.0245 1.4724 -0.2022
6.0254 1.4626 -0.2050
6.0214 1.4534 -0.2055
6.0248 1.4425 -0.2097
6.0243 1.4321 -0.2120
6.0254 1.4209 -0.2153
6.0255 1.4097 -0.2181
6.0280 1.3973 -0.2223
6.0269 1.3857 -0.2247
6.0265 1.3735 -0.2275
6.0234 1.3622 -0.2289
6.0235 1.3491 -0.2321
6.0250 1.3348 -0.2363
6.0231 1.3219 -0.2387
6.0219 1.3083 -0.2415
6.0198 1.2948 -0.2438
6.0182 1.2806 -0.2466
6.0226 1.2450 -0.2574
6.0218 1.2285 -0.2611
6.0210 1.1112 -0.2896
6.0066 1.0354 -0.3018
6.0263 1.5926 -0.1827
6.0246 1.5856 -0.1837
6.0273 1.5793 -0.1867
6.0265 1.5722 -0.1882
6.0256 1.5649 -0.1897
6.0257 1.5576 -0.1916
6.0236 1.5499 -0.1926
6.0256 1.5424 -0.1956
6.0244 1.5345 -0.1971
6.0262 1.5265 -0.2000
6.0257 1.5182 -0.2020
6.0242 1.5097 -0.2035
6.0216 1.5012 -0.2045
6.0238 1.4921 -0.2080
6.0239 1.4829 -0.2104
6.0249 1.4734 -0.2134
6.0247 1.4637 -0.2159
6.0244 1.4537 -0.2183
6.0240 1.4435 -0.2208
6.0234 1.4331 -0.2233
6.0245 1.4219 -0.2267
6.0254 1.4103 -0.2302
6.0252 1.3988 -0.2332
6.0240 1.3872 -0.2356
6.0244 1.3747 -0.2391
6.0246 1.3619 -0.2426
6.0254 1.3483 -0.2465
6.0244 1.3352 -0.2495
6.0224 1.3222 -0.2520
6.0234 1.3071 -0.2564
6.0195 1.2792 -0.2618
6.0228 1.2440 -0.2727
6.0271 1.6009 -0.1903
6.0247 1.5872 -0.1929
6.0262 1.5806 -0.1955
6.0232 1.5732 -0.1961
6.0256 1.5664 -0.1992
6.0235 1.5588 -0.2002
6.0267 1.5516 -0.2039
6.0255 1.5438 -0.2055
6.0242 1.5358 -0.2070
6.0259 1.5278 -0.2101
6.0244 1.5195 -0.2117
6.0218 1.5110 -0.2127
6.0251 1.5022 -0.2169
6.0243 1.4932 -0.2190
6.0272 1.4837 -0.2232
6.0242 1.4745 -0.2242
6.0259 1.4644 -0.2279
6.0237 1.4548 -0.2294
6.0204 1.4451 -0.2305
6.0234 1.4338 -0.2352
6.0235 1.4229 -0.2383
6.0252 1.4110 -0.2425
6.0224 1.4003 -0.2440
6.0212 1.3888 -0.2466
6.0215 1.3763 -0.2503
6.0255 1.3203 -0.2680
6.0240 1.2913 -0.2753
6.0262 1.6023 -0.1990
6.0244 1.5953 -0.2001
6.0237 1.5885 -0.2017
6.0252 1.5820 -0.2045
6.0254 1.5750 -0.2066
6.0244 1.5677 -0.2083
6.0245 1.5604 -0.2105
6.0255 1.5529 -0.2132
6.0263 1.5453 -0.2160
6.0260 1.5373 -0.2182
6.0235 1.5291 -0.2193
6.0230 1.5207 -0.2214
6.0254 1.5122 -0.2253
6.0246 1.5034 -0.2275
6.0266 1.4942 -0.2313
6.0228 1.4852 -0.2319
6.0217 1.4758 -0.2340
6.0261 1.4654 -0.2395
6.0229 1.4558 -0.2406
6.0241 1.4452 -0.2445
6.0225 1.4349 -0.2467
