ply
format ascii 1.0
element vertex 2090
property float x
property float y
property float z
end_header
0.9399 -2.6017 -0.1564
1.0110 -2.6005 -0.1718
1.1115 -2.6037 -0.1703
1.1832 -2.6043 -0.1772
1.2561 -2.6059 -0.1796
1.3292 -2.6085 -0.1776
1.4103 -2.6132 -0.1666
1.4565 -2.6133 -0.1725
1.5669 -2.6184 -0.1638
1.6199 -2.6217 -0.1557
1.6500 -2.6211 -0.1623
1.6915 -2.6233 -0.1576
1.7164 -2.6225 -0.1648
1.7832 -2.6259 -0.1583
1.8035 -2.6250 -0.1649
1.8397 -2.6286 -0.1532
1.8664 -2.6302 -0.1495
1.8803 -2.6286 -0.1587
1.9003 -2.6290 -0.1597
1.9220 -2.6302 -0.1571
1.9385 -2.6301 -0.1599
1.9546 -2.6301 -0.1619
1.9770 -2.6325 -0.1536
1.9912 -2.6324 -0.1560
2.0211 -2.6336 -0.1548
2.0344 -2.6338 -0.1552
2.0480 -2.6345 -0.1540
2.0583 -2.6340 -0.1577
2.0702 -2.6344 -0.1576
2.0813 -2.6346 -0.1581
2.0939 -2.6357 -0.1544
2.1029 -2.6353 -0.1575
0.7270 -2.8473 0.8354
0.7712 -2.8392 0.7950
0.8429 -2.8300 0.7492
0.8507 -2.8239 0.7194
0.8491 -2.8182 0.6912
0.8785 -2.8112 0.6568
0.8654 -2.8057 0.6298
0.8632 -2.7996 0.6002
0.8441 -2.7938 0.5719
0.8233 -2.7877 0.5424
0.8383 -2.7808 0.5087
0.8600 -2.7739 0.4746
0.8328 -2.7673 0.4424
0.8832 -2.7603 0.4076
0.8874 -2.7534 0.3737
0.9025 -2.7465 0.3397
0.9282 -2.7398 0.3064
0.9042 -2.7321 0.2693
0.2856 -2.6755 0.0008
0.1920 -2.6594 -0.0764
0.4350 -2.6600 -0.0771
0.6750 -2.6629 -0.0660
0.8387 -2.6635 -0.0654
0.7544 -2.6482 -0.1391
0.8108 -2.6425 -0.1676
0.9054 -2.6406 -0.1786
1.1234 -2.6425 -0.1723
1.1896 -2.6409 -0.1811
1.2616 -2.6406 -0.1832
1.3610 -2.6445 -0.1658
1.4228 -2.6449 -0.1647
1.5225 -2.6446 -0.1676
1.5675 -2.6446 -0.1680
1.6165 -2.6458 -0.1627
1.6572 -2.6464 -0.1607
1.6963 -2.6471 -0.1576
1.7227 -2.6461 -0.1630
1.7510 -2.6457 -0.1651
1.7841 -2.6467 -0.1608
1.8081 -2.6463 -0.1633
1.8600 -2.6472 -0.1595
1.8797 -2.6467 -0.1621
1.9075 -2.6486 -0.1533
1.9222 -2.6474 -0.1593
1.9421 -2.6479 -0.1573
1.9595 -2.6480 -0.1572
1.9733 -2.6472 -0.1611
1.9927 -2.6484 -0.1555
2.0084 -2.6487 -0.1541
2.0201 -2.6479 -0.1581
2.0352 -2.6486 -0.1553
2.0446 -2.6473 -0.1616
2.0586 -2.6479 -0.1586
2.0728 -2.6490 -0.1537
2.0958 -2.6495 -0.1514
2.1036 -2.6485 -0.1567
2.1130 -2.6482 -0.1581
0.7183 -2.8834 0.8287
0.7811 -2.8732 0.7837
0.8345 -2.8641 0.7427
0.8593 -2.8570 0.7091
0.8731 -2.8507 0.6781
0.9023 -2.8436 0.6444
0.8747 -2.8395 0.6200
0.8608 -2.8344 0.5921
0.8647 -2.8284 0.5610
0.8562 -2.8227 0.5307
0.8822 -2.8156 0.4969
0.8743 -2.8097 0.4653
0.8946 -2.8028 0.4320
0.9038 -2.7962 0.3990
0.9512 -2.7888 0.3664
0.9440 -2.7826 0.3331
0.9533 -2.7759 0.2998
0.9185 -2.7695 0.2621
0.9389 -2.7625 0.2285
0.9489 -2.7556 0.1936
0.3526 -2.7218 -0.0532
0.7185 -2.7203 -0.0169
0.7605 -2.7126 -0.0520
0.6832 -2.7007 -0.1228
0.6683 -2.6904 -0.1781
0.8153 -2.6875 -0.1753
0.9089 -2.6833 -0.1859
1.0385 -2.6822 -0.1761
1.1308 -2.6800 -0.1763
1.2859 -2.6763 -0.1768
1.3746 -2.6767 -0.1640
1.4208 -2.6742 -0.1716
1.5299 -2.6725 -0.1675
1.5782 -2.6718 -0.1650
1.6148 -2.6703 -0.1684
1.6556 -2.6698 -0.1662
1.6963 -2.6698 -0.1615
1.7314 -2.6694 -0.1590
1.7627 -2.6690 -0.1577
1.8098 -2.6665 -0.1648
1.8415 -2.6672 -0.1572
1.8580 -2.6654 -0.1646
1.8849 -2.6660 -0.1586
1.9000 -2.6643 -0.1652
1.9451 -2.6652 -0.1555
1.9584 -2.6638 -0.1609
1.9736 -2.6631 -0.1628
1.9916 -2.6634 -0.1591
2.0049 -2.6626 -0.1616
2.0222 -2.6632 -0.1562
2.0349 -2.6627 -0.1575
2.0479 -2.6625 -0.1571
2.0594 -2.6620 -0.1583
2.0719 -2.6620 -0.1568
2.0847 -2.6623 -0.1535
2.0944 -2.6617 -0.1555
2.1044 -2.6614 -0.1559
2.1132 -2.6607 -0.1584
0.7096 -2.9197 0.8220
0.7305 -2.9124 0.7873
0.8272 -2.8983 0.7359
0.8659 -2.8847 0.6711
0.8845 -2.8780 0.6392
0.8983 -2.8717 0.6081
0.9317 -2.8587 0.5454
0.8927 -2.8558 0.5190
0.8740 -2.8513 0.4890
0.9032 -2.8379 0.4234
0.9288 -2.8307 0.3906
0.9214 -2.8251 0.3575
0.9361 -2.8184 0.3244
0.9508 -2.8117 0.2914
0.9328 -2.8060 0.2551
0.9698 -2.7985 0.2240
0.9742 -2.7920 0.1891
0.2656 -2.7873 -0.0279
0.5298 -2.7750 -0.0243
0.7460 -2.7653 -0.0196
0.6606 -2.7567 -0.0902
0.6277 -2.7474 -0.1503
0.6649 -2.7385 -0.1893
0.8187 -2.7321 -0.1832
0.9564 -2.7268 -0.1752
1.0680 -2.7221 -0.1710
1.1701 -2.7182 -0.1650
1.2395 -2.7139 -0.1698
1.3129 -2.7105 -0.1686
1.3918 -2.7082 -0.1599
1.4334 -2.7045 -0.1694
1.5373 -2.6998 -0.1673
1.5872 -2.6981 -0.1630
1.6188 -2.6953 -0.1697
1.6596 -2.6938 -0.1671
1.7059 -2.6933 -0.1571
1.7307 -2.6910 -0.1633
1.7612 -2.6897 -0.1626
1.8204 -2.6878 -0.1569
1.8395 -2.6858 -0.1624
1.8655 -2.6852 -0.1589
1.8866 -2.6841 -0.1593
1.9087 -2.6835 -0.1569
1.9296 -2.6829 -0.1544
1.9487 -2.6823 -0.1527
1.9607 -2.6804 -0.1598
1.9838 -2.6811 -0.1497
1.9932 -2.6790 -0.1585
2.0070 -2.6781 -0.1599
2.0376 -2.6776 -0.1542
2.0481 -2.6764 -0.1580
2.0597 -2.6757 -0.1592
2.0733 -2.6757 -0.1552
2.0855 -2.6755 -0.1529
2.0952 -2.6747 -0.1548
2.1052 -2.6742 -0.1550
0.6923 -2.9623 0.8468
0.7195 -2.9541 0.8104
0.7700 -2.9433 0.7690
0.8327 -2.9265 0.6978
0.8467 -2.9201 0.6663
0.8821 -2.9115 0.6313
0.8806 -2.9068 0.6024
0.8992 -2.8999 0.5705
0.9027 -2.8945 0.5403
0.9006 -2.8896 0.5101
0.8988 -2.8844 0.4791
0.9030 -2.8787 0.4473
0.9274 -2.8714 0.4147
0.9418 -2.8648 0.3825
0.9353 -2.8597 0.3497
0.9552 -2.8527 0.3173
0.9644 -2.8464 0.2843
0.9577 -2.8410 0.2494
0.9672 -2.8345 0.2155
0.9489 -2.8294 0.1771
0.8093 -2.8076 -0.0124
0.5573 -2.8062 -0.1306
0.5972 -2.7965 -0.1705
0.6874 -2.7862 -0.1915
0.8090 -2.7764 -0.1961
0.9713 -2.7674 -0.1774
1.0811 -2.7600 -0.1728
1.1722 -2.7535 -0.1711
1.2489 -2.7477 -0.1716
1.3320 -2.7428 -0.1643
1.3861 -2.7379 -0.1690
1.4531 -2.7340 -0.1626
1.4955 -2.7299 -0.1684
1.5447 -2.7264 -0.1670
1.5896 -2.7233 -0.1658
1.6693 -2.7178 -0.1632
1.7075 -2.7156 -0.1595
1.7339 -2.7129 -0.1640
1.7959 -2.7091 -0.1590
1.8456 -2.7054 -0.1587
1.8657 -2.7035 -0.1615
1.8882 -2.7020 -0.1599
1.9285 -2.6993 -0.1582
1.9497 -2.6985 -0.1536
1.9657 -2.6971 -0.1548
1.9820 -2.6960 -0.1542
1.9967 -2.6948 -0.1549
2.0118 -2.6939 -0.1539
2.0221 -2.6921 -0.1597
2.0379 -2.6917 -0.1553
2.0508 -2.6908 -0.1545
2.0629 -2.6900 -0.1543
2.0736 -2.6889 -0.1559
2.0852 -2.6883 -0.1546
2.0960 -2.6876 -0.1540
2.1055 -2.6866 -0.1554
2.1126 -2.6851 -0.1614
0.6835 -2.9991 0.8400
0.7295 -2.9880 0.7989
0.7564 -2.9796 0.7634
0.7881 -2.9708 0.7273
0.8193 -2.9620 0.6919
0.8334 -2.9556 0.6602
0.8416 -2.9499 0.6294
0.8557 -2.9434 0.5975
0.8840 -2.9305 0.5338
0.8878 -2.9251 0.5028
0.8870 -2.9100 0.4069
0.9128 -2.9022 0.3740
0.9383 -2.8945 0.3416
0.9512 -2.8827 0.2751
0.9499 -2.8773 0.2404
0.9647 -2.8705 0.2071
0.9183 -2.8683 0.1639
0.8034 -2.8704 0.1046
0.8131 -2.8631 0.0651
0.8301 -2.8554 0.0269
0.8401 -2.8480 -0.0132
0.7580 -2.8454 -0.0812
0.6733 -2.8420 -0.1559
0.8486 -2.8191 -0.1899
0.9919 -2.8069 -0.1769
1.0886 -2.7972 -0.1770
1.1698 -2.7887 -0.1793
1.2348 -2.7812 -0.1855
1.3298 -2.7740 -0.1716
1.3876 -2.7678 -0.1739
1.5091 -2.7572 -0.1645
1.5514 -2.7525 -0.1671
1.5996 -2.7484 -0.1630
1.6996 -2.7372 -0.1702
1.7395 -2.7345 -0.1625
1.8037 -2.7294 -0.1543
1.8547 -2.7247 -0.1515
1.8717 -2.7221 -0.1572
1.8870 -2.7195 -0.1640
1.9141 -2.7182 -0.1550
1.9294 -2.7160 -0.1593
1.9506 -2.7146 -0.1545
1.9653 -2.7127 -0.1574
1.9850 -2.7117 -0.1517
1.9950 -2.7094 -0.1594
2.0134 -2.7086 -0.1531
2.0237 -2.7067 -0.1587
2.0400 -2.7060 -0.1530
2.0505 -2.7043 -0.1565
2.0632 -2.7033 -0.1551
2.0745 -2.7021 -0.1553
2.0866 -2.7013 -0.1527
2.0952 -2.6998 -0.1569
2.1052 -2.6988 -0.1570
2.1134 -2.6974 -0.1604
-0.9834 -3.3245 1.3822
0.7105 -3.0216 0.7650
0.9775 -2.9248 0.3352
0.9655 -2.9214 0.3018
0.9540 -2.9177 0.2672
0.9367 -2.9145 0.2307
0.9117 -2.9118 0.1915
0.8889 -2.8851 -0.0086
0.6953 -2.8872 -0.1585
0.7845 -2.8735 -0.1758
0.8930 -2.8592 -0.1812
1.0003 -2.8457 -0.1814
1.1055 -2.8332 -0.1767
1.2677 -2.8132 -0.1748
1.4120 -2.7966 -0.1651
1.5210 -2.7835 -0.1615
1.5734 -2.7778 -0.1563
1.6079 -2.7727 -0.1612
1.6677 -2.7635 -0.1726
1.7133 -2.7594 -0.1621
1.7420 -2.7556 -0.1638
1.7977 -2.7486 -0.1635
1.8316 -2.7458 -0.1543
1.8580 -2.7430 -0.1507
1.8742 -2.7400 -0.1571
1.9010 -2.7378 -0.1496
1.9332 -2.7327 -0.1566
1.9710 -2.7288 -0.1512
2.0013 -2.7250 -0.1515
2.0150 -2.7231 -0.1522
2.0265 -2.7212 -0.1555
2.0378 -2.7194 -0.1584
2.0520 -2.7181 -0.1551
2.0653 -2.7168 -0.1523
2.0724 -2.7147 -0.1607
2.0960 -2.7124 -0.1560
2.1060 -2.7112 -0.1560
2.1148 -2.7098 -0.1581
1.0196 -2.9947 0.6384
0.8956 -2.9608 0.2535
0.9108 -2.9539 0.2194
0.7235 -2.9496 -0.0181
0.8413 -2.9302 -0.0306
1.0011 -2.9071 -0.0244
0.7778 -2.9248 -0.1402
0.8315 -2.9130 -0.1677
0.9158 -2.8985 -0.1807
1.0202 -2.8829 -0.1808
1.1132 -2.8689 -0.1806
1.1905 -2.8570 -0.1830
1.2981 -2.8433 -0.1651
1.3514 -2.8344 -0.1715
1.4161 -2.8252 -0.1681
1.5053 -2.8106 -0.1770
1.6138 -2.7965 -0.1611
1.6634 -2.7904 -0.1516
1.6923 -2.7854 -0.1560
1.7223 -2.7807 -0.1579
1.7509 -2.7762 -0.1591
1.8072 -2.7681 -0.1571
1.8280 -2.7644 -0.1611
1.8605 -2.7609 -0.1508
1.8969 -2.7546 -0.1571
1.9154 -2.7517 -0.1582
1.9391 -2.7491 -0.1511
1.9484 -2.7462 -0.1619
1.9658 -2.7438 -0.1607
1.9829 -2.7415 -0.1587
2.0009 -2.7394 -0.1538
2.0140 -2.7373 -0.1555
2.0294 -2.7354 -0.1522
2.0406 -2.7333 -0.1549
2.0542 -2.7316 -0.1525
2.0632 -2.7296 -0.1577
2.0762 -2.7281 -0.1542
2.0866 -2.7264 -0.1549
2.0980 -2.7250 -0.1527
2.1069 -2.7234 -0.1550
2.1150 -2.7217 -0.1582
-1.2328 -3.4926 1.2290
1.0004 -3.0278 0.6344
0.8748 -3.0095 0.3137
0.8844 -3.0035 0.2795
0.8586 -3.0033 0.2413
0.8794 -2.9953 0.2070
-0.4987 -3.1863 -0.1899
0.7649 -2.9872 -0.0168
0.6916 -2.9918 -0.0826
0.6608 -2.9900 -0.1401
1.0451 -2.9333 -0.0568
0.9211 -2.9441 -0.1429
0.9377 -2.9365 -0.1802
1.0655 -2.9157 -0.1687
1.2415 -2.8855 -0.1641
1.2777 -2.8769 -0.1823
1.3717 -2.8625 -0.1657
1.5173 -2.8361 -0.1738
1.5827 -2.8266 -0.1587
1.6552 -2.8135 -0.1622
1.6678 -2.8090 -0.1805
1.7232 -2.8018 -0.1607
1.7550 -2.7965 -0.1588
1.8128 -2.7869 -0.1545
1.8404 -2.7825 -0.1507
1.8562 -2.7788 -0.1583
1.8791 -2.7750 -0.1567
1.9001 -2.7715 -0.1557
1.9200 -2.7681 -0.1548
1.9373 -2.7650 -0.1557
1.9702 -2.7592 -0.1564
1.9886 -2.7565 -0.1520
2.0025 -2.7539 -0.1530
2.0195 -2.7516 -0.1481
2.0297 -2.7492 -0.1532
2.0397 -2.7468 -0.1580
2.0526 -2.7447 -0.1567
2.0659 -2.7428 -0.1537
2.0783 -2.7409 -0.1512
2.0875 -2.7389 -0.1541
2.0983 -2.7372 -0.1530
2.1066 -2.7353 -0.1565
0.9714 -3.0638 0.6320
0.6948 -3.0846 0.3329
0.7533 -3.0690 0.2979
0.8182 -3.0481 0.2283
-0.6311 -3.2928 -0.1557
-0.4585 -3.2536 -0.1979
0.6724 -3.0397 -0.0979
0.6051 -3.0451 -0.1680
1.0421 -2.9653 -0.1050
1.0677 -2.9567 -0.1348
1.1121 -2.9455 -0.1556
1.1762 -2.9317 -0.1650
1.2355 -2.9189 -0.1737
1.3733 -2.8918 -0.1706
1.4263 -2.8810 -0.1729
1.5020 -2.8676 -0.1574
1.5827 -2.8509 -0.1633
1.6138 -2.8440 -0.1697
1.6469 -2.8370 -0.1729
1.6876 -2.8295 -0.1677
1.7315 -2.8220 -0.1570
1.7560 -2.8166 -0.1613
1.7809 -2.8114 -0.1638
1.8346 -2.8011 -0.1599
1.8587 -2.7965 -0.1583
1.9011 -2.7882 -0.1570
1.9203 -2.7844 -0.1567
1.9418 -2.7807 -0.1519
1.9553 -2.7774 -0.1566
1.9671 -2.7744 -0.1629
1.9835 -2.7712 -0.1616
2.0035 -2.7682 -0.1532
2.0153 -2.7655 -0.1567
2.0425 -2.7603 -0.1544
2.0548 -2.7579 -0.1541
2.0650 -2.7556 -0.1567
2.0774 -2.7534 -0.1541
2.0884 -2.7513 -0.1533
2.0957 -2.7491 -0.1596
2.1075 -2.7472 -0.1554
0.9373 -3.1022 0.6301
-0.5874 -3.3605 -0.1645
-0.4409 -3.3230 -0.2103
0.5928 -3.0949 -0.1822
0.8438 -3.0380 -0.1896
1.0546 -2.9952 -0.1478
1.1048 -2.9821 -0.1661
1.2489 -2.9492 -0.1733
1.3982 -2.9170 -0.1617
1.5028 -2.8936 -0.1618
1.5766 -2.8760 -0.1721
1.6503 -2.8593 -0.1742
1.6893 -2.8510 -0.1701
1.7340 -2.8423 -0.1582
1.7610 -2.8361 -0.1600
1.7929 -2.8294 -0.1552
1.8386 -2.8189 -0.1584
1.8612 -2.8139 -0.1581
1.8819 -2.8092 -0.1586
1.9022 -2.8047 -0.1582
1.9263 -2.8000 -0.1512
1.9591 -2.7925 -0.1534
1.9872 -2.7857 -0.1578
2.0176 -2.7793 -0.1546
2.0448 -2.7735 -0.1519
2.0558 -2.7708 -0.1536
2.0678 -2.7683 -0.1526
2.0790 -2.7658 -0.1522
2.0905 -2.7635 -0.1500
2.0995 -2.7612 -0.1524
2.1066 -2.7590 -0.1582
-1.4307 -3.6645 0.0321
-0.4993 -3.4156 -0.1641
-0.3817 -3.3819 -0.2132
0.6421 -3.1318 -0.1759
0.9058 -3.0667 -0.1739
1.1023 -3.0180 -0.1745
1.2466 -2.9817 -0.1809
1.4983 -2.9204 -0.1697
1.5370 -2.9103 -0.1746
1.5912 -2.8977 -0.1658
1.6604 -2.8802 -0.1700
1.7424 -2.8614 -0.1543
1.7876 -2.8493 -0.1636
1.8404 -2.8366 -0.1593
1.8859 -2.8256 -0.1564
1.9281 -2.8157 -0.1512
1.9615 -2.8073 -0.1520
1.9767 -2.8035 -0.1528
1.9909 -2.7998 -0.1540
2.0055 -2.7963 -0.1535
2.0186 -2.7930 -0.1546
2.0313 -2.7897 -0.1550
2.0445 -2.7866 -0.1538
2.0567 -2.7836 -0.1532
2.0669 -2.7809 -0.1555
2.0781 -2.7782 -0.1551
2.0879 -2.7756 -0.1566
2.0975 -2.7731 -0.1577
2.1092 -2.7706 -0.1532
2.1162 -2.7684 -0.1587
-1.0284 -3.7382 1.1084
-1.2262 -3.7170 0.2001
-1.1571 -3.6919 0.1220
-0.5508 -3.5014 -0.1908
-0.3660 -3.4484 -0.2252
0.7162 -3.1676 -0.0673
0.6567 -3.1744 -0.1808
1.4579 -2.9578 -0.1691
1.5159 -2.9425 -0.1629
1.5526 -2.9321 -0.1683
1.5973 -2.9202 -0.1657
1.6739 -2.8996 -0.1628
1.7069 -2.8907 -0.1624
1.7409 -2.8817 -0.1590
1.7654 -2.8748 -0.1625
1.8192 -2.8604 -0.1599
1.8384 -2.8548 -0.1644
1.8664 -2.8478 -0.1577
1.8840 -2.8427 -0.1613
1.9064 -2.8369 -0.1577
1.9263 -2.8317 -0.1559
1.9450 -2.8267 -0.1542
1.9598 -2.8225 -0.1565
1.9736 -2.8185 -0.1593
1.9933 -2.8138 -0.1522
2.0066 -2.8101 -0.1536
2.0222 -2.8061 -0.1501
2.0304 -2.8032 -0.1582
2.0416 -2.8000 -0.1603
2.0546 -2.7966 -0.1585
2.0672 -2.7934 -0.1561
2.0784 -2.7904 -0.1555
2.0882 -2.7876 -0.1569
2.0967 -2.7850 -0.1605
2.1056 -2.7825 -0.1624
-1.2055 -3.8735 1.2532
-1.0903 -3.8331 1.1647
-1.0818 -3.8170 0.9748
-1.0780 -3.8111 0.9093
-1.0713 -3.7995 0.7751
-1.0121 -3.7767 0.7013
-0.9272 -3.7463 0.6268
-0.8692 -3.7241 0.5558
-0.9178 -3.7336 0.4891
-0.8344 -3.7039 0.4180
-0.9086 -3.7207 0.3468
-0.9593 -3.7302 0.2718
-0.9265 -3.7153 0.1981
-0.9791 -3.7250 0.1172
-0.8169 -3.6557 -0.1806
-0.4866 -3.5572 -0.1940
-0.3303 -3.5083 -0.2324
0.0902 -3.3868 -0.1950
0.6999 -3.2116 -0.1280
0.7102 -3.2054 -0.1720
0.8381 -3.1676 -0.1724
1.2005 -3.0601 -0.1802
1.2532 -3.0438 -0.1902
1.4121 -2.9983 -0.1699
1.5070 -2.9700 -0.1737
1.5570 -2.9556 -0.1698
1.5861 -2.9463 -0.1784
1.6724 -2.9216 -0.1680
1.7104 -2.9107 -0.1630
1.7477 -2.9002 -0.1563
1.7745 -2.8923 -0.1571
1.7928 -2.8863 -0.1647
1.8172 -2.8791 -0.1651
1.8449 -2.8713 -0.1602
1.8910 -2.8580 -0.1554
1.9053 -2.8533 -0.1616
1.9288 -2.8469 -0.1549
1.9446 -2.8421 -0.1568
1.9622 -2.8370 -0.1551
1.9795 -2.8321 -0.1525
1.9937 -2.8278 -0.1534
2.0022 -2.8246 -0.1623
2.0193 -2.8200 -0.1566
2.0307 -2.8165 -0.1591
2.0458 -2.8124 -0.1542
2.0568 -2.8090 -0.1557
2.0670 -2.8058 -0.1578
2.0850 -2.8000 -0.1648
2.0982 -2.7966 -0.1581
2.1099 -2.7935 -0.1534
2.1168 -2.7911 -0.1587
-1.0430 -3.8892 1.1361
-1.0653 -3.8928 1.0796
-0.9538 -3.8484 0.9354
-1.0019 -3.8603 0.8797
-0.9971 -3.8548 0.8144
-1.0210 -3.8585 0.7512
-0.9898 -3.8442 0.6810
-0.9586 -3.8300 0.6109
-0.9546 -3.8244 0.5419
-0.8651 -3.7872 0.4004
-0.7824 -3.7566 0.3313
-0.8028 -3.7587 0.2601
-0.7716 -3.7445 0.1899
-0.8993 -3.7800 0.1056
-0.7149 -3.7037 -0.1794
-0.4917 -3.6306 -0.2112
0.1562 -3.4254 -0.1903
0.7600 -3.2345 -0.1639
1.3663 -3.0409 -0.1689
1.4568 -3.0114 -0.1801
1.5596 -2.9791 -0.1724
1.6498 -2.9510 -0.1623
1.7098 -2.9316 -0.1672
1.7707 -2.9123 -0.1640
1.8206 -2.8964 -0.1645
1.8529 -2.8868 -0.1541
1.8693 -2.8812 -0.1597
1.8899 -2.8747 -0.1593
1.9116 -2.8679 -0.1561
1.9299 -2.8621 -0.1557
1.9442 -2.8573 -0.1595
1.9736 -2.8477 -0.1632
1.9927 -2.8420 -0.1567
2.0100 -2.8368 -0.1515
2.0210 -2.8331 -0.1554
2.0317 -2.8295 -0.1588
2.0475 -2.8248 -0.1526
2.0565 -2.8216 -0.1575
2.0680 -2.8180 -0.1572
2.0785 -2.8146 -0.1576
2.0841 -2.8122 -0.1676
2.1003 -2.8079 -0.1545
2.1102 -2.8048 -0.1535
-1.1852 -4.0099 1.1483
-1.0402 -3.9524 0.9944
-0.9839 -3.9295 0.9224
-1.0615 -3.9533 0.8699
-1.0575 -3.9486 0.8036
-0.9717 -3.9154 0.7279
-1.0228 -3.9297 0.6655
-0.8103 -3.8528 0.5839
-0.9068 -3.8826 0.5219
-0.9016 -3.8773 0.4528
-0.8704 -3.8631 0.3826
-0.9746 -3.8949 0.3090
-0.9988 -3.8994 0.2331
-0.8493 -3.8410 0.0922
-0.5271 -3.7179 -0.1605
-0.3891 -3.6684 -0.2048
0.2680 -3.4453 -0.1723
0.5742 -3.3397 -0.1881
0.8322 -3.2513 -0.1920
1.2241 -3.1177 -0.1813
1.3643 -3.0701 -0.1758
1.4200 -3.0510 -0.1759
1.4882 -3.0283 -0.1648
1.5728 -2.9992 -0.1674
1.6363 -2.9770 -0.1771
1.7241 -2.9479 -0.1582
1.7750 -2.9302 -0.1631
1.8256 -2.9130 -0.1621
1.8673 -2.8986 -0.1646
1.8932 -2.8901 -0.1577
1.9164 -2.8824 -0.1524
1.9310 -2.8772 -0.1565
1.9475 -2.8715 -0.1571
1.9651 -2.8656 -0.1550
1.9796 -2.8606 -0.1562
1.9944 -2.8555 -0.1558
2.0084 -2.8508 -0.1558
2.0200 -2.8467 -0.1585
2.0347 -2.8418 -0.1551
2.0433 -2.8385 -0.1615
2.0575 -2.8339 -0.1569
2.0671 -2.8305 -0.1601
2.0801 -2.8263 -0.1555
2.0905 -2.8227 -0.1553
2.1006 -2.8193 -0.1546
2.1094 -2.8162 -0.1562
-1.1340 -4.0640 1.1190
-1.0454 -4.0259 0.9772
-1.0689 -4.0320 0.9175
-1.0383 -4.0180 0.8485
-0.9548 -3.9845 0.7734
-0.9514 -3.9806 0.7080
-0.9210 -3.9667 0.6395
-0.8905 -3.9527 0.5710
-0.8849 -3.9479 0.5034
-0.9069 -3.9532 0.4350
-0.9024 -3.9487 0.3646
-0.8974 -3.9439 0.2930
-0.8930 -3.9393 0.2202
-0.8081 -3.9056 0.1524
-0.5322 -3.7913 -0.1777
0.4845 -3.4201 -0.1754
0.8749 -3.2772 -0.1839
1.2370 -3.1450 -0.1811
1.3241 -3.1137 -0.1701
1.4881 -3.0538 -0.1697
1.6553 -2.9929 -0.1659
1.6880 -2.9809 -0.1662
1.7268 -2.9670 -0.1593
1.7492 -2.9586 -0.1651
1.7736 -2.9496 -0.1676
1.8056 -2.9382 -0.1610
1.8306 -2.9291 -0.1596
1.8544 -2.9205 -0.1579
1.8699 -2.9146 -0.1642
1.9011 -2.9037 -0.1506
1.9197 -2.8969 -0.1504
1.9299 -2.8928 -0.1602
1.9515 -2.8852 -0.1537
1.9655 -2.8800 -0.1564
1.9806 -2.8745 -0.1565
1.9983 -2.8682 -0.1516
2.0101 -2.8638 -0.1547
2.0257 -2.8582 -0.1505
2.0358 -2.8544 -0.1548
2.0482 -2.8499 -0.1540
2.0573 -2.8464 -0.1586
2.0687 -2.8422 -0.1581
2.0811 -2.8378 -0.1546
2.0890 -2.8347 -0.1593
2.1103 -2.8271 -0.1549
2.1184 -2.8241 -0.1573
-1.2001 -4.1659 1.2386
-1.0807 -4.1131 1.0280
-0.9218 -4.0487 0.9386
-0.9178 -4.0452 0.8770
-0.9393 -4.0518 0.8176
-0.9600 -4.0579 0.7562
-1.0370 -4.0860 0.6979
-0.9515 -4.0506 0.6239
-0.8204 -3.9974 0.5500
-0.8653 -4.0129 0.4852
-0.8349 -3.9990 0.4167
-0.8555 -4.0049 0.3475
-0.8499 -4.0005 0.2769
-0.8711 -4.0065 0.2037
-0.8665 -4.0025 0.1301
-0.7907 -3.9639 -0.1669
-0.4495 -3.8312 -0.1769
0.5293 -3.4514 -0.1720
0.8721 -3.3177 -0.1934
1.4791 -3.0825 -0.1806
1.6623 -3.0119 -0.1641
1.6959 -2.9989 -0.1633
1.7237 -2.9880 -0.1655
1.7668 -2.9717 -0.1519
1.8148 -2.9530 -0.1546
1.8531 -2.9379 -0.1620
1.8703 -2.9311 -0.1664
1.8939 -2.9220 -0.1618
1.9179 -2.9130 -0.1551
1.9369 -2.9057 -0.1531
1.9511 -2.9000 -0.1563
1.9652 -2.8945 -0.1589
1.9838 -2.8874 -0.1536
1.9973 -2.8821 -0.1549
2.0091 -2.8775 -0.1579
2.0228 -2.8722 -0.1570
2.0473 -2.8627 -0.1570
2.0583 -2.8584 -0.1580
2.0709 -2.8536 -0.1549
2.0802 -2.8499 -0.1574
2.0894 -2.8462 -0.1596
2.1013 -2.8418 -0.1549
2.1090 -2.8387 -0.1589
2.1165 -2.8356 -0.1626
-1.1276 -4.2101 1.3214
-1.1248 -4.2077 1.2621
-1.0181 -4.1621 1.1778
-1.0591 -4.1755 1.0060
-1.0292 -4.1618 0.9386
-0.9992 -4.1481 0.8711
-0.9693 -4.1344 0.8037
-1.0181 -4.1532 0.7445
-0.9618 -4.1287 0.6733
-0.9567 -4.1252 0.6065
-0.9082 -4.0981 0.2569
-0.7727 -4.0411 0.1923
-0.6697 -3.9975 0.1297
-0.7617 -4.0336 0.0487
-0.7560 -4.0298 -0.0249
0.5537 -3.4885 -0.1745
1.0089 -3.3012 -0.1871
1.2078 -3.2198 -0.1722
1.3462 -3.1630 -0.1693
1.4637 -3.1148 -0.1642
1.5471 -3.0804 -0.1696
1.6910 -3.0213 -0.1711
1.8143 -2.9709 -0.1580
1.8360 -2.9619 -0.1594
1.8543 -2.9543 -0.1634
1.9004 -2.9355 -0.1563
1.9242 -2.9259 -0.1492
1.9380 -2.9201 -0.1537
1.9486 -2.9156 -0.1618
1.9677 -2.9079 -0.1572
1.9984 -2.8953 -0.1549
2.0150 -2.8886 -0.1500
2.0212 -2.8858 -0.1613
2.0366 -2.8796 -0.1563
2.0497 -2.8742 -0.1541
2.0606 -2.8697 -0.1549
2.0701 -2.8658 -0.1577
2.0788 -2.8621 -0.1615
2.0916 -2.8570 -0.1559
2.1011 -2.8530 -0.1563
2.1093 -2.8496 -0.1589
2.1180 -2.8461 -0.1598
-0.9601 -4.3996 1.1565
-0.9014 -4.3720 1.0226
-0.9225 -4.3846 0.9645
-0.7711 -4.3071 0.8775
-0.7660 -4.3060 0.8152
-0.9348 -4.3960 0.7722
-0.8275 -4.3415 0.6947
-0.7733 -4.3147 0.6244
-0.7673 -4.3133 0.5576
-0.7136 -4.2868 0.4883
-0.7317 -4.2980 0.4207
-0.7256 -4.2966 0.3513
-0.6951 -4.2823 0.2816
-0.6883 -4.2805 0.2105
-0.6339 -4.2536 0.1423
1.0760 -3.3615 -0.1682
1.4782 -3.1497 -0.1634
1.8179 -2.9707 -0.1555
1.8589 -2.9492 -0.1577
1.8954 -2.9300 -0.1601
1.9166 -2.9187 -0.1553
1.9367 -2.9080 -0.1504
1.9509 -2.9006 -0.1525
1.9663 -2.8925 -0.1519
1.9800 -2.8853 -0.1528
1.9927 -2.8786 -0.1541
2.0059 -2.8717 -0.1538
2.0225 -2.8627 -0.1460
2.0315 -2.8582 -0.1513
2.0450 -2.8509 -0.1467
2.0548 -2.8458 -0.1487
2.0644 -2.8408 -0.1503
2.0738 -2.8359 -0.1515
2.0847 -2.8301 -0.1485
2.0937 -2.8254 -0.1488
2.1015 -2.8213 -0.1513
-0.7377 -4.3624 0.8975
-0.7795 -4.3875 0.8418
-0.8234 -4.4139 0.7833
-0.7680 -4.3860 0.7117
-0.7379 -4.3719 0.6431
-0.7079 -4.3578 0.5746
-0.7021 -4.3571 0.5069
-0.6958 -4.3561 0.4382
-0.6652 -4.3418 0.3685
-0.6828 -4.3541 0.2973
-0.6517 -4.3396 0.2265
-0.5966 -4.3116 0.1576
-0.2945 -4.1566 -0.1619
0.2434 -3.8597 -0.1653
0.5640 -3.6833 -0.1832
1.2710 -3.2919 -0.1561
1.3936 -3.2243 -0.1584
1.5783 -3.1225 -0.1635
1.6182 -3.1004 -0.1627
1.6564 -3.0793 -0.1607
1.7825 -3.0093 -0.1536
1.8245 -2.9864 -0.1603
1.8499 -2.9722 -0.1564
1.8706 -2.9608 -0.1564
1.9120 -2.9378 -0.1517
1.9423 -2.9212 -0.1566
1.9597 -2.9115 -0.1540
1.9760 -2.9024 -0.1517
1.9901 -2.8946 -0.1516
2.0052 -2.8862 -0.1488
2.0313 -2.8717 -0.1464
2.0407 -2.8667 -0.1506
2.0534 -2.8595 -0.1474
2.0719 -2.8495 -0.1524
2.0828 -2.8434 -0.1500
2.0913 -2.8387 -0.1522
2.1013 -2.8332 -0.1500
2.1090 -2.8290 -0.1527
2.1175 -2.8243 -0.1524
-0.8440 -4.4865 1.1896
-0.8146 -4.4727 1.1226
-0.7384 -4.4323 1.0457
-0.7747 -4.4589 0.9301
-0.7687 -4.4586 0.8657
-0.7386 -4.4445 0.7972
-0.6617 -4.4036 0.7235
-0.6553 -4.4030 0.6580
-0.6484 -4.4023 0.5915
-0.6659 -4.4156 0.5251
-0.5657 -4.3611 0.4540
-0.5136 -4.3342 0.3860
-0.5742 -4.3727 0.3161
-0.6142 -4.3994 0.2427
-0.6568 -4.4278 0.1657
-0.5048 -4.3428 0.1048
-0.2971 -4.2352 -0.1582
0.2247 -3.9335 -0.1696
1.1932 -3.3722 -0.1637
1.4080 -3.2475 -0.1572
1.5495 -3.1658 -0.1630
1.6700 -3.0958 -0.1594
1.7075 -3.0739 -0.1553
1.7629 -3.0419 -0.1583
1.7945 -3.0234 -0.1530
1.8629 -2.9838 -0.1540
1.8811 -2.9734 -0.1568
1.9204 -2.9505 -0.1544
1.9336 -2.9432 -0.1602
1.9529 -2.9318 -0.1559
1.9699 -2.9218 -0.1536
1.9841 -2.9136 -0.1544
1.9992 -2.9048 -0.1525
2.0127 -2.8969 -0.1520
2.0272 -2.8884 -0.1486
2.0373 -2.8827 -0.1523
2.0489 -2.8760 -0.1522
2.0592 -2.8701 -0.1538
2.0714 -2.8629 -0.1502
2.0812 -2.8572 -0.1509
2.0924 -2.8505 -0.1473
2.1008 -2.8458 -0.1495
2.1085 -2.8415 -0.1526
2.1171 -2.8365 -0.1528
2.1250 -2.8320 -0.1539
-0.5860 -4.4755 0.1081
-0.2789 -4.3047 -0.1499
-0.1126 -4.2059 -0.1865
0.1470 -4.0483 -0.1898
0.4532 -3.8607 -0.1648
0.5989 -3.7729 -0.1754
0.7424 -3.6859 -0.1788
0.9933 -3.5333 -0.1765
1.1790 -3.4205 -0.1769
1.2601 -3.3711 -0.1751
1.3254 -3.3316 -0.1774
1.4089 -3.2800 -0.1645
1.4494 -3.2560 -0.1742
1.5571 -3.1901 -0.1669
1.6772 -3.1170 -0.1640
1.7155 -3.0934 -0.1591
1.7463 -3.0747 -0.1586
1.7701 -3.0605 -0.1631
1.8308 -3.0230 -0.1526
1.8726 -2.9978 -0.1557
1.9146 -2.9720 -0.1522
1.9329 -2.9608 -0.1515
1.9827 -2.9305 -0.1491
1.9942 -2.9238 -0.1540
2.0119 -2.9126 -0.1472
2.0234 -2.9058 -0.1498
2.0364 -2.8978 -0.1488
2.0583 -2.8846 -0.1514
2.0695 -2.8778 -0.1509
2.0804 -2.8711 -0.1497
2.0905 -2.8649 -0.1493
2.1005 -2.8588 -0.1483
2.1087 -2.8540 -0.1506
2.1192 -2.8473 -0.1461
2.1257 -2.8437 -0.1515
2.1339 -2.8387 -0.1513
-0.8766 -4.7520 0.0928
-0.1108 -4.2843 -0.1834
0.4192 -3.9460 -0.1757
0.9968 -3.5781 -0.1799
1.1993 -3.4486 -0.1732
1.3517 -3.3512 -0.1699
1.4676 -3.2775 -0.1711
1.5701 -3.2119 -0.1671
1.6974 -3.1300 -0.1574
1.7276 -3.1109 -0.1594
1.7572 -3.0921 -0.1600
1.7903 -3.0706 -0.1547
1.8421 -3.0374 -0.1529
1.8832 -3.0115 -0.1565
1.9213 -2.9873 -0.1579
1.9583 -2.9635 -0.1547
1.9756 -2.9523 -0.1526
1.9931 -2.9409 -0.1486
2.0194 -2.9243 -0.1511
2.0303 -2.9176 -0.1550
2.0453 -2.9077 -0.1499
2.0572 -2.9001 -0.1495
2.0689 -2.8925 -0.1484
2.0803 -2.8851 -0.1468
2.0885 -2.8803 -0.1516
2.0989 -2.8735 -0.1501
2.1078 -2.8680 -0.1517
2.1173 -2.8618 -0.1504
2.1271 -2.8554 -0.1473
2.1340 -2.8513 -0.1515
2.1416 -2.8465 -0.1528
-0.3745 -4.5424 -0.1602
-0.0348 -4.3155 -0.1626
0.4771 -3.9729 -0.1591
0.7380 -3.8009 -0.1868
0.8694 -3.7133 -0.1891
1.2773 -3.4398 -0.1804
1.4376 -3.3311 -0.1633
1.4944 -3.2930 -0.1623
1.5879 -3.2307 -0.1638
1.6302 -3.2024 -0.1633
1.6629 -3.1809 -0.1681
1.7415 -3.1275 -0.1583
1.7719 -3.1072 -0.1578
1.7942 -3.0928 -0.1636
1.8266 -3.0704 -0.1566
1.8511 -3.0540 -0.1561
1.9164 -3.0102 -0.1540
1.9357 -2.9972 -0.1531
1.9534 -2.9854 -0.1530
1.9678 -2.9761 -0.1565
2.0175 -2.9421 -0.1482
2.0300 -2.9339 -0.1498
2.0444 -2.9240 -0.1465
2.0543 -2.9178 -0.1511
2.0635 -2.9121 -0.1563
2.0785 -2.9013 -0.1477
2.0972 -2.8892 -0.1522
2.1089 -2.8809 -0.1472
2.1193 -2.8737 -0.1440
2.1268 -2.8690 -0.1477
2.1359 -2.8627 -0.1459
2.1432 -2.8582 -0.1489
2.1519 -2.8521 -0.1462
-0.3323 -4.6077 -0.1463
-0.0688 -4.4250 -0.1678
0.5012 -4.0237 -0.1525
0.5996 -3.9577 -0.1815
0.8852 -3.7580 -0.1873
1.1410 -3.5769 -0.1715
1.2820 -3.4795 -0.1857
1.4536 -3.3567 -0.1620
1.5026 -3.3228 -0.1662
1.5491 -3.2905 -0.1690
1.5945 -3.2586 -0.1693
1.6473 -3.2207 -0.1603
1.6808 -3.1976 -0.1642
1.7197 -3.1699 -0.1607
1.7556 -3.1444 -0.1570
1.7821 -3.1261 -0.1603
1.8397 -3.0852 -0.1556
1.8600 -3.0715 -0.1600
1.9253 -3.0254 -0.1575
1.9798 -2.9869 -0.1546
2.0507 -2.9371 -0.1537
2.0664 -2.9252 -0.1457
2.0769 -2.9181 -0.1477
2.0857 -2.9124 -0.1524
2.1070 -2.8972 -0.1504
2.1166 -2.8905 -0.1504
2.1264 -2.8835 -0.1485
2.1343 -2.8782 -0.1511
2.1424 -2.8726 -0.1521
2.1515 -2.8658 -0.1488
2.1585 -2.8612 -0.1516
-0.6527 -4.9180 0.0682
-0.4105 -4.7662 -0.1567
0.3103 -4.2341 -0.1425
0.5248 -4.0766 -0.1462
0.6240 -4.0071 -0.1755
0.9164 -3.7923 -0.1793
1.1225 -3.6416 -0.1871
1.2949 -3.5147 -0.1867
1.4592 -3.3916 -0.1677
1.5680 -3.3113 -0.1655
1.6995 -3.2137 -0.1597
1.7329 -3.1893 -0.1609
1.7999 -3.1394 -0.1553
1.8227 -3.1232 -0.1602
1.8518 -3.1013 -0.1560
1.8989 -3.0664 -0.1544
1.9386 -3.0373 -0.1550
1.9572 -3.0236 -0.1546
1.9748 -3.0106 -0.1541
1.9892 -3.0003 -0.1572
2.0092 -2.9846 -0.1492
2.0358 -2.9654 -0.1522
2.0490 -2.9557 -0.1522
2.0618 -2.9462 -0.1514
2.0738 -2.9373 -0.1510
2.0860 -2.9281 -0.1489
2.1077 -2.9119 -0.1470
2.1245 -2.9002 -0.1534
2.1350 -2.8921 -0.1494
2.1439 -2.8854 -0.1484
2.1511 -2.8805 -0.1520
2.1597 -2.8740 -0.1501
0.5158 -4.1580 -0.1497
0.6074 -4.0918 -0.1836
0.9412 -3.8328 -0.1740
1.1564 -3.6670 -0.1774
1.3248 -3.5370 -0.1782
1.4702 -3.4237 -0.1702
1.5796 -3.3388 -0.1678
1.6744 -3.2647 -0.1611
1.7433 -3.2119 -0.1641
1.8077 -3.1618 -0.1610
1.8612 -3.1203 -0.1600
1.9155 -3.0769 -0.1484
1.9437 -3.0572 -0.1649
1.9868 -3.0223 -0.1528
2.0046 -3.0082 -0.1498
2.0200 -2.9963 -0.1493
2.0466 -2.9760 -0.1517
2.0733 -2.9549 -0.1481
2.0842 -2.9468 -0.1499
2.0952 -2.9383 -0.1501
2.1068 -2.9289 -0.1474
2.1156 -2.9226 -0.1508
2.1243 -2.9163 -0.1538
2.1335 -2.9092 -0.1541
2.1517 -2.8949 -0.1518
2.1602 -2.8881 -0.1505
2.1682 -2.8819 -0.1500
-0.5634 -5.0733 0.1040
-0.4508 -5.0205 -0.1525
0.6955 -4.0917 -0.1562
0.9366 -3.9000 -0.1811
1.1793 -3.7020 -0.1732
1.2598 -3.6376 -0.1784
1.5019 -3.4383 -0.1590
1.6059 -3.3541 -0.1590
1.6387 -3.3290 -0.1688
1.6816 -3.2940 -0.1674
1.7222 -3.2606 -0.1648
1.7887 -3.2067 -0.1645
1.8306 -3.1706 -0.1505
1.9281 -3.0912 -0.1479
1.9424 -3.0808 -0.1562
1.9607 -3.0662 -0.1574
2.0280 -3.0112 -0.1548
2.0432 -2.9986 -0.1529
2.0584 -2.9857 -0.1491
2.0687 -2.9782 -0.1543
2.0810 -2.9682 -0.1540
2.0942 -2.9568 -0.1498
2.1046 -2.9486 -0.1512
2.1144 -2.9410 -0.1531
2.1235 -2.9340 -0.1556
2.1355 -2.9232 -0.1486
2.1441 -2.9164 -0.1500
2.1525 -2.9097 -0.1509
2.1618 -2.9017 -0.1478
2.1698 -2.8952 -0.1478
2.1762 -2.8907 -0.1524
-0.0872 -4.8488 -0.2454
0.4284 -4.3985 -0.1780
0.6603 -4.1999 -0.1708
0.9477 -3.9570 -0.1819
1.0835 -3.8405 -0.1762
1.1987 -3.7415 -0.1710
1.2921 -3.6617 -0.1692
1.3694 -3.5961 -0.1701
1.4320 -3.5436 -0.1748
1.5602 -3.4333 -0.1677
1.6134 -3.3875 -0.1650
1.7052 -3.3084 -0.1595
1.8026 -3.2264 -0.1647
1.8898 -3.1508 -0.1568
1.9125 -3.1316 -0.1573
1.9545 -3.0957 -0.1566
2.0094 -3.0485 -0.1537
2.0416 -3.0205 -0.1502
2.0541 -3.0103 -0.1530
2.0923 -2.9775 -0.1517
2.1032 -2.9684 -0.1528
2.1146 -2.9585 -0.1512
2.1444 -2.9329 -0.1502
2.1529 -2.9260 -0.1517
2.1625 -2.9172 -0.1481
2.1699 -2.9114 -0.1511
2.1787 -2.9033 -0.1475
2.1857 -2.8977 -0.1497
2.1925 -2.8922 -0.1515
0.6678 -4.1419 0.5425
0.5196 -4.2813 0.5052
-0.4108 -5.2323 -0.1311
-0.3442 -5.1883 -0.2139
0.7189 -4.2262 -0.1535
0.8639 -4.0982 -0.1626
1.1030 -3.8865 -0.1739
1.3116 -3.6987 -0.1672
1.4406 -3.5857 -0.1798
1.5806 -3.4575 -0.1642
1.6686 -3.3799 -0.1695
1.7931 -3.2661 -0.1569
1.8151 -3.2483 -0.1668
1.8804 -3.1877 -0.1548
1.8994 -3.1720 -0.1619
1.9274 -3.1457 -0.1548
1.9509 -3.1239 -0.1511
1.9669 -3.1107 -0.1569
1.9859 -3.0936 -0.1562
2.0025 -3.0790 -0.1577
2.0367 -3.0476 -0.1534
2.0511 -3.0348 -0.1537
2.0660 -3.0210 -0.1513
2.0904 -2.9996 -0.1534
2.1132 -2.9792 -0.1536
2.1247 -2.9685 -0.1512
2.1344 -2.9600 -0.1523
2.1450 -2.9501 -0.1495
2.1528 -2.9439 -0.1540
2.1621 -2.9352 -0.1523
2.1718 -2.9257 -0.1476
2.1797 -2.9188 -0.1483
2.1859 -2.9145 -0.1547
2.1939 -2.9067 -0.1521
2.2001 -2.9020 -0.1566
0.7432 -4.1415 0.5510
0.4981 -4.3777 0.5229
-0.1337 -5.0586 0.1022
-0.2678 -5.2455 -0.1921
-0.0364 -5.0357 -0.2292
0.3825 -4.6347 -0.1941
0.6940 -4.3359 -0.1650
0.8999 -4.1400 -0.1532
1.0575 -3.9904 -0.1466
1.1352 -3.9214 -0.1659
1.2993 -3.7707 -0.1834
1.4700 -3.6078 -0.1714
1.6920 -3.3974 -0.1628
1.7692 -3.3247 -0.1625
1.8358 -3.2617 -0.1600
1.8626 -3.2368 -0.1617
1.8872 -3.2141 -0.1639
1.9065 -3.1974 -0.1709
1.9334 -3.1710 -0.1653
1.9644 -3.1388 -0.1504
1.9800 -3.1253 -0.1564
2.0175 -3.0893 -0.1527
2.0329 -3.0752 -0.1542
2.0478 -3.0613 -0.1548
2.0780 -3.0318 -0.1495
2.1007 -3.0115 -0.1547
2.1259 -2.9863 -0.1472
2.1465 -2.9666 -0.1459
2.1628 -2.9529 -0.1532
2.1719 -2.9440 -0.1516
2.1822 -2.9327 -0.1436
2.1890 -2.9272 -0.1479
2.1959 -2.9212 -0.1507
2.2032 -2.9144 -0.1506
2.2098 -2.9086 -0.1526
-0.6578 -5.4514 1.1989
-0.4599 -5.2839 1.0756
-0.4505 -5.2914 1.0019
-0.4663 -5.3231 0.9317
-0.0862 -5.1327 0.1195
-0.4142 -5.5345 -0.2205
0.0123 -5.1116 -0.2148
0.9607 -4.1559 -0.1342
1.0361 -4.0877 -0.1619
1.1371 -3.9903 -0.1725
1.4892 -3.6417 -0.1700
1.6518 -3.4817 -0.1733
1.7873 -3.3447 -0.1598
1.8210 -3.3112 -0.1591
1.8506 -3.2822 -0.1600
1.8687 -3.2671 -0.1724
1.9014 -3.2329 -0.1641
1.9537 -3.1792 -0.1554
1.9733 -3.1602 -0.1570
1.9929 -3.1407 -0.1565
2.0256 -3.1094 -0.1609
2.0441 -3.0901 -0.1561
2.0607 -3.0728 -0.1526
2.0776 -3.0546 -0.1461
2.0890 -3.0444 -0.1504
2.1008 -3.0331 -0.1521
2.1145 -3.0184 -0.1474
2.1361 -2.9972 -0.1480
2.1444 -2.9905 -0.1541
2.1569 -2.9760 -0.1449
2.1731 -2.9614 -0.1513
2.1814 -2.9534 -0.1521
2.1894 -2.9455 -0.1525
2.1981 -2.9362 -0.1487
2.2056 -2.9285 -0.1479
2.2122 -2.9225 -0.1504
2.2187 -2.9166 -0.1525
-0.8946 -5.7099 1.6895
-0.6022 -5.4863 1.3685
-0.4513 -5.3762 1.1816
-0.2953 -5.2419 1.0704
-0.3316 -5.2948 1.0102
-0.3216 -5.3028 0.9367
-0.3109 -5.3104 0.8617
-0.2309 -5.4143 0.1159
-0.2859 -5.5219 -0.0848
-0.2180 -5.4730 -0.1716
0.4110 -4.8030 -0.1082
0.6578 -4.5474 -0.1124
0.9316 -4.2721 -0.1504
1.0347 -4.1696 -0.1691
1.1332 -4.0705 -0.1824
1.2259 -3.9763 -0.1913
1.5132 -3.6711 -0.1656
1.5618 -3.6230 -0.1751
1.7242 -3.4511 -0.1632
1.7645 -3.4090 -0.1626
1.7999 -3.3723 -0.1632
1.8334 -3.3374 -0.1626
1.8949 -3.2723 -0.1580
1.9178 -3.2493 -0.1615
1.9513 -3.2108 -0.1471
1.9673 -3.1963 -0.1556
1.9843 -3.1801 -0.1612
2.0104 -3.1499 -0.1490
2.0405 -3.1205 -0.1566
2.0714 -3.0881 -0.1556
2.0864 -3.0719 -0.1530
2.0987 -3.0596 -0.1549
2.1096 -3.0492 -0.1588
2.1216 -3.0366 -0.1583
2.1459 -3.0095 -0.1508
2.1571 -2.9968 -0.1467
2.1673 -2.9854 -0.1439
2.1750 -2.9788 -0.1490
2.1835 -2.9699 -0.1494
2.1918 -2.9612 -0.1491
2.2073 -2.9453 -0.1494
2.2137 -2.9396 -0.1537
2.2212 -2.9313 -0.1514
2.2281 -2.9237 -0.1498
-0.4358 -5.4265 1.4222
-0.3819 -5.4281 1.2014
-0.2980 -5.3619 1.1081
-0.2876 -5.3705 1.0355
-0.4290 -5.5365 0.9947
-0.3651 -5.4913 0.9049
0.8082 -4.2923 0.5930
0.8620 -4.2476 0.5412
0.1190 -5.2353 -0.0919
0.4566 -4.8664 -0.0948
0.9782 -4.3069 -0.1371
1.2592 -4.0119 -0.1832
1.5489 -3.6863 -0.1530
1.5878 -3.6482 -0.1691
1.6941 -3.5311 -0.1665
1.7807 -3.4353 -0.1629
1.8188 -3.3928 -0.1603
1.8518 -3.3565 -0.1596
1.9098 -3.2927 -0.1582
1.9821 -3.2124 -0.1543
2.0000 -3.1938 -0.1579
2.0355 -3.1553 -0.1595
2.0689 -3.1179 -0.1562
2.0832 -3.1024 -0.1567
2.1119 -3.0694 -0.1511
2.1235 -3.0570 -0.1524
2.1358 -3.0429 -0.1499
2.1458 -3.0326 -0.1525
2.1568 -3.0201 -0.1505
2.1754 -3.0002 -0.1524
2.1838 -2.9917 -0.1546
2.2166 -2.9545 -0.1501
2.2230 -2.9487 -0.1545
2.2304 -2.9396 -0.1511
2.2364 -2.9340 -0.1547
1.0115 -4.1447 0.5820
0.9936 -4.2312 0.3633
0.7171 -4.5698 0.2981
1.0885 -4.1484 0.2742
1.1212 -4.1238 0.2307
0.5469 -4.8767 -0.0697
0.7656 -4.6280 -0.0817
1.0253 -4.3223 -0.0617
1.0787 -4.2914 -0.1637
1.1715 -4.1895 -0.1810
1.2928 -4.0478 -0.1750
1.3764 -3.9532 -0.1810
1.4840 -3.8238 -0.1634
1.5734 -3.7161 -0.1485
1.6109 -3.6779 -0.1655
1.6569 -3.6270 -0.1723
1.7178 -3.5533 -0.1610
1.7975 -3.4619 -0.1631
1.8663 -3.3821 -0.1616
1.9197 -3.3217 -0.1658
1.9708 -3.2615 -0.1614
2.0182 -3.2035 -0.1503
2.0507 -3.1676 -0.1558
2.0684 -3.1461 -0.1522
2.0849 -3.1261 -0.1488
2.1004 -3.1070 -0.1450
2.1114 -3.0960 -0.1506
2.1348 -3.0698 -0.1533
2.1569 -3.0443 -0.1530
2.1678 -3.0308 -0.1501
2.1778 -3.0188 -0.1484
2.1859 -3.0105 -0.1523
2.1941 -3.0018 -0.1547
2.2123 -2.9781 -0.1454
2.2187 -2.9726 -0.1518
2.2261 -2.9637 -0.1508
2.2329 -2.9561 -0.1516
2.2401 -2.9469 -0.1484
1.1278 -4.1778 0.2853
1.1659 -4.1454 0.2425
0.6477 -4.8694 -0.0420
1.0232 -4.4203 -0.0657
1.1088 -4.3258 -0.0953
1.1098 -4.3451 -0.1574
1.4249 -3.9465 -0.1112
1.4303 -3.9559 -0.1597
1.4766 -3.9067 -0.1817
1.5701 -3.7874 -0.1648
1.6238 -3.7240 -0.1704
1.6653 -3.6771 -0.1815
1.7251 -3.6009 -0.1713
1.7791 -3.5317 -0.1604
1.8130 -3.4920 -0.1652
1.8854 -3.4017 -0.1584
1.9386 -3.3379 -0.1614
1.9857 -3.2807 -0.1616
2.0085 -3.2519 -0.1584
2.0283 -3.2276 -0.1578
2.0460 -3.2064 -0.1587
2.0652 -3.1813 -0.1537
2.0940 -3.1477 -0.1578
2.1066 -3.1335 -0.1613
2.1220 -3.1128 -0.1554
2.1484 -3.0782 -0.1478
2.1694 -3.0528 -0.1485
2.1789 -3.0416 -0.1497
2.1874 -3.0325 -0.1533
2.1971 -3.0197 -0.1501
2.2055 -3.0095 -0.1504
2.2214 -2.9902 -0.1503
2.2283 -2.9828 -0.1534
2.2362 -2.9713 -0.1479
2.2427 -2.9642 -0.1500
2.2493 -2.9559 -0.1493
-0.1207 -5.4540 1.4333
-0.1525 -5.5124 1.3841
1.2102 -4.1667 0.2543
1.2067 -4.1885 0.2061
1.1473 -4.2871 0.1438
0.7192 -4.8962 -0.0219
1.3364 -4.1175 -0.0605
1.3142 -4.1697 -0.1270
1.3453 -4.1443 -0.1675
1.4093 -4.0686 -0.1858
1.4919 -3.9624 -0.1854
1.5767 -3.8498 -0.1750
1.6322 -3.7803 -0.1799
1.7054 -3.6801 -0.1629
1.7457 -3.6308 -0.1697
1.7862 -3.5797 -0.1722
1.8244 -3.5308 -0.1727
1.8649 -3.4765 -0.1661
1.8971 -3.4347 -0.1651
1.9773 -3.3313 -0.1640
2.0010 -3.3001 -0.1617
2.0275 -3.2621 -0.1507
2.0413 -3.2480 -0.1608
2.0599 -3.2235 -0.1592
2.0752 -3.2049 -0.1622
2.0910 -3.1845 -0.1617
2.1075 -3.1615 -0.1568
2.1225 -3.1409 -0.1530
2.1597 -3.0919 -0.1496
2.1802 -3.0660 -0.1508
2.1898 -3.0539 -0.1512
2.1981 -3.0445 -0.1550
2.2087 -3.0276 -0.1458
2.2157 -3.0211 -0.1526
2.2235 -3.0114 -0.1535
2.2312 -3.0013 -0.1529
2.2388 -2.9907 -0.1504
2.2459 -2.9808 -0.1485
2.2524 -2.9729 -0.1495
2.2583 -2.9668 -0.1538
-0.2887 -5.6576 1.8660
-0.1517 -5.6414 1.4309
-0.1394 -5.6522 1.3605
-0.1043 -5.6358 1.2805
1.0545 -4.5610 0.0038
1.2932 -4.2288 0.0247
1.3246 -4.2027 -0.0175
1.3057 -4.2766 -0.1414
1.3803 -4.1823 -0.1591
1.4386 -4.1117 -0.1807
1.5235 -3.9954 -0.1781
1.5869 -3.9115 -0.1835
1.6546 -3.8176 -0.1783
1.7204 -3.7239 -0.1673
1.7523 -3.6868 -0.1828
1.8136 -3.5958 -0.1630
1.8518 -3.5437 -0.1622
1.8755 -3.5166 -0.1754
1.9476 -3.4121 -0.1581
1.9725 -3.3787 -0.1592
1.9914 -3.3561 -0.1673
2.0363 -3.2934 -0.1627
2.0770 -3.2344 -0.1530
2.0940 -3.2105 -0.1508
2.1089 -3.1904 -0.1511
2.1221 -3.1733 -0.1534
2.1327 -3.1621 -0.1614
2.1473 -3.1398 -0.1552
2.1611 -3.1186 -0.1485
2.1718 -3.1044 -0.1495
2.1831 -3.0877 -0.1460
2.1913 -3.0793 -0.1530
2.2016 -3.0636 -0.1487
2.2092 -3.0561 -0.1557
2.2262 -3.0321 -0.1536
2.2337 -3.0229 -0.1558
2.2419 -3.0093 -0.1498
2.2490 -2.9998 -0.1497
2.2555 -2.9916 -0.1514
2.2617 -2.9841 -0.1538
2.2681 -2.9742 -0.1510
2.2737 -2.9682 -0.1549
-0.3255 -5.9959 1.5572
-0.1379 -5.7897 1.4083
-0.2229 -5.9269 1.3726
1.3089 -4.1035 0.4868
1.3066 -4.2151 0.2319
1.3158 -4.2215 0.1854
1.2706 -4.3126 0.1239
1.3024 -4.2858 0.0795
1.3391 -4.2507 0.0382
1.3334 -4.2832 -0.0193
1.2135 -4.5043 -0.1345
1.2709 -4.4373 -0.1711
1.3752 -4.2893 -0.1751
1.4548 -4.1791 -0.1848
1.5559 -4.0278 -0.1704
1.6109 -3.9537 -0.1817
1.6526 -3.9013 -0.1991
1.7285 -3.7839 -0.1793
1.7861 -3.6965 -0.1686
1.8272 -3.6379 -0.1694
1.9019 -3.5288 -0.1650
1.9656 -3.4339 -0.1567
2.0110 -3.3708 -0.1617
2.0362 -3.3315 -0.1544
2.0530 -3.3099 -0.1603
2.0913 -3.2519 -0.1534
2.1072 -3.2289 -0.1530
2.1362 -3.1866 -0.1515
2.1484 -3.1702 -0.1539
2.1594 -3.1561 -0.1580
2.1715 -3.1378 -0.1560
2.1825 -3.1220 -0.1557
2.1941 -3.1028 -0.1498
2.2022 -3.0942 -0.1570
2.2121 -3.0788 -0.1541
2.2213 -3.0643 -0.1512
2.2295 -3.0527 -0.1516
2.2376 -3.0406 -0.1503
2.2442 -3.0339 -0.1570
2.2525 -3.0180 -0.1478
2.2595 -3.0076 -0.1467
2.2659 -2.9987 -0.1473
2.2718 -2.9917 -0.1509
2.2777 -2.9842 -0.1530
2.2836 -2.9748 -0.1509
-0.2361 -6.0030 1.6406
-0.2238 -6.0185 1.5667
-0.1610 -5.9678 1.4696
-0.0528 -5.8560 1.3554
1.3734 -4.0071 0.6617
1.3607 -4.1036 0.4948
1.3820 -4.0892 0.4556
1.3694 -4.2050 0.2466
1.3443 -4.2673 0.1944
1.3120 -4.3436 0.1357
1.2272 -4.5381 -0.0063
1.3013 -4.4403 -0.0388
1.2983 -4.5048 -0.1682
1.4227 -4.3117 -0.1598
1.4945 -4.2088 -0.1735
1.5811 -4.0746 -0.1683
1.6420 -3.9849 -0.1745
1.6854 -3.9259 -0.1898
1.7423 -3.8381 -0.1870
1.8022 -3.7408 -0.1735
1.8468 -3.6712 -0.1698
1.8893 -3.6032 -0.1626
1.9191 -3.5599 -0.1671
1.9760 -3.4740 -0.1683
2.0033 -3.4306 -0.1644
2.0267 -3.3947 -0.1635
2.0504 -3.3561 -0.1581
2.0752 -3.3127 -0.1458
2.0868 -3.3016 -0.1600
2.1342 -3.2289 -0.1585
2.1613 -3.1862 -0.1555
2.1739 -3.1660 -0.1531
2.1862 -3.1453 -0.1486
2.2064 -3.1145 -0.1489
2.2240 -3.0894 -0.1525
2.2329 -3.0747 -0.1498
2.2413 -3.0608 -0.1473
2.2483 -3.0525 -0.1523
2.2563 -3.0375 -0.1463
2.2629 -3.0288 -0.1491
2.2694 -3.0195 -0.1504
2.2758 -3.0090 -0.1489
2.2816 -3.0026 -0.1539
2.2875 -2.9930 -0.1525
2.2933 -2.9821 -0.1482
-0.0447 -5.8995 1.6019
-0.1994 -6.1437 1.6125
-0.1862 -6.1610 1.5360
1.3968 -4.0406 0.6726
1.3774 -4.1369 0.5434
1.3945 -4.1289 0.5045
1.3992 -4.1403 0.4665
1.4056 -4.1907 0.3457
1.4021 -4.2411 0.2566
1.4075 -4.2555 0.2104
1.1577 -4.7824 -0.0362
1.3345 -4.4947 -0.0310
1.4599 -4.3527 -0.1509
1.5172 -4.2718 -0.1742
1.6069 -4.1230 -0.1663
1.6733 -4.0165 -0.1673
1.7287 -3.9287 -0.1704
1.7687 -3.8702 -0.1827
1.8233 -3.7776 -0.1737
1.8639 -3.7124 -0.1742
1.9114 -3.6284 -0.1594
1.9330 -3.6013 -0.1751
1.9714 -3.5326 -0.1616
2.0013 -3.4815 -0.1559
2.0250 -3.4437 -0.1567
2.0459 -3.4111 -0.1591
2.0641 -3.3844 -0.1642
2.0885 -3.3384 -0.1513
2.1049 -3.3132 -0.1537
2.1194 -3.2921 -0.1582
2.1504 -3.2392 -0.1525
2.1619 -3.2234 -0.1580
2.1758 -3.1980 -0.1521
2.1983 -3.1614 -0.1516
2.2192 -3.1250 -0.1461
2.2270 -3.1161 -0.1535
2.2350 -3.1059 -0.1586
2.2435 -3.0915 -0.1573
2.2515 -3.0780 -0.1562
2.2668 -3.0493 -0.1484
2.2734 -3.0397 -0.1504
2.2796 -3.0309 -0.1530
2.2860 -3.0188 -0.1494
2.2918 -3.0103 -0.1510
2.2975 -3.0011 -0.1509
2.3027 -2.9947 -0.1551
-0.1512 -6.0990 1.9094
-0.1481 -6.2371 1.6471
1.5067 -3.9575 0.6277
1.4323 -4.1475 0.5135
1.4126 -4.3179 0.2634
1.4588 -4.2604 0.2239
1.4094 -4.3783 0.1630
1.0110 -5.1590 -0.0155
1.1780 -4.8823 -0.0333
1.2794 -4.7244 -0.0623
1.4025 -4.5177 -0.0702
1.4735 -4.4438 -0.1577
1.5281 -4.3647 -0.1844
1.6235 -4.1948 -0.1724
1.6933 -4.0740 -0.1705
1.7485 -3.9811 -0.1737
1.7931 -3.9087 -0.1812
1.8556 -3.7907 -0.1612
1.8910 -3.7328 -0.1664
1.9314 -3.6596 -0.1595
1.9633 -3.6047 -0.1590
1.9933 -3.5521 -0.1567
2.0424 -3.4681 -0.1572
2.0630 -3.4341 -0.1595
2.0820 -3.4028 -0.1619
2.1046 -3.3584 -0.1514
2.1214 -3.3295 -0.1514
2.1348 -3.3104 -0.1583
2.1506 -3.2813 -0.1547
2.1644 -3.2572 -0.1540
2.2016 -3.1903 -0.1483
2.2110 -3.1771 -0.1536
2.2211 -3.1595 -0.1530
2.2306 -3.1429 -0.1524
2.2398 -3.1257 -0.1499
2.2478 -3.1138 -0.1531
2.2557 -3.1006 -0.1538
2.2638 -3.0840 -0.1487
2.2706 -3.0747 -0.1530
2.2776 -3.0612 -0.1505
2.2841 -3.0508 -0.1516
2.2901 -3.0425 -0.1555
2.2962 -3.0308 -0.1532
2.3020 -3.0193 -0.1504
2.3074 -3.0121 -0.1539
-0.0416 -6.1362 1.8462
1.4890 -4.0372 0.6797
1.4698 -4.1659 0.5225
1.3326 -4.4294 0.5005
1.5101 -4.1611 0.4070
1.4935 -4.2153 0.3668
1.4691 -4.3133 0.2769
1.4964 -4.2886 0.2346
1.4865 -4.3368 0.1839
1.5858 -4.3242 -0.0990
1.6173 -4.2890 -0.1366
1.6679 -4.2082 -0.1561
1.7116 -4.1406 -0.1764
1.7719 -4.0293 -0.1743
1.8265 -3.9269 -0.1698
1.8577 -3.8800 -0.1864
1.9091 -3.7770 -0.1712
1.9481 -3.7024 -0.1654
2.0106 -3.5851 -0.1601
2.0590 -3.4970 -0.1604
2.1004 -3.4206 -0.1588
2.1154 -3.3981 -0.1670
2.1366 -3.3515 -0.1538
2.1501 -3.3304 -0.1597
2.1649 -3.3024 -0.1580
2.1913 -3.2527 -0.1554
2.2144 -3.2088 -0.1525
2.2251 -3.1876 -0.1496
2.2344 -3.1712 -0.1509
2.2441 -3.1512 -0.1468
2.2517 -3.1413 -0.1537
2.2598 -3.1270 -0.1543
2.2678 -3.1105 -0.1513
2.2751 -3.0972 -0.1514
2.2821 -3.0841 -0.1508
2.2886 -3.0741 -0.1536
2.2950 -3.0612 -0.1517
2.3009 -3.0514 -0.1535
2.3068 -3.0380 -0.1491
2.3123 -3.0284 -0.1497
2.3175 -3.0218 -0.1546
2.3226 -3.0138 -0.1567
0.0896 -6.1399 1.7697
1.5127 -4.1295 0.5983
1.4825 -4.2057 0.5714
1.4733 -4.2458 0.5371
1.4945 -4.2308 0.4967
1.5156 -4.2158 0.4566
1.5071 -4.3418 0.2877
1.5222 -4.3413 0.2431
1.5211 -4.3754 0.1939
1.1678 -5.1693 0.0303
1.1794 -5.1946 -0.0435
1.3052 -4.9654 -0.0677
1.5822 -4.4184 -0.0557
1.5656 -4.4985 -0.1295
1.6351 -4.3717 -0.1424
1.6899 -4.2759 -0.1592
1.7688 -4.1132 -0.1453
1.8079 -4.0482 -0.1622
1.8519 -3.9662 -0.1680
1.8879 -3.9026 -0.1778
1.9715 -3.7297 -0.1622
2.0285 -3.6197 -0.1638
2.0803 -3.5129 -0.1544
2.0917 -3.5053 -0.1771
2.1167 -3.4468 -0.1619
2.1358 -3.4065 -0.1571
2.1512 -3.3781 -0.1594
2.1651 -3.3533 -0.1630
2.1793 -3.3255 -0.1625
2.1931 -3.2964 -0.1591
2.2065 -3.2659 -0.1525
2.2277 -3.2268 -0.1557
2.2477 -3.1838 -0.1496
2.2562 -3.1689 -0.1520
2.2646 -3.1518 -0.1509
2.2723 -3.1379 -0.1526
2.2797 -3.1235 -0.1527
2.2873 -3.1032 -0.1440
2.2934 -3.0988 -0.1556
2.3000 -3.0826 -0.1504
2.3059 -3.0740 -0.1550
2.3118 -3.0632 -0.1559
2.3174 -3.0503 -0.1528
2.3277 -3.0301 -0.1528
2.3327 -3.0227 -0.1562
-0.0181 -6.4855 1.9066
-0.1580 -6.8653 1.7813
1.5324 -4.1316 0.6734
1.5148 -4.1861 0.6482
1.4517 -4.3815 0.5575
1.4489 -4.4153 0.5178
1.5015 -4.3392 0.4709
1.5865 -4.3122 0.2589
1.5946 -4.3274 0.2136
1.1462 -5.4561 -0.0627
1.3002 -5.1477 -0.0798
1.6155 -4.4698 -0.0490
1.5878 -4.5866 -0.1326
1.7657 -4.2033 -0.1140
1.8179 -4.0993 -0.1207
1.8304 -4.1049 -0.1652
1.8799 -4.0006 -0.1636
1.9593 -3.8354 -0.1636
1.9921 -3.7678 -0.1644
2.0184 -3.7176 -0.1709
2.0741 -3.5954 -0.1618
2.0997 -3.5356 -0.1528
2.1491 -3.4451 -0.1702
2.1679 -3.3984 -0.1595
2.1961 -3.3390 -0.1584
2.2214 -3.2817 -0.1519
2.2316 -3.2633 -0.1558
2.2421 -3.2402 -0.1540
2.2520 -3.2174 -0.1509
2.2608 -3.1996 -0.1518
2.2687 -3.1876 -0.1580
2.2773 -3.1654 -0.1517
2.2847 -3.1514 -0.1537
2.2918 -3.1374 -0.1549
2.2988 -3.1205 -0.1515
2.3052 -3.1077 -0.1523
2.3114 -3.0934 -0.1503
2.3172 -3.0839 -0.1539
2.3228 -3.0729 -0.1549
2.3281 -3.0591 -0.1509
2.3331 -3.0484 -0.1507
2.3382 -3.0415 -0.1558
2.3431 -3.0339 -0.1593
-0.1059 -6.7752 2.1081
-0.0383 -6.7114 1.9955
1.5462 -4.2632 0.5915
1.5530 -4.2764 0.5547
1.5837 -4.2401 0.5131
1.5909 -4.2532 0.4755
1.5917 -4.2811 0.4371
1.5924 -4.3105 0.3970
1.6457 -4.3224 0.2277
1.2379 -5.4338 -0.0334
1.4064 -5.0633 -0.0401
1.6684 -4.4709 -0.0298
1.7221 -4.3689 -0.0527
1.7962 -4.2025 -0.0512
1.7700 -4.3253 -0.1345
1.8177 -4.2292 -0.1480
1.8542 -4.1636 -0.1681
1.8992 -4.0656 -0.1715
1.9392 -3.9787 -0.1743
1.9801 -3.8827 -0.1680
2.0165 -3.7959 -0.1609
2.0449 -3.7332 -0.1617
2.0950 -3.6204 -0.1601
2.1205 -3.5543 -0.1484
2.1689 -3.4579 -0.1634
2.1885 -3.4001 -0.1451
2.2004 -3.3797 -0.1530
2.2129 -3.3535 -0.1550
2.2257 -3.3208 -0.1498
2.2466 -3.2773 -0.1538
2.2654 -3.2371 -0.1560
2.2739 -3.2190 -0.1572
2.2825 -3.1962 -0.1523
2.2901 -3.1801 -0.1535
2.2973 -3.1649 -0.1547
2.3109 -3.1296 -0.1481
2.3170 -3.1212 -0.1549
2.3229 -3.1059 -0.1522
2.3285 -3.0931 -0.1517
2.3390 -3.0717 -0.1545
2.3438 -3.0585 -0.1511
2.3486 -3.0500 -0.1540
1.6130 -4.1643 0.6543
1.6109 -4.1945 0.6245
1.6178 -4.2066 0.5906
1.6251 -4.2186 0.5557
1.6077 -4.2868 0.5244
1.6312 -4.2644 0.4844
1.3459 -5.0093 0.4121
1.3450 -5.0616 0.3530
1.4077 -5.2527 -0.0505
1.7290 -4.4439 -0.0049
1.7639 -4.3895 -0.0393
1.7751 -4.4070 -0.0917
1.7779 -4.4535 -0.1546
1.8278 -4.3450 -0.1678
1.8790 -4.2254 -0.1713
1.9288 -4.1023 -0.1669
1.9566 -4.0528 -0.1873
2.0089 -3.9043 -0.1598
2.0687 -3.7595 -0.1582
2.1179 -3.6376 -0.1536
2.1552 -3.5528 -0.1590
2.1873 -3.4786 -0.1622
2.2167 -3.4024 -0.1554
2.2402 -3.3484 -0.1582
2.2615 -3.2939 -0.1541
2.2712 -3.2674 -0.1503
2.2800 -3.2463 -0.1502
2.2877 -3.2354 -0.1592
2.2955 -3.2188 -0.1616
2.3031 -3.1982 -0.1587
2.3102 -3.1754 -0.1520
2.3168 -3.1626 -0.1554
2.3345 -3.1162 -0.1509
2.3400 -3.1047 -0.1527
2.3451 -3.0934 -0.1540
2.3500 -3.0814 -0.1536
2.3545 -3.0687 -0.1515
2.3590 -3.0585 -0.1522
2.3637 -3.0514 -0.1571
1.6828 -4.1273 0.6193
1.6357 -4.3268 0.5354
1.6650 -4.2897 0.4940
1.7425 -4.5029 0.0486
1.7858 -4.4190 0.0184
1.8027 -4.4186 -0.0283
1.7381 -4.7009 -0.1525
1.7775 -4.6313 -0.1872
1.8544 -4.4178 -0.1713
1.9148 -4.2522 -0.1611
1.9603 -4.1338 -0.1600
1.9832 -4.1004 -0.1879
2.0332 -3.9455 -0.1603
2.0612 -3.8780 -0.1654
2.0873 -3.8130 -0.1681
2.1156 -3.7302 -0.1579
2.1318 -3.7042 -0.1749
2.1556 -3.6320 -0.1632
2.2058 -3.5013 -0.1622
2.2350 -3.4123 -0.1476
2.2457 -3.3913 -0.1549
2.2572 -3.3583 -0.1513
2.2670 -3.3361 -0.1548
2.2762 -3.3184 -0.1612
2.2857 -3.2863 -0.1532
2.2939 -3.2708 -0.1592
2.3023 -3.2359 -0.1450
2.3096 -3.2199 -0.1481
2.3165 -3.2099 -0.1567
2.3232 -3.1909 -0.1547
2.3356 -3.1625 -0.1587
2.3463 -3.1273 -0.1507
2.3565 -3.1041 -0.1540
2.3652 -3.0766 -0.1485
2.3694 -3.0663 -0.1492
2.3739 -3.0583 -0.1530
0.1236 -6.9328 2.2529
-0.1897 -7.6083 2.4495
0.4325 -6.7535 1.5828
0.4532 -6.7784 1.5019
1.8021 -4.3097 0.2258
1.7624 -4.5426 0.1066
1.8111 -4.6295 -0.1120
1.8097 -4.7113 -0.1883
1.8776 -4.5145 -0.1814
1.9378 -4.3342 -0.1699
1.9906 -4.1722 -0.1556
2.0118 -4.1441 -0.1862
2.0563 -3.9979 -0.1651
2.0811 -3.9406 -0.1766
2.1379 -3.7628 -0.1581
2.1580 -3.7093 -0.1609
2.1751 -3.6693 -0.1686
2.1950 -3.6029 -0.1581
2.2255 -3.5161 -0.1566
2.2386 -3.4806 -0.1577
2.2513 -3.4418 -0.1545
2.2730 -3.3833 -0.1565
2.2924 -3.3206 -0.1483
2.3007 -3.3011 -0.1521
2.3162 -3.2611 -0.1552
2.3423 -3.1866 -0.1539
2.3481 -3.1727 -0.1561
2.3533 -3.1547 -0.1527
2.3582 -3.1377 -0.1494
2.3632 -3.1259 -0.1514
2.3680 -3.1150 -0.1540
2.3763 -3.0886 -0.1510
2.3802 -3.0764 -0.1497
2.3848 -3.0700 -0.1559
0.2278 -6.9474 2.2559
-0.1261 -7.7438 2.5035
1.8436 -4.3131 0.2380
1.4988 -5.6805 -0.0452
1.8760 -4.6515 -0.1494
1.9143 -4.5650 -0.1758
1.9551 -4.4586 -0.1914
2.0161 -4.2385 -0.1608
2.0520 -4.1308 -0.1621
2.0863 -4.0204 -0.1565
2.1058 -3.9872 -0.1795
2.1597 -3.8034 -0.1620
2.1970 -3.6960 -0.1673
2.2143 -3.6407 -0.1647
2.2297 -3.5925 -0.1635
2.2569 -3.5049 -0.1592
2.2689 -3.4646 -0.1558
2.2795 -3.4365 -0.1593
2.2991 -3.3730 -0.1558
2.3159 -3.3214 -0.1556
2.3235 -3.2885 -0.1467
2.3305 -3.2665 -0.1462
2.3372 -3.2474 -0.1471
2.3436 -3.2319 -0.1507
2.3495 -3.2131 -0.1500
2.3609 -3.1846 -0.1554
2.3656 -3.1655 -0.1512
2.3751 -3.1378 -0.1523
2.3797 -3.1259 -0.1540
2.3833 -3.1100 -0.1497
2.3873 -3.0983 -0.1502
2.3917 -3.0900 -0.1546
1.3865 -5.0423 0.9893
1.4414 -4.9496 0.9176
1.4217 -5.0497 0.8900
1.7972 -4.1583 0.6063
1.8897 -4.2948 0.2517
1.7580 -5.0334 0.0108
1.8457 -4.7493 0.0053
1.8832 -4.6693 -0.0303
1.9408 -4.4873 -0.0376
1.9474 -4.6393 -0.1767
1.9909 -4.5070 -0.1863
2.0430 -4.3092 -0.1665
2.0822 -4.1679 -0.1577
2.1097 -4.0872 -0.1659
2.1336 -4.0200 -0.1758
2.1569 -3.9485 -0.1804
2.1825 -3.8458 -0.1661
2.2197 -3.7201 -0.1643
2.2347 -3.6773 -0.1699
2.2494 -3.6273 -0.1690
2.2759 -3.5241 -0.1568
2.2871 -3.4849 -0.1551
2.2973 -3.4498 -0.1543
2.3155 -3.3936 -0.1577
2.3315 -3.3393 -0.1566
2.3388 -3.3185 -0.1593
2.3514 -3.2640 -0.1491
2.3579 -3.2536 -0.1583
2.3687 -3.2137 -0.1549
2.3780 -3.1763 -0.1497
2.3868 -3.1474 -0.1500
2.3912 -3.1353 -0.1518
2.3951 -3.1224 -0.1520
2.3983 -3.1072 -0.1482
2.4018 -3.0954 -0.1482
1.4544 -4.9217 1.0553
1.4610 -4.9507 1.0173
1.8135 -4.1814 0.6473
1.9250 -4.3123 0.2619
1.9297 -4.3564 0.2179
