ply
format ascii 1.0
element vertex 2102
property float x
property float y
property float z
end_header
4.7140 -4.0446 -0.2649
4.4625 -3.8426 -0.2547
4.3247 -3.7445 -0.2733
4.1550 -3.6010 -0.2524
4.0521 -3.5220 -0.2552
3.9485 -3.4341 -0.2418
3.8914 -3.3969 -0.2561
3.8586 -3.3711 -0.2558
3.8200 -3.3360 -0.2463
3.7723 -3.3018 -0.2524
3.7542 -3.2915 -0.2599
3.7286 -3.2694 -0.2559
3.6860 -3.2347 -0.2531
3.6476 -3.2025 -0.2489
3.6167 -3.1791 -0.2503
3.6036 -3.1702 -0.2531
3.5897 -3.1595 -0.2533
3.5636 -3.1386 -0.2524
3.5205 -3.1070 -0.2563
4.9759 -3.6571 0.7758
4.9577 -3.6630 0.7370
4.9040 -3.6469 0.6892
4.9007 -3.6618 0.6546
4.9104 -3.6853 0.6221
4.8992 -3.6959 0.5844
4.8738 -3.6972 0.5441
4.8842 -3.7225 0.5091
4.8803 -3.7386 0.4710
4.8538 -3.7393 0.4303
4.8008 -3.7209 0.3882
4.7384 -3.6948 0.3475
4.7207 -3.7006 0.3097
4.7397 -3.7339 0.2714
4.7876 -3.7905 0.2297
4.7891 -3.8127 0.1875
5.6061 -4.5917 -0.1524
4.9393 -4.1118 -0.1859
4.8570 -4.0941 -0.2729
4.7232 -3.9962 -0.2766
4.4597 -3.7914 -0.2594
4.3004 -3.6752 -0.2643
4.1470 -3.5541 -0.2507
4.0507 -3.4855 -0.2570
3.9907 -3.4349 -0.2452
3.9221 -3.3880 -0.2536
3.8903 -3.3657 -0.2564
3.8537 -3.3361 -0.2517
3.8242 -3.3141 -0.2516
3.7739 -3.2781 -0.2545
3.6867 -3.2126 -0.2533
3.6508 -3.1857 -0.2529
3.6203 -3.1640 -0.2551
3.5903 -3.1401 -0.2521
3.5663 -3.1242 -0.2559
3.5419 -3.1045 -0.2529
3.5207 -3.0887 -0.2528
5.0355 -3.6124 0.8484
5.0334 -3.6275 0.8142
4.9988 -3.6243 0.7701
4.9294 -3.6007 0.7174
4.9337 -3.6195 0.6849
4.9365 -3.6379 0.6510
4.9254 -3.6482 0.6135
4.9142 -3.6586 0.5756
4.8817 -3.6557 0.5341
4.8853 -3.6757 0.4980
4.8668 -3.6817 0.4584
4.8551 -3.6923 0.4195
4.8432 -3.7029 0.3801
4.8113 -3.6998 0.3398
4.7696 -3.7480 0.1791
5.6888 -4.5384 -0.1084
5.6386 -4.5345 -0.1737
5.0188 -4.1177 -0.2198
4.6494 -3.8246 -0.1550
4.6174 -3.8197 -0.1917
4.6231 -3.8486 -0.2430
4.5390 -3.7951 -0.2556
4.4629 -3.7466 -0.2669
4.2735 -3.6060 -0.2534
4.0603 -3.4615 -0.2670
3.9688 -3.3949 -0.2633
3.8961 -3.3434 -0.2634
3.8568 -3.3119 -0.2559
3.8296 -3.2938 -0.2582
3.7760 -3.2553 -0.2573
3.7485 -3.2335 -0.2523
3.7280 -3.2199 -0.2543
3.6846 -3.1868 -0.2494
3.6662 -3.1735 -0.2489
3.6509 -3.1641 -0.2517
3.6339 -3.1513 -0.2503
3.6208 -3.1440 -0.2543
3.5908 -3.1210 -0.2508
3.5664 -3.1049 -0.2532
3.5544 -3.0962 -0.2529
3.5436 -3.0892 -0.2541
3.5322 -3.0803 -0.2525
4.9446 -3.5644 0.7096
4.9415 -3.5785 0.6750
4.9162 -3.5802 0.6349
4.9117 -3.5938 0.5992
4.9222 -3.6167 0.5655
4.9189 -3.6318 0.5284
4.9073 -3.6422 0.4895
4.8817 -3.6439 0.4490
4.8563 -3.6456 0.4087
4.8378 -3.6516 0.3692
4.8193 -3.6577 0.3297
4.8008 -3.6637 0.2901
4.7823 -3.6697 0.2506
4.7372 -3.6571 0.2126
4.7380 -3.6766 0.1722
4.8472 -3.7968 0.0722
4.8891 -3.8976 -0.0832
4.8923 -3.9247 -0.1366
4.7749 -3.8541 -0.1545
4.6711 -3.8146 -0.2196
4.5656 -3.7467 -0.2261
4.4882 -3.7006 -0.2388
4.3335 -3.6018 -0.2500
4.2911 -3.5818 -0.2683
3.9223 -3.3284 -0.2570
3.8459 -3.2717 -0.2456
3.7979 -3.2432 -0.2537
3.7446 -3.2042 -0.2472
3.7287 -3.1972 -0.2550
3.7109 -3.1871 -0.2589
3.6880 -3.1692 -0.2536
3.6657 -3.1511 -0.2470
3.6499 -3.1412 -0.2487
3.6380 -3.1367 -0.2560
3.6228 -3.1266 -0.2563
3.6071 -3.1148 -0.2538
3.5917 -3.1029 -0.2505
3.5810 -3.0980 -0.2553
3.5664 -3.0859 -0.2504
3.5566 -3.0815 -0.2552
3.5326 -3.0631 -0.2502
5.0274 -3.5632 0.7186
4.9705 -3.5489 0.6699
4.9449 -3.5508 0.6294
4.9569 -3.5734 0.5962
4.9609 -3.5921 0.5604
4.9493 -3.6023 0.5213
4.9304 -3.6085 0.4810
4.9116 -3.6146 0.4408
4.8780 -3.6118 0.3995
4.8671 -3.6227 0.3600
4.8407 -3.6240 0.3197
4.8295 -3.6349 0.2798
4.7718 -3.6336 0.2009
4.7396 -3.6304 0.1626
4.8879 -3.7729 0.0562
4.9073 -3.8086 0.0044
4.8782 -3.8098 -0.0395
4.8493 -3.8110 -0.0830
4.8684 -3.8486 -0.1394
4.8917 -3.9159 -0.2555
4.7648 -3.8385 -0.2634
4.5005 -3.6643 -0.2507
4.3525 -3.5764 -0.2652
4.0866 -3.4027 -0.2560
3.9713 -3.3353 -0.2694
3.9157 -3.2922 -0.2525
3.8488 -3.2482 -0.2496
3.7976 -3.2174 -0.2537
3.7735 -3.2024 -0.2545
3.7441 -3.1800 -0.2465
3.7053 -3.1570 -0.2503
3.6668 -3.1312 -0.2476
3.6354 -3.1122 -0.2498
3.6243 -3.1085 -0.2573
3.5955 -3.0896 -0.2561
3.5823 -3.0811 -0.2558
3.5584 -3.0661 -0.2564
3.5457 -3.0565 -0.2530
3.5368 -3.0530 -0.2578
3.5265 -3.0463 -0.2577
4.9934 -3.5149 0.6632
4.9750 -3.5209 0.6239
4.9951 -3.5472 0.5915
5.0237 -3.5787 0.5586
5.0625 -3.6167 0.5249
5.0686 -3.6378 0.4849
4.9540 -3.6085 0.3934
4.9183 -3.6414 0.2682
4.9070 -3.6531 0.2256
4.8780 -3.6927 0.0943
4.9298 -3.7477 0.0395
4.9341 -3.7721 -0.0106
4.9125 -3.7791 -0.0567
4.8823 -3.7800 -0.1006
4.8777 -3.7993 -0.1513
4.9707 -3.8915 -0.2345
4.8507 -3.8258 -0.2498
4.7658 -3.7842 -0.2719
4.5513 -3.6587 -0.2807
4.3199 -3.5067 -0.2523
4.2051 -3.4428 -0.2646
4.0942 -3.3759 -0.2645
3.9827 -3.3012 -0.2475
3.9169 -3.2649 -0.2551
3.8517 -3.2249 -0.2535
3.7953 -3.1900 -0.2514
3.7651 -3.1687 -0.2444
3.7453 -3.1583 -0.2479
3.7047 -3.1342 -0.2489
3.6869 -3.1240 -0.2503
3.6678 -3.1116 -0.2482
3.6374 -3.0949 -0.2518
3.6263 -3.0914 -0.2592
3.6069 -3.0755 -0.2496
3.5832 -3.0637 -0.2552
3.5569 -3.0456 -0.2501
3.5470 -3.0408 -0.2530
5.0746 -3.5561 0.5543
5.1162 -3.5943 0.5196
5.1422 -3.6255 0.4804
5.1992 -3.6743 0.4415
5.0901 -3.6339 0.3896
5.0163 -3.6113 0.3432
4.9467 -3.5900 0.2995
4.9755 -3.6246 0.2562
4.9391 -3.6217 0.2135
4.9348 -3.6378 0.1692
4.9392 -3.6597 0.1231
4.9267 -3.6715 0.0778
4.9918 -3.7331 0.0192
4.9610 -3.7345 -0.0259
4.9218 -3.7300 -0.0686
4.8753 -3.7201 -0.1082
5.0856 -3.8872 -0.2213
5.0711 -3.9022 -0.2768
4.8767 -3.7878 -0.2678
4.7383 -3.7095 -0.2688
4.6194 -3.6421 -0.2696
4.5159 -3.5834 -0.2702
4.3227 -3.4686 -0.2586
4.2448 -3.4223 -0.2540
4.1933 -3.3959 -0.2610
4.0810 -3.3307 -0.2578
3.9924 -3.2802 -0.2577
3.9154 -3.2354 -0.2552
3.8787 -3.2128 -0.2513
3.8520 -3.1991 -0.2548
3.8259 -3.1851 -0.2569
3.7961 -3.1664 -0.2527
3.7719 -3.1527 -0.2528
3.7288 -3.1287 -0.2542
3.7069 -3.1151 -0.2515
3.6873 -3.1034 -0.2502
3.6704 -3.0942 -0.2513
3.6528 -3.0836 -0.2498
3.6383 -3.0762 -0.2520
3.6241 -3.0688 -0.2534
3.6097 -3.0605 -0.2532
3.5821 -3.0436 -0.2505
3.5721 -3.0400 -0.2554
3.5600 -3.0327 -0.2544
3.5388 -3.0215 -0.2563
5.9577 -3.6401 1.3849
5.9989 -3.6736 1.3567
6.1004 -3.7310 1.3490
6.2531 -3.8103 1.3554
5.5940 -3.7349 0.6665
5.3635 -3.6450 0.5832
5.2426 -3.6047 0.5223
5.2410 -3.6220 0.4774
5.3285 -3.6848 0.4380
5.5955 -3.8425 0.4017
5.1135 -3.6300 0.2882
5.0275 -3.6018 0.2437
5.0066 -3.6086 0.1991
5.0035 -3.6256 0.1530
5.0267 -3.6582 0.1029
5.0606 -3.6982 0.0487
5.0013 -3.6832 0.0071
4.9794 -3.6903 -0.0397
4.9311 -3.6809 -0.0804
4.9269 -3.6990 -0.1311
5.0646 -3.8108 -0.2253
5.0103 -3.7983 -0.2665
4.9128 -3.7555 -0.2897
4.5978 -3.5775 -0.2669
4.3932 -3.4648 -0.2595
4.3070 -3.4167 -0.2545
4.2313 -3.3743 -0.2501
4.2023 -3.3670 -0.2705
4.1252 -3.3200 -0.2564
4.0980 -3.3122 -0.2731
3.9481 -3.2244 -0.2546
3.8803 -3.1879 -0.2541
3.7999 -3.1462 -0.2576
3.7669 -3.1242 -0.2469
3.7294 -3.1072 -0.2545
3.7097 -3.0968 -0.2549
3.6883 -3.0837 -0.2509
3.6719 -3.0756 -0.2527
3.6526 -3.0635 -0.2482
3.6413 -3.0605 -0.2558
3.6233 -3.0487 -0.2504
3.6121 -3.0448 -0.2558
3.5985 -3.0375 -0.2557
3.5857 -3.0308 -0.2560
3.5738 -3.0246 -0.2566
3.5612 -3.0170 -0.2545
3.5498 -3.0107 -0.2539
3.5409 -3.0077 -0.2583
6.1123 -3.6681 1.3338
6.0105 -3.6501 1.2484
5.9312 -3.6393 1.1733
6.0294 -3.6951 1.1568
5.7203 -3.7079 0.7229
5.6198 -3.6837 0.6549
5.5514 -3.6727 0.5946
5.4860 -3.6623 0.5365
5.4112 -3.6468 0.4795
5.3872 -3.6546 0.4283
5.1229 -3.5806 0.2763
5.0549 -3.5637 0.2316
5.0423 -3.5751 0.1859
5.0860 -3.6170 0.1347
5.0732 -3.6292 0.0865
5.0703 -3.6472 0.0364
5.0108 -3.6333 -0.0049
4.9889 -3.6404 -0.0518
4.9405 -3.6318 -0.0923
4.9102 -3.6335 -0.1360
4.8801 -3.6352 -0.1792
4.9096 -3.6743 -0.2419
4.8542 -3.6599 -0.2766
4.7273 -3.5972 -0.2795
4.5385 -3.4897 -0.2471
4.3875 -3.4194 -0.2617
4.2442 -3.3474 -0.2619
4.2022 -3.3310 -0.2741
4.1256 -3.2869 -0.2598
4.0235 -3.2332 -0.2539
3.9610 -3.2072 -0.2678
3.8805 -3.1619 -0.2555
3.8524 -3.1484 -0.2570
3.8249 -3.1346 -0.2571
3.7762 -3.1106 -0.2584
3.7506 -3.0962 -0.2545
3.7304 -3.0865 -0.2557
3.6909 -3.0660 -0.2541
3.6545 -3.0462 -0.2503
3.6421 -3.0421 -0.2558
3.6268 -3.0341 -0.2551
3.6123 -3.0266 -0.2545
3.5977 -3.0184 -0.2521
3.5860 -3.0133 -0.2542
3.5745 -3.0081 -0.2557
3.5623 -3.0015 -0.2545
3.5532 -2.9988 -0.2593
3.5411 -2.9913 -0.2558
6.0784 -3.6453 1.1532
5.9954 -3.6346 1.0772
6.0224 -3.6636 1.0335
6.1111 -3.7166 1.0034
6.6264 -3.9598 1.0016
6.4279 -3.9063 0.8944
6.0737 -3.7869 0.7674
5.5086 -3.5930 0.5739
5.3728 -3.5529 0.5100
5.3496 -3.5605 0.4604
5.4098 -3.6055 0.4158
5.8006 -3.8034 0.3784
5.7894 -3.8212 0.3166
5.1224 -3.5266 0.2645
5.0640 -3.5157 0.2200
5.0984 -3.5501 0.1710
5.1447 -3.5917 0.1179
5.1641 -3.6208 0.0642
5.1722 -3.6449 0.0099
5.1377 -3.6467 -0.0385
5.1790 -3.6900 -0.1024
5.0128 -3.6181 -0.1195
4.9720 -3.6148 -0.1623
4.9066 -3.5967 -0.1963
4.8680 -3.5936 -0.2365
4.8156 -3.5815 -0.2703
4.6887 -3.5220 -0.2710
4.5518 -3.4532 -0.2593
4.4505 -3.4043 -0.2562
4.3865 -3.3779 -0.2662
4.2311 -3.3018 -0.2580
4.1236 -3.2525 -0.2616
4.0263 -3.2055 -0.2585
3.9587 -3.1771 -0.2676
3.8229 -3.1087 -0.2556
3.7723 -3.0842 -0.2539
3.7418 -3.0658 -0.2431
3.7272 -3.0619 -0.2510
3.6924 -3.0473 -0.2556
3.6559 -3.0285 -0.2513
3.6265 -3.0152 -0.2529
3.6141 -3.0106 -0.2561
3.6005 -3.0040 -0.2556
3.5742 -2.9905 -0.2526
3.5639 -2.9867 -0.2555
3.5548 -2.9842 -0.2602
3.5413 -2.9752 -0.2531
6.1347 -3.6739 0.9341
6.0255 -3.6545 0.8542
5.9967 -3.6639 0.7927
6.0457 -3.7028 0.7440
5.9209 -3.6756 0.6670
5.6016 -3.5700 0.5705
5.5909 -3.5841 0.5178
5.5398 -3.6007 0.4087
5.7606 -3.7148 0.3610
5.9947 -3.8390 0.3010
5.2225 -3.5180 0.2506
5.1394 -3.4978 0.2052
5.1473 -3.5189 0.1561
5.1754 -3.5501 0.1033
5.1628 -3.5626 0.0530
5.1824 -3.5913 -0.0031
5.2971 -3.6690 -0.0797
5.4308 -3.7596 -0.1688
5.3346 -3.7322 -0.2102
5.0476 -3.6001 -0.1932
4.9420 -3.5620 -0.2163
4.8858 -3.5498 -0.2512
4.7647 -3.4993 -0.2587
4.6530 -3.4519 -0.2631
4.5644 -3.4159 -0.2713
4.4527 -3.3639 -0.2628
4.3765 -3.3315 -0.2659
4.2974 -3.2956 -0.2626
4.2278 -3.2641 -0.2599
4.1707 -3.2393 -0.2607
4.1073 -3.2088 -0.2533
4.0596 -3.1878 -0.2530
4.0356 -3.1826 -0.2682
3.9070 -3.1208 -0.2532
3.8222 -3.0844 -0.2554
3.7940 -3.0707 -0.2519
3.7703 -3.0602 -0.2514
3.7514 -3.0533 -0.2554
3.7300 -3.0436 -0.2544
3.7126 -3.0370 -0.2575
3.6945 -3.0292 -0.2579
3.6600 -3.0138 -0.2570
3.6453 -3.0079 -0.2586
3.6304 -3.0013 -0.2585
3.6148 -2.9934 -0.2556
3.5986 -2.9842 -0.2498
3.5893 -2.9827 -0.2568
3.5778 -2.9780 -0.2581
3.5650 -2.9715 -0.2554
3.5550 -2.9679 -0.2578
3.5438 -2.9624 -0.2562
3.5359 -2.9612 -0.2623
6.0493 -3.6523 0.6672
5.9047 -3.6198 0.5902
5.8225 -3.6090 0.5241
5.6897 -3.6168 0.3436
5.8890 -3.7185 0.2842
5.7676 -3.6902 0.2225
5.1891 -3.4651 0.1909
5.2972 -3.5478 0.0785
5.2729 -3.5557 0.0266
5.4826 -3.6723 -0.0642
5.5769 -3.7389 -0.1462
5.6135 -3.7801 -0.2225
5.4583 -3.7274 -0.2536
5.2204 -3.6302 -0.2528
5.0249 -3.5501 -0.2520
4.9037 -3.5056 -0.2660
4.7521 -3.4422 -0.2614
4.6360 -3.3952 -0.2627
4.5407 -3.3577 -0.2666
4.4370 -3.3133 -0.2604
4.3752 -3.2915 -0.2701
4.2934 -3.2562 -0.2646
4.2431 -3.2387 -0.2732
4.1656 -3.2027 -0.2607
4.1202 -3.1858 -0.2653
4.0580 -3.1567 -0.2544
4.0281 -3.1480 -0.2646
3.9057 -3.0942 -0.2533
3.8781 -3.0841 -0.2565
3.8491 -3.0721 -0.2562
3.8175 -3.0574 -0.2508
3.7938 -3.0481 -0.2520
3.7732 -3.0408 -0.2552
3.7518 -3.0323 -0.2558
3.7327 -3.0253 -0.2579
3.7099 -3.0143 -0.2530
3.6918 -3.0069 -0.2531
3.6746 -3.0000 -0.2532
3.6613 -2.9962 -0.2581
3.6427 -2.9868 -0.2527
3.6289 -2.9817 -0.2543
3.6149 -2.9759 -0.2541
3.6028 -2.9718 -0.2563
3.5884 -2.9647 -0.2527
3.5789 -2.9626 -0.2581
3.5676 -2.9582 -0.2587
3.5575 -2.9548 -0.2609
3.5453 -2.9485 -0.2570
5.7185 -3.5047 0.4988
5.5446 -3.4610 0.4325
5.8199 -3.5984 0.3303
5.3087 -3.4751 0.1191
5.4922 -3.5890 -0.0167
5.7944 -3.7404 -0.1308
5.6736 -3.7107 -0.1790
5.6437 -3.7204 -0.2428
5.2313 -3.5728 -0.2667
4.7333 -3.3833 -0.2615
4.6153 -3.3385 -0.2605
4.5224 -3.3046 -0.2640
4.4268 -3.2674 -0.2606
4.3657 -3.2474 -0.2698
4.2829 -3.2139 -0.2628
4.1634 -3.1688 -0.2627
4.0465 -3.1200 -0.2484
4.0477 -3.1317 -0.2826
3.9832 -3.1008 -0.2623
3.9340 -3.0783 -0.2506
3.9044 -3.0681 -0.2534
3.8504 -3.0494 -0.2584
3.7942 -3.0264 -0.2528
3.7553 -3.0141 -0.2602
3.7330 -3.0050 -0.2580
3.7131 -2.9972 -0.2572
3.6919 -2.9878 -0.2527
3.6754 -2.9818 -0.2534
3.6428 -2.9689 -0.2516
3.6301 -2.9652 -0.2549
3.6050 -2.9570 -0.2587
3.5931 -2.9530 -0.2603
3.5800 -2.9473 -0.2581
3.5662 -2.9404 -0.2529
3.5566 -2.9379 -0.2561
3.5472 -2.9352 -0.2589
3.5394 -2.9342 -0.2648
5.5554 -3.4039 0.4188
6.3057 -3.8174 -0.0683
6.1920 -3.7988 -0.1343
6.0152 -3.7533 -0.1848
6.0030 -3.7731 -0.2610
5.6061 -3.6311 -0.2472
5.3428 -3.5397 -0.2469
5.1724 -3.4846 -0.2596
4.8648 -3.3808 -0.2687
4.6281 -3.2999 -0.2726
4.4377 -3.2335 -0.2714
4.2754 -3.1744 -0.2626
4.1402 -3.1237 -0.2504
4.0949 -3.1089 -0.2533
4.0574 -3.0978 -0.2591
3.9842 -3.0742 -0.2651
3.9015 -3.0414 -0.2520
3.8773 -3.0349 -0.2578
3.8509 -3.0263 -0.2597
3.7912 -3.0025 -0.2497
3.7536 -2.9921 -0.2580
3.7103 -2.9753 -0.2526
3.6808 -2.9677 -0.2610
3.6474 -2.9552 -0.2582
3.6341 -2.9513 -0.2605
3.6183 -2.9448 -0.2570
3.6040 -2.9392 -0.2548
3.5937 -2.9370 -0.2594
3.5800 -2.9312 -0.2559
3.5697 -2.9284 -0.2584
3.5482 -2.9209 -0.2584
6.6507 -3.8517 -0.1302
6.1824 -3.7092 -0.1499
6.1473 -3.7206 -0.2248
5.9737 -3.6792 -0.2702
5.3158 -3.4648 -0.2508
5.1289 -3.4072 -0.2564
4.9977 -3.3699 -0.2705
4.8274 -3.3135 -0.2629
4.6018 -3.2434 -0.2675
4.4106 -3.1813 -0.2626
4.2621 -3.1331 -0.2588
4.1510 -3.0985 -0.2609
4.0869 -3.0750 -0.2504
4.0609 -3.0709 -0.2643
4.0270 -3.0621 -0.2705
3.9689 -3.0387 -0.2540
3.9369 -3.0293 -0.2564
3.9099 -3.0222 -0.2613
3.8785 -3.0119 -0.2602
3.8479 -3.0014 -0.2574
3.8194 -2.9915 -0.2546
3.7928 -2.9823 -0.2520
3.7722 -2.9764 -0.2543
3.7539 -2.9718 -0.2582
3.7147 -2.9594 -0.2584
3.6773 -2.9464 -0.2547
3.6622 -2.9421 -0.2562
3.6457 -2.9362 -0.2540
3.6330 -2.9331 -0.2570
3.6183 -2.9280 -0.2554
3.6077 -2.9261 -0.2603
3.5927 -2.9198 -0.2552
3.5821 -2.9173 -0.2580
3.5677 -2.9107 -0.2514
3.5497 -2.9073 -0.2591
5.5743 -3.2743 0.4429
7.6578 -4.0161 -0.0528
6.1242 -3.6048 -0.1573
6.3740 -3.7131 -0.2842
6.0794 -3.6353 -0.3085
5.5663 -3.4747 -0.2632
5.2645 -3.3833 -0.2475
4.9805 -3.3091 -0.2735
4.6993 -3.2269 -0.2692
4.6155 -3.2058 -0.2798
4.4256 -3.1499 -0.2754
4.2615 -3.0990 -0.2625
4.1983 -3.0801 -0.2600
4.1437 -3.0642 -0.2592
4.0943 -3.0497 -0.2585
4.0612 -3.0427 -0.2670
4.0153 -3.0284 -0.2632
3.9310 -3.0011 -0.2526
3.9026 -2.9938 -0.2557
3.8804 -2.9895 -0.2631
3.8483 -2.9790 -0.2587
3.8231 -2.9720 -0.2594
3.7540 -2.9518 -0.2584
3.7285 -2.9423 -0.2509
3.7135 -2.9395 -0.2562
3.6983 -2.9362 -0.2600
3.6791 -2.9297 -0.2566
3.6640 -2.9258 -0.2580
3.6497 -2.9221 -0.2596
3.6346 -2.9175 -0.2585
3.6199 -2.9127 -0.2567
3.6077 -2.9097 -0.2584
3.5937 -2.9047 -0.2552
3.5836 -2.9029 -0.2590
3.5701 -2.8978 -0.2545
3.5615 -2.8968 -0.2596
3.5506 -2.8933 -0.2585
3.5414 -2.8912 -0.2606
8.6156 -3.6298 1.7921
8.6319 -3.6593 1.6997
5.6130 -3.2248 0.4310
5.6603 -3.2509 0.3802
5.7933 -3.2999 0.3271
7.5723 -3.8696 -0.0716
7.5752 -3.9010 -0.1839
7.5778 -3.9331 -0.2990
6.2631 -3.5648 -0.1969
6.1048 -3.5382 -0.2491
5.9382 -3.5068 -0.2924
5.5786 -3.4100 -0.2788
5.3122 -3.3391 -0.2716
4.6881 -3.1774 -0.2714
4.4793 -3.1219 -0.2661
4.4113 -3.1062 -0.2729
4.3174 -3.0787 -0.2614
4.2519 -3.0615 -0.2606
4.1902 -3.0449 -0.2583
4.0923 -3.0200 -0.2598
4.0477 -3.0082 -0.2591
4.0146 -3.0013 -0.2648
3.9711 -2.9885 -0.2595
3.9367 -2.9796 -0.2593
3.8717 -2.9616 -0.2553
3.8465 -2.9558 -0.2576
3.8247 -2.9513 -0.2618
3.7993 -2.9443 -0.2602
3.7751 -2.9375 -0.2583
3.7561 -2.9333 -0.2610
3.7330 -2.9261 -0.2568
3.7142 -2.9212 -0.2567
3.6952 -2.9158 -0.2548
3.6773 -2.9106 -0.2529
3.6675 -2.9108 -0.2626
3.6491 -2.9045 -0.2573
3.6351 -2.9011 -0.2580
3.6193 -2.8959 -0.2539
3.6076 -2.8936 -0.2564
3.5962 -2.8912 -0.2585
3.5845 -2.8883 -0.2589
3.5706 -2.8831 -0.2530
3.5634 -2.8835 -0.2615
3.5505 -2.8786 -0.2556
3.5423 -2.8776 -0.2599
8.4904 -3.4647 1.8154
5.4511 -3.1179 0.4557
5.6390 -3.1710 0.4181
5.9035 -3.2437 0.3731
5.8822 -3.2705 0.2512
6.0694 -3.3320 0.1807
6.0382 -3.3422 0.1139
6.2079 -3.4035 0.0286
6.3500 -3.4604 -0.0640
7.0779 -3.6769 -0.2512
6.2786 -3.4836 -0.2165
5.8818 -3.3931 -0.2201
5.7744 -3.3811 -0.2694
5.4143 -3.2927 -0.2485
5.2619 -3.2626 -0.2678
4.6370 -3.1157 -0.2567
4.4725 -3.0807 -0.2681
4.4061 -3.0672 -0.2751
4.3235 -3.0466 -0.2691
4.2006 -3.0181 -0.2684
4.1416 -3.0033 -0.2638
4.0886 -2.9901 -0.2598
4.0571 -2.9851 -0.2687
4.0025 -2.9695 -0.2570
3.9658 -2.9609 -0.2567
3.9380 -2.9559 -0.2620
3.8706 -2.9386 -0.2552
3.8208 -2.9278 -0.2580
3.7968 -2.9222 -0.2576
3.7699 -2.9145 -0.2519
3.7317 -2.9065 -0.2547
3.7142 -2.9028 -0.2562
3.6958 -2.8982 -0.2550
3.6815 -2.8959 -0.2585
3.6608 -2.8891 -0.2508
3.6484 -2.8873 -0.2549
3.6373 -2.8862 -0.2605
3.6203 -2.8806 -0.2542
3.6086 -2.8786 -0.2566
3.5961 -2.8756 -0.2562
3.5850 -2.8734 -0.2576
3.5735 -2.8706 -0.2573
3.5618 -2.8674 -0.2552
3.5529 -2.8662 -0.2586
3.5422 -2.8633 -0.2567
8.3759 -3.3115 1.8376
8.4534 -3.4617 1.2935
5.8215 -3.1464 0.4124
5.9340 -3.1826 0.3580
7.6101 -3.5880 0.0914
6.5661 -3.4260 -0.1085
6.3297 -3.3908 -0.1598
5.4256 -3.2331 -0.2629
5.2045 -3.1879 -0.2612
5.0398 -3.1557 -0.2658
4.8979 -3.1279 -0.2696
4.6331 -3.0722 -0.2614
4.4742 -3.0432 -0.2742
4.4007 -3.0290 -0.2770
4.3061 -3.0065 -0.2635
4.2337 -2.9902 -0.2572
4.0849 -2.9607 -0.2598
4.0093 -2.9466 -0.2647
3.9348 -2.9305 -0.2606
3.9002 -2.9227 -0.2572
3.8672 -2.9149 -0.2529
3.8189 -2.9060 -0.2564
3.7982 -2.9026 -0.2596
3.7780 -2.8991 -0.2620
3.7509 -2.8917 -0.2541
3.7316 -2.8879 -0.2544
3.7179 -2.8867 -0.2610
3.6982 -2.8819 -0.2579
3.6685 -2.8770 -0.2622
3.6494 -2.8715 -0.2554
3.6360 -2.8691 -0.2568
3.6241 -2.8674 -0.2597
3.6090 -2.8633 -0.2555
3.5970 -2.8610 -0.2562
3.5853 -2.8587 -0.2562
3.5739 -2.8562 -0.2557
3.5652 -2.8557 -0.2606
3.5547 -2.8535 -0.2603
3.5425 -2.8496 -0.2546
8.2784 -3.1898 1.7759
7.7526 -3.3121 0.8609
6.6793 -3.1730 0.6530
6.9348 -3.3468 0.1017
7.7461 -3.5513 -0.1650
7.4853 -3.5248 -0.2468
6.6382 -3.3716 -0.2254
5.8494 -3.2374 -0.2418
5.6939 -3.2184 -0.2769
5.3581 -3.1547 -0.2559
5.0308 -3.1011 -0.2717
4.8829 -3.0753 -0.2722
4.7699 -3.0569 -0.2782
4.6290 -3.0294 -0.2660
4.5494 -3.0173 -0.2738
4.4506 -2.9986 -0.2677
4.3686 -2.9835 -0.2646
4.2986 -2.9710 -0.2633
4.2301 -2.9579 -0.2587
4.1261 -2.9398 -0.2592
4.0842 -2.9331 -0.2619
4.0447 -2.9267 -0.2639
4.0138 -2.9228 -0.2704
3.9638 -2.9112 -0.2585
3.9374 -2.9080 -0.2645
3.8761 -2.8969 -0.2629
3.8408 -2.8886 -0.2538
3.8190 -2.8855 -0.2570
3.7983 -2.8826 -0.2600
3.7706 -2.8761 -0.2530
3.7508 -2.8729 -0.2540
3.7374 -2.8724 -0.2620
3.7140 -2.8667 -0.2550
3.6961 -2.8634 -0.2542
3.6831 -2.8623 -0.2593
3.6678 -2.8598 -0.2600
3.6516 -2.8565 -0.2579
3.6353 -2.8527 -0.2540
3.6256 -2.8526 -0.2609
3.6133 -2.8507 -0.2621
3.5996 -2.8477 -0.2594
3.5883 -2.8460 -0.2605
3.5752 -2.8428 -0.2565
3.5661 -2.8420 -0.2601
3.5556 -2.8401 -0.2597
3.5458 -2.8384 -0.2600
8.0177 -3.0418 1.7486
8.2676 -3.2452 0.9976
6.3042 -3.0875 0.3988
6.5260 -3.1347 0.3336
7.2298 -3.2777 0.1582
7.2283 -3.2985 0.0630
7.0237 -3.2860 -0.0171
7.4555 -3.3813 -0.1587
7.3603 -3.3882 -0.2536
6.5610 -3.2651 -0.2316
5.9018 -3.1755 -0.2671
5.7238 -3.1558 -0.2972
5.3184 -3.0867 -0.2558
4.9862 -3.0397 -0.2654
4.7381 -3.0046 -0.2725
4.5273 -2.9727 -0.2691
4.4319 -2.9573 -0.2633
4.3559 -2.9458 -0.2622
4.2883 -2.9356 -0.2614
4.2248 -2.9257 -0.2591
4.1717 -2.9179 -0.2596
4.1238 -2.9111 -0.2605
4.0778 -2.9041 -0.2598
4.0289 -2.8955 -0.2538
3.9943 -2.8910 -0.2563
3.9635 -2.8872 -0.2599
3.8993 -2.8775 -0.2587
3.8423 -2.8685 -0.2562
3.7941 -2.8612 -0.2555
3.7753 -2.8592 -0.2589
3.7574 -2.8573 -0.2624
3.7347 -2.8530 -0.2580
3.7164 -2.8502 -0.2580
3.6991 -2.8477 -0.2580
3.6829 -2.8453 -0.2582
3.6688 -2.8438 -0.2606
3.6532 -2.8412 -0.2594
3.6368 -2.8379 -0.2553
3.6231 -2.8357 -0.2547
3.6108 -2.8341 -0.2556
3.6004 -2.8334 -0.2592
3.5859 -2.8299 -0.2534
3.5761 -2.8291 -0.2560
3.5664 -2.8281 -0.2583
3.5554 -2.8261 -0.2565
3.5471 -2.8257 -0.2604
8.0214 -3.0290 1.3000
7.7922 -3.1035 0.8106
5.7938 -2.9315 0.4749
7.2514 -3.1407 0.3191
7.1680 -3.1494 0.2291
7.2485 -3.1790 0.1343
7.2051 -3.1931 0.0417
7.2462 -3.2190 -0.0585
7.1184 -3.2213 -0.1436
6.9212 -3.2122 -0.2144
6.8433 -3.2201 -0.2972
5.8129 -3.0732 -0.1918
5.9359 -3.1084 -0.2888
5.5888 -3.0636 -0.2760
5.3051 -3.0264 -0.2626
4.9953 -2.9919 -0.2770
4.7086 -2.9551 -0.2674
4.5013 -2.9290 -0.2624
4.4349 -2.9225 -0.2697
4.3810 -2.9182 -0.2803
4.2218 -2.8948 -0.2608
4.1719 -2.8892 -0.2629
4.1182 -2.8819 -0.2594
4.0334 -2.8717 -0.2595
4.0002 -2.8684 -0.2631
3.9600 -2.8626 -0.2586
3.9313 -2.8598 -0.2618
3.8965 -2.8546 -0.2572
3.8706 -2.8519 -0.2592
3.8438 -2.8485 -0.2585
3.7352 -2.8353 -0.2584
3.7182 -2.8336 -0.2600
3.6845 -2.8295 -0.2600
3.6667 -2.8265 -0.2563
3.6511 -2.8243 -0.2547
3.6395 -2.8238 -0.2587
3.6263 -2.8222 -0.2591
3.6116 -2.8197 -0.2555
3.6007 -2.8189 -0.2579
3.5878 -2.8168 -0.2553
3.5763 -2.8152 -0.2544
3.5661 -2.8142 -0.2553
3.5571 -2.8137 -0.2582
3.5478 -2.8128 -0.2595
8.1985 -2.9153 1.3980
7.9891 -2.9218 1.2640
8.1804 -2.9874 1.0227
7.3968 -2.9687 0.7399
5.9496 -2.8734 0.5264
5.5620 -2.8528 0.4443
6.1001 -2.9086 0.4200
6.5908 -2.9651 0.3697
7.6864 -3.1035 0.1946
7.1055 -3.0635 0.1181
7.2224 -3.1133 -0.0787
7.4965 -3.1653 -0.2109
6.7225 -3.1085 -0.2957
5.9197 -3.0188 -0.2269
5.7962 -3.0157 -0.2709
5.4971 -2.9861 -0.2645
5.2808 -2.9659 -0.2659
4.9620 -2.9372 -0.2738
4.6925 -2.9103 -0.2674
4.5036 -2.8927 -0.2688
4.4290 -2.8862 -0.2716
4.3507 -2.8781 -0.2681
4.2965 -2.8741 -0.2741
4.2103 -2.8626 -0.2571
4.1629 -2.8587 -0.2601
4.1206 -2.8554 -0.2639
4.0179 -2.8428 -0.2496
3.9865 -2.8407 -0.2537
3.9549 -2.8381 -0.2557
3.8966 -2.8331 -0.2585
3.8394 -2.8269 -0.2545
3.8247 -2.8275 -0.2650
3.7974 -2.8240 -0.2600
3.7565 -2.8203 -0.2610
3.7140 -2.8148 -0.2536
3.6855 -2.8135 -0.2607
3.6526 -2.8095 -0.2561
3.6367 -2.8073 -0.2526
3.6277 -2.8079 -0.2602
3.6153 -2.8069 -0.2609
3.6004 -2.8044 -0.2554
3.5892 -2.8034 -0.2561
3.5771 -2.8018 -0.2538
3.5669 -2.8010 -0.2546
3.5579 -2.8007 -0.2574
3.5491 -2.8004 -0.2599
8.1103 -2.7135 1.8467
7.8827 -2.7540 1.5422
7.7927 -2.7668 1.4393
8.1528 -2.7905 1.4455
8.1623 -2.8070 1.3598
7.9564 -2.8170 1.2285
7.7771 -2.8753 0.8456
7.6836 -2.8875 0.7449
7.1993 -3.0098 -0.0986
7.3287 -3.0398 -0.2131
7.1959 -3.0461 -0.2965
5.6877 -2.9351 -0.2587
5.4672 -2.9216 -0.2680
5.0996 -2.8978 -0.2761
4.9462 -2.8873 -0.2764
4.6936 -2.8695 -0.2743
4.5887 -2.8619 -0.2724
4.4968 -2.8553 -0.2708
4.3497 -2.8453 -0.2719
4.2772 -2.8393 -0.2666
4.2156 -2.8346 -0.2639
4.1680 -2.8318 -0.2666
4.1189 -2.8282 -0.2655
4.0660 -2.8233 -0.2584
4.0280 -2.8209 -0.2596
3.9527 -2.8149 -0.2555
3.9310 -2.8150 -0.2643
3.9005 -2.8128 -0.2634
3.8430 -2.8080 -0.2591
3.8203 -2.8067 -0.2605
3.7966 -2.8049 -0.2593
3.7748 -2.8032 -0.2587
3.7521 -2.8011 -0.2553
3.6820 -2.7961 -0.2545
3.6685 -2.7957 -0.2573
3.6541 -2.7947 -0.2575
3.6297 -2.7939 -0.2625
3.6167 -2.7929 -0.2620
3.6029 -2.7914 -0.2586
3.5910 -2.7904 -0.2580
3.5783 -2.7889 -0.2545
3.5697 -2.7891 -0.2588
3.5581 -2.7877 -0.2554
7.7614 -2.6578 1.4814
7.9555 -2.6712 1.4524
7.6463 -2.7403 0.9747
7.9968 -2.7618 0.9382
7.8975 -2.7757 0.8329
5.6873 -2.7416 0.4748
7.6913 -2.9594 -0.2833
7.1726 -2.9422 -0.3142
5.7794 -2.8664 -0.2252
5.6359 -2.8660 -0.2588
5.3491 -2.8516 -0.2475
5.0435 -2.8416 -0.2667
4.7750 -2.8303 -0.2685
4.5564 -2.8199 -0.2635
4.4727 -2.8164 -0.2642
4.4024 -2.8139 -0.2673
4.3318 -2.8107 -0.2662
4.2645 -2.8072 -0.2629
4.2158 -2.8058 -0.2674
4.1105 -2.8004 -0.2622
4.0575 -2.7967 -0.2544
4.0300 -2.7971 -0.2633
3.9934 -2.7954 -0.2632
3.9552 -2.7931 -0.2593
3.9210 -2.7911 -0.2564
3.8922 -2.7899 -0.2564
3.8669 -2.7891 -0.2582
3.8157 -2.7865 -0.2560
3.7696 -2.7839 -0.2525
3.7153 -2.7819 -0.2547
3.6973 -2.7808 -0.2528
3.6867 -2.7818 -0.2610
3.6707 -2.7809 -0.2598
3.6556 -2.7800 -0.2588
3.6426 -2.7797 -0.2604
3.6276 -2.7785 -0.2570
3.6134 -2.7774 -0.2540
3.6019 -2.7770 -0.2548
3.5923 -2.7773 -0.2587
3.5813 -2.7768 -0.2586
3.5710 -2.7764 -0.2593
3.5588 -2.7751 -0.2545
3.5515 -2.7758 -0.2605
7.4882 -2.6319 1.0047
7.8055 -2.6428 0.9727
7.7617 -2.6570 0.8791
7.0673 -2.6712 0.7126
6.2678 -2.6806 0.5631
6.0576 -2.6891 0.4869
5.8557 -2.6963 0.4189
6.1176 -2.7088 0.3713
7.0444 -2.7762 0.0569
7.2785 -2.8299 -0.2506
6.8476 -2.8271 -0.2820
6.1299 -2.8192 -0.3143
5.5433 -2.7979 -0.2482
5.4091 -2.7997 -0.2743
5.0265 -2.7919 -0.2696
4.7574 -2.7869 -0.2685
4.6518 -2.7851 -0.2693
4.5586 -2.7835 -0.2701
4.4710 -2.7816 -0.2684
4.4005 -2.7807 -0.2708
4.3146 -2.7775 -0.2606
4.2525 -2.7762 -0.2595
4.2073 -2.7763 -0.2653
4.1561 -2.7753 -0.2647
4.0943 -2.7724 -0.2533
4.0579 -2.7723 -0.2571
3.9977 -2.7730 -0.2686
3.9226 -2.7702 -0.2592
3.8668 -2.7691 -0.2590
3.8177 -2.7682 -0.2587
3.7735 -2.7672 -0.2574
3.7522 -2.7664 -0.2553
3.7347 -2.7663 -0.2567
3.7182 -2.7663 -0.2584
3.7015 -2.7660 -0.2584
3.6722 -2.7659 -0.2613
3.6558 -2.7651 -0.2581
3.6447 -2.7657 -0.2627
3.6283 -2.7644 -0.2570
3.6165 -2.7644 -0.2583
3.6044 -2.7642 -0.2579
3.5942 -2.7644 -0.2606
3.5797 -2.7630 -0.2532
3.5705 -2.7632 -0.2561
3.5610 -2.7633 -0.2573
3.5517 -2.7632 -0.2582
7.4653 -2.5532 0.8963
7.3447 -2.5683 0.8001
6.7087 -2.5946 0.6524
6.3933 -2.6110 0.5564
5.8442 -2.6294 0.4570
6.3553 -2.6607 0.2249
6.4987 -2.6711 0.1485
7.0582 -2.6978 -0.0549
7.0174 -2.7110 -0.1419
6.8014 -2.7217 -0.2038
6.2953 -2.7373 -0.2858
5.9531 -2.7401 -0.2897
5.5394 -2.7382 -0.2587
5.3819 -2.7420 -0.2774
5.0267 -2.7445 -0.2780
4.8868 -2.7454 -0.2782
4.7527 -2.7456 -0.2733
4.6375 -2.7457 -0.2692
4.5367 -2.7458 -0.2654
4.4362 -2.7451 -0.2561
4.3921 -2.7476 -0.2709
4.3105 -2.7469 -0.2623
4.2553 -2.7476 -0.2647
4.1542 -2.7485 -0.2664
4.1032 -2.7482 -0.2623
4.0150 -2.7478 -0.2556
3.9922 -2.7495 -0.2658
3.9538 -2.7490 -0.2612
3.9187 -2.7486 -0.2569
3.8850 -2.7481 -0.2517
3.8704 -2.7500 -0.2636
3.8440 -2.7499 -0.2622
3.8130 -2.7489 -0.2539
3.7936 -2.7494 -0.2567
3.7739 -2.7498 -0.2580
3.7363 -2.7501 -0.2587
3.7165 -2.7498 -0.2555
3.7017 -2.7503 -0.2581
3.6704 -2.7504 -0.2575
3.6423 -2.7505 -0.2574
3.6309 -2.7510 -0.2602
3.6178 -2.7510 -0.2592
3.6050 -2.7508 -0.2576
3.5943 -2.7511 -0.2589
3.5832 -2.7511 -0.2586
3.5706 -2.7505 -0.2540
3.5622 -2.7511 -0.2577
3.5539 -2.7517 -0.2610
7.9376 -2.4263 1.0262
7.7949 -2.4457 0.9178
6.5101 -2.5276 0.6126
5.8552 -2.5713 0.4430
6.3299 -2.5795 0.2762
6.2986 -2.5897 0.2094
6.5965 -2.5920 0.1256
6.6768 -2.6009 0.0427
7.0758 -2.6051 -0.0773
7.1509 -2.6167 -0.1786
6.7523 -2.6341 -0.2153
6.2861 -2.6602 -0.2996
5.8339 -2.6711 -0.2763
5.5090 -2.6792 -0.2623
5.1691 -2.6923 -0.2805
4.9847 -2.6968 -0.2719
4.8516 -2.7010 -0.2726
4.7231 -2.7044 -0.2681
4.6125 -2.7073 -0.2643
4.5387 -2.7106 -0.2717
4.4507 -2.7129 -0.2681
4.3727 -2.7149 -0.2650
4.3161 -2.7172 -0.2695
4.2722 -2.7199 -0.2785
4.1454 -2.7217 -0.2632
4.0577 -2.7242 -0.2615
4.0144 -2.7249 -0.2570
3.9818 -2.7262 -0.2588
3.9474 -2.7270 -0.2570
3.9249 -2.7286 -0.2640
3.8926 -2.7291 -0.2602
3.8141 -2.7309 -0.2556
3.7749 -2.7327 -0.2593
3.7549 -2.7332 -0.2586
3.7338 -2.7333 -0.2551
3.7214 -2.7347 -0.2621
3.7005 -2.7345 -0.2559
3.6667 -2.7348 -0.2506
3.6567 -2.7361 -0.2574
3.6418 -2.7362 -0.2552
3.6316 -2.7372 -0.2601
3.6185 -2.7375 -0.2589
3.6045 -2.7373 -0.2548
3.5932 -2.7377 -0.2548
3.5838 -2.7384 -0.2579
3.5723 -2.7384 -0.2557
3.5545 -2.7396 -0.2599
7.7574 -2.3297 1.0547
7.7622 -2.3399 0.9721
7.7197 -2.3537 0.8814
7.1531 -2.4040 0.7308
6.4508 -2.4608 0.5884
6.5697 -2.4962 0.2564
6.2221 -2.5231 0.1953
6.4501 -2.5206 0.1157
6.8449 -2.5228 -0.0737
6.9794 -2.5285 -0.1772
6.8690 -2.5440 -0.2517
6.4924 -2.5676 -0.2747
6.0931 -2.5898 -0.2754
5.7268 -2.6086 -0.2643
5.4925 -2.6221 -0.2691
5.3546 -2.6324 -0.2901
5.1885 -2.6422 -0.2957
4.8246 -2.6590 -0.2696
4.7133 -2.6653 -0.2705
4.6043 -2.6708 -0.2665
4.5360 -2.6757 -0.2757
4.4532 -2.6801 -0.2742
4.3649 -2.6838 -0.2650
4.2992 -2.6872 -0.2637
4.1869 -2.6932 -0.2619
4.0955 -2.6982 -0.2619
4.0621 -2.7008 -0.2672
4.0236 -2.7028 -0.2664
3.9875 -2.7046 -0.2654
3.9457 -2.7059 -0.2570
3.9160 -2.7075 -0.2570
3.8900 -2.7092 -0.2587
3.8630 -2.7105 -0.2578
3.8366 -2.7117 -0.2556
3.7544 -2.7166 -0.2579
3.7389 -2.7179 -0.2617
3.7027 -2.7195 -0.2585
3.6908 -2.7209 -0.2643
3.6706 -2.7209 -0.2561
3.6554 -2.7216 -0.2543
3.6431 -2.7225 -0.2563
3.6322 -2.7236 -0.2599
3.6191 -2.7241 -0.2586
3.6063 -2.7246 -0.2567
3.5950 -2.7252 -0.2566
3.5838 -2.7257 -0.2559
3.5740 -2.7264 -0.2573
3.5644 -2.7271 -0.2583
3.5556 -2.7278 -0.2601
7.6446 -2.2563 0.9288
7.5593 -2.2738 0.8352
7.0322 -2.3316 0.6955
6.3716 -2.3990 0.5633
6.3720 -2.4439 0.1732
6.4901 -2.4435 0.0960
6.6206 -2.4430 0.0107
6.7026 -2.4467 -0.0771
6.7583 -2.4527 -0.1671
6.8860 -2.4548 -0.2732
6.3732 -2.4949 -0.2693
6.1067 -2.5186 -0.2926
5.4255 -2.5689 -0.2623
5.0740 -2.5973 -0.2680
4.8256 -2.6179 -0.2770
4.7323 -2.6261 -0.2846
4.5959 -2.6350 -0.2685
4.5030 -2.6420 -0.2653
4.4130 -2.6483 -0.2584
4.2902 -2.6585 -0.2623
4.1849 -2.6669 -0.2637
4.0803 -2.6740 -0.2533
4.0179 -2.6801 -0.2638
3.9399 -2.6851 -0.2533
3.8913 -2.6898 -0.2611
3.8565 -2.6915 -0.2519
3.8339 -2.6935 -0.2534
3.8148 -2.6954 -0.2573
3.7975 -2.6973 -0.2622
3.7538 -2.7002 -0.2572
3.7204 -2.7032 -0.2598
3.6889 -2.7057 -0.2606
3.6720 -2.7067 -0.2574
3.6561 -2.7076 -0.2544
3.6450 -2.7089 -0.2584
3.6310 -2.7098 -0.2564
3.6198 -2.7109 -0.2583
3.6069 -2.7117 -0.2562
3.5961 -2.7127 -0.2571
3.5844 -2.7134 -0.2552
3.5752 -2.7144 -0.2577
3.5667 -2.7154 -0.2611
3.5572 -2.7162 -0.2616
7.7036 -2.1492 0.9941
7.7071 -2.1574 0.9125
6.4304 -2.3259 0.5507
6.9435 -2.2765 0.5198
6.3005 -2.3730 0.2262
6.4607 -2.3643 0.1524
6.7596 -2.3433 0.0603
6.8170 -2.3464 -0.0251
6.6292 -2.3720 -0.0868
6.5655 -2.3860 -0.1584
6.7371 -2.3798 -0.2674
6.4144 -2.4155 -0.2929
6.0770 -2.4508 -0.3004
5.7505 -2.4836 -0.2944
5.4236 -2.5148 -0.2722
5.0648 -2.5516 -0.2733
4.8069 -2.5784 -0.2767
4.7048 -2.5891 -0.2795
4.5931 -2.5999 -0.2728
4.5046 -2.6088 -0.2711
4.4114 -2.6174 -0.2622
4.2957 -2.6299 -0.2692
4.1756 -2.6413 -0.2607
4.0908 -2.6503 -0.2634
4.0170 -2.6580 -0.2651
3.9792 -2.6616 -0.2617
3.9470 -2.6648 -0.2611
3.9123 -2.6678 -0.2560
3.8855 -2.6706 -0.2563
3.8568 -2.6732 -0.2531
3.8396 -2.6757 -0.2602
3.8128 -2.6779 -0.2555
3.7970 -2.6802 -0.2619
3.7771 -2.6823 -0.2624
3.7504 -2.6840 -0.2526
3.7226 -2.6879 -0.2625
3.6856 -2.6909 -0.2548
3.6714 -2.6924 -0.2555
3.6607 -2.6941 -0.2610
3.6348 -2.6968 -0.2618
3.6216 -2.6980 -0.2602
3.6075 -2.6990 -0.2557
3.5949 -2.7000 -0.2529
3.5867 -2.7014 -0.2581
3.5768 -2.7025 -0.2592
3.5672 -2.7036 -0.2600
7.7947 -2.0154 1.3025
7.1685 -2.1465 0.7409
6.5215 -2.2405 0.6034
6.2666 -2.2803 0.5204
6.2584 -2.2869 0.4604
6.4153 -2.2847 0.2743
6.6398 -2.2634 0.2002
6.3527 -2.3050 0.1407
6.3938 -2.3271 -0.1506
6.6916 -2.3016 -0.2774
6.3779 -2.3432 -0.3017
6.0290 -2.3872 -0.3038
5.6819 -2.4294 -0.2895
5.4091 -2.4626 -0.2786
5.0655 -2.5061 -0.2819
4.7830 -2.5408 -0.2741
4.6837 -2.5535 -0.2768
4.5661 -2.5672 -0.2661
4.4862 -2.5774 -0.2672
4.4173 -2.5862 -0.2697
4.3415 -2.5953 -0.2646
4.2828 -2.6027 -0.2654
4.2297 -2.6095 -0.2664
4.1778 -2.6159 -0.2651
4.1243 -2.6221 -0.2597
4.0498 -2.6319 -0.2643
4.0111 -2.6365 -0.2621
3.9798 -2.6406 -0.2640
3.8611 -2.6550 -0.2583
3.8391 -2.6579 -0.2603
3.7684 -2.6660 -0.2517
3.7548 -2.6683 -0.2583
3.7177 -2.6727 -0.2553
3.6876 -2.6766 -0.2572
3.6727 -2.6785 -0.2567
3.6587 -2.6802 -0.2567
3.6456 -2.6819 -0.2571
3.6322 -2.6835 -0.2559
3.6080 -2.6864 -0.2551
3.5972 -2.6879 -0.2558
3.5884 -2.6893 -0.2597
3.5779 -2.6906 -0.2596
3.5677 -2.6918 -0.2589
3.5599 -2.6932 -0.2631
7.6122 -1.9957 0.7681
7.6156 -2.0020 0.6851
7.4480 -2.0349 0.5881
7.5767 -2.0222 0.5115
7.6686 -2.0156 0.4267
7.0309 -2.1248 0.2500
6.9936 -2.1369 0.1702
7.0250 -2.1392 0.0866
7.0935 -2.1365 -0.0031
6.9836 -2.1591 -0.0795
7.3260 -2.1191 -0.2095
6.5959 -2.2263 -0.1970
6.3666 -2.2701 -0.3150
5.9442 -2.3313 -0.2982
5.5335 -2.3894 -0.2637
5.1870 -2.4420 -0.2781
4.4637 -2.5478 -0.2610
4.3405 -2.5666 -0.2681
4.2881 -2.5747 -0.2721
4.2321 -2.5830 -0.2711
4.1710 -2.5914 -0.2636
4.1315 -2.5976 -0.2674
4.0385 -2.6105 -0.2577
4.0101 -2.6152 -0.2632
3.9679 -2.6208 -0.2554
3.9407 -2.6251 -0.2582
3.9083 -2.6296 -0.2546
3.8854 -2.6333 -0.2583
3.8558 -2.6373 -0.2536
3.8409 -2.6403 -0.2629
3.8132 -2.6439 -0.2568
3.7959 -2.6468 -0.2611
3.7782 -2.6497 -0.2639
3.7357 -2.6553 -0.2565
3.7191 -2.6578 -0.2569
3.7028 -2.6602 -0.2565
3.6903 -2.6624 -0.2606
3.6760 -2.6646 -0.2611
3.6593 -2.6667 -0.2566
3.6468 -2.6687 -0.2581
3.6347 -2.6705 -0.2590
3.6221 -2.6723 -0.2582
3.5859 -2.6772 -0.2526
3.5796 -2.6789 -0.2611
3.5710 -2.6804 -0.2643
7.6334 -1.9084 0.6625
7.4652 -1.9440 0.5662
7.5511 -1.9351 0.4866
7.5530 -1.9411 0.3998
7.5567 -1.9534 0.2206
7.2647 -2.0155 0.0520
7.4726 -1.9877 -0.0551
7.1456 -2.0480 -0.1163
7.1815 -2.0487 -0.2115
6.6983 -2.1326 -0.2298
6.5476 -2.1624 -0.2861
6.2363 -2.2168 -0.3036
5.5717 -2.3289 -0.2844
4.8690 -2.4483 -0.2759
4.3207 -2.5408 -0.2610
4.2116 -2.5595 -0.2615
4.1166 -2.5756 -0.2596
4.0462 -2.5880 -0.2657
3.9701 -2.6005 -0.2589
3.9045 -2.6112 -0.2523
3.8592 -2.6194 -0.2580
3.8388 -2.6231 -0.2612
3.8203 -2.6266 -0.2653
3.7760 -2.6338 -0.2613
3.7372 -2.6402 -0.2582
3.7184 -2.6432 -0.2554
3.7042 -2.6459 -0.2579
3.6875 -2.6485 -0.2557
3.6766 -2.6508 -0.2613
3.6598 -2.6533 -0.2566
3.6500 -2.6554 -0.2624
3.6207 -2.6598 -0.2542
3.6115 -2.6617 -0.2587
3.6000 -2.6636 -0.2580
3.5777 -2.6672 -0.2550
7.6513 -1.8147 0.6399
7.6101 -1.8281 0.5520
7.5252 -1.8500 0.4623
7.4844 -1.8632 0.3753
7.4865 -1.8682 0.2882
7.5303 -1.8654 0.1983
7.2057 -1.9328 0.1212
7.2047 -1.9383 0.0350
7.2029 -1.9441 -0.0529
7.2014 -1.9499 -0.1425
7.2798 -1.9411 -0.2449
7.0464 -1.9898 -0.3029
6.1394 -2.1644 -0.2977
5.7922 -2.2308 -0.2882
5.5687 -2.2743 -0.2945
4.3138 -2.5143 -0.2609
4.2239 -2.5324 -0.2724
4.1760 -2.5416 -0.2727
4.1175 -2.5523 -0.2628
4.0504 -2.5658 -0.2711
3.9672 -2.5810 -0.2580
3.9114 -2.5919 -0.2599
3.8578 -2.6021 -0.2573
3.8119 -2.6109 -0.2562
3.7930 -2.6146 -0.2583
3.7700 -2.6188 -0.2540
3.7542 -2.6221 -0.2573
3.7386 -2.6252 -0.2599
3.7190 -2.6288 -0.2560
3.7090 -2.6312 -0.2645
3.6901 -2.6345 -0.2590
3.6724 -2.6376 -0.2537
3.6590 -2.6402 -0.2543
3.6472 -2.6427 -0.2565
3.6218 -2.6475 -0.2548
3.6126 -2.6495 -0.2592
3.5980 -2.6519 -0.2522
3.5922 -2.6536 -0.2621
3.5799 -2.6557 -0.2578
3.5619 -2.6594 -0.2607
7.4179 -1.7759 0.5986
7.5835 -1.7440 0.5269
7.6745 -1.7287 0.4445
7.5890 -1.7518 0.3541
7.5935 -1.7601 0.1740
7.3798 -1.8103 0.0918
7.3808 -1.8147 0.0018
7.4224 -1.8107 -0.0940
7.1802 -1.8662 -0.1601
7.2978 -1.8465 -0.2677
5.9727 -2.1315 -0.2758
5.7543 -2.1792 -0.2912
5.4739 -2.2389 -0.2800
4.3258 -2.4850 -0.2715
4.2666 -2.4977 -0.2699
4.2085 -2.5099 -0.2658
4.1424 -2.5235 -0.2530
4.0016 -2.5542 -0.2617
3.9109 -2.5736 -0.2606
3.8805 -2.5799 -0.2563
3.8572 -2.5850 -0.2574
3.8244 -2.5927 -0.2709
3.7907 -2.5992 -0.2558
3.7715 -2.6033 -0.2559
3.7371 -2.6108 -0.2576
3.7211 -2.6143 -0.2585
3.7075 -2.6173 -0.2618
3.6729 -2.6244 -0.2537
3.6622 -2.6269 -0.2586
3.6490 -2.6297 -0.2585
3.6229 -2.6352 -0.2555
3.6136 -2.6374 -0.2598
3.6027 -2.6398 -0.2600
3.5914 -2.6421 -0.2586
3.5827 -2.6442 -0.2618
3.5724 -2.6463 -0.2608
7.6369 -1.6324 0.7563
7.5138 -1.6653 0.6637
7.4746 -1.6781 0.5800
7.5171 -1.6713 0.5004
7.6927 -1.6331 0.4214
7.6968 -1.6359 0.3321
7.3972 -1.7103 0.2445
7.3180 -1.7325 0.1605
7.4822 -1.6977 0.0648
7.3170 -1.7401 -0.0145
5.7820 -2.1152 -0.3097
5.4713 -2.1878 -0.2895
4.9238 -2.3164 -0.2718
4.8442 -2.3359 -0.2871
4.4489 -2.4287 -0.2721
4.3793 -2.4451 -0.2709
4.2425 -2.4769 -0.2588
4.1534 -2.4982 -0.2631
4.0705 -2.5177 -0.2623
3.9986 -2.5347 -0.2610
3.8831 -2.5619 -0.2599
3.8565 -2.5681 -0.2574
3.8336 -2.5735 -0.2573
3.8119 -2.5786 -0.2571
3.7883 -2.5840 -0.2532
3.7714 -2.5882 -0.2559
3.7563 -2.5919 -0.2598
3.7332 -2.5970 -0.2523
3.7209 -2.6002 -0.2579
3.7045 -2.6040 -0.2568
3.6898 -2.6075 -0.2572
3.6747 -2.6110 -0.2559
3.6600 -2.6144 -0.2539
3.6488 -2.6172 -0.2570
3.6346 -2.6204 -0.2539
3.6239 -2.6230 -0.2560
3.6134 -2.6256 -0.2578
3.6000 -2.6286 -0.2529
3.5924 -2.6306 -0.2589
3.5825 -2.6330 -0.2594
3.5722 -2.6354 -0.2582
3.5644 -2.6374 -0.2620
7.6066 -1.5489 0.8873
7.6516 -1.5396 0.8146
7.5343 -1.5804 0.4785
7.4944 -1.5934 0.3932
7.4544 -1.6064 0.3078
7.7185 -1.5413 0.2172
7.2575 -1.6624 0.1418
7.3346 -1.6454 0.0519
5.8709 -2.0330 -0.2787
5.7000 -2.0777 -0.3009
4.9317 -2.2751 -0.2818
4.6928 -2.3364 -0.2750
4.3645 -2.4208 -0.2670
4.2503 -2.4502 -0.2668
4.0711 -2.4963 -0.2650
3.9981 -2.5150 -0.2623
3.9408 -2.5299 -0.2652
3.9071 -2.5384 -0.2593
3.8749 -2.5464 -0.2527
3.8344 -2.5571 -0.2588
3.8206 -2.5609 -0.2674
3.7953 -2.5673 -0.2617
3.7501 -2.5786 -0.2518
3.7185 -2.5868 -0.2542
3.7057 -2.5902 -0.2581
3.6953 -2.5931 -0.2649
3.6631 -2.6012 -0.2582
3.6493 -2.6047 -0.2567
3.6357 -2.6082 -0.2545
3.6041 -2.6164 -0.2595
3.5940 -2.6191 -0.2604
3.5852 -2.6214 -0.2635
3.5749 -2.6241 -0.2623
3.5653 -2.6265 -0.2619
7.6234 -1.4606 0.8660
7.6260 -1.4616 0.7879
7.5458 -1.4859 0.7003
7.5477 -1.4871 0.6206
7.5916 -1.4766 0.5418
7.5940 -1.4777 0.4582
7.4709 -1.5139 0.3705
7.3518 -1.5489 0.2861
7.4318 -1.5285 0.2006
7.5598 -1.4949 0.1079
7.5610 -1.4965 0.0163
7.3919 -1.5454 -0.0623
7.3931 -1.5470 -0.1540
5.7678 -2.0024 -0.2673
5.5809 -2.0548 -0.2818
5.1856 -2.1649 -0.2788
4.8841 -2.2488 -0.2716
4.6833 -2.3048 -0.2769
4.5021 -2.3552 -0.2715
4.4102 -2.3806 -0.2612
4.3514 -2.3970 -0.2638
4.2419 -2.4276 -0.2649
4.1826 -2.4439 -0.2582
4.1561 -2.4516 -0.2704
4.1107 -2.4642 -0.2679
4.0003 -2.4949 -0.2658
3.9274 -2.5150 -0.2542
3.8842 -2.5272 -0.2628
3.8582 -2.5344 -0.2607
3.8360 -2.5406 -0.2611
3.7881 -2.5538 -0.2535
3.7672 -2.5595 -0.2510
3.7575 -2.5625 -0.2613
3.7249 -2.5716 -0.2628
3.6900 -2.5812 -0.2563
3.6749 -2.5853 -0.2546
3.6670 -2.5877 -0.2636
3.6367 -2.5960 -0.2552
3.6174 -2.6015 -0.2624
3.6057 -2.6048 -0.2611
3.5943 -2.6079 -0.2593
3.5838 -2.6108 -0.2584
3.5746 -2.6134 -0.2596
6.9774 -1.3688 1.0799
7.0298 -1.3446 0.8940
7.1448 -1.2875 0.3111
7.1433 -1.2863 0.2291
7.4153 -1.1799 0.1348
7.2931 -1.2249 0.0509
7.1748 -1.2684 -0.0296
7.1733 -1.2670 -0.1191
7.0957 -1.2950 -0.2004
6.1471 -1.6569 -0.2848
5.4585 -1.9217 -0.2536
5.2351 -2.0075 -0.2469
5.1022 -2.0583 -0.2576
4.8721 -2.1462 -0.2730
4.2173 -2.3977 -0.2550
4.1296 -2.4313 -0.2569
4.0931 -2.4452 -0.2596
4.0104 -2.4771 -0.2507
3.9812 -2.4883 -0.2528
3.8516 -2.5380 -0.2541
3.8302 -2.5461 -0.2545
3.7896 -2.5617 -0.2535
3.7717 -2.5686 -0.2541
3.7506 -2.5768 -0.2491
3.7363 -2.5822 -0.2520
3.7195 -2.5887 -0.2503
3.7065 -2.5936 -0.2531
3.6930 -2.5988 -0.2543
3.6798 -2.6038 -0.2550
3.6655 -2.6093 -0.2529
3.6385 -2.6198 -0.2478
3.6282 -2.6237 -0.2497
3.6169 -2.6281 -0.2488
3.6088 -2.6311 -0.2536
3.5979 -2.6353 -0.2518
3.5884 -2.6389 -0.2521
3.5791 -2.6425 -0.2520
3.5716 -2.6453 -0.2555
7.0145 -1.2817 1.1818
7.0740 -1.2558 1.1313
7.0063 -1.2785 0.9852
7.0327 -1.2635 0.8533
7.0298 -1.2623 0.7825
7.0604 -1.2476 0.7143
6.9922 -1.2727 0.6343
7.0212 -1.2585 0.5626
7.1563 -1.2013 0.4939
7.0158 -1.2557 0.4093
7.2278 -1.1670 0.3327
7.1142 -1.2104 0.2490
7.3047 -1.1299 0.1582
7.2247 -1.1596 0.0725
6.9302 -1.2772 0.0058
7.1824 -1.1710 -0.1058
7.1807 -1.1686 -0.1988
7.0633 -1.2138 -0.2761
6.0953 -1.6076 -0.2685
5.8902 -1.6902 -0.2940
5.6037 -1.8069 -0.2889
5.1396 -1.9962 -0.2694
4.8763 -2.1031 -0.2764
4.7263 -2.1645 -0.2623
4.6503 -2.1951 -0.2722
4.4645 -2.2710 -0.2635
4.3464 -2.3187 -0.2724
4.2153 -2.3724 -0.2598
4.1165 -2.4128 -0.2545
4.0352 -2.4459 -0.2510
3.9122 -2.4960 -0.2507
3.8648 -2.5151 -0.2535
3.8411 -2.5248 -0.2526
3.8201 -2.5333 -0.2532
3.8032 -2.5401 -0.2574
3.7772 -2.5509 -0.2489
3.7438 -2.5644 -0.2514
3.7297 -2.5701 -0.2546
3.7124 -2.5772 -0.2521
3.6982 -2.5829 -0.2530
3.6856 -2.5880 -0.2555
3.6712 -2.5939 -0.2541
3.6547 -2.6008 -0.2476
3.6453 -2.6044 -0.2528
3.6307 -2.6106 -0.2472
3.6199 -2.6149 -0.2481
3.6105 -2.6186 -0.2509
3.6008 -2.6226 -0.2521
3.5912 -2.6264 -0.2530
3.5812 -2.6305 -0.2521
3.5726 -2.6340 -0.2534
3.5641 -2.6374 -0.2544
6.9946 -1.2187 1.3334
6.9255 -1.2394 1.1282
6.8925 -1.2505 1.0569
6.8309 -1.2736 0.9800
6.8560 -1.2601 0.9196
6.8227 -1.2713 0.8478
6.9390 -1.2190 0.7969
6.9003 -1.2292 0.6499
6.9930 -1.1864 0.5845
7.1643 -1.1097 0.5183
7.1626 -1.1068 0.4367
7.1614 -1.1037 0.3536
7.0491 -1.1483 0.2695
7.0830 -1.1299 0.1845
7.0439 -1.1431 0.0999
6.9688 -1.1718 0.0181
7.1133 -1.1051 -0.0840
7.1109 -1.1020 -0.1768
7.0317 -1.1324 -0.2601
6.1065 -1.5307 -0.2650
5.9723 -1.5866 -0.3087
5.0955 -1.9665 -0.2555
4.4518 -2.2435 -0.2616
4.3764 -2.2761 -0.2589
4.2707 -2.3212 -0.2679
4.2064 -2.3493 -0.2605
4.1640 -2.3673 -0.2642
4.1124 -2.3898 -0.2588
4.0794 -2.4038 -0.2643
4.0339 -2.4237 -0.2579
3.9918 -2.4421 -0.2513
3.9586 -2.4565 -0.2499
3.9036 -2.4801 -0.2516
3.8584 -2.4993 -0.2567
3.8350 -2.5094 -0.2561
3.8113 -2.5197 -0.2536
3.7726 -2.5364 -0.2544
3.7545 -2.5442 -0.2545
3.7354 -2.5525 -0.2518
3.7195 -2.5593 -0.2522
3.7078 -2.5641 -0.2579
3.6937 -2.5701 -0.2591
3.6754 -2.5783 -0.2523
3.6613 -2.5844 -0.2510
3.6506 -2.5889 -0.2546
3.6359 -2.5954 -0.2499
3.6292 -2.5979 -0.2595
3.6133 -2.6052 -0.2500
3.6040 -2.6090 -0.2530
3.5938 -2.6134 -0.2531
3.5848 -2.6172 -0.2554
3.5750 -2.6214 -0.2546
3.5659 -2.6254 -0.2548
3.5580 -2.6286 -0.2572
6.9992 -1.1393 1.3687
6.8213 -1.2142 1.2567
6.9025 -1.1750 1.2171
6.9591 -1.1464 1.1675
7.0190 -1.1162 1.1154
6.9810 -1.1255 0.9713
6.7375 -1.2303 0.8607
6.9110 -1.1490 0.8200
6.9394 -1.1323 0.7524
6.7513 -1.2128 0.6590
6.9648 -1.1126 0.6068
7.2895 -0.9615 0.5513
7.1713 -1.0103 0.4607
7.1318 -1.0236 0.3753
7.2072 -0.9845 0.2898
7.0527 -1.0501 0.2045
7.0132 -1.0634 0.1192
6.9030 -1.1091 0.0388
7.0822 -1.0216 -0.0659
7.0410 -1.0354 -0.1548
7.0371 -1.0320 -0.2492
6.1406 -1.4396 -0.2658
5.9024 -1.5469 -0.2883
5.0691 -1.9290 -0.2472
4.9968 -1.9604 -0.2743
4.7156 -2.0892 -0.2632
4.5865 -2.1487 -0.2508
4.5472 -2.1654 -0.2736
4.3092 -2.2744 -0.2623
4.2525 -2.3002 -0.2629
4.1410 -2.3515 -0.2554
4.0596 -2.3885 -0.2569
4.0254 -2.4040 -0.2592
3.9239 -2.4505 -0.2541
3.8985 -2.4619 -0.2563
3.8759 -2.4721 -0.2597
3.8516 -2.4831 -0.2598
3.8249 -2.4956 -0.2554
3.7600 -2.5254 -0.2498
3.7436 -2.5328 -0.2518
3.7295 -2.5390 -0.2559
3.7092 -2.5486 -0.2497
3.6800 -2.5618 -0.2506
3.6683 -2.5670 -0.2544
3.6527 -2.5743 -0.2500
3.6439 -2.5780 -0.2571
3.6288 -2.5851 -0.2515
3.6087 -2.5940 -0.2567
3.5951 -2.6006 -0.2502
3.5861 -2.6045 -0.2529
3.5763 -2.6090 -0.2527
3.5656 -2.6140 -0.2494
3.5577 -2.6175 -0.2522
3.5494 -2.6212 -0.2533
7.2356 -0.9550 1.5417
6.8508 -1.1238 1.2977
6.8762 -1.1079 1.2427
6.9017 -1.0917 1.1856
6.8096 -1.1302 1.0990
6.8941 -1.0863 1.0523
6.8300 -1.1118 0.9721
6.9184 -1.0657 0.9199
6.9461 -1.0478 0.8534
6.9101 -1.0599 0.7757
6.8432 -1.0866 0.6945
6.8698 -1.0690 0.6233
7.2603 -0.8776 0.5756
7.1420 -0.9284 0.4837
6.8563 -1.0597 0.3907
6.8190 -1.0722 0.3101
7.0221 -0.9686 0.2250
6.9461 -0.9995 0.1403
7.0158 -0.9596 0.0476
6.9023 -1.0088 -0.0338
6.9712 -0.9689 -0.1328
6.9300 -0.9827 -0.2218
7.0805 -0.9019 -0.3434
6.1534 -1.3542 -0.2619
5.8705 -1.4895 -0.2766
5.3455 -1.7426 -0.2740
4.9710 -1.9236 -0.2665
4.5166 -2.1427 -0.2632
4.3616 -2.2175 -0.2613
4.1466 -2.3229 -0.2345
4.1076 -2.3414 -0.2391
4.0767 -2.3558 -0.2475
4.0447 -2.3708 -0.2534
4.0103 -2.3872 -0.2553
3.9742 -2.4047 -0.2536
3.9511 -2.4153 -0.2614
3.9195 -2.4307 -0.2596
3.8605 -2.4595 -0.2537
3.8323 -2.4734 -0.2491
3.8111 -2.4835 -0.2504
3.7965 -2.4900 -0.2585
3.7761 -2.4998 -0.2582
3.7360 -2.5195 -0.2537
3.7195 -2.5274 -0.2543
3.7014 -2.5363 -0.2512
3.6744 -2.5490 -0.2556
3.6617 -2.5550 -0.2575
3.6462 -2.5628 -0.2534
3.6340 -2.5686 -0.2540
3.6193 -2.5761 -0.2485
3.6098 -2.5804 -0.2525
3.6006 -2.5846 -0.2561
3.5878 -2.5911 -0.2510
3.5784 -2.5955 -0.2526
3.5692 -2.5999 -0.2537
3.5607 -2.6038 -0.2558
3.5514 -2.6084 -0.2548
3.5427 -2.6125 -0.2548
6.7575 -1.0794 1.1811
6.8105 -1.0483 1.1306
6.8062 -1.0452 1.0641
6.8938 -0.9967 1.0152
6.8584 -1.0085 0.9388
7.0170 -0.9242 0.8942
7.1204 -0.8667 0.8338
6.8131 -1.0138 0.7172
6.9050 -0.9618 0.6524
6.9348 -0.9406 0.5771
7.0013 -0.9006 0.5009
7.0720 -0.8581 0.4201
6.7876 -0.9957 0.3304
6.8838 -0.9400 0.2473
6.7769 -0.9879 0.1652
6.9106 -0.9123 0.0716
6.7999 -0.9621 -0.0094
6.9014 -0.9023 -0.1108
6.8602 -0.9161 -0.1998
6.7836 -0.9484 -0.2827
5.8964 -1.4004 -0.2778
5.7184 -1.4887 -0.3074
5.0707 -1.8232 -0.2477
4.9448 -1.8864 -0.2585
4.7349 -1.9918 -0.2768
4.4949 -2.1155 -0.2571
4.1044 -2.3203 -0.1825
4.1017 -2.3194 -0.2111
4.1036 -2.3158 -0.2436
4.0612 -2.3374 -0.2437
4.0429 -2.3454 -0.2603
3.9702 -2.3824 -0.2592
3.8514 -2.4433 -0.2547
3.8203 -2.4598 -0.2464
3.7617 -2.4892 -0.2516
3.7460 -2.4968 -0.2558
3.7268 -2.5068 -0.2537
3.6922 -2.5246 -0.2506
3.6603 -2.5412 -0.2461
3.6401 -2.5506 -0.2577
3.6286 -2.5563 -0.2597
3.6141 -2.5641 -0.2544
3.5924 -2.5751 -0.2556
3.5793 -2.5822 -0.2494
3.5691 -2.5875 -0.2486
3.5610 -2.5913 -0.2523
3.5512 -2.5964 -0.2505
3.5435 -2.6001 -0.2535
3.5346 -2.6048 -0.2522
7.1478 -0.8229 1.5912
6.9190 -0.9327 1.4509
6.7676 -1.0039 1.3413
6.8166 -0.9671 1.2298
6.8118 -0.9635 1.1634
6.8076 -0.9594 1.0961
6.8649 -0.9234 1.0407
6.7985 -0.9514 0.9577
7.0887 -0.7788 0.7803
6.8270 -0.8871 0.4345
6.8220 -0.8821 0.3522
6.6550 -0.9641 0.2694
6.8467 -0.8529 0.1814
7.0665 -0.7253 0.0802
6.8018 -0.8606 0.0060
6.7614 -0.8741 -0.0811
6.7211 -0.8877 -0.1683
6.5824 -0.9556 -0.2392
5.8062 -1.3714 -0.2529
5.6866 -1.4317 -0.2962
4.9514 -1.8300 -0.2619
4.8670 -1.8734 -0.2829
4.4823 -2.0827 -0.2555
4.1097 -2.2829 -0.2557
4.0183 -2.3326 -0.2492
3.9961 -2.3434 -0.2613
3.9597 -2.3632 -0.2594
3.8686 -2.4124 -0.2567
3.8442 -2.4254 -0.2579
3.7989 -2.4496 -0.2593
3.7569 -2.4723 -0.2581
3.7212 -2.4914 -0.2591
3.6852 -2.5112 -0.2539
3.6699 -2.5195 -0.2533
3.6527 -2.5293 -0.2479
3.6421 -2.5345 -0.2530
3.6278 -2.5424 -0.2503
3.6170 -2.5479 -0.2533
3.6070 -2.5530 -0.2570
3.5941 -2.5602 -0.2534
3.5831 -2.5662 -0.2527
3.5728 -2.5718 -0.2525
3.5632 -2.5769 -0.2531
3.5542 -2.5816 -0.2545
3.5446 -2.5869 -0.2529
3.5356 -2.5918 -0.2522
3.5281 -2.5956 -0.2549
6.9223 -0.8450 1.4897
6.8269 -0.8890 1.3954
6.5726 -1.0183 1.2560
6.8181 -0.8800 1.2647
6.8349 -0.8492 1.0665
6.9889 -0.7414 0.8752
6.6664 -0.8787 0.4505
6.8189 -0.7749 0.2890
6.7118 -0.8266 0.2046
6.7737 -0.7818 0.1147
6.7333 -0.7954 0.0276
6.6262 -0.8475 -0.0525
6.7205 -0.7830 -0.1557
6.7850 -0.7350 -0.2618
5.7914 -1.3004 -0.2447
5.6195 -1.3944 -0.2762
5.3561 -1.5441 -0.2730
5.1432 -1.6652 -0.2705
4.9404 -1.7814 -0.2592
4.8174 -1.8504 -0.2662
4.5872 -1.9810 -0.2658
4.4219 -2.0785 -0.2305
4.3872 -2.0958 -0.2529
4.1159 -2.2585 -0.1704
4.1312 -2.2454 -0.2120
4.1033 -2.2561 -0.2591
4.0184 -2.3044 -0.2582
3.9825 -2.3246 -0.2591
3.9460 -2.3456 -0.2568
3.9090 -2.3672 -0.2513
3.8873 -2.3787 -0.2588
3.8219 -2.4173 -0.2443
3.8116 -2.4214 -0.2599
3.7443 -2.4602 -0.2541
3.7284 -2.4689 -0.2578
3.7122 -2.4778 -0.2599
3.6894 -2.4918 -0.2501
3.6780 -2.4975 -0.2571
3.6607 -2.5078 -0.2528
3.6465 -2.5158 -0.2527
3.6229 -2.5287 -0.2577
3.6066 -2.5389 -0.2491
3.5953 -2.5453 -0.2495
3.5856 -2.5504 -0.2527
3.5738 -2.5574 -0.2497
3.5646 -2.5624 -0.2521
3.5556 -2.5673 -0.2540
3.5450 -2.5736 -0.2505
3.5369 -2.5780 -0.2528
3.5293 -2.5820 -0.2560
6.8591 -0.7836 1.4432
6.8615 -0.6551 0.3987
6.6845 -0.7501 0.3100
6.9637 -0.5720 0.2189
6.8460 -0.6316 0.1297
6.6313 -0.7505 0.0516
6.7426 -0.6358 -0.3444
5.8550 -1.1777 -0.2536
5.6198 -1.3160 -0.2731
5.1784 -1.5790 -0.2816
4.8595 -1.7694 -0.2847
4.4043 -2.0487 -0.2264
4.3740 -2.0639 -0.2513
4.0991 -2.2387 -0.1658
4.1484 -2.1971 -0.2650
4.0495 -2.2569 -0.2601
3.9680 -2.3061 -0.2561
3.9335 -2.3268 -0.2555
3.9020 -2.3457 -0.2551
3.8685 -2.3663 -0.2504
3.8568 -2.3713 -0.2670
3.8002 -2.4062 -0.2586
3.7795 -2.4184 -0.2605
3.7580 -2.4313 -0.2597
3.7207 -2.4534 -0.2610
3.7007 -2.4659 -0.2570
3.6823 -2.4773 -0.2538
3.6699 -2.4840 -0.2592
3.6524 -2.4951 -0.2542
3.6238 -2.5125 -0.2516
3.6111 -2.5202 -0.2513
3.6006 -2.5260 -0.2546
3.5880 -2.5339 -0.2519
3.5789 -2.5388 -0.2565
3.5677 -2.5457 -0.2549
3.5564 -2.5529 -0.2515
3.5488 -2.5567 -0.2572
3.5380 -2.5637 -0.2527
3.5300 -2.5682 -0.2551
6.8887 -0.6659 1.4259
6.7797 -0.7024 1.1907
6.7751 -0.6957 1.1200
6.7852 -0.6494 0.8278
4.6065 -1.9651 0.4017
6.6834 -0.6458 0.3317
6.7802 -0.5727 0.2434
6.7386 -0.5866 0.1536
6.5964 -0.6649 0.0707
5.1704 -1.5164 -0.2791
4.8635 -1.7086 -0.2887
4.7731 -1.7633 -0.3060
4.3596 -2.0373 -0.2089
4.0927 -2.2112 -0.1677
4.1207 -2.1818 -0.2537
4.0445 -2.2283 -0.2655
4.0011 -2.2560 -0.2629
3.9588 -2.2833 -0.2581
3.9282 -2.3022 -0.2612
3.8885 -2.3284 -0.2528
3.8383 -2.3592 -0.2586
