ply
format ascii 1.0
element vertex 2110
property float x
property float y
property float z
end_header
6.4779 -1.0697 -0.4929
6.4815 -0.9873 -0.4921
6.4830 -0.9667 -0.4924
6.4902 -0.9246 -0.4969
6.4933 -0.8831 -0.4976
6.4931 -0.8629 -0.4964
6.4938 -0.8425 -0.4960
6.4940 -0.7825 -0.4933
6.4955 -0.7620 -0.4936
6.4944 -0.7428 -0.4917
6.4959 -0.7224 -0.4921
6.4922 -0.7050 -0.4879
6.4885 -0.6878 -0.4837
6.4795 -0.6744 -0.4749
6.4615 -0.6494 -0.4574
6.4541 -0.6367 -0.4501
6.4296 -0.5868 -0.4255
6.4238 -0.5752 -0.4197
6.4198 -0.5623 -0.4154
6.4202 -0.5457 -0.4150
6.4731 -1.7277 -0.4943
6.4700 -1.7009 -0.4904
6.4716 -1.6792 -0.4908
6.4717 -1.6559 -0.4898
6.4748 -1.6357 -0.4915
6.4764 -1.6139 -0.4919
6.4811 -1.5948 -0.4951
6.4812 -1.5717 -0.4941
6.4828 -1.5498 -0.4944
6.4828 -1.5269 -0.4934
6.4820 -1.5034 -0.4916
6.4836 -1.4817 -0.4920
6.4852 -1.4601 -0.4924
6.4867 -1.4384 -0.4927
6.4883 -1.4167 -0.4931
6.4867 -1.3934 -0.4906
6.4923 -1.3738 -0.4945
6.4955 -1.3528 -0.4963
6.4947 -1.3300 -0.4946
6.4946 -1.3077 -0.4935
6.4946 -1.2855 -0.4924
6.4978 -1.2645 -0.4942
6.4978 -1.2424 -0.4932
6.4977 -1.2204 -0.4921
6.5042 -1.1999 -0.4968
6.5008 -1.1774 -0.4928
6.5041 -1.1561 -0.4946
6.5073 -1.1347 -0.4964
6.5089 -1.1131 -0.4968
6.5072 -1.0914 -0.4943
6.5121 -1.0699 -0.4975
6.5095 -1.0484 -0.4943
6.5119 -1.0268 -0.4954
6.5135 -1.0053 -0.4957
6.5125 -0.9842 -0.4939
6.5141 -0.9627 -0.4943
6.5173 -0.9410 -0.4961
6.5189 -0.9195 -0.4965
6.5171 -0.8989 -0.4939
6.5246 -0.8758 -0.4994
6.5236 -0.8550 -0.4976
6.5218 -0.8348 -0.4950
6.5233 -0.8134 -0.4954
6.5249 -0.7920 -0.4957
6.5256 -0.7710 -0.4954
6.5194 -0.7534 -0.4892
6.4584 -0.6374 -0.4312
6.4562 -0.6213 -0.4286
6.4461 -0.6116 -0.4194
6.5065 -1.7571 -0.4970
6.5082 -1.7342 -0.4974
6.5115 -1.7129 -0.4991
6.5163 -1.6929 -0.5023
6.5164 -1.6684 -0.5013
6.5213 -1.6482 -0.5044
6.5198 -1.6224 -0.5021
6.5199 -1.5981 -0.5011
6.5183 -1.5727 -0.4987
6.5152 -1.5463 -0.4950
6.5201 -1.5259 -0.4981
6.5201 -1.5020 -0.4972
6.5250 -1.4813 -0.5003
6.5251 -1.4575 -0.4993
6.5195 -1.4307 -0.4935
6.5284 -1.4119 -0.5001
6.5260 -1.3638 -0.4960
6.5302 -1.3422 -0.4985
6.5228 -1.3162 -0.4913
6.5244 -1.2255 -0.4886
6.5326 -1.1593 -0.4925
6.5376 -1.1374 -0.4957
6.5390 -1.0256 -0.4920
6.5474 -0.9806 -0.4970
6.5524 -0.9577 -0.5001
6.5524 -0.9355 -0.4991
6.5489 -0.9142 -0.4953
6.5505 -0.8920 -0.4957
6.5444 -0.8719 -0.4898
6.5460 -0.8499 -0.4901
6.5458 -0.8285 -0.4891
6.5431 -0.8082 -0.4860
6.5404 -0.7882 -0.4828
6.5358 -0.7692 -0.4783
6.4928 -0.7111 -0.4404
6.4916 -0.6927 -0.4386
6.4627 -0.6381 -0.4124
6.4542 -0.6267 -0.4050
6.4093 -0.5489 -0.3646
6.5327 -1.7529 -0.4904
6.5321 -1.7270 -0.4888
6.5394 -1.7089 -0.4938
6.5411 -1.6852 -0.4942
6.5396 -1.6588 -0.4920
6.5389 -1.6332 -0.4904
6.5407 -1.6098 -0.4908
6.5464 -1.5894 -0.4945
6.5465 -1.5646 -0.4935
6.5458 -1.5394 -0.4920
6.5475 -1.5160 -0.4924
6.5517 -1.4940 -0.4947
6.5527 -1.4456 -0.4936
6.5528 -1.4213 -0.4926
6.5512 -1.3963 -0.4904
6.5578 -1.3752 -0.4948
6.5579 -1.3511 -0.4938
6.5580 -1.3271 -0.4929
6.5580 -1.3032 -0.4920
6.5581 -1.2794 -0.4910
6.5631 -1.2570 -0.4941
6.5615 -1.2329 -0.4918
6.5648 -1.2100 -0.4935
6.5682 -1.1870 -0.4953
6.5666 -1.1632 -0.4930
6.5717 -1.1403 -0.4961
6.5700 -1.1167 -0.4938
6.5734 -1.0936 -0.4955
6.5683 -1.0703 -0.4906
6.5700 -1.0472 -0.4910
6.5751 -1.0239 -0.4940
6.5768 -1.0007 -0.4944
6.5750 -0.9780 -0.4921
6.5784 -0.9547 -0.4939
6.5853 -0.9306 -0.4983
6.5836 -0.9080 -0.4960
6.5818 -0.8857 -0.4937
6.4665 -0.6570 -0.3940
6.4625 -0.6420 -0.3902
6.5790 -1.8201 -0.4999
6.5792 -1.7935 -0.4990
6.5795 -1.7670 -0.4982
6.5869 -1.7474 -0.5030
6.5847 -1.7187 -0.5003
6.5882 -1.6952 -0.5020
6.5940 -1.6736 -0.5056
6.5861 -1.6407 -0.4984
6.5879 -1.6159 -0.4988
6.5898 -1.5912 -0.4993
6.5940 -1.5681 -0.5016
6.5885 -1.5384 -0.4963
6.5804 -1.5077 -0.4891
6.5921 -1.4891 -0.4971
6.5972 -1.4663 -0.5001
6.6031 -1.4437 -0.5037
6.6025 -1.4176 -0.5022
6.5918 -1.3874 -0.4931
6.5969 -1.3643 -0.4961
6.5954 -1.3386 -0.4939
6.5988 -1.3148 -0.4956
6.5989 -1.2899 -0.4947
6.5965 -1.2644 -0.4920
6.5966 -1.2397 -0.4911
6.5924 -1.2144 -0.4870
6.6018 -1.1917 -0.4932
6.6113 -1.1685 -0.4994
6.6114 -1.1438 -0.4985
6.6089 -1.1191 -0.4957
6.6107 -1.0705 -0.4953
6.6125 -1.0463 -0.4957
6.6091 -1.0224 -0.4922
6.6126 -0.9981 -0.4939
6.6100 -0.9745 -0.4911
6.6065 -0.9514 -0.4877
6.6065 -0.9279 -0.4868
6.5951 -0.8841 -0.4766
6.5379 -0.7736 -0.4297
6.5100 -0.7077 -0.4065
6.6174 -1.7694 -0.4963
6.6168 -1.7414 -0.4949
6.6146 -1.7121 -0.4924
6.6165 -1.6864 -0.4928
6.6208 -1.6627 -0.4950
6.6268 -1.6401 -0.4985
6.6263 -1.6124 -0.4971
6.6265 -1.5855 -0.4964
6.6226 -1.5560 -0.4925
6.6220 -1.5290 -0.4912
6.6222 -1.5026 -0.4904
6.6240 -1.4772 -0.4908
6.6259 -1.4518 -0.4912
6.6235 -1.4244 -0.4886
6.6229 -1.3981 -0.4872
6.6272 -1.3739 -0.4895
6.6333 -1.3502 -0.4930
6.6352 -1.3248 -0.4934
6.6345 -1.2986 -0.4920
6.6346 -1.2729 -0.4912
6.6339 -1.2470 -0.4898
6.6384 -1.2223 -0.4921
6.6419 -1.1974 -0.4937
6.6438 -1.1720 -0.4941
6.6439 -1.1465 -0.4933
6.6458 -1.1213 -0.4938
6.6450 -1.0959 -0.4924
6.6495 -1.0708 -0.4946
6.6487 -1.0456 -0.4932
6.6488 -1.0205 -0.4924
6.6445 -0.9959 -0.4885
6.5529 -0.7906 -0.4164
6.4727 -0.6421 -0.3544
6.6659 -1.8369 -0.5014
6.6704 -1.8118 -0.5036
6.6765 -1.7880 -0.5069
6.6769 -1.7590 -0.5062
6.6673 -1.7221 -0.4986
6.6710 -1.6963 -0.5002
6.6754 -1.6709 -0.5024
6.6749 -1.6419 -0.5011
6.6753 -1.6136 -0.5005
6.6839 -1.5907 -0.5055
6.6809 -1.5604 -0.5025
6.6787 -1.5308 -0.5001
6.6740 -1.5002 -0.4959
6.6709 -1.4708 -0.4929
6.6711 -1.4434 -0.4922
6.6798 -1.4197 -0.4973
6.6861 -1.3946 -0.5006
6.6770 -1.3636 -0.4935
6.6721 -1.3348 -0.4893
6.6826 -1.3109 -0.4956
6.6871 -1.2850 -0.4978
6.6865 -1.2576 -0.4965
6.6930 -1.2048 -0.4991
6.6856 -1.1501 -0.4924
6.6626 -1.0455 -0.4736
6.6645 -1.8866 -0.4708
6.7164 -1.8164 -0.5017
6.7106 -1.7511 -0.4961
6.7127 -1.7228 -0.4966
6.7097 -1.6907 -0.4937
6.7118 -1.6626 -0.4942
6.7214 -1.6395 -0.4997
6.7134 -1.6047 -0.4935
6.7078 -1.5721 -0.4890
6.7099 -1.5443 -0.4895
6.7170 -1.5191 -0.4933
6.7191 -1.4912 -0.4938
6.7129 -1.4308 -0.4881
6.7106 -1.4015 -0.4857
6.7195 -1.3764 -0.4907
6.7216 -1.3487 -0.4911
6.7141 -1.3182 -0.4855
6.7187 -1.2914 -0.4876
6.7225 -1.2643 -0.4892
6.7245 -1.2367 -0.4897
6.7265 -1.2092 -0.4901
6.7241 -1.1810 -0.4878
6.7183 -1.1528 -0.4832
6.7185 -1.1255 -0.4826
6.7222 -1.0984 -0.4841
6.5237 -0.7482 -0.3476
6.4505 -0.6145 -0.2971
6.7740 -1.8920 -0.5059
6.7704 -1.8565 -0.5028
6.7617 -1.8173 -0.4965
6.7689 -1.7915 -0.5002
6.7770 -1.7660 -0.5043
6.7826 -1.7383 -0.5069
6.7755 -1.7015 -0.5017
6.7607 -1.6603 -0.4917
6.7688 -1.6346 -0.4959
6.7684 -1.6035 -0.4948
6.7731 -1.5754 -0.4969
6.7779 -1.5471 -0.4989
6.7861 -1.5203 -0.5031
6.7857 -1.4893 -0.5021
6.7844 -1.4580 -0.5005
6.7814 -1.4262 -0.4978
6.7749 -1.3936 -0.4930
6.7718 -1.3626 -0.4903
6.5629 -0.8353 -0.3507
6.5645 -0.8140 -0.3511
6.5265 -0.7496 -0.3266
6.5187 -0.7343 -0.3215
6.4905 -0.6943 -0.3035
6.4844 -0.6801 -0.2994
6.4541 -0.6321 -0.2799
6.4516 -0.6175 -0.2781
6.8219 -1.9276 -0.4999
6.8209 -1.8930 -0.4984
6.8266 -1.8642 -0.5010
6.8244 -1.7957 -0.4981
6.8267 -1.7643 -0.4986
6.8072 -1.5898 -0.4833
6.8155 -1.5625 -0.4873
6.8151 -1.5306 -0.4863
6.8200 -1.5012 -0.4883
6.8196 -1.4694 -0.4873
6.8218 -1.4389 -0.4879
6.8267 -1.4092 -0.4899
6.8263 -1.3777 -0.4889
6.8286 -1.3471 -0.4894
6.4570 -0.6335 -0.2620
6.4379 -0.5998 -0.2504
6.8706 -1.9632 -0.4913
6.8833 -1.9389 -0.4975
6.8823 -1.9028 -0.4962
6.8847 -1.8696 -0.4967
6.8803 -1.8313 -0.4936
6.8827 -1.7983 -0.4941
6.9067 -1.7800 -0.5064
6.9057 -1.7441 -0.5051
6.8969 -1.7036 -0.4996
6.8993 -1.6704 -0.5001
6.9052 -1.6391 -0.5026
6.8902 -1.5967 -0.4937
6.8856 -1.5606 -0.4904
6.9126 -1.5391 -0.5043
6.9080 -1.5028 -0.5010
6.8963 -1.4643 -0.4940
6.6247 -0.9322 -0.3382
6.4691 -0.6451 -0.2493
6.4666 -0.6302 -0.2477
6.9157 -1.9950 -0.4780
6.9071 -1.9514 -0.4729
6.9095 -1.9176 -0.4734
6.9086 -1.8812 -0.4722
6.9335 -1.8642 -0.4843
6.9474 -1.8378 -0.4907
6.9577 -1.8084 -0.4953
6.9568 -1.7711 -0.4941
6.9594 -1.7362 -0.4947
6.9497 -1.6942 -0.4890
6.9373 -1.6516 -0.4820
6.9433 -1.6193 -0.4844
6.9537 -1.5890 -0.4890
6.9447 -1.5495 -0.4838
6.9277 -1.5074 -0.4745
6.4675 -0.6330 -0.2288
6.9217 -1.9922 -0.4434
6.9164 -1.9516 -0.4403
6.9267 -1.9241 -0.4446
6.9562 -1.9109 -0.4581
7.0129 -1.9159 -0.4844
7.0384 -1.8953 -0.4959
7.0455 -1.8609 -0.4986
7.0438 -1.8206 -0.4972
7.0466 -1.7832 -0.4978
7.0493 -1.7459 -0.4984
7.0202 -1.6913 -0.4840
6.9766 -1.6316 -0.4628
6.5088 -0.7139 -0.2302
6.5034 -0.6990 -0.2275
6.4775 -0.6629 -0.2149
6.4711 -0.6505 -0.2117
6.4626 -0.6400 -0.2076
6.4503 -0.6328 -0.2017
6.4437 -0.6219 -0.1985
6.4216 -0.6088 -0.1880
6.4169 -0.5979 -0.1857
6.4161 -0.5839 -0.1850
6.8954 -1.9966 -0.3953
6.9048 -1.9696 -0.3990
6.9143 -1.9422 -0.4027
6.9834 -1.9620 -0.4327
7.0520 -1.9768 -0.4625
7.0794 -1.9573 -0.4740
7.0866 -1.9219 -0.4766
7.0992 -1.8899 -0.4816
7.0923 -1.8448 -0.4779
6.5126 -0.7327 -0.2118
6.4995 -0.7218 -0.2060
6.4940 -0.7073 -0.2035
6.4720 -0.7030 -0.1939
6.4714 -0.6868 -0.1934
6.4551 -0.6808 -0.1863
6.4505 -0.6678 -0.1841
6.4380 -0.6607 -0.1786
6.4412 -0.6429 -0.1797
6.4278 -0.6224 -0.1737
6.4171 -0.6161 -0.1690
6.4153 -0.6029 -0.1680
6.4145 -0.5891 -0.1674
6.4206 -0.5691 -0.1698
6.9045 -1.9967 -0.3635
6.9140 -1.9697 -0.3670
6.9129 -1.9336 -0.3661
6.9374 -1.9180 -0.3757
7.0002 -1.9299 -0.4009
7.0802 -1.9503 -0.4330
7.0928 -1.9190 -0.4376
6.5393 -0.7971 -0.2031
6.5018 -0.7585 -0.1877
6.4925 -0.7456 -0.1838
6.4870 -0.7313 -0.1814
6.4824 -0.7167 -0.1795
6.4759 -0.7037 -0.1767
6.4598 -0.6808 -0.1700
6.4531 -0.6692 -0.1672
6.4445 -0.6594 -0.1636
6.4350 -0.6355 -0.1595
6.4233 -0.6294 -0.1548
6.4184 -0.6185 -0.1527
6.4087 -0.5977 -0.1486
6.4169 -0.5763 -0.1516
6.9100 -1.9937 -0.3304
6.9196 -1.9669 -0.3336
6.9291 -1.9396 -0.3368
6.9351 -1.9091 -0.3387
6.9805 -1.9079 -0.3554
7.0216 -1.9008 -0.3704
7.0692 -1.8957 -0.3878
6.7742 -1.1806 -0.2724
6.6512 -0.9790 -0.2252
6.6080 -0.8981 -0.2086
6.5625 -0.8885 -0.1917
6.5582 -0.8698 -0.1900
6.5606 -0.8494 -0.1907
6.5432 -0.8167 -0.1839
6.5310 -0.8025 -0.1793
6.5120 -0.7920 -0.1722
6.5143 -0.7730 -0.1729
6.5049 -0.7595 -0.1693
6.4984 -0.7452 -0.1668
6.4870 -0.7340 -0.1625
6.4853 -0.7179 -0.1617
6.4708 -0.7095 -0.1563
6.4671 -0.6954 -0.1548
6.4595 -0.6841 -0.1519
6.4498 -0.6746 -0.1482
6.4470 -0.6608 -0.1471
6.4432 -0.6481 -0.1455
6.4324 -0.6408 -0.1415
6.4246 -0.6318 -0.1385
6.4187 -0.6218 -0.1363
6.4168 -0.6088 -0.1355
6.4180 -0.5935 -0.1357
6.4140 -0.5825 -0.1342
6.9024 -2.0137 -0.2932
6.9262 -2.0001 -0.3011
6.9143 -1.9549 -0.2968
6.9131 -1.9193 -0.2961
6.9299 -1.8980 -0.3016
6.9666 -1.8905 -0.3139
7.0795 -1.8958 -0.3518
7.0913 -1.8644 -0.3556
6.7844 -1.2085 -0.2474
6.6357 -1.0038 -0.1958
6.6268 -0.9825 -0.1927
6.6140 -0.9623 -0.1882
6.6012 -0.9430 -0.1837
6.5892 -0.9243 -0.1796
6.5830 -0.9051 -0.1774
6.5637 -0.8699 -0.1706
6.5564 -0.8525 -0.1680
6.5462 -0.8366 -0.1644
6.5285 -0.8057 -0.1583
6.5141 -0.7933 -0.1533
6.5175 -0.7740 -0.1543
6.4994 -0.7473 -0.1480
6.4899 -0.7351 -0.1447
6.4822 -0.7224 -0.1421
6.4745 -0.7102 -0.1394
6.4678 -0.6979 -0.1371
6.4581 -0.6879 -0.1337
6.4513 -0.6766 -0.1313
6.4475 -0.6637 -0.1300
6.4427 -0.6517 -0.1282
6.4358 -0.6416 -0.1259
6.4309 -0.6303 -0.1241
6.4240 -0.6210 -0.1217
6.4211 -0.6089 -0.1206
6.4151 -0.5995 -0.1186
6.4060 -0.5932 -0.1155
6.9329 -2.0333 -0.2686
6.9390 -2.0033 -0.2703
6.9486 -1.9762 -0.2731
6.9330 -1.9282 -0.2681
6.9390 -1.8981 -0.2698
6.9605 -1.8792 -0.2762
7.0660 -1.8800 -0.3085
7.0925 -1.8586 -0.3164
7.0805 -1.8123 -0.3125
6.6937 -1.0959 -0.1905
6.6830 -1.0716 -0.1871
6.6291 -0.9830 -0.1701
6.6035 -0.9647 -0.1622
6.6070 -0.9431 -0.1632
6.6018 -0.9231 -0.1615
6.5887 -0.9052 -0.1574
6.5795 -0.8871 -0.1544
6.5643 -0.8713 -0.1497
6.5540 -0.8550 -0.1465
6.5421 -0.8211 -0.1427
6.5317 -0.8065 -0.1394
6.5172 -0.7942 -0.1349
6.5107 -0.7793 -0.1328
6.5014 -0.7488 -0.1298
6.4665 -0.7016 -0.1189
6.4637 -0.6874 -0.1180
6.4489 -0.6658 -0.1134
6.4431 -0.6546 -0.1115
6.4351 -0.6454 -0.1090
6.4291 -0.6350 -0.1071
6.4242 -0.6243 -0.1056
6.4151 -0.6172 -0.1028
6.4121 -0.6056 -0.1018
6.4091 -0.5941 -0.1008
6.9348 -2.0269 -0.2347
6.9636 -2.0168 -0.2426
6.9697 -1.9861 -0.2442
6.9721 -1.9523 -0.2448
6.9554 -1.9038 -0.2400
6.9395 -1.8572 -0.2355
6.9879 -1.8568 -0.2488
7.0493 -1.8622 -0.2657
7.0981 -1.8558 -0.2791
7.0953 -1.8153 -0.2782
6.7669 -1.2305 -0.1859
6.7439 -1.2003 -0.1795
6.7420 -1.1742 -0.1789
6.7247 -1.1469 -0.1740
6.7159 -1.1213 -0.1715
6.6652 -1.0485 -0.1573
6.6022 -0.9449 -0.1396
6.5988 -0.9249 -0.1386
6.5713 -0.8906 -0.1310
6.5610 -0.8739 -0.1281
6.5565 -0.8560 -0.1268
6.5430 -0.8414 -0.1230
6.5405 -0.8237 -0.1222
6.5299 -0.8092 -0.1193
6.5173 -0.7963 -0.1158
6.5137 -0.7802 -0.1147
6.5043 -0.7499 -0.1121
6.4779 -0.7138 -0.1047
6.4721 -0.7010 -0.1030
6.4581 -0.6938 -0.0992
6.4514 -0.6672 -0.0972
6.4454 -0.6561 -0.0955
6.4394 -0.6454 -0.0939
6.4293 -0.6382 -0.0910
6.4253 -0.6268 -0.0899
6.4172 -0.6189 -0.0876
6.9365 -2.0206 -0.2012
6.9728 -2.0169 -0.2101
6.9790 -1.9863 -0.2116
6.9695 -1.9430 -0.2092
6.9682 -1.9068 -0.2089
6.9670 -1.8708 -0.2085
6.9657 -1.8350 -0.2082
7.0935 -1.8466 -0.2396
7.1111 -1.8188 -0.2439
7.0443 -1.5608 -0.2272
6.8832 -1.4319 -0.1875
6.8577 -1.3930 -0.1812
6.8180 -1.3230 -0.1714
6.8009 -1.2906 -0.1671
6.7799 -1.2586 -0.1619
6.7568 -1.2275 -0.1562
6.7471 -1.1999 -0.1538
6.7490 -1.1743 -0.1542
6.7277 -1.1466 -0.1490
6.7052 -1.1202 -0.1434
6.6885 -1.0954 -0.1393
6.6776 -1.0717 -0.1366
6.6598 -1.0489 -0.1322
6.6487 -1.0268 -0.1294
6.6435 -1.0050 -0.1281
6.6235 -0.9851 -0.1232
6.6133 -0.9651 -0.1207
6.6050 -0.9455 -0.1186
6.5937 -0.9270 -0.1158
6.5892 -0.9077 -0.1147
6.5818 -0.8895 -0.1129
6.5743 -0.8718 -0.1110
6.5598 -0.8566 -0.1074
6.5493 -0.8411 -0.1048
6.5407 -0.8255 -0.1027
6.5300 -0.8112 -0.1001
6.5156 -0.7816 -0.0965
6.5041 -0.7524 -0.0936
6.4854 -0.7286 -0.0890
6.4785 -0.7162 -0.0873
6.4757 -0.7017 -0.0866
6.4626 -0.6938 -0.0834
6.4548 -0.6680 -0.0814
6.4508 -0.6555 -0.0804
6.4448 -0.6447 -0.0789
6.4244 -0.6308 -0.0739
6.4203 -0.6198 -0.0729
6.9122 -2.0591 -0.1625
6.9676 -2.0402 -0.1745
6.9738 -2.0100 -0.1758
6.9725 -1.9735 -0.1756
6.9638 -1.9315 -0.1738
6.9699 -1.9013 -0.1751
6.9500 -1.8520 -0.1709
6.9785 -1.8377 -0.1771
7.0166 -1.8279 -0.1853
7.0942 -1.8408 -0.2021
7.1261 -1.8217 -0.2090
7.1070 -1.7339 -0.2050
7.0130 -1.6485 -0.1847
6.9614 -1.5890 -0.1736
6.8818 -1.4286 -0.1566
6.7639 -1.2276 -0.1313
6.7396 -1.1978 -0.1260
6.7298 -1.1713 -0.1239
6.6823 -1.0951 -0.1137
6.6683 -1.0717 -0.1107
6.6611 -1.0491 -0.1092
6.6460 -1.0273 -0.1060
6.6368 -1.0060 -0.1040
6.6225 -0.9859 -0.1009
6.6191 -0.9652 -0.1002
6.5993 -0.9271 -0.0960
6.5854 -0.8901 -0.0930
6.5638 -0.8762 -0.0883
6.5522 -0.8606 -0.0858
6.5375 -0.8467 -0.0826
6.5378 -0.8284 -0.0827
6.5321 -0.8125 -0.0815
6.5233 -0.7981 -0.0796
6.5128 -0.7678 -0.0774
6.5019 -0.7560 -0.0750
6.4909 -0.7447 -0.0727
6.4819 -0.7331 -0.0708
6.4729 -0.7220 -0.0688
6.4782 -0.7030 -0.0700
6.4671 -0.6939 -0.0676
6.4611 -0.6821 -0.0663
6.4489 -0.6749 -0.0637
6.4407 -0.6656 -0.0619
6.4326 -0.6422 -0.0602
6.4296 -0.6301 -0.0595
6.4244 -0.6199 -0.0584
6.4172 -0.6117 -0.0569
6.9939 -2.0913 -0.1454
7.0010 -2.0614 -0.1468
7.0035 -2.0274 -0.1474
7.0097 -1.9963 -0.1487
7.0038 -1.9556 -0.1477
6.9828 -1.9042 -0.1439
6.9852 -1.8710 -0.1445
7.0037 -1.8488 -0.1480
7.0345 -1.8336 -0.1538
7.0721 -1.8209 -0.1609
7.1117 -1.8073 -0.1684
7.0099 -1.6424 -0.1498
6.9109 -1.4672 -0.1318
6.8533 -1.4158 -0.1212
6.8380 -1.3816 -0.1184
6.8255 -1.3493 -0.1161
6.7563 -1.1993 -0.1036
6.7415 -1.1719 -0.1009
6.6766 -1.0718 -0.0891
6.6451 -1.0277 -0.0833
6.6358 -1.0067 -0.0816
6.6154 -0.9874 -0.0779
6.6120 -0.9670 -0.0773
6.6035 -0.9478 -0.0758
6.5824 -0.9118 -0.0719
6.5748 -0.8940 -0.0705
6.5534 -0.8619 -0.0666
6.5429 -0.8285 -0.0648
6.5311 -0.8148 -0.0626
6.5062 -0.7901 -0.0580
6.5064 -0.7730 -0.0581
6.4956 -0.7448 -0.0561
6.4886 -0.7321 -0.0549
6.4816 -0.7198 -0.0536
6.4808 -0.7043 -0.0535
6.4665 -0.6971 -0.0508
6.4624 -0.6842 -0.0501
6.4574 -0.6722 -0.0492
6.4420 -0.6530 -0.0464
6.4368 -0.6422 -0.0454
6.4233 -0.6241 -0.0430
6.4202 -0.6126 -0.0424
6.8668 -2.0330 -0.0913
7.0657 -2.1094 -0.1226
7.0636 -2.0698 -0.1224
7.0398 -2.0131 -0.1190
6.9895 -1.9376 -0.1113
6.9768 -1.8931 -0.1095
6.9868 -1.8658 -0.1113
7.0168 -1.8515 -0.1161
7.0440 -1.8337 -0.1206
7.0866 -1.8240 -0.1274
7.1170 -1.8046 -0.1323
7.0330 -1.6845 -0.1196
7.0037 -1.6348 -0.1152
6.9670 -1.5507 -0.1098
6.9403 -1.5070 -0.1057
6.9153 -1.4658 -0.1020
6.7485 -1.1973 -0.0768
6.6971 -1.0953 -0.0691
6.6749 -1.0718 -0.0657
6.6636 -1.0495 -0.0640
6.6522 -1.0278 -0.0623
6.6468 -1.0064 -0.0616
6.6293 -0.9866 -0.0589
6.6031 -0.9488 -0.0549
6.5935 -0.9305 -0.0535
6.5848 -0.9125 -0.0522
6.5802 -0.8941 -0.0516
6.5549 -0.8446 -0.0478
6.5210 -0.8032 -0.0426
6.5182 -0.7871 -0.0422
6.5123 -0.7726 -0.0414
6.5043 -0.7595 -0.0402
6.4952 -0.7475 -0.0388
6.4850 -0.7365 -0.0372
6.4800 -0.7233 -0.0365
6.4667 -0.6997 -0.0345
6.4637 -0.6862 -0.0341
6.4502 -0.6799 -0.0320
6.4451 -0.6686 -0.0312
6.4379 -0.6446 -0.0302
6.4316 -0.6350 -0.0292
6.4263 -0.6250 -0.0284
6.4232 -0.6135 -0.0280
6.9029 -2.0926 -0.0656
7.0776 -2.1495 -0.0881
7.1171 -2.1453 -0.0934
7.0914 -2.0849 -0.0904
7.0285 -1.9966 -0.0828
7.0025 -1.9406 -0.0798
6.9973 -1.9017 -0.0794
7.0035 -1.8713 -0.0804
7.0184 -1.8464 -0.0826
7.0535 -1.8339 -0.0873
7.1099 -1.8324 -0.0947
7.1125 -1.7963 -0.0953
7.0833 -1.7426 -0.0919
7.0050 -1.6311 -0.0824
6.8564 -1.3828 -0.0646
6.7993 -1.2837 -0.0579
6.7933 -1.2557 -0.0573
6.7554 -1.1974 -0.0527
6.7353 -1.1698 -0.0503
6.6811 -1.0719 -0.0439
6.6582 -1.0279 -0.0412
6.6214 -0.9674 -0.0368
6.5898 -0.9322 -0.0329
6.5882 -0.9130 -0.0328
6.5747 -0.8778 -0.0313
6.5649 -0.8617 -0.0301
6.5570 -0.8456 -0.0292
6.5287 -0.8196 -0.0256
6.5269 -0.8028 -0.0255
6.5150 -0.7736 -0.0242
6.4988 -0.7481 -0.0222
6.4854 -0.7388 -0.0205
6.4803 -0.7257 -0.0200
6.4763 -0.7123 -0.0195
6.4638 -0.7042 -0.0179
6.4608 -0.6909 -0.0176
6.4545 -0.6799 -0.0169
6.4483 -0.6693 -0.0162
6.4452 -0.6569 -0.0158
6.4378 -0.6477 -0.0149
6.4293 -0.6399 -0.0139
6.4272 -0.6275 -0.0137
6.4208 -0.6187 -0.0129
6.4155 -0.6095 -0.0123
6.9076 -2.0890 -0.0354
7.0694 -2.1336 -0.0519
7.0806 -2.1057 -0.0533
7.0526 -2.0450 -0.0509
7.0178 -1.9809 -0.0479
7.0318 -1.9560 -0.0496
7.0227 -1.9137 -0.0491
7.0204 -1.8768 -0.0492
7.0479 -1.8601 -0.0522
7.0717 -1.8396 -0.0548
7.0878 -1.8130 -0.0568
7.0855 -1.7751 -0.0569
7.0667 -1.7283 -0.0554
7.0038 -1.6600 -0.0495
6.9828 -1.6160 -0.0477
6.8205 -1.3143 -0.0336
6.8115 -1.2850 -0.0329
6.7512 -1.1959 -0.0275
6.7279 -1.1682 -0.0253
6.7196 -1.1434 -0.0247
6.7103 -1.1190 -0.0239
6.6998 -1.0952 -0.0231
6.6742 -1.0719 -0.0206
6.6496 -1.0072 -0.0187
6.6328 -0.9876 -0.0171
6.6190 -0.9686 -0.0158
6.6020 -0.9509 -0.0142
6.5984 -0.9317 -0.0140
6.5649 -0.8633 -0.0112
6.5497 -0.8496 -0.0097
6.5316 -0.8204 -0.0081
6.5194 -0.8078 -0.0070
6.5165 -0.7921 -0.0068
6.4879 -0.7399 -0.0043
6.4765 -0.7147 -0.0034
6.4746 -0.7005 -0.0033
6.4641 -0.6916 -0.0023
6.4578 -0.6807 -0.0017
6.4493 -0.6715 -0.0009
6.4472 -0.6584 -0.0008
6.4398 -0.6493 -0.0001
6.4334 -0.6399 0.0004
6.4227 -0.6205 0.0014
6.4130 -0.6148 0.0023
6.9521 -2.0563 -0.0089
7.0747 -2.0553 -0.0184
7.0798 -1.9853 -0.0196
7.1108 -1.8958 -0.0230
7.1612 -1.8903 -0.0269
7.1112 -1.8214 -0.0238
7.1138 -1.7859 -0.0244
7.1076 -1.7455 -0.0244
7.0128 -1.6601 -0.0181
6.9629 -1.6022 -0.0149
6.9475 -1.5630 -0.0141
6.8459 -1.3749 -0.0084
6.8389 -1.3449 -0.0082
6.7957 -1.2798 -0.0056
6.7826 -1.2509 -0.0049
6.7673 -1.2225 -0.0041
6.7530 -1.1952 -0.0033
6.7325 -1.1681 -0.0020
6.7028 -1.1414 -0.0000
6.6923 -1.1176 0.0005
6.6940 -1.0948 0.0001
6.6195 -0.9693 0.0044
6.6117 -0.9503 0.0048
6.6070 -0.9312 0.0050
6.5898 -0.9151 0.0061
6.5829 -0.8975 0.0064
6.5781 -0.8798 0.0066
6.5499 -0.8334 0.0083
6.5386 -0.8197 0.0090
6.5294 -0.8059 0.0095
6.5244 -0.7908 0.0097
6.5090 -0.7642 0.0106
6.4914 -0.7406 0.0117
6.4851 -0.7281 0.0121
6.4789 -0.7160 0.0124
6.4747 -0.7031 0.0126
6.4663 -0.6930 0.0131
6.4621 -0.6807 0.0133
6.4525 -0.6723 0.0140
6.4385 -0.6674 0.0150
6.4407 -0.6517 0.0146
6.4332 -0.6432 0.0151
6.4310 -0.6309 0.0151
6.4267 -0.6206 0.0154
6.4212 -0.6113 0.0157
7.2298 -2.0904 0.0085
7.2434 -2.0591 0.0074
7.2414 -2.0164 0.0070
7.1746 -1.9314 0.0092
7.1665 -1.8874 0.0090
7.1397 -1.8328 0.0097
7.1285 -1.7888 0.0096
7.1212 -1.7478 0.0095
7.0138 -1.6562 0.0137
6.9441 -1.5266 0.0155
6.8715 -1.4092 0.0176
6.7845 -1.2500 0.0198
6.7742 -1.2226 0.0200
6.7577 -1.1950 0.0205
6.7289 -1.1670 0.0215
6.6965 -1.1175 0.0225
6.6721 -1.0720 0.0231
6.6521 -1.0505 0.0239
6.6444 -1.0296 0.0240
6.6480 -1.0084 0.0235
6.6158 -0.9706 0.0246
6.6079 -0.9518 0.0248
6.6021 -0.9332 0.0248
6.5941 -0.9154 0.0250
6.5585 -0.8682 0.0262
6.5341 -0.8232 0.0268
6.5073 -0.7672 0.0274
6.5032 -0.7530 0.0274
6.4916 -0.7428 0.0279
6.4801 -0.7179 0.0281
6.4780 -0.7038 0.0281
6.4631 -0.6977 0.0287
6.4620 -0.6836 0.0286
6.4556 -0.6731 0.0288
6.4524 -0.6608 0.0288
6.4394 -0.6556 0.0294
6.4296 -0.6351 0.0296
6.4197 -0.6158 0.0298
7.3867 -2.2446 0.0449
7.3427 -2.1664 0.0448
7.2245 -1.9977 0.0451
7.1947 -1.9380 0.0449
7.1876 -1.8943 0.0444
7.1843 -1.8536 0.0439
7.0926 -1.7631 0.0448
7.0692 -1.7148 0.0446
7.0467 -1.6685 0.0444
6.7718 -1.2212 0.0443
6.7048 -1.1178 0.0443
6.6972 -1.0947 0.0442
6.6642 -1.0505 0.0443
6.6522 -1.0296 0.0443
6.6413 -1.0094 0.0442
6.6345 -0.9894 0.0441
6.6182 -0.9711 0.0442
6.6103 -0.9524 0.0441
6.6012 -0.9344 0.0441
6.5788 -0.9011 0.0441
6.5707 -0.8846 0.0440
6.5482 -0.8374 0.0439
6.5400 -0.8229 0.0439
6.5360 -0.8072 0.0437
6.5255 -0.7944 0.0438
6.5161 -0.7818 0.0438
6.5098 -0.7683 0.0438
6.4802 -0.7204 0.0437
6.4716 -0.7101 0.0438
6.4576 -0.6746 0.0436
6.4533 -0.6631 0.0435
6.4413 -0.6572 0.0437
6.4380 -0.6457 0.0436
6.4358 -0.6335 0.0435
6.4303 -0.6241 0.0435
6.4236 -0.6159 0.0435
7.3640 -2.2183 0.0861
7.3611 -2.1716 0.0853
7.3255 -2.1022 0.0841
7.2291 -1.9938 0.0821
7.1891 -1.9278 0.0809
7.1918 -1.8908 0.0803
7.1645 -1.8360 0.0793
6.9974 -1.6392 0.0756
6.7177 -1.1413 0.0667
6.7059 -1.1175 0.0662
6.6596 -1.0508 0.0650
6.6507 -1.0300 0.0647
6.6338 -0.9901 0.0640
6.6269 -0.9708 0.0636
6.6126 -0.9530 0.0633
6.5904 -0.8997 0.0623
6.5811 -0.8833 0.0620
6.5729 -0.8672 0.0618
6.5449 -0.8230 0.0610
6.5354 -0.8093 0.0607
6.5186 -0.7828 0.0602
6.5188 -0.7664 0.0599
6.4984 -0.7599 0.0598
6.4941 -0.7462 0.0596
6.4910 -0.7323 0.0593
6.4454 -0.6573 0.0580
6.4431 -0.6449 0.0577
6.4387 -0.6344 0.0576
6.4276 -0.6293 0.0574
7.4653 -2.4293 0.1333
7.4180 -2.3428 0.1304
7.4003 -2.2827 0.1288
7.3368 -2.1889 0.1253
7.2969 -2.1164 0.1228
7.2236 -1.9832 0.1183
7.1792 -1.9150 0.1158
7.1628 -1.8668 0.1145
7.1412 -1.8167 0.1129
7.0381 -1.6889 0.1077
6.9766 -1.6246 0.1048
6.9293 -1.5105 0.1014
6.9018 -1.4408 0.0993
6.8679 -1.4007 0.0976
6.8555 -1.3691 0.0967
6.8068 -1.3022 0.0941
6.7929 -1.2479 0.0927
6.7442 -1.1668 0.0898
6.7157 -1.1407 0.0886
6.7278 -1.1186 0.0885
6.6980 -1.0945 0.0872
6.6818 -1.0722 0.0864
6.6676 -1.0508 0.0856
6.6512 -1.0304 0.0847
6.6464 -1.0100 0.0842
6.6395 -0.9902 0.0837
6.6197 -0.9724 0.0828
6.6137 -0.9537 0.0823
6.6077 -0.9353 0.0818
6.5942 -0.9188 0.0811
6.5924 -0.9005 0.0807
6.5684 -0.8699 0.0794
6.5643 -0.8533 0.0790
6.5400 -0.8265 0.0779
6.5294 -0.8135 0.0773
6.5242 -0.7990 0.0769
6.5243 -0.7824 0.0766
6.5191 -0.7684 0.0762
6.5050 -0.7589 0.0756
6.5030 -0.7441 0.0753
6.4943 -0.7330 0.0748
6.4867 -0.7217 0.0744
6.4736 -0.7141 0.0739
6.4737 -0.6992 0.0736
6.4649 -0.6899 0.0732
6.4528 -0.6833 0.0728
6.4528 -0.6691 0.0725
6.4483 -0.6581 0.0722
6.4394 -0.6506 0.0718
6.4371 -0.6386 0.0715
6.4337 -0.6276 0.0712
7.4230 -2.3373 0.1720
7.4122 -2.2829 0.1703
7.3551 -2.1944 0.1655
7.2534 -2.0366 0.1569
7.2179 -1.9725 0.1537
7.1893 -1.9152 0.1510
7.1093 -1.7926 0.1443
7.0650 -1.7326 0.1407
7.0429 -1.6868 0.1386
7.0034 -1.6339 0.1354
6.9013 -1.4668 0.1266
6.8972 -1.4365 0.1258
6.8847 -1.4039 0.1245
6.6793 -1.0722 0.1068
6.6681 -1.0510 0.1058
6.6601 -1.0303 0.1050
6.6316 -0.9717 0.1023
6.5930 -0.9202 0.0992
6.5933 -0.9015 0.0988
6.5753 -0.8875 0.0976
6.5669 -0.8718 0.0968
6.5618 -0.8556 0.0962
6.5457 -0.8433 0.0951
6.5372 -0.8292 0.0944
6.5363 -0.8127 0.0940
6.5256 -0.8003 0.0932
6.5246 -0.7843 0.0928
6.5127 -0.7734 0.0919
6.5041 -0.7615 0.0912
6.4955 -0.7347 0.0902
6.4790 -0.7284 0.0892
6.4691 -0.7045 0.0882
6.4635 -0.6934 0.0877
6.4580 -0.6826 0.0872
6.4557 -0.6699 0.0868
6.4479 -0.6613 0.0862
6.4445 -0.6498 0.0858
6.4344 -0.6436 0.0851
6.4321 -0.6319 0.0848
6.4353 -0.6160 0.0846
7.2417 -2.0213 0.1918
7.2119 -1.9619 0.1882
7.0945 -1.7439 0.1743
6.9965 -1.6264 0.1640
6.9132 -1.4975 0.1547
6.8997 -1.4634 0.1529
6.8007 -1.2722 0.1410
6.6324 -0.9921 0.1217
6.6242 -0.9734 0.1206
6.6170 -0.9549 0.1197
6.5928 -0.9214 0.1170
6.5888 -0.9038 0.1163
6.5804 -0.8876 0.1153
6.5602 -0.8576 0.1131
6.5484 -0.8441 0.1119
6.5398 -0.8300 0.1109
6.5400 -0.8132 0.1105
6.5335 -0.7991 0.1097
6.5216 -0.7877 0.1085
6.4954 -0.7371 0.1054
6.4822 -0.7291 0.1042
6.4800 -0.7154 0.1037
6.4688 -0.7072 0.1026
6.4699 -0.6921 0.1024
6.4610 -0.6834 0.1015
6.4542 -0.6737 0.1008
6.4508 -0.6621 0.1002
6.4417 -0.6547 0.0994
6.4405 -0.6420 0.0990
6.4326 -0.6346 0.0982
7.2521 -2.0214 0.2283
7.1065 -1.7805 0.2077
7.0707 -1.7261 0.2027
7.0205 -1.6341 0.1954
6.9042 -1.4623 0.1794
6.8039 -1.3220 0.1658
6.8025 -1.2963 0.1650
6.6723 -1.0513 0.1458
6.6630 -1.0309 0.1444
6.6386 -1.0120 0.1415
6.6347 -0.9925 0.1406
6.6318 -0.9732 0.1398
6.6235 -0.9549 0.1385
6.6162 -0.9368 0.1374
6.6013 -0.9208 0.1355
6.5906 -0.9046 0.1340
6.5756 -0.8901 0.1321
6.5714 -0.8734 0.1313
6.5563 -0.8603 0.1294
6.5543 -0.8438 0.1288
6.5467 -0.8293 0.1277
6.5370 -0.8162 0.1264
6.5327 -0.8013 0.1256
6.5162 -0.7919 0.1237
6.5107 -0.7785 0.1228
6.5086 -0.7638 0.1222
6.4986 -0.7531 0.1210
6.4898 -0.7424 0.1198
6.4842 -0.7303 0.1189
6.4775 -0.7193 0.1180
6.4674 -0.7106 0.1168
6.4685 -0.6956 0.1165
6.4594 -0.6870 0.1154
6.4515 -0.6782 0.1144
6.4503 -0.6652 0.1139
6.4457 -0.6547 0.1132
6.4422 -0.6437 0.1126
6.4364 -0.6346 0.1118
7.2874 -2.0791 0.2694
7.2563 -2.0173 0.2639
7.0939 -1.7682 0.2370
7.0672 -1.7194 0.2323
7.0268 -1.6653 0.2259
6.9779 -1.6093 0.2183
6.9434 -1.5629 0.2127
6.9235 -1.5246 0.2092
6.6401 -0.9926 0.1598
6.6241 -0.9748 0.1573
6.6124 -0.9573 0.1554
6.6160 -0.9379 0.1553
6.6032 -0.9215 0.1533
6.5848 -0.9071 0.1506
6.5775 -0.8732 0.1488
6.5556 -0.8620 0.1457
6.5536 -0.8456 0.1451
6.5405 -0.8166 0.1427
6.5340 -0.8027 0.1415
6.5174 -0.7934 0.1391
6.5107 -0.7805 0.1380
6.5097 -0.7654 0.1375
6.4996 -0.7548 0.1359
6.4974 -0.7407 0.1353
6.4851 -0.7322 0.1335
6.4839 -0.7181 0.1330
6.4783 -0.7067 0.1320
6.4669 -0.6991 0.1304
6.4635 -0.6871 0.1296
6.4566 -0.6775 0.1285
6.4463 -0.6707 0.1270
6.4439 -0.6588 0.1264
6.4370 -0.6504 0.1253
6.4346 -0.6389 0.1247
7.3946 -2.2778 0.3265
7.2981 -2.0792 0.3066
7.0477 -1.7043 0.2588
7.0311 -1.6633 0.2551
6.6357 -0.9936 0.1775
6.6262 -0.9753 0.1755
6.6177 -0.9574 0.1738
6.6037 -0.9409 0.1712
6.5614 -0.8789 0.1632
6.5617 -0.8446 0.1623
6.5496 -0.8318 0.1601
6.5441 -0.8171 0.1589
6.5330 -0.8050 0.1569
6.5241 -0.7925 0.1552
6.5163 -0.7801 0.1537
6.5107 -0.7670 0.1525
6.4813 -0.7219 0.1469
6.4756 -0.7107 0.1457
6.4733 -0.6978 0.1450
6.4641 -0.6893 0.1434
6.4595 -0.6783 0.1424
6.4491 -0.6715 0.1406
6.4444 -0.6612 0.1397
6.4397 -0.6513 0.1387
6.4349 -0.6416 0.1377
6.4337 -0.6295 0.1372
7.2829 -2.1012 0.3399
7.0439 -1.6655 0.2858
6.6227 -0.9764 0.1927
6.6196 -0.9579 0.1916
6.6044 -0.9417 0.1885
6.5979 -0.9247 0.1869
6.5904 -0.9082 0.1851
6.5828 -0.8922 0.1833
6.5695 -0.8781 0.1806
6.5686 -0.8612 0.1800
6.5586 -0.8472 0.1778
6.5475 -0.8341 0.1755
6.5140 -0.7676 0.1678
6.5106 -0.7538 0.1668
6.4913 -0.7335 0.1628
6.4855 -0.7220 0.1615
6.4729 -0.7147 0.1591
6.4705 -0.7020 0.1583
6.4647 -0.6915 0.1570
6.4543 -0.6843 0.1550
6.4553 -0.6700 0.1547
6.4471 -0.6621 0.1531
6.4435 -0.6513 0.1522
6.4341 -0.6450 0.1504
6.4316 -0.6339 0.1496
6.7149 -1.1159 0.2325
6.6525 -1.0326 0.2177
6.6484 -1.0131 0.2163
6.6279 -0.9765 0.2111
6.6126 -0.9598 0.2076
6.6139 -0.9411 0.2073
6.5996 -0.9254 0.2040
6.5764 -0.8950 0.1985
6.5789 -0.8770 0.1984
6.5632 -0.8642 0.1950
6.5510 -0.8346 0.1917
6.5421 -0.8213 0.1895
6.5308 -0.8095 0.1869
6.5240 -0.7964 0.1852
6.5206 -0.7821 0.1841
6.5070 -0.7729 0.1811
6.5093 -0.7566 0.1810
6.4828 -0.7258 0.1749
6.4816 -0.7122 0.1742
6.4723 -0.7034 0.1721
6.4629 -0.6951 0.1701
6.4536 -0.6874 0.1680
6.4488 -0.6770 0.1667
6.4464 -0.6653 0.1659
6.4427 -0.6547 0.1648
6.4367 -0.6459 0.1634
6.8330 -1.3464 0.2854
6.7651 -1.2103 0.2661
6.7359 -1.1833 0.2588
6.7153 -1.1157 0.2521
6.6925 -1.0935 0.2464
6.6695 -1.0725 0.2407
6.6610 -1.0524 0.2381
6.6591 -1.0326 0.2371
6.6407 -0.9949 0.2318
6.6298 -0.9770 0.2288
6.6110 -0.9608 0.2242
6.5924 -0.9100 0.2185
6.5813 -0.8950 0.2156
6.5724 -0.8800 0.2131
6.5635 -0.8656 0.2107
6.5590 -0.8501 0.2092
6.5420 -0.8392 0.2051
6.5364 -0.8251 0.2034
6.5364 -0.8091 0.2029
6.5090 -0.7740 0.1958
6.5021 -0.7621 0.1939
6.5009 -0.7478 0.1931
6.4951 -0.7361 0.1915
6.4741 -0.7188 0.1863
6.4634 -0.6973 0.1833
6.4587 -0.6867 0.1819
6.4527 -0.6771 0.1803
6.4490 -0.6662 0.1791
6.4477 -0.6539 0.1784
6.4358 -0.6494 0.1757
6.4391 -0.6340 0.1759
6.5508 -3.1176 0.4580
6.6777 -5.5844 1.0556
6.5987 -5.7241 1.0921
5.6139 -5.4581 1.0577
5.5197 -5.2756 1.0162
6.5335 -3.0659 0.4063
6.5461 -5.4132 0.9239
5.9292 -3.7617 0.5775
5.6372 -4.8483 0.8258
5.5609 -4.6221 0.7782
4.7276 -4.0584 0.6781
4.6642 -4.0317 0.6741
6.5907 -5.6199 0.8682
6.5153 -5.8169 0.9091
6.3796 -5.6530 0.8806
5.9296 -3.7463 0.5170
5.6391 -4.7933 0.7314
5.5556 -4.6912 0.7136
5.2125 -6.1243 1.0055
4.8002 -4.0460 0.6071
4.7589 -3.9601 0.5913
4.6304 -4.0976 0.6219
1.7247 -5.8622 1.0497
1.8546 -5.5756 0.9896
1.5844 -5.7285 1.0272
6.2667 -2.3196 0.2031
6.7080 -6.2058 0.8655
6.4823 -5.5848 0.7637
6.3873 -5.6762 0.7820
6.2758 -5.6678 0.7834
6.1469 -5.4654 0.7516
5.9300 -3.7309 0.4565
5.8621 -3.5786 0.4318
5.2778 -5.5430 0.7874
4.7215 -4.2496 0.5774
4.7443 -3.9818 0.5304
2.3408 -5.2736 0.8161
2.5267 -4.9357 0.7528
2.5614 -4.7824 0.7253
2.1381 -5.1187 0.7945
6.2519 -2.3337 0.1820
6.7088 -6.1751 0.7445
5.9265 -3.6550 0.3870
5.8713 -3.7918 0.4087
5.7143 -2.8527 0.2723
5.6479 -3.2500 0.3332
5.5448 -3.8189 0.4206
5.4908 -3.7148 0.4063
4.8297 -3.9308 0.4544
4.8350 -3.7311 0.4244
4.6131 -4.1050 0.4855
2.4909 -5.0750 0.6810
2.3867 -5.0672 0.6823
2.3928 -4.9407 0.6633
7.0008 -3.0431 0.2298
6.2531 -2.3296 0.1572
5.7921 -2.6124 0.2027
5.7579 -2.6141 0.2036
5.7238 -2.6072 0.2035
5.6884 -2.6238 0.2064
5.6572 -2.5841 0.2021
4.8710 -4.2469 0.4270
4.8004 -4.2170 0.4249
4.8302 -3.9135 0.3863
4.7452 -3.9467 0.3923
4.6660 -3.9611 0.3959
4.5672 -4.0167 0.4050
2.6894 -4.7082 0.5327
2.0821 -5.2483 0.6135
6.1577 -4.5620 0.3581
5.7959 -2.8718 0.1962
4.9077 -4.3842 0.3656
4.8789 -4.2036 0.3481
4.8741 -3.9802 0.3258
4.7873 -4.0151 0.3310
4.7456 -3.9292 0.3233
4.6824 -3.9053 0.3222
4.5948 -3.9380 0.3272
4.4540 -4.0782 0.3441
2.6305 -4.9914 0.4723
2.6285 -4.8692 0.4601
2.5947 -4.7891 0.4528
2.0828 -5.2211 0.5064
7.3746 -3.6217 0.1844
6.0091 -3.2817 0.1838
5.9506 -3.2056 0.1792
5.8445 -3.0436 0.1690
5.7981 -3.0074 0.1671
5.6996 -3.2163 0.1846
5.6489 -3.2125 0.1852
4.8919 -4.7571 0.3150
4.9770 -4.1210 0.2657
4.9278 -4.0287 0.2597
4.8746 -3.9624 0.2557
4.8171 -3.9170 0.2533
4.7461 -3.9116 0.2542
4.6988 -3.8500 0.2505
4.6210 -3.8632 0.2529
2.6975 -4.8887 0.3651
2.5623 -4.9197 0.3699
2.5292 -4.8370 0.3643
2.4638 -4.7930 0.3622
1.8837 -5.2770 0.4091
6.9578 -3.0677 0.1079
6.2483 -2.3540 0.0841
6.7705 -4.6237 0.1883
6.6841 -4.6172 0.1894
6.3310 -3.7962 0.1544
6.0378 -3.5069 0.1448
5.9736 -3.4371 0.1424
5.9172 -3.4328 0.1431
5.8628 -3.4801 0.1463
5.7496 -3.2924 0.1389
5.6436 -3.2844 0.1402
5.5936 -3.2482 0.1392
4.9776 -4.4030 0.2067
5.0137 -3.9749 0.1848
4.9410 -3.9695 0.1858
4.8472 -4.0264 0.1901
4.8029 -3.9392 0.1865
4.7538 -3.8758 0.1842
4.6833 -3.8705 0.1851
4.6380 -3.8094 0.1828
2.4438 -5.4462 0.3000
2.6337 -5.0696 0.2782
2.5272 -5.0616 0.2796
2.6622 -4.7835 0.2635
2.5960 -4.7408 0.2625
2.4299 -4.8048 0.2684
2.2943 -4.8334 0.2721
2.0360 -4.9806 0.2836
1.7992 -5.0980 0.2933
7.0204 -3.0853 0.0643
6.9366 -3.0249 0.0641
6.2698 -2.3375 0.0573
6.2539 -2.3592 0.0580
6.7746 -4.9212 0.1119
6.9317 -5.9201 0.1335
6.4482 -5.2018 0.1233
6.0645 -3.7111 0.0931
5.8746 -3.7457 0.0967
5.8092 -3.7242 0.0971
5.7428 -3.8389 0.1009
5.6942 -3.3428 0.0897
5.3586 -4.7461 0.1281
5.0531 -5.4103 0.1485
4.9919 -4.3291 0.1235
5.0364 -3.8795 0.1120
4.9601 -3.8925 0.1135
4.9500 -3.7096 0.1092
4.8714 -3.7380 0.1110
4.8241 -3.6835 0.1104
4.7299 -3.7451 0.1133
4.6624 -3.7400 0.1141
4.2515 -4.4422 0.1369
3.4408 -5.6005 0.1763
2.6361 -5.1808 0.1779
2.6689 -5.0021 0.1732
2.6656 -4.8769 0.1702
2.5978 -4.8312 0.1701
2.5966 -4.7166 0.1674
2.3595 -4.8539 0.1741
1.5898 -5.5187 0.2011
1.5753 -5.4051 0.1986
1.4964 -5.2420 0.1959
7.0842 -3.1027 0.0195
7.0698 -3.1440 0.0196
7.0043 -3.1132 0.0205
7.1354 -3.3806 0.0183
8.1764 -5.2658 0.0013
6.2869 -2.3136 0.0311
6.2757 -2.3427 0.0312
6.7852 -4.9337 0.0194
6.7582 -5.1995 0.0191
6.2802 -3.8273 0.0280
6.4953 -5.4435 0.0219
5.8203 -4.4526 0.0324
5.7377 -4.2634 0.0339
5.6932 -3.3643 0.0363
5.4210 -4.2147 0.0379
5.0367 -5.4798 0.0401
5.0368 -4.4796 0.0422
5.0873 -3.6870 0.0432
5.0319 -3.6497 0.0440
5.0276 -3.4694 0.0444
4.9628 -3.4780 0.0452
4.8855 -3.5156 0.0461
4.7303 -3.7284 0.0476
4.5695 -3.9263 0.0492
4.4129 -4.0914 0.0508
3.5257 -5.4169 0.0591
2.7075 -5.0669 0.0701
2.7683 -4.8594 0.0697
2.8533 -4.6382 0.0691
2.7267 -4.6649 0.0707
2.5972 -4.6924 0.0722
2.2863 -4.9049 0.0757
1.7435 -5.3357 0.0815
1.3573 -5.5880 0.0858
1.4037 -5.4178 0.0856
7.0271 -3.0716 -0.0239
7.1065 -3.3231 -0.0319
6.9694 -3.1854 -0.0266
6.3121 -2.3563 0.0040
6.6547 -4.7645 -0.0683
6.4250 -4.1545 -0.0485
6.3105 -3.9589 -0.0417
6.3301 -4.4699 -0.0565
6.3117 -4.9103 -0.0689
5.8181 -4.2496 -0.0448
5.7437 -3.8053 -0.0314
5.6945 -3.3270 -0.0172
5.4328 -4.1025 -0.0366
5.2288 -3.9577 -0.0303
5.1859 -3.5518 -0.0183
5.1318 -3.5189 -0.0168
5.0966 -3.4320 -0.0139
5.0280 -3.4546 -0.0138
4.9087 -3.6080 -0.0170
4.8379 -3.6191 -0.0165
4.7454 -3.6779 -0.0172
4.5792 -3.8884 -0.0215
4.3910 -4.1177 -0.0261
3.6157 -5.4475 -0.0558
3.4124 -5.5956 -0.0579
2.7607 -5.4356 -0.0465
2.7822 -5.0910 -0.0369
2.7423 -4.9986 -0.0339
2.7369 -4.8719 -0.0302
2.7315 -4.7533 -0.0267
2.6641 -4.7102 -0.0248
2.5978 -4.6683 -0.0229
2.4999 -4.6609 -0.0217
1.7932 -5.2581 -0.0313
6.9878 -3.1309 -0.0717
6.9067 -3.0748 -0.0679
6.2916 -2.3091 -0.0203
6.5135 -4.5188 -0.1444
6.3150 -3.9610 -0.1119
6.3355 -4.4769 -0.1406
6.3003 -5.5682 -0.2006
5.6939 -3.3368 -0.0721
5.5367 -3.8087 -0.0968
5.4489 -3.9562 -0.1042
5.1854 -4.5997 -0.1376
5.2886 -3.6533 -0.0861
5.2519 -3.5270 -0.0788
5.1561 -3.4219 -0.0722
5.0883 -3.4443 -0.0729
5.0190 -3.4667 -0.0735
4.9635 -3.4482 -0.0720
4.8447 -3.5873 -0.0787
4.7459 -3.6615 -0.0820
4.0842 -4.7190 -0.1348
2.8247 -5.1601 -0.1485
2.8166 -5.0217 -0.1408
2.8406 -4.8541 -0.1317
2.7375 -4.8464 -0.1304
2.6004 -4.8769 -0.1309
2.7279 -4.6171 -0.1177
2.5323 -4.7136 -0.1213
2.3978 -4.7413 -0.1217
2.2219 -4.8076 -0.1239
1.9109 -4.9986 -0.1318
6.3005 -2.3195 -0.0474
6.2697 -2.4266 -0.0561
6.2594 -2.4715 -0.0597
6.5637 -4.7121 -0.2464
6.3591 -4.1565 -0.1993
6.2887 -5.4405 -0.3047
5.7417 -4.0016 -0.1825
5.5318 -3.8470 -0.1684
5.4591 -3.8597 -0.1690
5.3792 -3.9125 -0.1728
5.3081 -3.5453 -0.1421
5.2556 -3.4978 -0.1378
5.2123 -3.4246 -0.1315
5.1565 -3.4073 -0.1297
5.0622 -3.5117 -0.1377
4.9683 -3.5968 -0.1442
3.7524 -5.6178 -0.3029
3.6567 -5.5538 -0.2970
3.7413 -5.1548 -0.2647
3.6554 -5.1027 -0.2598
2.6047 -5.4190 -0.2791
2.7491 -5.0802 -0.2521
2.6745 -5.0290 -0.2474
2.4127 -5.1978 -0.2596
2.7327 -4.7040 -0.2210
2.6969 -4.6273 -0.2144
2.4994 -4.7239 -0.2211
2.2883 -4.8277 -0.2283
2.0629 -4.9384 -0.2360
1.3596 -5.4958 -0.2774
6.3017 -2.3149 -0.0738
6.9665 -5.4635 -0.4230
6.7301 -4.9796 -0.3687
6.6041 -4.8604 -0.3550
6.3741 -4.2079 -0.2823
6.3366 -4.4346 -0.3070
6.3028 -4.7683 -0.3436
6.2554 -5.1412 -0.3844
6.1913 -5.5542 -0.4295
5.9260 -4.8095 -0.3465
5.8251 -4.5411 -0.3165
5.5341 -3.8106 -0.2349
5.4641 -3.8053 -0.2340
5.3941 -3.8000 -0.2331
5.3306 -3.7590 -0.2283
5.3174 -3.4872 -0.1984
5.2783 -3.3887 -0.1874
5.2055 -3.4366 -0.1923
5.1117 -3.5453 -0.2039
4.8426 -3.9368 -0.2457
3.9992 -5.6059 -0.4256
3.7789 -5.5330 -0.4166
3.6843 -5.4705 -0.4093
3.5361 -5.5147 -0.4135
3.5552 -5.2554 -0.3851
3.3549 -5.3924 -0.3993
3.2670 -5.3345 -0.3925
2.5648 -5.4418 -0.4012
2.7498 -5.0530 -0.3593
2.7776 -4.8799 -0.3404
2.8029 -4.7217 -0.3231
2.7334 -4.6793 -0.3181
2.6659 -4.6370 -0.3132
2.0265 -5.1899 -0.3711
1.9110 -5.1812 -0.3697
6.8954 -4.8583 -0.4529
6.6656 -4.7061 -0.4314
6.5964 -4.8009 -0.4443
6.3649 -4.1416 -0.3529
6.2593 -3.9827 -0.3307
6.3141 -4.8146 -0.4455
5.8271 -4.6111 -0.4163
5.7360 -4.5123 -0.4025
5.5624 -3.5044 -0.2632
5.5171 -3.3671 -0.2441
5.4610 -3.3498 -0.2416
5.3964 -3.3830 -0.2461
5.3321 -3.4042 -0.2488
5.2629 -3.4399 -0.2536
5.1377 -3.6755 -0.2858
4.9808 -3.9706 -0.3261
4.9181 -3.9239 -0.3195
4.8782 -3.8199 -0.3051
4.8544 -3.6892 -0.2870
3.0193 -4.8310 -0.4402
3.0337 -4.6771 -0.4190
2.7715 -4.7334 -0.4262
2.6363 -4.7622 -0.4298
2.5332 -4.7545 -0.4285
2.4301 -4.7467 -0.4272
1.9565 -4.8771 -0.4441
1.8487 -4.8690 -0.4427
1.9959 -4.6361 -0.4110
6.4220 -2.4715 -0.1544
6.9961 -3.8679 -0.3865
6.9183 -3.8442 -0.3825
6.9327 -4.0359 -0.4144
6.7571 -4.3970 -0.4744
6.6566 -4.3369 -0.4643
6.5732 -4.3306 -0.4633
6.5025 -4.3779 -0.4711
6.3293 -3.9499 -0.4000
6.2751 -4.0491 -0.4165
6.1360 -3.6365 -0.3479
6.0003 -3.5657 -0.3361
5.9143 -3.2415 -0.2822
5.8601 -3.2375 -0.2816
5.6958 -3.2698 -0.2869
5.5628 -3.4892 -0.3233
5.5128 -3.3901 -0.3069
5.4012 -3.3440 -0.2992
5.3379 -3.3640 -0.3025
5.1974 -3.6980 -0.3580
5.0397 -4.0227 -0.4119
4.9483 -4.0615 -0.4183
4.8911 -3.9887 -0.4062
4.8509 -3.8795 -0.3880
4.7994 -3.8150 -0.3773
4.8073 -3.6171 -0.3444
4.6455 -3.8233 -0.3787
4.5814 -3.7987 -0.3746
4.4485 -3.9118 -0.3933
4.1229 -4.3689 -0.4692
4.0170 -4.3907 -0.4728
3.9088 -4.4134 -0.4766
3.8540 -4.3487 -0.4658
3.7261 -4.3996 -0.4743
3.5504 -4.5145 -0.4933
3.4323 -4.5394 -0.4974
3.3364 -4.5322 -0.4962
3.2899 -4.4622 -0.4846
3.1446 -4.5178 -0.4938
6.4532 -2.5193 -0.1957
6.7426 -3.1228 -0.3127
6.7487 -3.2287 -0.3334
6.9622 -3.7792 -0.4402
6.9978 -4.0017 -0.4835
6.9515 -4.0603 -0.4950
6.6957 -3.9593 -0.4758
6.2565 -3.9263 -0.4702
6.1802 -3.9008 -0.4654
6.1051 -3.8765 -0.4608
6.0291 -3.8323 -0.4524
5.9491 -3.7030 -0.4273
5.8054 -3.1677 -0.3233
5.7004 -3.1499 -0.3201
5.5619 -3.4876 -0.3861
5.5013 -3.4692 -0.3827
5.4479 -3.4100 -0.3713
5.3924 -3.3792 -0.3654
5.3215 -3.4281 -0.3750
5.2021 -3.6637 -0.4212
5.0904 -3.8189 -0.4516
5.0000 -3.8723 -0.4622
4.9324 -3.8465 -0.4573
4.8368 -3.9014 -0.4682
4.7612 -3.8958 -0.4672
4.8145 -3.5843 -0.4065
4.6283 -3.8444 -0.4575
4.5635 -3.8188 -0.4526
4.5554 -3.6851 -0.4266
4.4366 -3.7698 -0.4433
4.2848 -3.9024 -0.4695
4.1693 -3.9607 -0.4811
4.1044 -3.9332 -0.4758
4.0546 -3.8851 -0.4666
3.9635 -3.8999 -0.4696
3.8391 -3.9586 -0.4813
3.7762 -3.9312 -0.4761
3.6452 -3.9913 -0.4881
3.5271 -4.0308 -0.4960
2.9773 -3.9648 -0.4842
2.8713 -3.9815 -0.4877
2.8392 -3.9308 -0.4779
7.1995 -3.2907 -0.3992
7.2180 -3.3910 -0.4216
7.0848 -3.2714 -0.3954
6.9716 -3.1738 -0.3740
6.4816 -2.5054 -0.2264
6.4396 -2.4866 -0.2224
6.7069 -3.2332 -0.3884
6.7053 -3.3417 -0.4127
7.0207 -4.2015 -0.6039
6.7742 -3.7826 -0.5111
6.7190 -3.8127 -0.5181
6.6432 -3.7894 -0.5132
6.5205 -3.6176 -0.4752
6.4948 -3.7440 -0.5036
6.2698 -3.6301 -0.4791
6.1777 -3.8641 -0.5318
6.0782 -3.6471 -0.4837
6.0153 -3.6747 -0.4901
5.7027 -3.0882 -0.3601
5.6402 -3.2499 -0.3966
5.4419 -3.4358 -0.4390
5.3880 -3.3906 -0.4291
5.3132 -3.4535 -0.4435
5.2368 -3.5065 -0.4557
5.1689 -3.5161 -0.4581
5.0860 -3.5725 -0.4711
5.0147 -3.5828 -0.4737
4.9481 -3.5778 -0.4729
4.8935 -3.5424 -0.4652
4.8471 -3.4919 -0.4541
4.7621 -3.5325 -0.4635
4.6818 -3.5578 -0.4695
4.6229 -3.5377 -0.4652
4.5486 -3.5478 -0.4678
4.4820 -3.5428 -0.4670
4.4245 -3.5228 -0.4627
4.3488 -3.5328 -0.4653
4.2284 -3.6079 -0.4826
4.1359 -3.6362 -0.4893
4.0659 -3.6310 -0.4884
3.9959 -3.6257 -0.4876
3.9259 -3.6204 -0.4867
3.8696 -3.5986 -0.4820
3.8002 -3.5934 -0.4811
3.7159 -3.6047 -0.4840
3.6298 -3.6168 -0.4871
3.5092 -3.6635 -0.4981
3.4199 -3.6754 -0.5011
3.3286 -3.6882 -0.5043
3.2929 -3.6473 -0.4953
3.2020 -3.6591 -0.4983
3.1293 -3.6536 -0.4974
7.4570 -3.4796 -0.5009
7.3312 -3.3856 -0.4779
7.4307 -3.5972 -0.5308
7.3584 -3.5782 -0.5265
7.0165 -3.1558 -0.4216
6.9179 -3.0775 -0.4024
6.8754 -3.4485 -0.4967
6.7789 -3.3674 -0.4768
6.7270 -3.6483 -0.5483
6.6159 -3.5224 -0.5171
6.5491 -3.5037 -0.5128
6.4653 -3.4304 -0.4947
6.4178 -3.4667 -0.5042
6.3461 -3.4214 -0.4932
6.2772 -3.3783 -0.4827
6.2357 -3.4530 -0.5019
6.1776 -3.4622 -0.5046
6.1059 -3.3907 -0.4870
6.0501 -3.4128 -0.4929
5.9915 -3.4210 -0.4954
5.9283 -3.3774 -0.4847
5.8691 -3.3729 -0.4840
5.8097 -3.3558 -0.4800
5.7514 -3.3028 -0.4670
5.7053 -3.0204 -0.3957
5.5743 -3.3381 -0.4770
5.5155 -3.3337 -0.4763
5.4567 -3.3293 -0.4755
5.3955 -3.3373 -0.4780
5.3417 -3.3080 -0.4709
5.2832 -3.3036 -0.4702
5.2247 -3.2992 -0.4694
5.1698 -3.2834 -0.4658
5.0995 -3.3151 -0.4742
5.0310 -3.3362 -0.4800
4.9710 -3.3317 -0.4793
4.9219 -3.3017 -0.4720
4.8571 -3.3095 -0.4744
4.8035 -3.2929 -0.4705
4.7443 -3.2884 -0.4697
4.6785 -3.2961 -0.4721
4.6043 -3.3168 -0.4778
4.5440 -3.3122 -0.4770
4.4914 -3.2956 -0.4732
4.4402 -3.2782 -0.4691
4.3892 -3.2617 -0.4652
4.3388 -3.2453 -0.4614
4.2708 -3.2528 -0.4637
4.2020 -3.2603 -0.4661
4.1317 -3.2686 -0.4686
4.0615 -3.2760 -0.4709
4.0011 -3.2714 -0.4702
3.9052 -3.3051 -0.4793
3.8191 -3.3258 -0.4851
3.7822 -3.2958 -0.4778
3.6946 -3.3165 -0.4835
3.5891 -3.3523 -0.4933
3.4960 -3.3744 -0.4995
3.4153 -3.3839 -0.5024
7.2699 -3.2898 -0.5100
7.2109 -3.3520 -0.5281
6.8629 -2.9803 -0.4258
6.5043 -2.5267 -0.3004
6.4492 -2.4868 -0.2896
6.4252 -2.5005 -0.2937
6.3796 -2.4739 -0.2865
6.3211 -2.4183 -0.2713
6.2900 -2.4160 -0.2709
6.0133 -3.1153 -0.4714
5.9645 -3.1405 -0.4790
5.8596 -3.1433 -0.4807
5.8059 -3.0997 -0.4688
5.7542 -3.0765 -0.4627
5.7076 -2.9571 -0.4293
5.6496 -3.0976 -0.4695
5.5946 -3.1234 -0.4773
5.5416 -3.1194 -0.4767
5.4854 -3.1354 -0.4817
5.3759 -3.1378 -0.4833
5.3246 -3.1233 -0.4797
5.2765 -3.0995 -0.4733
5.2235 -3.0955 -0.4726
4.9585 -3.0756 -0.4693
4.9106 -3.0613 -0.4657
4.8525 -3.0676 -0.4679
4.7944 -3.0729 -0.4699
3.8563 -3.1462 -0.4988
3.7988 -3.1419 -0.4981
3.7661 -3.1153 -0.4908
3.7094 -3.1110 -0.4901
6.9011 -2.8989 -0.4483
6.5780 -2.5325 -0.3369
6.4379 -2.4587 -0.3153
6.3798 -2.4658 -0.3182
6.1980 -3.0243 -0.4953
6.0505 -3.0132 -0.4934
6.0024 -3.0182 -0.4955
5.9530 -3.0145 -0.4949
5.9036 -3.0108 -0.4943
5.8534 -2.9898 -0.4882
5.8046 -2.9947 -0.4903
5.7555 -2.9824 -0.4870
5.7092 -2.9138 -0.4660
5.6061 -2.9980 -0.4935
5.5576 -2.9848 -0.4899
5.5095 -2.9726 -0.4866
5.4603 -2.9689 -0.4860
5.4130 -2.9567 -0.4827
5.3662 -2.9445 -0.4794
5.3175 -2.9409 -0.4787
5.2662 -2.9457 -0.4808
5.2116 -2.9588 -0.4855
5.1622 -2.9551 -0.4849
5.1161 -2.9430 -0.4816
5.0742 -2.9226 -0.4757
5.0216 -2.9273 -0.4777
4.9727 -2.9236 -0.4771
4.9150 -2.9365 -0.4818
4.8702 -2.9245 -0.4785
4.8259 -2.9126 -0.4752
4.7770 -2.9089 -0.4746
4.7280 -2.9052 -0.4740
4.6791 -2.9015 -0.4734
4.6302 -2.8979 -0.4727
4.5813 -2.8942 -0.4721
4.5196 -2.9068 -0.4768
4.4628 -2.9121 -0.4790
4.4207 -2.8994 -0.4755
4.3713 -2.8957 -0.4749
4.3137 -2.9009 -0.4772
4.2563 -2.9052 -0.4791
4.1985 -2.9095 -0.4811
4.1645 -2.8897 -0.4753
4.1148 -2.8860 -0.4746
4.0747 -2.8734 -0.4711
4.0065 -2.8865 -0.4760
3.9373 -2.8995 -0.4808
6.6133 -2.4829 -0.3553
6.4848 -2.4771 -0.3550
6.4318 -2.4398 -0.3429
6.4443 -2.7281 -0.4420
6.4066 -2.7310 -0.4435
6.3564 -2.7043 -0.4350
6.3078 -2.6788 -0.4268
6.2789 -2.7042 -0.4360
6.1295 -2.5883 -0.3980
5.8930 -2.8551 -0.4930
5.8484 -2.8660 -0.4974
5.7573 -2.8373 -0.4887
5.7126 -2.8272 -0.4858
5.6662 -2.8456 -0.4928
5.6229 -2.8205 -0.4847
5.5800 -2.8030 -0.4792
5.5355 -2.7997 -0.4787
5.4885 -2.8104 -0.4830
5.4436 -2.8070 -0.4824
5.4040 -2.7831 -0.4747
5.3655 -2.7593 -0.4670
5.3240 -2.7495 -0.4642
5.2783 -2.7527 -0.4659
5.2223 -2.7828 -0.4770
5.1721 -2.7933 -0.4813
5.0786 -2.7939 -0.4827
5.0370 -2.7831 -0.4796
4.8852 -2.8012 -0.4878
4.8024 -2.7807 -0.4818
4.7669 -2.7628 -0.4761
4.7219 -2.7594 -0.4756
4.6769 -2.7561 -0.4750
6.3667 -2.3694 -0.3514
6.4617 -2.7544 -0.4945
6.4317 -2.7767 -0.5034
6.3742 -2.7365 -0.4892
6.3529 -2.7840 -0.5073
6.1394 -2.6140 -0.4468
6.1041 -2.6217 -0.4503
6.0967 -2.7581 -0.5016
6.0122 -2.7518 -0.5005
5.9270 -2.7387 -0.4970
5.8854 -2.7422 -0.4989
5.8006 -2.7170 -0.4908
5.7588 -2.7261 -0.4948
5.7167 -2.7229 -0.4943
5.6750 -2.7141 -0.4917
5.6338 -2.7044 -0.4887
5.5912 -2.7078 -0.4906
5.5513 -2.6926 -0.4855
5.4697 -2.6798 -0.4820
5.4284 -2.6767 -0.4814
5.3852 -2.6801 -0.4834
5.3457 -2.6705 -0.4804
5.3002 -2.6794 -0.4844
5.2585 -2.6762 -0.4839
5.2142 -2.6795 -0.4858
5.1699 -2.6819 -0.4874
5.1248 -2.6851 -0.4893
5.0858 -2.6755 -0.4863
5.0437 -2.6724 -0.4858
5.0047 -2.6638 -0.4832
4.9628 -2.6606 -0.4826
4.9249 -2.6512 -0.4797
4.8832 -2.6480 -0.4792
4.8372 -2.6512 -0.4811
4.7953 -2.6480 -0.4805
4.7534 -2.6449 -0.4800
4.7072 -2.6471 -0.4815
4.6652 -2.6439 -0.4810
4.6277 -2.6354 -0.4784
4.5755 -2.6438 -0.4824
4.5275 -2.6468 -0.4842
4.4740 -2.6551 -0.4882
4.4374 -2.6457 -0.4852
4.4065 -2.6311 -0.4802
4.3642 -2.6279 -0.4797
4.3220 -2.6247 -0.4791
4.2866 -2.6155 -0.4762
4.2446 -2.6123 -0.4757
6.6834 -2.6117 -0.4768
6.6636 -2.6346 -0.4865
6.6323 -2.6416 -0.4899
6.5914 -2.6339 -0.4874
6.5214 -2.5761 -0.4652
6.3724 -2.3718 -0.3846
6.3347 -2.3558 -0.3788
6.3593 -2.6905 -0.5147
6.3038 -2.6479 -0.4983
6.2572 -2.6238 -0.4893
6.2190 -2.6209 -0.4888
6.1326 -2.5797 -0.4736
6.1043 -2.6123 -0.4874
5.9897 -2.6037 -0.4859
5.8367 -2.5875 -0.4821
5.7984 -2.5743 -0.4774
5.7604 -2.5921 -0.4853
5.7218 -2.5938 -0.4868
5.6844 -2.5760 -0.4802
5.6063 -2.5852 -0.4853
5.5718 -2.5573 -0.4745
5.5360 -2.5442 -0.4699
5.4973 -2.5470 -0.4717
5.4534 -2.5690 -0.4814
5.4150 -2.5661 -0.4810
5.3830 -2.5431 -0.4721
5.3383 -2.5603 -0.4800
5.2555 -2.5691 -0.4850
5.2143 -2.5716 -0.4868
4.9866 -2.5442 -0.4797
4.9545 -2.5315 -0.4751
4.9093 -2.5384 -0.4788
4.8562 -2.5550 -0.4865
4.4632 -2.5255 -0.4815
4.3393 -2.5218 -0.4822
6.6401 -2.5900 -0.5080
6.6067 -2.5922 -0.5096
6.5729 -2.5943 -0.5112
6.5274 -2.5769 -0.5045
5.6514 -2.5157 -0.4955
5.5805 -2.4964 -0.4884
5.5451 -2.4891 -0.4859
5.5091 -2.4864 -0.4855
5.4695 -2.4974 -0.4911
5.3966 -2.4919 -0.4902
5.3585 -2.4937 -0.4918
5.3184 -2.5000 -0.4954
5.2834 -2.4927 -0.4929
5.2486 -2.4855 -0.4904
5.2163 -2.4737 -0.4859
5.1777 -2.4755 -0.4874
5.1388 -2.4772 -0.4890
5.1073 -2.4655 -0.4845
5.0764 -2.4539 -0.4800
5.0346 -2.4601 -0.4836
4.9923 -2.4662 -0.4871
4.9526 -2.4679 -0.4887
4.9191 -2.4607 -0.4862
4.8757 -2.4667 -0.4897
4.8423 -2.4596 -0.4873
4.8019 -2.4612 -0.4888
4.7688 -2.4541 -0.4863
4.7320 -2.4513 -0.4859
4.6912 -2.4529 -0.4874
4.6458 -2.4588 -0.4909
4.6130 -2.4517 -0.4885
4.5805 -2.4446 -0.4860
4.5343 -2.4504 -0.4895
4.4923 -2.4519 -0.4910
4.4501 -2.4534 -0.4925
4.4227 -2.4420 -0.4881
4.3908 -2.4350 -0.4857
6.7315 -2.4816 -0.4946
6.7020 -2.4840 -0.4964
6.5619 -2.4651 -0.4907
6.5286 -2.4626 -0.4903
6.5007 -2.4689 -0.4938
6.4643 -2.4615 -0.4912
6.4199 -2.4397 -0.4819
6.3269 -2.4438 -0.4860
6.2972 -2.4490 -0.4891
6.2622 -2.4426 -0.4869
6.2289 -2.4401 -0.4865
6.1970 -2.4414 -0.4878
6.1352 -2.4525 -0.4944
6.0310 -2.4336 -0.4879
5.9304 -2.4260 -0.4866
5.8968 -2.4235 -0.4862
5.6285 -2.4033 -0.4828
5.5949 -2.4008 -0.4824
5.5623 -2.3937 -0.4798
5.5288 -2.3912 -0.4794
5.4973 -2.3815 -0.4755
5.4641 -2.3790 -0.4750
5.4272 -2.3882 -0.4802
5.3924 -2.3893 -0.4815
5.3528 -2.4020 -0.4885
5.3202 -2.3959 -0.4863
5.2914 -2.3817 -0.4803
5.2594 -2.3756 -0.4781
5.2204 -2.3837 -0.4829
5.1734 -2.4052 -0.4940
5.1480 -2.3866 -0.4859
5.1231 -2.3690 -0.4781
5.0871 -2.3700 -0.4794
5.0534 -2.3675 -0.4790
5.0196 -2.3650 -0.4786
4.9832 -2.3659 -0.4799
4.9344 -2.3826 -0.4888
4.9027 -2.3765 -0.4867
4.8816 -2.3583 -0.4786
4.8439 -2.3601 -0.4803
4.7924 -2.3765 -0.4892
4.7198 -2.3748 -0.4900
4.6850 -2.3722 -0.4896
4.5153 -2.3557 -0.4857
6.5035 -2.4158 -0.5038
6.4713 -2.4134 -0.5034
6.4368 -2.4072 -0.5011
6.3987 -2.3942 -0.4955
6.2638 -2.2511 -0.4266
5.4748 -2.3349 -0.4889
5.4427 -2.3325 -0.4885
5.3772 -2.3312 -0.4895
5.3450 -2.3288 -0.4891
5.3112 -2.3299 -0.4905
5.2772 -2.3310 -0.4920
5.2448 -2.3286 -0.4915
5.2216 -2.3094 -0.4824
5.1897 -2.3070 -0.4820
5.1498 -2.3178 -0.4885
5.1129 -2.3224 -0.4917
5.0780 -2.3234 -0.4931
5.0479 -2.3175 -0.4909
