ply
format ascii 1.0
element vertex 2179
property float x
property float y
property float z
end_header
0.7585 1.7742 -0.3296
0.7344 1.8159 -0.3437
0.7091 1.8239 -0.3403
0.6833 1.8677 -0.3550
0.6583 1.8651 -0.3461
0.6336 1.8697 -0.3410
0.6084 1.8850 -0.3413
0.5836 1.8969 -0.3399
0.5567 1.9268 -0.3472
0.5284 1.9616 -0.3565
0.5045 1.9657 -0.3514
0.4805 1.9730 -0.3479
0.4574 1.9766 -0.3428
0.4263 2.0194 -0.3554
0.4117 1.9877 -0.3347
0.3847 2.0113 -0.3387
0.3611 2.0214 -0.3368
0.3338 2.0453 -0.3409
2.0204 1.1544 -0.3551
1.8653 1.2317 -0.3485
1.8231 1.2415 -0.3413
1.7690 1.2743 -0.3419
1.6817 1.3199 -0.3392
1.6129 1.3774 -0.3475
1.5225 1.4196 -0.3423
1.1381 1.2813 -0.1663
1.0904 1.2882 -0.1561
1.0734 1.3007 -0.1573
1.0553 1.3116 -0.1575
1.0307 1.3108 -0.1501
1.0048 1.3055 -0.1402
0.9848 1.3103 -0.1369
0.9710 1.3281 -0.1416
0.9588 1.3513 -0.1494
0.9386 1.3551 -0.1455
0.9687 1.6936 -0.3180
0.9375 1.6853 -0.3051
0.9065 1.6716 -0.2896
0.8848 1.7004 -0.2975
0.8698 1.7777 -0.3307
0.8446 1.8004 -0.3345
0.8183 1.8163 -0.3347
0.7910 1.8192 -0.3284
0.7654 1.8411 -0.3317
0.7132 1.8884 -0.3399
0.6868 1.9003 -0.3381
0.6590 1.9517 -0.3552
0.6067 1.9604 -0.3445
0.5797 1.9799 -0.3463
0.5544 1.9848 -0.3415
0.5286 1.9962 -0.3397
0.4975 2.0413 -0.3527
0.4758 2.0282 -0.3403
0.4534 2.0240 -0.3318
0.3682 2.1009 -0.3449
0.3126 2.1419 -0.3490
1.9170 1.2031 -0.3138
1.9682 1.2524 -0.3498
1.9392 1.2700 -0.3501
1.9101 1.2877 -0.3504
1.8493 1.2896 -0.3352
1.8407 1.3171 -0.3454
1.8275 1.3431 -0.3537
1.7831 1.3520 -0.3459
1.7647 1.3758 -0.3519
1.7289 1.3891 -0.3484
1.6927 1.4015 -0.3445
1.6577 1.4143 -0.3410
1.6230 1.4269 -0.3375
1.5977 1.4464 -0.3396
1.5694 1.4636 -0.3399
1.5438 1.4834 -0.3421
1.5126 1.4981 -0.3405
1.4842 1.5153 -0.3408
1.4634 1.5406 -0.3468
1.4323 1.5552 -0.3452
1.4014 1.5697 -0.3436
1.3109 1.5580 -0.3142
1.0613 1.3221 -0.1405
1.0356 1.3197 -0.1326
1.0166 1.3281 -0.1313
0.9976 1.3364 -0.1301
0.9781 1.3429 -0.1279
0.9666 1.3689 -0.1366
0.9709 1.4404 -0.1703
0.9591 1.4761 -0.1834
0.9453 1.5099 -0.1951
0.9316 1.5489 -0.2092
0.9189 1.5989 -0.2286
0.9005 1.6323 -0.2389
0.8871 1.8690 -0.3430
0.8574 1.8743 -0.3375
0.8303 1.8992 -0.3417
0.8045 1.9455 -0.3559
0.7748 1.9456 -0.3480
0.7464 1.9628 -0.3483
0.7180 1.9800 -0.3486
0.6900 1.9716 -0.3373
0.6604 2.0372 -0.3593
0.6318 2.0503 -0.3576
0.6062 2.0266 -0.3401
0.5494 2.0696 -0.3445
0.5187 2.1051 -0.3525
0.4888 2.1317 -0.3567
0.4642 2.1254 -0.3473
0.4333 2.1569 -0.3534
0.4069 2.1645 -0.3498
0.3808 2.1718 -0.3462
0.3539 2.1839 -0.3446
1.8361 1.0830 -0.2076
1.8129 1.0971 -0.2078
1.8107 1.1187 -0.2165
1.8566 1.1847 -0.2560
2.0142 1.2780 -0.3349
1.9984 1.3025 -0.3414
1.9779 1.3256 -0.3462
1.8733 1.3741 -0.3409
1.8430 1.3925 -0.3412
1.8084 1.4081 -0.3392
1.7740 1.4236 -0.3373
1.7407 1.4396 -0.3358
1.7036 1.4525 -0.3321
1.6948 1.4866 -0.3445
1.5517 1.5393 -0.3314
1.5194 1.5546 -0.3299
1.4520 1.6339 -0.3470
1.2543 1.5319 -0.2544
1.0218 1.3379 -0.1140
1.0008 1.3421 -0.1106
0.9867 1.3613 -0.1153
0.8693 1.9393 -0.3324
0.8391 1.9480 -0.3286
0.8122 1.9931 -0.3412
0.7538 2.0574 -0.3540
0.6332 2.1156 -0.3489
0.6035 2.1293 -0.3474
0.5123 2.1942 -0.3524
0.4847 2.1961 -0.3463
0.4557 2.2094 -0.3448
0.3940 2.2564 -0.3495
0.3665 2.2634 -0.3457
0.3422 2.2590 -0.3378
0.3071 2.2995 -0.3463
0.2760 2.3226 -0.3484
1.8039 1.0574 -0.1604
1.8363 1.0883 -0.1801
1.8415 1.1120 -0.1908
1.8277 1.1300 -0.1948
2.0037 1.4149 -0.3487
1.9858 1.4430 -0.3557
1.9482 1.4604 -0.3540
1.8777 1.4568 -0.3363
1.8365 1.4700 -0.3320
1.8181 1.4984 -0.3391
1.7941 1.5237 -0.3436
1.7618 1.5433 -0.3439
1.7099 1.5468 -0.3333
1.6783 1.5660 -0.3336
1.6466 1.5852 -0.3339
1.6225 1.6117 -0.3389
1.5834 1.6236 -0.3346
1.5619 1.6538 -0.3417
1.5231 1.6655 -0.3373
1.4884 1.6811 -0.3356
1.3339 1.5931 -0.2648
1.2671 1.5518 -0.2330
1.0221 1.3379 -0.0913
0.9964 1.3320 -0.0830
1.0789 1.8231 -0.2974
1.0437 1.8218 -0.2887
1.0307 1.8964 -0.3154
1.0004 1.9147 -0.3157
0.9865 2.0082 -0.3496
0.9525 2.0180 -0.3457
0.9265 2.0736 -0.3618
0.8872 2.0458 -0.3417
0.8573 2.0811 -0.3488
0.8249 2.0954 -0.3470
0.7930 2.1148 -0.3473
0.7290 2.1418 -0.3433
0.6976 2.1339 -0.3329
0.6656 2.1856 -0.3461
0.6335 2.2115 -0.3489
0.6008 2.2421 -0.3536
0.5713 2.2320 -0.3427
0.5377 2.2696 -0.3499
0.5083 2.2703 -0.3434
0.4722 2.3201 -0.3549
0.4400 2.3396 -0.3552
0.4079 2.3591 -0.3555
0.3797 2.3590 -0.3490
0.3479 2.3783 -0.3493
0.3129 2.4113 -0.3543
0.2825 2.4244 -0.3525
1.8655 1.1030 -0.1626
1.7772 1.2411 -0.1948
1.7886 1.2754 -0.2099
1.9310 1.5383 -0.3376
1.9168 1.5730 -0.3474
1.9022 1.6089 -0.3575
1.8172 1.6399 -0.3508
1.7347 1.6704 -0.3444
1.4455 1.6311 -0.2679
1.3465 1.5588 -0.2200
1.2915 1.5358 -0.1997
1.3085 1.6144 -0.2324
1.1515 1.8191 -0.2745
1.1420 1.8921 -0.2995
1.1002 1.8806 -0.2863
1.1003 1.9988 -0.3300
1.0671 2.0189 -0.3303
1.0405 2.0654 -0.3418
1.0030 2.0697 -0.3354
0.9727 2.1065 -0.3425
0.8966 2.0865 -0.3188
0.8680 2.1397 -0.3324
0.8352 2.1650 -0.3347
0.8027 2.1977 -0.3398
0.7691 2.2181 -0.3402
0.7355 2.2385 -0.3405
0.6680 2.2913 -0.3456
0.6342 2.3119 -0.3460
0.5985 2.3595 -0.3559
0.5634 2.3873 -0.3587
0.5318 2.3804 -0.3494
0.4969 2.4081 -0.3522
0.3230 2.5266 -0.3587
0.2886 2.5475 -0.3591
0.2636 2.5301 -0.3473
2.4279 1.3994 -0.3454
2.3754 1.4159 -0.3407
2.3237 1.4320 -0.3360
1.9222 1.5826 -0.3083
1.9789 1.6717 -0.3500
1.9305 1.6858 -0.3452
1.8935 1.7082 -0.3456
1.8243 1.7578 -0.3489
1.7098 1.7048 -0.3082
1.5121 1.6060 -0.2354
1.4557 1.5932 -0.2198
1.3467 1.5609 -0.1873
1.3081 1.5603 -0.1794
1.3008 1.6041 -0.1930
1.2723 1.6181 -0.1921
1.2487 1.6400 -0.1950
1.1991 1.6155 -0.1768
1.2081 2.0649 -0.3324
1.1804 2.1101 -0.3424
1.1460 2.1387 -0.3454
1.1112 2.1674 -0.3483
1.0745 2.1897 -0.3487
1.0422 2.2322 -0.3569
0.9970 2.2137 -0.3416
0.9237 2.2516 -0.3401
0.8883 2.2796 -0.3427
0.8527 2.3089 -0.3457
0.8178 2.3530 -0.3539
0.7799 2.3530 -0.3465
0.7443 2.4129 -0.3599
0.7071 2.4125 -0.3524
0.6698 2.4581 -0.3607
0.6346 2.4335 -0.3453
0.5983 2.4555 -0.3457
0.5561 2.5500 -0.3697
0.5242 2.5158 -0.3517
0.4816 2.5875 -0.3678
0.4475 2.5852 -0.3603
0.4131 2.5908 -0.3554
0.3809 2.5874 -0.3479
0.3413 2.6267 -0.3535
0.2992 2.6752 -0.3618
0.2739 2.6457 -0.3467
0.2272 2.7112 -0.3599
0.1927 2.7245 -0.3577
2.2952 1.3901 -0.2721
2.2800 1.4203 -0.2788
2.2649 1.4515 -0.2859
2.2981 1.5074 -0.3096
2.3838 1.5943 -0.3525
2.4014 1.6509 -0.3735
1.7875 1.6253 -0.2543
1.7450 1.6379 -0.2506
1.6693 1.6187 -0.2308
1.6194 1.6204 -0.2223
1.3365 1.5494 -0.1487
1.3105 1.5652 -0.1490
1.2860 1.5834 -0.1503
1.2430 2.2863 -0.3641
1.1927 2.2804 -0.3531
1.1050 2.2983 -0.3429
1.0691 2.3366 -0.3485
1.0220 2.3222 -0.3354
0.9109 2.4326 -0.3501
0.7943 2.5485 -0.3655
0.7131 2.5272 -0.3441
0.5533 2.6682 -0.3596
0.5154 2.6725 -0.3541
0.4779 2.6786 -0.3492
0.3603 2.7500 -0.3504
0.3211 2.7737 -0.3508
0.2799 2.8076 -0.3540
2.3932 1.4015 -0.2482
2.5206 1.6254 -0.3338
2.5446 1.6863 -0.3554
2.5097 1.7186 -0.3589
2.3658 1.6881 -0.3264
2.3664 1.7400 -0.3415
2.2574 1.7239 -0.3189
2.2158 1.7491 -0.3193
1.8263 1.6142 -0.2161
1.7712 1.6165 -0.2077
1.9059 1.8437 -0.2955
1.9375 1.9379 -0.3279
1.9205 1.9893 -0.3399
1.8652 2.0017 -0.3344
1.8404 2.0479 -0.3436
1.3423 1.5589 -0.1203
1.3051 1.5592 -0.1143
1.6108 2.1561 -0.3370
1.0101 1.3571 -0.0073
1.3734 2.3523 -0.3544
1.3234 2.3615 -0.3489
1.2686 2.3536 -0.3376
1.2372 2.4137 -0.3497
1.1969 2.4493 -0.3534
1.1511 2.4660 -0.3506
1.0978 2.4472 -0.3364
1.0594 2.4905 -0.3426
1.0203 2.5353 -0.3491
0.9761 2.5521 -0.3466
0.9357 2.5966 -0.3528
0.8917 2.6133 -0.3504
0.8534 2.7010 -0.3693
0.8070 2.6858 -0.3573
0.7642 2.7328 -0.3638
0.7205 2.7704 -0.3675
0.6770 2.7646 -0.3586
0.6333 2.8011 -0.3620
0.5910 2.8057 -0.3563
0.5512 2.7887 -0.3448
0.5038 2.8697 -0.3604
0.4216 2.8884 -0.3522
0.3703 2.9718 -0.3678
0.3326 2.9624 -0.3589
0.2895 2.9886 -0.3594
0.2487 3.0033 -0.3569
0.2111 3.0050 -0.3512
0.1572 3.0799 -0.3639
2.5018 1.4533 -0.2335
2.8485 1.7436 -0.3614
2.8377 1.7927 -0.3726
2.8132 1.8367 -0.3805
2.6776 1.8204 -0.3560
2.1542 1.6641 -0.2370
2.0022 1.7070 -0.2256
1.9152 1.6903 -0.2083
2.1644 2.0913 -0.3507
1.3108 1.5687 -0.0863
1.0206 1.3325 0.0189
1.3027 2.4448 -0.3150
1.2585 2.4717 -0.3155
1.1118 2.7297 -0.3614
1.0482 2.6686 -0.3358
0.9156 2.7972 -0.3498
0.8746 2.9005 -0.3708
0.6817 2.9526 -0.3557
0.4420 3.1360 -0.3682
0.2479 3.2672 -0.3737
0.2144 3.2226 -0.3570
0.1883 3.1544 -0.3352
0.1463 3.1686 -0.3327
2.8386 1.5997 -0.2663
2.5116 1.5057 -0.2004
2.7814 1.7213 -0.2874
2.7704 1.7686 -0.2971
2.7101 1.7916 -0.2945
2.8776 1.9417 -0.3524
2.6252 1.8567 -0.2986
2.2347 1.6736 -0.2032
2.1889 1.6935 -0.2018
2.4333 2.0419 -0.3168
2.4467 2.1230 -0.3378
2.3740 2.1366 -0.3313
1.0238 1.2973 0.0473
0.9415 2.9908 -0.3424
0.8965 3.0948 -0.3610
0.8399 3.0524 -0.3435
0.7896 3.0976 -0.3474
0.7396 3.2215 -0.3701
0.6344 3.2538 -0.3637
0.5851 3.2216 -0.3495
0.5318 3.2844 -0.3573
0.4757 3.3658 -0.3691
0.4335 3.2989 -0.3476
0.3867 3.2979 -0.3411
0.3432 3.2814 -0.3314
0.2863 3.3588 -0.3421
0.2242 3.4563 -0.3569
0.1795 3.4529 -0.3502
0.1178 3.5355 -0.3615
0.0699 3.5499 -0.3585
2.6669 1.6275 -0.1969
2.6231 1.6541 -0.1973
2.5997 1.6910 -0.2024
2.6171 1.7510 -0.2171
2.5209 1.7502 -0.2056
2.3600 1.7079 -0.1777
2.2122 1.6667 -0.1515
2.1806 1.6949 -0.1538
2.4463 1.9297 -0.2347
2.5583 2.0745 -0.2785
1.1052 1.2210 0.0732
1.0969 1.2397 0.0703
1.0840 1.2532 0.0689
1.0355 1.2803 0.0689
1.0245 1.2984 0.0664
1.0107 1.3124 0.0651
0.9768 1.3284 0.0657
0.9600 1.3363 0.0660
0.9458 1.3506 0.0646
0.8423 1.3759 0.0715
0.8590 3.2541 -0.3272
0.8109 3.4698 -0.3671
0.7509 3.4278 -0.3512
0.6940 3.4259 -0.3441
0.6391 3.4046 -0.3331
0.5855 3.4018 -0.3262
0.5298 3.4538 -0.3306
0.4795 3.4320 -0.3200
0.4275 3.4476 -0.3172
0.3826 3.4100 -0.3040
0.3351 3.4081 -0.2980
0.2784 3.4732 -0.3050
0.2263 3.5048 -0.3055
0.1808 3.5017 -0.2995
0.1294 3.5329 -0.3000
0.0779 3.5641 -0.3006
2.6951 1.6495 -0.1517
2.5327 1.6185 -0.1292
2.6168 1.7085 -0.1546
2.5524 1.7246 -0.1510
2.3914 1.6847 -0.1270
2.2143 1.6282 -0.0983
2.2405 1.6914 -0.1127
2.1939 1.7105 -0.1115
1.1507 1.1246 0.1049
1.1390 1.1351 0.1041
1.1270 1.1688 0.0991
1.1059 1.1701 0.1010
1.0974 1.1856 0.0990
0.8402 1.3587 0.0932
0.7639 1.3775 0.0975
0.7025 3.5987 -0.3098
0.6428 3.6349 -0.3104
0.3410 3.4385 -0.2428
0.2944 3.4358 -0.2375
0.2403 3.4847 -0.2411
0.1922 3.4978 -0.2386
0.1480 3.4948 -0.2335
0.0975 3.5254 -0.2340
2.6443 1.7314 -0.1080
2.2765 1.7212 -0.0741
2.1647 1.6977 -0.0604
1.1452 1.1215 0.1223
1.1308 1.1291 0.1223
1.1165 1.1366 0.1224
1.1085 1.1507 0.1208
1.0987 1.1636 0.1196
1.0835 1.1705 0.1198
1.0379 1.1635 0.1249
1.0033 1.1671 0.1274
0.9847 1.1657 0.1293
0.9712 1.1716 0.1295
0.9563 1.1748 0.1303
0.9453 1.1850 0.1296
0.9312 1.1889 0.1302
0.9209 1.2010 0.1292
0.8956 1.2151 0.1291
0.8719 1.2341 0.1281
0.8597 1.2427 0.1278
0.8365 1.2660 0.1261
0.8255 1.2819 0.1245
0.8135 1.2950 0.1234
0.8004 1.3029 0.1233
0.7916 1.3418 0.1178
0.7781 1.3523 0.1173
0.7116 3.4570 -0.2171
0.6559 3.4538 -0.2117
0.6032 3.4142 -0.2007
0.5531 3.3775 -0.1903
0.5004 3.4095 -0.1909
0.4509 3.4072 -0.1862
0.3988 3.4388 -0.1867
0.3535 3.4189 -0.1795
0.2997 3.4677 -0.1826
0.2455 3.5156 -0.1856
0.1938 3.5470 -0.1861
0.1491 3.5429 -0.1816
0.1017 3.5566 -0.1796
1.4420 1.0735 0.1232
2.2379 1.7036 -0.0216
1.8256 1.5148 0.0345
1.1420 1.1204 0.1387
1.1270 1.1271 0.1389
1.1208 1.1425 0.1372
1.1085 1.1523 0.1368
1.0874 1.1523 0.1383
1.0695 1.1550 0.1392
1.0381 1.1647 0.1402
1.0193 1.1645 0.1416
1.0042 1.1690 0.1421
0.9893 1.1734 0.1426
0.9742 1.1767 0.1432
0.9621 1.1852 0.1430
0.9491 1.1919 0.1430
0.9249 1.2090 0.1424
0.8767 1.2463 0.1408
0.8657 1.2600 0.1397
0.8523 1.2658 0.1399
0.8397 1.2746 0.1396
0.8282 1.2886 0.1386
0.8161 1.3017 0.1376
0.8039 1.3150 0.1367
0.7918 1.3316 0.1353
0.7793 1.3484 0.1339
0.7671 1.3722 0.1315
0.7519 1.3616 0.1341
0.6643 3.4868 -0.1515
0.5623 3.3752 -0.1287
0.5098 3.4070 -0.1292
0.4525 3.4918 -0.1367
0.4031 3.4881 -0.1326
0.3526 3.5024 -0.1308
0.3128 3.4474 -0.1204
0.2674 3.4446 -0.1167
0.2172 3.4751 -0.1172
0.1169 3.5359 -0.1182
2.2753 1.6860 0.0237
2.1877 1.6781 0.0297
1.1433 1.1234 0.1540
1.1328 1.1344 0.1533
1.0839 1.1735 0.1518
0.8103 1.3453 0.1483
0.7685 1.3671 0.1483
0.7537 1.3609 0.1499
0.7282 3.3609 -0.0757
0.6749 3.3592 -0.0724
0.6223 3.3747 -0.0710
0.5696 3.4067 -0.0716
0.5118 3.5097 -0.0799
0.4641 3.4706 -0.0726
0.4113 3.5026 -0.0732
0.3563 3.5524 -0.0756
0.3183 3.4781 -0.0649
1.9952 1.4460 0.1026
2.2271 1.6185 0.0768
2.2591 1.6830 0.0696
2.1737 1.6757 0.0740
1.1415 1.1235 0.1696
1.1431 1.1923 0.1633
0.9707 1.1444 0.1753
0.9576 1.1488 0.1755
0.9455 1.1550 0.1755
0.9330 1.1602 0.1756
0.9202 1.1644 0.1758
0.8949 1.1726 0.1761
0.8859 1.1852 0.1754
0.8737 1.1902 0.1755
0.8639 1.2021 0.1749
0.8527 1.2100 0.1747
0.8420 1.2201 0.1742
0.8319 1.2333 0.1735
0.7549 1.3533 0.1661
2.7305 1.6636 0.1005
2.9201 1.8034 0.0854
2.7972 1.7947 0.0897
2.4444 1.6586 0.1096
2.2302 1.6718 0.1152
1.8696 1.5214 0.1362
1.1350 1.1193 0.1854
1.1205 1.1258 0.1854
1.0149 1.1362 0.1879
0.9709 1.1450 0.1887
0.9588 1.1512 0.1886
0.9453 1.1546 0.1888
0.9343 1.1625 0.1886
0.9228 1.1694 0.1885
0.9114 1.1764 0.1884
0.8999 1.1834 0.1883
0.8773 1.1983 0.1879
0.8661 1.2062 0.1878
0.8551 1.2152 0.1875
0.8441 1.2243 0.1872
0.8330 1.2334 0.1869
2.5592 1.4358 0.1628
1.8447 1.4037 0.1760
1.1277 1.1142 0.2006
1.1141 1.1212 0.2005
1.0452 1.1306 0.2013
1.0306 1.1347 0.2013
1.0024 1.1434 0.2014
0.9877 1.1463 0.2015
0.9766 1.1543 0.2014
0.9347 1.1629 0.2017
0.8579 1.2215 0.2004
0.8468 1.2306 0.2002
0.8351 1.2377 0.2000
0.8250 1.2522 0.1996
0.8142 1.2648 0.1992
0.8030 1.2764 0.1989
0.7917 1.2892 0.1985
0.7449 1.3524 0.1965
2.6533 1.4429 0.2036
2.6074 1.4623 0.2033
2.6583 1.5208 0.2019
1.8461 1.2378 0.2103
1.8258 1.2537 0.2101
1.8137 1.3589 0.2078
1.7649 1.3607 0.2079
1.7828 1.4031 0.2070
1.1416 1.1093 0.2152
1.0458 1.1324 0.2149
1.0019 1.1433 0.2148
0.9901 1.1504 0.2147
0.9784 1.1575 0.2146
0.9630 1.1584 0.2146
0.9509 1.1645 0.2145
0.9141 1.1808 0.2143
0.9047 1.1926 0.2141
0.8927 1.1986 0.2140
0.8826 1.2096 0.2137
0.8710 1.2166 0.2136
0.8597 1.2247 0.2135
0.8483 1.2328 0.2133
0.8387 1.2483 0.2130
0.8266 1.2544 0.2129
0.8156 1.2659 0.2127
0.8058 1.2852 0.2123
0.7939 1.2948 0.2122
0.7835 1.3168 0.2117
0.7731 1.3449 0.2112
0.7606 1.3585 0.2109
0.7464 1.3490 0.2111
0.7338 1.3590 0.2110
2.6331 1.4435 0.2454
2.6218 1.4759 0.2453
1.8338 1.2370 0.2369
2.6360 1.6900 0.2456
1.8492 1.4163 0.2371
1.7511 1.4198 0.2361
1.8118 1.4962 0.2368
1.1347 1.1048 0.2294
1.1222 1.1124 0.2293
1.1135 1.1237 0.2292
1.0625 1.1316 0.2287
1.0470 1.1349 0.2285
1.0186 1.1436 0.2282
1.0055 1.1491 0.2281
0.9914 1.1528 0.2279
0.9791 1.1590 0.2278
0.9685 1.1679 0.2277
0.9517 1.1659 0.2275
0.9402 1.1729 0.2274
0.9065 1.1958 0.2271
0.8957 1.2047 0.2270
0.8855 1.2158 0.2269
0.8728 1.2198 0.2267
0.8634 1.2341 0.2266
0.8498 1.2350 0.2265
0.8393 1.2463 0.2264
0.8282 1.2566 0.2263
0.8182 1.2725 0.2262
0.8065 1.2819 0.2261
0.7955 1.2959 0.2260
0.7840 1.3090 0.2258
0.7619 1.3528 0.2256
0.7112 1.7085 0.2253
2.6301 1.4504 0.2867
1.8666 1.3385 0.2660
1.8769 1.3739 0.2671
1.8433 1.3857 0.2665
1.7349 1.4135 0.2646
1.7123 1.4652 0.2652
1.1268 1.0995 0.2430
1.1170 1.1091 0.2430
1.1078 1.1196 0.2430
1.0794 1.1307 0.2426
1.0616 1.1317 0.2422
1.0342 1.1422 0.2418
1.0204 1.1469 0.2416
1.0043 1.1480 0.2412
0.9926 1.1551 0.2411
0.9821 1.1640 0.2410
0.9677 1.1666 0.2408
0.9540 1.1700 0.2405
0.9410 1.1742 0.2403
0.9309 1.1840 0.2403
0.9203 1.1929 0.2402
0.9070 1.1960 0.2400
0.8952 1.2020 0.2398
0.8848 1.2120 0.2398
0.8739 1.2210 0.2398
0.8630 1.2301 0.2397
0.8502 1.2330 0.2395
0.8395 1.2431 0.2394
0.8306 1.2620 0.2396
0.8194 1.2725 0.2396
0.7976 1.3004 0.2397
0.7860 1.3124 0.2397
0.7749 1.3313 0.2399
0.7624 1.3390 0.2397
0.7494 1.3407 0.2395
0.7370 1.3494 0.2394
0.7142 1.7188 0.2471
0.6946 1.7490 0.2474
2.0789 1.3600 0.3031
2.0100 1.3574 0.3004
1.9028 1.3335 0.2954
1.8598 1.3398 0.2941
1.8408 1.3587 0.2943
1.7573 1.3402 0.2904
1.7332 1.3548 0.2901
1.6972 1.3619 0.2891
1.6849 1.3841 0.2896
1.6777 1.4107 0.2906
1.6531 1.4256 0.2903
1.6482 1.4558 0.2914
1.1141 1.1080 0.2565
1.1066 1.1200 0.2567
1.0936 1.1266 0.2565
1.0756 1.1277 0.2559
1.0600 1.1310 0.2555
1.0480 1.1382 0.2554
1.0341 1.1429 0.2550
1.0210 1.1484 0.2548
1.0068 1.1521 0.2544
0.9927 1.1557 0.2541
0.9822 1.1646 0.2541
0.9689 1.1689 0.2538
0.9578 1.1769 0.2537
0.9452 1.1821 0.2535
0.9309 1.1834 0.2530
0.9186 1.1884 0.2528
0.9076 1.1963 0.2527
0.8962 1.2032 0.2526
0.8740 1.2191 0.2525
0.8642 1.2312 0.2527
0.8526 1.2382 0.2526
0.8416 1.2474 0.2525
0.8312 1.2599 0.2527
0.8201 1.2703 0.2528
0.8091 1.2819 0.2529
0.7979 1.2937 0.2530
0.7873 1.3112 0.2534
0.7750 1.3186 0.2532
0.7630 1.3284 0.2532
0.7507 1.3346 0.2530
0.7385 1.3433 0.2530
0.7264 1.3580 0.2532
0.7172 1.7241 0.2689
1.7486 1.3395 0.3165
1.7400 1.3634 0.3176
1.7158 1.3781 0.3173
1.1031 1.1180 0.2699
1.0887 1.1229 0.2695
1.0597 1.1318 0.2686
1.0465 1.1374 0.2684
1.0347 1.1445 0.2682
1.0197 1.1474 0.2677
1.0049 1.1501 0.2671
0.9922 1.1554 0.2668
0.9790 1.1597 0.2664
0.9664 1.1648 0.2662
0.9545 1.1708 0.2660
0.9426 1.1767 0.2658
0.9317 1.1846 0.2657
0.9190 1.1886 0.2654
0.9073 1.1945 0.2652
0.8960 1.2013 0.2650
0.8854 1.2102 0.2651
0.8748 1.2191 0.2651
0.8640 1.2281 0.2652
0.8547 1.2425 0.2657
0.8428 1.2485 0.2655
0.8312 1.2555 0.2654
0.8208 1.2680 0.2657
0.8105 1.2830 0.2661
0.7994 1.2947 0.2663
0.7881 1.3065 0.2665
0.7768 1.3208 0.2669
0.7649 1.3318 0.2670
0.7524 1.3356 0.2667
0.7400 1.3394 0.2663
0.7201 1.7196 0.2901
1.7231 1.1021 0.3205
1.1193 1.0976 0.2824
1.1050 1.1025 0.2819
1.0690 1.1231 0.2814
1.0580 1.1310 0.2814
1.0442 1.1356 0.2810
1.0299 1.1393 0.2804
1.0158 1.1428 0.2798
1.0031 1.1481 0.2795
0.9916 1.1550 0.2794
0.9779 1.1583 0.2788
0.9677 1.1670 0.2789
0.9552 1.1721 0.2786
0.9424 1.1761 0.2781
0.9307 1.1819 0.2779
0.9208 1.1917 0.2781
0.9086 1.1966 0.2778
0.8965 1.2014 0.2774
0.8857 1.2092 0.2774
0.8758 1.2202 0.2777
0.9285 1.4325 0.2993
0.8435 1.2473 0.2781
0.8325 1.2565 0.2782
0.8224 1.2702 0.2787
0.8109 1.2784 0.2787
0.8000 1.2900 0.2790
0.7887 1.3006 0.2792
0.7776 1.3148 0.2798
0.7657 1.3233 0.2798
0.7538 1.3318 0.2797
0.7415 1.3355 0.2793
1.5256 1.0964 0.3255
1.4801 1.0925 0.3217
1.4620 1.1009 0.3212
1.4586 1.1169 0.3227
1.4609 1.1559 0.3270
1.4567 1.1735 0.3286
1.4478 1.1890 0.3296
1.4396 1.2053 0.3307
1.4531 1.2867 0.3404
1.4458 1.3076 0.3421
1.1169 1.0971 0.2950
1.1044 1.1034 0.2947
1.0826 1.1192 0.2948
1.0687 1.1239 0.2942
1.0534 1.1268 0.2934
1.0405 1.1321 0.2930
1.0291 1.1391 0.2929
1.0137 1.1408 0.2919
1.0018 1.1468 0.2916
0.9887 1.1509 0.2911
0.9786 1.1596 0.2913
0.9640 1.1609 0.2903
0.9528 1.1676 0.2902
0.9407 1.1725 0.2898
0.9315 1.1831 0.2903
0.9189 1.1869 0.2897
0.9095 1.1977 0.2902
0.8975 1.2025 0.2898
0.8871 1.2113 0.2899
0.8758 1.2181 0.2898
0.8643 1.2239 0.2896
0.8011 1.2887 0.2918
0.7899 1.2993 0.2920
0.7554 1.3315 0.2929
0.7426 1.3254 0.2913
0.7313 1.3424 0.2923
1.5735 1.0697 0.3439
1.5808 1.0894 0.3471
1.5579 1.0969 0.3460
1.5091 1.0922 0.3412
1.4732 1.0924 0.3381
1.4576 1.1018 0.3379
1.4532 1.1172 0.3395
1.4594 1.1389 0.3428
1.4362 1.1847 0.3466
1.4193 1.1949 0.3464
1.3965 1.2011 0.3452
1.3931 1.2210 0.3474
1.1146 1.0965 0.3073
1.1054 1.1059 0.3077
1.0954 1.1145 0.3079
1.0798 1.1176 0.3069
0.9985 1.1428 0.3030
0.9874 1.1495 0.3029
0.9188 1.1860 0.3016
0.9078 1.1927 0.3015
0.9021 1.4629 0.3353
0.7795 1.3061 0.3047
0.7681 1.3168 0.3051
0.7562 1.3215 0.3046
0.7447 1.3323 0.3050
0.7327 1.3345 0.3042
1.4106 1.0811 0.3468
1.4118 1.0983 0.3495
1.3713 1.1101 0.3472
1.3471 1.1132 0.3453
1.2833 1.1634 0.3463
1.1172 1.1005 0.3205
1.1089 1.1107 0.3212
1.0909 1.1114 0.3195
1.0770 1.1159 0.3188
1.0626 1.1195 0.3179
1.0477 1.1222 0.3168
1.0344 1.1264 0.3161
1.0782 1.3556 0.3542
0.9982 1.4029 0.3532
0.8547 1.2303 0.3135
0.8336 1.2482 0.3141
0.8227 1.2561 0.3141
0.8124 1.2674 0.3148
0.7801 1.2998 0.3163
0.7687 1.3080 0.3164
0.7577 1.3211 0.3172
0.7464 1.3331 0.3179
0.7345 1.3377 0.3174
1.3812 1.0116 0.3474
1.3399 1.0199 0.3442
1.2518 1.0888 0.3459
1.2380 1.0959 0.3455
1.2435 1.1171 0.3497
1.2265 1.1222 0.3487
1.2142 1.1309 0.3487
1.2011 1.1389 0.3486
1.1182 1.1029 0.3334
1.1066 1.1099 0.3332
1.0903 1.1121 0.3318
1.0742 1.1141 0.3303
1.0599 1.1177 0.3293
1.0458 1.1211 0.3283
1.0340 1.1269 0.3280
1.0202 1.1301 0.3270
1.0092 1.1368 0.3269
0.9734 1.1521 0.3254
0.9392 1.1689 0.3244
0.9275 1.1735 0.3239
0.9177 1.1820 0.3242
0.9077 1.1906 0.3246
0.8961 1.1951 0.3240
0.8857 1.2027 0.3241
0.8748 1.2093 0.3240
0.8532 1.2224 0.3238
0.8126 1.2625 0.3260
0.8025 1.2750 0.3269
0.7924 1.2889 0.3281
0.7701 1.3076 0.3288
0.7590 1.3182 0.3293
0.7473 1.3227 0.3287
0.7360 1.3347 0.3295
0.7246 1.3480 0.3304
1.1246 1.0929 0.3445
1.1132 1.0998 0.3444
1.0985 1.1036 0.3433
1.0832 1.1064 0.3419
1.0705 1.1115 0.3413
1.0579 1.1165 0.3407
1.0446 1.1207 0.3398
1.0322 1.1256 0.3392
1.0192 1.1296 0.3384
1.0077 1.1353 0.3380
0.9962 1.1410 0.3376
0.9829 1.1439 0.3365
0.9603 1.1550 0.3358
0.9496 1.1615 0.3357
0.9378 1.1660 0.3351
0.8858 1.2015 0.3353
0.8850 1.4509 0.3817
0.8685 1.4544 0.3804
0.7920 1.2778 0.3380
0.8079 1.4925 0.3800
0.7926 1.5005 0.3796
0.7493 1.3284 0.3422
0.7380 1.3417 0.3432
0.7264 1.3500 0.3434
1.5706 0.5467 0.3338
1.6363 0.5188 0.3504
1.6622 0.4873 0.3597
1.6726 0.4704 0.3639
1.6717 0.4540 0.3659
3.1818 0.1362 0.7055
3.1404 0.0915 0.7032
3.1641 0.0329 0.7156
3.3200 -0.0608 0.7587
1.4797 0.5899 0.2989
1.5686 0.5486 0.3196
1.5736 0.5357 0.3220
1.6706 0.4886 0.3449
1.6649 0.4730 0.3457
3.2797 0.1239 0.6739
3.3080 0.0629 0.6862
3.2477 0.0187 0.6808
3.4360 -0.0850 0.7266
1.4725 0.6010 0.2851
1.5679 0.5505 0.3055
1.7712 0.4471 0.3486
1.7569 0.4298 0.3482
3.2380 0.1360 0.6128
3.2800 0.0731 0.6261
3.5259 -0.0378 0.6767
3.9544 -0.2066 0.7622
5.1641 -1.1911 1.0582
1.5620 0.5523 0.2907
3.2817 0.0776 0.5714
3.3268 0.0104 0.5839
3.5123 -0.0944 0.6193
3.9219 -0.2699 0.6921
5.2997 -1.2418 0.9730
4.2590 -1.8452 0.8876
4.2034 -1.9365 0.8887
1.4913 0.5964 0.2649
1.5430 0.5780 0.2724
1.5600 0.5667 0.2754
1.5727 0.5544 0.2778
3.3450 0.1280 0.5193
3.2257 0.0932 0.5083
3.4099 -0.0028 0.5376
3.6116 -0.1135 0.5702
3.7410 -0.2169 0.5938
5.0111 -1.1214 0.8161
4.0929 -1.7313 0.7594
4.0060 -1.7935 0.7544
2.5889 -4.9043 0.8453
2.4229 -4.6379 0.8041
1.4818 0.6075 0.2512
1.5644 0.5688 0.2617
1.5680 0.5563 0.2630
2.8323 0.4705 0.3898
3.3482 0.2982 0.4511
3.3479 0.2445 0.4548
3.2872 0.1980 0.4522
3.2283 0.1526 0.4497
3.2128 0.1004 0.4519
3.3306 0.0190 0.4688
3.5198 -0.0867 0.4943
3.6191 -0.1800 0.5102
2.8367 -0.4907 0.4571
2.6850 -4.9872 0.7554
2.4713 -4.5914 0.7075
1.6741 0.6442 0.2515
1.4935 0.6003 0.2405
1.5089 0.5909 0.2422
1.5418 0.5818 0.2452
3.4116 0.5064 0.3886
3.5069 0.4530 0.3988
3.6316 0.3929 0.4115
3.6730 0.3326 0.4180
3.4781 0.2917 0.4058
3.3047 0.2554 0.3949
3.2890 0.2032 0.3967
3.2730 0.1504 0.3985
3.1998 0.1076 0.3955
3.2553 0.0397 0.4035
3.9961 -0.2739 0.4764
4.2388 -0.4255 0.5031
4.7560 -0.7866 0.5620
5.0198 -0.9952 0.5935
4.9603 -1.0930 0.5946
4.9489 -1.2116 0.6005
2.8473 -0.4959 0.4035
2.8168 -0.5460 0.4041
4.0767 -1.9880 0.5796
2.7649 -5.0073 0.6532
2.5583 -4.6598 0.6181
2.4479 -4.5783 0.6053
1.6858 0.6614 0.2357
1.6771 0.6471 0.2358
1.5489 0.5843 0.2318
1.5628 0.5728 0.2330
3.3682 0.5139 0.3313
3.5442 0.4590 0.3430
3.6544 0.3990 0.3515
3.8839 0.3245 0.3669
3.5868 0.2880 0.3527
3.3366 0.2575 0.3408
3.2907 0.2085 0.3405
3.2453 0.1601 0.3402
3.2733 0.0989 0.3444
3.2724 0.0408 0.3469
3.4531 -0.0613 0.3609
4.0313 -0.2776 0.4010
4.2505 -0.4235 0.4190
4.9210 -0.7251 0.4677
4.2193 -0.5983 0.4250
3.8588 -0.5609 0.4042
3.8415 -0.6420 0.4068
4.0168 -0.8075 0.4234
3.5900 -0.7090 0.3964
3.2391 -0.6233 0.3741
3.4268 -1.0722 0.4037
3.2075 -1.1126 0.3938
3.8245 -1.7936 0.4562
4.0326 -2.0954 0.4804
4.2002 -2.3850 0.5020
2.7772 -4.8258 0.5331
2.4989 -4.2790 0.4945
2.4286 -4.3155 0.4923
2.3913 -4.4556 0.4965
2.2921 -4.3857 0.4882
2.1230 0.7503 0.2307
1.9908 0.6738 0.2289
1.5456 0.5861 0.2177
1.5507 0.5742 0.2182
3.4006 0.5206 0.2777
3.5474 0.4661 0.2839
3.5874 0.3528 0.2886
3.3242 0.3186 0.2814
3.2649 0.2715 0.2810
3.2922 0.2138 0.2836
3.2322 0.1674 0.2832
3.2599 0.1064 0.2859
3.2436 0.0516 0.2870
3.3868 -0.0411 0.2943
3.6130 -0.1641 0.3052
4.5759 -0.5107 0.3458
4.7219 -0.6570 0.3548
4.3998 -0.6552 0.3447
4.2143 -0.6885 0.3399
4.1657 -0.7682 0.3408
3.9677 -0.7838 0.3351
3.9788 -0.8863 0.3386
3.2118 -1.0262 0.3189
3.7356 -1.6075 0.3529
3.8330 -1.8055 0.3620
4.1561 -2.2057 0.3843
2.4560 -4.4618 0.3998
2.5279 -4.9770 0.4177
2.4874 -5.1421 0.4215
1.6472 0.6223 0.2039
1.5775 0.5776 0.2040
3.3284 0.5281 0.2211
3.4187 0.4768 0.2228
3.4198 0.4246 0.2237
3.3570 0.3753 0.2239
3.3573 0.3219 0.2249
3.3260 0.2705 0.2254
3.3408 0.2130 0.2266
3.2934 0.1631 0.2270
3.2618 0.1111 0.2276
3.2907 0.0467 0.2289
3.2283 0.0002 0.2291
3.5970 -0.1551 0.2352
4.9656 -0.7268 0.2576
5.2642 -0.9432 0.2641
4.6724 -0.8529 0.2570
4.4965 -0.8963 0.2562
4.4427 -0.9847 0.2572
4.0175 -0.9022 0.2518
3.1383 -1.0684 0.2465
3.7145 -1.5957 0.2608
3.8730 -1.8427 0.2665
4.1310 -2.1917 0.2748
2.3992 -4.3416 0.2954
2.3299 -4.3775 0.2954
1.6476 0.6507 0.1878
1.6358 0.6235 0.1880
1.5890 0.5804 0.1888
1.5832 0.5669 0.1889
3.4210 0.4838 0.1652
3.3747 0.4334 0.1660
3.4554 0.3755 0.1651
3.3279 0.3307 0.1669
3.3274 0.2764 0.1671
3.2512 0.2306 0.1683
3.2501 0.1753 0.1685
3.2189 0.1239 0.1691
3.2317 0.0636 0.1691
3.2602 -0.0025 0.1689
3.2432 -0.0602 0.1694
3.1217 -0.0894 0.1711
5.1821 -0.9095 0.1470
5.0169 -0.9746 0.1493
4.8120 -1.0177 0.1522
4.4197 -0.9718 0.1571
2.9516 -0.8547 0.1759
3.6661 -1.5633 0.1690
3.8503 -1.8300 0.1675
4.1833 -2.2429 0.1646
2.4137 -4.1900 0.1944
2.3447 -4.2260 0.1954
2.3225 -4.4172 0.1964
1.5867 0.5824 0.1734
1.5785 0.5688 0.1735
3.3477 0.5422 0.1101
3.3924 0.4915 0.1080
3.4247 0.4382 0.1062
3.9108 0.3542 0.0880
3.5474 0.3187 0.1006
3.3140 0.2839 0.1086
3.2681 0.2341 0.1097
3.2214 0.1850 0.1109
3.1904 0.1340 0.1115
3.1882 0.0772 0.1110
3.2157 0.0122 0.1093
3.1253 -0.0261 0.1121
3.1963 -0.1064 0.1088
2.8995 -0.4522 0.1158
2.7941 -0.4658 0.1194
2.8871 -0.7346 0.1133
2.9961 -0.8864 0.1079
3.8184 -1.6826 0.0703
3.9929 -1.9495 0.0613
4.3239 -2.3690 0.0451
2.8045 -4.8650 0.0736
2.6551 -5.0021 0.0775
2.4921 -4.7735 0.0857
3.3486 0.4994 0.0523
3.3798 0.4469 0.0492
3.3175 0.3974 0.0517
3.3638 0.3405 0.0476
3.3319 0.2881 0.0482
3.3155 0.2338 0.0478
3.2835 0.1812 0.0484
3.2665 0.1259 0.0481
3.2194 0.0758 0.0496
3.2166 0.0166 0.0483
3.1552 -0.0295 0.0508
3.1374 -0.0861 0.0505
4.0739 -0.4354 -0.0129
2.8602 -0.4320 0.0583
2.7927 -0.4646 0.0615
2.9127 -0.6001 0.0512
2.9483 -0.6961 0.0468
3.5401 -1.2557 -0.0015
3.9559 -1.7913 -0.0390
4.1922 -2.1152 -0.0607
2.6319 -5.3101 -0.0468
3.3356 0.5066 -0.0044
3.4463 0.4516 -0.0156
3.4141 0.3986 -0.0150
3.3344 0.3493 -0.0103
3.3495 0.2926 -0.0138
3.4151 0.2275 -0.0216
3.4336 0.1647 -0.0256
4.3179 -0.0495 -0.1062
3.3142 -0.0005 -0.0221
3.1272 -0.0183 -0.0075
3.1237 -0.0784 -0.0095
4.5516 -0.6814 -0.1497
3.9956 -0.8838 -0.1119
3.5795 -0.8777 -0.0776
3.1735 -0.7465 -0.0393
3.2430 -0.8730 -0.0499
4.2870 -1.9028 -0.1750
4.3092 -2.0645 -0.1831
3.9450 -1.9227 -0.1478
3.9940 -2.1044 -0.1588
1.5774 0.5884 0.1270
1.5775 0.5752 0.1263
3.2657 0.5632 -0.0525
3.2934 0.5142 -0.0580
3.4832 0.4577 -0.0810
3.6709 0.3918 -0.1043
3.8238 0.3188 -0.1243
3.6582 0.2686 -0.1095
3.8382 0.1824 -0.1330
4.1030 0.0736 -0.1667
4.2351 -0.0277 -0.1860
3.5510 0.0212 -0.1112
3.3163 0.0040 -0.0874
3.1422 -0.0177 -0.0701
3.1099 -0.0708 -0.0695
4.2198 -0.4694 -0.2077
4.6095 -0.6954 -0.2608
4.9619 -0.9341 -0.3106
4.3448 -0.8177 -0.2393
3.7689 -0.6836 -0.1715
3.8304 -0.8062 -0.1844
3.7304 -0.8569 -0.1766
3.4487 -0.8084 -0.1443
3.1407 -0.7281 -0.1075
3.1719 -0.8311 -0.1163
3.2431 -0.9649 -0.1308
3.7079 -1.3740 -0.2015
4.3446 -1.9483 -0.2991
3.8761 -1.7401 -0.2386
4.1022 -2.0553 -0.2791
3.8761 -2.1547 -0.2605
3.9980 -2.4194 -0.2874
3.8756 -3.1451 -0.3128
3.1377 -4.0332 -0.2819
2.6831 -4.9941 -0.2847
2.5765 -5.2791 -0.2885
1.5281 0.6110 0.1189
1.5629 0.5896 0.1130
1.5776 0.5774 0.1102
3.4348 0.5201 -0.1341
3.5574 0.4629 -0.1538
3.6161 0.4023 -0.1655
3.7003 0.3358 -0.1809
3.6228 0.2792 -0.1747
3.6670 0.2101 -0.1851
3.7595 0.1303 -0.2024
3.6982 0.0698 -0.1985
3.5957 0.0184 -0.1888
3.1578 -0.0173 -0.1345
3.0961 -0.0631 -0.1296
4.3026 -0.6914 -0.3281
4.1149 -0.7240 -0.3060
3.6298 -0.7127 -0.2425
3.3678 -0.6778 -0.2062
3.1790 -0.6662 -0.1810
3.0125 -0.6562 -0.1587
2.9260 -0.7639 -0.1548
3.6649 -1.4633 -0.2976
3.6485 -1.6952 -0.3111
3.8078 -1.9601 -0.3496
3.5454 -1.8646 -0.3092
3.4672 -1.9240 -0.3031
3.4690 -2.0609 -0.3125
3.3907 -2.1187 -0.3063
3.3648 -2.2321 -0.3106
3.3127 -2.3177 -0.3096
3.4189 -2.5990 -0.3423
3.3913 -2.7267 -0.3474
3.0870 -2.4796 -0.2913
3.1515 -2.7280 -0.3164
3.0522 -2.7456 -0.3047
3.0451 -2.9028 -0.3144
2.9919 -2.9902 -0.3134
2.8345 -2.8945 -0.2866
2.8037 -3.0140 -0.2906
2.7334 -3.0605 -0.2847
2.7016 -3.1817 -0.2887
2.6506 -3.2655 -0.2878
2.6535 -3.4714 -0.3020
2.2918 -4.3701 -0.3158
2.2222 -4.4060 -0.3092
1.5198 0.6236 0.1065
1.5931 0.5804 0.0917
3.3130 0.5783 -0.1730
3.4373 0.5277 -0.1962
3.4381 0.4738 -0.2008
3.5088 0.4152 -0.2165
3.5658 0.3529 -0.2304
3.5876 0.2897 -0.2389
3.6111 0.2237 -0.2479
3.5348 0.1688 -0.2407
3.4797 0.1124 -0.2369
3.4074 0.0602 -0.2301
3.3198 0.0132 -0.2204
3.1590 -0.0131 -0.1979
3.2503 -0.1009 -0.2191
3.7123 -0.3896 -0.3139
3.7940 -0.5045 -0.3359
3.6502 -0.5392 -0.3167
3.3133 -0.4860 -0.2605
3.2567 -0.5409 -0.2563
3.2186 -0.6036 -0.2556
3.1804 -0.6663 -0.2549
3.1086 -0.7102 -0.2474
3.1176 -0.8875 -0.2634
2.7558 -0.7326 -0.1950
2.5350 -0.6522 -0.1545
2.7010 -0.8512 -0.1964
3.3466 -1.4563 -0.3454
3.1488 -1.5131 -0.3196
3.1242 -1.6047 -0.3234
3.0036 -1.6014 -0.3046
2.8743 -1.8139 -0.3021
2.8483 -1.9060 -0.3057
3.0013 -2.3791 -0.3681
2.7560 -2.3161 -0.3252
2.5874 -2.3346 -0.3008
2.5294 -2.3804 -0.2957
2.5145 -2.5037 -0.3035
2.4268 -2.6479 -0.3019
2.4966 -2.9666 -0.3388
2.4494 -3.0441 -0.3379
2.4023 -3.1217 -0.3371
2.3146 -3.0965 -0.3215
2.0080 -3.4385 -0.3025
1.9831 -3.5858 -0.3108
3.4895 0.5890 -0.2628
3.4912 0.5352 -0.2683
3.4751 0.4804 -0.2708
3.4585 0.4249 -0.2732
3.5895 0.3587 -0.3030
3.6942 0.2873 -0.3287
3.6771 0.2232 -0.3318
3.6816 0.1551 -0.3392
3.5814 0.1019 -0.3265
3.4108 0.0652 -0.2997
3.3395 0.0141 -0.2919
3.1009 0.0053 -0.2502
3.1565 -0.0713 -0.2676
3.1696 -0.1403 -0.2766
3.3558 -0.2687 -0.3223
3.4531 -0.3788 -0.3504
3.3168 -0.4064 -0.3287
3.2430 -0.4541 -0.3202
3.2585 -0.5400 -0.3313
3.1846 -0.5859 -0.3226
3.1088 -0.7103 -0.3212
2.9851 -0.8041 -0.3082
2.8598 -0.9759 -0.3026
2.9607 -1.1480 -0.3373
2.9704 -1.2549 -0.3494
2.8205 -1.2216 -0.3195
2.7679 -1.2704 -0.3148
2.8032 -1.4068 -0.3344
2.6649 -1.3659 -0.3057
2.6542 -1.4571 -0.3127
2.6430 -1.5510 -0.3198
2.5915 -1.5979 -0.3152
2.5929 -1.7127 -0.3266
2.4908 -1.6897 -0.3061
2.5811 -1.9378 -0.3463
2.4388 -1.8488 -0.3123
2.4244 -1.9498 -0.3196
2.3975 -2.0336 -0.3229
2.3937 -2.1607 -0.3346
2.3419 -2.2043 -0.3296
2.2912 -2.2479 -0.3248
2.2412 -2.2904 -0.3200
2.1918 -2.3320 -0.3152
2.1630 -2.4188 -0.3185
2.1045 -2.4357 -0.3097
2.0660 -2.4989 -0.3090
2.0549 -2.6360 -0.3203
1.9979 -2.6504 -0.3116
1.9425 -2.6640 -0.3030
1.9122 -2.7516 -0.3061
1.8816 -2.8415 -0.3094
1.8580 -2.9595 -0.3167
3.9178 0.7273 -0.3989
3.8582 0.6650 -0.3938
3.5113 0.5432 -0.3369
3.4440 0.4887 -0.3293
3.4798 0.4314 -0.3431
3.5358 0.3697 -0.3614
3.5569 0.3069 -0.3727
3.4654 0.2539 -0.3601
3.3943 0.2009 -0.3516
3.3263 0.1492 -0.3436
3.1373 0.1217 -0.3082
3.1194 0.0660 -0.3108
3.0184 0.0295 -0.2944
3.0411 -0.0363 -0.3064
3.1705 -0.1368 -0.3440
3.0375 -0.2953 -0.3348
2.9980 -0.4201 -0.3408
2.9776 -0.4836 -0.3438
2.9723 -0.5561 -0.3508
2.8146 -0.5452 -0.3176
2.6854 -0.5419 -0.2909
2.6999 -0.6230 -0.3030
2.7782 -0.7513 -0.3333
2.7827 -0.8356 -0.3437
2.5815 -0.8437 -0.3037
2.5940 -0.9358 -0.3166
2.5496 -0.9805 -0.3126
2.5496 -1.0668 -0.3223
2.4606 -1.1549 -0.3141
2.4171 -1.1982 -0.3101
2.3032 -1.4416 -0.3143
2.2606 -1.4835 -0.3103
2.2643 -1.5955 -0.3237
2.2208 -1.6368 -0.3195
2.1779 -1.6774 -0.3153
2.1272 -1.7026 -0.3078
2.1631 -2.0166 -0.3504
2.1268 -2.0761 -0.3498
2.0322 -2.0066 -0.3227
1.9902 -2.0457 -0.3185
1.9486 -2.0840 -0.3144
1.9509 -2.2340 -0.3317
1.8874 -2.2146 -0.3166
1.8598 -2.2899 -0.3195
1.6575 -2.2831 -0.2776
1.6161 -2.2986 -0.2709
1.6372 -2.5657 -0.3052
3.4582 0.7572 -0.3641
3.4433 0.7066 -0.3672
3.3953 0.6539 -0.3629
3.3639 0.6022 -0.3624
3.3960 0.5508 -0.3763
3.3324 0.4983 -0.3684
3.2850 0.4466 -0.3642
3.3309 0.3898 -0.3820
3.2368 0.3413 -0.3666
3.1614 0.2937 -0.3555
3.1154 0.2443 -0.3513
3.0575 0.1975 -0.3440
3.0136 0.1496 -0.3401
3.0092 0.0940 -0.3462
2.9655 0.0463 -0.3423
2.9348 -0.0041 -0.3417
2.8916 -0.0508 -0.3378
2.8857 -0.1089 -0.3439
2.8800 -0.1685 -0.3502
2.8607 -0.2245 -0.3529
2.8175 -0.2712 -0.3490
2.7507 -0.3065 -0.3383
2.7428 -0.3679 -0.3443
2.7237 -0.4253 -0.3473
2.6587 -0.4577 -0.3366
2.6612 -0.5280 -0.3461
2.5163 -0.6450 -0.3279
2.4860 -0.6948 -0.3274
2.4557 -0.7446 -0.3268
2.4343 -0.8021 -0.3293
2.4038 -0.8522 -0.3287
2.3919 -0.9202 -0.3346
2.3519 -0.9617 -0.3308
2.3301 -1.0216 -0.3335
2.2992 -1.0723 -0.3329
2.2769 -1.1333 -0.3356
2.2548 -1.1956 -0.3385
2.2148 -1.2353 -0.3344
2.1758 -1.2752 -0.3306
2.1372 -1.3144 -0.3268
2.0989 -1.3531 -0.3230
2.0758 -1.4152 -0.3256
2.0074 -1.5034 -0.3213
1.9576 -1.5164 -0.3115
1.9597 -1.6301 -0.3266
1.9763 -1.7814 -0.3497
1.9042 -1.7455 -0.3286
1.8797 -1.8119 -0.3315
1.8484 -1.8632 -0.3309
1.8228 -1.9294 -0.3335
1.7914 -1.9811 -0.3329
1.7436 -1.9851 -0.3225
1.7128 -2.0358 -0.3219
1.6819 -2.0865 -0.3214
1.6416 -2.1044 -0.3144
1.5538 -1.9435 -0.2738
1.4879 -1.8415 -0.2456
3.2082 0.6991 -0.3718
3.1793 0.6517 -0.3713
3.1504 0.6042 -0.3707
2.8574 0.2836 -0.3422
2.7361 0.1045 -0.3370
2.7086 0.0594 -0.3365
2.6087 -0.1250 -0.3375
2.5900 -0.1742 -0.3398
2.5437 -0.2114 -0.3334
2.4989 -0.2481 -0.3273
2.4547 -0.2838 -0.3211
2.4026 -0.3139 -0.3122
2.3740 -0.4164 -0.3196
2.3550 -0.4660 -0.3219
2.3124 -0.4991 -0.3158
2.2703 -0.5312 -0.3097
2.2739 -0.5993 -0.3204
2.2689 -0.6628 -0.3283
2.2566 -0.7219 -0.3336
2.1716 -0.7120 -0.3105
2.0449 -0.9385 -0.3108
1.9788 -1.1783 -0.3284
1.9232 -1.2695 -0.3273
1.8243 -1.3748 -0.3173
1.8072 -1.4417 -0.3225
1.7796 -1.4871 -0.3220
1.7763 -1.5904 -0.3360
1.7385 -1.6136 -0.3297
1.5202 -1.8559 -0.3089
1.4704 -1.8104 -0.2897
1.4473 -1.8667 -0.2919
3.0975 0.9038 -0.3665
3.0714 0.8610 -0.3660
3.0454 0.8182 -0.3655
3.0086 0.7742 -0.3622
2.9709 0.7305 -0.3585
2.9451 0.6882 -0.3581
2.9412 0.6470 -0.3635
2.9049 0.6039 -0.3602
2.8790 0.5613 -0.3597
2.8320 0.5190 -0.3533
2.8162 0.4765 -0.3556
2.7710 0.4352 -0.3495
2.7551 0.3926 -0.3519
2.7200 0.3514 -0.3486
2.6945 0.3095 -0.3481
2.6690 0.2676 -0.3476
2.6616 0.2224 -0.3527
2.6358 0.1801 -0.3523
2.6100 0.1378 -0.3518
2.5669 0.1000 -0.3457
2.5414 0.0580 -0.3452
2.5159 0.0161 -0.3448
2.4986 -0.0287 -0.3471
2.4649 -0.0677 -0.3438
2.4313 -0.1063 -0.3405
2.3659 -0.1825 -0.3344
2.3484 -0.2278 -0.3367
2.1210 -0.6014 -0.3324
2.1203 -0.6667 -0.3426
2.0945 -0.7091 -0.3421
2.0755 -0.7587 -0.3447
2.0311 -0.7802 -0.3357
1.9638 -0.8432 -0.3268
1.8526 -1.0736 -0.3323
1.7968 -1.1487 -0.3287
1.7806 -1.2082 -0.3336
1.7505 -1.2412 -0.3304
1.7168 -1.2654 -0.3248
1.6995 -1.3250 -0.3295
1.6781 -1.3767 -0.3317
1.6485 -1.4089 -0.3285
1.6306 -1.4712 -0.3334
1.6011 -1.5031 -0.3303
1.5684 -1.5239 -0.3244
1.5464 -1.5765 -0.3266
1.5176 -1.6073 -0.3234
1.4954 -1.6603 -0.3257
1.4699 -1.7022 -0.3252
1.4415 -1.7324 -0.3220
1.4161 -1.7741 -0.3215
2.7931 0.7210 -0.3580
2.7508 0.6807 -0.3521
2.6959 0.6033 -0.3488
2.6725 0.5649 -0.3484
2.6745 0.5263 -0.3558
2.6584 0.4871 -0.3577
2.5797 0.3705 -0.3540
2.5632 0.3307 -0.3559
2.5637 0.2879 -0.3636
2.5006 0.2551 -0.3500
2.4474 0.2223 -0.3394
2.4175 0.1859 -0.3366
2.4078 0.1445 -0.3409
2.3409 0.0746 -0.3326
2.3252 0.0344 -0.3349
2.3085 -0.0059 -0.3368
2.2915 -0.0465 -0.3387
2.2187 -0.0624 -0.3191
2.1903 -0.0963 -0.3164
2.1680 -0.1330 -0.3159
2.1514 -0.1729 -0.3179
2.1233 -0.2063 -0.3151
2.0954 -0.2394 -0.3124
2.0951 -0.2909 -0.3213
2.0778 -0.3320 -0.3232
2.0340 -0.3530 -0.3134
2.0220 -0.3982 -0.3177
1.9894 -0.4264 -0.3126
1.9869 -0.4814 -0.3215
1.9319 -0.5462 -0.3160
1.9333 -0.6094 -0.3275
1.8823 -0.6150 -0.3128
1.8685 -0.7286 -0.3286
1.8496 -0.7724 -0.3304
1.7783 -0.8114 -0.3154
1.7517 -0.8423 -0.3126
1.6005 -1.2089 -0.3306
1.5610 -1.2065 -0.3180
1.5273 -1.3165 -0.3270
1.5039 -1.3549 -0.3265
1.4775 -1.3837 -0.3235
1.4543 -1.4219 -0.3230
1.4262 -1.4426 -0.3180
1.4077 -1.4983 -0.3222
1.3870 -1.5469 -0.3243
1.3636 -1.5853 -0.3239
2.7281 0.8569 -0.3588
2.6904 0.8185 -0.3536
2.6771 0.7839 -0.3557
2.6567 0.7144 -0.3623
2.6265 0.6774 -0.3593
2.6045 0.6412 -0.3589
2.5746 0.6047 -0.3559
2.5460 0.5686 -0.3533
2.5165 0.5327 -0.3503
2.4947 0.4970 -0.3499
2.4666 0.4616 -0.3473
2.4586 0.4250 -0.3517
2.4430 0.3885 -0.3534
2.4149 0.3533 -0.3508
2.3931 0.3174 -0.3504
2.3643 0.2827 -0.3475
2.3494 0.2456 -0.3496
2.3057 0.1738 -0.3488
2.2717 0.1414 -0.3437
2.2325 0.1114 -0.3363
2.2338 0.0684 -0.3450
2.1418 -0.0720 -0.3412
1.7658 -0.6662 -0.3297
1.7337 -0.7532 -0.3357
1.7120 -0.7889 -0.3353
1.6767 -0.8017 -0.3259
1.6516 -0.8303 -0.3230
1.6350 -0.9515 -0.3407
1.5539 -1.0252 -0.3278
1.5411 -1.0822 -0.3345
1.5278 -1.1402 -0.3412
1.4892 -1.1314 -0.3266
1.4704 -1.1749 -0.3287
1.4537 -1.2257 -0.3328
1.4293 -1.2532 -0.3300
1.4101 -1.2975 -0.3320
1.3882 -1.3334 -0.3316
1.3664 -1.3693 -0.3312
1.3445 -1.4052 -0.3308
1.3244 -1.4490 -0.3325
2.5569 0.8042 -0.3532
2.5438 0.7719 -0.3552
2.4433 0.6372 -0.3469
2.4299 0.6044 -0.3489
2.4152 0.5714 -0.3505
2.3895 0.5382 -0.3482
2.3285 0.5060 -0.3328
2.3142 0.4735 -0.3344
2.3175 0.4396 -0.3427
2.2913 0.4073 -0.3400
2.2775 0.3738 -0.3420
2.2515 0.3418 -0.3392
2.2316 0.3091 -0.3389
2.2175 0.2752 -0.3409
2.1658 0.2495 -0.3276
2.1774 0.2095 -0.3401
2.1677 0.1737 -0.3440
2.0549 0.0941 -0.3199
2.0539 0.0548 -0.3277
2.0248 0.0268 -0.3230
2.0054 -0.0051 -0.3227
1.9624 -0.0668 -0.3200
1.9165 -0.1708 -0.3251
1.8969 -0.2030 -0.3248
1.8618 -0.2231 -0.3163
1.8613 -0.2705 -0.3260
1.8452 -0.3059 -0.3275
1.8172 -0.3823 -0.3334
1.7792 -0.3964 -0.3226
1.7700 -0.4401 -0.3284
1.7502 -0.4727 -0.3280
1.7235 -0.4969 -0.3234
1.6940 -0.5166 -0.3168
1.6746 -0.5485 -0.3165
1.6580 -0.5847 -0.3180
1.6162 -0.6444 -0.3154
1.5642 -0.6850 -0.3051
1.5528 -0.7308 -0.3105
1.5596 -0.8146 -0.3304
1.5042 -0.9251 -0.3335
1.4723 -0.9293 -0.3228
1.4411 -0.9321 -0.3121
1.4236 -0.9697 -0.3137
1.4065 -1.0087 -0.3156
1.3929 -1.0597 -0.3213
1.3708 -1.0851 -0.3186
1.3532 -1.1249 -0.3206
1.3386 -1.1775 -0.3263
1.3170 -1.2041 -0.3240
1.2951 -1.2292 -0.3213
1.2801 -1.2844 -0.3274
2.4595 0.7948 -0.3595
2.4404 0.7633 -0.3592
2.4153 0.7311 -0.3567
2.4020 0.7003 -0.3584
2.3943 0.6698 -0.3623
2.3412 0.6359 -0.3493
2.3390 0.6056 -0.3552
2.3199 0.5743 -0.3549
2.2710 0.5118 -0.3500
2.2415 0.4811 -0.3454
2.1988 0.4198 -0.3426
2.1573 0.3250 -0.3478
1.8586 -0.0893 -0.3250
1.7742 -0.1567 -0.3074
1.7982 -0.2204 -0.3311
1.6805 -0.4494 -0.3369
1.5509 -0.6711 -0.3365
1.4121 -0.8726 -0.3279
1.3973 -0.9146 -0.3316
1.3765 -0.9398 -0.3292
1.3614 -0.9824 -0.3329
1.3443 -1.0195 -0.3346
1.3218 -1.0386 -0.3302
1.3046 -1.0758 -0.3319
1.2903 -1.1259 -0.3376
1.2712 -1.1574 -0.3373
1.2506 -1.1823 -0.3349
2.3876 0.8676 -0.3520
2.3540 0.8353 -0.3458
2.3316 0.8056 -0.3437
2.3284 0.7792 -0.3488
2.3261 0.7524 -0.3543
2.2791 0.7194 -0.3427
2.2559 0.6900 -0.3401
2.2339 0.6610 -0.3380
2.2266 0.6332 -0.3417
2.2180 0.6048 -0.3450
2.2047 0.5760 -0.3464
2.1968 0.5470 -0.3501
2.1694 0.5180 -0.3458
2.1706 0.4882 -0.3535
2.1392 0.4596 -0.3474
2.0991 0.4324 -0.3372
2.0736 0.4047 -0.3333
2.0524 0.3769 -0.3312
2.0234 0.3505 -0.3255
2.0167 0.2883 -0.3378
1.9245 0.1810 -0.3254
1.9249 0.1463 -0.3339
1.8903 0.1247 -0.3247
1.8867 0.0905 -0.3315
1.8519 0.0335 -0.3308
1.8314 0.0068 -0.3288
1.7893 -0.0853 -0.3335
1.7621 -0.1069 -0.3275
1.7218 -0.1591 -0.3233
1.6875 -0.2155 -0.3226
1.6385 -0.3031 -0.3234
1.6064 -0.3628 -0.3245
1.5939 -0.3975 -0.3277
1.5695 -0.4164 -0.3221
1.5522 -0.4447 -0.3218
1.5306 -0.4662 -0.3180
1.5091 -0.4873 -0.3142
1.4792 -0.5506 -0.3170
1.4487 -0.6147 -0.3199
1.4352 -0.6511 -0.3230
1.4219 -0.6888 -0.3267
1.4079 -0.7259 -0.3298
1.3831 -0.7366 -0.3221
1.3658 -0.7651 -0.3217
1.3468 -0.7892 -0.3197
1.3311 -0.8222 -0.3211
1.3137 -0.8507 -0.3208
1.2977 -0.8840 -0.3222
1.2803 -0.9126 -0.3219
1.2645 -0.9474 -0.3237
1.2470 -0.9762 -0.3234
1.2280 -0.9985 -0.3209
1.2120 -1.0336 -0.3227
2.3234 0.8594 -0.3630
2.2627 0.7736 -0.3582
2.2457 0.7458 -0.3579
2.2242 0.7173 -0.3557
2.1981 0.6885 -0.3515
2.1690 0.6337 -0.3528
2.0731 0.5235 -0.3387
2.0430 0.4408 -0.3468
1.6636 -0.1125 -0.3215
1.6036 -0.2234 -0.3236
1.5759 -0.2373 -0.3149
1.3776 -0.6664 -0.3380
1.3591 -0.6898 -0.3358
1.3162 -0.7953 -0.3441
1.2963 -0.8140 -0.3401
1.2752 -0.8276 -0.3343
1.2584 -0.8552 -0.3340
1.2441 -0.8926 -0.3373
1.2261 -0.9153 -0.3352
1.2092 -0.9430 -0.3349
2.2108 0.8398 -0.3513
2.1756 0.7872 -0.3492
2.1480 0.7592 -0.3438
2.1359 0.7341 -0.3451
2.1248 0.7090 -0.3468
2.1284 0.6853 -0.3551
2.1001 0.6579 -0.3492
2.0776 0.6314 -0.3459
2.0651 0.6058 -0.3471
2.0245 0.5790 -0.3353
2.0123 0.5537 -0.3365
2.0000 0.5282 -0.3377
1.9917 0.5024 -0.3409
1.9730 0.4769 -0.3391
1.9433 0.4525 -0.3318
1.9319 0.4268 -0.3335
1.9194 0.4011 -0.3347
1.9106 0.3745 -0.3379
1.8884 0.3502 -0.3342
1.8483 0.3016 -0.3286
1.8447 0.2731 -0.3348
1.8354 0.2457 -0.3380
1.8110 0.2230 -0.3327
1.8015 0.1953 -0.3359
1.7775 0.1731 -0.3306
1.7548 0.1185 -0.3350
1.6165 -0.1138 -0.3339
1.5942 -0.1332 -0.3286
1.5656 -0.1454 -0.3185
1.5496 -0.2116 -0.3293
1.5304 -0.2327 -0.3260
1.4995 -0.2835 -0.3254
1.4614 -0.3235 -0.3184
1.4532 -0.3596 -0.3246
1.4409 -0.3902 -0.3272
1.4254 -0.4157 -0.3269
1.3929 -0.4639 -0.3249
1.3788 -0.4922 -0.3261
1.3651 -0.5217 -0.3277
1.3434 -0.5331 -0.3206
1.3297 -0.5625 -0.3222
1.3155 -0.5910 -0.3234
1.3028 -0.6241 -0.3266
1.2845 -0.6419 -0.3228
1.2716 -0.6753 -0.3260
1.2560 -0.7009 -0.3257
1.2424 -0.7336 -0.3283
1.2280 -0.7642 -0.3300
1.2102 -0.7814 -0.3263
1.1966 -0.8159 -0.3294
1.1797 -0.8366 -0.3272
1.1641 -0.8624 -0.3269
2.0627 0.8113 -0.3189
2.0999 0.7776 -0.3477
2.0532 0.7475 -0.3330
1.9191 0.6444 -0.2959
1.9585 0.6263 -0.3211
1.9888 0.6055 -0.3425
1.9740 0.5811 -0.3423
1.9559 0.5567 -0.3404
1.9317 0.5324 -0.3353
1.9233 0.5081 -0.3382
1.8994 0.4844 -0.3332
1.8672 0.4367 -0.3311
1.8555 0.4123 -0.3324
1.8523 0.3865 -0.3384
1.8234 0.3648 -0.3303
1.8172 0.3390 -0.3347
1.7931 0.2892 -0.3373
1.7730 0.2665 -0.3339
1.7583 0.2424 -0.3336
1.7043 0.1743 -0.3265
1.5797 -0.0460 -0.3288
1.5350 -0.0797 -0.3162
1.5259 -0.1084 -0.3201
1.5133 -0.1342 -0.3214
1.4716 -0.2079 -0.3221
1.3669 -0.3696 -0.3171
1.3505 -0.4431 -0.3306
1.3195 -0.4889 -0.3285
1.2851 -0.5248 -0.3217
1.2502 -0.5562 -0.3134
1.2412 -0.5968 -0.3209
1.2286 -0.6278 -0.3237
1.2199 -0.6732 -0.3327
1.1767 -0.7546 -0.3350
1.1651 -0.7959 -0.3414
1.9268 0.6902 -0.3149
1.8886 0.6652 -0.3023
1.8889 0.6451 -0.3088
1.9140 0.6266 -0.3281
1.9176 0.6051 -0.3367
1.9036 0.5821 -0.3365
1.8949 0.5592 -0.3390
1.8809 0.5362 -0.3387
1.8648 0.5132 -0.3373
1.8508 0.4901 -0.3371
1.8367 0.4671 -0.3368
1.8276 0.4436 -0.3393
1.8087 0.4211 -0.3363
1.7919 0.3985 -0.3344
1.7779 0.3755 -0.3341
1.7713 0.3510 -0.3383
1.7545 0.3285 -0.3363
1.7458 0.3040 -0.3394
1.7334 0.2802 -0.3402
1.6941 0.2378 -0.3325
1.6102 0.1001 -0.3310
1.5903 0.0810 -0.3263
1.5859 0.0517 -0.3332
1.5719 0.0286 -0.3329
1.5579 0.0055 -0.3327
1.5438 -0.0176 -0.3324
1.4952 -0.0803 -0.3261
1.4687 -0.1273 -0.3267
1.4565 -0.1524 -0.3281
1.4455 -0.1791 -0.3306
1.4360 -0.2083 -0.3347
1.4129 -0.2188 -0.3257
1.3883 -0.2697 -0.3284
1.3742 -0.2927 -0.3282
1.3682 -0.3299 -0.3366
1.3501 -0.3460 -0.3320
1.3256 -0.3486 -0.3197
1.3015 -0.4019 -0.3236
1.2889 -0.4278 -0.3249
1.2737 -0.4476 -0.3230
1.2653 -0.4853 -0.3304
1.2531 -0.5139 -0.3329
1.2348 -0.5251 -0.3266
1.2190 -0.5426 -0.3236
1.2095 -0.5805 -0.3304
1.1927 -0.5943 -0.3258
1.1646 -0.6405 -0.3253
1.1528 -0.6735 -0.3294
1.1411 -0.7083 -0.3340
1.9397 0.7359 -0.3361
1.8909 0.6693 -0.3307
1.8811 0.6481 -0.3322
1.8831 0.6277 -0.3402
1.8783 0.6062 -0.3446
1.8595 0.5838 -0.3414
1.8356 0.5615 -0.3353
1.8223 0.5396 -0.3351
1.7873 0.4737 -0.3372
1.7443 0.4082 -0.3347
1.7273 0.3870 -0.3322
1.7140 0.3652 -0.3319
1.6917 0.3456 -0.3259
1.6999 0.3182 -0.3396
1.6054 0.1919 -0.3282
1.5773 0.1779 -0.3170
1.5605 0.1299 -0.3234
1.4996 0.0180 -0.3262
1.4640 -0.0167 -0.3177
1.4555 -0.0426 -0.3214
1.4380 -0.0595 -0.3172
1.4131 -0.1037 -0.3178
1.4000 -0.1252 -0.3176
1.3909 -0.1520 -0.3214
1.3625 -0.1920 -0.3186
1.3457 -0.2076 -0.3143
1.3327 -0.2290 -0.3141
1.3242 -0.2583 -0.3190
1.3101 -0.2780 -0.3176
1.2905 -0.2865 -0.3093
1.2817 -0.3163 -0.3142
1.2695 -0.3396 -0.3151
1.2606 -0.3711 -0.3206
1.2503 -0.4000 -0.3244
1.2362 -0.4198 -0.3230
1.2244 -0.4459 -0.3250
1.1727 -0.5394 -0.3269
1.1593 -0.5614 -0.3266
1.1453 -0.5810 -0.3252
1.8515 0.7583 -0.3049
1.9063 0.7524 -0.3396
1.9005 0.7327 -0.3431
1.9036 0.7143 -0.3514
1.8883 0.6925 -0.3499
1.8730 0.6709 -0.3485
1.8546 0.6489 -0.3452
1.8514 0.6285 -0.3504
1.8266 0.6063 -0.3435
1.7187 0.4374 -0.3385
1.6993 0.4174 -0.3340
1.6912 0.3956 -0.3368
1.6611 0.3547 -0.3333
1.6510 0.3331 -0.3348
1.6195 0.2931 -0.3301
1.5535 0.1627 -0.3366
1.5362 0.1443 -0.3327
1.5121 0.1014 -0.3334
1.4423 -0.0318 -0.3386
1.4097 -0.0667 -0.3315
1.3853 -0.1102 -0.3322
1.3702 -0.1282 -0.3296
1.3624 -0.1563 -0.3348
1.3532 -0.1832 -0.3387
1.3340 -0.1945 -0.3313
1.2809 -0.2750 -0.3279
1.2681 -0.2960 -0.3277
1.2554 -0.3169 -0.3274
1.2414 -0.3349 -0.3254
1.2322 -0.3650 -0.3306
1.2213 -0.3914 -0.3333
1.2084 -0.4126 -0.3331
1.1922 -0.4240 -0.3274
1.1808 -0.4495 -0.3296
1.1703 -0.4786 -0.3335
1.1551 -0.4917 -0.3291
1.1438 -0.5188 -0.3319
1.1303 -0.5376 -0.3304
1.1184 -0.5637 -0.3326
1.1032 -0.5736 -0.3270
1.5592 0.5447 -0.2271
1.5565 0.5286 -0.2314
1.5720 0.4940 -0.2539
1.6640 0.4248 -0.3373
1.6426 0.4063 -0.3307
1.6305 0.3864 -0.3305
1.6080 0.3462 -0.3313
1.5890 0.3283 -0.3260
1.5702 0.3108 -0.3207
1.5699 0.2870 -0.3293
1.5578 0.2671 -0.3291
1.5457 0.2472 -0.3289
1.5242 0.2318 -0.3211
1.5184 0.2090 -0.3259
1.5155 0.1841 -0.3333
1.4988 0.1667 -0.3292
1.4910 0.1439 -0.3328
1.4717 0.1288 -0.3263
1.4596 0.1090 -0.3260
1.4516 0.0859 -0.3296
1.4408 0.0647 -0.3306
1.4151 0.0259 -0.3289
1.3798 -0.0021 -0.3171
1.3786 -0.0341 -0.3282
1.3497 -0.0682 -0.3227
1.3399 -0.0910 -0.3250
1.3289 -0.1124 -0.3261
1.2765 -0.1852 -0.3201
1.2654 -0.2067 -0.3212
1.2533 -0.2265 -0.3209
1.2456 -0.2558 -0.3270
1.2351 -0.2798 -0.3293
1.2188 -0.2899 -0.3228
1.2075 -0.3118 -0.3238
1.1961 -0.3339 -0.3248
1.1839 -0.3539 -0.3246
1.1739 -0.3804 -0.3281
1.1653 -0.4129 -0.3348
1.1513 -0.4275 -0.3314
1.1377 -0.4431 -0.3287
1.1254 -0.4633 -0.3284
1.1043 -0.5198 -0.3361
1.5377 0.5913 -0.2164
1.5516 0.5777 -0.2309
1.5545 0.5627 -0.2387
1.6370 0.5111 -0.3132
1.5763 0.4959 -0.2791
1.5659 0.4787 -0.2789
1.5592 0.4611 -0.2814
1.6329 0.4315 -0.3415
1.6192 0.4124 -0.3400
1.5872 0.3532 -0.3420
1.5231 0.2578 -0.3369
1.4803 0.1776 -0.3400
1.3959 0.0423 -0.3371
1.3644 0.0120 -0.3281
1.3145 -0.0601 -0.3233
1.2685 -0.1770 -0.3386
1.2529 -0.1895 -0.3331
1.2428 -0.2126 -0.3355
1.2301 -0.2302 -0.3340
1.2191 -0.2516 -0.3351
1.2044 -0.2641 -0.3303
1.1842 -0.3122 -0.3357
1.1694 -0.3232 -0.3303
1.1573 -0.3415 -0.3294
1.1478 -0.3686 -0.3337
1.1341 -0.3813 -0.3296
1.1229 -0.4030 -0.3307
1.0979 -0.4358 -0.3270
1.0856 -0.4526 -0.3255
1.0761 -0.4832 -0.3311
1.5380 0.6479 -0.2138
1.5348 0.6345 -0.2171
1.6658 0.5690 -0.3347
1.6496 0.5505 -0.3310
1.6474 0.5321 -0.3370
1.6215 0.5142 -0.3264
1.5700 0.4985 -0.2972
1.5595 0.4814 -0.2970
1.5547 0.4636 -0.3010
1.5846 0.4405 -0.3311
1.5716 0.4225 -0.3295
1.5596 0.4044 -0.3286
1.5485 0.3861 -0.3284
1.5357 0.3683 -0.3268
1.5330 0.3476 -0.3335
1.5176 0.3305 -0.3299
1.5040 0.3131 -0.3276
1.4969 0.2932 -0.3308
1.4826 0.2762 -0.3279
1.4769 0.2553 -0.3325
1.4633 0.2380 -0.3302
1.4529 0.2192 -0.3307
1.4410 0.2012 -0.3298
1.4207 0.1630 -0.3314
1.4122 0.1425 -0.3339
1.3883 0.1065 -0.3322
1.3757 0.0892 -0.3306
1.3689 0.0665 -0.3352
1.3459 0.0599 -0.3219
1.3261 0.0208 -0.3243
1.3196 -0.0031 -0.3295
1.3072 -0.0201 -0.3279
1.2955 -0.0378 -0.3270
1.2843 -0.0562 -0.3268
1.2710 -0.0713 -0.3239
1.2609 -0.0913 -0.3251
1.2497 -0.1096 -0.3248
1.2376 -0.1262 -0.3233
1.2251 -0.1418 -0.3210
1.2127 -0.1573 -0.3188
1.2042 -0.1811 -0.3227
1.1968 -0.2081 -0.3286
1.1863 -0.2286 -0.3297
1.1743 -0.2451 -0.3281
1.1593 -0.2532 -0.3211
1.1510 -0.2800 -0.3264
1.1308 -0.3247 -0.3307
1.1164 -0.3319 -0.3237
1.1052 -0.3503 -0.3235
1.0926 -0.3628 -0.3199
1.0810 -0.3786 -0.3183
1.0719 -0.4067 -0.3235
