ply
format ascii 1.0
element vertex 2095
property float x
property float y
property float z
end_header
2.2749 -0.6683 0.6212
2.3184 -0.5988 0.6278
2.3872 -0.6572 0.6160
2.4388 -0.6278 0.6168
2.4758 -0.4739 0.6349
2.9026 -1.2402 0.5083
2.9368 -1.2402 0.5063
2.9728 -1.2227 0.5065
3.0017 -1.2526 0.5008
3.4129 -0.2802 0.6047
3.4276 -0.4036 0.5875
3.4871 -0.3593 0.5898
3.5346 -0.3560 0.5874
3.5955 -0.3112 0.5897
3.6582 -0.2647 0.5921
3.4543 -1.0170 0.5050
3.4683 -1.0596 0.4985
1.5105 -2.0042 0.4623
1.5046 -1.9726 0.4660
1.4942 -1.8731 0.4774
0.4660 -0.5302 0.6762
2.1252 -0.5587 0.5873
2.2045 -0.6220 0.5763
2.3725 -0.5667 0.5736
2.4224 -0.5067 0.5775
2.4666 -0.3826 0.5887
2.9411 -1.2314 0.4721
2.9785 -1.2068 0.4728
3.0065 -1.2446 0.4673
3.4012 -0.3511 0.5437
3.4665 -0.2905 0.5469
3.5032 -0.3298 0.5408
3.5605 -0.2987 0.5412
3.5989 -0.3240 0.5364
3.6410 -0.3348 0.5331
3.4541 -1.0324 0.4671
3.4905 -1.0204 0.4665
1.4963 -1.8809 0.4450
1.5155 -1.8613 0.4458
1.4849 -1.8025 0.4521
0.4153 -0.4939 0.6098
2.0994 -0.4694 0.5379
3.1054 -1.2535 0.4274
3.4362 -0.2460 0.4981
3.4577 -0.3467 0.4887
3.4189 -0.6294 0.4664
3.5113 -0.4735 0.4756
3.4823 -0.6852 0.4589
3.5019 -0.7398 0.4535
3.4681 -0.9276 0.4391
3.4452 -1.0695 0.4281
3.4810 -1.0577 0.4275
0.6310 -0.6269 0.5200
0.7699 1.4606 0.6412
0.9361 1.3906 0.6310
1.0939 1.3244 0.6213
1.3615 0.9479 0.5890
2.3802 1.2368 0.5698
2.4806 1.2698 0.5682
2.5705 1.5400 0.5813
3.1131 -1.2381 0.3939
3.4355 -0.2755 0.4405
3.4735 -0.3171 0.4366
3.5275 -0.2993 0.4357
3.5815 -0.2815 0.4348
3.6624 -0.1865 0.4377
3.4557 -1.0580 0.3924
3.4979 -1.0319 0.3925
-0.3492 -0.0217 0.4992
0.3631 -0.3695 0.4668
1.0716 1.0698 0.4989
1.2832 0.8489 0.4850
1.4553 0.6906 0.4745
1.4838 0.9149 0.4818
2.1030 -0.4844 0.4142
2.1873 -0.5542 0.4093
2.4678 1.5294 0.4765
2.5661 1.7789 0.4827
3.0869 -1.2285 0.3600
3.1192 -1.2299 0.3590
3.4561 -0.2265 0.3857
3.4990 -0.2551 0.3835
3.5696 -0.1891 0.3839
3.6540 -0.0868 0.3852
3.4838 -1.0036 0.3570
1.4301 -1.9194 0.3490
1.3865 -1.7867 0.3514
0.4214 -1.0205 0.3790
0.3170 -0.8696 0.3828
0.3263 -0.3469 0.3884
0.9957 1.2318 0.3929
1.2568 0.9049 0.3841
1.4337 0.7409 0.3787
1.4761 0.9313 0.3800
2.2020 -0.6109 0.3485
2.3218 0.9101 0.3631
2.3972 1.1441 0.3642
2.4451 1.9486 0.3723
3.0904 -1.2313 0.3240
3.1214 -1.2386 0.3233
3.4598 -0.2404 0.3278
3.5211 -0.2061 0.3270
3.5836 -0.1703 0.3261
3.4634 -0.9877 0.3193
3.5151 -1.0915 0.3172
3.5631 -1.0529 0.3166
1.3888 -1.7955 0.3151
0.4239 -0.9659 0.3146
0.3709 -0.8502 0.3136
0.4314 -0.3617 0.3061
1.0740 1.3433 0.2750
1.4077 1.1230 0.2742
2.2891 1.2172 0.2628
2.3957 1.2069 0.2617
2.5689 2.0204 0.2484
3.0887 -1.2587 0.2881
3.1237 -1.2472 0.2876
3.4635 -0.2544 0.2698
3.5248 -0.2201 0.2687
3.4658 -0.9971 0.2802
3.4861 -1.0283 0.2804
3.4820 -1.1119 0.2816
3.5203 -1.0939 0.2809
0.3923 -0.8805 0.2455
0.3354 -0.7552 0.2408
0.4056 -0.7321 0.2396
0.3455 -0.5906 0.2342
0.3616 -0.5111 0.2311
0.4181 -0.4667 0.2291
0.3095 -0.2498 0.2209
1.3408 0.9723 0.1696
1.4892 0.8814 0.1728
1.6036 0.8739 0.1727
2.3107 -0.5296 0.2258
2.3599 -0.4489 0.2224
2.2435 1.6392 0.1406
2.3576 1.6768 0.1387
2.8663 -1.0155 0.2432
2.9039 -1.0654 0.2450
3.0950 -1.2487 0.2517
3.1290 -1.2429 0.2513
3.4720 -0.9086 0.2371
3.4985 -1.0880 0.2441
3.5226 -1.1026 0.2446
3.5551 -1.0973 0.2443
0.2144 -0.5799 0.1558
1.4671 0.9388 0.0636
2.1642 -0.4625 0.1587
2.2343 -0.4736 0.1598
3.1355 -1.2342 0.2142
3.1712 -1.2225 0.2136
3.4877 -0.8844 0.1933
3.4981 -1.1031 0.2076
1.4075 -1.8655 0.2104
-0.6909 0.0650 0.0047
-0.1714 -0.2626 0.0419
1.1508 1.4572 -0.0966
1.4595 1.3202 -0.0798
2.1682 -0.4780 0.0943
2.2453 -0.5194 0.0992
2.9202 -0.9624 0.1491
2.9571 -1.0160 0.1545
2.9955 -1.0352 0.1568
3.0577 -1.1293 0.1663
3.0897 -1.1517 0.1687
3.1160 -1.1929 0.1729
3.1424 -1.2245 0.1761
3.1735 -1.2312 0.1772
3.2128 -1.2066 0.1755
3.2564 -1.1700 0.1728
3.3199 -1.0759 0.1651
3.4132 -0.9052 0.1508
3.4551 -0.8914 0.1501
3.4805 -0.9201 0.1531
3.5215 -0.9067 0.1524
3.5446 -0.9351 0.1553
3.5434 -1.0151 0.1626
3.5520 -1.0663 0.1674
1.3720 -1.9159 0.1794
1.3730 -1.8492 0.1716
1.3816 -1.8190 0.1682
0.2796 -0.5738 -0.0035
1.0735 1.0003 -0.1709
1.0825 1.2815 -0.2038
1.5089 0.8065 -0.1382
1.4829 1.2415 -0.1900
1.5810 1.3296 -0.1982
2.1192 -0.2865 0.0044
2.2203 -0.4071 0.0209
2.3076 -0.4995 0.0338
2.3156 1.1163 -0.1563
2.3890 1.4860 -0.1982
2.8391 1.9197 -0.2391
2.9603 2.0207 -0.2482
3.0015 -1.0213 0.1110
3.0403 -1.0317 0.1131
3.0823 -1.0179 0.1125
3.1555 -1.1898 0.1344
3.1892 -1.1903 0.1352
3.2862 -1.0909 0.1257
3.3654 -0.9553 0.1115
3.4189 -0.9071 0.1071
3.4609 -0.8933 0.1064
3.4865 -0.9217 0.1103
3.5107 -0.9496 0.1142
3.5404 -0.9609 0.1162
3.5492 -1.0170 0.1230
3.5804 -1.0194 0.1240
1.3595 -1.8474 0.1335
1.4003 -1.8392 0.1336
0.5284 -0.8086 -0.0430
-0.1644 0.6158 -0.2709
-0.0531 0.6525 -0.2727
0.0907 0.6474 -0.2674
0.5832 0.7080 -0.2606
0.9482 0.7309 -0.2524
1.1457 0.5730 -0.2233
1.0806 0.9733 -0.2833
1.5934 0.5581 -0.2071
1.6418 0.7363 -0.2313
1.7411 0.7689 -0.2329
2.1236 -0.3034 -0.0657
2.2358 -0.4727 -0.0377
2.3116 -0.5147 -0.0292
2.4434 -0.5341 -0.0222
2.4357 0.9975 -0.2440
2.5324 1.0723 -0.2518
2.8334 1.1714 -0.2566
2.9337 1.2044 -0.2582
3.0371 1.2824 -0.2663
3.0813 0.6962 -0.1801
3.0947 0.0989 -0.0932
3.0912 -0.9948 0.0648
3.3400 -0.9370 0.0643
3.3854 -0.9137 0.0624
3.4245 -0.9092 0.0630
3.4637 -0.9036 0.0634
3.4991 -0.9066 0.0650
3.5408 -0.8929 0.0643
3.5825 -0.8792 0.0636
3.6038 -0.9841 0.0795
0.3946 -0.8711 -0.1114
0.4806 -0.8626 -0.1094
0.5492 -0.8400 -0.1105
0.6654 -0.8610 -0.1022
0.5179 -0.6331 -0.1473
0.5383 -0.5546 -0.1600
0.5014 -0.4109 -0.1862
0.4813 -0.2741 -0.2105
0.3439 0.0091 -0.2648
0.4361 0.0395 -0.2662
0.4824 0.1285 -0.2797
0.5765 0.1595 -0.2812
0.6706 0.1905 -0.2827
0.8049 0.1609 -0.2722
0.8971 0.1912 -0.2736
0.9708 0.2529 -0.2812
1.0290 0.3469 -0.2950
1.1411 0.3453 -0.2902
1.2352 0.3763 -0.2917
1.2988 0.4752 -0.3062
1.4234 0.4383 -0.2948
1.6011 0.2504 -0.2553
1.6347 0.4340 -0.2855
1.7371 0.4324 -0.2810
1.8894 0.2497 -0.2435
2.1087 -0.2446 -0.1496
2.2287 -0.4389 -0.1114
2.3000 -0.4508 -0.1064
2.4172 0.2758 -0.2266
2.4760 0.5717 -0.2750
2.5627 0.6345 -0.2823
2.6512 0.6979 -0.2896
2.7412 0.7982 -0.3032
2.8334 0.8286 -0.3047
2.9118 0.5561 -0.2547
2.9985 0.6147 -0.2613
3.1069 -0.9367 0.0098
3.4373 0.1304 -0.1602
3.5180 0.1985 -0.1687
3.5505 -0.8863 0.0191
0.1411 -0.8451 -0.2034
0.2924 -0.8820 -0.1886
0.2668 -0.7820 -0.2098
0.3585 -0.7735 -0.2069
0.3940 -0.7174 -0.2164
0.6381 -0.8487 -0.1781
0.5227 -0.6513 -0.2232
0.5246 -0.5547 -0.2423
0.7050 -0.6378 -0.2168
0.8092 -0.6479 -0.2096
0.7547 -0.4790 -0.2460
0.8604 -0.3678 -0.2630
0.8903 -0.2764 -0.2797
1.0326 -0.3369 -0.2606
1.1648 -0.3925 -0.2429
1.1752 -0.2642 -0.2680
1.4341 -0.2306 -0.2619
1.5007 -0.1828 -0.2681
1.5986 -0.2012 -0.2596
1.7021 -0.2404 -0.2466
1.8004 -0.2772 -0.2344
1.8802 -0.2726 -0.2314
1.9464 -0.2292 -0.2367
1.9688 -0.0288 -0.2756
2.1464 -0.3915 -0.1945
2.2366 -0.4712 -0.1741
2.3074 -0.4830 -0.1682
2.3888 -0.5698 -0.1469
2.4450 -0.5193 -0.1542
2.4937 -0.3866 -0.1782
2.5250 0.0304 -0.2598
2.5999 0.0551 -0.2610
2.6718 0.1768 -0.2817
2.7488 0.3074 -0.3040
2.8289 0.3338 -0.3053
2.8991 0.1536 -0.2658
2.9623 0.0175 -0.2356
3.0536 0.2529 -0.2780
3.0791 -0.1402 -0.1983
3.1167 -0.9113 -0.0426
3.3419 -0.0537 -0.2025
3.4471 0.1357 -0.2351
3.3464 -0.5033 -0.1126
3.3095 -0.8117 -0.0529
3.3324 -0.8744 -0.0393
3.3625 -0.9047 -0.0318
3.4028 -0.8997 -0.0308
3.4558 -0.8585 -0.0363
3.5398 -0.8391 -0.0360
4.2359 0.4367 -0.2560
4.2272 0.2934 -0.2279
4.4293 0.5881 -0.2766
0.1656 -1.0225 -0.2400
0.4882 -1.1797 -0.1853
0.3384 -1.0045 -0.2339
0.3700 -0.9552 -0.2433
0.4208 -0.9190 -0.2486
0.3826 -0.8075 -0.2762
0.4724 -0.7995 -0.2727
0.6741 -0.8940 -0.2393
0.7027 -0.7452 -0.2715
0.8034 -0.7530 -0.2638
0.8587 -0.7144 -0.2693
0.9832 -0.7533 -0.2532
1.0259 -0.7003 -0.2627
1.1073 -0.6930 -0.2596
1.1642 -0.6548 -0.2649
1.2446 -0.6478 -0.2618
1.3025 -0.6093 -0.2671
1.3609 -0.5695 -0.2727
1.4103 -0.5123 -0.2829
1.4810 -0.4890 -0.2840
1.5791 -0.5182 -0.2716
1.6397 -0.4778 -0.2772
1.7013 -0.4370 -0.2829
1.7866 -0.4500 -0.2749
1.8624 -0.4445 -0.2717
1.9184 -0.3860 -0.2817
1.9822 -0.3446 -0.2874
2.0578 -0.3402 -0.2839
2.1595 -0.4420 -0.2548
2.2444 -0.5033 -0.2359
2.3082 -0.4822 -0.2369
2.3800 -0.5088 -0.2266
2.4509 -0.5491 -0.2133
2.5316 -0.7091 -0.1722
2.5676 -0.4471 -0.2296
2.6185 -0.2151 -0.2794
2.6850 -0.1337 -0.2940
2.7546 -0.0483 -0.3093
2.8259 -0.0248 -0.3105
2.9557 -0.8042 -0.1256
2.9928 -0.8914 -0.1035
3.0344 -0.9147 -0.0958
3.0743 -0.9374 -0.0883
3.1163 -0.9400 -0.0852
3.1632 -0.9164 -0.0879
3.2150 -0.8737 -0.0945
3.2687 -0.8283 -0.1017
3.3096 -0.8333 -0.0981
3.3298 -0.9035 -0.0810
3.3623 -0.9246 -0.0743
3.4056 -0.9104 -0.0750
3.4455 -0.9054 -0.0737
3.4854 -0.8995 -0.0727
3.5464 -0.8404 -0.0826
4.0973 0.2327 -0.2943
4.1963 0.3237 -0.3092
4.2427 0.3000 -0.3010
4.3220 0.3456 -0.3067
0.5514 -1.2364 -0.2332
0.5534 -1.1746 -0.2489
0.6147 -1.1545 -0.2499
0.6478 -1.1120 -0.2585
0.7099 -1.0916 -0.2595
0.7583 -1.0593 -0.2644
0.8341 -1.0507 -0.2614
0.9331 -1.0649 -0.2511
0.9583 -1.0098 -0.2634
1.0204 -0.9894 -0.2644
1.0940 -0.9814 -0.2615
1.1661 -0.9730 -0.2587
1.2274 -0.9528 -0.2597
1.3272 -0.9810 -0.2457
1.4132 -0.9965 -0.2358
1.4553 -0.9541 -0.2438
1.4977 -0.9096 -0.2523
1.6108 -0.8582 -0.2578
1.6852 -0.8632 -0.2514
1.7176 -0.7914 -0.2676
1.8702 -0.8176 -0.2505
1.9452 -0.8356 -0.2407
1.9985 -0.8038 -0.2452
2.0570 -0.7846 -0.2462
2.1155 -0.7653 -0.2471
2.1625 -0.7061 -0.2591
2.2326 -0.7268 -0.2490
2.2971 -0.7341 -0.2427
2.3548 -0.7150 -0.2437
2.4211 -0.7472 -0.2309
2.4757 -0.7160 -0.2352
2.5352 -0.7229 -0.2294
2.5848 -0.6251 -0.2510
2.6444 -0.6330 -0.2449
2.7011 -0.5868 -0.2529
2.7593 -0.5097 -0.2687
2.8133 -0.7077 -0.2143
2.8756 -0.5294 -0.2557
2.9233 -0.6460 -0.2226
2.9886 -0.9604 -0.1377
3.0345 -0.9453 -0.1384
3.0821 -0.9205 -0.1415
3.1416 -1.0394 -0.1071
3.1881 -1.0088 -0.1117
3.2515 -0.9167 -0.1310
3.3154 -0.8345 -0.1476
3.3469 -0.8680 -0.1369
3.4144 -0.9038 -0.1232
3.4581 -0.8894 -0.1239
3.5018 -0.8750 -0.1246
3.5690 -0.8030 -0.1384
3.6307 -0.7491 -0.1480
3.7025 -0.8395 -0.1200
0.5949 -1.3371 -0.2666
0.6520 -1.3183 -0.2675
0.6956 -1.2898 -0.2723
0.7782 -1.2899 -0.2658
0.8467 -1.2805 -0.2632
0.9260 -1.2807 -0.2570
0.9816 -1.2623 -0.2579
1.0373 -1.2440 -0.2588
1.0825 -1.2160 -0.2632
1.1285 -1.1877 -0.2677
1.1849 -1.1692 -0.2686
1.2506 -1.1607 -0.2659
1.3066 -1.1422 -0.2668
1.3539 -1.1135 -0.2713
1.4269 -1.1158 -0.2650
1.4826 -1.0974 -0.2659
1.5383 -1.0791 -0.2668
1.5867 -1.0501 -0.2713
1.6629 -1.0634 -0.2616
1.7053 -1.0242 -0.2695
1.7485 -0.9837 -0.2777
1.8048 -0.9651 -0.2786
1.8722 -0.9692 -0.2722
1.9379 -0.9729 -0.2660
1.9884 -0.9441 -0.2703
2.0437 -0.9259 -0.2712
2.0990 -0.9077 -0.2721
2.1614 -0.9114 -0.2662
2.2129 -0.8823 -0.2704
2.2679 -0.8642 -0.2713
2.3203 -0.8349 -0.2756
2.3801 -0.8394 -0.2697
2.4368 -0.8339 -0.2668
2.4879 -0.7918 -0.2749
2.5428 -0.7737 -0.2757
2.5928 -0.6926 -0.2949
2.6509 -0.6998 -0.2884
2.7062 -0.6553 -0.2968
2.7628 -0.7266 -0.2721
2.8175 -0.6955 -0.2767
2.9430 -1.0130 -0.1766
3.0120 -0.8124 -0.2283
3.0619 -0.7960 -0.2291
3.0918 -0.8933 -0.1991
3.1389 -0.8778 -0.1999
3.3101 -0.8750 -0.1874
3.3616 -0.8408 -0.1931
3.3920 -0.8733 -0.1815
3.4301 -0.8779 -0.1772
3.4888 -0.8253 -0.1876
3.5502 -0.7697 -0.1987
3.5965 -0.7544 -0.1994
3.6474 -0.7286 -0.2028
3.6752 -0.7548 -0.1932
0.9505 -1.4300 -0.2695
0.9924 -1.4051 -0.2736
1.0542 -1.3958 -0.2711
1.1427 -1.4099 -0.2590
1.2025 -1.4012 -0.2565
1.2530 -1.3846 -0.2573
1.3273 -1.3913 -0.2487
1.3843 -1.3825 -0.2465
1.4265 -1.3586 -0.2503
1.4471 -1.3097 -0.2639
1.5117 -1.3095 -0.2583
1.5753 -1.3096 -0.2527
1.5931 -1.2516 -0.2694
1.6622 -1.2600 -0.2607
1.7403 -1.2845 -0.2462
1.7790 -1.2526 -0.2528
1.8233 -1.2280 -0.2567
1.8777 -1.2202 -0.2544
1.9270 -1.2039 -0.2552
1.9763 -1.1877 -0.2560
2.0332 -1.1880 -0.2509
2.0895 -1.1896 -0.2455
2.1443 -1.1906 -0.2404
2.1889 -1.1659 -0.2443
2.2370 -1.1501 -0.2451
2.2826 -1.1260 -0.2486
2.3286 -1.1009 -0.2525
2.3729 -1.0662 -0.2595
2.4310 -1.0962 -0.2450
2.4742 -1.0529 -0.2549
2.5266 -1.0648 -0.2466
2.5744 -1.0491 -0.2473
2.6221 -1.0333 -0.2481
2.6665 -0.9505 -0.2702
2.7166 -0.9531 -0.2651
2.7656 -0.9671 -0.2564
2.8127 -0.9887 -0.2455
2.8502 -1.1510 -0.1913
2.9089 -0.9390 -0.2527
2.9587 -0.9035 -0.2595
3.0084 -0.8771 -0.2634
3.0570 -0.8611 -0.2642
3.1036 -0.8558 -0.2618
3.1478 -0.8603 -0.2565
3.1956 -0.8446 -0.2573
3.2189 -1.0808 -0.1812
3.2696 -1.0350 -0.1911
3.3499 -0.8992 -0.2267
3.4107 -0.8370 -0.2409
3.4605 -0.8116 -0.2446
3.5107 -0.7860 -0.2482
3.5865 -0.6968 -0.2696
3.6348 -0.6809 -0.2703
3.6831 -0.6650 -0.2711
3.7266 -0.6598 -0.2690
3.7588 -0.6773 -0.2607
3.7547 -0.7659 -0.2332
1.3417 -1.8133 -0.1576
1.3439 -1.7748 -0.1706
1.2607 -1.6706 -0.2145
1.2965 -1.6508 -0.2178
1.2701 -1.5270 -0.2629
1.3169 -1.5116 -0.2636
1.3709 -1.5028 -0.2614
1.4382 -1.5075 -0.2532
1.4640 -1.4721 -0.2629
1.5171 -1.4636 -0.2607
1.5634 -1.4484 -0.2614
1.6098 -1.4331 -0.2621
1.6504 -1.4108 -0.2659
1.6970 -1.3955 -0.2666
1.7851 -1.3575 -0.2711
1.8510 -1.3717 -0.2599
1.8969 -1.3566 -0.2606
1.9384 -1.3339 -0.2643
1.9886 -1.3264 -0.2621
2.0306 -1.3036 -0.2658
2.0767 -1.2884 -0.2666
2.1291 -1.2881 -0.2616
2.1689 -1.2581 -0.2680
2.2122 -1.2348 -0.2718
2.2612 -1.2277 -0.2695
2.3073 -1.2125 -0.2703
2.3470 -1.1725 -0.2801
2.3995 -1.1822 -0.2717
2.4472 -1.1754 -0.2694
2.4917 -1.1518 -0.2732
2.5432 -1.1767 -0.2597
2.6777 -1.1245 -0.2646
2.7224 -1.0849 -0.2738
2.7682 -1.0698 -0.2746
2.8108 -1.1604 -0.2393
2.8508 -1.1980 -0.2225
2.9073 -1.0060 -0.2830
2.9517 -1.0094 -0.2775
3.0000 -0.9755 -0.2845
3.0421 -0.9876 -0.2762
3.0910 -0.9546 -0.2828
3.1371 -0.9394 -0.2836
3.1832 -0.9242 -0.2843
3.2222 -0.9373 -0.2761
3.4493 -0.8626 -0.2797
3.5059 -0.8180 -0.2895
3.5561 -0.7925 -0.2934
3.6112 -0.7564 -0.3004
3.6627 -0.7305 -0.3043
3.6952 -0.7467 -0.2956
3.7030 -0.8119 -0.2725
3.5899 -1.1142 -0.1796
3.6032 -1.1487 -0.1665
1.1716 -1.7480 -0.2433
1.2137 -1.7342 -0.2440
1.2758 -1.7345 -0.2372
1.3303 -1.7304 -0.2329
1.4021 -1.7405 -0.2215
1.4248 -1.7132 -0.2293
1.3927 -1.6387 -0.2605
1.4415 -1.6295 -0.2587
1.4907 -1.6213 -0.2565
1.5333 -1.6072 -0.2572
1.5701 -1.5872 -0.2608
1.6294 -1.5905 -0.2532
1.6909 -1.5979 -0.2439
1.7324 -1.5842 -0.2445
1.7695 -1.5651 -0.2477
1.8069 -1.5459 -0.2509
1.8447 -1.5265 -0.2541
1.8829 -1.5070 -0.2573
1.9362 -1.5102 -0.2504
1.9814 -1.5023 -0.2485
2.0163 -1.4769 -0.2543
2.0971 -1.4434 -0.2582
2.1447 -1.4416 -0.2537
2.1941 -1.4461 -0.2468
2.2353 -1.4326 -0.2474
2.2745 -1.4137 -0.2503
2.3175 -1.4055 -0.2488
2.3623 -1.4046 -0.2443
2.3984 -1.3729 -0.2523
2.4351 -1.3391 -0.2610
2.4821 -1.3513 -0.2514
2.5253 -1.3510 -0.2469
2.5652 -1.3309 -0.2501
2.6062 -1.3174 -0.2508
2.6471 -1.3039 -0.2515
2.6875 -1.2778 -0.2569
2.7293 -1.2908 -0.2476
2.7700 -1.2506 -0.2582
2.8116 -1.2290 -0.2619
2.8514 -1.2436 -0.2522
2.8922 -1.2302 -0.2528
2.9369 -1.1809 -0.2665
2.9776 -1.1744 -0.2645
3.0178 -1.1691 -0.2622
3.0676 -1.1091 -0.2793
3.1149 -1.0718 -0.2882
3.1526 -1.0812 -0.2806
3.1871 -1.0985 -0.2705
3.2351 -1.0619 -0.2790
3.2479 -1.1468 -0.2460
3.4041 -1.0063 -0.2817
3.4464 -0.9924 -0.2824
3.4886 -0.9785 -0.2831
3.5382 -0.9473 -0.2894
3.5577 -1.1299 -0.2192
3.5757 -1.1566 -0.2073
3.6440 -1.0837 -0.2272
1.2438 -1.8033 -0.2600
1.2977 -1.7993 -0.2553
1.3433 -1.7902 -0.2537
1.3710 -1.7683 -0.2593
1.4344 -1.7730 -0.2500
1.4676 -1.7552 -0.2533
1.5021 -1.7379 -0.2562
1.5418 -1.7249 -0.2569
1.5767 -1.7075 -0.2598
1.6112 -1.6893 -0.2631
1.6460 -1.6709 -0.2665
1.6913 -1.6629 -0.2644
1.7361 -1.6550 -0.2624
1.7713 -1.6365 -0.2657
1.8158 -1.6288 -0.2636
1.8593 -1.6204 -0.2620
1.8990 -1.6073 -0.2626
1.9276 -1.5782 -0.2710
1.9752 -1.5763 -0.2662
2.0578 -1.5550 -0.2651
2.2070 -1.4804 -0.2779
2.2626 -1.5063 -0.2609
2.3000 -1.4881 -0.2639
2.3373 -1.4689 -0.2673
2.4194 -1.4547 -0.2634
2.4559 -1.4299 -0.2692
2.4967 -1.4233 -0.2670
2.5341 -1.3983 -0.2728
2.5730 -1.3796 -0.2758
2.6541 -1.3715 -0.2696
2.6931 -1.3518 -0.2730
2.7722 -1.3199 -0.2766
2.8114 -1.3197 -0.2721
2.8500 -1.3188 -0.2679
2.8891 -1.3060 -0.2686
2.9317 -1.2615 -0.2816
2.9715 -1.2484 -0.2822
3.0082 -1.2550 -0.2752
3.0551 -1.2012 -0.2915
3.0942 -1.1943 -0.2897
3.1309 -1.1959 -0.2848
3.1708 -1.1828 -0.2854
3.2070 -1.1827 -0.2812
3.2301 -1.2242 -0.2617
3.2459 -1.2809 -0.2370
3.2954 -1.2312 -0.2513
3.3623 -1.1384 -0.2809
3.4073 -1.1109 -0.2868
3.4470 -1.0978 -0.2874
3.4803 -1.0996 -0.2828
3.5098 -1.1085 -0.2758
3.5015 -1.1967 -0.2411
3.5226 -1.2163 -0.2307
3.5947 -1.1326 -0.2561
3.6695 -1.0491 -0.2811
1.3519 -1.8809 -0.2583
1.4011 -1.8764 -0.2540
1.4429 -1.8675 -0.2525
1.5002 -1.8701 -0.2441
1.5222 -1.8472 -0.2513
1.5495 -1.8275 -0.2564
1.5908 -1.8188 -0.2549
1.6237 -1.8031 -0.2576
1.6869 -1.8145 -0.2446
1.7353 -1.8142 -0.2386
1.7593 -1.7907 -0.2457
1.7834 -1.7661 -0.2533
1.8276 -1.7623 -0.2494
1.8712 -1.7587 -0.2454
1.9042 -1.7430 -0.2481
1.9501 -1.7435 -0.2420
1.9859 -1.7317 -0.2426
2.0216 -1.7199 -0.2432
2.0459 -1.6905 -0.2529
2.0878 -1.6874 -0.2489
2.1384 -1.7010 -0.2366
2.1622 -1.6678 -0.2480
2.1960 -1.6518 -0.2506
2.2259 -1.6264 -0.2579
2.2776 -1.6503 -0.2409
2.3097 -1.6300 -0.2457
2.3438 -1.6139 -0.2483
2.3810 -1.6065 -0.2468
2.4179 -1.5992 -0.2453
2.4512 -1.5785 -0.2501
2.4890 -1.5758 -0.2464
2.5245 -1.5641 -0.2470
2.5545 -1.5182 -0.2632
2.5943 -1.5314 -0.2524
2.6320 -1.5385 -0.2445
2.6663 -1.5126 -0.2514
2.7021 -1.5057 -0.2499
2.7373 -1.4736 -0.2593
2.7732 -1.4774 -0.2531
2.8093 -1.4548 -0.2584
2.8456 -1.4380 -0.2611
2.8812 -1.4311 -0.2595
2.9147 -1.4406 -0.2512
2.9531 -1.4075 -0.2607
2.9955 -1.3565 -0.2775
3.0282 -1.3672 -0.2687
3.0706 -1.3269 -0.2808
3.1022 -1.3379 -0.2720
3.1387 -1.3259 -0.2726
3.1737 -1.3193 -0.2710
3.2081 -1.3138 -0.2690
3.2407 -1.3128 -0.2653
3.2805 -1.2900 -0.2702
3.3192 -1.2714 -0.2733
3.3578 -1.2538 -0.2761
3.3994 -1.2294 -0.2814
3.4362 -1.2173 -0.2820
3.4590 -1.2361 -0.2709
3.4837 -1.2484 -0.2624
3.5283 -1.2181 -0.2699
3.5643 -1.2063 -0.2705
1.3598 -1.9619 -0.2623
1.4003 -1.9533 -0.2607
1.4466 -1.9488 -0.2565
1.4659 -1.9269 -0.2640
1.5165 -1.9257 -0.2576
1.5515 -1.9142 -0.2582
1.5945 -1.9088 -0.2548
1.6292 -1.8974 -0.2554
1.6471 -1.8721 -0.2647
1.7374 -1.8666 -0.2548
1.7651 -1.8488 -0.2593
1.7999 -1.8373 -0.2599
1.8269 -1.8178 -0.2653
1.8723 -1.8174 -0.2593
1.9765 -1.7831 -0.2609
2.0170 -1.7794 -0.2571
2.0833 -1.7528 -0.2604
2.2426 -1.6664 -0.2787
2.3287 -1.6816 -0.2598
2.3689 -1.6868 -0.2519
2.4092 -1.6958 -0.2422
2.4768 -1.6784 -0.2410
2.5088 -1.6630 -0.2438
2.6399 -1.6024 -0.2540
2.6729 -1.5819 -0.2590
2.7063 -1.5574 -0.2659
2.7406 -1.5461 -0.2664
2.7751 -1.5251 -0.2715
2.8100 -1.5048 -0.2761
2.8442 -1.5023 -0.2726
2.8774 -1.5059 -0.2664
2.9458 -1.4834 -0.2675
2.9826 -1.4567 -0.2748
3.0172 -1.4454 -0.2754
3.0506 -1.4392 -0.2737
3.0886 -1.4131 -0.2806
3.1265 -1.3900 -0.2862
3.1583 -1.3902 -0.2817
3.1931 -1.3787 -0.2823
3.2265 -1.3716 -0.2810
3.2647 -1.3503 -0.2857
3.2960 -1.3488 -0.2821
3.3241 -1.3540 -0.2758
3.3232 -1.5479 -0.1855
3.3538 -1.5349 -0.1874
1.5667 -2.1165 -0.1955
1.4910 -2.0156 -0.2570
1.5420 -2.0161 -0.2492
1.5871 -2.0137 -0.2437
1.6107 -1.9973 -0.2484
1.6468 -1.9893 -0.2471
1.6674 -1.9700 -0.2536
1.6853 -1.9478 -0.2620
1.7514 -1.9260 -0.2631
1.7916 -1.9214 -0.2594
1.8305 -1.9163 -0.2562
1.8763 -1.9185 -0.2483
1.9169 -1.9167 -0.2433
1.9372 -1.8937 -0.2517
1.9668 -1.8801 -0.2541
2.0017 -1.8724 -0.2528
2.0370 -1.8656 -0.2509
2.0806 -1.8705 -0.2421
2.1193 -1.8702 -0.2365
2.1438 -1.8497 -0.2431
2.1734 -1.8361 -0.2455
2.2033 -1.8224 -0.2479
2.2404 -1.8218 -0.2427
2.2739 -1.8155 -0.2409
2.2890 -1.7702 -0.2612
2.3291 -1.7772 -0.2518
2.3636 -1.7735 -0.2485
2.3929 -1.7562 -0.2528
2.4271 -1.7526 -0.2495
2.4588 -1.7422 -0.2500
2.4934 -1.7433 -0.2444
2.5222 -1.7213 -0.2511
2.5546 -1.7145 -0.2497
2.5862 -1.7041 -0.2502
2.6173 -1.6900 -0.2526
2.6494 -1.6833 -0.2512
2.6804 -1.6654 -0.2555
2.7121 -1.6511 -0.2579
2.7441 -1.6444 -0.2565
2.7757 -1.6455 -0.2513
2.8077 -1.6235 -0.2576
2.8403 -1.6012 -0.2638
2.8733 -1.5817 -0.2687
2.9036 -1.5881 -0.2610
2.9374 -1.5644 -0.2678
2.9711 -1.5457 -0.2721
2.9994 -1.5566 -0.2625
3.0313 -1.5460 -0.2631
3.0612 -1.5439 -0.2597
3.0917 -1.5377 -0.2583
3.1310 -1.5007 -0.2709
3.1660 -1.4815 -0.2753
3.1938 -1.4849 -0.2695
3.2212 -1.4874 -0.2642
3.2601 -1.4582 -0.2730
3.2941 -1.4432 -0.2754
3.3265 -1.4325 -0.2759
3.3307 -1.4859 -0.2487
3.3376 -1.5797 -0.2010
3.3618 -1.5785 -0.1980
3.3765 -1.5948 -0.1877
1.5602 -2.0922 -0.2437
1.5701 -2.0699 -0.2540
1.6051 -2.0622 -0.2525
1.6281 -2.0469 -0.2569
1.6592 -2.0367 -0.2574
1.6939 -2.0291 -0.2560
1.7249 -2.0189 -0.2565
1.7558 -2.0087 -0.2570
1.7868 -1.9985 -0.2575
1.8121 -1.9835 -0.2614
1.8456 -1.9754 -0.2604
1.8744 -1.9630 -0.2624
1.9136 -1.9606 -0.2575
1.9444 -1.9505 -0.2580
1.9698 -1.9345 -0.2624
2.0035 -1.9272 -0.2609
2.0301 -1.9118 -0.2649
2.1055 -1.9089 -0.2545
2.1273 -1.8864 -0.2629
2.1604 -1.8794 -0.2614
2.1858 -1.8605 -0.2674
2.2258 -1.8655 -0.2584
2.2564 -1.8554 -0.2589
2.2949 -1.8609 -0.2499
2.3483 -1.8251 -0.2604
2.3713 -1.7956 -0.2724
2.4784 -1.8109 -0.2473
2.5337 -1.7718 -0.2593
2.5654 -1.7680 -0.2563
2.5956 -1.7581 -0.2568
2.6255 -1.7454 -0.2588
2.6564 -1.7419 -0.2557
2.7467 -1.7055 -0.2607
2.7771 -1.6955 -0.2612
2.8079 -1.6739 -0.2678
2.8391 -1.6560 -0.2723
2.8688 -1.6577 -0.2667
2.9018 -1.6277 -0.2774
2.9310 -1.6295 -0.2718
2.9639 -1.6073 -0.2784
2.9956 -1.5940 -0.2804
3.0242 -1.5951 -0.2753
3.0550 -1.5849 -0.2758
3.0881 -1.5664 -0.2804
3.1167 -1.5646 -0.2768
3.1435 -1.5672 -0.2711
3.1726 -1.5615 -0.2696
3.2136 -1.5222 -0.2839
3.2401 -1.5240 -0.2788
3.2758 -1.5017 -0.2849
3.3000 -1.5081 -0.2777
3.3267 -1.5069 -0.2741
3.3531 -1.5059 -0.2705
3.3795 -1.5038 -0.2673
3.3492 -1.6140 -0.2137
3.3656 -1.6257 -0.2049
3.3868 -1.6273 -0.2007
1.6116 -2.1279 -0.2505
1.6295 -2.1116 -0.2567
1.6520 -2.0976 -0.2608
1.7030 -2.1016 -0.2499
1.7320 -2.0920 -0.2503
1.7703 -2.0889 -0.2456
1.8053 -2.0840 -0.2424
1.8339 -2.0746 -0.2429
1.8625 -2.0652 -0.2434
1.8773 -2.0442 -0.2527
1.9142 -2.0415 -0.2479
1.9506 -2.0390 -0.2432
1.9769 -2.0275 -0.2452
2.0055 -2.0181 -0.2457
2.0362 -2.0109 -0.2445
2.0537 -1.9890 -0.2539
2.0870 -1.9847 -0.2507
2.1236 -1.9849 -0.2443
2.1406 -1.9604 -0.2553
2.1750 -1.9585 -0.2505
2.2089 -1.9568 -0.2457
2.2373 -1.9475 -0.2462
2.2676 -1.9413 -0.2445
2.2986 -1.9368 -0.2418
2.3256 -1.9251 -0.2439
2.3500 -1.9076 -0.2496
2.3760 -1.8924 -0.2537
2.4093 -1.8947 -0.2468
2.4386 -1.8879 -0.2457
2.4613 -1.8615 -0.2567
2.4891 -1.8485 -0.2593
2.5205 -1.8486 -0.2539
2.5510 -1.8480 -0.2491
2.5770 -1.8262 -0.2570
2.6063 -1.8204 -0.2553
2.6344 -1.8073 -0.2579
2.6644 -1.8107 -0.2509
2.6921 -1.7921 -0.2567
2.7209 -1.7883 -0.2539
2.7493 -1.7733 -0.2576
2.7779 -1.7639 -0.2581
2.8068 -1.7477 -0.2622
2.8351 -1.7450 -0.2590
2.8632 -1.7415 -0.2562
2.8920 -1.7292 -0.2583
2.9226 -1.7058 -0.2662
2.9485 -1.7134 -0.2576
2.9790 -1.6939 -0.2634
3.0061 -1.6916 -0.2601
3.0338 -1.6853 -0.2590
3.0680 -1.6552 -0.2702
3.0948 -1.6530 -0.2669
3.1226 -1.6467 -0.2657
3.1524 -1.6340 -0.2678
3.1839 -1.6170 -0.2720
3.2187 -1.5923 -0.2801
3.2405 -1.6012 -0.2713
3.2708 -1.5884 -0.2734
3.2963 -1.5866 -0.2701
3.3199 -1.5883 -0.2652
3.3484 -1.5789 -0.2656
3.3769 -1.5696 -0.2661
3.3934 -1.5831 -0.2557
3.3999 -1.6131 -0.2377
1.6523 -2.1571 -0.2602
1.7156 -2.1428 -0.2573
1.7339 -2.1274 -0.2632
1.7556 -2.1137 -0.2675
1.7959 -2.1126 -0.2608
1.8240 -2.1033 -0.2613
1.8659 -2.1046 -0.2530
1.8961 -2.0975 -0.2518
1.9059 -2.0736 -0.2643
1.9396 -2.0691 -0.2609
1.9623 -2.0550 -0.2652
2.0021 -2.0569 -0.2569
2.0186 -2.0365 -0.2661
2.0448 -2.0250 -0.2682
2.0795 -2.0230 -0.2632
2.1094 -2.0160 -0.2619
2.1445 -2.0157 -0.2558
2.2308 -1.9939 -0.2533
2.2940 -1.9900 -0.2442
2.3196 -1.9788 -0.2463
2.3515 -1.9795 -0.2401
2.3770 -1.9683 -0.2422
2.4256 -1.9382 -0.2513
2.4519 -1.9267 -0.2534
2.4849 -1.9356 -0.2422
2.5896 -1.8899 -0.2506
2.6696 -1.8523 -0.2586
2.6982 -1.8626 -0.2473
2.7790 -1.8106 -0.2637
2.8059 -1.8130 -0.2574
2.8894 -1.7705 -0.2677
2.9175 -1.7585 -0.2699
2.9452 -1.7494 -0.2703
2.9734 -1.7372 -0.2725
2.9998 -1.7342 -0.2695
3.0289 -1.7190 -0.2733
3.0835 -1.7038 -0.2725
3.1166 -1.6779 -0.2820
3.1458 -1.6655 -0.2842
3.1712 -1.6637 -0.2807
3.1942 -1.6674 -0.2743
3.2232 -1.6550 -0.2765
3.2571 -1.6317 -0.2843
3.2817 -1.6301 -0.2808
3.3096 -1.6209 -0.2812
3.3375 -1.6118 -0.2817
3.3602 -1.6127 -0.2770
3.3915 -1.5968 -0.2808
1.7477 -2.1929 -0.2529
1.7662 -2.1793 -0.2579
1.8035 -2.1773 -0.2520
1.8271 -2.1667 -0.2542
1.8462 -2.1530 -0.2592
1.8827 -2.1512 -0.2533
1.9116 -2.1445 -0.2520
1.9354 -2.1338 -0.2542
1.9570 -2.1212 -0.2580
1.9968 -2.1239 -0.2487
2.0214 -2.1139 -0.2502
2.0432 -2.1012 -0.2541
2.0716 -2.0946 -0.2528
2.0978 -2.0860 -0.2532
2.1260 -2.0795 -0.2519
2.1447 -2.0622 -0.2593
2.1813 -2.0660 -0.2499
2.2124 -2.0641 -0.2451
2.2609 -2.0426 -0.2494
2.2883 -2.0364 -0.2481
2.3141 -2.0279 -0.2485
2.3400 -2.0193 -0.2489
2.3658 -2.0108 -0.2493
2.3917 -2.0023 -0.2497
2.4186 -1.9963 -0.2484
2.4434 -1.9853 -0.2506
2.4692 -1.9768 -0.2510
2.4951 -1.9683 -0.2514
2.5444 -1.9418 -0.2586
2.5721 -1.9401 -0.2544
2.5990 -1.9369 -0.2513
2.6240 -1.9231 -0.2552
2.6502 -1.9172 -0.2539
2.6758 -1.9060 -0.2561
2.7021 -1.9029 -0.2529
2.7276 -1.8862 -0.2586
2.7536 -1.8804 -0.2573
2.7797 -1.8643 -0.2624
2.8056 -1.8605 -0.2599
2.8314 -1.8548 -0.2585
2.8574 -1.8462 -0.2590
2.8837 -1.8348 -0.2612
2.9088 -1.8321 -0.2580
2.9341 -1.8266 -0.2567
2.9617 -1.8091 -0.2624
3.0146 -1.7889 -0.2650
3.0430 -1.7721 -0.2702
3.0658 -1.7748 -0.2641
3.0928 -1.7632 -0.2663
3.1167 -1.7609 -0.2631
3.1427 -1.7523 -0.2635
3.1732 -1.7320 -0.2705
3.1932 -1.7385 -0.2626
3.2285 -1.7082 -0.2749
3.2494 -1.7116 -0.2688
3.2782 -1.6975 -0.2722
3.3027 -1.6922 -0.2708
3.3207 -1.6993 -0.2629
3.3502 -1.6841 -0.2669
3.3691 -1.6881 -0.2607
1.7922 -2.2241 -0.2548
1.8096 -2.2110 -0.2600
1.8352 -2.2026 -0.2604
1.8682 -2.1991 -0.2560
1.8981 -2.1939 -0.2534
1.9304 -2.1907 -0.2490
1.9503 -2.1786 -0.2530
1.9630 -2.1605 -0.2625
1.9950 -2.1574 -0.2581
2.0203 -2.1491 -0.2585
2.0494 -2.1441 -0.2559
2.0725 -2.1337 -0.2581
2.0978 -2.1254 -0.2585
2.1217 -2.1157 -0.2601
2.1419 -2.1016 -0.2653
2.1767 -2.1040 -0.2567
2.1960 -2.0885 -0.2631
2.2242 -2.0838 -0.2605
2.2815 -2.0770 -0.2534
2.3906 -2.0623 -0.2411
2.4119 -2.0479 -0.2463
2.5598 -2.0020 -0.2468
2.5814 -1.9810 -0.2564
2.6574 -1.9671 -0.2503
2.6817 -1.9572 -0.2519
2.7555 -1.9348 -0.2518
2.7804 -1.9127 -0.2615
2.9064 -1.8639 -0.2684
2.9319 -1.8536 -0.2700
2.9555 -1.8533 -0.2655
2.9824 -1.8370 -0.2708
3.0084 -1.8257 -0.2731
3.0342 -1.8153 -0.2747
3.0574 -1.8142 -0.2708
3.0815 -1.8090 -0.2694
3.1095 -1.7924 -0.2747
3.1356 -1.7819 -0.2764
3.2117 -1.7569 -0.2776
3.2295 -1.7649 -0.2687
3.2544 -1.7567 -0.2691
3.2721 -1.7629 -0.2614
3.3026 -1.7437 -0.2680
3.3274 -1.7355 -0.2684
1.8207 -2.2674 -0.2490
1.8518 -2.2636 -0.2450
1.8707 -2.2528 -0.2486
1.8995 -2.2479 -0.2458
1.9074 -2.2297 -0.2568
1.9362 -2.2248 -0.2541
1.9710 -2.2244 -0.2470
1.9845 -2.2089 -0.2549
2.0103 -2.2023 -0.2540
2.0368 -2.1963 -0.2525
2.0624 -2.1897 -0.2516
2.0901 -2.1852 -0.2489
2.1139 -2.1773 -0.2492
2.1329 -2.1647 -0.2540
2.1582 -2.1582 -0.2532
2.1835 -2.1517 -0.2523
2.2074 -2.1438 -0.2527
2.2301 -2.1345 -0.2543
2.2529 -2.1252 -0.2560
2.2791 -2.1202 -0.2538
2.3055 -2.1161 -0.2510
2.3317 -2.1121 -0.2483
2.3540 -2.1020 -0.2505
2.3777 -2.0942 -0.2509
2.4034 -2.0903 -0.2481
2.4285 -2.0857 -0.2460
2.4489 -2.0708 -0.2521
2.4755 -2.0703 -0.2467
2.4978 -2.0593 -0.2496
2.5219 -2.0531 -0.2487
2.5481 -2.0546 -0.2421
2.5685 -2.0360 -0.2508
2.5925 -2.0299 -0.2499
2.6154 -2.0187 -0.2528
2.6396 -2.0144 -0.2506
2.6621 -1.9987 -0.2568
2.6868 -2.0007 -0.2501
2.7104 -1.9957 -0.2486
2.7335 -1.9771 -0.2566
2.7572 -1.9739 -0.2538
2.7809 -1.9615 -0.2574
2.8049 -1.9499 -0.2603
2.8285 -1.9440 -0.2594
2.8516 -1.9428 -0.2553
2.8761 -1.9283 -0.2602
2.9013 -1.9118 -0.2664
2.9262 -1.8990 -0.2700
2.9499 -1.8930 -0.2691
2.9723 -1.8920 -0.2650
2.9955 -1.8872 -0.2634
3.0202 -1.8763 -0.2657
3.0431 -1.8715 -0.2642
3.0662 -1.8657 -0.2633
3.0952 -1.8433 -0.2727
3.1194 -1.8354 -0.2731
3.1405 -1.8348 -0.2689
3.1622 -1.8323 -0.2661
3.1875 -1.8212 -0.2684
3.2089 -1.8188 -0.2655
3.2337 -1.8088 -0.2672
3.2575 -1.8009 -0.2676
3.2831 -1.7898 -0.2699
3.3027 -1.7897 -0.2658
3.3245 -1.7853 -0.2642
1.8250 -2.2952 -0.2569
1.8556 -2.2915 -0.2527
1.8808 -2.2850 -0.2518
1.9059 -2.2786 -0.2508
1.9251 -2.2686 -0.2538
1.9436 -2.2580 -0.2574
1.9632 -2.2479 -0.2604
1.9884 -2.2414 -0.2595
2.0177 -2.2381 -0.2553
2.0425 -2.2318 -0.2543
2.0512 -2.2126 -0.2665
2.0802 -2.2094 -0.2623
2.1148 -2.2116 -0.2528
2.1407 -2.2068 -0.2506
2.1825 -2.1876 -0.2553
2.3047 -2.1592 -0.2485
2.3492 -2.1427 -0.2506
2.3719 -2.1352 -0.2509
2.4206 -2.1265 -0.2464
2.4622 -2.1037 -0.2537
2.5339 -2.0910 -0.2468
2.5569 -2.0853 -0.2459
2.5776 -2.0712 -0.2516
2.6461 -2.0523 -0.2500
2.6695 -2.0519 -0.2450
2.6913 -2.0392 -0.2494
2.7365 -2.0316 -0.2447
2.7588 -2.0206 -0.2478
2.7814 -2.0041 -0.2548
2.8718 -1.9762 -0.2549
2.9201 -1.9448 -0.2671
2.9436 -1.9352 -0.2688
2.9701 -1.9138 -0.2786
3.0117 -1.9164 -0.2672
3.0564 -1.9054 -0.2653
3.0993 -1.8976 -0.2613
3.1488 -1.8731 -0.2681
3.1746 -1.8592 -0.2725
3.1947 -1.8580 -0.2688
3.2150 -1.8559 -0.2658
3.2367 -1.8506 -0.2648
3.2647 -1.8332 -0.2713
3.2853 -1.8300 -0.2689
1.8535 -2.3336 -0.2491
1.8841 -2.3308 -0.2440
1.8998 -2.3202 -0.2485
1.9239 -2.3141 -0.2475
1.9479 -2.3080 -0.2465
1.9698 -2.3008 -0.2468
1.9918 -2.2935 -0.2472
2.0155 -2.2875 -0.2461
2.0374 -2.2803 -0.2465
2.0457 -2.2631 -0.2578
2.0779 -2.2634 -0.2499
2.0984 -2.2549 -0.2517
2.1189 -2.2463 -0.2534
2.1335 -2.2324 -0.2606
2.1645 -2.2331 -0.2527
2.1894 -2.2285 -0.2503
2.2060 -2.2158 -0.2562
2.2307 -2.2113 -0.2538
2.2552 -2.2068 -0.2514
2.2795 -2.2024 -0.2490
2.3014 -2.1952 -0.2493
2.3200 -2.1837 -0.2538
2.3451 -2.1809 -0.2500
2.3650 -2.1707 -0.2532
2.3897 -2.1680 -0.2494
2.4098 -2.1578 -0.2525
2.4325 -2.1521 -0.2514
2.4551 -2.1465 -0.2504
2.4762 -2.1377 -0.2521
2.4968 -2.1273 -0.2553
2.5187 -2.1201 -0.2556
2.5433 -2.1210 -0.2490
2.5641 -2.1106 -0.2522
2.5850 -2.1001 -0.2553
2.6084 -2.0996 -0.2501
2.6285 -2.0840 -0.2574
2.6512 -2.0819 -0.2536
2.6730 -2.0747 -0.2539
2.6947 -2.0658 -0.2557
2.7171 -2.0675 -0.2490
2.7383 -2.0496 -0.2578
2.7602 -2.0460 -0.2553
2.7820 -2.0389 -0.2557
2.8038 -2.0317 -0.2560
2.8259 -2.0208 -0.2592
2.8476 -2.0155 -0.2581
2.8689 -2.0121 -0.2557
2.8920 -1.9972 -0.2616
2.9147 -1.9862 -0.2648
2.9359 -1.9828 -0.2623
2.9578 -1.9756 -0.2627
2.9830 -1.9564 -0.2714
3.0023 -1.9591 -0.2648
3.0231 -1.9559 -0.2623
3.0470 -1.9426 -0.2669
3.0684 -1.9374 -0.2658
3.0880 -1.9364 -0.2620
3.1115 -1.9250 -0.2651
3.1389 -1.9051 -0.2739
3.1583 -1.9042 -0.2701
3.1754 -1.9076 -0.2634
3.1983 -1.8982 -0.2651
3.2202 -1.8910 -0.2655
3.2421 -1.8838 -0.2658
3.2664 -1.8722 -0.2690
3.2859 -1.8694 -0.2665
1.9456 -2.3308 -0.2558
1.9690 -2.3248 -0.2547
2.0351 -2.3049 -0.2543
2.0564 -2.2979 -0.2547
2.0727 -2.2871 -0.2593
2.1213 -2.2774 -0.2550
2.1404 -2.2684 -0.2575
2.1897 -2.2603 -0.2518
2.2067 -2.2493 -0.2564
2.2281 -2.2423 -0.2567
2.3106 -2.2106 -0.2617
2.3401 -2.2144 -0.2513
2.3612 -2.2074 -0.2516
2.4274 -2.1919 -0.2476
2.4490 -2.1866 -0.2465
2.5080 -2.1573 -0.2554
2.5306 -2.1543 -0.2522
2.5726 -2.1405 -0.2528
2.5936 -2.1336 -0.2532
2.6142 -2.1250 -0.2549
2.6356 -2.1198 -0.2538
2.6571 -2.1163 -0.2513
2.6778 -2.1077 -0.2531
2.6986 -2.0990 -0.2549
2.7195 -2.0904 -0.2566
2.7405 -2.0826 -0.2577
2.7616 -2.0756 -0.2580
2.7828 -2.0633 -0.2627
2.8248 -2.0548 -0.2591
2.8890 -2.0283 -0.2644
2.9112 -2.0165 -0.2684
2.9753 -1.9954 -0.2694
2.9978 -1.9844 -0.2727
3.0180 -1.9814 -0.2701
3.0383 -1.9774 -0.2683
3.0596 -1.9704 -0.2686
3.0817 -1.9613 -0.2704
3.1031 -1.9543 -0.2708
3.1244 -1.9472 -0.2711
3.1428 -1.9465 -0.2671
3.1605 -1.9470 -0.2623
3.1804 -1.9423 -0.2611
3.2036 -1.9310 -0.2644
3.2512 -1.9073 -0.2717
1.9272 -2.3790 -0.2466
1.9476 -2.3723 -0.2470
1.9701 -2.3667 -0.2458
1.9904 -2.3600 -0.2461
2.0107 -2.3533 -0.2465
2.0291 -2.3455 -0.2483
2.0514 -2.3399 -0.2471
2.0636 -2.3279 -0.2541
2.0920 -2.3265 -0.2478
2.1064 -2.3156 -0.2533
2.1294 -2.3107 -0.2514
2.1442 -2.2996 -0.2569
2.1703 -2.2972 -0.2520
2.1937 -2.2931 -0.2494
2.2140 -2.2864 -0.2497
2.2364 -2.2817 -0.2478
2.2533 -2.2717 -0.2519
2.2737 -2.2650 -0.2522
2.2941 -2.2583 -0.2525
2.3145 -2.2515 -0.2528
2.3376 -2.2484 -0.2495
2.3542 -2.2367 -0.2550
2.3741 -2.2293 -0.2561
2.3984 -2.2284 -0.2504
2.4173 -2.2195 -0.2530
2.4376 -2.2128 -0.2533
2.4563 -2.2031 -0.2566
2.4786 -2.2002 -0.2532
2.4979 -2.1912 -0.2558
2.5189 -2.1860 -0.2546
2.5407 -2.1833 -0.2512
2.5590 -2.1711 -0.2568
2.5815 -2.1716 -0.2504
2.6004 -2.1601 -0.2552
2.6218 -2.1584 -0.2510
2.6421 -2.1526 -0.2506
2.6631 -2.1519 -0.2457
2.6818 -2.1351 -0.2550
2.7022 -2.1301 -0.2538
2.7222 -2.1200 -0.2571
2.7426 -2.1186 -0.2530
2.7628 -2.1013 -0.2623
2.7829 -2.1063 -0.2528
2.8031 -2.0987 -0.2539
2.8229 -2.0958 -0.2512
2.8430 -2.0883 -0.2523
2.8627 -2.0845 -0.2504
2.8836 -2.0722 -0.2552
2.9061 -2.0542 -0.2646
2.9248 -2.0551 -0.2589
2.9480 -2.0368 -0.2683
2.9672 -2.0349 -0.2648
2.9879 -2.0272 -0.2659
3.0067 -2.0255 -0.2625
3.0278 -2.0168 -0.2643
3.0489 -2.0080 -0.2661
3.0673 -2.0064 -0.2627
3.0902 -1.9936 -0.2675
3.1093 -1.9899 -0.2656
3.1263 -1.9906 -0.2606
3.1490 -1.9786 -0.2647
3.1753 -1.9602 -0.2734
3.1868 -1.9706 -0.2616
3.2112 -1.9564 -0.2672
3.2316 -1.9497 -0.2676
3.2474 -1.9507 -0.2626
1.9536 -2.3961 -0.2499
2.0149 -2.3776 -0.2494
2.0376 -2.3728 -0.2474
2.0572 -2.3664 -0.2477
2.0920 -2.3505 -0.2522
2.1091 -2.3422 -0.2548
2.1315 -2.3375 -0.2528
2.1504 -2.3304 -0.2539
2.1686 -2.3226 -0.2557
2.1900 -2.3174 -0.2545
2.2535 -2.3018 -0.2509
2.3143 -2.2844 -0.2495
2.3367 -2.2814 -0.2460
2.3550 -2.2736 -0.2478
2.3724 -2.2644 -0.2512
2.3920 -2.2580 -0.2515
2.4115 -2.2515 -0.2518
2.4329 -2.2480 -0.2491
2.4511 -2.2394 -0.2517
2.4742 -2.2397 -0.2451
2.4932 -2.2326 -0.2462
2.5108 -2.2224 -0.2503
2.5328 -2.2222 -0.2445
2.5497 -2.2096 -0.2510
2.5894 -2.1991 -0.2493
2.6094 -2.1952 -0.2472
2.6275 -2.1831 -0.2530
2.6471 -2.1775 -0.2525
2.6666 -2.1711 -0.2528
2.6863 -2.1664 -0.2516
2.7057 -2.1609 -0.2511
2.7251 -2.1536 -0.2522
2.7444 -2.1420 -0.2572
2.7640 -2.1355 -0.2575
2.7831 -2.1398 -0.2485
2.8025 -2.1316 -0.2503
2.8224 -2.1189 -0.2561
2.8409 -2.1208 -0.2494
2.8610 -2.1089 -0.2544
2.8808 -2.1006 -0.2563
2.9004 -2.0932 -0.2574
2.9210 -2.0821 -0.2616
2.9419 -2.0708 -0.2658
2.9772 -2.0715 -0.2555
2.9979 -2.0612 -0.2589
3.0199 -2.0477 -0.2647
3.0576 -2.0389 -0.2622
3.0950 -2.0301 -0.2597
3.1159 -2.0206 -0.2624
3.1380 -2.0089 -0.2666
3.1808 -1.9895 -0.2720
3.1994 -1.9851 -0.2707
2.5561 -3.7155 -0.2500
2.5756 -3.7091 -0.2503
2.6161 -3.6916 -0.2471
2.6358 -3.6843 -0.2467
2.7716 -3.6402 -0.2488
2.7912 -3.6268 -0.2430
2.8104 -3.6249 -0.2471
2.8297 -3.6187 -0.2474
2.8489 -3.6098 -0.2454
2.8686 -3.6095 -0.2511
2.8875 -3.5981 -0.2467
2.9058 -3.5861 -0.2417
2.9255 -3.5831 -0.2450
2.9447 -3.5769 -0.2453
2.9835 -3.5660 -0.2475
3.0030 -3.5605 -0.2485
3.0215 -3.5519 -0.2465
3.0403 -3.5449 -0.2461
3.0615 -3.5432 -0.2510
3.0801 -3.5354 -0.2497
3.0978 -3.5262 -0.2469
3.1182 -3.5222 -0.2496
3.1374 -3.5159 -0.2499
3.1557 -3.5082 -0.2486
3.1744 -3.5013 -0.2481
3.1952 -3.4971 -0.2507
3.2144 -3.4909 -0.2510
3.2290 -3.4792 -0.2451
3.2499 -3.4750 -0.2478
3.2740 -3.4741 -0.2543
3.2920 -3.4665 -0.2530
3.3126 -3.4615 -0.2549
3.3327 -3.4559 -0.2559
3.3535 -3.4508 -0.2578
3.3683 -3.4408 -0.2534
3.4068 -3.4283 -0.2540
3.4210 -3.4185 -0.2496
3.4435 -3.4146 -0.2531
3.4618 -3.4078 -0.2526
3.4846 -3.4038 -0.2560
3.5039 -3.3975 -0.2563
3.5222 -3.3907 -0.2558
3.5394 -3.3834 -0.2545
3.5586 -3.3771 -0.2548
3.5715 -3.3677 -0.2504
3.5927 -3.3626 -0.2523
3.6129 -3.3569 -0.2534
3.6320 -3.3507 -0.2537
3.6511 -3.3445 -0.2540
2.3831 -3.8064 -0.2519
2.4046 -3.7977 -0.2508
2.4250 -3.7910 -0.2511
2.4420 -3.7916 -0.2565
2.4639 -3.7819 -0.2546
2.4844 -3.7752 -0.2550
2.5045 -3.7695 -0.2560
2.5254 -3.7619 -0.2556
2.5476 -3.7503 -0.2522
2.5676 -3.7446 -0.2533
2.5883 -3.7370 -0.2529
2.6092 -3.7285 -0.2517
2.6283 -3.7266 -0.2557
2.6487 -3.7200 -0.2560
2.6695 -3.7115 -0.2549
2.6900 -3.7039 -0.2544
2.7104 -3.6973 -0.2548
2.7310 -3.6889 -0.2536
2.7514 -3.6804 -0.2524
2.7719 -3.6712 -0.2505
2.7921 -3.6628 -0.2494
2.8321 -3.6428 -0.2441
2.8527 -3.6475 -0.2540
2.8727 -3.6384 -0.2521
2.8929 -3.6326 -0.2531
2.9128 -3.6236 -0.2512
2.9344 -3.6253 -0.2590
2.9546 -3.6178 -0.2585
2.9737 -3.6064 -0.2544
2.9944 -3.6014 -0.2562
3.0133 -3.5909 -0.2528
3.0343 -3.5867 -0.2553
3.0542 -3.5793 -0.2549
3.0747 -3.5735 -0.2560
3.0927 -3.5624 -0.2518
3.1147 -3.5596 -0.2558
3.1361 -3.5553 -0.2584
3.1532 -3.5436 -0.2535
3.1709 -3.5335 -0.2501
3.1933 -3.5305 -0.2541
3.2181 -3.5303 -0.2611
3.2329 -3.5168 -0.2540
3.2500 -3.5068 -0.2505
3.2699 -3.5004 -0.2509
3.2930 -3.4972 -0.2549
3.3130 -3.4907 -0.2552
3.3331 -3.4842 -0.2555
3.3574 -3.4815 -0.2603
3.3768 -3.4743 -0.2599
3.3916 -3.4634 -0.2550
3.4100 -3.4557 -0.2538
3.4558 -3.4469 -0.2596
3.4733 -3.4386 -0.2577
3.4915 -3.4309 -0.2565
3.5296 -3.4168 -0.2556
3.5634 -3.4005 -0.2517
3.6458 -3.3763 -0.2552
2.6902 -3.7205 -0.2423
2.7108 -3.7138 -0.2427
2.7516 -3.7067 -0.2483
2.7728 -3.6945 -0.2443
2.7935 -3.6869 -0.2439
2.8349 -3.6743 -0.2453
2.9167 -3.6415 -0.2416
2.9594 -3.6355 -0.2486
2.9797 -3.6272 -0.2475
3.0004 -3.6204 -0.2479
3.0839 -3.5950 -0.2506
3.1028 -3.5845 -0.2473
3.1226 -3.5763 -0.2462
3.1867 -3.5598 -0.2507
3.2059 -3.5509 -0.2489
3.2254 -3.5428 -0.2478
3.2471 -3.5375 -0.2495
3.2677 -3.5308 -0.2499
3.2926 -3.5289 -0.2552
3.3329 -3.5140 -0.2544
3.3488 -3.5027 -0.2497
3.3680 -3.4947 -0.2486
3.4342 -3.4784 -0.2539
3.4533 -3.4704 -0.2527
3.4910 -3.4546 -0.2505
3.5151 -3.4503 -0.2537
3.5357 -3.4436 -0.2540
3.5564 -3.4369 -0.2543
3.5799 -3.4319 -0.2568
3.5956 -3.4224 -0.2535
3.6141 -3.4146 -0.2524
3.6346 -3.4079 -0.2527
3.6573 -3.4023 -0.2545
3.6800 -3.3966 -0.2562
3.7029 -3.3910 -0.2580
2.3500 -3.8889 -0.2558
2.3743 -3.8775 -0.2535
2.3964 -3.8703 -0.2538
2.4195 -3.8610 -0.2528
2.4433 -3.8497 -0.2504
2.4644 -3.8446 -0.2521
2.4848 -3.8415 -0.2552
2.5091 -3.8283 -0.2515
2.5297 -3.8251 -0.2545
2.5511 -3.8199 -0.2562
2.5732 -3.8127 -0.2566
2.5958 -3.8036 -0.2555
2.6184 -3.7945 -0.2545
2.6404 -3.7873 -0.2549
2.6631 -3.7764 -0.2525
2.6850 -3.7693 -0.2528
2.7066 -3.7640 -0.2545
2.7285 -3.7569 -0.2549
2.7506 -3.7479 -0.2538
2.7946 -3.7283 -0.2504
2.8163 -3.7230 -0.2521
2.8381 -3.7176 -0.2538
2.8602 -3.7140 -0.2569
2.8818 -3.7034 -0.2545
2.9036 -3.6963 -0.2548
2.9918 -3.6712 -0.2589
3.0142 -3.6657 -0.2606
3.0325 -3.6473 -0.2513
3.0547 -3.6418 -0.2530
3.0796 -3.6426 -0.2603
3.0981 -3.6277 -0.2537
3.1402 -3.6113 -0.2523
3.1618 -3.6043 -0.2527
3.1839 -3.5980 -0.2537
3.2031 -3.5873 -0.2505
3.2226 -3.5774 -0.2481
3.2487 -3.5769 -0.2547
3.2748 -3.5755 -0.2606
3.2967 -3.5684 -0.2609
3.3161 -3.5586 -0.2585
3.3378 -3.5515 -0.2588
3.3595 -3.5444 -0.2591
3.3778 -3.5340 -0.2560
3.4001 -3.5277 -0.2570
3.4277 -3.5258 -0.2629
3.4526 -3.5213 -0.2661
3.4666 -3.5078 -0.2594
3.4899 -3.5020 -0.2612
3.5074 -3.4919 -0.2580
3.5316 -3.4867 -0.2604
3.5470 -3.4754 -0.2559
3.5684 -3.4684 -0.2562
3.5842 -3.4580 -0.2523
3.6309 -3.4463 -0.2558
3.6596 -3.4432 -0.2610
3.6812 -3.4362 -0.2614
3.7028 -3.4292 -0.2617
3.7233 -3.4216 -0.2613
3.7426 -3.4135 -0.2603
3.7677 -3.4081 -0.2627
2.5442 -3.8548 -0.2528
2.7964 -3.7503 -0.2402
2.9518 -3.6997 -0.2426
3.0189 -3.6797 -0.2450
3.0401 -3.6692 -0.2427
3.1079 -3.6507 -0.2464
3.1294 -3.6419 -0.2454
3.1532 -3.6377 -0.2484
3.1970 -3.6217 -0.2477
3.2211 -3.6174 -0.2507
3.2405 -3.6058 -0.2471
3.2595 -3.5942 -0.2434
3.2826 -3.5885 -0.2451
3.3059 -3.5827 -0.2468
3.3553 -3.5738 -0.2528
3.3750 -3.5638 -0.2505
3.3973 -3.5565 -0.2508
3.4210 -3.5506 -0.2525
3.4448 -3.5447 -0.2542
3.4671 -3.5374 -0.2546
3.4847 -3.5263 -0.2509
3.5053 -3.5178 -0.2499
3.5291 -3.5118 -0.2516
3.5513 -3.5046 -0.2519
3.5699 -3.4950 -0.2496
3.5920 -3.4878 -0.2499
3.6122 -3.4794 -0.2489
3.6382 -3.4746 -0.2519
3.6603 -3.4674 -0.2523
3.6825 -3.4601 -0.2526
3.7046 -3.4529 -0.2530
3.7290 -3.4468 -0.2547
3.7490 -3.4385 -0.2536
3.7734 -3.4324 -0.2553
3.7956 -3.4251 -0.2557
2.3661 -3.9567 -0.2527
2.3891 -3.9510 -0.2543
2.4131 -3.9432 -0.2547
2.4379 -3.9333 -0.2538
2.4619 -3.9255 -0.2542
2.4858 -3.9177 -0.2546
2.5081 -3.9150 -0.2581
2.5337 -3.9021 -0.2553
2.5597 -3.8873 -0.2513
2.5811 -3.8885 -0.2573
2.6061 -3.8767 -0.2552
2.6300 -3.8690 -0.2555
2.6539 -3.8612 -0.2559
2.6782 -3.8505 -0.2544
2.7021 -3.8428 -0.2547
2.7256 -3.8379 -0.2570
2.7497 -3.8273 -0.2555
2.7740 -3.8094 -0.2489
2.7974 -3.8081 -0.2537
2.8211 -3.8022 -0.2553
2.8449 -3.7945 -0.2557
2.8688 -3.7885 -0.2573
2.8925 -3.7790 -0.2564
2.9154 -3.7652 -0.2524
2.9400 -3.7636 -0.2572
2.9626 -3.7499 -0.2531
2.9862 -3.7422 -0.2535
3.0074 -3.7253 -0.2468
3.0317 -3.7211 -0.2497
3.0564 -3.7175 -0.2533
3.0805 -3.7115 -0.2549
3.1028 -3.7006 -0.2527
3.1301 -3.7017 -0.2601
3.1547 -3.6955 -0.2618
3.1757 -3.6823 -0.2577
3.1984 -3.6731 -0.2567
3.2202 -3.6624 -0.2546
3.2466 -3.6593 -0.2588
3.2728 -3.6553 -0.2623
3.3074 -3.6232 -0.2483
3.3376 -3.6242 -0.2564
3.3635 -3.6194 -0.2593
3.3871 -3.6117 -0.2597
3.4080 -3.6013 -0.2575
3.4405 -3.6025 -0.2662
3.4643 -3.5947 -0.2665
3.4829 -3.5824 -0.2624
3.5089 -3.5766 -0.2647
3.5326 -3.5689 -0.2651
3.5505 -3.5567 -0.2609
3.5698 -3.5459 -0.2581
3.5932 -3.5383 -0.2584
3.6112 -3.5271 -0.2549
3.6297 -3.5165 -0.2521
3.6990 -3.4939 -0.2531
3.7294 -3.4904 -0.2580
3.7527 -3.4828 -0.2584
3.7738 -3.4741 -0.2574
3.7915 -3.4639 -0.2546
3.8123 -3.4553 -0.2536
3.8459 -3.4525 -0.2598
2.7024 -3.8653 -0.2409
2.7506 -3.8542 -0.2446
2.8959 -3.7959 -0.2396
2.9694 -3.7784 -0.2450
3.1878 -3.7073 -0.2484
3.2099 -3.6956 -0.2457
3.2582 -3.6799 -0.2464
3.3065 -3.6642 -0.2472
3.3306 -3.6563 -0.2476
3.3518 -3.6448 -0.2449
3.3758 -3.6370 -0.2452
3.4017 -3.6313 -0.2475
3.4499 -3.6157 -0.2482
3.4704 -3.6044 -0.2455
3.5018 -3.6033 -0.2520
3.5222 -3.5921 -0.2493
3.5519 -3.5889 -0.2540
3.5803 -3.5842 -0.2575
3.5987 -3.5718 -0.2535
3.6203 -3.5620 -0.2520
3.6426 -3.5530 -0.2512
3.6686 -3.5463 -0.2528
3.6908 -3.5373 -0.2519
3.7149 -3.5294 -0.2523
3.7359 -3.5199 -0.2508
3.7578 -3.5109 -0.2499
3.7818 -3.5031 -0.2503
3.8057 -3.4953 -0.2507
3.8319 -3.4886 -0.2523
3.8594 -3.4824 -0.2545
3.8835 -3.4746 -0.2549
2.3810 -4.0452 -0.2540
2.4085 -4.0335 -0.2527
2.4335 -4.0282 -0.2548
2.4597 -4.0196 -0.2552
2.4870 -4.0080 -0.2539
2.5131 -3.9995 -0.2543
2.5410 -3.9849 -0.2513
2.5670 -3.9764 -0.2517
2.5916 -3.9740 -0.2555
2.6183 -3.9625 -0.2542
2.6449 -3.9511 -0.2529
2.6701 -3.9484 -0.2567
2.6966 -3.9370 -0.2554
2.7229 -3.9257 -0.2541
2.7489 -3.9172 -0.2545
2.7751 -3.9041 -0.2520
2.8010 -3.8975 -0.2536
2.8530 -3.8861 -0.2578
2.8789 -3.8749 -0.2565
2.9805 -3.8290 -0.2500
3.0079 -3.8284 -0.2556
3.0601 -3.8132 -0.2576
3.0838 -3.7981 -0.2533
3.1086 -3.7873 -0.2520
3.1336 -3.7773 -0.2512
3.1878 -3.7671 -0.2567
3.2103 -3.7524 -0.2524
3.2367 -3.7456 -0.2540
3.2651 -3.7419 -0.2579
3.2924 -3.7358 -0.2600
3.3182 -3.7274 -0.2604
3.3381 -3.7108 -0.2544
3.3683 -3.7083 -0.2595
3.3923 -3.6978 -0.2581
3.4180 -3.6894 -0.2585
3.4456 -3.6832 -0.2607
3.4748 -3.6783 -0.2640
3.5007 -3.6699 -0.2644
3.5288 -3.6635 -0.2666
3.5525 -3.6530 -0.2652
3.5784 -3.6446 -0.2656
3.6027 -3.6348 -0.2648
3.6327 -3.6296 -0.2682
3.6519 -3.6160 -0.2639
3.6750 -3.6058 -0.2625
3.6980 -3.5955 -0.2611
3.7236 -3.5872 -0.2615
3.7473 -3.5776 -0.2607
3.7728 -3.5693 -0.2611
3.7984 -3.5610 -0.2615
3.8094 -3.5445 -0.2536
3.8793 -3.5172 -0.2518
3.9044 -3.5090 -0.2522
2.4132 -4.0983 -0.2609
2.4378 -4.0987 -0.2663
2.4698 -4.0771 -0.2602
2.9348 -3.8747 -0.2371
2.9620 -3.8714 -0.2408
3.0951 -3.8309 -0.2445
3.1757 -3.8074 -0.2474
3.2000 -3.7940 -0.2445
3.2265 -3.7854 -0.2449
3.2542 -3.7791 -0.2470
3.3028 -3.7549 -0.2428
3.3322 -3.7509 -0.2465
3.3571 -3.7401 -0.2452
3.3834 -3.7315 -0.2457
3.4068 -3.7192 -0.2433
3.4293 -3.7063 -0.2403
3.4606 -3.7036 -0.2452
3.4909 -3.6993 -0.2490
3.5216 -3.6949 -0.2527
3.5504 -3.6883 -0.2548
3.5702 -3.6735 -0.2502
3.5990 -3.6669 -0.2523
3.6304 -3.6623 -0.2561
3.6521 -3.6496 -0.2531
3.6786 -3.6410 -0.2535
3.7051 -3.6324 -0.2539
3.7317 -3.6238 -0.2543
3.7554 -3.6133 -0.2531
3.7818 -3.6046 -0.2535
3.8023 -3.5924 -0.2505
3.8286 -3.5839 -0.2509
3.8465 -3.5706 -0.2468
3.8758 -3.5639 -0.2489
3.9052 -3.5571 -0.2510
3.9281 -3.5468 -0.2497
3.9542 -3.5383 -0.2501
3.9863 -3.5325 -0.2533
2.3095 -4.1872 -0.2573
2.3386 -4.1777 -0.2577
2.3694 -4.1639 -0.2561
2.3985 -4.1545 -0.2566
2.4296 -4.1387 -0.2539
2.4585 -4.1293 -0.2544
2.4886 -4.1158 -0.2527
2.5163 -4.1105 -0.2552
2.5452 -4.1011 -0.2557
2.5749 -4.0877 -0.2541
2.6037 -4.0783 -0.2545
2.6325 -4.0689 -0.2550
2.6617 -4.0566 -0.2538
2.6900 -4.0502 -0.2558
2.7471 -4.0382 -0.2604
2.7762 -4.0259 -0.2593
2.8052 -4.0099 -0.2561
2.8338 -3.9969 -0.2544
2.8624 -3.9876 -0.2548
2.8910 -3.9783 -0.2553
2.9200 -3.9726 -0.2578
2.9487 -3.9632 -0.2583
3.0896 -3.9080 -0.2552
3.1208 -3.9072 -0.2609
3.1465 -3.8895 -0.2561
3.2044 -3.8735 -0.2586
3.2290 -3.8561 -0.2537
3.2585 -3.8493 -0.2557
3.2886 -3.8433 -0.2583
3.3171 -3.8340 -0.2587
3.3386 -3.8139 -0.2517
3.3703 -3.8101 -0.2559
3.3985 -3.8009 -0.2563
3.4228 -3.7865 -0.2530
3.4472 -3.7729 -0.2503
3.4833 -3.7734 -0.2576
3.5115 -3.7642 -0.2581
3.5398 -3.7550 -0.2585
3.5772 -3.7550 -0.2659
3.6036 -3.7436 -0.2647
3.6344 -3.7364 -0.2668
3.6606 -3.7250 -0.2656
3.6915 -3.7178 -0.2677
3.7151 -3.7045 -0.2649
3.7522 -3.7018 -0.2707
3.7720 -3.6860 -0.2658
3.8004 -3.6767 -0.2662
3.8251 -3.6649 -0.2645
3.8476 -3.6520 -0.2617
3.8787 -3.6447 -0.2638
3.8998 -3.6313 -0.2604
3.9153 -3.6150 -0.2544
3.9355 -3.6018 -0.2510
3.9708 -3.5969 -0.2552
3.9906 -3.5839 -0.2519
2.3161 -4.2494 -0.2571
2.3452 -4.2437 -0.2596
2.3776 -4.2294 -0.2581
2.4377 -4.2136 -0.2610
2.4697 -4.1994 -0.2595
2.5004 -4.1894 -0.2600
2.5341 -4.1671 -0.2545
2.8372 -4.0269 -0.2374
3.1317 -3.9387 -0.2459
3.3598 -3.8503 -0.2420
3.3946 -3.8493 -0.2480
3.4146 -3.8268 -0.2398
3.4492 -3.8249 -0.2454
3.4850 -3.8237 -0.2514
3.5458 -3.8067 -0.2538
3.5733 -3.7950 -0.2527
3.5921 -3.7747 -0.2456
3.6263 -3.7702 -0.2496
3.6532 -3.7586 -0.2485
3.6792 -3.7463 -0.2469
3.7115 -3.7396 -0.2494
3.7407 -3.7301 -0.2499
3.7724 -3.7226 -0.2518
3.7990 -3.7111 -0.2508
3.8245 -3.6991 -0.2492
3.8573 -3.6922 -0.2517
3.8893 -3.6846 -0.2537
3.9478 -3.6655 -0.2546
3.9697 -3.6518 -0.2514
4.0030 -3.6447 -0.2539
4.0244 -3.6312 -0.2508
4.0534 -3.6217 -0.2512
4.0858 -3.6140 -0.2532
2.2608 -4.3346 -0.2538
2.2910 -4.3296 -0.2566
2.3287 -4.3049 -0.2511
2.3623 -4.2902 -0.2497
2.3929 -4.2840 -0.2521
2.4250 -4.2736 -0.2526
2.4559 -4.2673 -0.2549
2.4892 -4.2527 -0.2536
2.5223 -4.2381 -0.2522
2.5526 -4.2359 -0.2564
2.5863 -4.2173 -0.2532
2.6205 -4.1938 -0.2476
2.6504 -4.1964 -0.2542
2.6824 -4.1860 -0.2547
2.7151 -4.1668 -0.2510
2.7469 -4.1564 -0.2514
2.9055 -4.1010 -0.2520
2.9385 -4.1027 -0.2586
2.9715 -4.0996 -0.2629
3.0025 -4.0819 -0.2596
3.0329 -4.0634 -0.2559
3.0655 -4.0566 -0.2583
3.0973 -4.0462 -0.2588
3.1282 -4.0324 -0.2573
3.1599 -4.0220 -0.2578
3.1892 -4.0049 -0.2545
3.2180 -3.9879 -0.2512
3.2523 -3.9844 -0.2555
3.2839 -3.9741 -0.2560
3.3171 -3.9671 -0.2584
3.3452 -3.9503 -0.2551
3.3823 -3.9497 -0.2613
3.4101 -3.9330 -0.2580
3.4396 -3.9196 -0.2565
3.4777 -3.9187 -0.2628
3.5048 -3.9022 -0.2594
3.5339 -3.8889 -0.2580
3.5755 -3.8906 -0.2662
3.6021 -3.8744 -0.2628
3.6454 -3.8765 -0.2715
3.6747 -3.8631 -0.2700
3.7001 -3.8463 -0.2662
3.7257 -3.8303 -0.2628
3.7636 -3.8256 -0.2672
3.7921 -3.8125 -0.2657
3.8204 -3.7995 -0.2643
3.8519 -3.7892 -0.2648
3.8799 -3.7763 -0.2633
3.9114 -3.7661 -0.2638
3.9504 -3.7610 -0.2682
3.9860 -3.7533 -0.2706
4.0218 -3.7454 -0.2731
4.0536 -3.7350 -0.2736
4.0729 -3.7174 -0.2682
4.0914 -3.6999 -0.2629
4.1182 -3.6874 -0.2614
4.1448 -3.6749 -0.2599
4.1898 -3.6717 -0.2663
2.1920 -4.4463 -0.2567
2.2220 -4.4462 -0.2616
2.2525 -4.4459 -0.2665
2.4393 -4.3476 -0.2521
2.5744 -4.3085 -0.2564
2.7141 -4.2265 -0.2418
2.7475 -4.2118 -0.2405
3.2356 -4.0318 -0.2383
3.4279 -3.9645 -0.2391
3.4581 -3.9508 -0.2378
3.6035 -3.9285 -0.2515
3.6364 -3.9178 -0.2520
3.6631 -3.9004 -0.2485
3.6929 -3.8869 -0.2471
3.7649 -3.8721 -0.2523
3.7906 -3.8551 -0.2487
3.8158 -3.8382 -0.2451
3.8524 -3.8311 -0.2478
3.8848 -3.8206 -0.2483
3.9245 -3.8154 -0.2525
3.9701 -3.8140 -0.2594
4.0031 -3.8032 -0.2599
4.0225 -3.7835 -0.2540
4.0511 -3.7703 -0.2527
4.0878 -3.7622 -0.2550
4.1300 -3.7571 -0.2597
4.1629 -3.7464 -0.2602
4.1770 -3.7255 -0.2529
4.1992 -3.7096 -0.2492
4.2361 -3.7015 -0.2516
2.1607 -4.5375 -0.2516
2.1994 -4.5200 -0.2501
2.2430 -4.4894 -0.2437
2.3086 -4.3954 -0.2135
2.3543 -4.3495 -0.2009
2.3485 -4.4609 -0.2478
2.3811 -4.4609 -0.2529
