ply
format ascii 1.0
element vertex 2131
property float x
property float y
property float z
end_header
6.0759 -2.6963 -0.0610
6.1016 -2.6090 -0.0702
6.0244 -2.5550 -0.0589
6.0693 -2.4584 -0.0721
6.0532 -2.3831 -0.0730
6.1431 -2.2608 -0.0956
6.1712 -2.1611 -0.1059
6.1996 -2.0581 -0.1164
6.1822 -1.9770 -0.1174
6.1199 -1.9218 -0.1088
6.1474 -1.8148 -0.1194
6.1644 -1.5219 -0.1375
6.0780 -1.4903 -0.1233
5.9751 -1.4766 -0.1053
5.8983 -1.4478 -0.0928
5.8623 -1.3882 -0.0893
5.8275 -1.3291 -0.0860
5.8878 -1.1819 -0.1045
5.9111 -1.0649 -0.1148
5.9356 -0.9436 -0.1255
5.9184 -0.8632 -0.1265
5.9012 -0.7827 -0.1274
5.8637 -0.7254 -0.1236
5.8466 -0.6457 -0.1245
5.7712 -0.6375 -0.1112
5.7926 -0.5114 -0.1216
4.4899 -1.9871 0.1917
7.5051 -5.4469 -0.0808
7.1151 -5.1738 -0.0330
5.6656 -4.4322 0.1574
5.6666 -4.3850 0.1551
4.9922 -3.9904 0.2414
5.0140 -3.9636 0.2368
5.0124 -3.9279 0.2354
4.9181 -3.7965 0.2440
4.8997 -3.7579 0.2451
4.8378 -3.6777 0.2510
4.8135 -3.6071 0.2516
4.8155 -3.5736 0.2498
5.0573 -3.5581 0.2117
5.1276 -3.5209 0.1991
5.1480 -3.4782 0.1940
5.1711 -3.4340 0.1885
6.4745 -3.3510 -0.0167
6.5899 -3.2632 -0.0385
5.8725 -3.1712 0.0681
6.4472 -2.8534 -0.0351
6.2142 -2.8197 -0.0006
6.1978 -2.7431 -0.0016
6.0559 -2.7026 0.0185
6.2546 -2.5618 -0.0186
6.3834 -2.4320 -0.0444
6.9112 -2.1422 -0.1391
6.6563 -2.1390 -0.0998
6.3559 -2.1707 -0.0520
6.7575 -1.7808 -0.1317
6.8051 -1.6468 -0.1452
6.8183 -1.5280 -0.1526
6.6304 -1.5290 -0.1235
6.7415 -1.3496 -0.1488
6.6536 -1.2956 -0.1377
6.6655 -1.1753 -0.1450
6.5489 -1.1488 -0.1282
6.5913 -1.0045 -0.1413
6.4485 -1.0076 -0.1191
6.3994 -0.9395 -0.1146
4.5682 -1.9348 0.2136
4.5073 -1.9734 0.2247
4.9059 -4.0160 0.2912
4.8520 -3.8073 0.2898
4.8404 -3.7722 0.2899
4.7573 -3.6905 0.2972
4.7546 -3.6590 0.2963
4.7808 -3.5994 0.2906
5.1167 -3.5167 0.2446
5.1219 -3.4742 0.2423
5.1670 -3.4309 0.2348
6.4792 -3.2649 0.0614
5.9215 -3.2305 0.1310
5.9074 -3.1647 0.1301
6.8265 -2.9674 0.0054
6.9415 -2.8533 -0.0137
6.4698 -2.8476 0.0461
6.3759 -2.7823 0.0554
6.2634 -2.7263 0.0675
6.1164 -2.6858 0.0846
6.1005 -2.6117 0.0837
6.7012 -2.2247 -0.0080
6.5043 -2.2049 0.0163
6.8959 -1.9370 -0.0441
6.9472 -1.8036 -0.0559
4.6088 -1.9398 0.2469
4.5247 -2.0065 0.2602
4.5021 -1.9922 0.2625
5.2548 -4.3402 0.3019
5.3613 -4.3554 0.2918
4.8949 -4.0053 0.3267
4.9406 -3.9917 0.3217
4.8975 -3.8146 0.3200
4.8791 -3.7770 0.3206
4.8157 -3.6980 0.3243
4.7860 -3.6606 0.3260
4.7565 -3.6244 0.3277
4.7719 -3.5948 0.3252
4.8302 -3.5683 0.3184
5.0279 -3.4690 0.2952
5.0956 -3.4282 0.2871
5.1696 -3.3831 0.2781
6.0287 -3.2181 0.1864
5.9253 -3.1600 0.1948
6.6961 -2.9830 0.1116
6.7073 -2.8908 0.1073
6.6885 -2.8028 0.1062
6.8922 -2.6643 0.0811
6.3634 -2.6157 0.1325
6.0801 -2.6193 0.1610
6.0059 -2.5667 0.1667
6.8584 -2.1685 0.0678
6.9442 -2.0291 0.0545
6.8521 -1.9611 0.0614
7.2582 -1.6631 0.0106
4.5421 -2.0396 0.2957
4.5304 -2.0095 0.2958
4.5038 -2.0009 0.2982
5.2825 -4.3456 0.3417
5.2816 -4.3077 0.3407
4.9187 -4.0706 0.3608
4.8966 -4.0305 0.3613
4.9361 -4.0157 0.3580
5.2919 -4.0784 0.3335
4.7105 -3.7884 0.3682
4.7118 -3.7605 0.3673
4.7415 -3.7390 0.3645
4.7774 -3.7172 0.3613
4.8292 -3.6965 0.3569
4.7950 -3.6583 0.3583
4.7611 -3.6215 0.3598
4.8801 -3.5697 0.3496
4.9158 -3.5371 0.3460
5.0191 -3.4658 0.3364
5.0573 -3.4256 0.3324
5.3203 -3.3753 0.3116
5.9401 -3.2227 0.2617
5.8936 -3.1611 0.2633
6.3559 -2.9486 0.2233
6.3392 -2.8708 0.2223
6.0601 -2.6268 0.2361
6.0253 -2.5616 0.2368
7.1646 -1.9435 0.1354
7.0623 -1.8739 0.1410
7.0026 -1.7893 0.1430
7.0825 -0.9185 0.1127
4.6616 -1.9424 0.3200
4.6159 -1.9525 0.3236
4.5732 -1.9619 0.3270
4.5325 -1.9714 0.3303
5.2556 -4.3597 0.3850
5.2939 -4.3426 0.3828
5.3340 -4.3244 0.3805
4.9175 -4.0637 0.3945
4.8907 -4.0219 0.3948
4.6952 -3.7796 0.3987
4.6889 -3.7502 0.3983
4.6981 -3.7245 0.3973
4.7115 -3.6990 0.3961
4.7367 -3.6747 0.3943
4.8609 -3.5985 0.3867
4.8898 -3.5672 0.3846
4.9035 -3.5330 0.3832
4.9825 -3.5005 0.3787
5.0237 -3.4629 0.3759
5.1115 -3.4223 0.3708
6.5711 -3.2463 0.2973
5.8921 -3.2239 0.3292
5.8304 -3.1659 0.3308
6.4426 -3.0139 0.2982
6.4014 -2.9389 0.2985
6.3374 -2.8699 0.3000
6.2309 -2.8133 0.3038
6.2586 -2.7274 0.3005
6.2651 -2.6450 0.2984
6.1200 -2.6090 0.3045
6.0849 -2.5428 0.3046
6.1295 -2.4478 0.3004
6.7571 -2.1129 0.2630
7.0519 -1.8834 0.2438
7.1074 -1.7461 0.2380
6.9707 -1.6999 0.2435
7.1855 -1.4743 0.2282
7.0812 -1.4132 0.2318
7.0188 -1.3325 0.2329
6.9588 -1.2529 0.2340
6.8635 -1.1994 0.2373
6.8785 -1.0738 0.2338
6.8206 -0.9991 0.2349
6.7991 -0.8990 0.2336
6.6766 -0.8800 0.2390
6.6229 -0.8106 0.2400
6.7348 -0.5987 0.2299
6.6467 -0.5594 0.2333
6.5612 -0.5225 0.2365
6.5727 -0.3949 0.2331
6.6490 -0.1982 0.2250
6.5311 -0.2008 0.2307
6.5417 -0.0692 0.2272
4.6221 -1.9552 0.3611
4.5116 -2.0118 0.3676
5.3987 -4.4251 0.4233
4.9093 -4.0837 0.4282
4.9174 -4.0572 0.4276
4.6999 -3.7766 0.4276
4.6858 -3.7453 0.4274
4.6906 -3.7187 0.4268
4.6965 -3.6919 0.4262
4.6968 -3.6634 0.4258
4.6980 -3.6348 0.4252
4.8812 -3.5973 0.4206
4.9329 -3.5677 0.4190
4.9476 -3.5327 0.4180
5.0175 -3.4987 0.4159
5.0822 -3.4608 0.4139
6.0536 -3.4091 0.3917
6.3402 -3.3317 0.3841
6.5411 -3.2439 0.3783
6.0286 -3.2087 0.3889
5.8474 -3.1615 0.3920
6.2552 -3.0384 0.3810
6.2833 -2.9574 0.3790
6.2896 -2.8782 0.3776
6.2734 -2.8030 0.3766
6.3024 -2.7161 0.3745
6.2631 -2.6461 0.3742
6.0994 -2.6166 0.3773
6.0643 -2.5516 0.3769
6.3847 -2.2671 0.3651
6.9675 -1.9250 0.3465
7.1770 -1.7196 0.3384
7.0145 -1.5726 0.3395
7.0426 -1.0921 0.3307
6.8694 -1.0922 0.3345
6.7785 -1.0426 0.3357
6.7239 -0.9702 0.3356
6.7836 -0.6917 0.3296
6.6286 -0.7078 0.3333
6.6080 -0.6118 0.3321
6.5567 -0.5448 0.3321
6.4761 -0.5088 0.3332
6.6764 -0.1912 0.3234
6.5258 -0.2277 0.3273
6.4752 -0.1645 0.3274
4.5837 -2.0160 0.4002
5.5341 -4.5267 0.4680
5.5146 -4.4754 0.4673
4.8842 -4.0659 0.4604
4.7113 -3.7755 0.4565
4.7286 -3.7521 0.4562
4.7110 -3.7195 0.4558
4.6924 -3.6873 0.4554
4.6905 -3.6587 0.4550
4.7107 -3.6334 0.4548
4.8522 -3.6235 0.4552
4.8798 -3.5936 0.4549
4.9201 -3.5631 0.4547
4.9459 -3.5293 0.4544
6.6064 -3.3170 0.4577
6.6427 -3.2331 0.4569
5.9268 -3.2149 0.4542
5.9630 -3.1455 0.4535
6.6180 -2.9835 0.4539
6.6557 -2.8914 0.4530
6.5030 -2.8343 0.4518
6.3397 -2.7872 0.4507
6.3233 -2.7107 0.4497
6.1554 -2.6774 0.4488
6.0801 -2.6238 0.4479
6.0263 -2.5663 0.4470
6.1700 -2.4374 0.4460
6.1542 -2.3633 0.4451
6.9825 -1.4855 0.4379
6.9611 -1.3854 0.4366
6.9772 -1.2619 0.4352
6.9555 -1.1607 0.4340
6.9338 -1.0595 0.4328
6.7712 -1.0604 0.4322
6.9271 -0.8293 0.4301
6.8688 -0.7559 0.4290
6.6438 -0.8233 0.4290
6.7554 -0.6140 0.4270
6.7130 -0.4159 0.4246
6.5931 -0.4129 0.4241
6.5420 -0.3479 0.4232
6.5841 -0.1871 0.4215
6.6281 -0.0196 0.4197
6.5743 0.0427 0.4188
4.6231 -2.0222 0.4359
4.5935 -2.0134 0.4357
4.5618 -2.0094 0.4355
5.5677 -4.5757 0.5145
5.6910 -4.4656 0.5173
4.7256 -3.8028 0.4857
4.7125 -3.7715 0.4852
4.7209 -3.7460 0.4852
4.7112 -3.7156 0.4848
4.7004 -3.6852 0.4843
4.6941 -3.6558 0.4839
4.6923 -3.6271 0.4837
4.8283 -3.6167 0.4875
4.8597 -3.5879 0.4882
5.9453 -3.5260 0.5187
5.8698 -3.4634 0.5162
5.9520 -3.4017 0.5181
6.7974 -3.3045 0.5416
5.9116 -3.2135 0.5158
5.8982 -3.1507 0.5150
6.4825 -3.0007 0.5307
6.6787 -2.8855 0.5356
6.3841 -2.7764 0.5265
6.2324 -2.7340 0.5219
6.2167 -2.6605 0.5210
6.2009 -2.5869 0.5201
6.1442 -2.5275 0.5182
6.0691 -2.4772 0.5157
6.2623 -2.3227 0.5202
7.0482 -1.4571 0.5372
7.1036 -1.3106 0.5379
7.0048 -1.2547 0.5347
6.9455 -1.1781 0.5326
6.9241 -1.0780 0.5313
6.8674 -1.0033 0.5293
7.1544 -0.6716 0.5354
7.0670 -0.4890 0.5317
6.8169 -0.5775 0.5252
6.8314 -0.4451 0.5248
6.6399 -0.5022 0.5197
6.4969 -0.5248 0.5158
6.5371 -0.3722 0.5159
6.5476 -0.2461 0.5155
6.4968 -0.1840 0.5136
6.5371 -0.0221 0.5138
6.4865 0.0391 0.5120
4.5209 -1.9862 0.4686
5.2372 -4.2457 0.5418
4.7090 -3.7664 0.5133
4.7142 -3.7402 0.5135
4.7114 -3.7117 0.5134
4.7085 -3.6831 0.5132
4.7022 -3.6537 0.5128
4.8763 -3.6195 0.5220
4.9099 -3.5899 0.5238
4.9288 -3.5571 0.5247
5.7571 -3.4007 0.5686
5.8624 -3.2772 0.5740
5.7202 -3.2285 0.5664
5.7353 -3.1679 0.5672
5.7647 -3.1036 0.5687
6.0228 -2.9974 0.5823
6.4217 -2.8481 0.6033
6.5040 -2.7484 0.6076
6.2423 -2.5751 0.5935
6.2485 -2.4934 0.5938
6.2545 -2.4106 0.5940
6.3289 -2.2990 0.5979
6.3360 -2.2110 0.5982
7.0372 -1.4714 0.6347
7.0926 -1.3263 0.6375
6.9219 -1.3160 0.6284
6.9891 -1.0452 0.6317
7.0049 -0.9171 0.6324
7.0612 -0.7562 0.6353
7.0388 -0.6516 0.6340
6.7279 -0.7835 0.6176
6.8808 -0.5392 0.6255
6.8954 -0.4057 0.6261
6.6995 -0.4645 0.6158
6.7459 -0.3028 0.6181
6.6909 -0.2375 0.6151
6.6372 -0.1734 0.6122
6.6279 0.0566 0.6115
6.5748 0.1177 0.6087
6.4620 0.1050 0.6027
4.9175 -4.0914 0.5559
4.8590 -4.0365 0.5516
4.7550 -3.9118 0.5441
4.7169 -3.7643 0.5418
4.7417 -3.7429 0.5438
4.7228 -3.7104 0.5424
4.7165 -3.6810 0.5421
4.7102 -3.6516 0.5417
4.8343 -3.6421 0.5514
4.8509 -3.6126 0.5528
4.9961 -3.5592 0.5642
5.1511 -3.5314 0.5763
5.3012 -3.4954 0.5881
5.4921 -3.4016 0.6032
5.4705 -3.3518 0.6018
5.4287 -3.3038 0.5988
5.4704 -3.2496 0.6022
5.5137 -3.1925 0.6058
5.4920 -3.1421 0.6043
5.5029 -3.0865 0.6054
5.4803 -3.0365 0.6039
6.0530 -2.7799 0.6493
5.7348 -2.6706 0.6251
5.8266 -2.5714 0.6326
6.0927 -2.3965 0.6540
6.1572 -2.2915 0.6594
6.8175 -1.6007 0.7134
7.0818 -1.3416 0.7349
7.2207 -1.1417 0.7465
7.0767 -1.1145 0.7355
7.0937 -0.9857 0.7374
7.0716 -0.8823 0.7361
6.9003 -0.8903 0.7228
6.9891 -0.7053 0.7305
6.9301 -0.6332 0.7262
6.8366 -0.5930 0.7192
6.7130 -0.5846 0.7096
6.7261 -0.4576 0.7112
6.5175 -0.5403 0.6947
6.5580 -0.3892 0.6985
6.6637 -0.1666 0.7076
6.6429 -0.0695 0.7064
4.7340 -1.9649 0.5507
5.2199 -4.3599 0.6147
5.2117 -4.3218 0.6143
5.2183 -4.2910 0.6152
4.9844 -4.1456 0.5929
4.8608 -4.0593 0.5812
4.7475 -3.9040 0.5712
4.7097 -3.6760 0.5695
4.7182 -3.6496 0.5706
4.8625 -3.6427 0.5853
4.8948 -3.6147 0.5888
4.9402 -3.5861 0.5937
5.0430 -3.5595 0.6043
5.3497 -3.5388 0.6356
6.5630 -3.3001 0.7607
6.4493 -3.2298 0.7498
6.2369 -3.1739 0.7288
6.1055 -3.1184 0.7161
6.0231 -2.9943 0.7089
6.0627 -2.9182 0.7136
6.2030 -2.8161 0.7287
6.3602 -2.7011 0.7457
6.2553 -2.6510 0.7356
6.0794 -2.6282 0.7180
5.9228 -2.6079 0.7023
6.0135 -2.5043 0.7125
6.1120 -2.3915 0.7235
7.1704 -1.4141 0.8398
7.1485 -1.3119 0.8386
7.0123 -1.2796 0.8251
7.1855 -1.0551 0.8447
7.1220 -0.9784 0.8390
7.0777 -0.7716 0.8365
7.0170 -0.6981 0.8310
6.6516 -0.8743 0.7924
6.7598 -0.6739 0.8052
6.8425 -0.4870 0.8153
6.8561 -0.3560 0.8180
6.5133 -0.5616 0.7813
6.5835 -0.3827 0.7901
6.6570 -0.1938 0.7993
6.7025 -0.0276 0.8055
6.5848 -0.0358 0.7935
5.6721 -4.5909 0.7040
5.6297 -4.5267 0.6996
4.8623 -4.0816 0.6102
4.8252 -4.0374 0.6062
5.2769 -3.9408 0.6640
4.6808 -3.6669 0.5936
4.7916 -3.6586 0.6075
4.9245 -3.6148 0.6247
4.9442 -3.5830 0.6277
4.9692 -3.5504 0.6312
5.1591 -3.5249 0.6553
6.7436 -3.2873 0.8565
6.4937 -3.2228 0.8262
6.0410 -2.9897 0.7731
6.1380 -2.9019 0.7865
6.2908 -2.7188 0.8082
6.1327 -2.6864 0.7889
6.1030 -2.5480 0.7872
6.0688 -2.4859 0.7838
6.2341 -2.3456 0.8065
7.0606 -1.3717 0.9237
6.9300 -1.3393 0.9079
7.0550 -1.1498 0.9262
6.9603 -1.0991 0.9151
6.8012 -1.0986 0.8953
6.7163 -1.0524 0.8853
6.8272 -0.8591 0.9020
6.7088 -0.8420 0.8874
6.9638 -0.5177 0.9239
7.0174 -0.3507 0.9330
6.8484 -0.3809 0.9115
6.5977 -0.4988 0.8785
6.6719 -0.3143 0.8905
6.7847 -0.0837 0.9079
6.6312 -0.1242 0.8881
6.5795 -0.0633 0.8825
5.2485 -1.1755 0.7004
5.7067 -4.6414 0.7531
5.7077 -4.5993 0.7540
5.6538 -4.5290 0.7474
4.8570 -4.0731 0.6383
4.7916 -4.0167 0.6297
4.6875 -3.8473 0.6176
4.6650 -3.8148 0.6149
4.8702 -3.6365 0.6487
4.9134 -3.6099 0.6556
4.9368 -3.5789 0.6597
5.0028 -3.5496 0.6700
5.0938 -3.5181 0.6841
7.0750 -3.2669 0.9823
6.4902 -3.2192 0.8966
6.2750 -3.1641 0.8659
6.2200 -3.0993 0.8590
6.1906 -2.9619 0.8573
6.4895 -2.7492 0.9057
6.4014 -2.6904 0.8938
6.2742 -2.6467 0.8758
6.3691 -2.5399 0.8919
6.2007 -2.5163 0.8674
6.2277 -2.4295 0.8731
6.7444 -1.5625 0.9664
7.1431 -1.2190 1.0321
7.1215 -1.1178 1.0309
7.1387 -0.9905 1.0359
6.9661 -0.9942 1.0103
7.0564 -0.8142 1.0272
6.7866 -0.9037 0.9855
6.8329 -0.7563 0.9952
6.6511 -0.7951 0.9675
6.7590 -0.5928 0.9874
6.7712 -0.4683 0.9916
6.8191 -0.3079 1.0019
6.8330 -0.1757 1.0065
6.8118 -0.0767 1.0053
6.5945 -0.1831 0.9710
6.6683 0.0119 0.9857
6.5851 0.0375 0.9739
6.5346 0.0965 0.9676
5.7085 -4.6319 0.7985
5.7322 -4.6018 0.8033
5.6993 -4.5420 0.7991
4.6723 -3.8129 0.6412
4.6630 -3.7850 0.6403
5.3321 -3.9040 0.7518
4.8584 -3.6624 0.6767
4.8896 -3.6357 0.6827
4.9227 -3.6075 0.6890
4.9737 -3.5791 0.6984
5.0059 -3.5466 0.7047
5.0660 -3.5135 0.7158
6.6880 -3.2008 1.0007
6.5187 -3.1369 0.9733
6.5026 -3.0616 0.9724
6.3911 -2.7712 0.9604
6.2458 -2.7303 0.9366
6.3594 -2.6230 0.9586
6.3215 -2.5558 0.9537
6.2004 -2.5180 0.9340
6.6065 -2.2925 1.0089
7.0192 -1.3035 1.1035
6.9275 -1.2516 1.0891
7.0139 -1.0853 1.1079
6.9568 -1.0124 1.0999
6.7667 -1.0393 1.0667
6.8945 -0.7213 1.0963
6.8737 -0.6243 1.0951
6.7849 -0.5861 1.0809
6.7769 -0.3655 1.0849
6.7563 -0.2694 1.0837
6.5488 -0.3614 1.0460
6.6000 -0.0833 1.0615
5.7330 -4.6346 0.8475
5.7455 -4.5984 0.8509
5.7591 -4.5617 0.8546
4.7353 -3.9811 0.6734
4.7158 -3.9481 0.6706
4.6932 -3.8900 0.6679
4.6684 -3.8321 0.6648
4.6797 -3.8110 0.6676
4.6739 -3.7842 0.6673
4.6777 -3.7599 0.6687
4.6344 -3.6735 0.6628
4.7003 -3.6603 0.6760
4.8952 -3.6647 0.7136
4.9032 -3.6340 0.7160
4.9366 -3.6056 0.7233
4.9872 -3.5420 0.7350
4.9739 -3.5061 0.7334
8.0758 -3.2064 1.3426
6.7928 -3.1890 1.0947
6.6927 -3.1162 1.0775
6.7032 -3.0336 1.0819
6.7632 -2.7717 1.1012
6.3955 -2.6919 1.0323
6.2702 -2.6488 1.0093
6.3638 -2.5437 1.0305
6.6747 -2.3589 1.0961
7.0042 -1.1026 1.1965
6.9834 -1.0056 1.1953
6.9626 -0.9085 1.1941
7.0513 -0.7282 1.2165
6.8854 -0.7428 1.1840
6.7978 -0.7022 1.1682
6.9147 -0.4901 1.1970
6.7906 -0.4843 1.1732
6.7171 -0.3257 1.1636
6.7295 -0.1991 1.1697
6.6455 -0.1700 1.1542
5.7461 -4.6312 0.8946
4.8036 -4.0569 0.7107
4.6849 -3.7833 0.6944
4.6623 -3.7519 0.6905
4.6566 -3.7254 0.6902
4.6509 -3.6989 0.6899
4.6713 -3.6777 0.6950
4.8947 -3.6609 0.7438
4.9123 -3.6317 0.7486
4.8901 -3.5968 0.7450
5.0249 -3.5054 0.7772
7.5294 -3.2283 1.3272
6.8150 -3.1832 1.1745
6.5110 -3.1312 1.1106
6.5437 -3.0509 1.1204
6.7628 -2.9399 1.1715
6.3706 -2.6982 1.0950
6.2276 -2.6614 1.0654
6.2957 -2.5659 1.0833
6.6412 -2.3721 1.1645
7.1689 -1.3437 1.3133
6.9939 -1.1201 1.2831
6.9041 -1.0720 1.2654
6.9891 -0.9017 1.2895
7.1969 -0.6317 1.3435
6.7456 -0.8671 1.2381
6.7907 -0.7225 1.2527
6.9060 -0.5136 1.2847
6.6564 -0.6201 1.2272
6.7630 -0.4132 1.2573
6.8088 -0.2559 1.2725
6.8930 -0.0557 1.2974
6.5203 -0.3184 1.2081
5.7237 -6.1204 1.0822
5.6690 -6.1534 1.0881
5.6303 -6.2066 1.0994
5.5911 -6.2623 1.1113
5.3281 -6.1402 1.0729
5.1056 -6.0478 1.0429
5.1577 -6.2406 1.0907
5.1113 -6.2943 1.1019
5.0276 -6.2896 1.0978
4.4193 -5.4515 0.8765
4.2566 -5.3306 0.8420
4.2068 -6.9572 1.2277
4.1664 -7.1921 1.2822
3.9546 -7.7033 1.3965
3.8466 -7.6407 1.3777
3.7544 -7.7458 1.3995
2.8402 -8.0290 1.4345
2.7829 -7.7844 1.3742
2.6869 -7.8048 1.3756
2.5818 -7.8677 1.3869
1.1009 -8.5899 1.5064
1.1268 -8.1767 1.4089
1.1036 -8.0611 1.3805
1.0340 -8.0377 1.3724
6.0072 -6.1311 1.0271
5.8613 -6.1621 1.0293
5.7528 -6.1393 1.0210
5.6641 -6.1357 1.0176
5.5929 -6.1509 1.0186
5.5216 -6.1660 1.0197
5.4359 -6.1629 1.0164
5.3096 -6.1047 1.0000
5.0353 -6.0455 0.9788
4.9490 -6.0269 0.9722
4.9038 -6.0734 0.9808
4.4723 -5.5441 0.8535
4.3596 -5.4326 0.8260
4.2760 -5.3665 0.8092
4.1959 -5.2984 0.7921
4.1467 -5.2932 0.7895
4.0316 -5.5124 0.8332
3.9917 -5.5499 0.8400
4.2210 -7.0252 1.1650
4.1541 -7.1379 1.1872
3.8732 -7.9730 1.3586
3.7697 -8.0453 1.3710
2.7468 -7.9337 1.3155
1.2512 -8.4326 1.3772
1.1973 -8.3512 1.3580
1.0452 -8.2951 1.3412
0.9977 -8.2201 1.3236
0.8997 -8.2409 1.3251
6.0352 -6.0605 0.9456
5.9823 -6.0939 0.9507
5.9293 -6.1285 0.9560
5.8376 -6.1247 0.9529
5.7479 -6.1215 0.9500
5.6434 -6.1003 0.9432
5.5726 -6.1154 0.9443
5.5019 -6.1304 0.9453
5.4455 -6.1635 0.9503
5.4342 -6.2571 0.9680
4.8863 -5.9187 0.8887
4.9195 -6.0907 0.9227
4.8630 -6.1227 0.9274
4.4132 -5.5323 0.8021
4.2927 -5.3966 0.7729
4.2240 -5.3567 0.7635
4.0728 -5.4811 0.7835
4.0338 -5.5183 0.7897
4.0048 -5.5968 0.8040
4.2019 -6.9446 1.0686
4.1238 -6.9923 1.0757
4.1274 -7.5297 1.1793
4.0294 -7.5505 1.1807
3.9461 -7.6960 1.2066
3.8573 -7.8517 1.2343
3.7624 -8.0186 1.2640
2.6224 -8.5853 1.3437
2.5624 -8.3246 1.2919
2.4162 -8.5157 1.3250
1.3387 -8.2065 1.2377
1.1396 -8.4289 1.2753
1.0619 -8.3987 1.2675
1.0644 -8.2214 1.2334
1.0167 -8.1493 1.2183
0.9716 -8.0788 1.2036
6.3113 -6.0515 0.8819
6.2378 -6.0671 0.8830
6.0821 -6.0096 0.8701
5.9728 -5.9897 0.8644
5.9585 -6.0579 0.8757
5.9437 -6.1296 0.8875
5.8515 -6.1260 0.8849
5.7431 -6.1037 0.8789
5.6545 -6.1004 0.8765
5.5833 -6.1156 0.8776
5.5120 -6.1307 0.8787
5.4113 -6.1090 0.8729
5.4139 -6.2189 0.8915
4.9006 -5.9325 0.8324
4.9150 -6.0741 0.8567
4.9763 -6.3119 0.8982
4.8395 -6.2095 0.8780
4.1696 -5.3400 0.7169
4.1438 -5.3973 0.7261
4.1169 -5.4594 0.7360
4.0817 -5.5055 0.7431
4.0423 -5.5448 0.7489
4.1317 -6.6349 0.9352
4.1239 -7.0010 0.9970
4.1011 -7.3892 1.0622
4.0171 -7.4866 1.0769
3.9494 -7.7583 1.1215
3.8342 -7.6502 1.1008
3.7369 -7.7140 1.1096
3.5445 -8.4176 1.2246
3.4291 -8.2168 1.1882
3.3225 -8.0837 1.1635
3.2114 -8.1581 1.1737
2.4862 -8.6424 1.2406
2.5127 -8.0182 1.1355
2.3746 -8.1867 1.1612
1.3320 -8.1817 1.1386
1.0234 -8.6228 1.2068
1.0056 -8.2941 1.1508
1.0102 -8.1252 1.1223
6.3845 -5.9486 0.7981
6.1803 -6.0831 0.8144
6.0858 -6.0801 0.8125
5.9726 -6.0581 0.8075
5.9002 -6.0735 0.8086
5.8279 -6.0888 0.8097
5.7555 -6.1042 0.8108
5.6831 -6.1196 0.8119
5.6278 -6.1544 0.8161
5.5548 -6.1699 0.8172
5.5136 -6.2247 0.8245
5.2441 -5.9868 0.7856
4.9772 -6.0434 0.7896
4.8837 -6.1412 0.8024
4.7958 -6.1204 0.7980
4.3609 -5.5280 0.7048
4.2365 -5.3755 0.6807
4.1972 -5.4014 0.6838
4.1645 -5.4468 0.6899
4.1233 -5.4742 0.6932
4.0849 -5.5131 0.6983
4.0390 -5.5327 0.7004
4.2312 -7.0853 0.9295
4.1142 -7.4811 0.9853
4.0336 -7.6244 1.0049
3.9425 -7.7327 1.0192
3.8351 -7.7105 1.0142
3.7301 -7.6889 1.0094
3.5350 -8.2747 1.0916
3.4234 -8.0339 1.0548
3.3205 -7.9109 1.0353
3.2071 -8.0798 1.0581
2.9794 -8.2303 1.0764
2.8466 -8.4209 1.1020
2.4843 -8.0885 1.0479
1.0160 -8.5957 1.0985
1.1501 -8.1513 1.0360
1.1006 -8.0806 1.0249
1.0538 -8.0115 1.0141
6.1642 -5.9766 0.7303
6.1124 -6.0094 0.7337
6.1216 -6.0991 0.7447
6.0885 -6.1541 0.7510
5.9924 -6.1505 0.7496
5.8790 -6.1277 0.7456
5.7868 -6.1244 0.7442
5.6228 -6.1363 0.7439
5.4311 -6.1105 0.7387
5.1562 -5.8626 0.7056
5.0501 -5.8186 0.6991
5.0398 -5.9047 0.7094
4.9456 -5.8735 0.7046
5.0053 -6.0778 0.7301
4.8008 -6.1212 0.7332
4.2564 -5.4148 0.6414
4.2122 -5.4329 0.6432
4.1752 -5.4702 0.6473
4.1370 -5.5088 0.6516
4.0977 -5.5488 0.6560
4.0570 -5.5901 0.6606
4.0371 -7.0379 0.8365
3.8489 -6.9536 0.8243
3.7206 -7.6219 0.9042
3.6342 -8.0109 0.9506
3.5260 -8.1375 0.9648
3.4154 -8.0574 0.9539
3.3117 -7.9323 0.9376
3.2060 -7.9547 0.9392
2.4827 -8.5237 1.0006
2.3194 -7.9195 0.9254
1.3511 -8.2560 0.9559
1.0331 -8.7204 1.0090
0.8568 -8.8691 1.0252
1.0139 -8.3734 0.9666
1.0941 -8.0566 0.9289
1.0222 -8.0326 0.9252
6.3109 -6.0869 0.6725
6.1075 -5.9915 0.6621
6.1166 -6.0806 0.6708
6.0221 -6.0779 0.6700
5.9480 -6.0936 0.6711
5.8553 -6.0906 0.6703
5.7638 -6.0873 0.6695
5.6734 -6.0837 0.6686
5.5849 -6.0808 0.6679
5.5131 -6.0961 0.6690
5.3693 -6.0227 0.6610
5.0262 -5.6851 0.6262
4.7703 -5.5152 0.6082
4.9473 -5.9780 0.6543
4.8744 -6.1072 0.6665
4.7154 -5.9568 0.6509
4.6514 -5.9704 0.6519
4.2648 -5.4287 0.5970
4.2166 -5.4390 0.5977
4.1758 -5.4682 0.6003
4.1337 -5.4966 0.6028
4.0943 -5.5364 0.6065
4.0598 -5.5979 0.6123
4.1768 -7.2984 0.7786
3.8805 -6.1169 0.6619
3.5150 -7.7693 0.8208
3.4123 -7.7467 0.8180
3.3026 -7.9541 0.8376
2.6422 -8.1930 0.8572
2.4869 -8.4372 0.8801
2.1852 -8.0073 0.8366
1.9807 -8.0508 0.8397
1.8610 -8.1206 0.8458
1.0828 -8.5751 0.8857
1.0575 -8.4310 0.8715
1.0863 -8.1974 0.8489
1.0875 -8.0326 0.8329
0.9387 -8.1443 0.8429
6.0912 -6.0438 0.5956
6.0171 -6.0595 0.5967
5.9239 -6.0567 0.5965
5.8318 -6.0537 0.5962
5.7588 -6.0692 0.5973
5.6859 -6.0847 0.5984
5.5640 -6.0450 0.5955
5.4927 -6.0601 0.5966
5.3646 -6.0055 0.5925
5.1037 -5.7748 0.5756
4.5497 -5.6471 0.5661
4.5001 -5.6706 0.5678
4.2251 -5.4546 0.5520
4.0694 -5.6276 0.5645
4.0792 -6.1096 0.5996
3.6914 -6.2092 0.6068
3.4006 -8.0032 0.7374
3.2725 -8.4716 0.7714
3.1477 -8.5594 0.7778
2.4544 -8.5259 0.7751
2.1346 -8.1269 0.7459
1.1572 -8.3818 0.7641
0.9938 -8.5144 0.7737
1.1047 -8.1251 0.7454
1.0046 -8.1463 0.7469
0.9046 -8.1676 0.7484
6.0456 -5.9892 0.5207
5.9727 -6.0047 0.5218
5.9189 -6.0385 0.5237
5.8639 -6.0727 0.5256
5.7719 -6.0698 0.5259
5.6470 -6.0300 0.5247
5.5912 -6.0632 0.5265
5.5676 -6.1356 0.5301
5.4316 -6.0758 0.5279
5.0779 -5.7320 0.5132
4.6571 -5.4227 0.5004
4.6063 -5.4335 0.5012
4.5437 -5.4254 0.5011
4.4990 -5.4456 0.5023
4.4963 -5.6567 0.5124
4.4290 -5.6454 0.5122
4.2623 -5.4136 0.5019
4.2218 -5.4425 0.5035
4.1837 -5.4805 0.5055
4.1633 -5.5714 0.5099
4.0794 -5.6587 0.5145
4.1636 -6.1656 0.5384
4.1654 -6.4559 0.5524
4.0907 -6.4717 0.5535
3.9584 -6.1899 0.5406
3.8666 -6.0534 0.5345
3.7996 -6.0355 0.5340
3.7412 -6.0800 0.5364
3.6931 -6.2655 0.5456
3.2838 -7.9994 0.6308
2.4200 -8.6210 0.6648
2.0052 -8.1737 0.6454
0.9494 -8.7581 0.6786
1.0200 -8.2451 0.6537
0.9979 -8.1215 0.6478
0.9513 -8.0502 0.6447
5.8564 -5.8839 0.4485
5.9330 -6.0386 0.4512
5.8034 -5.9992 0.4516
5.7140 -5.9970 0.4525
5.6761 -6.0486 0.4541
5.6367 -6.1015 0.4557
5.5958 -6.1558 0.4573
5.3977 -6.0228 0.4563
5.0236 -5.6532 0.4518
4.7178 -5.4177 0.4496
4.6537 -5.4101 0.4500
4.6150 -5.4396 0.4511
4.5359 -5.6082 0.4558
4.5050 -5.6667 0.4574
4.4252 -5.6317 0.4574
4.2590 -5.4016 0.4539
4.2222 -5.4391 0.4551
4.1803 -5.4682 0.4562
4.1598 -5.5585 0.4585
4.1185 -5.6013 0.4599
4.0758 -5.6454 0.4613
4.1591 -6.1489 0.4719
4.1830 -6.5281 0.4803
4.0955 -6.4979 0.4805
3.9539 -6.1734 0.4746
3.8731 -6.1024 0.4738
3.8018 -6.0666 0.4737
3.7460 -6.1464 0.4761
3.7069 -6.4668 0.4838
3.6534 -6.8221 0.4924
3.1597 -8.0979 0.5265
2.5324 -8.5655 0.5436
2.4513 -8.4087 0.5409
1.9264 -8.0701 0.5386
1.1711 -8.4693 0.5554
1.0902 -8.2477 0.5512
1.0658 -8.1223 0.5486
5.8346 -5.9315 0.3796
5.8355 -6.0177 0.3793
5.7441 -6.0150 0.3808
5.6711 -6.0305 0.3819
5.6149 -6.0646 0.3827
5.5738 -6.1176 0.3832
5.4679 -6.0958 0.3849
5.0597 -5.6891 0.3925
4.8896 -5.5575 0.3955
4.5875 -5.5827 0.4002
4.5646 -5.6529 0.4003
4.5135 -5.6764 0.4011
4.4271 -5.6294 0.4026
4.2809 -5.4443 0.4054
4.2309 -5.4549 0.4061
4.2122 -5.5443 0.4062
4.1876 -5.6307 0.4063
4.1488 -5.6885 0.4068
4.0862 -5.6776 0.4078
4.1401 -6.0805 0.4058
4.2338 -6.7333 0.4025
3.8457 -5.9469 0.4108
3.7891 -5.9895 0.4116
3.7151 -6.6073 0.4110
3.6558 -6.9436 0.4110
3.0127 -8.3729 0.4170
2.5120 -8.5984 0.4243
1.7770 -8.1661 0.4370
1.0790 -8.6159 0.4467
0.9337 -8.7006 0.4488
1.0831 -8.2218 0.4478
0.9786 -8.2440 0.4493
5.8674 -6.0357 0.3048
5.7749 -6.0333 0.3068
5.7181 -6.0674 0.3070
5.5933 -6.0279 0.3108
5.5526 -6.0805 0.3102
5.4630 -6.0776 0.3121
4.8858 -5.5436 0.3397
4.6468 -5.3849 0.3494
4.6400 -5.4628 0.3473
4.5929 -5.4833 0.3477
4.4914 -5.6274 0.3457
4.4177 -5.6043 0.3479
4.2776 -5.4319 0.3558
4.2156 -5.4147 0.3576
4.1967 -5.5015 0.3556
4.2275 -5.7358 0.3482
4.1533 -5.6992 0.3508
4.1006 -5.7229 0.3512
4.0883 -5.8942 0.3466
4.1902 -6.5605 0.3253
4.0396 -6.2532 0.3373
3.8440 -5.9460 0.3503
3.7870 -5.9896 0.3502
3.7611 -6.3333 0.3409
3.7060 -6.5408 0.3361
3.6737 -7.3562 0.3134
1.5989 -8.3205 0.3297
0.9801 -8.7734 0.3298
0.9872 -8.5520 0.3360
1.0214 -8.2986 0.3425
1.0259 -8.1196 0.3476
6.4635 -5.8240 0.2254
5.7164 -5.9608 0.2379
5.6276 -5.9589 0.2404
5.5558 -5.9741 0.2415
5.4840 -5.9894 0.2426
5.4735 -6.0779 0.2380
5.3695 -6.0563 0.2419
4.9908 -5.6719 0.2732
4.7422 -5.4272 0.2933
4.6560 -5.3904 0.2977
4.6232 -5.4296 0.2964
4.5652 -5.4315 0.2979
4.5247 -5.4620 0.2973
4.5122 -5.6602 0.2867
4.4429 -5.6489 0.2892
4.2873 -5.4479 0.3044
4.2200 -5.4206 0.3077
4.1971 -5.4983 0.3040
4.2379 -5.7600 0.2886
4.1495 -5.6852 0.2950
4.0968 -5.7089 0.2951
4.0615 -5.7975 0.2912
4.0415 -5.9661 0.2825
3.7843 -6.5761 0.2558
2.5203 -8.4151 0.1885
1.0142 -8.2721 0.2367
1.0190 -8.0943 0.2464
1.0751 -7.7017 0.2665
6.4316 -5.8550 0.1501
6.1438 -6.1806 0.1329
5.8206 -5.9631 0.1611
5.7115 -5.9429 0.1663
5.6391 -5.9583 0.1674
5.5509 -5.9563 0.1704
5.5265 -6.0256 0.1655
5.3795 -6.0568 0.1678
5.1729 -5.8993 0.1873
4.6462 -5.3687 0.2477
4.6137 -5.4076 0.2456
4.6115 -5.4979 0.2383
4.5703 -5.5315 0.2369
4.5271 -5.5644 0.2356
4.4896 -5.6106 0.2331
4.4330 -5.6226 0.2339
4.2130 -5.3998 0.2593
4.1860 -5.4665 0.2547
4.1793 -5.7705 0.2301
4.1043 -5.7317 0.2357
4.0686 -5.8229 0.2294
4.0451 -5.9818 0.2172
3.9908 -6.3951 0.1852
3.9094 -6.3691 0.1900
3.8767 -6.6890 0.1649
3.9135 -7.8204 0.0713
3.8267 -8.1642 0.0461
1.4495 -8.3438 0.1085
1.0305 -8.3832 0.1189
0.9785 -8.2982 0.1276
6.0717 -6.0987 0.0619
5.7973 -5.9273 0.0910
5.6897 -5.9081 0.0972
5.6179 -5.9233 0.0982
5.5619 -5.9557 0.0969
5.5056 -5.9892 0.0954
5.2187 -5.9476 0.1109
4.6822 -5.4123 0.1895
4.6491 -5.4532 0.1863
4.6279 -5.5161 0.1803
4.5992 -5.5725 0.1753
4.5492 -5.5964 0.1746
4.4980 -5.6196 0.1740
4.4407 -5.6318 0.1749
4.2214 -5.4148 0.2068
4.1825 -5.4538 0.2041
4.1799 -5.7692 0.1699
4.2384 -6.7599 0.0600
4.1280 -6.6685 0.0742
3.9984 -6.4427 0.1037
3.9256 -6.4818 0.1022
2.6132 -7.8313 0.0056
1.4176 -8.3715 -0.0074
1.3042 -8.3955 -0.0057
1.0515 -8.3015 0.0142
0.9123 -8.3793 0.0111
5.9820 -6.0013 -0.0021
5.7924 -5.9092 0.0188
5.6849 -5.8903 0.0261
5.6294 -5.9224 0.0242
5.5570 -5.9378 0.0253
5.5326 -6.0072 0.0169
5.4585 -6.0229 0.0180
5.3696 -6.0204 0.0223
5.2540 -5.9818 0.0326
4.7423 -5.4896 0.1221
4.6938 -5.5121 0.1212
4.6309 -5.5132 0.1238
4.6024 -5.5702 0.1173
4.5515 -5.5932 0.1164
4.4942 -5.6054 0.1173
4.2501 -5.7815 0.1040
4.1804 -5.7678 0.1090
4.0853 -5.6668 0.1269
4.0458 -5.7404 0.1186
4.0465 -6.3014 0.0423
3.9577 -6.2368 0.0550
3.8834 -6.2332 0.0587
3.7613 -6.4496 0.0346
2.8319 -7.6706 -0.0906
2.7285 -7.6926 -0.0890
2.6692 -7.5055 -0.0610
1.9885 -7.8925 -0.0837
1.8661 -7.9623 -0.0878
1.9641 -7.4740 -0.0257
1.5334 -7.6724 -0.0337
1.2063 -8.1473 -0.0839
1.3414 -7.7132 -0.0308
1.4138 -7.4279 0.0048
6.3323 -5.6743 -0.0451
5.9915 -5.9115 -0.0669
5.8416 -5.8584 -0.0507
5.8057 -5.9085 -0.0571
5.6968 -5.8891 -0.0485
5.5919 -5.8710 -0.0403
5.5521 -5.9199 -0.0464
5.4957 -5.9531 -0.0490
5.3642 -5.9001 -0.0337
5.3794 -6.0203 -0.0542
5.2769 -5.9996 -0.0457
4.8019 -5.4744 0.0641
4.7615 -5.5083 0.0605
4.7048 -5.5203 0.0614
4.6555 -5.5440 0.0600
4.6050 -5.5668 0.0588
4.5476 -5.5790 0.0596
4.5029 -5.6148 0.0560
4.3239 -5.5052 0.0829
4.2227 -5.4083 0.1038
4.1831 -5.4471 0.0994
4.1853 -5.7794 0.0449
4.0779 -5.6414 0.0728
4.0248 -5.6648 0.0717
4.0645 -6.3886 -0.0489
3.9566 -6.2386 -0.0189
3.8725 -6.1775 -0.0047
3.7934 -6.1205 0.0085
3.7240 -6.1180 0.0124
3.6678 -6.2797 -0.0113
3.5386 -6.9847 -0.1203
3.4480 -7.1344 -0.1403
3.3625 -6.9301 -0.1026
2.8514 -6.9800 -0.0853
2.7391 -7.1232 -0.1031
2.6011 -7.3487 -0.1332
2.4972 -7.4062 -0.1374
2.3799 -7.5039 -0.1476
2.2728 -7.2849 -0.1063
2.1672 -7.1253 -0.0749
2.1066 -7.0815 -0.0647
2.2879 -6.3371 0.0482
6.5090 -5.7820 -0.1487
5.9220 -5.6868 -0.0976
5.8030 -5.6588 -0.0856
5.8906 -5.8089 -0.1193
5.8930 -5.8918 -0.1353
5.7470 -5.8394 -0.1171
5.6919 -5.8712 -0.1202
5.6034 -5.8699 -0.1150
5.5315 -5.8852 -0.1139
5.4597 -5.9005 -0.1128
5.4178 -5.9505 -0.1201
5.4201 -6.0575 -0.1407
5.2045 -5.8954 -0.0976
4.8066 -5.4718 0.0060
4.7422 -5.4725 0.0095
4.7010 -5.5063 0.0053
4.6517 -5.5298 0.0035
4.6081 -5.5642 -0.0006
4.5571 -5.5881 -0.0024
4.4927 -5.5887 0.0011
4.4409 -5.6128 -0.0006
4.3610 -5.5785 0.0104
4.2570 -5.4821 0.0348
4.2080 -5.5046 0.0332
4.2086 -5.6621 0.0029
4.1633 -5.7119 -0.0041
4.0849 -5.6623 0.0098
4.0178 -5.6394 0.0179
3.9764 -5.7114 0.0064
3.9508 -5.8725 -0.0231
3.9308 -6.1097 -0.0675
3.8928 -6.3166 -0.1051
3.8106 -6.2708 -0.0917
3.7467 -6.3687 -0.1070
3.6616 -6.2432 -0.0781
3.5883 -6.2016 -0.0660
3.5243 -6.5064 -0.1210
3.4476 -6.4765 -0.1109
3.3750 -6.4055 -0.0933
3.3028 -6.3998 -0.0881
3.2260 -6.4583 -0.0951
3.1468 -6.5183 -0.1021
3.1121 -6.2475 -0.0482
2.5209 -6.9715 -0.1542
2.4099 -6.8385 -0.1224
2.3765 -6.7271 -0.0992
2.3190 -6.6941 -0.0896
2.2817 -6.6167 -0.0727
2.1988 -6.6554 -0.0755
2.1565 -6.6021 -0.0629
1.9900 -6.6786 -0.0683
1.8411 -6.8408 -0.0911
1.8184 -6.7572 -0.0738
1.7712 -6.7251 -0.0650
1.6116 -6.8895 -0.0876
1.4533 -7.0417 -0.1080
1.4255 -6.9753 -0.0937
5.8666 -5.6995 -0.1690
5.4226 -5.7569 -0.1541
5.3544 -5.7714 -0.1531
5.2477 -5.7412 -0.1398
5.1452 -5.7121 -0.1271
5.0584 -5.6987 -0.1187
4.8267 -5.4897 -0.0582
4.7619 -5.4915 -0.0546
4.7350 -5.5480 -0.0654
4.6546 -5.5262 -0.0556
4.6112 -5.5614 -0.0607
4.5597 -5.5853 -0.0628
4.5345 -5.6594 -0.0776
4.4370 -5.5984 -0.0581
4.3627 -5.5763 -0.0486
4.3057 -5.5884 -0.0477
4.2126 -5.5115 -0.0250
4.2330 -5.7235 -0.0730
4.1638 -5.7102 -0.0658
4.0924 -5.6845 -0.0557
4.0014 -5.5802 -0.0271
4.0054 -5.8296 -0.0823
3.9661 -5.9467 -0.1057
3.7082 -6.0174 -0.1053
3.6428 -6.0313 -0.1044
3.5747 -5.9819 -0.0893
3.5104 -5.9497 -0.0782
3.4463 -6.1239 -0.1126
3.3796 -6.1380 -0.1116
3.2429 -6.2020 -0.1172
3.1752 -6.2163 -0.1162
3.1321 -6.0600 -0.0790
3.0716 -6.0579 -0.0748
2.9961 -6.1367 -0.0875
2.6649 -6.0565 -0.0493
2.4842 -6.3990 -0.1137
2.4379 -6.3560 -0.1013
2.3707 -6.3703 -0.1003
2.3035 -6.3845 -0.0993
2.2277 -6.4176 -0.1019
2.1409 -6.4719 -0.1085
1.8564 -6.4446 -0.0849
1.8695 -6.3282 -0.0600
2.0703 -5.9216 0.0173
5.2509 -5.5637 -0.1662
5.2112 -5.6018 -0.1730
5.0936 -5.5526 -0.1527
4.9745 -5.4957 -0.1304
4.8802 -5.4633 -0.1159
4.8228 -5.4755 -0.1150
4.7735 -5.4988 -0.1175
4.7234 -5.5223 -0.1199
4.6957 -5.5817 -0.1328
4.6436 -5.6066 -0.1355
4.5766 -5.6070 -0.1310
4.4729 -5.5379 -0.1067
4.3670 -5.4535 -0.0785
4.2454 -5.4457 -0.0682
4.2637 -5.6328 -0.1162
4.1748 -5.5636 -0.0929
4.1345 -5.6217 -0.1046
4.0737 -5.6227 -0.1007
4.0266 -5.6703 -0.1094
3.9811 -5.7334 -0.1220
3.9393 -5.8275 -0.1427
3.8645 -5.7721 -0.1237
3.7963 -5.7321 -0.1091
3.7347 -5.7195 -0.1018
3.6757 -5.7191 -0.0977
3.6192 -5.7440 -0.1000
3.5626 -5.7818 -0.1056
3.5044 -5.8080 -0.1082
3.4456 -5.8205 -0.1073
3.3873 -5.8190 -0.1029
3.3298 -5.8183 -0.0989
3.2666 -5.8852 -0.1113
3.2104 -5.8704 -0.1037
3.1595 -5.8288 -0.0899
3.0975 -5.8677 -0.0954
3.0448 -5.8531 -0.0881
2.9874 -5.8653 -0.0873
2.9200 -5.9183 -0.0959
2.8458 -5.9885 -0.1084
2.7585 -6.0931 -0.1285
2.7399 -5.9704 -0.0966
2.6763 -5.9967 -0.0989
2.6116 -6.0243 -0.1014
2.5220 -6.1137 -0.1175
2.4799 -6.0800 -0.1063
2.4397 -6.0470 -0.0953
2.3805 -6.0596 -0.0944
2.3213 -6.0721 -0.0935
2.2695 -6.0703 -0.0895
2.2030 -6.0973 -0.0917
2.1605 -6.0796 -0.0844
2.0847 -6.1224 -0.0899
2.0523 -6.0897 -0.0796
1.9943 -6.1020 -0.0787
1.9268 -6.1292 -0.0809
5.1631 -5.3882 -0.1770
5.0769 -5.3701 -0.1655
4.8500 -5.3368 -0.1393
4.7886 -5.3390 -0.1354
4.7271 -5.3403 -0.1312
4.6669 -5.3422 -0.1272
4.6138 -5.3535 -0.1264
4.5489 -5.3467 -0.1197
4.4715 -5.4171 -0.1336
4.4012 -5.3987 -0.1232
4.3152 -5.3452 -0.1019
4.2429 -5.3114 -0.0871
4.2050 -5.3490 -0.0948
4.1769 -5.4149 -0.1111
3.9652 -5.4500 -0.1051
3.9156 -5.4704 -0.1071
3.8633 -5.4815 -0.1063
3.8149 -5.5134 -0.1116
3.7604 -5.5141 -0.1078
3.7053 -5.5052 -0.1012
3.6553 -5.5365 -0.1062
3.6035 -5.5583 -0.1084
3.5510 -5.5793 -0.1104
3.4978 -5.5906 -0.1096
3.4450 -5.5811 -0.1030
3.3929 -5.5814 -0.0992
3.3407 -5.5925 -0.0984
3.2884 -5.6036 -0.0976
3.1839 -5.6258 -0.0961
3.1354 -5.6155 -0.0896
3.0793 -5.6480 -0.0945
3.0245 -5.6705 -0.0967
2.8070 -5.7373 -0.0991
2.5474 -5.8946 -0.1237
2.4674 -5.9608 -0.1362
2.4161 -5.9599 -0.1322
2.3725 -5.9446 -0.1247
2.3302 -5.9290 -0.1172
2.2674 -5.9541 -0.1195
2.2263 -5.9393 -0.1123
2.1709 -5.9510 -0.1115
2.1156 -5.9628 -0.1106
2.0435 -6.0017 -0.1161
1.9599 -6.0568 -0.1253
5.0360 -5.0753 -0.1315
5.0281 -5.1228 -0.1456
4.9861 -5.1405 -0.1476
4.9373 -5.2816 -0.1873
4.8231 -5.2239 -0.1602
4.6441 -5.2229 -0.1455
4.5653 -5.1938 -0.1301
4.5106 -5.1957 -0.1263
4.4571 -5.1983 -0.1228
4.4285 -5.2404 -0.1335
4.3748 -5.2431 -0.1300
4.3167 -5.2369 -0.1234
4.2682 -5.2472 -0.1226
4.2122 -5.2415 -0.1164
4.1642 -5.2517 -0.1156
4.0289 -5.3077 -0.1220
3.9748 -5.3007 -0.1155
3.9242 -5.3027 -0.1120
3.8741 -5.3045 -0.1085
3.8264 -5.3147 -0.1078
3.7818 -5.3417 -0.1126
3.7322 -5.3435 -0.1091
3.6842 -5.3536 -0.1084
3.6371 -5.3724 -0.1104
3.5901 -5.4010 -0.1154
3.5420 -5.4287 -0.1201
3.4925 -5.4119 -0.1109
3.4441 -5.4134 -0.1075
3.3959 -5.4237 -0.1067
3.3483 -5.4250 -0.1033
3.3012 -5.4262 -0.0999
3.2534 -5.4364 -0.0992
3.2016 -5.4737 -0.1065
3.1496 -5.5033 -0.1115
3.0987 -5.5229 -0.1134
3.0561 -5.5046 -0.1043
3.0076 -5.5149 -0.1036
2.9536 -5.5449 -0.1085
2.9075 -5.5460 -0.1051
2.8587 -5.5563 -0.1044
2.8204 -5.5371 -0.0953
2.7612 -5.5770 -0.1029
2.7167 -5.5767 -0.0992
2.6596 -5.6074 -0.1041
2.6106 -5.6178 -0.1033
2.5758 -5.5979 -0.0944
2.5174 -5.6288 -0.0992
2.4686 -5.6392 -0.0985
2.4146 -5.6594 -0.1004
2.3711 -5.6599 -0.0970
2.3165 -5.6802 -0.0989
2.2736 -5.6806 -0.0955
2.2052 -5.7224 -0.1029
2.1273 -5.7770 -0.1135
4.6637 -4.9762 -0.1175
4.5992 -4.9618 -0.1070
4.5662 -4.9824 -0.1111
4.5283 -4.9981 -0.1132
4.5086 -5.0382 -0.1250
4.4831 -5.0736 -0.1348
4.4333 -5.0764 -0.1315
4.3710 -5.0596 -0.1203
4.3073 -5.0373 -0.1072
4.2867 -5.0853 -0.1217
4.2423 -5.0947 -0.1210
4.1944 -5.0972 -0.1177
4.1502 -5.1065 -0.1170
4.1092 -5.1230 -0.1190
3.9294 -5.1534 -0.1137
3.8852 -5.1628 -0.1130
3.8395 -5.1658 -0.1100
3.7939 -5.1677 -0.1067
3.7464 -5.1565 -0.0987
3.7002 -5.1460 -0.0911
3.4877 -5.2327 -0.1021
3.3553 -5.2754 -0.1050
3.3141 -5.2560 -0.0948
3.2689 -5.2792 -0.0988
3.2216 -5.3115 -0.1056
2.6370 -5.4502 -0.1017
2.5836 -5.4771 -0.1061
2.5384 -5.4867 -0.1055
2.4884 -5.5050 -0.1073
2.4380 -5.5235 -0.1092
4.9281 -4.8279 -0.1348
4.9000 -4.8473 -0.1394
4.8401 -4.8408 -0.1313
4.8734 -4.9634 -0.1798
4.6758 -4.8757 -0.1289
4.6192 -4.8685 -0.1209
4.5884 -4.8875 -0.1250
4.5525 -4.9019 -0.1270
4.5155 -4.9155 -0.1286
4.4617 -4.9087 -0.1210
4.4247 -4.9223 -0.1226
4.3838 -4.9310 -0.1220
4.3505 -4.9505 -0.1261
4.3093 -4.9593 -0.1255
4.2717 -4.9740 -0.1274
4.2302 -4.9828 -0.1268
4.1442 -4.9944 -0.1230
3.9815 -5.0356 -0.1230
3.9401 -5.0444 -0.1224
3.8967 -5.0469 -0.1192
3.8099 -5.0471 -0.1112
3.7703 -5.0613 -0.1127
3.7306 -5.0764 -0.1146
3.6904 -5.0908 -0.1161
3.6097 -5.1271 -0.1220
3.5675 -5.1303 -0.1192
3.5252 -5.1201 -0.1115
3.4841 -5.1346 -0.1130
3.4428 -5.1433 -0.1124
3.4013 -5.1589 -0.1142
3.3598 -5.1677 -0.1136
3.3184 -5.1765 -0.1130
3.2778 -5.1784 -0.1099
3.2375 -5.1812 -0.1071
3.1953 -5.1959 -0.1086
3.1511 -5.2188 -0.1129
3.1080 -5.2337 -0.1144
3.0697 -5.2293 -0.1092
2.9845 -5.2541 -0.1104
2.9039 -5.2645 -0.1067
2.8677 -5.2597 -0.1015
2.8240 -5.2748 -0.1030
2.7763 -5.2984 -0.1073
2.7347 -5.3072 -0.1066
2.6864 -5.3300 -0.1105
2.6406 -5.3464 -0.1123
2.6024 -5.3478 -0.1093
2.5681 -5.3426 -0.1041
2.5227 -5.3580 -0.1056
2.4809 -5.3669 -0.1049
2.4344 -5.3835 -0.1067
2.3924 -5.3924 -0.1061
2.3453 -5.4091 -0.1079
2.3031 -5.4181 -0.1072
4.8083 -4.7652 -0.1429
4.7529 -4.7598 -0.1351
4.6800 -4.7381 -0.1191
4.6425 -4.7461 -0.1186
4.6191 -4.7673 -0.1247
4.5507 -4.7455 -0.1091
4.5092 -4.7486 -0.1062
4.4844 -4.7692 -0.1120
4.4551 -4.7859 -0.1157
4.4176 -4.7938 -0.1152
4.3801 -4.8018 -0.1146
4.3395 -4.8057 -0.1121
4.3052 -4.8177 -0.1135
4.2712 -4.8307 -0.1152
4.2363 -4.8428 -0.1166
4.2017 -4.8559 -0.1184
4.1553 -4.8496 -0.1112
4.1178 -4.8575 -0.1106
4.0683 -4.8423 -0.0995
4.0295 -4.8457 -0.0970
3.9929 -4.8535 -0.0965
3.9603 -4.8709 -0.1002
3.9214 -4.8735 -0.0973
3.8846 -4.8813 -0.0968
3.8510 -4.8989 -0.1005
3.8152 -4.9113 -0.1018
3.7758 -4.9101 -0.0974
3.7377 -4.9125 -0.0946
3.7009 -4.9203 -0.0940
3.6650 -4.9336 -0.0958
3.6281 -4.9415 -0.0952
3.3673 -5.0274 -0.1035
3.2522 -5.0623 -0.1060
3.2172 -5.0545 -0.0993
3.1784 -5.0675 -0.1006
2.9895 -5.1077 -0.0978
2.9476 -5.1271 -0.1014
2.9071 -5.1414 -0.1031
2.5905 -5.2248 -0.1048
2.5518 -5.2331 -0.1042
4.7447 -4.6700 -0.1380
4.6229 -4.6817 -0.1300
4.5678 -4.7123 -0.1373
4.4798 -4.7121 -0.1278
4.4082 -4.7273 -0.1267
4.2772 -4.7741 -0.1330
4.2409 -4.7818 -0.1324
3.9073 -4.8337 -0.1192
3.8700 -4.8369 -0.1166
3.7293 -4.8762 -0.1185
3.2616 -4.9803 -0.1135
3.2255 -4.9880 -0.1130
3.1884 -5.0006 -0.1145
3.0798 -5.0237 -0.1128
3.0420 -5.0364 -0.1143
3.0004 -5.0595 -0.1198
2.9636 -5.0673 -0.1193
2.9289 -5.0699 -0.1167
2.8902 -5.0829 -0.1181
2.8604 -5.0750 -0.1116
2.8265 -5.0775 -0.1090
2.7929 -5.0799 -0.1064
2.7514 -5.0982 -0.1099
2.7150 -5.1059 -0.1094
2.6787 -5.1136 -0.1088
2.6455 -5.1159 -0.1063
2.6061 -5.1290 -0.1077
2.5765 -5.1258 -0.1032
4.6797 -4.5494 -0.1147
4.6472 -4.5563 -0.1142
4.6185 -4.5662 -0.1156
4.5858 -4.5731 -0.1151
4.5531 -4.5800 -0.1146
4.4810 -4.5878 -0.1100
4.4519 -4.5978 -0.1113
4.4225 -4.6078 -0.1126
4.3868 -4.6116 -0.1103
4.3513 -4.6154 -0.1080
4.3217 -4.6254 -0.1093
4.2864 -4.6292 -0.1070
4.2513 -4.6329 -0.1048
4.2347 -4.6599 -0.1154
4.2041 -4.6701 -0.1167
4.1612 -4.6633 -0.1086
4.1286 -4.6702 -0.1082
4.0917 -4.6705 -0.1041
4.0613 -4.6807 -0.1054
4.0348 -4.6986 -0.1107
4.0036 -4.7090 -0.1119
3.9690 -4.7126 -0.1097
3.8702 -4.7335 -0.1082
3.8358 -4.7362 -0.1055
3.7997 -4.7325 -0.0997
3.7663 -4.7359 -0.0974
3.7357 -4.7499 -0.1005
3.7040 -4.7604 -0.1017
3.6720 -4.7710 -0.1030
3.6392 -4.7779 -0.1025
3.6060 -4.7812 -0.1003
3.5730 -4.7845 -0.0980
3.5414 -4.8071 -0.1050
3.5083 -4.8104 -0.1027
3.4753 -4.8127 -0.1000
3.4422 -4.8320 -0.1052
3.4086 -4.8476 -0.1086
3.3749 -4.8585 -0.1099
3.3405 -4.8743 -0.1133
3.3074 -4.8766 -0.1106
3.2418 -4.8830 -0.1061
3.2075 -4.8940 -0.1073
3.1750 -4.8972 -0.1051
3.1430 -4.8993 -0.1024
3.1059 -4.9194 -0.1076
2.8978 -4.9767 -0.1105
2.8683 -4.9746 -0.1062
2.8325 -4.9859 -0.1074
2.7959 -4.9984 -0.1090
2.7596 -5.0098 -0.1102
2.6965 -4.8814 -0.0433
4.5894 -4.5376 -0.1345
4.5293 -4.5542 -0.1354
4.4736 -4.5408 -0.1221
4.4322 -4.5384 -0.1159
4.4111 -4.5541 -0.1211
4.3798 -4.5607 -0.1206
3.2831 -4.8077 -0.1110
3.1509 -4.8544 -0.1183
3.0891 -4.8601 -0.1137
3.0571 -4.8669 -0.1132
3.0220 -4.8818 -0.1164
2.9914 -4.8845 -0.1141
2.9593 -4.8914 -0.1136
2.9272 -4.8982 -0.1131
2.8951 -4.9050 -0.1126
2.8630 -4.9118 -0.1121
2.8309 -4.9186 -0.1116
2.7965 -4.9297 -0.1130
2.7666 -4.9323 -0.1107
2.7295 -4.9476 -0.1138
2.7208 -4.9159 -0.0970
2.7381 -4.8460 -0.0643
2.7137 -4.8447 -0.0607
2.6150 -4.9533 -0.1028
2.5740 -4.9732 -0.1077
4.5622 -4.4537 -0.1224
4.5641 -4.4829 -0.1382
4.5510 -4.5023 -0.1468
4.4514 -4.5160 -0.1414
4.3802 -4.4868 -0.1167
4.3451 -4.4877 -0.1128
4.3184 -4.4962 -0.1138
4.2846 -4.4978 -0.1104
4.2577 -4.5063 -0.1115
4.2286 -4.5125 -0.1110
4.2042 -4.5241 -0.1141
4.1723 -4.5272 -0.1116
4.1456 -4.5366 -0.1132
4.1181 -4.5452 -0.1143
4.0847 -4.5458 -0.1103
4.0593 -4.5577 -0.1134
4.0231 -4.5534 -0.1064
3.9941 -4.5595 -0.1060
3.8790 -4.5867 -0.1057
3.8510 -4.5955 -0.1068
3.8231 -4.6051 -0.1083
3.7644 -4.6176 -0.1074
3.7358 -4.6264 -0.1085
3.7058 -4.6300 -0.1066
3.6770 -4.6389 -0.1076
3.6182 -4.6514 -0.1067
3.5874 -4.6459 -0.0999
3.5004 -4.6699 -0.1015
3.4712 -4.6798 -0.1030
3.4417 -4.6917 -0.1055
3.4124 -4.6951 -0.1036
3.3824 -4.7080 -0.1066
3.3521 -4.7199 -0.1091
3.3232 -4.7205 -0.1057
3.2936 -4.7268 -0.1052
3.2640 -4.7331 -0.1048
3.2344 -4.7394 -0.1043
3.2033 -4.7515 -0.1068
3.1725 -4.7618 -0.1083
3.1447 -4.7612 -0.1045
3.1141 -4.7705 -0.1055
3.0843 -4.7768 -0.1050
3.0557 -4.7801 -0.1031
3.0260 -4.7864 -0.1027
2.9950 -4.7958 -0.1037
2.9587 -4.8165 -0.1100
2.9286 -4.8229 -0.1096
2.9000 -4.8261 -0.1076
2.8683 -4.8357 -0.1086
2.8382 -4.8421 -0.1082
2.8098 -4.8453 -0.1063
2.7798 -4.8517 -0.1058
2.7523 -4.8538 -0.1035
2.7293 -4.8495 -0.0982
2.6946 -4.8633 -0.1011
2.6595 -4.8772 -0.1040
4.3856 -4.4256 -0.1163
4.3578 -4.4315 -0.1159
4.3326 -4.4396 -0.1171
4.3023 -4.4433 -0.1151
4.2698 -4.4447 -0.1115
4.2330 -4.4415 -0.1047
4.2124 -4.4541 -0.1090
4.1849 -4.4600 -0.1086
4.1594 -4.4681 -0.1098
4.0948 -4.4681 -0.1011
4.0659 -4.4715 -0.0991
4.0439 -4.4844 -0.1034
3.8272 -4.5359 -0.1032
3.7385 -4.5337 -0.0900
3.7157 -4.5541 -0.0984
3.1844 -4.7055 -0.1122
3.0665 -4.7398 -0.1156
3.0365 -4.7489 -0.1167
3.0063 -4.7581 -0.1178
2.9774 -4.7642 -0.1173
2.9499 -4.7673 -0.1154
2.9210 -4.7734 -0.1149
2.8905 -4.7826 -0.1160
2.8651 -4.7825 -0.1125
2.8177 -4.7779 -0.1035
4.4787 -4.4095 -0.1518
4.4278 -4.3984 -0.1379
4.3717 -4.3821 -0.1202
4.3469 -4.3892 -0.1209
4.3185 -4.3934 -0.1194
4.2869 -4.3947 -0.1156
4.2629 -4.4025 -0.1169
4.2325 -4.4044 -0.1137
4.1797 -4.4156 -0.1129
4.1604 -4.4288 -0.1181
4.1039 -4.4363 -0.1145
4.0461 -4.4412 -0.1093
4.0181 -4.4445 -0.1072
3.9729 -4.4668 -0.1141
3.9464 -4.4725 -0.1137
3.9221 -4.4822 -0.1161
3.8906 -4.4788 -0.1096
3.8686 -4.4935 -0.1153
3.8400 -4.4950 -0.1121
3.8162 -4.5074 -0.1161
3.7859 -4.5038 -0.1097
3.7594 -4.5094 -0.1093
3.7329 -4.5151 -0.1089
3.7071 -4.5233 -0.1101
3.6810 -4.5307 -0.1108
3.6539 -4.5346 -0.1093
3.6274 -4.5402 -0.1089
3.6010 -4.5476 -0.1096
3.5747 -4.5560 -0.1109
3.5478 -4.5589 -0.1088
3.5209 -4.5601 -0.1057
3.4945 -4.5703 -0.1080
3.4678 -4.5787 -0.1092
3.4410 -4.5871 -0.1105
3.4146 -4.5872 -0.1068
3.3877 -4.5957 -0.1080
3.3619 -4.5939 -0.1033
3.3361 -4.5948 -0.1002
3.3084 -4.6080 -0.1041
3.2802 -4.6212 -0.1080
3.2534 -4.6269 -0.1076
3.2015 -4.6325 -0.1036
3.1730 -4.6440 -0.1064
3.1452 -4.6527 -0.1076
3.1183 -4.6584 -0.1072
3.0902 -4.6671 -0.1084
3.0624 -4.6748 -0.1091
3.0363 -4.6785 -0.1076
3.0136 -4.6751 -0.1024
2.9854 -4.6839 -0.1036
2.9554 -4.6957 -0.1064
2.9301 -4.6983 -0.1044
2.9032 -4.7040 -0.1040
4.2229 -4.3616 -0.1156
4.1977 -4.3669 -0.1152
4.1725 -4.3723 -0.1149
4.1458 -4.3761 -0.1133
4.1241 -4.3853 -0.1159
4.0955 -4.3868 -0.1126
4.0638 -4.3845 -0.1064
4.0408 -4.3921 -0.1077
4.0158 -4.3974 -0.1073
3.9409 -4.4133 -0.1062
3.8168 -4.4415 -0.1055
3.6408 -4.4744 -0.1000
3.5166 -4.5053 -0.1010
3.4915 -4.5106 -0.1006
3.4165 -4.5265 -0.0994
3.3147 -4.5572 -0.1036
3.1045 -4.6199 -0.1119
3.0765 -4.6304 -0.1143
3.0505 -4.6359 -0.1140
2.9633 -4.6273 -0.0955
2.9545 -4.5677 -0.0564
2.7588 -4.7051 -0.1141
4.3207 -4.3091 -0.1253
4.2963 -4.3143 -0.1249
4.2754 -4.3223 -0.1270
4.2448 -4.3225 -0.1224
4.2145 -4.3227 -0.1177
4.1904 -4.3278 -0.1173
4.1685 -4.3351 -0.1188
4.1420 -4.3381 -0.1166
4.1178 -4.3432 -0.1162
4.0958 -4.3506 -0.1177
4.0715 -4.3557 -0.1173
4.0453 -4.3586 -0.1151
4.0211 -4.3637 -0.1148
3.9987 -4.3712 -0.1162
3.9717 -4.3725 -0.1128
3.9524 -4.3846 -0.1179
3.9234 -4.3827 -0.1121
3.8493 -4.3949 -0.1086
3.8289 -4.4073 -0.1137
3.8036 -4.4100 -0.1115
3.6592 -4.4433 -0.1111
3.6344 -4.4459 -0.1089
3.6106 -4.4536 -0.1104
3.5869 -4.4623 -0.1124
3.5379 -4.4691 -0.1093
3.5137 -4.4760 -0.1101
3.4893 -4.4767 -0.1067
3.4652 -4.4800 -0.1052
3.4410 -4.4852 -0.1048
3.4169 -4.4903 -0.1044
3.3923 -4.5000 -0.1071
3.3676 -4.5088 -0.1091
3.3432 -4.5140 -0.1087
3.3192 -4.5173 -0.1072
3.2935 -4.5291 -0.1110
3.2685 -4.5362 -0.1118
3.2440 -4.5414 -0.1114
3.2214 -4.5399 -0.1069
3.1977 -4.5431 -0.1053
3.1727 -4.5502 -0.1062
3.1472 -4.5583 -0.1076
3.1220 -4.5655 -0.1084
3.0983 -4.5687 -0.1068
3.0730 -4.5759 -0.1076
3.0485 -4.5811 -0.1073
3.0250 -4.5843 -0.1057
3.0005 -4.5895 -0.1054
2.9911 -4.5673 -0.0890
2.9779 -4.5539 -0.0780
2.9682 -4.5363 -0.0647
2.8756 -4.6196 -0.1059
2.8476 -4.6300 -0.1084
2.8229 -4.6353 -0.1081
2.7945 -4.6458 -0.1106
4.1861 -4.2939 -0.1212
4.1628 -4.2989 -0.1208
4.1372 -4.3016 -0.1185
4.1124 -4.3051 -0.1169
4.0849 -4.3056 -0.1127
4.0591 -4.3075 -0.1098
4.0335 -4.3094 -0.1069
4.0082 -4.3112 -0.1041
3.9855 -4.3161 -0.1037
3.9617 -4.3193 -0.1021
3.9402 -4.3257 -0.1030
3.9186 -4.3321 -0.1040
3.8969 -4.3384 -0.1049
3.8722 -4.3401 -0.1020
3.8504 -4.3465 -0.1029
3.8268 -4.3498 -0.1013
3.8042 -4.3546 -0.1010
3.7837 -4.3643 -0.1044
3.7146 -4.3772 -0.1021
3.6913 -4.3803 -0.1005
3.6686 -4.3851 -0.1002
3.6459 -4.3900 -0.0998
3.6235 -4.3965 -0.1008
3.6020 -4.4082 -0.1054
3.5787 -4.4114 -0.1038
3.5560 -4.4180 -0.1047
3.5324 -4.4159 -0.0994
3.5098 -4.4242 -0.1015
3.4869 -4.4255 -0.0987
3.4641 -4.4322 -0.0996
3.4413 -4.4352 -0.0980
3.4179 -4.4491 -0.1039
3.3943 -4.4594 -0.1073
3.3257 -4.4687 -0.1025
3.3042 -4.4661 -0.0972
3.1610 -4.5116 -0.1057
3.1361 -4.5205 -0.1078
3.0018 -4.5392 -0.0989
2.9893 -4.5259 -0.0874
2.9703 -4.5246 -0.0834
2.9428 -4.5375 -0.0880
2.8191 -4.6030 -0.1137
4.2018 -4.2554 -0.1229
4.1759 -4.2573 -0.1199
4.1570 -4.2649 -0.1222
4.1346 -4.2696 -0.1219
4.1091 -4.2715 -0.1189
4.0883 -4.2777 -0.1199
4.0616 -4.2781 -0.1155
4.0394 -4.2828 -0.1152
4.0172 -4.2875 -0.1149
3.9964 -4.2937 -0.1159
3.9710 -4.2947 -0.1122
3.9489 -4.2994 -0.1119
3.9319 -4.3109 -0.1175
3.8416 -4.3283 -0.1148
3.8202 -4.3346 -0.1158
3.7979 -4.3394 -0.1155
3.7091 -4.3600 -0.1155
3.6846 -4.3582 -0.1099
3.6634 -4.3662 -0.1121
3.6195 -4.3790 -0.1141
3.5517 -4.3881 -0.1092
3.5301 -4.3998 -0.1141
3.4851 -4.4041 -0.1095
3.4627 -4.4141 -0.1130
3.4404 -4.4153 -0.1101
3.4181 -4.4201 -0.1098
3.3956 -4.4266 -0.1107
3.3734 -4.4295 -0.1091
3.2628 -4.4495 -0.1048
3.2399 -4.4561 -0.1058
3.2164 -4.4647 -0.1080
3.1940 -4.4694 -0.1077
3.1716 -4.4742 -0.1073
3.1508 -4.4751 -0.1044
3.1268 -4.4837 -0.1067
3.1017 -4.4943 -0.1102
3.0782 -4.5011 -0.1112
3.0566 -4.5039 -0.1095
3.0319 -4.5127 -0.1118
3.0104 -4.5155 -0.1101
2.9901 -4.5163 -0.1072
2.9676 -4.5210 -0.1069
2.9451 -4.5258 -0.1065
2.9213 -4.5326 -0.1075
2.8987 -4.5374 -0.1071
2.8761 -4.5422 -0.1068
2.8536 -4.5470 -0.1065
4.1629 -4.2210 -0.1159
4.1400 -4.2241 -0.1142
4.1171 -4.2272 -0.1125
4.1016 -4.2366 -0.1170
4.0803 -4.2412 -0.1167
4.0575 -4.2443 -0.1150
4.0311 -4.2437 -0.1098
4.0101 -4.2482 -0.1095
3.9903 -4.2542 -0.1106
3.9660 -4.2550 -0.1068
3.9468 -4.2616 -0.1085
3.9257 -4.2661 -0.1082
3.9013 -4.2661 -0.1038
3.8830 -4.2743 -0.1069
3.8610 -4.2773 -0.1052
3.8414 -4.2840 -0.1070
3.8212 -4.2901 -0.1080
3.7988 -4.2922 -0.1056
3.7790 -4.2990 -0.1074
3.7560 -4.2996 -0.1036
3.7340 -4.3016 -0.1012
3.7146 -4.3101 -0.1044
3.6936 -4.3146 -0.1040
3.6720 -4.3174 -0.1023
3.6510 -4.3219 -0.1020
3.6306 -4.3288 -0.1038
3.5883 -4.3369 -0.1024
3.5458 -4.3424 -0.0991
3.5250 -4.3486 -0.1001
3.5040 -4.3531 -0.0998
3.4830 -4.3602 -0.1015
3.4619 -4.3664 -0.1026
3.4407 -4.3726 -0.1036
3.3758 -4.3961 -0.1101
3.3552 -4.3952 -0.1057
3.3344 -4.3970 -0.1034
3.2903 -4.4125 -0.1075
3.2712 -4.4087 -0.1011
3.2512 -4.4094 -0.0980
3.2301 -4.4139 -0.0977
3.2052 -4.4288 -0.1048
3.1820 -4.4381 -0.1079
3.1605 -4.4427 -0.1076
3.1381 -4.4492 -0.1086
3.0010 -4.4897 -0.1154
2.9558 -4.5010 -0.1160
3.9550 -4.2388 -0.1168
3.9356 -4.2446 -0.1179
3.9179 -4.2527 -0.1212
3.8530 -4.2622 -0.1167
3.8314 -4.2650 -0.1149
3.8086 -4.2655 -0.1111
3.4815 -4.3437 -0.1132
3.4607 -4.3498 -0.1143
3.4401 -4.3507 -0.1112
3.3775 -4.3684 -0.1137
3.3567 -4.3728 -0.1134
3.3364 -4.3745 -0.1110
3.3157 -4.3789 -0.1107
3.2729 -4.3923 -0.1136
3.2526 -4.3949 -0.1119
3.2334 -4.3946 -0.1080
3.2128 -4.3990 -0.1077
3.1921 -4.4034 -0.1074
3.1714 -4.4078 -0.1071
3.1499 -4.4141 -0.1082
3.1292 -4.4185 -0.1079
3.1084 -4.4229 -0.1076
3.0862 -4.4302 -0.1093
3.0643 -4.4366 -0.1104
3.0406 -4.4460 -0.1136
3.0238 -4.4435 -0.1084
2.9999 -4.4529 -0.1116
2.9828 -4.4513 -0.1071
2.9614 -4.4568 -0.1075
2.9391 -4.4632 -0.1085
2.9183 -4.4676 -0.1082
2.8959 -4.4741 -0.1093
4.1834 -4.1521 -0.1127
4.1629 -4.1556 -0.1117
4.1462 -4.1618 -0.1136
4.1248 -4.1646 -0.1118
4.1052 -4.1687 -0.1115
4.0823 -4.1702 -0.1082
4.0490 -4.1833 -0.1129
4.0263 -4.1847 -0.1096
4.0112 -4.1930 -0.1138
3.9916 -4.1972 -0.1135
3.9726 -4.2021 -0.1139
3.9549 -4.2084 -0.1159
3.9293 -4.2061 -0.1089
3.9116 -4.2125 -0.1108
3.8949 -4.2203 -0.1142
3.8735 -4.2223 -0.1117
3.8527 -4.2250 -0.1099
3.8326 -4.2284 -0.1089
3.8130 -4.2325 -0.1086
3.7952 -4.2398 -0.1113
3.7755 -4.2440 -0.1110
3.7554 -4.2474 -0.1099
3.7328 -4.2453 -0.1037
3.7163 -4.2565 -0.1101
3.6963 -4.2599 -0.1090
3.6752 -4.2601 -0.1050
3.6554 -4.2634 -0.1040
3.6359 -4.2676 -0.1037
3.6160 -4.2701 -0.1019
3.5970 -4.2767 -0.1039
3.5783 -4.2858 -0.1080
3.5578 -4.2842 -0.1025
3.5380 -4.2858 -0.1000
3.5190 -4.2950 -0.1041
3.4993 -4.2975 -0.1024
3.4798 -4.3042 -0.1043
3.4601 -4.3101 -0.1055
3.4404 -4.3151 -0.1059
3.4209 -4.3167 -0.1034
3.4010 -4.3226 -0.1046
3.3820 -4.3224 -0.1006
3.3617 -4.3310 -0.1040
3.3429 -4.3307 -0.1000
3.3234 -4.3348 -0.0997
3.3038 -4.3390 -0.0994
3.2829 -4.3477 -0.1028
3.2615 -4.3574 -0.1069
3.2416 -4.3617 -0.1066
3.2190 -4.3733 -0.1121
3.1997 -4.3757 -0.1104
3.1821 -4.3743 -0.1057
3.1614 -4.3804 -0.1068
3.1387 -4.3904 -0.1109
3.0802 -4.4003 -0.1078
3.0619 -4.4016 -0.1053
3.0378 -4.4127 -0.1101
3.0183 -4.4160 -0.1091
4.0064 -4.1633 -0.1103
3.8440 -4.2097 -0.1186
3.7423 -4.2194 -0.1064
3.7267 -4.2304 -0.1130
3.7073 -4.2336 -0.1119
3.6700 -4.2441 -0.1136
3.6307 -4.2491 -0.1100
