ply
format ascii 1.0
element vertex 2104
property float x
property float y
property float z
end_header
3.6796 -2.8304 -0.2575
3.6636 -2.8283 -0.2568
3.6475 -2.8258 -0.2542
3.6364 -2.8255 -0.2592
3.6221 -2.8233 -0.2574
3.6092 -2.8217 -0.2571
3.5994 -2.8214 -0.2618
3.5848 -2.8184 -0.2558
3.5733 -2.8168 -0.2548
3.5531 -2.8146 -0.2562
3.5433 -2.8134 -0.2562
7.8287 -2.9093 1.3124
7.5585 -2.9104 1.1727
7.8957 -2.9635 1.0679
7.9539 -2.9850 0.9866
7.1943 -2.9644 0.7158
5.5084 -2.8552 0.4396
6.0189 -2.9094 0.4149
6.7039 -2.9843 0.3704
7.6321 -3.1087 0.1932
7.1407 -3.0767 0.1139
7.5425 -3.1806 -0.2196
7.4944 -3.1960 -0.3221
6.6854 -3.1119 -0.2921
5.8782 -3.0199 -0.2210
5.8293 -3.0269 -0.2810
5.4801 -2.9894 -0.2625
5.2659 -2.9690 -0.2640
4.9587 -2.9415 -0.2750
4.7012 -2.9162 -0.2733
4.6156 -2.9094 -0.2809
4.4915 -2.8944 -0.2655
4.4214 -2.8885 -0.2702
4.3441 -2.8804 -0.2671
4.2839 -2.8751 -0.2694
4.2072 -2.8654 -0.2579
4.1640 -2.8623 -0.2637
4.1151 -2.8575 -0.2629
4.0680 -2.8525 -0.2605
4.0204 -2.8467 -0.2547
3.9834 -2.8431 -0.2543
3.9533 -2.8408 -0.2577
3.8973 -2.8364 -0.2628
3.8610 -2.8311 -0.2540
3.8349 -2.8285 -0.2535
3.8159 -2.8278 -0.2591
3.7909 -2.8248 -0.2564
3.7494 -2.8208 -0.2563
3.7313 -2.8193 -0.2575
3.7142 -2.8179 -0.2588
3.6831 -2.8155 -0.2622
3.6665 -2.8136 -0.2603
3.6490 -2.8109 -0.2556
3.6235 -2.8091 -0.2585
3.6129 -2.8088 -0.2625
3.5980 -2.8063 -0.2570
3.5856 -2.8048 -0.2554
3.5730 -2.8029 -0.2519
3.5649 -2.8032 -0.2575
3.5549 -2.8023 -0.2579
3.5451 -2.8013 -0.2578
7.8857 -2.7817 1.4615
8.2635 -2.8069 1.4701
8.3333 -2.8254 1.3956
7.9091 -2.8439 1.1305
7.9155 -2.8603 1.0432
7.7696 -2.8704 0.9319
7.8247 -2.8893 0.8495
7.6808 -2.8987 0.7426
7.2805 -3.0447 -0.2097
7.0298 -3.0387 -0.2740
5.7520 -2.9486 -0.2761
5.4100 -2.9205 -0.2552
5.0964 -2.9024 -0.2773
4.9591 -2.8937 -0.2832
4.7025 -2.8750 -0.2803
4.5910 -2.8663 -0.2758
4.4766 -2.8559 -0.2634
4.4163 -2.8532 -0.2723
4.3466 -2.8484 -0.2727
4.2654 -2.8407 -0.2623
4.2125 -2.8374 -0.2646
4.1524 -2.8321 -0.2589
4.1117 -2.8300 -0.2633
4.0630 -2.8258 -0.2591
4.0209 -2.8225 -0.2571
3.9829 -2.8195 -0.2558
3.9528 -2.8180 -0.2588
3.9233 -2.8162 -0.2606
3.8899 -2.8131 -0.2566
3.8173 -2.8088 -0.2611
3.7936 -2.8069 -0.2599
3.7505 -2.8034 -0.2576
3.7180 -2.8022 -0.2636
3.6796 -2.7981 -0.2559
3.6530 -2.7971 -0.2611
3.6250 -2.7949 -0.2596
3.6126 -2.7941 -0.2602
3.5999 -2.7930 -0.2590
3.5864 -2.7913 -0.2549
3.5759 -2.7908 -0.2561
3.5662 -2.7904 -0.2580
3.5546 -2.7890 -0.2545
7.8088 -2.6838 1.4142
7.9286 -2.7419 1.1061
7.7362 -2.7535 0.9872
8.0020 -2.7902 0.8433
5.8195 -2.7528 0.4838
7.5845 -2.9620 -0.2720
7.1693 -2.9508 -0.3163
5.6487 -2.8730 -0.2640
5.4210 -2.8635 -0.2689
5.0587 -2.8479 -0.2738
4.7992 -2.8373 -0.2801
4.5533 -2.8234 -0.2643
4.4065 -2.8181 -0.2718
4.3253 -2.8132 -0.2650
4.2615 -2.8101 -0.2637
4.2154 -2.8090 -0.2697
4.1600 -2.8061 -0.2670
4.1033 -2.8023 -0.2599
4.0578 -2.7998 -0.2575
4.0383 -2.8016 -0.2729
3.9856 -2.7969 -0.2598
3.9554 -2.7961 -0.2626
3.9196 -2.7937 -0.2584
3.8647 -2.7914 -0.2595
3.8157 -2.7892 -0.2597
3.7984 -2.7895 -0.2658
3.7702 -2.7868 -0.2573
3.7335 -2.7855 -0.2598
3.6923 -2.7820 -0.2503
3.6812 -2.7828 -0.2575
3.6671 -2.7824 -0.2592
3.6508 -2.7812 -0.2561
3.6378 -2.7808 -0.2576
3.6252 -2.7804 -0.2585
3.6105 -2.7790 -0.2544
3.5990 -2.7787 -0.2553
3.5888 -2.7787 -0.2579
3.5783 -2.7784 -0.2590
3.5675 -2.7778 -0.2585
3.5563 -2.7769 -0.2561
3.5475 -2.7768 -0.2583
7.8947 -2.5255 1.7931
7.5774 -2.6824 0.7681
6.3098 -2.6891 0.5657
6.0366 -2.6965 0.4844
5.9368 -2.7045 0.4218
6.0368 -2.7151 0.3678
6.7712 -2.7639 0.1538
7.5477 -2.8005 0.0225
7.2324 -2.8370 -0.2466
6.8446 -2.8351 -0.2838
6.1035 -2.8245 -0.3107
5.4841 -2.8001 -0.2357
5.3565 -2.8017 -0.2620
5.0767 -2.8003 -0.2883
4.9129 -2.7960 -0.2822
4.7865 -2.7934 -0.2820
4.6544 -2.7893 -0.2725
4.5501 -2.7865 -0.2683
4.4680 -2.7850 -0.2692
4.4056 -2.7848 -0.2758
4.3046 -2.7798 -0.2574
4.2644 -2.7808 -0.2690
4.2017 -2.7788 -0.2643
4.1532 -2.7780 -0.2653
4.0607 -2.7756 -0.2620
3.9867 -2.7742 -0.2624
3.9580 -2.7743 -0.2664
3.9181 -2.7722 -0.2583
3.8684 -2.7721 -0.2641
3.8096 -2.7692 -0.2534
3.7713 -2.7693 -0.2587
3.7506 -2.7687 -0.2575
3.7311 -2.7681 -0.2563
3.7140 -2.7678 -0.2570
3.6992 -2.7680 -0.2598
3.6834 -2.7677 -0.2601
3.6692 -2.7677 -0.2617
3.6522 -2.7667 -0.2574
3.6399 -2.7668 -0.2598
3.6254 -2.7661 -0.2574
3.6130 -2.7659 -0.2575
3.6014 -2.7658 -0.2583
3.5907 -2.7658 -0.2598
3.5774 -2.7648 -0.2548
3.5671 -2.7646 -0.2552
3.5576 -2.7646 -0.2565
3.5477 -2.7643 -0.2560
7.7192 -2.5329 1.0991
7.6771 -2.5463 1.0094
7.3821 -2.5781 0.8034
6.8536 -2.6008 0.6665
6.5131 -2.6173 0.5655
6.4264 -2.6684 0.2219
6.6075 -2.6793 0.1419
6.7658 -2.7292 -0.2008
6.7931 -2.7428 -0.2940
6.1964 -2.7419 -0.2685
5.9115 -2.7452 -0.2824
5.5365 -2.7437 -0.2599
5.3790 -2.7472 -0.2785
5.0588 -2.7505 -0.2908
4.8906 -2.7499 -0.2816
4.7555 -2.7498 -0.2765
4.6346 -2.7494 -0.2700
4.5338 -2.7493 -0.2662
4.4452 -2.7492 -0.2628
4.3856 -2.7505 -0.2697
4.3174 -2.7507 -0.2685
4.2471 -2.7501 -0.2622
4.1896 -2.7500 -0.2598
4.1488 -2.7510 -0.2652
4.0978 -2.7506 -0.2610
4.0487 -2.7499 -0.2551
4.0072 -2.7497 -0.2522
3.9861 -2.7515 -0.2636
3.9509 -2.7514 -0.2617
3.9220 -2.7517 -0.2632
3.8675 -2.7521 -0.2641
3.8101 -2.7509 -0.2543
3.7915 -2.7516 -0.2580
3.7689 -2.7513 -0.2557
3.7376 -2.7528 -0.2647
3.6941 -2.7511 -0.2517
3.6675 -2.7521 -0.2579
3.6536 -2.7523 -0.2587
3.6388 -2.7521 -0.2567
3.6161 -2.7530 -0.2618
3.6027 -2.7526 -0.2591
3.5937 -2.7534 -0.2640
3.5803 -2.7527 -0.2589
3.5677 -2.7521 -0.2544
3.5577 -2.7521 -0.2542
3.5504 -2.7530 -0.2601
7.6930 -2.4396 1.0683
7.7887 -2.4459 1.0012
7.7931 -2.4574 0.9161
6.4842 -2.5374 0.6089
5.9020 -2.5766 0.4449
6.5327 -2.5719 0.3445
6.2066 -2.5997 0.2107
6.5940 -2.6001 0.1243
6.7358 -2.6079 0.0367
7.0711 -2.6264 -0.1706
6.8155 -2.6415 -0.2266
6.1640 -2.6673 -0.2770
5.5063 -2.6846 -0.2634
5.3656 -2.6916 -0.2849
5.1762 -2.6971 -0.2846
5.0073 -2.7016 -0.2815
4.8633 -2.7054 -0.2788
4.7203 -2.7082 -0.2688
4.6050 -2.7108 -0.2630
4.5312 -2.7139 -0.2702
4.4479 -2.7162 -0.2688
4.3735 -2.7182 -0.2675
4.3133 -2.7203 -0.2701
4.2578 -2.7222 -0.2722
4.1869 -2.7227 -0.2612
4.1331 -2.7238 -0.2573
4.0490 -2.7263 -0.2576
3.9805 -2.7287 -0.2607
3.9462 -2.7294 -0.2589
3.9236 -2.7310 -0.2659
3.8905 -2.7314 -0.2614
3.8566 -2.7313 -0.2537
3.7918 -2.7339 -0.2587
3.7771 -2.7353 -0.2660
3.7499 -2.7348 -0.2563
3.7316 -2.7353 -0.2564
3.7145 -2.7359 -0.2567
3.7024 -2.7371 -0.2632
3.6651 -2.7368 -0.2530
3.6519 -2.7374 -0.2546
3.6383 -2.7378 -0.2545
3.6287 -2.7389 -0.2604
3.6144 -2.7388 -0.2570
3.6022 -2.7391 -0.2563
3.5909 -2.7394 -0.2563
3.5820 -2.7403 -0.2607
3.5695 -2.7400 -0.2560
3.5505 -2.7408 -0.2577
7.5371 -2.3579 1.0157
7.5808 -2.3647 0.9432
7.5400 -2.3777 0.8562
6.9508 -2.4277 0.7067
6.4488 -2.4694 0.5873
6.6221 -2.5017 0.2545
6.2198 -2.5306 0.1942
6.5001 -2.5260 0.1115
6.7826 -2.5231 0.0142
6.7456 -2.5350 -0.0649
6.7085 -2.5468 -0.1439
6.7994 -2.5543 -0.2427
6.6343 -2.5705 -0.3020
6.1114 -2.5957 -0.2809
5.7572 -2.6136 -0.2730
5.4898 -2.6274 -0.2701
5.3519 -2.6374 -0.2911
5.1758 -2.6471 -0.2934
4.9660 -2.6560 -0.2752
4.8423 -2.6629 -0.2780
4.7106 -2.6691 -0.2712
4.6016 -2.6744 -0.2672
4.5285 -2.6791 -0.2742
4.4579 -2.6834 -0.2785
4.3658 -2.6870 -0.2676
4.3028 -2.6903 -0.2679
4.2437 -2.6934 -0.2670
4.1771 -2.6958 -0.2579
4.1449 -2.6988 -0.2681
4.0910 -2.7008 -0.2611
4.0191 -2.7052 -0.2656
3.9798 -2.7068 -0.2617
3.9502 -2.7086 -0.2639
3.9132 -2.7098 -0.2574
3.8904 -2.7116 -0.2622
3.8330 -2.7138 -0.2552
3.7937 -2.7166 -0.2611
3.7515 -2.7185 -0.2583
3.7354 -2.7197 -0.2611
3.7167 -2.7205 -0.2594
3.6998 -2.7213 -0.2588
3.6866 -2.7225 -0.2626
3.6678 -2.7227 -0.2564
3.6526 -2.7233 -0.2547
3.6403 -2.7242 -0.2566
3.6276 -2.7249 -0.2569
3.6139 -2.7253 -0.2544
3.6041 -2.7263 -0.2582
3.5915 -2.7267 -0.2557
3.5815 -2.7274 -0.2575
3.5695 -2.7276 -0.2539
3.5611 -2.7285 -0.2573
3.5527 -2.7293 -0.2604
7.5545 -2.2670 0.9939
7.6877 -2.2636 0.9340
7.5161 -2.2888 0.8286
7.1324 -2.3324 0.7053
6.3926 -2.4053 0.5643
6.3080 -2.4485 0.2416
6.2998 -2.4568 0.1749
6.5148 -2.4495 0.0932
6.7988 -2.4389 -0.0060
6.7935 -2.4487 -0.0886
6.8211 -2.4567 -0.1771
6.3973 -2.5004 -0.2753
6.0612 -2.5274 -0.2846
5.4229 -2.5741 -0.2631
5.0984 -2.6007 -0.2774
4.8230 -2.6219 -0.2777
4.7180 -2.6303 -0.2805
4.5885 -2.6387 -0.2670
4.5003 -2.6454 -0.2659
4.4363 -2.6511 -0.2722
4.2839 -2.6615 -0.2607
4.1918 -2.6697 -0.2704
4.0759 -2.6766 -0.2525
4.0184 -2.6826 -0.2669
3.9387 -2.6874 -0.2551
3.8917 -2.6921 -0.2645
3.8553 -2.6937 -0.2539
3.8296 -2.6955 -0.2521
3.8120 -2.6975 -0.2577
3.7984 -2.6996 -0.2670
3.7503 -2.7021 -0.2566
3.7141 -2.7047 -0.2552
3.7007 -2.7062 -0.2594
3.6861 -2.7075 -0.2610
3.6507 -2.7091 -0.2504
3.6416 -2.7106 -0.2576
3.6276 -2.7114 -0.2556
3.6188 -2.7128 -0.2621
3.6041 -2.7133 -0.2565
3.5927 -2.7142 -0.2563
3.5821 -2.7151 -0.2567
3.5605 -2.7164 -0.2537
3.5544 -2.7178 -0.2619
7.7388 -2.1401 1.1598
7.6572 -2.1662 0.9857
7.5320 -2.1889 0.8868
6.4757 -2.3292 0.5537
6.7889 -2.3023 0.5093
6.3215 -2.3785 0.2248
6.4087 -2.3770 0.1537
6.5295 -2.3730 0.0748
6.5214 -2.3814 0.0007
6.4104 -2.3991 -0.0628
6.5634 -2.3936 -0.1595
6.7037 -2.3902 -0.2633
6.3856 -2.4248 -0.2889
6.0747 -2.4573 -0.3014
5.0803 -2.5549 -0.2799
4.8044 -2.5824 -0.2773
4.7022 -2.5929 -0.2801
4.6058 -2.6026 -0.2802
4.5020 -2.6121 -0.2716
4.4238 -2.6199 -0.2703
4.2866 -2.6332 -0.2660
4.2220 -2.6391 -0.2603
4.1827 -2.6438 -0.2675
4.0942 -2.6527 -0.2682
4.0227 -2.6603 -0.2723
3.9748 -2.6640 -0.2607
3.9410 -2.6671 -0.2585
3.9096 -2.6701 -0.2563
3.8843 -2.6728 -0.2582
3.8353 -2.6778 -0.2588
3.8100 -2.6800 -0.2558
3.7973 -2.6823 -0.2658
3.7699 -2.6842 -0.2573
3.7454 -2.6859 -0.2502
3.7184 -2.6897 -0.2608
3.6828 -2.6927 -0.2551
3.6572 -2.6958 -0.2602
3.6435 -2.6971 -0.2597
3.6320 -2.6985 -0.2621
3.6170 -2.6995 -0.2570
3.6047 -2.7006 -0.2560
3.5821 -2.7028 -0.2546
3.5723 -2.7039 -0.2557
3.5627 -2.7049 -0.2564
7.7063 -2.0403 1.2818
6.3805 -2.2677 0.5891
6.2238 -2.2938 0.5165
6.2783 -2.2921 0.4609
6.5637 -2.2742 0.2725
6.5055 -2.2878 0.2031
6.3976 -2.3071 0.1375
6.5230 -2.3199 -0.1705
6.7513 -2.3026 -0.2889
6.4271 -2.3448 -0.3126
6.0067 -2.3956 -0.3001
5.6796 -2.4351 -0.2903
5.3944 -2.4690 -0.2758
4.7499 -2.5474 -0.2627
4.6646 -2.5586 -0.2703
4.5829 -2.5692 -0.2753
4.4913 -2.5801 -0.2713
4.4148 -2.5895 -0.2701
4.3389 -2.5984 -0.2651
4.2829 -2.6055 -0.2674
4.2190 -2.6129 -0.2617
4.1707 -2.6189 -0.2626
4.1260 -2.6245 -0.2632
4.0814 -2.6298 -0.2612
4.0471 -2.6344 -0.2646
4.0101 -2.6389 -0.2639
3.9755 -2.6430 -0.2629
3.9092 -2.6507 -0.2572
3.8584 -2.6571 -0.2586
3.8141 -2.6628 -0.2608
3.7923 -2.6654 -0.2601
3.7657 -2.6680 -0.2520
3.7499 -2.6703 -0.2558
3.7308 -2.6725 -0.2541
3.7157 -2.6745 -0.2565
3.7001 -2.6765 -0.2573
3.6862 -2.6785 -0.2596
3.6686 -2.6802 -0.2549
3.6553 -2.6819 -0.2558
3.6416 -2.6836 -0.2551
3.6288 -2.6851 -0.2550
3.6182 -2.6867 -0.2578
3.6053 -2.6881 -0.2554
3.5968 -2.6896 -0.2609
3.5868 -2.6910 -0.2625
3.5644 -2.6934 -0.2579
7.6804 -1.9574 1.2508
7.3670 -2.0642 0.4999
7.2110 -2.1008 0.3303
6.7999 -2.1735 0.1759
6.9546 -2.1579 0.0896
7.0897 -2.1528 -0.0914
7.2822 -2.1339 -0.2051
6.5655 -2.2378 -0.1935
6.3152 -2.2835 -0.3058
5.9995 -2.3302 -0.3119
4.4612 -2.5511 -0.2615
4.3445 -2.5690 -0.2721
4.2745 -2.5788 -0.2660
4.2295 -2.5858 -0.2715
4.1657 -2.5944 -0.2621
4.1263 -2.6005 -0.2659
4.0359 -2.6130 -0.2580
4.0092 -2.6175 -0.2649
3.9678 -2.6230 -0.2579
3.9040 -2.6320 -0.2534
3.8500 -2.6396 -0.2507
3.8383 -2.6424 -0.2632
3.7932 -2.6488 -0.2614
3.7755 -2.6516 -0.2641
3.7449 -2.6549 -0.2491
3.7323 -2.6573 -0.2558
3.7171 -2.6597 -0.2581
3.7008 -2.6620 -0.2578
3.6869 -2.6642 -0.2599
3.6732 -2.6664 -0.2614
3.6565 -2.6684 -0.2569
3.6454 -2.6704 -0.2606
3.6300 -2.6722 -0.2558
3.6206 -2.6740 -0.2608
3.6064 -2.6757 -0.2560
3.5843 -2.6789 -0.2554
3.5762 -2.6804 -0.2601
3.5666 -2.6819 -0.2606
7.2688 -1.9885 0.5527
7.1943 -2.0069 0.4697
7.0859 -2.0310 0.3874
7.3846 -1.9861 0.3097
7.5110 -1.9711 0.2206
7.4689 -1.9845 0.1309
7.1482 -2.0437 0.0583
7.3847 -2.0114 -0.0486
7.3426 -2.0248 -0.1383
7.1421 -2.0635 -0.2073
6.7584 -2.1306 -0.2401
6.4388 -2.1865 -0.2675
6.2118 -2.2270 -0.2995
5.5982 -2.3301 -0.2923
4.8596 -2.4534 -0.2737
4.6472 -2.4893 -0.2745
4.2136 -2.5617 -0.2647
4.1122 -2.5784 -0.2586
4.0436 -2.5905 -0.2660
3.9709 -2.6025 -0.2621
3.9052 -2.6131 -0.2556
3.8550 -2.6217 -0.2566
3.8153 -2.6288 -0.2629
3.7903 -2.6327 -0.2582
3.7688 -2.6362 -0.2560
3.7360 -2.6420 -0.2604
3.7164 -2.6451 -0.2567
3.7015 -2.6477 -0.2582
3.6725 -2.6527 -0.2593
3.6591 -2.6550 -0.2601
3.6466 -2.6572 -0.2615
3.6325 -2.6594 -0.2589
3.6192 -2.6615 -0.2568
3.6069 -2.6634 -0.2553
3.5979 -2.6653 -0.2594
3.5866 -2.6671 -0.2582
3.5756 -2.6688 -0.2565
3.5570 -2.6721 -0.2582
7.6190 -1.8585 0.1957
7.1672 -1.9491 0.1222
7.2810 -1.9330 0.0292
7.1639 -1.9601 -0.0501
7.2794 -1.9442 -0.1521
7.1978 -1.9648 -0.2345
7.0084 -2.0047 -0.2977
6.0758 -2.1820 -0.2852
5.7570 -2.2426 -0.2809
5.5392 -2.2846 -0.2877
4.8745 -2.4114 -0.2861
4.6492 -2.4541 -0.2810
4.4773 -2.4867 -0.2787
4.3152 -2.5168 -0.2634
4.2241 -2.5348 -0.2744
4.1248 -2.5535 -0.2700
4.0287 -2.5710 -0.2564
3.9985 -2.5770 -0.2597
3.9655 -2.5833 -0.2589
3.9080 -2.5942 -0.2594
3.8584 -2.6038 -0.2609
3.8300 -2.6089 -0.2553
3.8131 -2.6124 -0.2609
3.7896 -2.6167 -0.2576
3.7674 -2.6208 -0.2542
3.7508 -2.6241 -0.2565
3.7352 -2.6272 -0.2592
3.7071 -2.6330 -0.2658
3.6868 -2.6364 -0.2582
3.6690 -2.6395 -0.2529
3.6570 -2.6419 -0.2556
3.6479 -2.6441 -0.2624
3.6216 -2.6489 -0.2598
3.5984 -2.6533 -0.2586
3.5901 -2.6552 -0.2635
3.5766 -2.6573 -0.2567
3.5597 -2.6609 -0.2622
7.5477 -1.7798 0.1748
7.2217 -1.8530 0.0992
7.2591 -1.8495 0.0100
7.3800 -1.8288 -0.0905
7.1791 -1.8750 -0.1606
7.1773 -1.8799 -0.2513
5.7363 -2.1883 -0.2876
5.4592 -2.2467 -0.2769
4.2107 -2.5119 -0.2690
4.0762 -2.5404 -0.2664
3.9991 -2.5566 -0.2619
3.9083 -2.5758 -0.2608
3.8771 -2.5822 -0.2557
3.8538 -2.5872 -0.2568
3.8164 -2.5956 -0.2649
3.7920 -2.6006 -0.2606
3.7689 -2.6053 -0.2561
3.7330 -2.6129 -0.2559
3.7206 -2.6158 -0.2617
3.7027 -2.6195 -0.2588
3.6709 -2.6260 -0.2550
3.6609 -2.6285 -0.2610
3.6464 -2.6314 -0.2587
3.6202 -2.6369 -0.2556
3.6007 -2.6413 -0.2615
3.5881 -2.6438 -0.2575
3.5782 -2.6459 -0.2581
7.5134 -1.6761 0.6634
7.4342 -1.6981 0.5770
7.4758 -1.6915 0.4981
7.5183 -1.6849 0.4160
7.5628 -1.6778 0.3306
7.3966 -1.7202 0.2442
7.3970 -1.7236 0.1575
7.4815 -1.7075 0.0644
7.3559 -1.7402 -0.0179
7.2365 -1.7713 -0.0971
5.7804 -2.1210 -0.3100
4.7000 -2.3727 -0.2733
4.5166 -2.4155 -0.2701
4.4358 -2.4343 -0.2669
4.3770 -2.4482 -0.2712
4.1492 -2.5013 -0.2621
4.0317 -2.5288 -0.2626
3.9961 -2.5371 -0.2612
3.8994 -2.5594 -0.2534
3.8798 -2.5643 -0.2592
3.8539 -2.5703 -0.2576
3.8278 -2.5762 -0.2540
3.8093 -2.5807 -0.2573
3.7873 -2.5858 -0.2553
3.7696 -2.5900 -0.2570
3.7537 -2.5938 -0.2600
3.7343 -2.5983 -0.2574
3.7198 -2.6018 -0.2601
3.7033 -2.6056 -0.2591
3.6872 -2.6093 -0.2574
3.6707 -2.6130 -0.2539
3.6560 -2.6164 -0.2519
3.6462 -2.6189 -0.2572
3.6313 -2.6222 -0.2529
3.6232 -2.6244 -0.2598
3.5980 -2.6301 -0.2544
3.5897 -2.6322 -0.2590
3.5780 -2.6348 -0.2557
3.5695 -2.6369 -0.2584
3.5617 -2.6389 -0.2622
7.5340 -1.5910 0.4783
7.6220 -1.5710 0.3960
7.4955 -1.6060 0.3078
7.3343 -1.6496 0.2237
7.2198 -1.6813 0.1430
7.3742 -1.6447 0.0493
7.4158 -1.6368 -0.0436
7.3328 -1.6605 -0.1272
7.2920 -1.6736 -0.2142
5.6679 -2.0910 -0.2935
4.9297 -2.2793 -0.2820
4.6856 -2.3414 -0.2731
4.5581 -2.3735 -0.2569
4.3623 -2.4239 -0.2672
4.2480 -2.4531 -0.2669
4.1473 -2.4787 -0.2635
4.0669 -2.4993 -0.2638
4.0261 -2.5096 -0.2600
3.9966 -2.5172 -0.2632
3.9702 -2.5241 -0.2675
3.9350 -2.5329 -0.2622
3.9030 -2.5410 -0.2578
3.8708 -2.5490 -0.2512
3.8327 -2.5590 -0.2598
3.7927 -2.5693 -0.2619
3.7687 -2.5752 -0.2560
3.7490 -2.5802 -0.2539
3.7196 -2.5879 -0.2595
3.6899 -2.5955 -0.2607
3.6592 -2.6032 -0.2561
3.6466 -2.6064 -0.2568
3.6357 -2.6093 -0.2594
3.6191 -2.6133 -0.2507
3.6105 -2.6156 -0.2560
3.6015 -2.6181 -0.2597
3.5907 -2.6208 -0.2593
3.5802 -2.6235 -0.2584
3.5716 -2.6257 -0.2611
7.3900 -1.5433 0.5301
7.3905 -1.5447 0.4503
7.5115 -1.5129 0.3712
7.3907 -1.5480 0.2860
7.3127 -1.5712 0.2033
7.3914 -1.5512 0.1152
7.6058 -1.4940 0.0133
6.4928 -1.8076 -0.2778
5.7973 -1.9999 -0.2745
5.5269 -2.0745 -0.2685
5.3159 -2.1329 -0.2665
5.1560 -2.1771 -0.2703
4.9240 -2.2416 -0.2870
4.6761 -2.3099 -0.2748
4.5000 -2.3586 -0.2716
4.4219 -2.3801 -0.2684
4.2425 -2.4297 -0.2668
4.1822 -2.4462 -0.2595
4.1047 -2.4678 -0.2654
4.0657 -2.4785 -0.2650
3.9979 -2.4973 -0.2660
3.9249 -2.5173 -0.2543
3.8834 -2.5290 -0.2646
3.8582 -2.5359 -0.2634
3.8351 -2.5423 -0.2630
3.7864 -2.5556 -0.2545
3.7701 -2.5601 -0.2578
3.7534 -2.5648 -0.2595
3.7180 -2.5745 -0.2568
3.6846 -2.5837 -0.2521
3.6716 -2.5873 -0.2536
3.6617 -2.5902 -0.2592
3.6491 -2.5936 -0.2599
3.6334 -2.5979 -0.2541
3.6234 -2.6007 -0.2573
3.6122 -2.6038 -0.2576
3.5905 -2.6098 -0.2569
3.5799 -2.6127 -0.2559
3.5720 -2.6150 -0.2598
3.5636 -2.6173 -0.2620
6.9661 -1.3774 0.8170
6.8692 -1.4108 0.6688
6.7404 -1.4547 0.4518
6.8523 -1.4104 0.3843
7.1450 -1.2970 0.3115
7.2169 -1.2677 0.2283
7.3741 -1.2055 0.1370
7.2534 -1.2496 0.0538
7.0642 -1.3199 -0.0198
7.1353 -1.2905 -0.1146
7.1334 -1.2891 -0.2049
7.0200 -1.3306 -0.2797
5.5474 -1.8921 -0.2768
5.2751 -1.9963 -0.2587
5.1273 -2.0525 -0.2659
4.2594 -2.3838 -0.2508
4.2133 -2.4012 -0.2539
4.1300 -2.4329 -0.2589
4.0344 -2.4697 -0.2447
4.0097 -2.4789 -0.2522
3.9780 -2.4910 -0.2522
3.8262 -2.5489 -0.2529
3.8038 -2.5574 -0.2505
3.7893 -2.5628 -0.2565
3.7685 -2.5709 -0.2533
3.7488 -2.5784 -0.2502
3.7338 -2.5841 -0.2522
3.7190 -2.5897 -0.2536
3.7046 -2.5952 -0.2543
3.6884 -2.6014 -0.2513
3.6778 -2.6053 -0.2563
3.6629 -2.6111 -0.2530
3.6365 -2.6213 -0.2491
3.6262 -2.6251 -0.2511
3.6143 -2.6297 -0.2489
3.6062 -2.6327 -0.2538
3.5953 -2.6369 -0.2520
3.5852 -2.6408 -0.2510
3.5753 -2.6446 -0.2495
6.9852 -1.3041 1.1751
7.1389 -1.2410 1.1463
7.0068 -1.2888 0.9857
6.9700 -1.2988 0.8442
6.9665 -1.2978 0.7746
7.0251 -1.2694 0.6378
6.9250 -1.3070 0.5561
6.7990 -1.3552 0.4756
7.0839 -1.2377 0.4120
7.1530 -1.2071 0.3325
7.1146 -1.2197 0.2496
7.2258 -1.1717 0.1616
7.2250 -1.1689 0.0731
7.0714 -1.2284 -0.0050
6.9959 -1.2561 -0.0858
6.9929 -1.2542 -0.1741
6.8838 -1.2958 -0.2480
6.1157 -1.6055 -0.2725
5.9071 -1.6890 -0.2977
5.6170 -1.8065 -0.2923
5.1292 -2.0046 -0.2664
4.8815 -2.1043 -0.2788
4.7478 -2.1587 -0.2716
4.6236 -2.2092 -0.2613
4.4504 -2.2794 -0.2574
4.3189 -2.3326 -0.2579
4.1719 -2.3918 -0.2643
4.1220 -2.4121 -0.2601
4.0380 -2.4463 -0.2551
3.9130 -2.4968 -0.2539
3.8898 -2.5061 -0.2567
3.8632 -2.5170 -0.2545
3.8214 -2.5337 -0.2577
3.8015 -2.5418 -0.2584
3.7747 -2.5529 -0.2491
3.7585 -2.5594 -0.2516
3.7399 -2.5670 -0.2496
3.7271 -2.5720 -0.2547
3.7072 -2.5803 -0.2482
3.6950 -2.5851 -0.2521
3.6817 -2.5904 -0.2535
3.6674 -2.5962 -0.2520
3.6540 -2.6017 -0.2511
3.6415 -2.6067 -0.2507
3.6317 -2.6106 -0.2544
3.6079 -2.6203 -0.2511
3.5976 -2.6245 -0.2511
3.5891 -2.6278 -0.2544
3.5797 -2.6316 -0.2549
3.5704 -2.6353 -0.2549
3.5609 -2.6392 -0.2532
7.0877 -1.1911 1.3604
7.0806 -1.1852 1.1648
7.0461 -1.1966 1.0905
6.8898 -1.2590 0.9921
6.8524 -1.2687 0.8530
6.7898 -1.2920 0.7765
6.7003 -1.3268 0.6978
6.7516 -1.3019 0.6356
6.8657 -1.2503 0.5749
7.1633 -1.1165 0.4375
7.3587 -1.0291 0.3575
7.0468 -1.1549 0.1863
7.0443 -1.1521 0.1006
7.0051 -1.1650 0.0161
7.1914 -1.0803 -0.0910
7.1113 -1.1107 -0.1761
7.0700 -1.1243 -0.2650
6.0637 -1.5558 -0.2559
5.8768 -1.6344 -0.2865
5.1129 -1.9628 -0.2612
4.6273 -2.1706 -0.2661
4.5261 -2.2142 -0.2604
4.4536 -2.2452 -0.2634
4.2686 -2.3242 -0.2678
4.1965 -2.3557 -0.2554
4.1593 -2.3712 -0.2625
4.1170 -2.3893 -0.2637
4.0300 -2.4269 -0.2566
3.9619 -2.4562 -0.2549
3.9043 -2.4808 -0.2548
3.8853 -2.4887 -0.2618
3.8612 -2.4989 -0.2625
3.8081 -2.5221 -0.2528
3.7708 -2.5380 -0.2554
3.7513 -2.5464 -0.2536
3.7350 -2.5534 -0.2548
3.7176 -2.5609 -0.2533
3.7033 -2.5670 -0.2550
3.6911 -2.5720 -0.2593
3.6741 -2.5795 -0.2545
3.6588 -2.5862 -0.2511
3.6480 -2.5906 -0.2548
3.6339 -2.5968 -0.2512
3.6254 -2.6002 -0.2573
3.6124 -2.6059 -0.2538
3.6014 -2.6107 -0.2532
3.5900 -2.6156 -0.2508
3.5806 -2.6197 -0.2517
3.5729 -2.6227 -0.2561
3.5633 -2.6269 -0.2549
3.5544 -2.6307 -0.2547
6.8780 -1.2001 1.2729
6.9939 -1.1457 1.2413
6.9301 -1.1700 1.1610
6.9570 -1.1545 1.1021
6.9228 -1.1657 1.0284
6.8886 -1.1770 0.9546
6.9468 -1.1473 0.8964
6.8499 -1.1863 0.8116
6.7566 -1.2239 0.7297
6.7518 -1.2221 0.6598
6.8686 -1.1656 0.5992
7.2118 -1.0071 0.5470
7.1349 -1.0369 0.4600
7.2097 -0.9983 0.3779
7.0564 -1.0628 0.2908
6.9461 -1.1081 0.2080
7.0137 -1.0724 0.1200
6.9741 -1.0854 0.0346
6.9705 -1.0819 -0.0542
6.9305 -1.0951 -0.1405
6.9268 -1.0916 -0.2321
6.0745 -1.4768 -0.2520
5.8458 -1.5792 -0.2750
5.3496 -1.8041 -0.2763
5.0958 -1.9203 -0.2557
4.8330 -2.0390 -0.2642
4.7196 -2.0903 -0.2652
4.6004 -2.1448 -0.2575
4.3829 -2.2428 -0.2685
4.3160 -2.2732 -0.2672
4.2617 -2.2977 -0.2698
4.1431 -2.3521 -0.2583
4.0216 -2.4072 -0.2579
3.9583 -2.4357 -0.2607
3.9193 -2.4540 -0.2519
3.8977 -2.4634 -0.2578
3.8713 -2.4754 -0.2574
3.8477 -2.4860 -0.2582
3.8225 -2.4976 -0.2554
3.7771 -2.5185 -0.2507
3.7589 -2.5267 -0.2517
3.7385 -2.5361 -0.2481
3.7264 -2.5412 -0.2551
3.7067 -2.5505 -0.2498
3.6932 -2.5564 -0.2526
3.6781 -2.5633 -0.2518
3.6664 -2.5684 -0.2555
3.6519 -2.5751 -0.2534
3.6401 -2.5803 -0.2550
3.6274 -2.5862 -0.2538
3.6039 -2.5969 -0.2521
3.5919 -2.6025 -0.2491
3.5824 -2.6067 -0.2505
3.5742 -2.6103 -0.2541
3.5630 -2.6156 -0.2496
3.5556 -2.6188 -0.2536
3.5473 -2.6224 -0.2548
6.9366 -1.0909 1.2595
6.9027 -1.1021 1.1865
6.7813 -1.1538 1.0930
6.8951 -1.0965 1.0532
6.9193 -1.0757 0.9208
6.8524 -1.1021 0.8396
6.8797 -1.0843 0.7724
6.8131 -1.1107 0.6918
6.8389 -1.0934 0.6212
6.8993 -1.0596 0.5505
6.9621 -1.0242 0.4756
6.8570 -1.0688 0.3916
6.8196 -1.0811 0.3110
7.0605 -0.9596 0.2253
7.0201 -0.9730 0.1382
7.0922 -0.9318 0.0435
6.7657 -1.0839 -0.0202
6.7941 -1.0640 -0.1109
6.7213 -1.0934 -0.1907
6.5881 -1.1526 -0.2583
6.0858 -1.3941 -0.2478
5.8151 -1.5228 -0.2636
5.3819 -1.7290 -0.2841
4.9781 -1.9237 -0.2690
4.7078 -2.0537 -0.2631
4.5149 -2.1461 -0.2630
4.3701 -2.2153 -0.2668
4.2382 -2.2789 -0.2615
4.1374 -2.3272 -0.2615
4.0473 -2.3707 -0.2571
4.0120 -2.3876 -0.2585
3.9720 -2.4071 -0.2536
3.9210 -2.4309 -0.2632
3.8582 -2.4617 -0.2538
3.8101 -2.4848 -0.2521
3.7744 -2.5014 -0.2591
3.7329 -2.5218 -0.2528
3.7170 -2.5293 -0.2543
3.7008 -2.5371 -0.2542
3.6856 -2.5443 -0.2542
3.6719 -2.5508 -0.2557
3.6574 -2.5579 -0.2544
3.6425 -2.5652 -0.2513
3.6309 -2.5706 -0.2530
3.6173 -2.5774 -0.2497
3.6073 -2.5820 -0.2526
3.5985 -2.5859 -0.2574
3.5857 -2.5924 -0.2523
3.5748 -2.5978 -0.2502
3.5661 -2.6018 -0.2526
3.5551 -2.6073 -0.2482
3.5473 -2.6109 -0.2510
3.5401 -2.6141 -0.2549
6.8454 -1.0473 1.2046
6.8414 -1.0439 1.1388
6.8983 -1.0107 1.0854
6.8949 -1.0068 1.0162
6.8281 -1.0338 0.9341
6.7930 -1.0454 0.8584
6.8500 -1.0114 0.7960
6.8140 -1.0233 0.7183
6.8414 -1.0036 0.6470
6.8366 -0.9997 0.5704
6.8977 -0.9627 0.4961
7.0731 -0.8677 0.4213
6.8546 -0.9711 0.3322
6.9922 -0.8943 0.2470
7.0259 -0.8699 0.1571
6.9846 -0.8835 0.0682
6.8006 -0.9704 -0.0083
6.8659 -0.9294 -0.1056
6.6886 -1.0136 -0.1745
6.4948 -1.1069 -0.2331
6.0750 -1.3191 -0.2391
5.8577 -1.4268 -0.2684
5.6676 -1.5210 -0.2939
5.4581 -1.6263 -0.3042
5.0974 -1.8129 -0.2559
4.9519 -1.8863 -0.2609
4.7264 -1.9994 -0.2735
4.3543 -2.1887 -0.2636
4.2255 -2.2543 -0.2600
4.1295 -2.3027 -0.2634
3.9650 -2.3865 -0.2565
3.9174 -2.4095 -0.2699
3.8463 -2.4471 -0.2516
3.7860 -2.4769 -0.2604
3.7665 -2.4867 -0.2612
3.7282 -2.5063 -0.2593
3.6916 -2.5253 -0.2536
3.6742 -2.5344 -0.2498
3.6620 -2.5403 -0.2533
3.6342 -2.5545 -0.2514
3.6244 -2.5591 -0.2565
3.6105 -2.5665 -0.2523
3.6006 -2.5713 -0.2554
3.5898 -2.5767 -0.2557
3.5768 -2.5838 -0.2495
3.5670 -2.5887 -0.2499
3.5580 -2.5932 -0.2511
3.5496 -2.5973 -0.2532
3.5404 -2.6020 -0.2523
3.5302 -2.6076 -0.2470
7.3667 -0.7253 1.6665
6.8605 -0.9738 1.4326
6.6598 -1.0693 1.3089
6.8475 -0.9623 1.2389
6.8435 -0.9580 1.1722
6.9019 -0.9218 1.1188
6.8350 -0.9495 1.0352
6.7996 -0.9612 0.9588
7.0238 -0.8383 0.9272
6.9176 -0.8863 0.8348
6.8481 -0.9154 0.7500
6.7477 -0.9609 0.6632
6.8619 -0.8782 0.4371
6.8576 -0.8726 0.3540
6.8184 -0.8855 0.2694
6.7454 -0.9166 0.1859
6.7733 -0.8933 0.0984
6.8377 -0.8500 0.0044
6.7969 -0.8634 -0.0836
5.8437 -1.3565 -0.2604
5.6519 -1.4566 -0.2867
5.4549 -1.5605 -0.3018
4.9583 -1.8297 -0.2641
4.7211 -1.9557 -0.2742
4.4850 -2.0836 -0.2572
4.4308 -2.1113 -0.2710
4.2713 -2.1977 -0.2590
4.2147 -2.2279 -0.2600
4.1054 -2.2869 -0.2539
4.0268 -2.3286 -0.2577
3.9517 -2.3692 -0.2540
3.9133 -2.3904 -0.2473
3.8677 -2.4137 -0.2581
3.8385 -2.4297 -0.2541
3.7946 -2.4529 -0.2569
3.7724 -2.4649 -0.2554
3.7540 -2.4747 -0.2572
3.7170 -2.4945 -0.2564
3.6840 -2.5122 -0.2558
3.6663 -2.5221 -0.2514
3.6508 -2.5306 -0.2490
3.6390 -2.5366 -0.2520
3.6264 -2.5434 -0.2524
3.6135 -2.5504 -0.2512
3.6035 -2.5554 -0.2548
3.5911 -2.5622 -0.2523
3.5801 -2.5682 -0.2516
3.5702 -2.5734 -0.2526
3.5592 -2.5796 -0.2495
3.5507 -2.5838 -0.2521
3.5425 -2.5881 -0.2543
3.5335 -2.5930 -0.2535
3.5255 -2.5971 -0.2550
6.9239 -0.8559 1.4909
6.7700 -0.9305 1.3782
6.6798 -0.9717 1.2888
6.6199 -0.9969 1.2100
6.9665 -0.7889 1.0967
7.0628 -0.7118 0.8882
4.7392 -1.9731 0.4245
6.6986 -0.8701 0.4533
6.9277 -0.7230 0.2903
6.6797 -0.8539 0.2068
6.6736 -0.8480 0.1213
6.6344 -0.8609 0.0368
6.7627 -0.7773 -0.0654
6.6871 -0.8109 -0.1498
6.5168 -0.8997 -0.2169
5.8494 -1.2722 -0.2565
5.6702 -1.3699 -0.2880
5.1637 -1.6571 -0.2765
4.9656 -1.7699 -0.2677
4.8387 -1.8408 -0.2742
4.6077 -1.9711 -0.2753
4.4899 -2.0388 -0.2642
4.4134 -2.0817 -0.2671
4.3273 -2.1311 -0.2600
4.2552 -2.1723 -0.2557
4.2074 -2.1985 -0.2623
4.0629 -2.2800 -0.2630
4.0230 -2.3025 -0.2635
3.9848 -2.3241 -0.2627
3.9425 -2.3488 -0.2554
3.9082 -2.3685 -0.2526
3.8872 -2.3795 -0.2608
3.8550 -2.3982 -0.2557
3.8177 -2.4208 -0.2420
3.8074 -2.4248 -0.2575
3.7414 -2.4626 -0.2532
3.7266 -2.4703 -0.2587
3.7080 -2.4810 -0.2572
3.6881 -2.4928 -0.2519
3.6733 -2.5010 -0.2532
3.6583 -2.5096 -0.2528
3.6452 -2.5167 -0.2547
3.6189 -2.5316 -0.2545
3.5933 -2.5465 -0.2506
3.5822 -2.5528 -0.2505
3.5727 -2.5578 -0.2533
3.5626 -2.5635 -0.2533
3.5536 -2.5684 -0.2552
3.5429 -2.5748 -0.2518
3.5356 -2.5784 -0.2566
3.5268 -2.5834 -0.2560
6.8608 -0.7943 1.4445
6.8235 -0.7469 0.8804
4.6831 -1.9659 0.4297
6.7583 -0.7261 0.3971
6.9695 -0.5900 0.3130
6.7814 -0.6911 0.2242
6.9223 -0.5952 0.1278
6.7689 -0.6762 0.0431
6.5925 -0.7718 -0.0331
6.5853 -0.7649 -0.1236
5.8760 -1.1709 -0.2570
5.6545 -1.2999 -0.2807
5.1553 -1.5980 -0.2737
4.8349 -1.7886 -0.2750
4.5944 -1.9321 -0.2733
4.3995 -2.0491 -0.2653
4.3174 -2.0987 -0.2605
4.2658 -2.1283 -0.2689
4.1571 -2.1927 -0.2721
4.0461 -2.2604 -0.2587
3.9596 -2.3129 -0.2503
3.9336 -2.3276 -0.2573
3.9039 -2.3450 -0.2591
3.8717 -2.3646 -0.2559
3.8533 -2.3744 -0.2655
3.8198 -2.3955 -0.2563
3.7980 -2.4082 -0.2585
3.7778 -2.4199 -0.2612
3.7557 -2.4332 -0.2596
3.7166 -2.4567 -0.2583
3.7012 -2.4654 -0.2615
3.6805 -2.4786 -0.2547
3.6665 -2.4867 -0.2573
3.6516 -2.4955 -0.2572
3.6214 -2.5142 -0.2516
3.6092 -2.5214 -0.2523
3.5962 -2.5294 -0.2503
3.5874 -2.5339 -0.2564
3.5778 -2.5391 -0.2599
3.5648 -2.5476 -0.2538
3.5544 -2.5540 -0.2528
3.5463 -2.5582 -0.2572
3.5359 -2.5648 -0.2540
3.5274 -2.5697 -0.2551
7.2431 -0.4501 1.3904
6.8775 -0.6557 1.2174
6.8402 -0.6681 1.1368
6.8028 -0.6804 1.0562
7.0049 -0.5489 1.0234
6.9290 -0.5838 0.9307
6.7869 -0.6590 0.8294
6.7594 -0.6197 0.4209
6.6849 -0.6544 0.3333
6.6449 -0.6676 0.2471
6.8125 -0.5492 0.1524
6.8066 -0.5399 0.0581
6.5574 -0.6863 -0.0148
6.5821 -0.6576 -0.1101
6.5082 -0.6924 -0.1940
6.4049 -0.7467 -0.2704
5.8003 -1.1312 -0.2350
5.6033 -1.2509 -0.2644
5.2930 -1.4475 -0.2513
5.1700 -1.5211 -0.2781
4.8544 -1.7183 -0.2848
4.5860 -1.8884 -0.2737
4.3983 -2.0067 -0.2704
4.2423 -2.1059 -0.2614
4.1211 -2.1829 -0.2550
4.0384 -2.2339 -0.2618
3.9262 -2.3044 -0.2610
3.8865 -2.3306 -0.2526
3.8374 -2.3603 -0.2599
3.8122 -2.3762 -0.2599
3.7839 -2.3948 -0.2540
3.7443 -2.4191 -0.2579
3.7025 -2.4462 -0.2517
3.6737 -2.4632 -0.2593
3.6566 -2.4744 -0.2565
3.6415 -2.4840 -0.2556
3.6129 -2.5024 -0.2524
3.6009 -2.5098 -0.2533
3.5877 -2.5185 -0.2503
3.5771 -2.5249 -0.2522
3.5659 -2.5320 -0.2512
3.5563 -2.5378 -0.2531
3.5469 -2.5435 -0.2545
3.5373 -2.5496 -0.2543
3.5275 -2.5560 -0.2524
3.5196 -2.5606 -0.2549
3.5114 -2.5656 -0.2558
6.9717 -0.5617 1.6952
6.6550 -0.7338 1.4517
6.7373 -0.6739 1.4166
6.6720 -0.7040 1.3309
6.8200 -0.6026 1.3088
6.8469 -0.5751 1.2463
6.7459 -0.6270 1.1490
6.8043 -0.5794 1.0912
6.9373 -0.4842 1.0448
6.8278 -0.5414 0.9456
6.7547 -0.5759 0.8554
4.5719 -1.9520 0.4091
6.5924 -0.6190 0.4382
6.7186 -0.5230 0.3567
6.7472 -0.4902 0.2672
6.5699 -0.5943 0.1812
6.5295 -0.6076 0.0940
6.4263 -0.6634 0.0126
6.6129 -0.5225 -0.1000
6.6049 -0.5129 -0.1970
6.3678 -0.6609 -0.2545
5.7850 -1.0511 -0.2260
5.6388 -1.1412 -0.2695
5.2357 -1.4136 -0.2336
5.1498 -1.4645 -0.2716
4.6630 -1.7881 -0.2628
4.5726 -1.8466 -0.2719
4.3753 -1.9783 -0.2639
4.3207 -2.0127 -0.2755
4.0625 -2.1920 -0.2212
4.0592 -2.1893 -0.2530
4.0191 -2.2154 -0.2556
3.9465 -2.2630 -0.2590
3.9183 -2.2807 -0.2645
3.8780 -2.3088 -0.2554
3.8253 -2.3432 -0.2587
3.8030 -2.3575 -0.2619
3.7787 -2.3737 -0.2610
3.7534 -2.3912 -0.2564
3.7293 -2.4079 -0.2512
3.6939 -2.4309 -0.2538
3.6608 -2.4528 -0.2537
3.5808 -2.5057 -0.2546
3.5568 -2.5224 -0.2493
3.5469 -2.5288 -0.2501
3.5377 -2.5347 -0.2516
3.5283 -2.5409 -0.2515
3.5199 -2.5462 -0.2532
3.5105 -2.5528 -0.2509
3.5029 -2.5575 -0.2531
3.4954 -2.5622 -0.2549
7.0799 -0.3952 1.7828
6.9055 -0.4939 1.6481
6.7429 -0.5859 1.5228
6.8314 -0.5183 1.4884
6.7628 -0.5508 1.3983
6.7261 -0.5629 1.3192
6.7831 -0.5141 1.2666
6.8791 -0.4393 1.2203
6.8743 -0.4296 1.1440
6.8653 -0.4091 0.9871
4.5213 -1.9464 0.4142
4.8324 -1.7285 0.4090
6.5497 -0.5251 0.3763
6.7472 -0.3725 0.2898
6.7407 -0.3610 0.1960
6.5252 -0.4971 0.1121
6.3594 -0.5993 0.0339
6.4743 -0.5016 -0.0695
6.5322 -0.4434 -0.1739
6.3602 -0.5514 -0.2436
5.7696 -0.9680 -0.2168
5.3488 -1.2653 -0.1948
5.1912 -1.3710 -0.2195
5.1293 -1.4064 -0.2651
4.9778 -1.5101 -0.2767
4.7092 -1.7048 -0.2336
4.6758 -1.7216 -0.2718
4.4618 -1.8711 -0.2705
4.3058 -1.9793 -0.2737
4.0572 -2.1610 -0.2255
4.0621 -2.1509 -0.2647
4.0071 -2.1908 -0.2556
3.9779 -2.2096 -0.2649
3.9338 -2.2415 -0.2582
3.9092 -2.2571 -0.2672
3.8367 -2.3099 -0.2540
3.7940 -2.3380 -0.2645
3.7673 -2.3573 -0.2603
3.7402 -2.3775 -0.2529
3.7248 -2.3869 -0.2600
3.7055 -2.4004 -0.2597
3.6699 -2.4255 -0.2588
3.5950 -2.4787 -0.2527
3.5864 -2.4833 -0.2612
3.5719 -2.4945 -0.2546
3.5596 -2.5037 -0.2513
3.5504 -2.5094 -0.2551
3.5387 -2.5184 -0.2505
3.5300 -2.5240 -0.2533
3.5204 -2.5309 -0.2522
3.5113 -2.5373 -0.2516
3.5040 -2.5418 -0.2556
3.4947 -2.5489 -0.2516
3.4880 -2.5528 -0.2561
6.9123 -0.4005 1.7612
6.7789 -0.4763 1.6428
6.6825 -0.5282 1.5420
6.5884 -0.5789 1.4442
6.6698 -0.5123 1.4076
6.6641 -0.5035 1.3389
6.6577 -0.4950 1.2687
6.7137 -0.4437 1.2142
4.5770 -1.8725 0.4612
4.4898 -1.9290 0.4209
6.5885 -0.3313 0.1274
6.4786 -0.3957 0.0401
6.4039 -0.4342 -0.0471
6.4265 -0.3990 -0.1461
6.4165 -0.3880 -0.2436
5.7325 -0.8984 -0.2028
5.2614 -1.2508 -0.1700
4.6550 -1.6880 -0.2150
4.6546 -1.6787 -0.2665
4.3332 -1.9174 -0.2533
4.0671 -2.1283 -0.1713
4.0764 -2.1070 -0.2485
4.0545 -2.1193 -0.2686
3.9843 -2.1750 -0.2467
3.9671 -2.1840 -0.2663
3.9052 -2.2278 -0.2754
3.8591 -2.2646 -0.2600
3.8356 -2.2807 -0.2659
3.7778 -2.3246 -0.2583
3.7572 -2.3391 -0.2617
3.7318 -2.3588 -0.2562
3.6929 -2.3874 -0.2564
3.6770 -2.3984 -0.2595
3.6590 -2.4121 -0.2575
3.6411 -2.4260 -0.2534
3.6255 -2.4378 -0.2520
3.5965 -2.4597 -0.2484
3.5865 -2.4660 -0.2544
3.5729 -2.4767 -0.2506
3.5621 -2.4842 -0.2524
3.5513 -2.4922 -0.2525
3.5407 -2.5001 -0.2520
3.5315 -2.5064 -0.2543
3.5120 -2.5212 -0.2516
3.5038 -2.5269 -0.2536
3.4959 -2.5324 -0.2552
3.4874 -2.5388 -0.2539
3.4786 -2.5461 -0.2496
6.7856 -0.3837 1.7543
6.7174 -0.4175 1.6624
6.9073 -0.2724 1.6715
7.1251 -0.1060 1.6821
6.7961 -0.3216 1.4924
6.7255 -0.3570 1.3990
6.7520 -0.3236 1.3366
6.9548 -0.1472 1.2430
6.9127 -0.1611 1.1522
6.7287 -0.2785 1.0305
4.5131 -1.8771 0.4635
4.4353 -1.9294 0.4248
5.3390 -1.1962 0.2623
5.2735 -1.2353 0.2066
5.0783 -1.3775 0.1630
5.1056 -1.2962 -0.1289
4.6741 -1.6105 -0.2249
4.6606 -1.6111 -0.2730
4.3185 -1.8892 -0.2082
4.3144 -1.8840 -0.2493
4.0554 -2.1008 -0.1705
4.1008 -2.0518 -0.2377
4.0288 -2.1033 -0.2582
3.9812 -2.1409 -0.2546
3.9516 -2.1620 -0.2636
3.9202 -2.1852 -0.2687
3.8883 -2.2094 -0.2709
3.8158 -2.2685 -0.2567
3.7883 -2.2901 -0.2552
3.7655 -2.3074 -0.2571
3.7405 -2.3274 -0.2541
3.7241 -2.3387 -0.2610
3.6808 -2.3737 -0.2539
3.6476 -2.3991 -0.2553
3.6319 -2.4113 -0.2550
3.6170 -2.4229 -0.2548
3.5902 -2.4434 -0.2556
3.5657 -2.4625 -0.2555
3.5531 -2.4729 -0.2523
3.5432 -2.4800 -0.2547
3.5320 -2.4892 -0.2522
3.5226 -2.4962 -0.2535
3.5138 -2.5026 -0.2555
3.5045 -2.5100 -0.2546
3.4958 -2.5168 -0.2544
3.4858 -2.5260 -0.2475
3.4788 -2.5306 -0.2512
3.4720 -2.5352 -0.2545
7.5306 0.2720 2.0489
7.5814 0.3271 1.9886
6.9433 -0.1199 1.6621
6.6940 -0.1875 1.0598
6.4325 -0.3707 0.9265
4.4742 -1.8585 0.4402
5.0237 -1.3958 0.3758
5.0480 -1.3308 0.1751
4.7171 -1.5185 -0.1891
4.6526 -1.5644 -0.2191
4.6451 -1.5589 -0.2704
4.2625 -1.8904 -0.1844
4.0906 -2.0183 -0.2393
4.0770 -2.0228 -0.2684
4.0140 -2.0769 -0.2566
3.9722 -2.1107 -0.2580
3.9387 -2.1367 -0.2636
3.9032 -2.1655 -0.2645
3.8692 -2.1934 -0.2640
3.8327 -2.2246 -0.2576
3.8116 -2.2398 -0.2661
3.7776 -2.2698 -0.2564
3.7577 -2.2847 -0.2623
3.7326 -2.3059 -0.2590
3.7073 -2.3280 -0.2527
3.6719 -2.3559 -0.2570
3.6556 -2.3688 -0.2589
3.6397 -2.3815 -0.2600
3.6211 -2.3980 -0.2538
3.6044 -2.4127 -0.2492
3.5920 -2.4222 -0.2519
3.5803 -2.4311 -0.2550
3.5665 -2.4431 -0.2515
3.5574 -2.4490 -0.2582
3.5246 -2.4761 -0.2567
3.5126 -2.4875 -0.2493
3.5037 -2.4947 -0.2502
3.4962 -2.4996 -0.2552
3.4871 -2.5076 -0.2527
3.4800 -2.5125 -0.2569
3.4708 -2.5213 -0.2509
3.4638 -2.5266 -0.2531
6.5819 -0.2109 1.2946
6.5748 -0.1986 1.2199
4.0696 -2.1011 0.2000
4.0705 -2.0942 0.1750
4.1069 -2.0548 0.1420
4.6516 -1.4973 -0.2215
4.6161 -1.5178 -0.2620
4.2397 -1.8620 -0.1779
4.1945 -1.8968 -0.1944
4.0521 -2.0308 -0.1471
4.0463 -2.0279 -0.1793
4.0958 -1.9674 -0.2525
4.0542 -2.0010 -0.2612
4.0077 -2.0406 -0.2625
3.9596 -2.0830 -0.2584
3.9226 -2.1142 -0.2607
3.8872 -2.1444 -0.2615
3.8227 -2.2002 -0.2604
3.7907 -2.2288 -0.2556
3.7685 -2.2467 -0.2603
3.7433 -2.2688 -0.2588
3.7174 -2.2923 -0.2536
3.6980 -2.3084 -0.2558
3.6815 -2.3214 -0.2608
3.6466 -2.3510 -0.2623
3.6253 -2.3717 -0.2525
3.5821 -2.4090 -0.2520
3.5702 -2.4186 -0.2543
3.5452 -2.4410 -0.2508
3.5353 -2.4487 -0.2540
3.5150 -2.4660 -0.2547
3.5034 -2.4778 -0.2474
3.4955 -2.4835 -0.2517
3.4786 -2.4979 -0.2522
3.4716 -2.5029 -0.2565
3.4637 -2.5099 -0.2556
4.4778 -1.7665 0.4635
4.3920 -1.8331 0.4222
4.0475 -2.1061 0.2761
4.0700 -2.0730 0.2282
4.0729 -2.0636 0.2031
4.0928 -2.0379 0.1743
4.1073 -2.0167 0.1443
4.1401 -1.9774 0.1081
4.6297 -1.4622 -0.1608
4.6644 -1.4124 -0.2295
4.6203 -1.4419 -0.2684
4.5718 -1.4766 -0.3031
4.0487 -1.9907 -0.1518
4.0424 -1.9876 -0.1847
4.0720 -1.9447 -0.2450
4.0556 -1.9520 -0.2734
3.9424 -2.0594 -0.2550
3.8760 -2.1173 -0.2635
3.8090 -2.1791 -0.2592
3.7554 -2.2276 -0.2592
3.7073 -2.2720 -0.2562
3.6716 -2.3025 -0.2633
3.6513 -2.3218 -0.2597
3.6313 -2.3415 -0.2540
3.6024 -2.3664 -0.2584
3.5876 -2.3801 -0.2571
3.5717 -2.3961 -0.2512
3.5483 -2.4165 -0.2544
3.5366 -2.4274 -0.2534
3.5252 -2.4381 -0.2517
3.5154 -2.4465 -0.2535
3.5056 -2.4553 -0.2536
3.4872 -2.4722 -0.2532
3.4787 -2.4796 -0.2539
3.4700 -2.4881 -0.2517
3.4631 -2.4932 -0.2561
3.4556 -2.4998 -0.2565
4.0878 -2.1002 0.5076
4.0555 -2.1182 0.4635
4.0497 -2.1182 0.4441
4.0789 -2.0563 0.3268
4.0516 -2.0757 0.3037
4.0538 -2.0671 0.2811
4.0602 -2.0541 0.2575
4.0729 -2.0346 0.2322
4.0640 -2.0361 0.2079
4.0300 -2.0626 0.1873
4.0321 -2.0530 0.1614
4.0460 -2.0312 0.1318
4.1494 -1.9163 0.0758
4.6869 -1.3113 -0.2416
4.6333 -1.3516 -0.2790
4.1379 -1.8664 -0.1345
4.0993 -1.8746 -0.2331
4.0297 -1.9321 -0.2640
3.9398 -2.0174 -0.2656
3.8642 -2.0896 -0.2654
3.8291 -2.1239 -0.2629
3.8021 -2.1486 -0.2667
3.7364 -2.2160 -0.2501
3.7180 -2.2315 -0.2574
3.6947 -2.2544 -0.2550
3.6760 -2.2714 -0.2579
3.6574 -2.2889 -0.2588
3.6223 -2.3227 -0.2580
3.5888 -2.3563 -0.2518
3.5641 -2.3783 -0.2576
3.5376 -2.4053 -0.2518
3.5278 -2.4134 -0.2560
3.5163 -2.4251 -0.2535
3.4979 -2.4410 -0.2590
3.4781 -2.4618 -0.2524
3.4699 -2.4695 -0.2532
3.4621 -2.4765 -0.2546
3.4543 -2.4840 -0.2544
3.4474 -2.4897 -0.2574
3.4397 -2.4982 -0.2537
4.1098 -2.0443 0.5055
4.0490 -2.0644 0.3744
4.0548 -2.0521 0.3539
4.0539 -2.0462 0.3321
4.0596 -2.0334 0.3098
4.0764 -2.0092 0.2864
3.9887 -2.0692 0.1966
3.9754 -2.0757 0.1745
3.9761 -2.0672 0.1495
4.6943 -1.2199 -0.2480
4.6623 -1.2366 -0.2971
4.0565 -1.8976 -0.1330
4.0245 -1.9242 -0.1509
4.0881 -1.8338 -0.2350
4.0567 -1.8592 -0.2548
4.0106 -1.9039 -0.2602
3.9744 -1.9371 -0.2705
3.9312 -1.9804 -0.2711
3.8888 -2.0239 -0.2683
3.8473 -2.0676 -0.2620
3.7899 -2.1233 -0.2684
3.7295 -2.1873 -0.2582
3.7050 -2.2125 -0.2565
3.6887 -2.2261 -0.2652
3.6690 -2.2456 -0.2665
3.6478 -2.2681 -0.2627
3.6284 -2.2885 -0.2598
3.5958 -2.3215 -0.2590
3.5816 -2.3356 -0.2600
3.5523 -2.3670 -0.2539
3.5406 -2.3781 -0.2558
3.5281 -2.3916 -0.2531
3.5193 -2.3981 -0.2605
3.5084 -2.4095 -0.2593
3.4963 -2.4238 -0.2522
3.4883 -2.4301 -0.2579
3.4778 -2.4423 -0.2524
3.4705 -2.4479 -0.2583
3.4617 -2.4575 -0.2559
3.4540 -2.4647 -0.2576
3.4459 -2.4736 -0.2551
3.4387 -2.4806 -0.2558
4.1142 -1.9866 0.4564
4.0936 -1.9999 0.4312
4.0733 -2.0131 0.4066
4.0627 -2.0166 0.3837
4.0560 -2.0161 0.3613
4.0469 -2.0180 0.3384
4.0437 -2.0136 0.3157
4.0382 -2.0117 0.2924
4.0309 -2.0113 0.2689
4.0315 -2.0024 0.2445
4.0006 -2.0279 0.2227
3.9550 -2.0701 0.2045
3.9434 -2.0750 0.1828
3.9407 -2.0699 0.1592
4.5839 -1.2430 -0.2671
4.4742 -1.3569 -0.2744
4.0262 -1.8840 -0.1213
4.0125 -1.8886 -0.1509
4.0055 -1.8843 -0.1853
4.0319 -1.8354 -0.2469
3.9938 -1.8719 -0.2586
3.9514 -1.9152 -0.2632
3.9094 -1.9595 -0.2642
3.8776 -1.9907 -0.2718
3.8336 -2.0405 -0.2625
3.8058 -2.0682 -0.2680
3.7704 -2.1081 -0.2608
3.7494 -2.1275 -0.2693
3.6753 -2.2079 -0.2639
3.6548 -2.2299 -0.2632
3.6283 -2.2631 -0.2483
3.6188 -2.2679 -0.2640
3.5850 -2.3051 -0.2599
3.5696 -2.3222 -0.2577
3.5551 -2.3384 -0.2554
3.5294 -2.3664 -0.2530
3.5175 -2.3796 -0.2515
3.5083 -2.3875 -0.2569
3.4976 -2.3992 -0.2559
3.4873 -2.4107 -0.2541
3.4788 -2.4184 -0.2579
3.4696 -2.4285 -0.2569
3.4612 -2.4373 -0.2574
3.4519 -2.4490 -0.2518
3.4443 -2.4570 -0.2523
3.4376 -2.4624 -0.2570
3.4304 -2.4703 -0.2566
3.4230 -2.4792 -0.2532
4.1077 -1.9720 0.5063
4.0912 -1.9814 0.4818
4.0685 -1.9974 0.4561
4.0530 -1.9985 0.4119
4.0266 -2.0112 0.3658
4.0132 -2.0179 0.3430
3.9991 -2.0254 0.3204
3.9974 -2.0191 0.2981
3.9869 -2.0226 0.2755
3.9729 -2.0301 0.2530
3.9439 -2.0465 0.2091
3.9276 -2.0569 0.1880
3.9206 -2.0564 0.1653
4.0122 -1.8634 -0.0819
4.0008 -1.8649 -0.1126
3.9806 -1.8784 -0.1376
3.9633 -1.8881 -0.1639
3.9598 -1.8784 -0.2009
3.9672 -1.8526 -0.2487
3.9471 -1.8661 -0.2735
3.8489 -1.9821 -0.2567
3.8152 -2.0194 -0.2579
3.7903 -2.0441 -0.2665
3.7365 -2.1029 -0.2706
3.7037 -2.1438 -0.2589
3.6796 -2.1717 -0.2566
3.6390 -2.2169 -0.2570
3.6201 -2.2385 -0.2558
3.6076 -2.2489 -0.2657
3.5735 -2.2892 -0.2598
3.5579 -2.3080 -0.2563
3.5441 -2.3239 -0.2550
3.5331 -2.3344 -0.2599
3.5199 -2.3507 -0.2559
3.4983 -2.3743 -0.2573
3.4881 -2.3856 -0.2575
3.4771 -2.4001 -0.2518
3.4679 -2.4105 -0.2514
3.4596 -2.4189 -0.2537
3.4516 -2.4273 -0.2554
3.4428 -2.4387 -0.2510
3.4355 -2.4462 -0.2528
3.4283 -2.4543 -0.2529
3.4219 -2.4598 -0.2574
3.4149 -2.4684 -0.2553
4.0968 -1.9623 0.5534
4.0789 -1.9736 0.5284
4.0604 -1.9856 0.5035
4.0429 -1.9967 0.4794
3.9854 -2.0127 0.3477
3.9765 -2.0145 0.3257
3.9747 -2.0079 0.3037
3.9608 -2.0155 0.2813
3.9634 -2.0034 0.2582
3.9575 -2.0011 0.2349
3.8942 -2.0606 0.1964
3.8894 -2.0575 0.1739
4.0095 -1.8276 -0.0487
3.9885 -1.8274 -0.1121
3.9620 -1.8504 -0.1332
3.9102 -1.9115 -0.1335
3.8888 -1.9286 -0.1539
3.8950 -1.9040 -0.1978
3.8965 -1.8857 -0.2398
3.8813 -1.8931 -0.2666
3.8282 -1.9623 -0.2501
3.7851 -2.0175 -0.2391
3.7654 -2.0353 -0.2530
3.7461 -2.0530 -0.2659
3.7199 -2.0836 -0.2668
3.6826 -2.1357 -0.2464
3.6666 -2.1505 -0.2569
3.6498 -2.1674 -0.2644
3.6291 -2.1926 -0.2623
3.5927 -2.2367 -0.2597
3.5629 -2.2709 -0.2622
3.5479 -2.2895 -0.2598
3.5341 -2.3066 -0.2580
3.5087 -2.3381 -0.2540
3.4984 -2.3493 -0.2567
3.4884 -2.3603 -0.2587
3.4780 -2.3732 -0.2570
3.4688 -2.3834 -0.2587
3.4593 -2.3954 -0.2566
3.4506 -2.4060 -0.2559
3.4429 -2.4139 -0.2589
3.4342 -2.4263 -0.2536
3.4267 -2.4353 -0.2533
3.4197 -2.4430 -0.2547
3.4126 -2.4525 -0.2521
3.4063 -2.4587 -0.2550
4.0530 -1.9737 0.5496
3.9603 -2.0056 0.3525
3.9515 -2.0072 0.3307
3.9461 -2.0046 0.3090
3.9386 -2.0046 0.2869
3.9376 -1.9963 0.2642
3.9271 -1.9997 0.2417
3.9065 -2.0165 0.2205
3.8643 -2.0620 0.2039
3.8633 -2.0536 0.1812
3.9280 -1.9436 0.1125
3.9491 -1.8127 -0.1331
3.9179 -1.8447 -0.1495
3.8793 -1.8896 -0.1570
3.8381 -1.9404 -0.1585
3.8232 -1.9491 -0.1819
3.8138 -1.9484 -0.2108
3.7978 -1.9593 -0.2323
3.7542 -2.0195 -0.2184
3.7385 -2.0315 -0.2363
3.7215 -2.0464 -0.2512
3.7008 -2.0687 -0.2593
3.6850 -2.0826 -0.2731
3.6540 -2.1276 -0.2583
3.6346 -2.1507 -0.2607
3.6132 -2.1795 -0.2560
3.5992 -2.1934 -0.2644
3.5798 -2.2202 -0.2582
3.5657 -2.2360 -0.2622
3.5489 -2.2596 -0.2563
3.5361 -2.2743 -0.2591
3.5235 -2.2896 -0.2601
3.4992 -2.3206 -0.2585
3.4881 -2.3348 -0.2577
3.4772 -2.3495 -0.2551
3.4671 -2.3628 -0.2536
3.4586 -2.3718 -0.2573
3.4492 -2.3848 -0.2543
3.4410 -2.3943 -0.2559
3.4326 -2.4058 -0.2536
3.4257 -2.4124 -0.2584
3.4177 -2.4243 -0.2537
3.4109 -2.4321 -0.2553
3.4043 -2.4399 -0.2564
3.3978 -2.4482 -0.2558
3.9301 -2.0057 0.3565
3.9242 -2.0038 0.3355
3.9156 -2.0054 0.3140
3.9186 -1.9914 0.2924
3.9154 -1.9854 0.2700
3.9063 -1.9871 0.2476
3.8848 -2.0058 0.2266
3.8541 -2.0379 0.2081
3.8384 -2.0495 0.1883
3.8275 -2.0544 0.1678
3.9304 -1.8649 0.0504
3.9257 -1.7903 -0.1257
3.9238 -1.7748 -0.1650
3.9502 -1.7100 -0.2307
3.7585 -1.9926 -0.1653
3.7520 -1.9876 -0.1950
3.7395 -1.9937 -0.2178
3.7317 -1.9904 -0.2470
3.7100 -2.0150 -0.2559
3.6649 -2.0712 -0.2631
3.6428 -2.1004 -0.2630
3.6211 -2.1302 -0.2604
3.6025 -2.1544 -0.2611
3.5852 -2.1769 -0.2618
3.5649 -2.2081 -0.2522
3.5510 -2.2249 -0.2554
3.5378 -2.2409 -0.2586
3.5226 -2.2633 -0.2533
3.5113 -2.2761 -0.2578
3.4997 -2.2909 -0.2590
3.4887 -2.3048 -0.2602
3.4767 -2.3230 -0.2550
3.4674 -2.3338 -0.2583
3.4567 -2.3502 -0.2531
3.4484 -2.3594 -0.2570
3.4393 -2.3728 -0.2541
3.4307 -2.3853 -0.2516
3.4230 -2.3949 -0.2526
3.4162 -2.4017 -0.2575
3.4087 -2.4125 -0.2552
3.4023 -2.4192 -0.2593
3.3955 -2.4291 -0.2570
3.3895 -2.4350 -0.2615
3.9232 -1.9865 0.3832
3.9113 -1.9924 0.3616
3.9001 -1.9974 0.3402
3.9026 -1.9731 0.2979
3.8967 -1.9704 0.2756
3.8888 -1.9703 0.2532
3.8664 -1.9911 0.2322
3.8387 -2.0204 0.2132
3.8197 -2.0374 0.1940
3.8112 -2.0388 0.1729
3.8993 -1.8608 0.0613
3.8804 -1.8758 0.0381
3.9066 -1.7605 -0.1214
3.9041 -1.7446 -0.1608
3.9161 -1.7010 -0.2150
3.9202 -1.6701 -0.2659
3.7486 -1.9172 -0.2500
3.7230 -1.9498 -0.2563
3.6943 -1.9908 -0.2545
3.6687 -2.0268 -0.2540
3.6475 -2.0545 -0.2576
3.6057 -2.1133 -0.2567
3.5723 -2.1572 -0.2622
3.5379 -2.2094 -0.2534
3.5255 -2.2242 -0.2583
3.5123 -2.2427 -0.2583
3.4869 -2.2806 -0.2533
3.4762 -2.2948 -0.2545
3.4663 -2.3075 -0.2569
3.4568 -2.3200 -0.2585
3.4465 -2.3368 -0.2535
3.4381 -2.3469 -0.2565
3.4294 -2.3599 -0.2549
3.4215 -2.3705 -0.2557
3.4137 -2.3818 -0.2548
3.4067 -2.3902 -0.2577
3.3993 -2.4027 -0.2533
3.3929 -2.4102 -0.2563
3.3863 -2.4204 -0.2541
3.8943 -1.9975 0.4053
3.8992 -1.9805 0.3873
3.8921 -1.9801 0.3665
3.8880 -1.9752 0.3459
3.8830 -1.9712 0.3248
3.8773 -1.9682 0.3033
3.8708 -1.9662 0.2814
3.8671 -1.9598 0.2590
3.8516 -1.9711 0.2374
3.8272 -1.9966 0.2176
3.8024 -2.0236 0.1994
3.7971 -2.0197 0.1776
3.8599 -1.8730 0.0759
3.8615 -1.8537 0.0439
3.8800 -1.7216 -0.1532
3.8849 -1.6886 -0.2015
3.8987 -1.6360 -0.2622
3.8610 -1.6867 -0.2714
3.8231 -1.7403 -0.2760
3.7766 -1.8148 -0.2647
3.7450 -1.8600 -0.2674
3.7150 -1.9041 -0.2680
3.6885 -1.9421 -0.2702
3.6355 -2.0243 -0.2626
3.6136 -2.0572 -0.2614
3.5937 -2.0868 -0.2610
3.5726 -2.1216 -0.2541
3.5582 -2.1396 -0.2602
3.5265 -2.1883 -0.2566
3.5146 -2.2027 -0.2627
3.5012 -2.2231 -0.2615
3.4888 -2.2418 -0.2607
3.4758 -2.2642 -0.2546
3.4663 -2.2750 -0.2606
3.4561 -2.2902 -0.2605
3.4376 -2.3158 -0.2636
3.4279 -2.3336 -0.2571
3.4200 -2.3439 -0.2598
3.4118 -2.3570 -0.2577
3.4042 -2.3686 -0.2570
3.3903 -2.3885 -0.2582
3.3838 -2.3983 -0.2579
3.3774 -2.4087 -0.2559
3.9154 -2.0160 0.5715
3.8645 -2.0017 0.4074
3.8725 -1.9796 0.3906
3.8704 -1.9716 0.3711
3.8619 -1.9730 0.3502
3.8612 -1.9624 0.3298
3.8560 -1.9583 0.3086
3.8472 -1.9598 0.2869
3.8537 -1.9367 0.2643
3.8433 -1.9402 0.2419
3.8089 -1.9833 0.2232
3.7840 -2.0117 0.2049
3.7745 -2.0148 0.1844
3.7700 -2.0090 0.1622
3.8287 -1.8742 0.0870
4.2584 -0.9922 -0.2802
4.1674 -1.1326 -0.2834
4.0817 -1.2684 -0.2803
3.8505 -1.7097 -0.1409
3.8417 -1.7032 -0.1762
3.8432 -1.6739 -0.2234
3.8285 -1.6787 -0.2551
3.7942 -1.7283 -0.2623
3.7654 -1.7674 -0.2727
3.7299 -1.8245 -0.2698
3.7023 -1.8654 -0.2739
3.6737 -1.9109 -0.2724
3.6485 -1.9502 -0.2725
3.6205 -1.9999 -0.2624
3.5785 -2.0679 -0.2584
3.5626 -2.0897 -0.2636
3.5433 -2.1242 -0.2561
3.5287 -2.1456 -0.2585
3.5138 -2.1700 -0.2567
3.4888 -2.2064 -0.2613
3.4764 -2.2271 -0.2591
3.4652 -2.2445 -0.2593
3.4548 -2.2602 -0.2603
3.4435 -2.2819 -0.2531
3.4348 -2.2935 -0.2568
3.4262 -2.3057 -0.2590
3.4176 -2.3194 -0.2586
3.4097 -2.3306 -0.2604
3.4017 -2.3448 -0.2575
3.3876 -2.3653 -0.2602
3.3811 -2.3740 -0.2629
3.3745 -2.3862 -0.2595
3.3684 -2.3962 -0.2588
3.3626 -2.4024 -0.2636
3.8459 -2.0019 0.4291
3.8457 -1.9915 0.4117
3.8612 -1.9565 0.3968
3.8576 -1.9502 0.3769
3.8442 -1.9591 0.3553
3.8404 -1.9529 0.3348
3.8380 -1.9440 0.3139
3.8330 -1.9389 0.2923
3.8322 -1.9264 0.2701
3.8273 -1.9206 0.2473
3.7658 -1.9999 0.2105
3.7583 -1.9994 0.1895
3.7517 -1.9971 0.1680
4.2502 -0.8892 -0.2879
4.0847 -1.1566 -0.2992
3.8192 -1.6767 -0.1701
3.8068 -1.6771 -0.2029
3.7957 -1.6740 -0.2377
3.7704 -1.7055 -0.2548
3.7451 -1.7385 -0.2693
3.7091 -1.8012 -0.2644
3.6801 -1.8488 -0.2651
3.6575 -1.8817 -0.2727
3.6266 -1.9404 -0.2606
3.6059 -1.9727 -0.2640
3.5857 -2.0055 -0.2651
3.5636 -2.0471 -0.2571
3.5474 -2.0719 -0.2605
3.5306 -2.1006 -0.2591
3.5168 -2.1208 -0.2634
3.4887 -2.1689 -0.2610
3.4650 -2.2074 -0.2625
3.4428 -2.2468 -0.2581
3.4338 -2.2587 -0.2630
3.4241 -2.2769 -0.2597
3.4158 -2.2886 -0.2631
3.4075 -2.3018 -0.2640
3.3990 -2.3195 -0.2580
3.3916 -2.3317 -0.2583
3.3845 -2.3430 -0.2590
3.3775 -2.3565 -0.2559
3.3712 -2.3653 -0.2587
3.3649 -2.3771 -0.2564
3.3590 -2.3865 -0.2570
3.8307 -1.9980 0.4506
3.8281 -1.9912 0.4332
3.8313 -1.9747 0.4169
3.8461 -1.9389 0.4022
3.8399 -1.9363 0.3819
3.8347 -1.9318 0.3615
3.8265 -1.9322 0.3404
3.8166 -1.9355 0.3190
3.8181 -1.9188 0.2978
3.8079 -1.9221 0.2759
3.8082 -1.9066 0.2531
3.7897 -1.9250 0.2318
3.7527 -1.9789 0.2150
3.7388 -1.9905 0.1955
3.7355 -1.9815 0.1732
4.2416 -0.8676 -0.1614
4.2728 -0.7569 -0.2452
4.2251 -0.8143 -0.2854
4.0605 -1.0965 -0.2973
3.7936 -1.6572 -0.1610
3.7857 -1.6459 -0.1988
3.7775 -1.6347 -0.2376
3.7539 -1.6634 -0.2571
3.7245 -1.7094 -0.2657
3.6963 -1.7550 -0.2720
3.6653 -1.8115 -0.2690
3.6408 -1.8521 -0.2730
3.6121 -1.9086 -0.2638
3.5693 -1.9853 -0.2620
3.5340 -2.0464 -0.2636
3.5024 -2.1039 -0.2608
3.4758 -2.1506 -0.2612
3.4638 -2.1715 -0.2616
3.4515 -2.1964 -0.2567
3.4408 -2.2154 -0.2564
3.4314 -2.2293 -0.2604
3.4219 -2.2464 -0.2600
3.4126 -2.2641 -0.2578
3.4047 -2.2744 -0.2633
3.3960 -2.2943 -0.2565
3.3888 -2.3036 -0.2616
3.3814 -2.3177 -0.2601
3.3744 -2.3300 -0.2600
3.3676 -2.3461 -0.2538
3.3614 -2.3543 -0.2578
3.3554 -2.3664 -0.2556
3.3497 -2.3744 -0.2587
3.3442 -2.3848 -0.2577
3.8498 -1.9947 0.5602
3.8446 -1.9925 0.5434
3.8426 -1.9851 0.5279
3.8307 -1.9931 0.5077
3.8354 -1.9748 0.4945
3.8227 -1.9837 0.4738
3.8200 -1.9767 0.4568
3.8183 -1.9676 0.4398
3.8175 -1.9567 0.4224
3.8250 -1.9311 0.4064
3.8256 -1.9166 0.3876
3.8147 -1.9218 0.3663
3.8082 -1.9191 0.3455
3.7973 -1.9091 0.3031
3.7954 -1.8970 0.2812
3.7896 -1.8917 0.2587
3.7802 -1.8932 0.2362
3.7480 -1.9406 0.2180
3.7210 -1.9790 0.2010
3.7147 -1.9754 0.1797
3.7096 -1.9691 0.1576
4.2219 -0.7821 -0.1594
4.2298 -0.7157 -0.2316
4.2043 -0.7241 -0.2865
3.9256 -1.2668 -0.2581
3.8676 -1.3761 -0.2572
3.8229 -1.4554 -0.2633
3.7827 -1.5269 -0.2686
3.7452 -1.5952 -0.2715
3.7063 -1.6718 -0.2663
3.6739 -1.7336 -0.2648
