ply
format ascii 1.0
element vertex 2098
property float x
property float y
property float z
end_header
4.6062 0.4633 0.9135
4.6766 0.4493 0.9086
4.7182 0.3721 0.8960
4.7991 0.3899 0.8953
4.8098 0.2600 0.8763
3.8629 -1.9430 0.5996
3.8525 -2.0033 0.5914
2.8051 -2.2236 0.5764
3.2681 0.1177 0.8380
3.3480 0.0777 0.8305
3.4319 0.1245 0.8331
3.9249 -0.7601 0.7111
4.0346 -0.5891 0.7276
4.1597 -0.3942 0.7464
4.4147 0.1274 0.7994
4.5138 0.2003 0.8046
4.5137 0.0296 0.7844
4.6102 0.0977 0.7891
4.6272 -0.0127 0.7754
3.9319 -1.7248 0.5965
3.9202 -1.8002 0.5880
3.8566 -1.9632 0.5709
3.8673 -1.9858 0.5678
0.1796 -0.3698 0.8018
2.8051 -2.2269 0.5504
3.1887 0.0795 0.7560
3.2659 -0.0946 0.7374
3.3456 -0.0511 0.7392
3.5771 -1.1590 0.6282
3.8263 -0.9376 0.6418
4.0666 -0.5163 0.6744
4.4604 0.2209 0.7322
4.5610 0.1167 0.7194
4.5582 -0.0459 0.7042
4.0548 -1.4326 0.5885
3.9282 -1.7425 0.5631
3.8515 -1.9808 0.5429
3.8706 -1.9885 0.5417
1.1334 -1.3490 0.6249
0.2990 -0.3977 0.7105
2.8075 -2.2363 0.5237
3.1025 0.3897 0.6984
3.1922 0.0306 0.6714
3.2702 -0.0874 0.6614
3.3366 -0.2895 0.6458
3.7524 -1.2109 0.5722
3.8514 -1.0366 0.5819
3.8945 -1.0497 0.5800
3.9850 -0.9277 0.5863
3.9620 -1.1163 0.5738
4.0329 -1.0502 0.5767
4.0112 -1.2085 0.5662
4.0403 -1.2364 0.5636
4.1032 -1.1882 0.5654
4.1171 -1.2442 0.5612
3.9041 -1.7988 0.5279
3.9183 -1.8236 0.5259
3.8569 -1.9799 0.5165
3.8761 -1.9875 0.5155
-0.0236 -0.2156 0.6381
-0.0941 -0.0350 0.6473
3.0065 0.5290 0.6158
3.1053 0.4388 0.6100
3.1976 0.2523 0.6001
3.2745 -0.0805 0.5840
3.3373 -0.3514 0.5710
3.3910 -0.5581 0.5609
3.4477 -0.6341 0.5565
3.8628 -0.8560 0.5392
3.9373 -0.7862 0.5409
3.9949 -0.7735 0.5404
4.0365 -0.8049 0.5383
4.0559 -0.8891 0.5342
4.0537 -1.0165 0.5287
4.0901 -1.0394 0.5270
4.1249 -1.0626 0.5253
4.1336 -1.1385 0.5218
3.9585 -1.6475 0.5026
3.9202 -1.7786 0.4975
3.9244 -1.8225 0.4955
3.8699 -1.9657 0.4902
3.8896 -1.9730 0.4895
1.3106 -1.7449 0.4992
0.1627 -0.4068 0.5384
0.1364 -0.2759 0.5412
3.0216 0.2571 0.5148
3.1146 0.1187 0.5110
3.2018 0.2641 0.5126
3.3592 -0.0551 0.5047
3.3863 -0.6637 0.4931
4.0006 -0.6107 0.4864
4.0234 -0.7116 0.4842
4.1784 -0.4369 0.4874
4.4391 0.0816 0.4937
4.4529 -0.0574 0.4909
3.9044 -1.8187 0.4652
3.9037 -1.8697 0.4643
3.8753 -1.9650 0.4629
3.8886 -1.9832 0.4623
1.2640 -1.7188 0.4513
-0.5846 0.5335 0.4476
2.8338 -2.3144 0.4449
2.9835 -1.9477 0.4412
3.0142 -1.9177 0.4408
3.0101 0.6006 0.4224
3.1194 0.0383 0.4258
3.2855 -0.0103 0.4250
3.3520 -0.2504 0.4263
3.3848 -0.7295 0.4296
3.4288 -0.8861 0.4304
3.5824 -0.1753 0.4242
3.6360 -0.3003 0.4247
3.7369 -1.1634 0.4303
3.8209 -1.0385 0.4288
3.9821 -0.6913 0.4252
4.0900 -0.5412 0.4233
4.3650 0.0459 0.4172
4.4745 0.1448 0.4157
4.5426 0.1346 0.4153
4.6093 0.1241 0.4149
4.5928 -0.0670 0.4164
3.9248 -1.7357 0.4332
3.9231 -1.7939 0.4336
3.8703 -1.9825 0.4354
3.8811 -2.0043 0.4354
2.8368 -2.3252 0.4204
2.9554 -1.9852 0.4089
2.9850 -1.9557 0.4078
3.0152 -1.9218 0.4067
2.8696 1.2099 0.3021
3.0209 0.4233 0.3282
3.1236 -0.0100 0.3426
3.2084 0.0966 0.3390
3.2861 -0.1112 0.3458
3.3569 -0.2441 0.3502
3.3966 -0.6422 0.3635
3.4468 -0.7639 0.3675
3.5635 -0.3553 0.3537
3.6466 -0.2721 0.3508
3.6450 -1.1751 0.3810
3.6952 -1.1640 0.3806
3.7190 -1.2466 0.3833
3.8498 -0.9636 0.3737
4.0010 -0.6562 0.3633
4.3782 0.0536 0.3391
4.4672 0.0983 0.3375
4.5461 0.1157 0.3369
4.6755 0.2489 0.3323
4.8916 0.5602 0.3216
3.9207 -1.7544 0.4001
3.9303 -1.7909 0.4013
3.8715 -1.9891 0.4080
3.8685 -2.0336 0.4095
1.2789 -1.7505 0.3536
0.2256 -0.6135 0.2804
2.8412 -2.3397 0.3963
2.8500 -2.1061 0.3824
2.8717 -2.0659 0.3801
2.8948 -2.0234 0.3776
2.9490 -1.9491 0.3734
3.0221 0.4746 0.2285
3.1248 0.1481 0.2485
3.2141 0.2322 0.2439
3.2995 0.1254 0.2507
3.3649 -0.1896 0.2699
3.4095 -0.5465 0.2915
3.4479 -0.7937 0.3065
3.5308 -0.6289 0.2971
3.6055 -0.5594 0.2932
3.6210 -1.0859 0.3249
3.6521 -1.1663 0.3298
3.7445 -1.1761 0.3309
3.8331 -1.0391 0.3231
4.1020 -0.5537 0.2953
4.4127 0.1176 0.2565
4.4929 0.1353 0.2558
4.5731 0.1530 0.2551
4.6923 0.2593 0.2493
3.9071 -1.7335 0.3651
3.9173 -1.7717 0.3674
3.9214 -1.8176 0.3702
3.9346 -1.8438 0.3718
3.8811 -1.9813 0.3798
3.8900 -2.0064 0.3813
2.9798 -1.9178 0.3364
3.0170 -1.9282 0.3377
3.0498 -1.9023 0.3358
3.6763 -1.0869 0.2717
3.7051 -1.1672 0.2790
3.7435 -1.1990 0.2821
3.8000 -1.1659 0.2799
3.8925 -1.0278 0.2689
4.1244 -0.5142 0.2268
4.4269 0.1265 0.1744
4.6764 0.5656 0.1389
3.8879 -1.7824 0.3343
3.8785 -1.8556 0.3406
3.8957 -1.8746 0.3424
3.8844 -1.9844 0.3518
3.8869 -2.0200 0.3549
2.8562 -2.3137 0.3436
3.6616 -0.9464 0.2012
3.7188 -0.9338 0.2007
3.7514 -1.0138 0.2104
3.7847 -1.0761 0.2180
3.8533 -1.0149 0.2122
3.9478 -0.8833 0.1988
4.6518 0.4729 0.0559
3.9143 -1.6792 0.2889
3.9077 -1.7545 0.2974
3.8824 -1.8585 0.3089
3.8919 -1.8913 0.3127
3.8921 -1.9374 0.3180
3.8794 -2.0017 0.3251
3.8757 -2.0466 0.3302
0.0663 -0.7124 0.0272
0.2576 -0.7812 0.0413
0.5033 -0.9031 0.0642
0.5378 -0.8476 0.0571
1.3372 0.3148 -0.0893
2.8426 -2.3526 0.3227
2.8689 -2.3519 0.3232
2.9249 -2.3650 0.3263
2.9525 -2.3741 0.3282
2.9805 -2.3883 0.3309
3.0045 -2.3891 0.3316
3.6797 -0.8895 0.1346
4.2418 0.7879 -0.0901
4.2942 0.6447 -0.0686
4.0747 -0.3347 0.0651
4.0523 -0.5964 0.1016
4.3431 0.0423 0.0178
4.5934 0.5019 -0.0416
4.7146 0.5959 -0.0521
4.7756 0.5422 -0.0431
4.9536 0.7546 -0.0692
5.0300 0.7348 -0.0646
4.0813 -1.4293 0.2202
3.8707 -2.0248 0.2997
3.8871 -2.0364 0.3017
0.3602 -0.8822 -0.0239
0.3681 -0.8036 -0.0370
0.4735 -0.8066 -0.0335
0.5082 -0.7463 -0.0427
0.3150 -0.4652 -0.0959
0.2352 -0.2754 -0.1304
0.3892 -0.3133 -0.1195
0.4840 -0.2923 -0.1203
0.5122 -0.0605 -0.1588
0.6667 -0.1043 -0.1469
0.7910 -0.1153 -0.1415
0.9349 -0.1564 -0.1303
1.0092 -0.1046 -0.1370
1.1476 -0.1459 -0.1260
1.2424 -0.1249 -0.1268
1.3372 -0.1040 -0.1276
1.3962 -0.0191 -0.1402
1.4572 0.0702 -0.1536
2.8761 -2.3746 0.3019
2.9022 -2.3759 0.3029
2.9297 -2.3830 0.3049
2.9582 -2.3969 0.3081
3.1454 -2.4750 0.3267
3.1651 -2.4797 0.3281
3.6535 -0.7642 0.0514
3.6824 -0.9036 0.0759
3.7713 -0.7696 0.0557
4.2029 0.2979 -0.1128
4.0383 -0.4759 0.0137
4.5465 0.5701 -0.1489
4.7014 0.7479 -0.1746
4.7823 0.7283 -0.1690
4.8621 0.7105 -0.1636
4.8227 0.4348 -0.1180
4.0909 -1.4245 0.1760
4.1165 -1.4461 0.1804
4.1329 -1.4820 0.1870
0.0758 -0.5729 -0.1781
0.2502 -0.6268 -0.1613
0.6449 -0.8874 -0.0959
0.9668 -0.6113 -0.1392
1.0694 -0.6158 -0.1347
1.2010 -0.5325 -0.1465
1.2855 -0.5138 -0.1472
1.4017 -0.5425 -0.1375
1.5427 -0.6158 -0.1180
2.8927 -2.3497 0.2726
2.9219 -2.3594 0.2755
2.9449 -2.3493 0.2743
2.9709 -2.3506 0.2755
2.9919 -2.3298 0.2721
3.0193 -2.3399 0.2751
3.1439 -2.4149 0.2943
3.1658 -2.4653 0.3051
3.1854 -2.4730 0.3073
3.2046 -2.4758 0.3085
3.5693 -0.9302 0.0155
3.6259 -0.9307 0.0176
3.6816 -0.9325 0.0199
3.7299 -0.9610 0.0273
3.7799 -0.9761 0.0320
3.9765 -0.6936 -0.0170
4.0287 -0.7122 -0.0114
4.5000 -0.1509 -0.1059
4.0064 -1.5994 0.1633
4.0704 -1.5441 0.1546
4.0866 -1.5767 0.1617
0.6595 -1.0813 -0.1335
0.7520 -1.0818 -0.1296
0.9147 -1.0659 -0.1264
0.9702 -1.0336 -0.1314
1.0430 -1.0176 -0.1320
1.1157 -1.0015 -0.1326
1.1885 -0.9855 -0.1333
1.2309 -0.9342 -0.1431
1.3194 -0.9356 -0.1391
1.4334 -0.9713 -0.1263
1.4922 -0.9384 -0.1313
1.5766 -0.9397 -0.1275
1.6483 -0.9239 -0.1281
1.6977 -0.8731 -0.1376
1.7704 -0.8570 -0.1382
1.8733 -0.8942 -0.1255
1.9793 -0.7899 -0.1447
2.0346 -0.7348 -0.1549
2.1177 -0.7384 -0.1506
2.9216 -2.3605 0.2503
3.0270 -2.3831 0.2598
3.0474 -2.3596 0.2553
3.1527 -0.5718 -0.1454
3.2233 -0.6341 -0.1283
3.3385 -0.9400 -0.0542
3.4071 -0.8500 -0.0718
3.4804 -0.7550 -0.0903
3.5669 -0.9724 -0.0374
3.6285 -0.9449 -0.0411
3.6907 -0.9182 -0.0446
3.7501 -0.9050 -0.0451
3.7939 -0.9483 -0.0335
3.8048 -1.0916 -0.0005
4.0201 -0.7596 -0.0668
4.1458 -0.5742 -0.1036
4.2823 -0.3813 -0.1416
4.3800 -0.3009 -0.1558
4.4425 -0.3071 -0.1518
4.5244 -0.2690 -0.1570
4.5544 -0.3403 -0.1396
4.1251 -1.3872 0.0797
4.0915 -1.5183 0.1081
3.9847 -1.7675 0.1601
0.8610 -1.2642 -0.1547
1.3452 -1.2584 -0.1329
1.4219 -1.2573 -0.1295
1.5093 -1.2698 -0.1221
1.5831 -1.2684 -0.1190
1.6361 -1.2418 -0.1232
1.6791 -1.2006 -0.1317
1.7629 -1.2138 -0.1243
3.0511 -2.1853 0.1859
3.2188 -1.0094 -0.1067
3.2782 -1.0101 -0.1037
3.3360 -1.0241 -0.0973
3.3964 -0.9979 -0.1011
3.4522 -1.0124 -0.0948
3.5026 -1.0528 -0.0820
3.5772 -0.9441 -0.1062
3.6459 -0.8873 -0.1174
3.7001 -0.9031 -0.1108
3.7603 -0.8898 -0.1113
3.8287 -0.8470 -0.1190
3.8806 -0.8633 -0.1123
3.8815 -1.0306 -0.0695
3.9283 -1.0431 -0.0641
4.3148 -0.6187 -0.1540
4.3791 -0.6045 -0.1546
4.4260 -0.6259 -0.1469
4.1139 -1.4224 0.0418
4.1527 -1.4207 0.0432
1.2854 -1.6293 -0.0994
1.2258 -1.5184 -0.1342
1.2721 -1.4944 -0.1385
1.3654 -1.5132 -0.1281
1.4126 -1.4900 -0.1322
1.4917 -1.4981 -0.1255
1.5392 -1.4748 -0.1296
1.5972 -1.4621 -0.1301
1.6551 -1.4493 -0.1306
1.7131 -1.4365 -0.1311
1.7796 -1.4346 -0.1280
1.8538 -1.4438 -0.1213
1.9027 -1.4202 -0.1254
1.9524 -1.3964 -0.1294
2.0244 -1.4061 -0.1227
2.0813 -1.3936 -0.1232
2.1252 -1.3583 -0.1309
2.1828 -1.3456 -0.1314
2.2288 -1.3098 -0.1391
2.3033 -1.3318 -0.1288
2.3703 -1.3416 -0.1223
2.4178 -1.3065 -0.1297
2.4750 -1.2939 -0.1302
2.5283 -1.2693 -0.1343
2.5859 -1.2566 -0.1348
2.6402 -1.2318 -0.1389
2.7010 -1.2312 -0.1358
2.7637 -1.2429 -0.1290
3.0215 -2.1832 0.1532
3.0506 -2.1768 0.1530
3.0488 -1.1918 -0.1281
3.1050 -1.1676 -0.1319
3.1616 -1.1167 -0.1433
3.2190 -1.1296 -0.1365
3.2744 -1.1538 -0.1266
3.3315 -1.1294 -0.1305
3.3921 -1.0786 -0.1416
3.4397 -1.1419 -0.1210
3.4952 -1.1297 -0.1215
3.5624 -1.0538 -0.1394
3.6196 -1.0412 -0.1399
3.6768 -1.0286 -0.1404
3.7341 -1.0159 -0.1409
3.7990 -0.9760 -0.1487
3.8570 -0.9632 -0.1492
3.8839 -1.0439 -0.1248
3.9174 -1.0936 -0.1088
4.0202 -0.9528 -0.1433
4.0887 -0.9120 -0.1512
4.1467 -0.8992 -0.1517
4.2046 -0.8865 -0.1522
4.2626 -0.8737 -0.1527
4.2791 -0.9448 -0.1315
4.1160 -1.3579 -0.0226
4.1116 -1.4405 0.0008
4.1728 -1.3985 -0.0079
4.5026 -0.8955 -0.1334
4.6014 -0.8117 -0.1519
4.6682 -0.7841 -0.1561
1.3919 -1.7280 -0.1210
1.4441 -1.7165 -0.1214
1.4962 -1.7050 -0.1218
1.5304 -1.6769 -0.1286
1.5832 -1.6653 -0.1290
1.6271 -1.6449 -0.1328
1.6886 -1.6420 -0.1299
1.7495 -1.6393 -0.1271
1.7941 -1.6188 -0.1308
1.8544 -1.6162 -0.1280
1.9068 -1.6046 -0.1284
1.9592 -1.5930 -0.1288
2.0116 -1.5815 -0.1293
2.0641 -1.5699 -0.1297
2.1220 -1.5669 -0.1271
2.3072 -1.5856 -0.1099
2.3537 -1.5666 -0.1131
2.4002 -1.5465 -0.1166
2.4512 -1.5353 -0.1170
2.4982 -1.5141 -0.1208
2.5532 -1.5128 -0.1179
2.6100 -1.5188 -0.1125
2.6688 -1.5351 -0.1037
2.8041 -1.4368 -0.1265
3.0522 -2.1866 0.1250
3.1147 -1.4074 -0.1168
3.1651 -1.3777 -0.1230
3.2152 -1.4047 -0.1115
3.2642 -1.4125 -0.1060
3.3166 -1.3628 -0.1185
3.3703 -1.3216 -0.1282
3.4201 -1.3214 -0.1252
3.4729 -1.2990 -0.1290
3.5300 -1.2561 -0.1391
3.5843 -1.2343 -0.1426
3.6502 -1.1660 -0.1601
3.7103 -1.1302 -0.1677
3.7515 -1.1651 -0.1542
3.8084 -1.1418 -0.1581
3.8429 -1.1870 -0.1417
3.8909 -1.1872 -0.1388
3.9386 -1.1864 -0.1361
4.0663 -1.1064 -0.1535
4.1667 -1.0950 -0.1509
4.1002 -1.4029 -0.0580
4.0679 -1.5352 -0.0183
4.1798 -1.4000 -0.0540
4.3766 -1.1288 -0.1275
4.4271 -1.1177 -0.1279
4.2926 -1.4592 -0.0285
1.5393 -1.8590 -0.1221
1.5791 -1.8414 -0.1254
1.6272 -1.8308 -0.1258
1.6677 -1.8132 -0.1292
1.7160 -1.8025 -0.1296
1.7788 -1.8061 -0.1241
1.7989 -1.7667 -0.1364
1.8679 -1.7777 -0.1279
1.9096 -1.7597 -0.1313
1.9828 -1.7785 -0.1198
2.0302 -1.7681 -0.1202
2.0662 -1.7427 -0.1265
2.1086 -1.7246 -0.1299
2.1567 -1.7139 -0.1303
2.2291 -1.7407 -0.1162
2.2624 -1.7081 -0.1252
2.3366 -1.6480 -0.1409
2.4014 -1.6686 -0.1294
2.4568 -1.6739 -0.1238
2.4867 -1.6236 -0.1392
2.5483 -1.6450 -0.1276
2.5870 -1.6102 -0.1370
2.6788 -1.5725 -0.1438
3.0259 -2.2093 0.0997
3.0535 -2.1935 0.0962
3.0816 -2.1776 0.0926
3.1677 -1.4995 -0.1359
3.2654 -1.4430 -0.1488
3.3114 -1.4678 -0.1371
3.3612 -1.4393 -0.1436
3.4084 -1.4376 -0.1409
3.4565 -1.4270 -0.1414
3.5063 -1.4073 -0.1448
3.5508 -1.4149 -0.1391
3.6031 -1.3859 -0.1456
3.6491 -1.3845 -0.1430
3.6999 -1.3645 -0.1464
3.7453 -1.3632 -0.1438
3.7935 -1.3526 -0.1442
3.8416 -1.3420 -0.1446
3.8934 -1.3218 -0.1481
3.9379 -1.3207 -0.1454
3.9902 -1.3004 -0.1489
4.0386 -1.2898 -0.1493
4.0730 -1.3084 -0.1405
4.0927 -1.3535 -0.1236
4.0936 -1.4300 -0.0971
4.0944 -1.4997 -0.0730
4.1862 -1.4028 -0.1003
4.2665 -1.3317 -0.1194
4.3123 -1.3216 -0.1198
4.2720 -1.4479 -0.0788
4.2605 -1.5213 -0.0543
1.6854 -1.9871 -0.1151
1.7155 -1.9660 -0.1208
1.7393 -1.9385 -0.1293
1.8419 -1.9313 -0.1244
1.8798 -1.9152 -0.1276
1.9243 -1.9054 -0.1280
1.9629 -1.8892 -0.1312
2.0133 -1.8858 -0.1288
2.0736 -1.8946 -0.1209
2.1076 -1.8727 -0.1266
2.1708 -1.8876 -0.1163
2.1961 -1.8531 -0.1274
2.2577 -1.8684 -0.1170
2.3165 -1.8824 -0.1074
2.3556 -1.8671 -0.1103
2.3915 -1.8457 -0.1156
2.5184 -1.8109 -0.1193
2.5471 -1.7679 -0.1333
2.6487 -1.7821 -0.1204
2.6964 -1.7851 -0.1157
2.7529 -1.8198 -0.0984
2.9626 -2.1948 0.0583
2.9952 -2.2040 0.0642
3.0284 -2.2246 0.0744
3.0559 -2.2099 0.0709
3.0832 -2.1884 0.0649
3.1129 -2.1905 0.0679
3.2057 -1.9455 -0.0174
3.2474 -1.8196 -0.0616
3.2969 -1.6795 -0.1106
3.3392 -1.6702 -0.1110
3.3834 -1.6469 -0.1164
3.4307 -1.6095 -0.1270
3.4756 -1.5919 -0.1303
3.5130 -1.6116 -0.1201
3.5647 -1.5655 -0.1336
3.6148 -1.5322 -0.1423
3.6548 -1.5379 -0.1372
3.7012 -1.5209 -0.1402
3.7483 -1.5028 -0.1435
3.8782 -1.4818 -0.1417
3.9038 -1.6747 -0.0672
3.9397 -1.6716 -0.0657
3.9684 -1.6817 -0.0597
4.0515 -1.8079 -0.0060
1.7312 -2.0749 -0.1234
1.7602 -2.0561 -0.1287
1.8135 -2.0567 -0.1241
1.8775 -2.0675 -0.1145
1.8958 -2.0386 -0.1248
1.9312 -2.0241 -0.1278
1.9933 -2.0352 -0.1182
2.0193 -2.0113 -0.1259
2.0605 -2.0022 -0.1262
2.0924 -1.9827 -0.1315
2.1339 -1.9736 -0.1319
2.1794 -1.9693 -0.1299
2.2252 -1.9659 -0.1276
2.2500 -1.9346 -0.1383
2.3075 -1.9477 -0.1283
2.3448 -1.9328 -0.1313
2.3862 -1.9236 -0.1317
2.4246 -1.9094 -0.1344
2.4689 -1.9054 -0.1324
2.5164 -1.9083 -0.1273
2.5574 -1.8992 -0.1277
2.5929 -1.8780 -0.1334
2.6757 -1.8597 -0.1341
2.8732 -2.2162 0.0272
2.9062 -2.2213 0.0320
2.9358 -2.2148 0.0317
2.9647 -2.2055 0.0303
2.9993 -2.2266 0.0417
3.0344 -2.2629 0.0594
3.0856 -2.2076 0.0410
3.1144 -2.2012 0.0407
3.1432 -2.1949 0.0405
3.1719 -2.1914 0.0414
3.2467 -1.8715 -0.0828
3.2874 -1.8252 -0.0984
3.3374 -1.7137 -0.1398
3.3778 -1.7114 -0.1374
3.4168 -1.7153 -0.1326
3.4587 -1.7003 -0.1353
3.5028 -1.6771 -0.1412
3.5424 -1.6751 -0.1388
3.5748 -1.6986 -0.1266
3.6208 -1.6702 -0.1344
3.6659 -1.6478 -0.1398
3.7071 -1.6387 -0.1402
3.7586 -1.6015 -0.1511
3.7948 -1.6069 -0.1460
3.8336 -1.6041 -0.1440
3.8422 -1.7458 -0.0855
3.8826 -1.7311 -0.0882
3.9540 -1.6560 -0.1130
3.9729 -1.6853 -0.0995
3.9930 -1.7661 -0.0650
4.0157 -1.8290 -0.0375
4.0373 -1.8405 -0.0310
4.0580 -1.8522 -0.0246
1.8271 -2.1571 -0.1243
1.8712 -2.1531 -0.1221
1.9095 -2.1446 -0.1225
1.9381 -2.1279 -0.1273
1.9954 -2.1361 -0.1186
2.0425 -2.1362 -0.1144
2.0802 -2.1279 -0.1147
2.1263 -2.1281 -0.1105
2.1556 -2.1112 -0.1154
2.1897 -2.0989 -0.1177
2.2159 -2.0770 -0.1251
2.2654 -2.0822 -0.1184
2.2856 -2.0511 -0.1302
2.3411 -2.0655 -0.1190
2.3692 -2.0432 -0.1264
2.4135 -2.0438 -0.1221
2.4604 -2.0496 -0.1154
2.5112 -2.0641 -0.1046
2.5354 -2.0331 -0.1161
2.5607 -2.0009 -0.1280
2.8180 -2.2453 0.0021
2.8497 -2.2449 0.0048
2.8726 -2.2171 -0.0054
2.8990 -2.1970 -0.0119
2.8912 -2.0324 -0.0849
2.9198 -1.9929 -0.0997
2.9510 -1.9565 -0.1129
3.0656 -2.2847 0.0413
3.1441 -2.1895 0.0065
3.1732 -2.1954 0.0116
3.2017 -2.1976 0.0151
3.2297 -2.2010 0.0191
3.4053 -1.8040 -0.1397
3.4397 -1.8173 -0.1308
3.4777 -1.8089 -0.1312
3.5184 -1.7895 -0.1361
3.5567 -1.7810 -0.1364
3.5884 -1.7949 -0.1275
3.6429 -1.7344 -0.1493
3.7076 -1.7534 -0.1352
3.7367 -1.7679 -0.1263
3.7769 -1.7533 -0.1291
3.8249 -1.7218 -0.1387
3.8335 -1.7769 -0.1137
3.8727 -1.7635 -0.1162
3.9216 -1.7318 -0.1257
3.9556 -1.7300 -0.1235
3.9964 -1.7153 -0.1264
4.0269 -1.7190 -0.1220
4.0745 -1.6933 -0.1291
4.1086 -1.6905 -0.1273
1.8751 -2.2372 -0.1247
1.9064 -2.2256 -0.1272
1.9474 -2.2213 -0.1253
1.9744 -2.2059 -0.1300
2.0248 -2.2098 -0.1233
2.0684 -2.2087 -0.1197
2.1008 -2.1978 -0.1217
2.1239 -2.1776 -0.1290
2.1640 -2.1734 -0.1271
2.1890 -2.1538 -0.1340
2.2291 -2.1496 -0.1321
2.2799 -2.1583 -0.1232
2.3157 -2.1503 -0.1235
2.3484 -2.1384 -0.1260
2.3957 -2.1459 -0.1180
2.5281 -2.0987 -0.1276
2.5705 -2.1026 -0.1217
2.6126 -2.1074 -0.1154
2.7346 -2.2805 -0.0222
2.7586 -2.2620 -0.0286
2.8287 -2.0777 -0.1088
2.8958 -2.0534 -0.1138
2.9307 -2.0457 -0.1141
3.0652 -2.2773 0.0079
3.1748 -2.0635 -0.0824
3.2306 -2.2135 -0.0064
3.2564 -2.2332 0.0054
3.2816 -2.2456 0.0137
3.3885 -1.9220 -0.1286
3.4267 -1.9004 -0.1352
3.4607 -1.9014 -0.1315
3.4939 -1.9035 -0.1273
3.5321 -1.8856 -0.1321
3.5690 -1.8737 -0.1342
3.6101 -1.8495 -0.1416
3.6424 -1.8527 -0.1370
3.6807 -1.8386 -0.1400
3.7143 -1.8369 -0.1376
3.7503 -1.8289 -0.1379
3.7820 -1.8304 -0.1342
3.8222 -1.8131 -0.1385
3.8613 -1.7988 -0.1415
3.9056 -1.7748 -0.1486
3.9393 -1.7721 -0.1466
3.9726 -1.7695 -0.1447
4.0120 -1.7561 -0.1473
4.0378 -1.7655 -0.1404
3.9514 -1.9930 -0.0414
3.9642 -2.0119 -0.0313
1.9526 -2.3012 -0.1249
1.9904 -2.2966 -0.1234
2.0627 -2.2854 -0.1216
2.1078 -2.2876 -0.1159
2.1336 -2.2734 -0.1203
2.1937 -2.2517 -0.1251
2.2314 -2.2481 -0.1230
2.2711 -2.2468 -0.1196
2.3082 -2.2433 -0.1176
2.3354 -2.2289 -0.1220
2.3802 -2.2349 -0.1144
2.4134 -2.2276 -0.1147
2.4285 -2.1962 -0.1290
2.4723 -2.2024 -0.1213
2.5129 -2.2056 -0.1155
2.5440 -2.1950 -0.1177
2.5895 -2.2084 -0.1063
2.6240 -2.2045 -0.1047
2.6565 -2.1974 -0.1049
2.7318 -2.2791 -0.0560
2.7497 -2.1655 -0.1114
2.7799 -2.1514 -0.1154
2.8103 -2.1362 -0.1199
2.8481 -2.1438 -0.1122
2.8849 -2.1507 -0.1050
2.9129 -2.1258 -0.1147
2.9466 -2.1221 -0.1131
3.0511 -2.3715 0.0234
3.0779 -2.0931 -0.1142
3.1107 -2.0858 -0.1145
3.1436 -2.0823 -0.1128
3.1763 -2.0639 -0.1188
3.2092 -2.0603 -0.1172
3.2419 -2.0569 -0.1156
3.2713 -2.0878 -0.0969
3.3084 -2.2548 -0.0090
3.3331 -2.2596 -0.0040
3.4353 -2.0292 -0.1097
3.4749 -1.9933 -0.1237
3.5081 -1.9859 -0.1240
3.5413 -1.9786 -0.1242
3.5728 -1.9763 -0.1221
3.6152 -1.9426 -0.1348
3.6423 -1.9526 -0.1270
3.6702 -1.9586 -0.1211
3.7089 -1.9379 -0.1275
3.7502 -1.9128 -0.1359
3.7884 -1.8960 -0.1405
3.8514 -1.8905 -0.1368
3.8730 -1.9054 -0.1270
3.9007 -1.9077 -0.1230
3.9260 -1.9134 -0.1176
3.9168 -1.9744 -0.0878
3.9042 -2.0362 -0.0579
3.9290 -2.0363 -0.0553
3.9625 -2.0233 -0.0584
2.0318 -2.3657 -0.1200
2.0531 -2.3507 -0.1256
2.0769 -2.3371 -0.1303
2.1056 -2.3270 -0.1326
2.1460 -2.3265 -0.1284
2.1850 -2.3253 -0.1248
2.2105 -2.3123 -0.1290
2.2427 -2.3051 -0.1292
2.2834 -2.3064 -0.1241
2.3101 -2.2940 -0.1278
2.3451 -2.2900 -0.1261
2.3819 -2.2884 -0.1229
2.4006 -2.2656 -0.1331
2.4330 -2.2585 -0.1334
2.4774 -2.2673 -0.1237
2.5115 -2.2635 -0.1220
2.5389 -2.2500 -0.1263
2.5729 -2.2462 -0.1246
2.6027 -2.2359 -0.1268
2.6365 -2.2322 -0.1251
2.6666 -2.2218 -0.1273
2.7372 -2.2945 -0.0805
2.7677 -2.2906 -0.0793
2.7695 -2.2177 -0.1182
2.7995 -2.2073 -0.1205
2.8263 -2.1865 -0.1287
2.8553 -2.1699 -0.1344
2.8894 -2.1698 -0.1307
2.9221 -2.1654 -0.1295
2.9520 -2.1486 -0.1353
3.0833 -2.1484 -0.1209
3.1134 -2.1167 -0.1346
3.1456 -2.1133 -0.1329
3.1777 -2.0941 -0.1397
3.2096 -2.0991 -0.1334
3.2415 -2.0949 -0.1322
3.2724 -2.0992 -0.1265
3.3049 -2.0846 -0.1308
3.3612 -2.2572 -0.0319
3.4640 -2.0495 -0.1321
3.5014 -2.0226 -0.1424
3.5338 -2.0155 -0.1427
3.5619 -2.0214 -0.1364
3.5986 -2.0012 -0.1432
3.6274 -2.0032 -0.1390
3.6567 -2.0032 -0.1357
3.6886 -1.9962 -0.1360
3.7220 -1.9860 -0.1378
3.7580 -1.9706 -0.1421
3.7860 -1.9719 -0.1383
3.8141 -1.9722 -0.1351
3.8460 -1.9652 -0.1353
3.8869 -1.9422 -0.1432
3.8689 -2.0196 -0.1036
3.8598 -2.0765 -0.0741
3.8993 -2.0529 -0.0824
3.9778 -1.9714 -0.1175
2.0784 -2.4057 -0.1278
2.1118 -2.4011 -0.1265
2.1358 -2.3894 -0.1304
2.1926 -2.4036 -0.1156
2.2574 -2.3948 -0.1130
2.3010 -2.4009 -0.1044
2.3303 -2.3944 -0.1047
2.3519 -2.3804 -0.1101
2.3638 -2.3557 -0.1228
2.3989 -2.3544 -0.1194
2.4357 -2.3555 -0.1145
2.4700 -2.3544 -0.1111
2.4933 -2.3400 -0.1166
2.5248 -2.3358 -0.1153
2.5546 -2.3292 -0.1155
2.5973 -2.3419 -0.1032
2.6140 -2.3161 -0.1160
2.6422 -2.3071 -0.1178
2.6785 -2.3120 -0.1108
2.7105 -2.3105 -0.1079
2.7373 -2.2990 -0.1113
2.7641 -2.2867 -0.1152
2.7937 -2.2801 -0.1154
2.8255 -2.2796 -0.1120
2.8567 -2.2782 -0.1091
2.8833 -2.2631 -0.1146
2.9111 -2.2505 -0.1185
2.9445 -2.2589 -0.1099
2.9713 -2.2409 -0.1169
3.0029 -2.2459 -0.1104
3.0894 -2.2112 -0.1200
3.1194 -2.2110 -0.1166
3.1488 -2.1980 -0.1205
3.1785 -2.1915 -0.1208
3.2078 -2.1980 -0.1137
3.2381 -2.1756 -0.1229
3.2677 -2.1718 -0.1216
3.2981 -2.1596 -0.1250
3.3265 -2.1625 -0.1199
3.3532 -2.1723 -0.1112
3.3673 -2.2393 -0.0713
3.3964 -2.2246 -0.0763
3.4513 -2.1119 -0.1342
3.5684 -2.0962 -0.1294
3.6267 -2.0870 -0.1278
3.6950 -2.0553 -0.1378
3.7149 -2.0703 -0.1269
3.7542 -2.0450 -0.1367
3.7844 -2.0384 -0.1370
3.8252 -2.0127 -0.1468
3.8426 -2.0292 -0.1354
3.8281 -2.0970 -0.0984
3.8384 -2.1196 -0.0843
3.8763 -2.0974 -0.0925
3.9460 -2.0285 -0.1236
3.9778 -2.0187 -0.1255
2.1367 -2.4536 -0.1266
2.1723 -2.4522 -0.1230
2.1974 -2.4430 -0.1254
2.2146 -2.4272 -0.1328
2.2499 -2.4259 -0.1292
2.2815 -2.4216 -0.1278
2.3056 -2.4108 -0.1313
2.3450 -2.4140 -0.1244
2.3829 -2.4167 -0.1181
2.4070 -2.4059 -0.1216
2.4285 -2.3919 -0.1274
2.4533 -2.3810 -0.1309
2.5177 -2.3759 -0.1259
2.5536 -2.3790 -0.1196
2.5769 -2.3656 -0.1247
2.6056 -2.3592 -0.1250
2.6405 -2.3625 -0.1186
2.6689 -2.3563 -0.1189
2.6959 -2.3476 -0.1208
2.7230 -2.3388 -0.1227
2.7540 -2.3375 -0.1196
2.7929 -2.3545 -0.1044
2.8107 -2.3250 -0.1201
2.8362 -2.3111 -0.1253
2.8695 -2.3184 -0.1167
2.8926 -2.2959 -0.1274
2.9227 -2.2947 -0.1244
2.9534 -2.2971 -0.1191
3.1228 -2.2561 -0.1227
3.1512 -2.2535 -0.1208
3.1796 -2.2234 -0.1354
3.2083 -2.2262 -0.1301
3.2663 -2.2070 -0.1345
3.2959 -2.1950 -0.1380
3.3218 -2.2094 -0.1261
3.3433 -2.2413 -0.1041
3.3657 -2.2593 -0.0905
3.3899 -2.2640 -0.0846
3.4261 -2.2203 -0.1065
3.4934 -2.1688 -0.1292
3.5185 -2.1724 -0.1239
3.5515 -2.1532 -0.1314
3.5852 -2.1338 -0.1388
3.6075 -2.1436 -0.1302
3.6401 -2.1281 -0.1354
3.6632 -2.1340 -0.1290
3.6996 -2.1113 -0.1381
3.7333 -2.0957 -0.1434
3.7552 -2.1027 -0.1364
3.7840 -2.0964 -0.1366
3.8170 -2.0827 -0.1408
3.8230 -2.1528 -0.0977
3.8512 -2.1447 -0.0990
2.2231 -2.4954 -0.1218
2.2523 -2.4908 -0.1209
2.3000 -2.4730 -0.1259
2.3443 -2.4814 -0.1147
2.3599 -2.4652 -0.1230
2.3849 -2.4569 -0.1249
2.4207 -2.4590 -0.1188
2.4434 -2.4486 -0.1225
2.4813 -2.4538 -0.1141
2.5136 -2.4540 -0.1097
2.5403 -2.4481 -0.1100
2.5651 -2.4399 -0.1119
2.5870 -2.4278 -0.1168
2.6186 -2.4281 -0.1124
2.6485 -2.4269 -0.1091
2.6736 -2.4187 -0.1111
2.6964 -2.4064 -0.1159
2.7283 -2.4093 -0.1098
2.7475 -2.3896 -0.1199
2.7778 -2.3902 -0.1155
2.8069 -2.3892 -0.1122
2.8336 -2.3834 -0.1125
2.8577 -2.3708 -0.1173
2.8869 -2.3716 -0.1129
2.9144 -2.3682 -0.1114
2.9388 -2.3547 -0.1168
2.9682 -2.3591 -0.1101
2.9941 -2.3506 -0.1121
3.0742 -2.3357 -0.1110
3.0990 -2.3093 -0.1246
3.1267 -2.3159 -0.1167
3.1536 -2.3127 -0.1152
3.1801 -2.3141 -0.1107
3.2069 -2.3009 -0.1156
3.2342 -2.2849 -0.1222
3.2618 -2.2734 -0.1260
3.2872 -2.2805 -0.1180
3.3135 -2.2774 -0.1165
3.3421 -2.2611 -0.1232
3.3685 -2.2580 -0.1216
3.3917 -2.2674 -0.1125
3.4245 -2.2374 -0.1273
3.4517 -2.2314 -0.1276
3.4754 -2.2362 -0.1214
3.5070 -2.2165 -0.1298
3.5320 -2.2165 -0.1265
3.5626 -2.2015 -0.1320
3.5932 -2.1875 -0.1369
3.6145 -2.1955 -0.1290
3.6430 -2.1865 -0.1309
3.6702 -2.1805 -0.1312
3.7049 -2.1601 -0.1396
3.7291 -2.1602 -0.1363
3.7566 -2.1541 -0.1366
3.7736 -2.1658 -0.1268
3.7935 -2.1714 -0.1206
3.8162 -2.1719 -0.1173
3.8566 -2.1448 -0.1293
3.8916 -2.1271 -0.1360
3.9152 -2.1264 -0.1333
2.2586 -2.5268 -0.1274
2.2896 -2.5245 -0.1246
2.3140 -2.5173 -0.1261
2.3472 -2.5172 -0.1215
2.3683 -2.5071 -0.1253
2.3945 -2.5014 -0.1255
2.4530 -2.4957 -0.1211
2.4717 -2.4825 -0.1274
2.5085 -2.4879 -0.1186
2.5344 -2.4822 -0.1188
2.5570 -2.4727 -0.1220
2.5861 -2.4708 -0.1192
2.6138 -2.4674 -0.1176
2.6305 -2.4493 -0.1275
2.6584 -2.4458 -0.1259
2.6871 -2.4440 -0.1231
2.7082 -2.4303 -0.1294
2.7642 -2.4252 -0.1250
2.8163 -2.4136 -0.1254
2.8396 -2.4013 -0.1305
2.8701 -2.4063 -0.1229
2.8966 -2.4023 -0.1219
2.9224 -2.3965 -0.1221
2.9765 -2.3945 -0.1158
3.0006 -2.3820 -0.1209
3.1294 -2.3509 -0.1238
3.1551 -2.3362 -0.1301
3.1812 -2.3304 -0.1304
3.2075 -2.3201 -0.1336
3.2332 -2.3234 -0.1278
3.2592 -2.3177 -0.1280
3.2848 -2.3147 -0.1264
3.3124 -2.2987 -0.1333
3.3358 -2.3080 -0.1238
3.3632 -2.2947 -0.1289
3.3897 -2.2871 -0.1303
3.4178 -2.2737 -0.1354
3.4441 -2.2679 -0.1356
3.4672 -2.2718 -0.1297
3.4966 -2.2563 -0.1361
3.5229 -2.2505 -0.1363
3.5579 -2.2229 -0.1500
3.5767 -2.2359 -0.1386
3.5995 -2.2381 -0.1339
3.6242 -2.2353 -0.1323
3.6558 -2.2184 -0.1393
3.6806 -2.2156 -0.1376
3.7085 -2.2068 -0.1397
3.7349 -2.2009 -0.1399
3.7564 -2.2034 -0.1352
3.7793 -2.2029 -0.1324
3.8120 -2.1866 -0.1388
3.8327 -2.1893 -0.1341
3.8645 -2.1750 -0.1392
3.8968 -2.1607 -0.1443
2.2901 -2.5784 -0.1170
2.3130 -2.5716 -0.1185
2.3350 -2.5640 -0.1206
2.3599 -2.5585 -0.1208
2.3831 -2.5516 -0.1223
2.4123 -2.5496 -0.1193
2.4444 -2.5506 -0.1139
2.4596 -2.5365 -0.1216
2.4845 -2.5310 -0.1218
2.5130 -2.5292 -0.1189
2.5378 -2.5237 -0.1191
2.5693 -2.5257 -0.1130
2.5951 -2.5218 -0.1120
2.6121 -2.5073 -0.1197
2.6369 -2.5018 -0.1200
2.6634 -2.4987 -0.1183
2.6902 -2.4963 -0.1160
2.7127 -2.4878 -0.1187
2.7350 -2.4784 -0.1221
2.7621 -2.4769 -0.1191
2.7885 -2.4746 -0.1168
2.8115 -2.4660 -0.1195
2.8350 -2.4581 -0.1216
2.8633 -2.4608 -0.1155
2.8878 -2.4554 -0.1157
2.9123 -2.4500 -0.1159
2.9349 -2.4387 -0.1206
2.9617 -2.4409 -0.1151
2.9866 -2.4372 -0.1140
3.0119 -2.4361 -0.1111
3.0706 -2.4956 -0.0601
3.0881 -2.4506 -0.0894
3.1080 -2.4041 -0.1195
3.1326 -2.3987 -0.1197
3.1569 -2.3790 -0.1301
3.1817 -2.3905 -0.1182
3.2066 -2.3761 -0.1248
3.2301 -2.3879 -0.1129
3.2548 -2.3780 -0.1163
3.2817 -2.3532 -0.1299
3.3067 -2.3477 -0.1301
3.3304 -2.3487 -0.1258
3.3566 -2.3367 -0.1305
3.3828 -2.3264 -0.1339
3.4048 -2.3323 -0.1265
3.4301 -2.3249 -0.1280
3.4581 -2.3098 -0.1345
3.4791 -2.3159 -0.1271
3.5038 -2.3105 -0.1273
3.5341 -2.2912 -0.1365
3.5563 -2.2926 -0.1322
3.5790 -2.2921 -0.1292
3.6086 -2.2766 -0.1358
3.6337 -2.2710 -0.1360
3.6599 -2.2635 -0.1375
3.6772 -2.2722 -0.1288
3.6979 -2.2739 -0.1245
3.7225 -2.2685 -0.1247
3.7496 -2.2589 -0.1275
3.7776 -2.2482 -0.1309
3.7990 -2.2480 -0.1279
3.8309 -2.2320 -0.1345
2.2966 -2.6098 -0.1218
2.3185 -2.6032 -0.1233
2.3359 -2.5931 -0.1281
2.3601 -2.5878 -0.1283
2.3825 -2.5810 -0.1298
2.4085 -2.5771 -0.1287
2.4369 -2.5753 -0.1257
2.4609 -2.5700 -0.1259
2.4881 -2.5675 -0.1234
2.5121 -2.5622 -0.1236
2.5346 -2.5555 -0.1252
2.5614 -2.5531 -0.1227
2.5900 -2.5530 -0.1183
2.6623 -2.5388 -0.1176
2.6882 -2.5367 -0.1152
2.7144 -2.5353 -0.1121
2.7322 -2.5216 -0.1195
2.8322 -2.5111 -0.1118
2.8788 -2.5008 -0.1122
2.9444 -2.4712 -0.1240
3.0173 -2.4622 -0.1193
3.0453 -2.4818 -0.1003
3.0730 -2.5104 -0.0747
3.0941 -2.5004 -0.0788
3.1112 -2.4362 -0.1241
3.1824 -2.4240 -0.1220
3.2307 -2.4000 -0.1324
3.2539 -2.4029 -0.1266
3.2775 -2.3995 -0.1255
3.3023 -2.3878 -0.1303
3.3259 -2.3843 -0.1292
3.3475 -2.3893 -0.1221
3.3746 -2.3700 -0.1323
3.3986 -2.3647 -0.1325
3.4232 -2.3575 -0.1340
3.4453 -2.3580 -0.1302
3.4987 -2.3329 -0.1406
3.5170 -2.3422 -0.1308
3.5388 -2.3418 -0.1277
3.5625 -2.3365 -0.1279
3.6615 -2.3085 -0.1334
3.6801 -2.3124 -0.1276
3.7094 -2.2979 -0.1338
3.7288 -2.2998 -0.1293
3.7526 -2.2946 -0.1295
3.7777 -2.2873 -0.1311
3.8066 -2.2747 -0.1359
2.3149 -2.6470 -0.1182
2.3417 -2.6446 -0.1156
2.3625 -2.6382 -0.1172
2.3758 -2.6265 -0.1242
2.4044 -2.6255 -0.1203
2.4327 -2.6245 -0.1164
2.4589 -2.6223 -0.1139
2.4765 -2.6131 -0.1182
2.4977 -2.6066 -0.1197
2.5142 -2.5959 -0.1254
2.5403 -2.5937 -0.1228
2.5706 -2.5958 -0.1162
2.5932 -2.5908 -0.1164
2.6146 -2.5844 -0.1179
2.6373 -2.5793 -0.1181
2.6638 -2.5788 -0.1142
2.6887 -2.5768 -0.1117
2.7078 -2.5673 -0.1160
2.7315 -2.5638 -0.1148
2.7541 -2.5589 -0.1150
2.7776 -2.5554 -0.1138
2.7983 -2.5473 -0.1167
2.8209 -2.5423 -0.1169
2.8452 -2.5405 -0.1144
2.8692 -2.5387 -0.1118
2.8874 -2.5241 -0.1203
2.9127 -2.5256 -0.1149
2.9318 -2.5108 -0.1234
2.9557 -2.5091 -0.1208
2.9807 -2.5123 -0.1141
3.0011 -2.4990 -0.1212
3.0242 -2.4957 -0.1200
3.0478 -2.4958 -0.1161
3.0726 -2.5062 -0.1039
3.0946 -2.5013 -0.1041
3.1145 -2.4705 -0.1249
3.1378 -2.4741 -0.1182
3.1603 -2.4674 -0.1198
3.1832 -2.4500 -0.1297
3.2062 -2.4449 -0.1299
3.2286 -2.4470 -0.1245
3.2511 -2.4456 -0.1220
3.2742 -2.4370 -0.1249
3.2958 -2.4393 -0.1196
3.3191 -2.4306 -0.1225
3.3430 -2.4200 -0.1269
3.3663 -2.4131 -0.1285
3.3861 -2.4193 -0.1203
3.4110 -2.4068 -0.1261
3.4357 -2.3960 -0.1304
3.4552 -2.4005 -0.1237
3.4779 -2.3955 -0.1239
3.5061 -2.3770 -0.1338
3.5258 -2.3797 -0.1284
3.5532 -2.3648 -0.1356
3.5725 -2.3676 -0.1302
3.5964 -2.3606 -0.1318
3.6193 -2.3555 -0.1320
3.6423 -2.3504 -0.1322
3.6617 -2.3514 -0.1282
3.6870 -2.3423 -0.1312
3.7112 -2.3352 -0.1328
3.7301 -2.3363 -0.1288
3.7543 -2.3292 -0.1304
3.7771 -2.3242 -0.1306
3.7985 -2.3212 -0.1294
2.3488 -2.6732 -0.1182
2.4157 -2.6593 -0.1181
2.4312 -2.6498 -0.1232
2.4444 -2.6381 -0.1305
2.4720 -2.6372 -0.1264
2.4926 -2.6310 -0.1280
2.5229 -2.6330 -0.1211
2.5356 -2.6197 -0.1298
2.5625 -2.6190 -0.1258
2.5861 -2.6155 -0.1245
2.6040 -2.6063 -0.1290
2.6499 -2.5980 -0.1279
2.6734 -2.5945 -0.1267
2.6956 -2.5896 -0.1269
2.7178 -2.5847 -0.1271
2.7421 -2.5829 -0.1244
2.7652 -2.5795 -0.1232
2.7853 -2.5716 -0.1262
2.8093 -2.5698 -0.1235
2.8304 -2.5634 -0.1252
2.8517 -2.5569 -0.1268
2.8724 -2.5489 -0.1298
2.9203 -2.5479 -0.1223
2.9887 -2.5424 -0.1150
3.0101 -2.5368 -0.1159
3.0314 -2.5304 -0.1175
3.0535 -2.5273 -0.1163
3.0751 -2.5225 -0.1165
3.0958 -2.5083 -0.1245
3.1178 -2.5043 -0.1240
3.2275 -2.4801 -0.1249
3.2495 -2.4743 -0.1258
3.2725 -2.4623 -0.1318
3.2938 -2.4628 -0.1277
3.3162 -2.4561 -0.1293
3.3395 -2.4457 -0.1338
3.3594 -2.4501 -0.1268
3.3814 -2.4452 -0.1270
3.4033 -2.4404 -0.1271
3.4500 -2.4231 -0.1333
3.4744 -2.4124 -0.1378
3.4936 -2.4152 -0.1322
3.5166 -2.4084 -0.1338
3.5360 -2.4093 -0.1297
3.5581 -2.4045 -0.1299
3.5831 -2.3937 -0.1344
3.6053 -2.3888 -0.1346
3.6230 -2.3919 -0.1290
3.6485 -2.3810 -0.1335
3.6719 -2.3741 -0.1352
3.6967 -2.3651 -0.1382
3.7190 -2.3602 -0.1384
3.7399 -2.3574 -0.1372
3.7607 -2.3545 -0.1359
3.7798 -2.3538 -0.1332
2.3637 -2.7049 -0.1148
2.3858 -2.7009 -0.1143
2.4058 -2.6956 -0.1152
2.4317 -2.6942 -0.1117
2.4393 -2.6804 -0.1222
2.4716 -2.6837 -0.1135
2.4863 -2.6743 -0.1189
2.5075 -2.6697 -0.1190
2.5345 -2.6698 -0.1141
2.5514 -2.6617 -0.1179
2.5694 -2.6543 -0.1211
2.5973 -2.6559 -0.1146
2.6110 -2.6442 -0.1222
2.6372 -2.6445 -0.1172
2.6568 -2.6384 -0.1188
2.6779 -2.6338 -0.1190
2.7021 -2.6328 -0.1155
2.7242 -2.6296 -0.1142
2.7401 -2.6183 -0.1210
2.7666 -2.6212 -0.1138
2.7849 -2.6128 -0.1177
2.8078 -2.6112 -0.1149
2.8287 -2.6066 -0.1151
2.8500 -2.6027 -0.1145
2.8709 -2.5981 -0.1147
2.8914 -2.5927 -0.1156
2.9116 -2.5865 -0.1173
2.9335 -2.5843 -0.1152
2.9535 -2.5773 -0.1176
2.9745 -2.5727 -0.1178
2.9971 -2.5737 -0.1128
3.0170 -2.5659 -0.1159
3.0382 -2.5629 -0.1146
3.0580 -2.5525 -0.1200
3.0784 -2.5436 -0.1239
3.0995 -2.5390 -0.1241
3.1210 -2.5386 -0.1205
3.1422 -2.5374 -0.1177
3.1630 -2.5284 -0.1216
3.1841 -2.5247 -0.1211
3.2051 -2.5200 -0.1212
3.2263 -2.5127 -0.1237
3.2485 -2.4974 -0.1328
3.2675 -2.5106 -0.1180
3.2895 -2.4988 -0.1242
3.3110 -2.4923 -0.1259
3.3311 -2.4922 -0.1223
3.3533 -2.4830 -0.1262
3.3739 -2.4801 -0.1249
3.3965 -2.4708 -0.1288
3.4167 -2.4690 -0.1268
3.4403 -2.4577 -0.1322
3.4642 -2.4463 -0.1376
3.4794 -2.4569 -0.1258
3.5034 -2.4455 -0.1312
3.5412 -2.4458 -0.1241
3.5586 -2.4480 -0.1190
3.5859 -2.4316 -0.1282
3.6087 -2.4240 -0.1306
3.6282 -2.4223 -0.1285
3.6462 -2.4226 -0.1250
3.6705 -2.4129 -0.1289
3.6936 -2.4052 -0.1313
3.7142 -2.4016 -0.1308
3.7339 -2.3989 -0.1294
3.7566 -2.3922 -0.1311
2.4658 -2.7031 -0.1227
2.4863 -2.6986 -0.1229
2.5334 -2.6942 -0.1179
2.5538 -2.6897 -0.1181
2.5741 -2.6852 -0.1182
2.5991 -2.6848 -0.1138
2.6352 -2.6717 -0.1188
2.6597 -2.6715 -0.1143
2.7166 -2.6538 -0.1195
2.8020 -2.6418 -0.1140
2.8413 -2.6314 -0.1159
2.8628 -2.6292 -0.1137
2.8817 -2.6225 -0.1162
2.9214 -2.6120 -0.1181
2.9429 -2.6107 -0.1152
3.0047 -2.6022 -0.1111
3.0637 -2.5840 -0.1162
3.0842 -2.5821 -0.1141
3.1039 -2.5751 -0.1166
3.1237 -2.5665 -0.1206
3.1438 -2.5577 -0.1246
3.1643 -2.5584 -0.1202
3.2049 -2.5468 -0.1228
3.2248 -2.5467 -0.1191
3.2450 -2.5423 -0.1193
3.3070 -2.5217 -0.1260
3.4312 -2.4900 -0.1309
3.4517 -2.4854 -0.1311
3.4711 -2.4838 -0.1289
3.4941 -2.4735 -0.1338
3.5133 -2.4718 -0.1316
3.5329 -2.4692 -0.1302
3.5503 -2.4706 -0.1257
3.5690 -2.4690 -0.1236
3.6119 -2.4561 -0.1270
3.6354 -2.4466 -0.1311
3.6584 -2.4381 -0.1344
3.6811 -2.4305 -0.1369
3.7038 -2.4229 -0.1394
3.7202 -2.4244 -0.1349
2.7998 -4.1106 -0.1187
2.8204 -4.1053 -0.1181
2.8419 -4.0981 -0.1159
2.8628 -4.0919 -0.1145
2.8826 -4.0876 -0.1147
2.9025 -4.0833 -0.1149
2.9228 -4.0780 -0.1143
2.9833 -4.0624 -0.1124
3.0205 -4.0618 -0.1197
3.0616 -4.0487 -0.1161
3.0816 -4.0435 -0.1155
3.1414 -4.0280 -0.1137
3.1612 -4.0237 -0.1138
3.1811 -4.0169 -0.1117
3.2008 -4.0151 -0.1141
3.2205 -4.0092 -0.1128
3.2402 -4.0041 -0.1121
3.3000 -3.9961 -0.1173
3.3200 -3.9926 -0.1182
3.3399 -3.9883 -0.1183
3.3589 -3.9808 -0.1154
3.3787 -3.9765 -0.1156
3.3977 -3.9699 -0.1134
3.4174 -3.9656 -0.1136
3.4374 -3.9621 -0.1145
3.4581 -3.9601 -0.1170
3.4757 -3.9512 -0.1125
3.4961 -3.9485 -0.1142
3.5184 -3.9487 -0.1190
3.5360 -3.9407 -0.1153
3.5537 -3.9334 -0.1123
3.5739 -3.9299 -0.1133
3.5951 -3.9278 -0.1157
3.6126 -3.9207 -0.1128
3.6375 -3.9228 -0.1199
3.6580 -3.9192 -0.1209
3.6753 -3.9121 -0.1179
3.6937 -3.9064 -0.1165
3.7543 -3.8949 -0.1185
3.7741 -3.8906 -0.1187
3.7923 -3.8850 -0.1173
3.8095 -3.8787 -0.1151
3.8317 -3.8764 -0.1176
3.8505 -3.8715 -0.1170
3.8730 -3.8691 -0.1195
3.8927 -3.8648 -0.1196
3.9106 -3.8593 -0.1182
3.9273 -3.8531 -0.1161
3.9459 -3.8483 -0.1154
3.9666 -3.8446 -0.1164
3.9884 -3.8416 -0.1181
4.0058 -3.8361 -0.1167
2.6959 -4.1711 -0.1264
2.7188 -4.1636 -0.1244
2.7410 -4.1571 -0.1230
2.7620 -4.1525 -0.1232
2.7835 -4.1470 -0.1226
2.8054 -4.1405 -0.1213
2.8238 -4.1408 -0.1252
2.8448 -4.1362 -0.1254
2.8680 -4.1269 -0.1218
2.8881 -4.1243 -0.1235
2.9086 -4.1207 -0.1244
2.9498 -4.1134 -0.1262
2.9702 -4.1107 -0.1278
2.9918 -4.1043 -0.1265
3.0135 -4.0970 -0.1245
3.0349 -4.0907 -0.1231
3.0568 -4.0817 -0.1196
3.0783 -4.0728 -0.1160
3.0989 -4.0683 -0.1162
3.1197 -4.0621 -0.1149
3.1401 -4.0594 -0.1165
3.2019 -4.0468 -0.1178
3.2226 -4.0465 -0.1217
3.2433 -4.0420 -0.1218
3.2640 -4.0367 -0.1212
3.2842 -4.0281 -0.1177
3.3054 -4.0277 -0.1216
3.3259 -4.0216 -0.1202
3.3666 -4.0102 -0.1183
3.4077 -4.0012 -0.1187
3.4277 -3.9952 -0.1173
3.4489 -3.9923 -0.1190
3.4698 -3.9886 -0.1199
3.4901 -3.9834 -0.1193
3.5091 -3.9758 -0.1165
3.5283 -3.9691 -0.1144
3.5532 -3.9722 -0.1220
3.5739 -3.9677 -0.1222
3.5920 -3.9595 -0.1186
3.6136 -3.9565 -0.1203
3.6331 -3.9506 -0.1190
3.6518 -3.9440 -0.1169
3.6729 -3.9403 -0.1178
3.7011 -3.9443 -0.1269
3.7315 -3.9241 -0.1153
3.8342 -3.9027 -0.1168
3.8503 -3.8949 -0.1132
3.8741 -3.8932 -0.1164
3.9187 -3.8869 -0.1197
3.9382 -3.8818 -0.1192
3.9995 -3.8685 -0.1196
4.0232 -3.8659 -0.1221
2.7766 -4.1673 -0.1127
2.7979 -4.1627 -0.1129
2.8193 -4.1580 -0.1131
2.9904 -4.1191 -0.1130
3.0129 -4.1100 -0.1096
3.0332 -4.1090 -0.1126
3.0544 -4.1044 -0.1128
3.0757 -4.0998 -0.1130
3.0968 -4.0960 -0.1139
3.1396 -4.0842 -0.1120
3.1606 -4.0822 -0.1144
3.2243 -4.0641 -0.1113
3.2669 -4.0591 -0.1152
3.2886 -4.0578 -0.1182
3.3094 -4.0498 -0.1155
3.3299 -4.0411 -0.1121
3.3511 -4.0365 -0.1123
3.3730 -4.0352 -0.1153
3.4163 -4.0283 -0.1178
3.4574 -4.0152 -0.1146
3.4779 -4.0090 -0.1133
3.4990 -4.0044 -0.1135
3.5193 -3.9983 -0.1122
3.5430 -3.9983 -0.1167
3.5642 -3.9937 -0.1169
3.5825 -3.9845 -0.1127
3.6021 -3.9777 -0.1107
3.6247 -3.9754 -0.1130
3.6458 -3.9708 -0.1132
3.6692 -3.9691 -0.1162
3.6904 -3.9645 -0.1164
3.7129 -3.9614 -0.1180
3.7328 -3.9553 -0.1168
3.7752 -3.9461 -0.1171
3.8215 -3.9403 -0.1210
3.8387 -3.9323 -0.1176
3.8599 -3.9277 -0.1178
3.8811 -3.9231 -0.1179
3.9023 -3.9185 -0.1181
3.9253 -3.9152 -0.1197
3.9428 -3.9080 -0.1170
3.9688 -3.9066 -0.1208
3.9890 -3.9014 -0.1202
4.0082 -3.8955 -0.1189
4.0294 -3.8909 -0.1191
4.0484 -3.8851 -0.1178
4.0696 -3.8805 -0.1180
2.6619 -4.2389 -0.1233
2.7107 -4.2231 -0.1195
2.7320 -4.2202 -0.1211
2.7534 -4.2172 -0.1227
2.7749 -4.2143 -0.1242
2.7995 -4.2055 -0.1216
2.8220 -4.2006 -0.1218
2.8409 -4.2034 -0.1275
2.8637 -4.1985 -0.1277
2.8848 -4.1973 -0.1306
2.9105 -4.1848 -0.1253
2.9351 -4.1743 -0.1213
2.9575 -4.1695 -0.1215
2.9805 -4.1627 -0.1203
3.0024 -4.1597 -0.1219
3.0240 -4.1585 -0.1248
3.0469 -4.1518 -0.1236
3.0694 -4.1469 -0.1238
3.0934 -4.1322 -0.1164
3.1165 -4.1203 -0.1110
3.1383 -4.1172 -0.1126
3.2267 -4.1075 -0.1209
3.2488 -4.0993 -0.1183
3.2712 -4.0961 -0.1199
3.3377 -4.0800 -0.1190
3.3590 -4.0710 -0.1157
3.3815 -4.0679 -0.1173
3.4293 -4.0687 -0.1266
3.4518 -4.0638 -0.1268
3.4736 -4.0574 -0.1256
3.4933 -4.0462 -0.1202
3.5136 -4.0375 -0.1169
3.5373 -4.0358 -0.1199
3.5595 -4.0309 -0.1201
3.5858 -4.0330 -0.1265
3.6063 -4.0251 -0.1239
3.6251 -4.0150 -0.1192
3.6461 -4.0087 -0.1180
3.6705 -4.0068 -0.1210
3.6992 -4.0101 -0.1288
3.7205 -4.0037 -0.1276
3.7390 -3.9945 -0.1236
3.7640 -3.9926 -0.1265
3.7864 -3.9877 -0.1267
3.8059 -3.9800 -0.1241
3.8266 -3.9738 -0.1229
3.8874 -3.9545 -0.1185
3.9094 -3.9498 -0.1187
3.9332 -3.9463 -0.1203
3.9755 -3.9354 -0.1192
4.0044 -3.9352 -0.1243
4.0256 -3.9297 -0.1238
4.0437 -3.9223 -0.1212
4.0615 -3.9150 -0.1185
4.0857 -3.9115 -0.1201
2.9521 -4.1971 -0.1146
2.9760 -4.1893 -0.1128
3.2515 -4.1242 -0.1110
3.2743 -4.1192 -0.1112
3.3189 -4.1026 -0.1063
3.3428 -4.1044 -0.1118
3.3648 -4.0961 -0.1093
3.3888 -4.0961 -0.1135
3.4575 -4.0812 -0.1140
3.4777 -4.0698 -0.1089
3.5018 -4.0681 -0.1117
3.5231 -4.0600 -0.1092
3.5473 -4.0582 -0.1121
3.5718 -4.0564 -0.1149
3.5938 -4.0498 -0.1138
3.6156 -4.0434 -0.1126
3.6405 -4.0414 -0.1155
3.6623 -4.0350 -0.1143
3.6862 -4.0315 -0.1158
3.7091 -4.0265 -0.1160
3.7307 -4.0201 -0.1148
3.7522 -4.0137 -0.1137
3.7750 -4.0087 -0.1139
3.7992 -4.0052 -0.1154
3.8235 -4.0017 -0.1169
3.8418 -3.9925 -0.1131
3.8677 -3.9904 -0.1159
3.8905 -3.9854 -0.1161
3.9133 -3.9804 -0.1163
3.9344 -3.9741 -0.1151
3.9571 -3.9692 -0.1153
3.9781 -3.9629 -0.1142
4.0008 -3.9580 -0.1143
4.0274 -3.9557 -0.1172
4.0522 -3.9520 -0.1187
4.0730 -3.9458 -0.1176
4.0959 -3.9408 -0.1178
4.1230 -3.9384 -0.1206
4.1460 -3.9334 -0.1208
2.6443 -4.3162 -0.1226
2.6712 -4.3068 -0.1203
2.7889 -4.2892 -0.1270
2.8135 -4.2838 -0.1271
2.8389 -4.2765 -0.1261
2.8662 -4.2645 -0.1218
2.8898 -4.2611 -0.1233
2.9126 -4.2605 -0.1267
2.9372 -4.2552 -0.1269
2.9626 -4.2470 -0.1251
2.9880 -4.2380 -0.1228
3.0124 -4.2327 -0.1230
3.0368 -4.2274 -0.1232
3.0605 -4.2258 -0.1259
3.0859 -4.2141 -0.1217
3.1104 -4.2070 -0.1206
3.1343 -4.2062 -0.1240
3.1830 -4.1974 -0.1256
3.2074 -4.1877 -0.1226
3.2318 -4.1868 -0.1260
3.2555 -4.1694 -0.1173
3.3036 -4.1589 -0.1177
3.3295 -4.1656 -0.1268
3.3531 -4.1561 -0.1238
3.3780 -4.1533 -0.1259
3.3997 -4.1380 -0.1184
3.4245 -4.1353 -0.1205
3.4497 -4.1333 -0.1233
3.5161 -4.1031 -0.1123
3.5425 -4.1035 -0.1170
3.5701 -4.1054 -0.1230
3.5974 -4.1057 -0.1276
3.6176 -4.0934 -0.1221
3.6402 -4.0858 -0.1203
3.6658 -4.0829 -0.1224
3.6921 -4.0807 -0.1252
3.7152 -4.0739 -0.1241
3.7418 -4.0716 -0.1269
3.7648 -4.0649 -0.1258
3.7865 -4.0567 -0.1234
3.8106 -4.0514 -0.1236
3.8411 -4.0527 -0.1296
3.8633 -4.0453 -0.1278
3.8929 -4.0450 -0.1325
3.9071 -4.0305 -0.1244
3.9271 -4.0217 -0.1213
4.0148 -3.9948 -0.1163
4.0366 -3.9883 -0.1152
4.0564 -3.9805 -0.1128
4.0860 -3.9793 -0.1169
4.1149 -3.9774 -0.1203
4.1356 -3.9703 -0.1185
4.1551 -3.9626 -0.1161
2.7568 -4.2376 -0.0573
2.7686 -4.2536 -0.0702
2.8572 -4.2982 -0.1148
2.8795 -4.3004 -0.1199
2.9838 -4.2671 -0.1134
3.0099 -4.2570 -0.1106
3.1842 -4.2165 -0.1101
3.2090 -4.2111 -0.1103
3.4071 -4.1663 -0.1107
3.4311 -4.1585 -0.1090
3.4566 -4.1556 -0.1111
3.4813 -4.1502 -0.1113
3.5077 -4.1489 -0.1145
3.5544 -4.1317 -0.1100
3.5775 -4.1231 -0.1077
3.6038 -4.1210 -0.1104
3.6299 -4.1180 -0.1124
3.6477 -4.1017 -0.1040
3.6820 -4.1111 -0.1159
3.7025 -4.0995 -0.1112
3.7289 -4.0964 -0.1132
3.7518 -4.0888 -0.1116
3.7765 -4.0834 -0.1118
3.8064 -4.0840 -0.1169
3.8347 -4.0823 -0.1202
3.8505 -4.0674 -0.1124
3.8774 -4.0642 -0.1144
3.9060 -4.0624 -0.1177
3.9285 -4.0549 -0.1160
3.9517 -4.0481 -0.1150
3.9986 -4.0352 -0.1135
4.0259 -4.0319 -0.1156
4.0525 -4.0279 -0.1170
4.0726 -4.0191 -0.1141
4.1051 -4.0192 -0.1193
4.1270 -4.0118 -0.1176
4.1497 -4.0050 -0.1166
4.1713 -3.9977 -0.1149
4.1959 -3.9923 -0.1151
2.7018 -4.3936 -0.1245
2.7272 -4.3908 -0.1264
2.7540 -4.3850 -0.1266
2.7835 -4.3732 -0.1234
2.8102 -4.3674 -0.1236
2.8369 -4.3616 -0.1238
2.8647 -4.3529 -0.1222
2.8904 -4.3500 -0.1242
2.9162 -4.3471 -0.1262
2.9422 -4.3441 -0.1281
2.9712 -4.3298 -0.1231
2.9983 -4.3221 -0.1221
3.0245 -4.3182 -0.1235
3.0511 -4.3124 -0.1237
3.0778 -4.3066 -0.1239
3.1046 -4.2990 -0.1230
3.1842 -4.2862 -0.1265
3.2110 -4.2884 -0.1320
3.2379 -4.2799 -0.1305
3.2641 -4.2644 -0.1243
3.3157 -4.2406 -0.1165
3.3426 -4.2393 -0.1196
3.3704 -4.2413 -0.1251
3.3964 -4.2329 -0.1236
3.4222 -4.2246 -0.1220
3.4759 -4.2157 -0.1242
3.5024 -4.2099 -0.1244
3.5253 -4.1951 -0.1182
3.5525 -4.1919 -0.1201
3.5838 -4.1967 -0.1280
3.6026 -4.1756 -0.1170
3.6314 -4.1748 -0.1208
3.6577 -4.1690 -0.1210
3.6849 -4.1649 -0.1223
3.7060 -4.1514 -0.1167
3.7332 -4.1473 -0.1181
3.7628 -4.1462 -0.1218
3.7854 -4.1359 -0.1185
3.8185 -4.1386 -0.1252
3.8502 -4.1389 -0.1301
3.8754 -4.1316 -0.1291
3.8977 -4.1214 -0.1258
3.9323 -4.1237 -0.1325
3.9567 -4.1157 -0.1309
3.9833 -4.1099 -0.1311
4.0059 -4.1006 -0.1284
4.0349 -4.0969 -0.1304
4.0615 -4.0912 -0.1306
4.0881 -4.0854 -0.1308
4.0988 -4.0679 -0.1210
4.1230 -4.0608 -0.1200
4.1461 -4.0531 -0.1184
4.1671 -4.0441 -0.1157
4.1981 -4.0418 -0.1188
4.2273 -4.0382 -0.1208
4.2555 -4.0338 -0.1222
4.2816 -4.0281 -0.1224
3.3215 -4.2793 -0.1108
3.3472 -4.2638 -0.1049
3.4278 -4.2463 -0.1055
3.4559 -4.2447 -0.1085
3.4838 -4.2414 -0.1104
3.5094 -4.2313 -0.1078
3.5370 -4.2271 -0.1092
3.5662 -4.2262 -0.1127
3.5879 -4.2088 -0.1051
3.6160 -4.2054 -0.1070
3.6442 -4.2020 -0.1089
3.6721 -4.1978 -0.1102
3.6966 -4.1879 -0.1076
3.7277 -4.1884 -0.1123
3.7548 -4.1825 -0.1126
3.7836 -4.1789 -0.1145
3.8144 -4.1777 -0.1180
3.8417 -4.1717 -0.1183
3.8631 -4.1590 -0.1134
3.8944 -4.1576 -0.1170
3.9216 -4.1517 -0.1172
3.9555 -4.1524 -0.1225
3.9738 -4.1376 -0.1160
4.0010 -4.1317 -0.1162
4.0257 -4.1236 -0.1147
4.0503 -4.1156 -0.1132
4.0755 -4.1083 -0.1123
4.1043 -4.1039 -0.1137
4.1369 -4.1022 -0.1173
4.1972 -4.0945 -0.1211
4.2154 -4.0824 -0.1162
4.2394 -4.0745 -0.1147
4.2643 -4.0673 -0.1138
4.2912 -4.0615 -0.1140
4.3182 -4.0556 -0.1142
2.7235 -4.2887 -0.0045
2.6534 -4.5122 -0.1253
2.6830 -4.5058 -0.1256
2.7125 -4.4994 -0.1258
2.7434 -4.4899 -0.1245
2.7717 -4.4865 -0.1263
2.8024 -4.4771 -0.1249
2.8308 -4.4737 -0.1268
2.8614 -4.4643 -0.1254
2.8900 -4.4608 -0.1272
2.9204 -4.4515 -0.1259
2.9498 -4.4451 -0.1261
2.9793 -4.4387 -0.1263
3.0101 -4.4256 -0.1229
3.0410 -4.4098 -0.1178
3.0683 -4.4157 -0.1249
3.0980 -4.4065 -0.1236
3.1271 -4.4030 -0.1254
3.1563 -4.4003 -0.1278
3.1861 -4.3811 -0.1206
3.2152 -4.3811 -0.1245
3.2448 -4.3810 -0.1285
3.2740 -4.3710 -0.1266
3.3029 -4.3593 -0.1236
3.3309 -4.3441 -0.1185
3.3593 -4.3343 -0.1166
3.3876 -4.3255 -0.1153
3.4164 -4.3192 -0.1155
3.4445 -4.3104 -0.1141
3.4747 -4.3093 -0.1176
3.5018 -4.2979 -0.1146
3.5345 -4.3026 -0.1217
3.5635 -4.2963 -0.1220
3.5951 -4.2959 -0.1259
3.6243 -4.2895 -0.1262
3.6535 -4.2832 -0.1264
3.6841 -4.2793 -0.1282
3.7026 -4.2543 -0.1162
3.7312 -4.2481 -0.1164
3.7667 -4.2522 -0.1236
3.7974 -4.2483 -0.1254
3.8306 -4.2474 -0.1294
3.8617 -4.2434 -0.1312
3.8892 -4.2347 -0.1299
3.9165 -4.2260 -0.1285
3.9457 -4.2197 -0.1287
3.9771 -4.2156 -0.1306
4.0064 -4.2092 -0.1308
4.0334 -4.2007 -0.1294
4.0626 -4.1943 -0.1297
4.0943 -4.1901 -0.1315
4.1211 -4.1816 -0.1301
4.1380 -4.1652 -0.1228
4.1732 -4.1639 -0.1268
4.2181 -4.1696 -0.1362
4.2437 -4.1604 -0.1343
4.2672 -4.1499 -0.1313
4.2791 -4.1318 -0.1224
4.2912 -4.1146 -0.1140
4.3458 -4.0782 -0.1001
2.6183 -4.5952 -0.1327
2.6537 -4.5802 -0.1289
2.6850 -4.5734 -0.1292
2.7130 -4.5747 -0.1334
2.7461 -4.5638 -0.1317
2.7805 -4.5490 -0.1279
2.9171 -4.4790 -0.1069
2.9478 -4.4695 -0.1056
2.9771 -4.4659 -0.1073
3.3372 -4.3850 -0.1087
3.3666 -4.3749 -0.1069
3.3959 -4.3658 -0.1056
3.5469 -4.3394 -0.1104
3.5755 -4.3295 -0.1086
3.6054 -4.3231 -0.1088
3.6329 -4.3116 -0.1060
3.6967 -4.3069 -0.1116
3.7300 -4.3061 -0.1153
3.7566 -4.2939 -0.1120
3.7845 -4.2842 -0.1102
3.8127 -4.2753 -0.1090
3.8465 -4.2744 -0.1127
3.8764 -4.2678 -0.1130
3.9039 -4.2582 -0.1112
3.9317 -4.2494 -0.1099
3.9615 -4.2430 -0.1101
3.9984 -4.2441 -0.1155
4.0344 -4.2436 -0.1198
4.0917 -4.2275 -0.1182
4.1219 -4.2210 -0.1185
4.1520 -4.2144 -0.1187
4.1883 -4.2129 -0.1225
4.2387 -4.1919 -0.1174
4.2919 -4.1739 -0.1143
4.3187 -4.1654 -0.1130
4.3380 -4.1520 -0.1081
4.3418 -4.1292 -0.0960
2.5981 -4.6493 -0.1224
2.6285 -4.6474 -0.1250
2.6614 -4.6402 -0.1253
2.6925 -4.6371 -0.1274
2.7240 -4.6340 -0.1296
2.7586 -4.6228 -0.1279
2.7916 -4.6156 -0.1282
2.8258 -4.6045 -0.1266
2.8602 -4.5924 -0.1245
2.8950 -4.5774 -0.1209
2.9379 -4.5274 -0.1003
3.0270 -4.5377 -0.1163
3.0582 -4.5383 -0.1203
3.0903 -4.5350 -0.1225
3.1228 -4.5280 -0.1227
3.1552 -4.5246 -0.1249
3.1880 -4.5101 -0.1214
3.2533 -4.5070 -0.1276
3.2858 -4.4963 -0.1259
3.3177 -4.4819 -0.1224
3.3502 -4.4749 -0.1226
3.3832 -4.4714 -0.1248
3.4157 -4.4643 -0.1251
3.4466 -4.4502 -0.1215
3.4799 -4.4467 -0.1237
3.5092 -4.4292 -0.1182
3.5436 -4.4292 -0.1223
3.5747 -4.4187 -0.1206
3.6083 -4.4151 -0.1228
3.6435 -4.4149 -0.1269
3.6776 -4.4112 -0.1291
3.7086 -4.4007 -0.1274
3.7412 -4.3937 -0.1277
3.7718 -4.3833 -0.1260
3.7962 -4.3632 -0.1186
3.8303 -4.3595 -0.1207
3.8580 -4.3461 -0.1172
3.8969 -4.3487 -0.1232
3.9242 -4.3354 -0.1196
3.9613 -4.3347 -0.1237
3.9988 -4.3340 -0.1278
4.0340 -4.3300 -0.1300
4.0666 -4.3230 -0.1302
4.1021 -4.3190 -0.1324
4.1317 -4.3088 -0.1308
4.1610 -4.2988 -0.1291
4.1968 -4.2947 -0.1313
4.2293 -4.2876 -0.1315
4.2654 -4.2835 -0.1337
4.2944 -4.2735 -0.1321
4.3344 -4.2722 -0.1362
4.3720 -4.2687 -0.1389
4.3841 -4.2466 -0.1290
4.3757 -4.2114 -0.1098
2.6622 -4.7250 -0.1293
2.6953 -4.7224 -0.1318
2.9941 -4.5689 -0.0915
3.2903 -4.5363 -0.1091
3.4908 -4.4890 -0.1089
3.5603 -4.4823 -0.1135
3.5925 -4.4707 -0.1115
3.6582 -4.4527 -0.1102
3.7196 -4.4272 -0.1049
3.7509 -4.4167 -0.1033
3.7840 -4.4095 -0.1036
3.8149 -4.3990 -0.1020
3.8521 -4.3984 -0.1059
4.0443 -4.3940 -0.1254
4.0751 -4.3827 -0.1234
4.1091 -4.3753 -0.1237
4.1297 -4.3540 -0.1158
4.1602 -4.3436 -0.1142
4.1937 -4.3364 -0.1145
4.2238 -4.3261 -0.1129
4.2640 -4.3248 -0.1168
4.2976 -4.3175 -0.1171
4.3906 -4.2899 -0.1143
2.6556 -4.4552 0.0318
2.6767 -4.4609 0.0269
2.5606 -4.8238 -0.1239
2.5976 -4.8158 -0.1242
2.6372 -4.8016 -0.1220
2.6760 -4.7884 -0.1202
2.7127 -4.7804 -0.1205
2.7458 -4.7836 -0.1254
2.7812 -4.7806 -0.1278
2.8198 -4.7675 -0.1260
2.8610 -4.7435 -0.1195
2.9567 -4.6183 -0.0734
3.0428 -4.7135 -0.1252
3.0796 -4.7055 -0.1255
3.1169 -4.6927 -0.1237
3.1536 -4.6847 -0.1240
3.1903 -4.6814 -0.1264
3.2273 -4.6837 -0.1313
3.2643 -4.6710 -0.1295
3.3002 -4.6481 -0.1230
3.3373 -4.6448 -0.1254
3.3728 -4.6277 -0.1215
3.4083 -4.6143 -0.1192
3.4446 -4.6064 -0.1195
3.4832 -4.6084 -0.1245
3.5210 -4.6049 -0.1269
3.5577 -4.5969 -0.1272
3.5930 -4.5845 -0.1254
3.6280 -4.5722 -0.1235
3.6662 -4.5686 -0.1259
3.7028 -4.5607 -0.1262
3.7394 -4.5527 -0.1265
3.7781 -4.5490 -0.1289
3.8171 -4.5453 -0.1314
3.8416 -4.5155 -0.1206
3.8777 -4.5077 -0.1209
3.9139 -4.4998 -0.1211
3.9590 -4.5051 -0.1283
3.9956 -4.4971 -0.1286
4.0291 -4.4851 -0.1267
4.0586 -4.4684 -0.1223
4.0947 -4.4605 -0.1226
4.1344 -4.4566 -0.1250
4.1671 -4.4448 -0.1232
4.2190 -4.4533 -0.1325
4.2433 -4.4330 -0.1259
4.2844 -4.4297 -0.1287
4.3159 -4.4172 -0.1265
4.3479 -4.4055 -0.1246
4.3752 -4.3902 -0.1206
4.6426 -4.3462 -0.1291
4.6568 -4.3243 -0.1207
2.6513 -4.4742 0.0540
2.9222 -4.6487 -0.0456
2.9507 -4.6681 -0.0565
3.9451 -4.5545 -0.1072
3.9856 -4.5505 -0.1095
4.0169 -4.5333 -0.1053
4.0513 -4.5211 -0.1036
4.0886 -4.5129 -0.1039
4.1367 -4.5177 -0.1107
4.1786 -4.5143 -0.1134
4.2202 -4.5100 -0.1157
4.2583 -4.5017 -0.1160
4.2963 -4.4934 -0.1163
4.3304 -4.4813 -0.1146
4.4062 -4.4648 -0.1152
4.5242 -4.4828 -0.1343
4.5860 -4.4922 -0.1443
4.6259 -4.4835 -0.1446
4.6597 -4.4705 -0.1425
4.6933 -4.4575 -0.1404
4.7075 -4.4316 -0.1310
4.7335 -4.4146 -0.1265
2.6548 -4.4784 0.0819
2.7325 -4.7579 -0.0331
2.7614 -4.7708 -0.0407
2.8085 -4.9919 -0.1304
2.8544 -4.9686 -0.1256
2.8996 -4.9454 -0.1208
3.1513 -4.8974 -0.1254
