ply
format ascii 1.0
element vertex 2181
property float x
property float y
property float z
end_header
2.4805 1.4574 0.1924
2.6867 1.5722 0.1704
2.6914 1.6098 0.1680
4.7616 0.0884 0.0730
4.7544 0.1040 0.0727
4.7435 0.1126 0.0730
4.7311 0.1192 0.0734
4.7180 0.1250 0.0738
4.7034 0.1292 0.0744
4.6918 0.1393 0.0746
4.6807 0.1507 0.0747
4.6627 0.1522 0.0757
4.6492 0.1614 0.0760
4.6319 0.1661 0.0767
4.6158 0.1735 0.0773
4.5899 0.1695 0.0789
4.5754 0.1809 0.0792
4.5568 0.1885 0.0798
4.5388 0.1975 0.0804
4.5204 0.2072 0.0810
4.5002 0.2158 0.0817
4.4797 0.2252 0.0824
4.4441 0.2221 0.0845
4.4277 0.2377 0.0847
4.4093 0.2523 0.0851
4.3882 0.2654 0.0857
4.3470 0.2646 0.0879
3.1738 0.0830 0.1591
3.0669 0.1041 0.1640
1.6711 0.5318 0.2213
1.6961 0.6150 0.2164
2.3570 1.0789 0.1609
2.3500 1.2434 0.1543
2.3949 1.2885 0.1500
2.2971 1.3574 0.1523
2.2337 1.4219 0.1530
2.4851 1.4180 0.1396
2.6860 1.5803 0.1218
2.6905 1.6181 0.1200
4.7790 0.0880 0.0560
4.7725 0.1045 0.0557
4.7606 0.1103 0.0559
4.7510 0.1211 0.0558
4.7376 0.1253 0.0561
4.7214 0.1255 0.0566
4.7068 0.1297 0.0569
4.6966 0.1419 0.0568
4.6622 0.1467 0.0577
4.6500 0.1581 0.0577
4.6335 0.1640 0.0581
4.6189 0.1733 0.0582
4.5953 0.1722 0.0590
4.5786 0.1810 0.0592
4.5654 0.1946 0.0592
4.5398 0.1952 0.0599
4.5246 0.2083 0.0600
4.5052 0.2178 0.0603
4.4888 0.2310 0.0604
4.4705 0.2432 0.0606
4.4412 0.2468 0.0613
4.4148 0.2544 0.0619
4.3954 0.2689 0.0620
4.3484 0.2637 0.0637
4.3230 0.2765 0.0640
3.1864 0.0880 0.1049
3.0801 0.1093 0.1075
1.4215 0.5164 0.1455
2.0787 0.7852 0.1168
2.0713 0.8532 0.1149
2.0865 0.9194 0.1124
2.0792 0.9848 0.1105
2.0103 1.1804 0.1064
2.1716 1.2780 0.0984
2.0798 1.3497 0.0989
1.9830 1.4248 0.0995
2.2278 1.4318 0.0918
2.4008 1.4450 0.0861
2.6573 1.5973 0.0734
2.6762 1.6310 0.0717
4.7896 0.1044 0.0393
4.7792 0.1121 0.0392
4.7675 0.1177 0.0391
4.7585 0.1296 0.0390
4.7477 0.1382 0.0389
4.7292 0.1338 0.0391
4.7180 0.1433 0.0390
4.7001 0.1425 0.0391
4.6851 0.1477 0.0391
4.6692 0.1525 0.0391
4.6510 0.1549 0.0392
4.6387 0.1667 0.0390
4.6205 0.1714 0.0391
4.6013 0.1758 0.0391
4.5847 0.1846 0.0391
4.5627 0.1879 0.0391
4.5485 0.2013 0.0390
4.5241 0.2045 0.0391
4.5079 0.2174 0.0389
4.4883 0.2277 0.0388
4.4708 0.2409 0.0387
4.4530 0.2545 0.0385
4.4268 0.2619 0.0386
4.3976 0.2684 0.0386
4.3644 0.2735 0.0388
4.3349 0.2830 0.0388
4.1204 0.3839 0.0382
3.1410 0.0705 0.0516
3.1296 0.1273 0.0505
1.7183 0.8629 0.0452
1.7076 1.0114 0.0422
1.9942 1.0624 0.0391
2.0105 1.1255 0.0377
2.0495 1.1841 0.0362
2.2553 1.2176 0.0341
2.1869 1.2839 0.0332
1.7321 1.4185 0.0336
1.4018 1.5452 0.0333
1.1227 1.6722 0.0326
2.2865 1.6274 0.0254
2.4474 1.6272 0.0243
2.5877 1.6274 0.0233
2.6608 1.6443 0.0224
4.7889 0.0959 0.0232
4.7784 0.1039 0.0230
4.7690 0.1145 0.0227
4.7600 0.1265 0.0225
4.7492 0.1352 0.0222
4.7357 0.1398 0.0219
4.7220 0.1449 0.0216
4.7106 0.1547 0.0214
4.6959 0.1597 0.0211
4.6742 0.1552 0.0207
4.6601 0.1635 0.0204
4.6403 0.1646 0.0201
4.6257 0.1741 0.0197
4.6060 0.1776 0.0194
4.5858 0.1820 0.0190
4.5675 0.1898 0.0186
4.5496 0.1990 0.0182
4.5230 0.2000 0.0177
4.5029 0.2092 0.0173
4.4746 0.2116 0.0168
4.4616 0.2298 0.0164
4.4502 0.2496 0.0160
4.4272 0.2600 0.0156
4.3806 0.2530 0.0148
4.3414 0.2545 0.0142
4.1234 0.3849 0.0092
3.1425 0.1323 -0.0050
0.9763 0.4930 -0.0452
0.4668 0.5629 -0.0545
0.2975 0.6664 -0.0583
1.6518 0.7931 -0.0366
1.7373 0.8703 -0.0359
1.6367 1.0236 -0.0390
1.6916 1.0932 -0.0388
1.5966 1.1736 -0.0412
1.4979 1.2568 -0.0436
2.0356 1.2555 -0.0345
2.0286 1.3170 -0.0352
1.8790 1.4026 -0.0386
1.1429 1.6800 -0.0537
2.3060 1.4836 -0.0321
2.5001 1.4855 -0.0288
2.2716 1.5920 -0.0337
2.1881 1.6645 -0.0358
4.7933 0.0987 0.0070
4.7845 0.1102 0.0067
4.7717 0.1136 0.0062
4.7639 0.1280 0.0059
4.7513 0.1333 0.0053
4.7342 0.1313 0.0046
4.7204 0.1367 0.0041
4.7058 0.1415 0.0035
4.6923 0.1489 0.0029
4.6844 0.1659 0.0026
4.6604 0.1593 0.0016
4.6489 0.1721 0.0012
4.6365 0.1842 0.0007
4.6092 0.1776 -0.0004
4.5920 0.1856 -0.0011
4.5759 0.1959 -0.0018
4.5456 0.1910 -0.0030
4.5228 0.1964 -0.0040
4.4973 0.2004 -0.0050
4.4736 0.2077 -0.0060
4.4496 0.2159 -0.0070
4.4203 0.2209 -0.0082
4.3912 0.2277 -0.0093
4.3476 0.2247 -0.0112
4.0868 0.1850 -0.0220
4.1548 0.3661 -0.0189
4.1777 0.4089 -0.0178
3.1314 0.1892 -0.0614
0.9072 0.4949 -0.1526
1.1750 0.6117 -0.1414
1.4429 0.7136 -0.1302
1.7017 0.8010 -0.1193
2.0008 0.8745 -0.1069
1.9419 0.9457 -0.1092
2.0108 1.0108 -0.1062
2.0280 1.0756 -0.1054
1.8433 1.1584 -0.1129
1.7281 1.2391 -0.1175
2.0519 1.2619 -0.1041
2.0679 1.3196 -0.1033
1.9449 1.4003 -0.1083
1.6516 1.5182 -0.1202
2.0462 1.4973 -0.1039
2.3555 1.4809 -0.0912
2.4328 1.5108 -0.0879
2.2857 1.5975 -0.0939
2.3998 1.6136 -0.0891
4.7932 0.0915 -0.0096
4.7872 0.1093 -0.0097
4.7790 0.1222 -0.0101
4.7655 0.1249 -0.0110
4.7540 0.1326 -0.0116
4.7346 0.1263 -0.0130
4.7239 0.1372 -0.0135
4.6955 0.1189 -0.0157
4.6766 0.1187 -0.0169
4.6651 0.1314 -0.0175
4.6615 0.1561 -0.0174
4.6432 0.1595 -0.0186
4.6245 0.1637 -0.0198
4.6075 0.1713 -0.0208
4.5810 0.1682 -0.0226
4.5496 0.1612 -0.0247
4.5402 0.1814 -0.0251
4.5152 0.1848 -0.0267
4.4979 0.1978 -0.0276
4.4651 0.1963 -0.0298
4.4480 0.2115 -0.0308
4.4036 0.2035 -0.0338
4.3671 0.2051 -0.0362
4.3224 0.2025 -0.0391
4.0874 0.2224 -0.0544
4.0734 0.2525 -0.0549
4.0775 0.2919 -0.0541
4.1758 0.4076 -0.0461
3.4591 0.1932 -0.0961
3.3942 0.2223 -0.1000
3.3058 0.2465 -0.1055
1.0270 0.8035 -0.2484
1.7104 0.9620 -0.2013
1.7635 1.0332 -0.1968
1.9461 1.0902 -0.1840
2.0135 1.1498 -0.1788
1.9573 1.2204 -0.1816
2.0227 1.2747 -0.1766
1.9920 1.3407 -0.1777
1.7575 1.4437 -0.1918
1.7520 1.5086 -0.1913
2.2486 1.4626 -0.1592
2.4047 1.4780 -0.1487
2.4133 1.5244 -0.1476
2.4213 1.5698 -0.1464
2.4299 1.6139 -0.1453
2.4705 1.6471 -0.1422
4.7866 0.1011 -0.0267
4.7783 0.1143 -0.0272
4.7688 0.1252 -0.0278
4.7557 0.1296 -0.0289
4.7411 0.1323 -0.0301
4.7250 0.1334 -0.0315
4.7030 0.1258 -0.0337
4.6976 0.1471 -0.0337
4.6929 0.1692 -0.0336
4.6778 0.1754 -0.0348
4.6638 0.1841 -0.0359
4.6502 0.1941 -0.0368
4.6219 0.1857 -0.0396
4.6021 0.1901 -0.0413
4.5682 0.1793 -0.0447
4.5474 0.1858 -0.0464
4.5174 0.1836 -0.0492
4.4768 0.1728 -0.0531
4.4285 0.1574 -0.0579
4.3952 0.1597 -0.0609
4.3589 0.1613 -0.0641
4.3034 0.1492 -0.0695
3.8302 -0.1353 -0.1195
3.7298 -0.0435 -0.1263
3.4957 0.2073 -0.1414
3.4410 0.2392 -0.1456
0.7662 0.7096 -0.3770
0.7701 0.8112 -0.3741
1.7187 1.1174 -0.2804
1.5916 1.2022 -0.2898
0.7423 1.3810 -0.3626
0.9687 1.4365 -0.3406
1.1703 1.4854 -0.3211
2.2547 1.5227 -0.2216
2.4093 1.5343 -0.2073
2.4017 1.5842 -0.2068
2.3931 1.6338 -0.2063
2.4354 1.6670 -0.2017
2.4751 1.6989 -0.1973
4.7805 0.1123 -0.0441
4.7744 0.1302 -0.0442
4.7602 0.1323 -0.0458
4.7457 0.1350 -0.0474
4.7297 0.1361 -0.0492
4.7208 0.1506 -0.0497
4.7144 0.1692 -0.0497
4.7067 0.1858 -0.0500
4.7003 0.2043 -0.0501
4.6774 0.1990 -0.0530
4.6600 0.2032 -0.0548
4.6354 0.1991 -0.0578
4.6068 0.1920 -0.0614
4.5845 0.1947 -0.0639
4.5554 0.1910 -0.0674
4.5270 0.1904 -0.0707
4.4808 0.1734 -0.0767
4.4251 0.1507 -0.0840
4.3634 0.1268 -0.0921
4.2994 0.1056 -0.1003
4.1383 0.0510 -0.1210
4.1847 0.3457 -0.1048
4.1632 0.3683 -0.1065
4.1597 0.3996 -0.1058
4.1676 0.4350 -0.1036
0.5679 0.4930 -0.5196
1.0291 0.7257 -0.4576
1.0738 0.8218 -0.4489
0.9858 0.9164 -0.4556
1.3514 0.9938 -0.4104
1.5233 1.0656 -0.3878
1.7949 1.1198 -0.3542
0.9478 1.3670 -0.4436
0.8156 1.4711 -0.4552
0.9496 1.5342 -0.4373
1.1524 1.5774 -0.4122
1.0745 1.6693 -0.4179
1.0352 1.7539 -0.4194
2.0503 1.6914 -0.3037
2.1414 1.7685 -0.2903
4.7822 0.1091 -0.0614
4.7727 0.1202 -0.0622
4.7665 0.1383 -0.0622
4.7521 0.1409 -0.0641
4.7399 0.1485 -0.0655
4.7341 0.1679 -0.0654
4.7272 0.1851 -0.0655
4.7153 0.1944 -0.0668
4.7083 0.2117 -0.0669
4.6902 0.2130 -0.0694
4.6711 0.2141 -0.0721
4.6461 0.2089 -0.0759
4.6170 0.2007 -0.0804
4.5908 0.1983 -0.0842
4.5618 0.1946 -0.0885
4.5445 0.2059 -0.0904
4.4804 0.1694 -0.1013
4.4257 0.1478 -0.1101
4.3865 0.1450 -0.1158
4.3379 0.1365 -0.1231
4.3136 0.3826 -0.1146
4.2911 0.4003 -0.1170
4.2710 0.4200 -0.1189
4.2326 0.4320 -0.1237
3.4415 0.1866 -0.2478
2.8754 0.1104 -0.3318
1.3315 -0.2715 -0.5692
1.4120 -0.1380 -0.5514
1.3255 -0.0508 -0.5594
1.1460 0.0197 -0.5814
1.2308 0.3518 -0.5534
1.0983 0.4390 -0.5679
1.4259 0.5641 -0.5154
1.1843 0.6434 -0.5459
1.2242 0.7392 -0.5356
1.6558 0.8313 -0.4699
1.5187 0.9142 -0.4853
1.6772 0.9884 -0.4593
2.0794 1.0375 -0.3998
2.1413 1.0979 -0.3881
2.1335 1.1619 -0.3861
2.0795 1.2310 -0.3905
1.7106 1.3486 -0.4371
1.1349 1.5150 -0.5107
0.8441 1.6483 -0.5455
0.9330 1.7116 -0.5298
1.3492 1.6953 -0.4716
1.3128 1.7738 -0.4729
1.7073 1.7382 -0.4187
1.9763 1.7228 -0.3813
1.0571 2.0534 -0.4957
2.3699 1.7526 -0.3240
2.4613 1.7660 -0.3104
4.7824 0.1024 -0.0794
4.7689 0.1057 -0.0814
4.7710 0.1410 -0.0789
4.7556 0.1414 -0.0815
4.7463 0.1543 -0.0823
4.7412 0.1747 -0.0819
4.7325 0.1888 -0.0825
4.7219 0.1999 -0.0836
4.7086 0.2075 -0.0854
4.6931 0.2127 -0.0877
4.6734 0.2130 -0.0910
4.6600 0.2232 -0.0926
4.6278 0.2103 -0.0988
4.5977 0.2027 -0.1043
4.5654 0.1949 -0.1102
4.5525 0.2110 -0.1114
4.5024 0.3635 -0.1106
4.4819 0.3749 -0.1133
4.3961 0.4004 -0.1262
4.3653 0.4105 -0.1308
4.3155 0.4123 -0.1390
4.2797 0.4237 -0.1443
3.0998 0.1201 -0.3607
1.8129 -0.1290 -0.5918
1.7371 -0.0500 -0.5997
1.9551 0.0991 -0.5541
1.9468 0.1874 -0.5502
1.9674 0.2791 -0.5412
1.9303 0.3591 -0.5426
1.8334 0.4318 -0.5544
1.6998 0.5041 -0.5725
1.2923 0.5617 -0.6374
1.5528 0.6685 -0.5872
1.6822 0.7577 -0.5601
2.0462 0.8385 -0.4941
2.1361 0.9075 -0.4749
2.0305 0.9802 -0.4882
1.9976 1.0511 -0.4894
2.0647 1.1129 -0.4744
2.0570 1.1788 -0.4717
2.1634 1.2285 -0.4509
1.6948 1.4296 -0.5174
1.9757 1.6776 -0.4552
1.9922 1.7290 -0.4494
2.2667 1.7493 -0.4021
2.4338 1.7409 -0.3745
2.4417 1.7826 -0.3707
4.7790 0.1199 -0.0967
4.7710 0.1347 -0.0971
4.7602 0.1441 -0.0986
4.7509 0.1570 -0.0994
4.7440 0.1742 -0.0995
4.7359 0.1893 -0.1000
4.7253 0.2005 -0.1012
4.7146 0.2120 -0.1025
4.6999 0.2181 -0.1049
4.6797 0.2174 -0.1089
4.6597 0.2186 -0.1127
4.6379 0.2190 -0.1169
4.6025 0.2045 -0.1248
4.5767 0.2042 -0.1298
4.5690 0.2255 -0.1298
4.5620 0.2475 -0.1295
4.5566 0.2709 -0.1289
4.5565 0.2989 -0.1269
4.5499 0.3202 -0.1266
4.5658 0.3604 -0.1206
4.5628 0.3831 -0.1195
4.5425 0.3921 -0.1228
4.3100 0.3786 -0.1690
4.2918 0.3991 -0.1710
3.5154 0.1069 -0.3430
3.4507 0.1347 -0.3536
3.1005 0.1209 -0.4226
2.9648 0.1411 -0.4475
2.6376 0.1125 -0.5131
2.5682 0.1691 -0.5225
2.4959 0.2272 -0.5323
2.4216 0.2872 -0.5424
2.4322 0.3645 -0.5347
2.4216 0.4362 -0.5315
2.3020 0.4937 -0.5506
2.3584 0.5724 -0.5339
2.4116 0.6464 -0.5182
2.1798 0.7036 -0.5590
2.2411 0.7763 -0.5419
2.2093 0.8450 -0.5430
2.1534 0.9143 -0.5489
2.1456 0.9823 -0.5454
2.1138 1.0509 -0.5466
2.0571 1.1219 -0.5525
2.0501 1.1882 -0.5490
2.1359 1.2408 -0.5285
2.1052 1.3068 -0.5297
2.0275 1.3812 -0.5394
2.0440 1.4389 -0.5320
1.9413 1.5205 -0.5460
1.8590 1.6001 -0.5562
1.9276 1.6432 -0.5397
2.0821 1.6594 -0.5085
2.3713 1.7255 -0.4476
2.4137 1.7575 -0.4370
2.4224 1.7993 -0.4323
4.7808 0.1169 -0.1146
4.7756 0.1374 -0.1140
4.7585 0.1347 -0.1179
4.7480 0.1458 -0.1193
4.7398 0.1612 -0.1198
4.7340 0.1808 -0.1195
4.7251 0.1952 -0.1202
4.7150 0.2078 -0.1214
4.7028 0.2179 -0.1232
4.6859 0.2218 -0.1266
4.6687 0.2266 -0.1300
4.6404 0.2182 -0.1369
4.6203 0.2223 -0.1410
4.5816 0.2061 -0.1510
4.5810 0.2353 -0.1486
4.5705 0.2532 -0.1494
4.4123 0.3214 -0.1786
4.3945 0.3389 -0.1810
4.3872 0.3638 -0.1805
4.3507 0.3709 -0.1880
3.2130 0.0988 -0.4625
2.7271 0.1401 -0.5664
2.6426 0.1905 -0.5808
2.6672 0.2693 -0.5686
2.6073 0.3985 -0.5709
2.5280 0.5253 -0.5776
2.4588 0.5868 -0.5877
2.4281 0.6528 -0.5888
2.4375 0.7206 -0.5810
2.4275 0.7860 -0.5776
2.3771 0.8507 -0.5832
2.3469 0.9158 -0.5844
2.3376 0.9798 -0.5810
2.2443 1.0491 -0.5957
2.1463 1.1217 -0.6112
2.1830 1.1812 -0.5980
2.1742 1.2442 -0.5946
2.1438 1.3097 -0.5957
2.0677 1.3835 -0.6063
2.0829 1.4409 -0.5980
2.0525 1.5064 -0.5992
2.0909 1.5556 -0.5865
2.1488 1.5972 -0.5702
2.3841 1.6358 -0.5149
2.3217 1.7034 -0.5229
2.4015 1.7255 -0.5034
2.4106 1.7685 -0.4978
4.7718 0.1233 -0.1344
4.7598 0.1309 -0.1367
4.7499 0.1431 -0.1379
4.7393 0.1545 -0.1395
4.7327 0.1733 -0.1392
4.7256 0.1909 -0.1393
4.7172 0.2066 -0.1398
4.6969 0.2045 -0.1451
4.6838 0.2144 -0.1474
4.6698 0.2238 -0.1499
4.6456 0.2209 -0.1562
4.6188 0.2166 -0.1633
4.6052 0.2298 -0.1653
3.5462 -0.8335 -0.5319
3.5507 -0.7466 -0.5223
3.5147 -0.7013 -0.5268
3.5775 -0.5656 -0.4980
4.2771 0.1472 -0.2548
4.2987 0.2016 -0.2441
3.4654 -0.2964 -0.4995
3.4904 -0.2126 -0.4851
3.3311 -0.2435 -0.5277
3.5840 0.0819 -0.4332
3.4873 0.0927 -0.4561
3.3288 0.0830 -0.4963
3.2716 0.1214 -0.5068
3.1659 0.1449 -0.5307
3.1276 0.1952 -0.5353
3.0900 0.2465 -0.5396
3.0244 0.2914 -0.5515
3.0253 0.3538 -0.5452
3.0132 0.4121 -0.5425
3.0142 0.4718 -0.5364
2.9620 0.5224 -0.5444
2.9637 0.5808 -0.5383
2.9241 0.6340 -0.5430
2.9131 0.6898 -0.5402
2.8732 0.7437 -0.5449
2.8192 0.7981 -0.5529
2.8223 0.8533 -0.5468
2.7222 0.9106 -0.5660
2.5626 0.9745 -0.5994
2.6697 1.0238 -0.5680
2.7362 1.0712 -0.5469
2.6003 1.1391 -0.5740
2.6548 1.1845 -0.5560
2.5647 1.2502 -0.5719
2.5384 1.3068 -0.5729
2.5122 1.3634 -0.5739
2.5026 1.4163 -0.5711
2.4933 1.4685 -0.5683
2.5970 1.4907 -0.5404
2.5405 1.5527 -0.5484
2.4328 1.6310 -0.5675
2.3172 1.7148 -0.5879
2.3095 1.7659 -0.5849
2.3733 1.7914 -0.5666
4.7727 0.1182 -0.1534
4.7623 0.1292 -0.1551
4.7523 0.1416 -0.1565
4.7423 0.1541 -0.1579
4.7274 0.1587 -0.1614
4.7183 0.1738 -0.1623
4.7067 0.1852 -0.1642
4.6987 0.2025 -0.1645
4.6837 0.2098 -0.1679
4.6677 0.2167 -0.1715
4.6442 0.2149 -0.1782
4.6296 0.2259 -0.1810
4.6086 0.2301 -0.1863
4.5824 0.2297 -0.1936
3.6637 -0.7180 -0.5514
3.6480 -0.6568 -0.5490
3.6238 -0.6046 -0.5499
3.5996 -0.5524 -0.5508
4.2898 0.1922 -0.2784
3.5266 -0.2583 -0.5384
3.4444 -0.2453 -0.5597
3.4201 -0.1928 -0.5606
3.4938 -0.0850 -0.5283
3.6086 0.0371 -0.4832
3.5875 0.0825 -0.4840
3.6058 0.1457 -0.4720
3.4116 0.1173 -0.5287
3.3071 0.1351 -0.5555
3.2832 0.1867 -0.5564
3.2482 0.2347 -0.5607
3.2008 0.2799 -0.5688
3.1651 0.3295 -0.5732
3.1521 0.3849 -0.5706
3.1519 0.4423 -0.5643
3.1151 0.4920 -0.5690
3.0413 0.5371 -0.5844
3.0546 0.5950 -0.5743
3.0180 0.6464 -0.5787
2.9802 0.6984 -0.5834
2.9690 0.7521 -0.5805
2.9445 0.8049 -0.5815
2.9455 0.8575 -0.5754
2.8536 0.9120 -0.5947
2.8569 0.9642 -0.5880
2.8322 1.0174 -0.5889
2.7787 1.0735 -0.5975
2.7829 1.1237 -0.5908
2.7582 1.1769 -0.5917
2.7336 1.2300 -0.5926
2.7240 1.2804 -0.5897
2.6750 1.3860 -0.5916
2.6791 1.4319 -0.5854
2.6259 1.4917 -0.5934
2.5698 1.5535 -0.6021
2.6224 1.5837 -0.5842
2.5822 1.6407 -0.5890
2.5429 1.6980 -0.5935
2.4870 1.7616 -0.6019
4.7719 0.1099 -0.1737
4.7620 0.1222 -0.1752
4.7542 0.1390 -0.1755
4.7442 0.1516 -0.1770
4.7323 0.1614 -0.1794
4.7238 0.1775 -0.1800
4.7110 0.1869 -0.1827
4.6987 0.1976 -0.1851
4.6836 0.2051 -0.1888
4.6587 0.2000 -0.1970
4.6462 0.2133 -0.1991
4.6303 0.2227 -0.2028
4.6114 0.2295 -0.2077
4.5825 0.2262 -0.2169
4.5606 0.2327 -0.2227
3.7595 -0.4812 -0.5539
3.7815 -0.3928 -0.5363
4.2943 0.1930 -0.3084
3.6580 -0.1719 -0.5466
3.6678 -0.1046 -0.5353
3.6391 -0.0632 -0.5389
3.6335 -0.0082 -0.5338
3.6039 0.0330 -0.5377
3.5912 0.0831 -0.5354
3.6012 0.1429 -0.5249
3.4978 0.1530 -0.5551
3.4929 0.2066 -0.5500
3.4893 0.2596 -0.5445
3.4679 0.3057 -0.5453
3.4280 0.3465 -0.5524
3.4430 0.4026 -0.5409
3.3847 0.4398 -0.5540
3.3352 0.4809 -0.5640
3.3317 0.5314 -0.5588
3.3297 0.5811 -0.5533
3.2583 0.6218 -0.5699
3.2867 0.6738 -0.5549
3.2652 0.7202 -0.5557
3.2230 0.7658 -0.5629
3.1814 0.8125 -0.5698
3.2207 0.8590 -0.5521
3.1791 0.9057 -0.5590
3.1468 0.9527 -0.5630
3.1470 0.9975 -0.5574
3.1146 1.0448 -0.5614
3.0373 1.0983 -0.5783
3.0603 1.1392 -0.5662
3.0386 1.1859 -0.5670
2.9836 1.2388 -0.5772
2.9837 1.2816 -0.5719
2.9738 1.3258 -0.5695
2.8678 1.3933 -0.5933
2.8334 1.4450 -0.5974
2.8604 1.4795 -0.5849
2.9117 1.5048 -0.5662
2.9014 1.5474 -0.5641
2.8801 1.5933 -0.5649
2.8475 1.6432 -0.5686
2.8617 1.6761 -0.5603
4.7692 0.0971 -0.1958
4.7635 0.1184 -0.1948
4.7523 0.1290 -0.1970
4.7416 0.1409 -0.1990
4.7331 0.1570 -0.1996
4.7192 0.1645 -0.2032
4.7105 0.1809 -0.2038
4.6938 0.1854 -0.2087
4.6831 0.1997 -0.2104
4.6677 0.2080 -0.2143
4.6476 0.2109 -0.2206
4.6297 0.2180 -0.2256
4.6061 0.2194 -0.2332
4.5984 0.2406 -0.2329
4.5692 0.2384 -0.2429
4.3282 0.1802 -0.3308
4.3088 0.2017 -0.3343
4.3033 0.2338 -0.3317
3.6470 0.2660 -0.5451
3.5253 0.3756 -0.5705
3.5047 0.4199 -0.5713
3.4927 0.4660 -0.5690
3.4885 0.5133 -0.5639
3.4431 0.5526 -0.5736
3.4647 0.6028 -0.5596
3.4368 0.6450 -0.5631
3.4167 0.6884 -0.5639
3.3793 0.7308 -0.5705
3.3590 0.7745 -0.5712
3.3646 0.8186 -0.5634
3.3089 0.8623 -0.5759
3.2885 0.9063 -0.5766
3.2777 0.9497 -0.5743
3.2845 0.9912 -0.5664
3.2458 1.0364 -0.5730
3.2256 1.0800 -0.5738
3.1863 1.1265 -0.5805
3.1659 1.1705 -0.5812
3.1146 1.2205 -0.5915
3.1251 1.2585 -0.5828
3.1152 1.3001 -0.5804
3.0736 1.3493 -0.5875
3.0948 1.3822 -0.5759
3.0542 1.4315 -0.5827
3.0436 1.4723 -0.5806
3.0025 1.5227 -0.5874
3.0032 1.5595 -0.5821
2.9729 1.6067 -0.5857
4.7634 0.1114 -0.2157
4.7583 0.1338 -0.2142
4.7386 0.1292 -0.2219
4.7078 0.1398 -0.2314
4.6792 0.1256 -0.2439
4.6801 0.1594 -0.2385
4.6807 0.1915 -0.2335
4.6647 0.1992 -0.2381
4.6504 0.2101 -0.2416
4.6351 0.2207 -0.2455
4.6110 0.2213 -0.2541
4.5897 0.2270 -0.2610
4.5729 0.2389 -0.2653
4.5305 0.2253 -0.2826
4.3286 0.1003 -0.3741
4.3377 0.1476 -0.3637
4.3349 0.1828 -0.3595
4.3224 0.2096 -0.3599
4.3053 0.2331 -0.3626
4.2873 0.2563 -0.3656
4.2723 0.2819 -0.3672
4.2347 0.2939 -0.3790
3.9435 0.2096 -0.4966
3.8964 0.2308 -0.5104
3.8057 0.2345 -0.5425
3.7875 0.2738 -0.5432
3.7815 0.3178 -0.5387
3.7457 0.3505 -0.5468
3.7328 0.3916 -0.5453
3.7210 0.4327 -0.5434
3.7093 0.4735 -0.5415
3.6584 0.5051 -0.5551
3.6333 0.5436 -0.5584
3.6619 0.5914 -0.5409
3.6098 0.6254 -0.5546
3.6121 0.6674 -0.5475
3.5451 0.7024 -0.5664
3.5405 0.7436 -0.5618
3.5363 0.7840 -0.5573
3.5261 0.8237 -0.5550
3.5214 0.8629 -0.5509
3.4959 0.9023 -0.5542
3.4627 0.9426 -0.5601
3.4745 0.9795 -0.5503
3.3866 1.0262 -0.5750
3.3998 1.0625 -0.5648
3.3891 1.1011 -0.5628
3.3865 1.1380 -0.5583
3.3524 1.1804 -0.5642
3.3179 1.2235 -0.5702
3.2993 1.2635 -0.5709
3.2808 1.3035 -0.5716
3.2883 1.3364 -0.5640
3.2772 1.3737 -0.5624
3.2251 1.4235 -0.5737
3.2334 1.4547 -0.5660
3.1880 1.5035 -0.5751
3.1333 1.5566 -0.5868
3.1685 1.5768 -0.5711
4.7490 0.1092 -0.2419
4.7325 0.1114 -0.2479
4.7157 0.1144 -0.2540
4.6974 0.1163 -0.2608
4.6810 0.1227 -0.2661
4.6743 0.1772 -0.2599
4.6619 0.1906 -0.2625
4.6487 0.2035 -0.2655
4.6282 0.2077 -0.2728
4.6133 0.2201 -0.2766
4.5927 0.2267 -0.2836
4.5718 0.2342 -0.2905
4.5400 0.2317 -0.3033
4.3643 0.1297 -0.3884
4.3402 0.1464 -0.3951
4.3512 0.1934 -0.3831
4.3435 0.2235 -0.3812
4.3220 0.2430 -0.3864
4.2895 0.2557 -0.3970
4.2768 0.2830 -0.3975
4.2609 0.3083 -0.3995
4.2319 0.3265 -0.4079
4.2214 0.3557 -0.4072
4.1910 0.3750 -0.4159
3.8601 0.3039 -0.5564
3.8541 0.3457 -0.5520
3.8250 0.4216 -0.5509
3.7734 0.4487 -0.5666
3.7788 0.4925 -0.5573
3.7084 0.5601 -0.5737
3.7155 0.6024 -0.5640
3.6980 0.6399 -0.5647
3.6806 0.6775 -0.5654
3.6267 0.7516 -0.5743
3.5842 0.8277 -0.5784
3.5665 0.8660 -0.5790
3.5624 0.9036 -0.5745
3.5586 0.9405 -0.5699
3.5208 0.9800 -0.5782
3.5302 1.0149 -0.5688
3.4778 1.0571 -0.5824
3.4745 1.0931 -0.5778
3.4569 1.1310 -0.5785
3.4393 1.1689 -0.5791
3.4286 1.2053 -0.5773
3.4111 1.2431 -0.5780
3.3865 1.2826 -0.5811
3.3690 1.3205 -0.5818
3.3585 1.3563 -0.5800
3.3494 1.3914 -0.5778
3.3466 1.4242 -0.5736
3.3146 1.4666 -0.5791
4.7272 0.0948 -0.2745
4.7186 0.1132 -0.2748
4.7032 0.1200 -0.2801
4.6771 0.1104 -0.2928
4.6318 0.2080 -0.2945
4.6182 0.2220 -0.2977
4.5964 0.2271 -0.3059
4.5810 0.2406 -0.3100
4.5399 0.2281 -0.3295
4.4906 0.2110 -0.3531
4.4009 0.2660 -0.3810
4.0889 0.1138 -0.5388
4.0926 0.1608 -0.5289
4.1048 0.2114 -0.5148
4.2631 0.3430 -0.4251
4.2538 0.3719 -0.4239
4.2379 0.3974 -0.4261
4.2363 0.4295 -0.4211
3.9549 0.4246 -0.5399
3.9436 0.4599 -0.5384
3.9000 0.4857 -0.5521
3.8685 0.5164 -0.5599
3.8827 0.5582 -0.5465
3.8519 0.5895 -0.5539
3.8093 0.6198 -0.5664
3.8198 0.6587 -0.5551
3.8038 0.6933 -0.5557
3.8133 0.7299 -0.5452
3.7657 0.7621 -0.5595
3.7445 0.7968 -0.5622
3.7396 0.8316 -0.5581
3.7235 0.8662 -0.5587
3.6783 0.9022 -0.5713
3.6967 0.9350 -0.5578
3.6637 0.9711 -0.5652
3.6593 1.0046 -0.5611
3.6433 1.0392 -0.5617
3.6085 1.0768 -0.5696
3.5800 1.1140 -0.5750
3.6188 1.1382 -0.5545
3.5973 1.1735 -0.5572
3.5562 1.2138 -0.5673
3.5342 1.2501 -0.5701
3.5110 1.2869 -0.5733
3.5019 1.3198 -0.5713
3.4857 1.3547 -0.5719
3.4695 1.3896 -0.5725
3.4729 1.4175 -0.5662
3.4766 1.4446 -0.5598
4.4818 -0.6241 -0.5442
4.4538 -0.6184 -0.5557
4.7269 0.0874 -0.2982
4.7166 0.1031 -0.2998
4.7023 0.1122 -0.3045
4.6814 0.1114 -0.3141
4.6618 0.1144 -0.3223
4.6186 0.2184 -0.3218
4.6002 0.2275 -0.3284
4.5807 0.2367 -0.3354
4.5378 0.2224 -0.3574
4.5124 0.2291 -0.3675
4.4773 0.2283 -0.3834
4.4392 0.2275 -0.4007
4.4163 0.2420 -0.4082
4.4107 0.2713 -0.4051
4.1685 0.1669 -0.5339
4.1460 0.1936 -0.5389
4.1280 0.2237 -0.5412
4.1019 0.2495 -0.5480
4.1442 0.3504 -0.5098
4.1569 0.3928 -0.4959
4.2085 0.4497 -0.4619
4.2241 0.4881 -0.4476
4.1682 0.4995 -0.4705
3.9697 0.5431 -0.5513
3.9510 0.5747 -0.5537
3.9313 0.6064 -0.5565
3.9340 0.6419 -0.5485
3.9010 0.6717 -0.5577
3.8810 0.7038 -0.5605
3.8472 0.7352 -0.5697
3.8555 0.7696 -0.5594
3.8254 0.8019 -0.5668
3.7947 0.8680 -0.5679
3.7794 0.9010 -0.5685
3.7326 0.9364 -0.5828
3.7593 0.9660 -0.5651
3.7591 0.9970 -0.5592
3.7441 1.0294 -0.5598
3.7028 1.0662 -0.5714
3.6874 1.0992 -0.5719
3.6665 1.1334 -0.5748
3.6568 1.1653 -0.5731
3.6472 1.1969 -0.5714
3.6261 1.2313 -0.5742
3.6166 1.2627 -0.5725
3.5719 1.3046 -0.5846
3.5861 1.3285 -0.5737
3.5769 1.3594 -0.5719
3.5495 1.3965 -0.5771
3.5342 1.4295 -0.5777
4.5472 -0.5534 -0.5384
4.5373 -0.5124 -0.5348
4.5166 -0.4959 -0.5413
4.7273 0.0811 -0.3219
4.7131 0.0901 -0.3268
4.6987 0.0995 -0.3318
4.6829 0.1077 -0.3378
4.6679 0.1182 -0.3428
4.6409 0.1115 -0.3571
4.6252 0.1235 -0.3621
4.5270 0.2074 -0.3921
4.5214 0.2347 -0.3892
4.5034 0.2497 -0.3947
4.4616 0.2444 -0.4158
4.4528 0.2699 -0.4148
4.2331 0.1694 -0.5409
4.2099 0.1934 -0.5471
4.2110 0.2342 -0.5381
4.1814 0.2548 -0.5481
4.1830 0.2946 -0.5392
4.1313 0.3432 -0.5540
4.1344 0.3821 -0.5446
4.1304 0.4167 -0.5394
4.1898 0.5074 -0.4923
4.1096 0.5136 -0.5295
4.0604 0.5330 -0.5491
4.0390 0.5616 -0.5535
4.0357 0.5947 -0.5483
4.0374 0.6281 -0.5407
4.0001 0.6543 -0.5532
3.9897 0.6854 -0.5518
3.9631 0.7146 -0.5586
3.9449 0.7451 -0.5610
3.9472 0.7768 -0.5534
3.9371 0.8074 -0.5520
3.9149 0.8378 -0.5564
3.9089 0.8682 -0.5530
3.8989 0.8983 -0.5516
3.8807 0.9289 -0.5541
3.8708 0.9589 -0.5527
3.8440 0.9907 -0.5590
3.8341 1.0207 -0.5576
3.8243 1.0505 -0.5562
3.8147 1.0800 -0.5548
3.7917 1.1121 -0.5592
3.7686 1.1447 -0.5636
3.7339 1.1805 -0.5729
3.7447 1.2048 -0.5628
3.7003 1.2441 -0.5760
3.7058 1.2692 -0.5682
3.7258 1.2889 -0.5546
3.7119 1.3189 -0.5551
3.6629 1.3617 -0.5698
3.6437 1.3944 -0.5723
4.5765 -0.4978 -0.5489
4.5699 -0.4514 -0.5421
4.5504 -0.4351 -0.5485
4.7215 0.0627 -0.3519
4.7125 0.0820 -0.3522
4.6969 0.0899 -0.3585
4.6838 0.1030 -0.3623
4.6729 0.1201 -0.3641
4.6461 0.1135 -0.3793
4.6329 0.1290 -0.3826
4.6085 0.1298 -0.3948
4.5911 0.1416 -0.4011
4.3792 -0.0403 -0.5493
4.5256 0.2355 -0.4140
4.5132 0.2559 -0.4159
4.4901 0.2669 -0.4252
4.4759 0.2868 -0.4281
4.2657 0.2303 -0.5479
4.2461 0.2553 -0.5524
4.2294 0.2827 -0.5549
4.2221 0.3156 -0.5514
4.1990 0.3397 -0.5579
4.1853 0.3691 -0.5584
4.1749 0.4001 -0.5569
4.1772 0.4361 -0.5479
4.1824 0.4722 -0.5373
4.2190 0.5179 -0.5086
4.1953 0.5411 -0.5156
4.1103 0.5479 -0.5575
4.0798 0.5729 -0.5676
4.0759 0.6048 -0.5626
4.0660 0.6350 -0.5610
4.0011 0.6888 -0.5824
4.0137 0.7219 -0.5687
4.0038 0.7519 -0.5672
4.0018 0.7820 -0.5616
3.9961 0.8114 -0.5580
3.9746 0.8405 -0.5626
3.9489 0.8701 -0.5692
3.9352 0.8997 -0.5697
3.9161 0.9579 -0.5667
3.8824 0.9898 -0.5769
3.8685 1.0197 -0.5774
3.8573 1.0762 -0.5708
3.8392 1.1066 -0.5733
3.8299 1.1351 -0.5718
3.8344 1.1600 -0.5641
3.7982 1.2208 -0.5692
3.7706 1.2545 -0.5759
3.7569 1.2840 -0.5764
3.7384 1.3152 -0.5790
3.7210 1.3462 -0.5811
3.7206 1.3708 -0.5759
3.7069 1.4003 -0.5764
4.6019 -0.3906 -0.5466
4.5942 -0.3506 -0.5414
4.7196 0.0514 -0.3794
4.7142 0.0780 -0.3761
4.6980 0.0851 -0.3832
4.6860 0.1003 -0.3861
4.6728 0.1139 -0.3901
4.6559 0.1226 -0.3972
4.6357 0.1276 -0.4070
4.6187 0.1386 -0.4136
4.4377 0.0231 -0.5388
4.4224 0.0475 -0.5414
4.5352 0.2418 -0.4347
4.5284 0.2672 -0.4325
4.5084 0.2805 -0.4402
4.5029 0.3071 -0.4369
4.3334 0.2394 -0.5447
4.3259 0.2705 -0.5415
4.3155 0.2993 -0.5404
4.3006 0.3250 -0.5424
4.2981 0.3581 -0.5360
4.2642 0.3736 -0.5508
4.2603 0.4056 -0.5455
4.2386 0.4288 -0.5518
4.2374 0.4612 -0.5448
4.2248 0.4885 -0.5453
4.2257 0.5205 -0.5373
4.2107 0.5465 -0.5393
4.1842 0.5695 -0.5483
4.1715 0.5968 -0.5488
4.1553 0.6233 -0.5514
4.1489 0.6519 -0.5481
4.1298 0.6782 -0.5524
4.1106 0.7048 -0.5566
4.0949 0.7321 -0.5587
4.0955 0.7607 -0.5516
4.0760 0.7877 -0.5559
4.0760 0.8155 -0.5494
4.0803 0.8425 -0.5407
4.0096 0.8712 -0.5724
4.0179 0.8981 -0.5616
4.0020 0.9261 -0.5636
4.0172 0.9508 -0.5496
4.0046 0.9779 -0.5501
3.9772 1.0072 -0.5581
3.9720 1.0334 -0.5548
3.9702 1.0585 -0.5499
3.9203 1.0936 -0.5687
3.9519 1.1109 -0.5475
3.9181 1.1432 -0.5583
3.9054 1.1705 -0.5588
3.8652 1.2060 -0.5723
3.8522 1.2339 -0.5728
3.8393 1.2619 -0.5733
3.8464 1.2827 -0.5645
3.8289 1.3120 -0.5671
3.8161 1.3396 -0.5676
4.6416 -0.3101 -0.5385
4.7214 0.0473 -0.4037
4.7096 0.0622 -0.4068
4.6982 0.0784 -0.4093
4.6800 0.0836 -0.4185
4.6638 0.0932 -0.4254
4.6507 0.1087 -0.4290
4.6328 0.1177 -0.4371
4.6169 0.1307 -0.4430
4.4888 0.0382 -0.5395
4.4768 0.0642 -0.5399
4.5542 0.2575 -0.4474
4.5393 0.2746 -0.4517
4.5098 0.2789 -0.4675
4.3637 0.2952 -0.5473
4.3516 0.3214 -0.5478
4.3273 0.3737 -0.5487
4.3269 0.4063 -0.5408
4.3102 0.4297 -0.5446
4.3079 0.4601 -0.5384
4.2861 0.4815 -0.5455
4.2577 0.5618 -0.5418
4.2432 0.5868 -0.5439
4.2193 0.6384 -0.5448
4.2182 0.6662 -0.5386
4.1630 0.7407 -0.5517
4.1423 0.7661 -0.5572
4.1301 0.7924 -0.5577
4.1238 0.8187 -0.5548
4.0959 0.8450 -0.5642
4.0866 0.8714 -0.5630
4.0551 0.8990 -0.5742
4.0652 0.9240 -0.5622
4.0571 0.9499 -0.5604
4.0238 1.0280 -0.5601
3.9835 1.0598 -0.5753
3.9754 1.0857 -0.5735
3.9763 1.1092 -0.5671
3.9752 1.1327 -0.5619
3.9416 1.1649 -0.5732
3.9110 1.1971 -0.5828
3.9238 1.2160 -0.5707
3.9185 1.2402 -0.5677
3.9027 1.2678 -0.5699
3.8833 1.2969 -0.5738
3.8710 1.3235 -0.5743
4.6776 -0.2365 -0.5299
4.7109 0.0573 -0.4322
4.6957 0.0670 -0.4389
4.6776 0.0725 -0.4484
4.6557 0.0735 -0.4615
4.6423 0.0896 -0.4653
4.6120 0.0813 -0.4858
4.5520 0.0342 -0.5347
4.5333 0.0492 -0.5420
4.5273 0.0811 -0.5373
4.5090 0.0976 -0.5440
4.5662 0.2663 -0.4648
4.5482 0.2800 -0.4721
4.5072 0.2736 -0.4986
4.4177 0.2984 -0.5464
4.4062 0.3234 -0.5468
4.3909 0.3458 -0.5501
4.3830 0.3732 -0.5477
4.3822 0.4044 -0.5399
4.3646 0.4256 -0.5450
4.3464 0.4773 -0.5424
4.3326 0.5009 -0.5446
4.3236 0.5266 -0.5432
4.3021 0.5477 -0.5507
4.2906 0.5726 -0.5511
4.2488 0.6458 -0.5571
4.2398 0.6714 -0.5558
4.2355 0.6976 -0.5515
4.2295 0.7231 -0.5484
4.2152 0.7476 -0.5506
4.1877 0.7713 -0.5611
4.1817 0.7967 -0.5580
4.1643 0.8217 -0.5620
4.1526 0.8469 -0.5624
4.1608 0.8713 -0.5510
4.1403 0.8966 -0.5568
4.1460 0.9200 -0.5471
4.1027 0.9480 -0.5660
4.1118 0.9705 -0.5545
4.0856 0.9976 -0.5633
4.0771 1.0221 -0.5619
4.0623 1.0478 -0.5641
4.0724 1.0681 -0.5527
4.0632 1.0922 -0.5519
4.0307 1.1223 -0.5637
4.0437 1.1404 -0.5510
4.0290 1.1659 -0.5532
3.9958 1.1975 -0.5650
3.9725 1.2476 -0.5659
3.9739 1.2677 -0.5597
3.9553 1.2953 -0.5637
4.7157 -0.1090 -0.5009
4.7159 -0.0635 -0.4881
4.7318 0.0127 -0.4567
4.7118 0.0120 -0.4697
4.6970 0.0230 -0.4760
4.6840 0.0384 -0.4800
4.6677 0.0486 -0.4876
4.6259 0.0178 -0.5229
4.6068 0.0277 -0.5324
4.5919 0.0452 -0.5370
4.5763 0.0622 -0.5423
4.5545 0.0717 -0.5536
4.5383 0.0897 -0.5588
4.5369 0.1262 -0.5496
4.5866 0.2526 -0.4825
4.5807 0.2778 -0.4792
4.5736 0.3015 -0.4772
4.4547 0.3243 -0.5468
4.4253 0.3981 -0.5450
4.3917 0.4393 -0.5550
4.3766 0.4614 -0.5585
4.3267 0.5565 -0.5639
4.2954 0.6302 -0.5633
4.2929 0.6564 -0.5576
4.2576 0.7282 -0.5600
4.2483 0.7525 -0.5592
4.2226 0.8246 -0.5555
4.2096 0.8485 -0.5572
4.1906 0.8727 -0.5626
4.1994 0.8954 -0.5506
4.1571 0.9449 -0.5638
4.1511 0.9683 -0.5611
4.1285 1.0380 -0.5562
4.1283 1.0592 -0.5504
4.0759 1.0929 -0.5744
4.0588 1.1402 -0.5722
4.0342 1.2098 -0.5684
4.0440 1.2263 -0.5576
4.7288 -0.1852 -0.5427
4.7181 -0.1622 -0.5431
4.7222 -0.1047 -0.5235
4.7222 -0.0593 -0.5101
4.7209 -0.0192 -0.4991
4.7111 0.0020 -0.4995
4.6942 0.0095 -0.5087
4.6774 0.0186 -0.5172
4.6546 0.0183 -0.5327
4.6327 0.0219 -0.5463
4.6171 0.0370 -0.5524
4.6086 0.0636 -0.5503
4.6048 0.0967 -0.5431
4.5942 0.1195 -0.5435
4.5812 0.1392 -0.5464
4.6106 0.2435 -0.4960
4.6098 0.2741 -0.4875
4.5990 0.2933 -0.4891
4.5789 0.3035 -0.4996
4.5732 0.3282 -0.4962
4.5649 0.3502 -0.4952
4.4918 0.3505 -0.5443
4.4726 0.3670 -0.5524
4.4759 0.3994 -0.5406
4.4602 0.4186 -0.5455
4.4459 0.4391 -0.5491
4.4322 0.4603 -0.5520
4.4271 0.4859 -0.5480
4.4236 0.5120 -0.5426
4.4076 0.5321 -0.5475
4.3897 0.5520 -0.5536
4.3881 0.5781 -0.5470
4.3743 0.5997 -0.5499
4.3748 0.6255 -0.5420
4.3506 0.6446 -0.5527
4.3540 0.6704 -0.5428
4.3321 0.6907 -0.5515
4.3251 0.7140 -0.5494
4.3210 0.7374 -0.5452
4.3041 0.7593 -0.5501
4.2833 0.7813 -0.5576
4.2793 0.8045 -0.5535
4.2639 0.8272 -0.5571
4.2533 0.8501 -0.5575
4.2427 0.8730 -0.5579
4.2321 0.8959 -0.5583
4.2145 0.9194 -0.5633
4.2159 0.9410 -0.5559
4.2126 0.9628 -0.5518
4.1948 0.9865 -0.5567
4.1790 1.0103 -0.5603
4.1812 1.0305 -0.5529
4.1675 1.0538 -0.5553
4.1417 1.0803 -0.5648
4.1421 1.1003 -0.5587
4.1315 1.1230 -0.5591
4.1075 1.1500 -0.5673
4.1127 1.1678 -0.5586
4.0998 1.1913 -0.5603
4.0858 1.2153 -0.5626
4.0670 1.2413 -0.5676
4.0682 1.2596 -0.5614
4.0517 1.2848 -0.5651
4.7496 -0.1435 -0.5445
4.7354 -0.1313 -0.5507
4.7268 -0.1047 -0.5485
4.7207 -0.0730 -0.5430
4.7095 -0.0530 -0.5447
4.7002 -0.0289 -0.5438
4.6880 -0.0108 -0.5468
4.6742 0.0046 -0.5518
4.6696 0.0371 -0.5449
4.6583 0.0573 -0.5466
4.6503 0.0829 -0.5444
4.6367 0.0998 -0.5487
4.6339 0.1325 -0.5405
4.6250 0.1559 -0.5396
4.6173 0.1807 -0.5373
4.6133 0.2098 -0.5311
4.6343 0.2671 -0.4985
4.6364 0.2997 -0.4869
4.6183 0.3100 -0.4965
4.5965 0.3753 -0.4916
4.5777 0.3872 -0.5012
4.5242 0.3732 -0.5434
4.4331 0.5427 -0.5551
4.4294 0.5673 -0.5501
4.4266 0.5917 -0.5445
4.3973 0.6324 -0.5526
4.4051 0.6587 -0.5389
4.3882 0.6786 -0.5447
4.3428 0.7415 -0.5572
4.3381 0.7640 -0.5536
4.3307 0.7861 -0.5519
4.3143 0.8297 -0.5500
4.2923 0.8731 -0.5521
4.2822 0.8948 -0.5525
4.2620 0.9383 -0.5532
4.2448 0.9611 -0.5583
4.2346 0.9830 -0.5587
4.2182 1.0061 -0.5632
4.1999 1.0497 -0.5626
4.1875 1.0723 -0.5643
4.1736 1.1145 -0.5610
4.1757 1.1325 -0.5539
4.1556 1.1575 -0.5604
4.1340 1.1834 -0.5676
4.1284 1.2038 -0.5653
4.1150 1.2450 -0.5619
4.7920 -0.1374 -0.5395
4.7823 -0.1163 -0.5399
4.7699 -0.1020 -0.5443
4.7618 -0.0764 -0.5420
4.7502 -0.0596 -0.5450
4.7422 -0.0342 -0.5427
4.7334 -0.0110 -0.5417
4.7275 0.0181 -0.5366
4.7158 0.0350 -0.5397
4.7010 0.0465 -0.5469
4.6870 0.0604 -0.5527
4.6771 0.0818 -0.5531
4.6672 0.1033 -0.5535
4.6661 0.1382 -0.5429
4.6574 0.1608 -0.5419
4.6466 0.1802 -0.5436
4.6427 0.2089 -0.5371
4.6528 0.2848 -0.5048
4.6475 0.3085 -0.5011
4.6309 0.3199 -0.5097
4.6185 0.3364 -0.5134
4.6120 0.3587 -0.5110
4.6062 0.3814 -0.5079
4.5896 0.3947 -0.5159
4.5630 0.4012 -0.5335
4.5393 0.4114 -0.5477
4.5339 0.4354 -0.5439
4.5242 0.4562 -0.5442
4.5086 0.4736 -0.5501
4.5048 0.4980 -0.5450
4.4875 0.5150 -0.5523
4.4824 0.5383 -0.5485
4.4742 0.5599 -0.5474
4.4629 0.5802 -0.5492
4.4516 0.6006 -0.5509
4.4385 0.6206 -0.5541
4.4404 0.6450 -0.5447
4.4257 0.6645 -0.5493
4.4108 0.6843 -0.5538
4.3993 0.7051 -0.5556
4.4019 0.7280 -0.5462
4.3681 0.7683 -0.5581
4.3656 0.7899 -0.5528
4.3559 0.8109 -0.5532
4.3405 0.8318 -0.5578
4.3365 0.8528 -0.5539
4.3229 0.8740 -0.5571
4.3170 0.8947 -0.5547
4.3073 0.9157 -0.5550
4.2935 0.9372 -0.5582
4.2838 0.9582 -0.5586
4.2658 0.9807 -0.5646
4.2788 0.9976 -0.5495
4.2460 1.0233 -0.5653
4.2595 1.0390 -0.5502
4.2413 1.0619 -0.5562
4.2251 1.0847 -0.5608
4.2088 1.1077 -0.5654
4.2167 1.1232 -0.5545
4.1958 1.1479 -0.5619
4.1951 1.1657 -0.5566
4.1831 1.1874 -0.5584
4.1688 1.2102 -0.5616
4.1731 1.2254 -0.5534
4.1753 1.2410 -0.5467
4.7981 -0.0845 -0.5440
4.7869 -0.0685 -0.5472
4.7748 -0.0546 -0.5518
4.7697 -0.0232 -0.5451
4.7566 -0.0112 -0.5511
4.7461 0.0074 -0.5529
4.7365 0.0280 -0.5532
4.7279 0.0506 -0.5522
4.7228 0.0797 -0.5461
4.7129 0.0992 -0.5472
4.6982 0.1107 -0.5547
4.6918 0.1366 -0.5508
4.6779 0.1503 -0.5568
4.6655 0.2012 -0.5490
4.6601 0.2270 -0.5443
4.6674 0.2679 -0.5247
4.6638 0.2939 -0.5186
4.6487 0.3063 -0.5261
4.6358 0.3218 -0.5307
4.6169 0.3606 -0.5321
4.6144 0.3862 -0.5253
4.5898 0.3928 -0.5421
4.5555 0.4485 -0.5496
4.5273 0.5094 -0.5507
4.5054 0.5485 -0.5543
4.4990 0.5702 -0.5518
4.4825 0.5878 -0.5586
4.4802 0.6108 -0.5525
4.4757 0.6326 -0.5485
4.4503 0.6712 -0.5550
4.4332 0.7122 -0.5542
4.4290 0.7332 -0.5502
4.4162 0.7529 -0.5535
4.4032 0.7729 -0.5568
4.3956 0.7933 -0.5557
4.3926 0.8138 -0.5509
4.3759 0.8539 -0.5502
4.3637 0.8741 -0.5527
4.3553 0.8942 -0.5523
4.3387 0.9341 -0.5516
4.3243 0.9549 -0.5556
4.3058 0.9767 -0.5625
4.3077 0.9949 -0.5548
4.2660 1.0766 -0.5591
4.2544 1.0975 -0.5610
4.2528 1.1153 -0.5562
4.2285 1.1575 -0.5605
4.2111 1.1808 -0.5660
4.2120 1.1970 -0.5598
4.2085 1.2148 -0.5564
4.8167 -0.0435 -0.5408
4.8060 -0.0285 -0.5441
4.7998 -0.0012 -0.5393
4.7878 0.0108 -0.5448
4.7831 0.0409 -0.5378
4.7728 0.0572 -0.5403
4.7628 0.0747 -0.5422
4.7504 0.0874 -0.5477
4.7412 0.1071 -0.5480
4.7351 0.1323 -0.5439
4.7250 0.1501 -0.5457
4.7122 0.1636 -0.5512
4.7112 0.1960 -0.5405
4.6994 0.2113 -0.5445
4.6904 0.2308 -0.5449
4.6854 0.2557 -0.5400
4.6805 0.2801 -0.5352
4.6632 0.2893 -0.5459
4.6566 0.3116 -0.5433
4.6482 0.3317 -0.5429
4.6386 0.3504 -0.5439
4.6302 0.3704 -0.5435
4.6193 0.3881 -0.5461
4.6123 0.4092 -0.5442
4.5992 0.4254 -0.5490
4.5943 0.4480 -0.5449
4.5817 0.4650 -0.5489
4.5806 0.4895 -0.5411
4.5636 0.5040 -0.5496
4.5583 0.5255 -0.5462
4.5448 0.5427 -0.5511
4.5434 0.5657 -0.5439
4.5368 0.5860 -0.5420
4.5184 0.6016 -0.5513
4.5053 0.6197 -0.5554
4.5003 0.6406 -0.5520
4.5003 0.6626 -0.5441
4.4880 0.6810 -0.5474
4.4765 0.6998 -0.5500
4.4658 0.7190 -0.5519
4.4594 0.7388 -0.5499
4.4389 0.7569 -0.5601
4.4342 0.7770 -0.5566
4.4324 0.7970 -0.5510
4.4225 0.8163 -0.5521
4.4097 0.8357 -0.5554
4.3998 0.8553 -0.5565
4.3888 0.8749 -0.5584
4.3816 0.8944 -0.5572
4.3755 0.9136 -0.5553
4.3566 0.9344 -0.5632
4.3474 0.9541 -0.5635
4.3393 0.9736 -0.5631
4.3363 0.9921 -0.5589
4.3397 1.0088 -0.5501
4.3245 1.0296 -0.5550
4.3144 1.0493 -0.5561
4.2925 1.0724 -0.5656
4.2910 1.0898 -0.5606
4.2852 1.1082 -0.5586
4.2817 1.1258 -0.5552
4.2593 1.1500 -0.5647
4.2581 1.1666 -0.5597
4.2468 1.1870 -0.5615
4.2343 1.2080 -0.5642
4.2275 1.2265 -0.5630
4.8298 -0.0176 -0.5457
4.8051 0.0436 -0.5437
4.7705 0.1202 -0.5442
4.7632 0.1419 -0.5423
4.7540 0.1598 -0.5434
4.7417 0.1724 -0.5491
4.7302 0.1871 -0.5532
4.7251 0.2121 -0.5482
4.7125 0.2254 -0.5539
4.7059 0.2476 -0.5511
4.7016 0.2727 -0.5453
4.6877 0.3146 -0.5414
4.6802 0.3347 -0.5402
4.6704 0.3520 -0.5420
4.6617 0.3707 -0.5423
4.6437 0.4074 -0.5438
4.6370 0.4278 -0.5418
4.6311 0.4485 -0.5390
4.6177 0.4635 -0.5447
4.6111 0.4836 -0.5427
4.5924 0.5200 -0.5449
4.5837 0.5387 -0.5453
4.5578 0.5947 -0.5462
4.5491 0.6134 -0.5466
4.5420 0.6326 -0.5453
4.5318 0.6507 -0.5472
4.5247 0.6699 -0.5460
4.5169 0.6887 -0.5455
4.5108 0.7078 -0.5435
4.4997 0.7259 -0.5462
4.4876 0.7440 -0.5496
4.4798 0.7628 -0.5492
4.4756 0.7818 -0.5456
4.4584 0.8189 -0.5462
4.4479 0.8374 -0.5481
4.4355 0.8562 -0.5516
4.4174 0.8754 -0.5597
4.4009 0.9310 -0.5529
4.3872 0.9504 -0.5571
4.3835 0.9684 -0.5535
4.3620 1.0067 -0.5573
4.3585 1.0242 -0.5537
4.3551 1.0414 -0.5501
4.3433 1.0609 -0.5528
4.3325 1.0802 -0.5547
4.3228 1.0992 -0.5558
4.3141 1.1179 -0.5561
4.2999 1.1387 -0.5604
4.2776 1.1628 -0.5702
4.2710 1.1810 -0.5690
4.2679 1.1976 -0.5653
5.9618 0.9445 -0.5294
5.9517 0.9626 -0.5281
5.9485 0.9813 -0.5330
5.9444 1.0002 -0.5372
5.9359 1.0187 -0.5375
5.9282 1.0373 -0.5385
5.9197 1.0558 -0.5389
5.9080 1.0734 -0.5361
5.9003 1.0920 -0.5372
5.8895 1.1096 -0.5352
5.8742 1.1469 -0.5373
5.8642 1.1646 -0.5361
5.8595 1.1848 -0.5403
5.8488 1.2020 -0.5383
5.8361 1.2179 -0.5340
5.8277 1.2361 -0.5343
5.8235 1.2572 -0.5392
5.8157 1.2761 -0.5403
5.8066 1.2939 -0.5398
5.7968 1.3112 -0.5386
5.7897 1.3307 -0.5404
5.7800 1.3479 -0.5392
5.7697 1.3643 -0.5372
5.7607 1.3819 -0.5367
5.7529 1.4009 -0.5378
5.7457 1.4205 -0.5396
5.7390 1.4410 -0.5423
5.7277 1.4556 -0.5387
5.7204 1.4754 -0.5406
5.7120 1.4937 -0.5409
5.7057 1.5153 -0.5443
5.6972 1.5337 -0.5446
5.6868 1.5486 -0.5418
5.6774 1.5651 -0.5406
5.6690 1.5834 -0.5409
5.6606 1.6016 -0.5412
5.6522 1.6199 -0.5415
5.6451 1.6412 -0.5441
5.6363 1.6585 -0.5436
5.6270 1.6747 -0.5424
5.6198 1.6962 -0.5450
5.6102 1.7112 -0.5430
5.6030 1.7328 -0.5457
5.5946 1.7511 -0.5460
5.5869 1.7718 -0.5478
5.5777 1.7878 -0.5466
5.9693 0.9471 -0.5122
5.9714 0.9663 -0.5214
5.9812 0.9869 -0.5372
5.9810 1.0073 -0.5449
5.9738 1.0270 -0.5467
5.9598 1.0454 -0.5426
5.9542 1.0654 -0.5459
5.9348 1.1037 -0.5450
5.9108 1.1400 -0.5398
5.9066 1.1611 -0.5445
5.8954 1.1794 -0.5426
5.8792 1.2186 -0.5447
5.8544 1.2526 -0.5380
5.8499 1.2745 -0.5427
5.8323 1.3128 -0.5434
5.8228 1.3314 -0.5430
5.8146 1.3511 -0.5440
5.8116 1.3757 -0.5511
5.7951 1.3876 -0.5424
5.7758 1.4237 -0.5408
5.7583 1.4618 -0.5415
5.7408 1.4998 -0.5421
5.7326 1.5196 -0.5432
5.7238 1.5386 -0.5435
5.7135 1.5551 -0.5416
5.7048 1.5741 -0.5419
5.6986 1.5976 -0.5460
5.6888 1.6148 -0.5448
5.6796 1.6329 -0.5444
5.6446 1.7089 -0.5456
5.6359 1.7279 -0.5460
5.6271 1.7470 -0.5463
5.6176 1.7637 -0.5451
5.6089 1.7827 -0.5454
5.6002 1.8016 -0.5457
6.0008 1.0121 -0.5364
5.9874 1.0311 -0.5332
5.9734 1.0715 -0.5374
5.9569 1.0893 -0.5313
5.9495 1.1094 -0.5331
5.9389 1.1285 -0.5320
5.9275 1.1472 -0.5302
5.9224 1.1684 -0.5341
5.9021 1.2065 -0.5326
5.8801 1.2684 -0.5386
5.8515 1.3266 -0.5381
5.8438 1.3474 -0.5399
5.8347 1.3672 -0.5402
5.8185 1.3802 -0.5327
5.8166 1.4066 -0.5409
5.8006 1.4192 -0.5333
5.7960 1.4434 -0.5387
5.7899 1.4666 -0.5426
5.7791 1.4842 -0.5408
5.7717 1.5061 -0.5433
5.7610 1.5236 -0.5414
5.7508 1.5416 -0.5403
5.7327 1.5809 -0.5410
5.7237 1.6006 -0.5413
5.7131 1.6175 -0.5395
5.7056 1.6399 -0.5420
5.6956 1.6576 -0.5409
5.6866 1.6772 -0.5412
5.6776 1.6968 -0.5415
5.6704 1.7205 -0.5447
5.6596 1.7360 -0.5422
5.6506 1.7556 -0.5425
5.6416 1.7752 -0.5428
5.6326 1.7948 -0.5432
5.6236 1.8144 -0.5435
5.6161 1.8387 -0.5467
5.6096 1.8669 -0.5522
6.0208 1.0614 -0.5427
6.0146 1.0831 -0.5458
5.9984 1.1022 -0.5407
5.9872 1.1223 -0.5397
5.9809 1.1441 -0.5428
5.9643 1.1621 -0.5369
5.9538 1.2071 -0.5452
5.9458 1.2287 -0.5469
5.9317 1.2471 -0.5431
5.8888 1.3264 -0.5397
5.8726 1.3697 -0.5431
5.8631 1.3903 -0.5435
5.8536 1.4110 -0.5438
5.8460 1.4335 -0.5463
5.8390 1.4569 -0.5494
5.8295 1.4777 -0.5497
5.8157 1.4935 -0.5452
5.8068 1.5149 -0.5463
5.7955 1.5332 -0.5445
5.7900 1.5593 -0.5497
5.7794 1.5785 -0.5487
5.7699 1.5992 -0.5490
5.7577 1.6156 -0.5459
5.7471 1.6344 -0.5449
5.7398 1.6586 -0.5480
5.7273 1.6736 -0.5442
5.7159 1.6902 -0.5417
5.7065 1.7106 -0.5421
5.6971 1.7310 -0.5424
5.6905 1.7576 -0.5469
5.6793 1.7738 -0.5445
5.6699 1.7943 -0.5448
5.6630 1.8214 -0.5494
5.6519 1.8374 -0.5469
5.6417 1.8556 -0.5459
5.6331 1.8784 -0.5476
5.6252 1.9037 -0.5508
6.0314 1.0654 -0.5246
6.0302 1.0885 -0.5315
6.0058 1.1293 -0.5283
5.9977 1.1510 -0.5300
5.9608 1.2107 -0.5244
5.9283 1.2978 -0.5311
5.9229 1.3218 -0.5355
5.9174 1.3461 -0.5398
5.8865 1.4091 -0.5395
5.8754 1.4291 -0.5386
5.8508 1.4664 -0.5340
5.8399 1.4860 -0.5330
5.8339 1.5113 -0.5373
5.8253 1.5340 -0.5390
5.8156 1.5552 -0.5394
5.8081 1.5796 -0.5424
5.7938 1.5944 -0.5374
5.7808 1.6104 -0.5338
5.7733 1.6349 -0.5368
5.7668 1.6613 -0.5412
5.7602 1.6880 -0.5455
5.7483 1.7056 -0.5432
5.7366 1.7230 -0.5409
5.7268 1.7442 -0.5413
5.7161 1.7633 -0.5403
5.7074 1.7865 -0.5420
5.6994 1.8119 -0.5450
5.6905 1.8354 -0.5467
5.6782 1.8500 -0.5430
5.6701 1.8757 -0.5461
5.6603 1.8970 -0.5464
5.6505 1.9183 -0.5468
5.6400 1.9371 -0.5458
5.9009 0.8191 -0.3324
5.9025 0.8322 -0.3376
6.0257 1.1875 -0.5333
6.0210 1.2120 -0.5381
6.0075 1.2601 -0.5445
5.9971 1.2827 -0.5449
5.9610 1.3468 -0.5416
5.9507 1.3692 -0.5420
5.9516 1.4002 -0.5525
5.9322 1.4156 -0.5446
5.9198 1.4362 -0.5431
5.8775 1.5243 -0.5433
5.8647 1.5437 -0.5411
5.8527 1.5637 -0.5396
5.8467 1.5912 -0.5444
5.8313 1.6432 -0.5510
5.8210 1.6657 -0.5513
5.8134 1.6926 -0.5549
5.7981 1.7072 -0.5495
5.7899 1.7333 -0.5525
5.7795 1.7558 -0.5529
5.7657 1.7716 -0.5487
5.7500 1.7830 -0.5420
5.7389 1.8030 -0.5411
5.7297 1.8271 -0.5428
5.7186 1.8470 -0.5418
5.7076 1.8669 -0.5409
5.6984 1.8911 -0.5426
5.6891 1.9154 -0.5442
5.6781 1.9352 -0.5433
5.6664 1.9524 -0.5411
6.0121 1.2908 -0.5283
6.0031 1.3145 -0.5299
5.9894 1.3652 -0.5368
5.9190 1.4976 -0.5330
5.9130 1.5252 -0.5377
5.9011 1.5468 -0.5368
5.8905 1.5699 -0.5372
5.8812 1.5944 -0.5388
5.8694 1.6159 -0.5380
5.8617 1.6429 -0.5414
5.8494 1.6636 -0.5400
5.8348 1.6807 -0.5361
5.8270 1.7079 -0.5395
5.8203 1.7372 -0.5442
5.8085 1.7586 -0.5434
5.7979 1.7817 -0.5438
5.7847 1.8000 -0.5411
5.7751 1.8250 -0.5427
5.7645 1.8481 -0.5431
5.7553 1.8743 -0.5453
5.7410 1.8888 -0.5408
5.7304 1.9118 -0.5411
5.7199 1.9347 -0.5415
5.7106 1.9611 -0.5438
5.7001 1.9841 -0.5442
5.6895 2.0071 -0.5445
5.6797 2.0326 -0.5462
6.0502 1.3731 -0.5462
6.0286 1.3908 -0.5384
6.0198 1.4497 -0.5503
6.0084 1.4745 -0.5507
5.9936 1.4963 -0.5482
5.9515 1.5983 -0.5528
5.9420 1.6252 -0.5550
5.9206 1.6381 -0.5460
5.9094 1.6625 -0.5464
5.9047 1.6957 -0.5533
5.8899 1.7155 -0.5502
5.8820 1.7452 -0.5541
5.8690 1.7672 -0.5528
5.8560 1.7892 -0.5514
5.8431 1.8109 -0.5501
5.8376 1.8459 -0.5570
5.8237 1.8658 -0.5545
5.8043 1.8744 -0.5454
5.7981 1.9089 -0.5517
5.7830 1.9249 -0.5474
5.7671 1.9384 -0.5419
5.7606 1.9735 -0.5482
5.7544 2.0102 -0.5552
5.7374 2.0197 -0.5479
5.7238 2.0369 -0.5447
5.7152 2.0682 -0.5487
5.7080 2.1047 -0.5550
5.9214 0.8512 -0.2994
5.9642 0.8937 -0.3352
5.9664 0.9270 -0.3456
6.0248 1.4860 -0.5323
6.0097 1.5081 -0.5299
6.0003 1.5350 -0.5320
5.9128 1.7421 -0.5399
5.9012 1.7674 -0.5403
5.8896 1.7926 -0.5407
5.8780 1.8179 -0.5411
5.8647 1.8404 -0.5399
5.8563 1.8713 -0.5437
5.8431 1.8937 -0.5424
5.8199 1.9442 -0.5433
5.8083 1.9695 -0.5437
5.7952 1.9915 -0.5424
5.7837 2.0167 -0.5428
5.7721 2.0419 -0.5433
5.7618 2.0706 -0.5454
5.7502 2.0959 -0.5458
5.7352 2.1114 -0.5417
5.7225 2.1328 -0.5404
5.8654 0.7551 -0.2264
5.8721 0.7639 -0.2323
5.8797 0.7729 -0.2387
5.9358 0.8667 -0.2928
5.9555 0.8964 -0.3110
5.9540 0.9125 -0.3144
6.0092 1.6144 -0.5265
6.0202 1.6652 -0.5455
6.0078 1.6921 -0.5460
5.9992 1.7236 -0.5496
5.9868 1.7506 -0.5501
5.9768 1.7809 -0.5527
5.9679 1.8131 -0.5563
5.9494 1.8318 -0.5515
5.9261 1.8421 -0.5417
5.9229 1.8832 -0.5508
5.9088 1.9074 -0.5496
5.8980 1.9372 -0.5517
5.8872 1.9672 -0.5537
5.8717 1.9882 -0.5510
5.8573 2.0109 -0.5493
5.8469 2.0420 -0.5519
5.8346 2.0689 -0.5523
5.8147 2.0780 -0.5441
5.8025 2.1045 -0.5446
5.7916 2.1345 -0.5467
5.7807 2.1647 -0.5487
5.7672 2.1877 -0.5475
5.7550 2.2143 -0.5480
5.8580 0.7496 -0.2065
5.8696 0.7565 -0.2140
5.8686 0.7674 -0.2162
5.8797 0.7755 -0.2237
5.8894 0.7846 -0.2308
5.8900 0.7963 -0.2339
5.8969 0.8070 -0.2400
5.9274 0.8697 -0.2707
5.9398 0.8838 -0.2803
5.9427 0.8990 -0.2855
5.9703 0.9315 -0.3072
5.9819 0.9494 -0.3174
6.0171 1.7402 -0.5295
6.0045 1.7677 -0.5300
6.0005 1.8066 -0.5376
5.9895 1.8369 -0.5395
5.9790 1.8683 -0.5420
5.9661 1.8963 -0.5425
5.9533 1.9244 -0.5430
5.9365 1.9458 -0.5399
5.9253 1.9766 -0.5419
5.9109 2.0015 -0.5408
5.8996 2.0324 -0.5428
5.8502 2.1486 -0.5468
5.8373 2.1766 -0.5472
5.8097 2.2279 -0.5461
5.7956 2.2522 -0.5450
5.7811 2.2751 -0.5435
5.8582 0.7421 -0.1906
5.8645 0.7502 -0.1954
5.8659 0.7601 -0.1984
5.8763 0.7679 -0.2050
5.8819 0.7775 -0.2098
5.8850 0.7882 -0.2138
5.8923 0.7983 -0.2195
5.8939 0.8100 -0.2230
5.9115 0.8195 -0.2334
5.9115 0.8325 -0.2364
5.9187 0.8449 -0.2427
5.9236 0.8582 -0.2481
5.9528 0.9010 -0.2716
6.0432 1.1254 -0.3659
6.0424 1.1490 -0.3710
6.0223 1.9241 -0.5412
6.0064 1.9501 -0.5398
6.0044 1.9979 -0.5499
5.9929 2.0316 -0.5523
5.9835 2.0694 -0.5567
5.9739 2.1076 -0.5611
5.9578 2.1340 -0.5596
5.9438 2.1643 -0.5601
5.9238 2.1819 -0.5548
5.9119 2.2163 -0.5573
5.8942 2.2375 -0.5539
5.8785 2.2629 -0.5525
5.8611 2.2833 -0.5491
5.8457 2.3082 -0.5476
5.8286 2.3280 -0.5442
5.8641 0.7529 -0.1815
5.8702 0.7614 -0.1861
5.8772 0.7702 -0.1910
5.8829 0.7798 -0.1956
5.8883 0.7899 -0.2002
5.8890 0.8014 -0.2030
5.9028 0.8109 -0.2111
5.9140 0.8216 -0.2183
5.9162 0.8343 -0.2220
5.9331 0.8457 -0.2319
5.9337 0.8596 -0.2352
5.9477 0.8730 -0.2442
5.9550 0.8877 -0.2506
5.9539 0.9032 -0.2535
5.9637 0.9192 -0.2612
6.0504 1.1288 -0.3448
6.0461 1.1513 -0.3478
6.0434 1.1748 -0.3517
6.0337 2.0360 -0.5350
6.0173 2.0631 -0.5336
5.9986 2.0862 -0.5305
5.9939 2.1337 -0.5388
5.9839 2.1729 -0.5430
5.9743 2.2135 -0.5476
5.9578 2.2406 -0.5463
5.9409 2.2665 -0.5445
5.9265 2.2977 -0.5451
5.9121 2.3289 -0.5456
5.8959 2.3555 -0.5443
5.8816 2.3866 -0.5448
5.8713 2.4287 -0.5495
5.8671 0.7545 -0.1690
5.8756 0.7624 -0.1741
5.8747 0.7733 -0.1760
5.8884 0.7810 -0.1831
5.8905 0.7919 -0.1862
5.8958 0.8025 -0.1905
5.9110 0.8245 -0.2012
5.9177 0.8365 -0.2063
5.9230 0.8492 -0.2111
5.9323 0.8621 -0.2175
5.9360 0.8761 -0.2218
5.9446 0.8904 -0.2283
5.9641 0.9053 -0.2392
5.9659 0.9214 -0.2432
6.0362 1.0178 -0.2915
6.0434 1.0396 -0.2989
6.0419 1.0605 -0.3025
6.0471 1.1771 -0.3284
6.0408 1.1996 -0.3304
6.0362 1.2230 -0.3333
6.0322 1.2471 -0.3366
6.0424 2.2109 -0.5372
6.0328 2.2540 -0.5421
6.0308 2.3134 -0.5534
6.0210 2.3589 -0.5587
6.0054 2.3930 -0.5593
5.9922 2.4326 -0.5620
5.9765 2.4668 -0.5626
5.9532 2.4821 -0.5562
5.9331 2.5038 -0.5525
5.9222 2.5496 -0.5574
5.9093 2.5909 -0.5605
5.8702 0.7561 -0.1565
5.8753 0.7650 -0.1602
5.8802 0.7744 -0.1638
5.8860 0.7840 -0.1678
5.8927 0.7939 -0.1722
5.8935 0.8054 -0.1747
5.9053 0.8153 -0.1811
5.9146 0.8264 -0.1867
5.9181 0.8388 -0.1903
5.9170 0.8522 -0.1925
5.9393 0.8639 -0.2031
5.9409 0.8781 -0.2064
5.9559 0.8923 -0.2148
5.9559 0.9076 -0.2177
5.9762 0.9237 -0.2284
5.9777 0.9403 -0.2322
6.0164 0.9784 -0.2540
6.0179 0.9975 -0.2582
6.0315 1.0190 -0.2674
6.0381 1.0404 -0.2740
6.0376 1.0613 -0.2778
6.0271 1.1020 -0.2816
6.0298 1.1251 -0.2870
6.0394 1.1997 -0.3048
6.0409 1.3056 -0.3255
6.0147 2.4678 -0.5367
5.9987 2.5026 -0.5373
5.9827 2.5375 -0.5379
5.9695 2.5795 -0.5409
5.9483 2.6010 -0.5370
5.9204 2.6018 -0.5266
5.8808 0.7661 -0.1481
5.8810 0.7767 -0.1501
5.8812 0.7876 -0.1521
5.8926 0.7964 -0.1576
5.8969 0.8072 -0.1610
5.9010 0.8184 -0.1645
5.9071 0.8298 -0.1686
5.9206 0.8409 -0.1752
5.9261 0.8535 -0.1794
5.9249 0.8673 -0.1814
5.9395 0.8804 -0.1888
5.9526 0.8946 -0.1959
5.9631 0.9098 -0.2022
5.9763 0.9258 -0.2097
5.9830 0.9427 -0.2150
5.9884 0.9601 -0.2199
6.0043 0.9793 -0.2289
6.0070 0.9981 -0.2331
6.0133 1.0181 -0.2389
6.0373 1.0420 -0.2515
6.0389 1.0632 -0.2558
6.0356 1.0838 -0.2583
6.0322 1.1047 -0.2608
6.0268 1.1254 -0.2625
6.0404 1.2259 -0.2850
6.0350 1.3587 -0.3067
6.0053 2.5016 -0.4985
5.9893 2.5363 -0.4990
5.9629 2.5445 -0.4913
5.9472 2.5786 -0.4919
5.8807 0.7792 -0.1362
5.8798 0.7903 -0.1377
5.8936 0.7986 -0.1435
5.8935 0.8102 -0.1454
5.9067 0.8199 -0.1512
5.9150 0.8311 -0.1557
5.9231 0.8429 -0.1602
5.9287 0.8556 -0.1641
5.9426 0.8682 -0.1706
5.9455 0.8823 -0.1738
5.9523 0.8968 -0.1784
5.9651 0.9119 -0.1849
5.9703 0.9278 -0.1892
5.9823 0.9447 -0.1958
5.9878 0.9621 -0.2004
5.9930 0.9801 -0.2050
6.0122 1.0197 -0.2176
6.0375 1.0438 -0.2296
6.0411 1.0652 -0.2343
6.0369 1.0856 -0.2363
6.0299 1.1054 -0.2373
6.0338 1.1287 -0.2423
6.0436 1.1547 -0.2497
6.0467 1.1796 -0.2548
6.0451 1.2034 -0.2582
6.0379 1.2507 -0.2636
6.0281 1.2720 -0.2640
6.0116 2.5732 -0.4717
5.9771 2.5625 -0.4589
5.9486 2.5635 -0.4500
5.8850 0.7806 -0.1237
5.8841 0.7917 -0.1251
5.8957 0.8005 -0.1298
5.8968 0.8119 -0.1318
5.9101 0.8217 -0.1372
5.9118 0.8338 -0.1395
5.9190 0.8457 -0.1434
5.9302 0.8577 -0.1485
5.9356 0.8710 -0.1520
5.9418 0.8847 -0.1559
5.9478 0.8991 -0.1598
5.9608 0.9141 -0.1659
5.9723 0.9300 -0.1716
5.9814 0.9467 -0.1768
5.9881 0.9641 -0.1814
6.0064 0.9834 -0.1896
6.0084 1.0020 -0.1930
6.0139 1.0217 -0.1976
6.0395 1.0458 -0.2087
6.0509 1.0689 -0.2155
6.0571 1.0919 -0.2207
6.0461 1.1111 -0.2204
6.0398 1.1317 -0.2217
6.0343 1.1527 -0.2233
6.0377 1.1772 -0.2279
6.0408 1.2023 -0.2326
6.0314 1.2229 -0.2330
6.0434 1.2537 -0.2411
