ply
format ascii 1.0
element vertex 2118
property float x
property float y
property float z
end_header
6.1122 -0.0253 -0.1225
6.1068 0.0158 -0.1701
6.0103 0.0395 -0.4975
5.9077 -0.4065 -0.4985
5.8733 -0.5522 -0.5018
5.8439 -0.6981 -0.4887
5.8022 -0.8772 -0.4909
5.7937 -0.9091 -0.4947
5.7858 -0.9396 -0.4976
5.7718 -1.0042 -0.4951
5.7600 -1.0653 -0.4878
5.7542 -1.0847 -0.4922
5.7489 -1.1061 -0.4933
5.7446 -1.1328 -0.4875
5.7399 -1.1513 -0.4891
5.7357 -1.1710 -0.4880
5.7314 -1.1866 -0.4905
5.7281 -1.2073 -0.4857
5.7239 -1.2193 -0.4906
5.7209 -1.2372 -0.4870
5.7174 -1.2504 -0.4886
5.7153 -1.2692 -0.4812
5.7114 -1.2776 -0.4878
5.7089 -1.2916 -0.4854
5.7056 -1.3012 -0.4889
5.7034 -1.3141 -0.4864
5.7005 -1.3234 -0.4890
6.2406 -0.2080 0.5398
6.2317 -0.2080 0.5122
6.2129 -0.1442 0.4131
6.2067 -0.1305 0.3852
6.1924 -0.1466 0.3506
6.1903 -0.1154 0.3244
6.1847 -0.0959 0.2946
6.1791 -0.0747 0.2637
6.1796 -0.0252 0.2344
6.1857 0.0517 0.2047
6.1592 -0.0125 0.1624
6.1414 -0.0394 0.1239
6.1376 0.0002 0.0871
6.1287 0.0178 0.0480
6.1122 -0.0018 0.0088
6.1011 0.0079 -0.0318
6.0942 0.0432 -0.0755
6.0825 0.0542 -0.1191
6.0679 0.0494 -0.1617
6.0582 0.0780 -0.2101
5.8952 -0.2620 -0.5053
5.8176 -0.6652 -0.4942
5.7713 -0.8827 -0.5019
5.7645 -0.9274 -0.4949
5.7575 -0.9527 -0.5009
5.7414 -1.0512 -0.4893
5.7365 -1.0765 -0.4885
5.7319 -1.0990 -0.4890
5.7279 -1.1236 -0.4859
5.7235 -1.1415 -0.4885
5.7184 -1.1528 -0.4974
5.7149 -1.1725 -0.4958
5.7131 -1.1989 -0.4849
5.7089 -1.2103 -0.4908
5.7068 -1.2307 -0.4844
5.7031 -1.2418 -0.4892
5.7006 -1.2571 -0.4872
5.6976 -1.2693 -0.4888
5.6947 -1.2806 -0.4909
5.6936 -1.2975 -0.4835
5.6905 -1.3063 -0.4879
5.6879 -1.3164 -0.4895
5.6853 -1.3256 -0.4919
6.2154 -0.2369 0.5861
6.2098 -0.2267 0.5636
6.2084 -0.1339 0.5103
6.2082 -0.0982 0.4907
6.2051 -0.0712 0.4670
6.1935 -0.0760 0.4344
6.1774 -0.0993 0.3975
6.1717 -0.0790 0.3696
6.1630 -0.0705 0.3384
6.1600 -0.0352 0.3106
6.1566 0.0017 0.2809
6.1502 0.0269 0.2479
6.1417 0.0448 0.2126
6.1254 0.0251 0.1735
6.1136 0.0284 0.1357
6.0778 0.0454 0.0180
6.0625 0.0329 -0.0221
6.0567 0.0844 -0.0669
6.0532 0.1589 -0.1172
6.0402 0.1732 -0.1643
6.0232 0.1593 -0.2087
5.9232 0.1038 -0.4835
5.9016 0.0199 -0.5048
5.8584 -0.2409 -0.4981
5.8268 -0.4030 -0.5086
5.7803 -0.6960 -0.4949
5.7633 -0.7909 -0.4965
5.7494 -0.8796 -0.4918
5.7377 -0.9536 -0.4882
5.7319 -0.9804 -0.4915
5.7272 -1.0118 -0.4892
5.7186 -1.0668 -0.4864
5.7105 -1.1111 -0.4875
5.7067 -1.1308 -0.4887
5.7034 -1.1510 -0.4881
5.7004 -1.1709 -0.4865
5.6977 -1.1897 -0.4849
5.6914 -1.2188 -0.4888
5.6890 -1.2346 -0.4877
5.6868 -1.2501 -0.4859
5.6839 -1.2617 -0.4887
5.6819 -1.2753 -0.4876
5.6803 -1.2895 -0.4849
5.6786 -1.3020 -0.4836
5.6757 -1.3107 -0.4876
6.1842 -0.1986 0.5768
6.1841 -0.1273 0.5454
6.1861 -0.0800 0.5306
6.1808 -0.0595 0.5061
6.1723 -0.0512 0.4772
6.1667 -0.0291 0.4509
6.1490 -0.0597 0.4117
6.1442 -0.0312 0.3851
6.1450 0.0265 0.3621
6.1366 0.0435 0.3298
6.1279 0.0612 0.2964
6.1177 0.0729 0.2610
6.1113 0.1077 0.2268
6.0922 0.0721 0.1855
6.0797 0.0753 0.1471
6.0518 0.1631 0.0261
6.0428 0.2043 -0.0187
6.0296 0.2192 -0.0643
6.0094 0.1770 -0.1061
5.9957 0.1916 -0.1531
5.9805 0.1964 -0.2001
5.8789 0.1413 -0.4777
5.8595 0.0722 -0.5051
5.8219 -0.1811 -0.5059
5.7710 -0.5434 -0.4990
5.7385 -0.7736 -0.4950
5.7267 -0.8642 -0.4906
5.7160 -0.9338 -0.4918
5.7062 -0.9894 -0.4968
5.6994 -1.0502 -0.4905
5.6934 -1.1017 -0.4858
5.6868 -1.1404 -0.4885
5.6839 -1.1589 -0.4889
5.6808 -1.1748 -0.4913
5.6795 -1.1968 -0.4854
5.6766 -1.2106 -0.4881
5.6721 -1.2400 -0.4887
5.6701 -1.2540 -0.4885
5.6686 -1.2685 -0.4866
5.6651 -1.2933 -0.4862
5.6638 -1.3058 -0.4846
5.6613 -1.3145 -0.4883
6.1565 -0.1763 0.5879
6.1396 -0.0298 0.4878
6.1330 -0.0087 0.4612
6.1224 -0.0055 0.4294
6.1140 0.0102 0.3995
6.1106 0.0557 0.3740
6.1003 0.0660 0.3404
6.0872 0.0622 0.3040
6.0728 0.0505 0.2662
6.0679 0.1006 0.2346
6.0552 0.1040 0.1966
6.0435 0.1161 0.1585
6.0347 0.1532 0.1200
6.0277 0.2114 0.0795
6.0168 0.2458 0.0360
6.0032 0.2612 -0.0090
5.9891 0.2773 -0.0554
5.9735 0.2833 -0.1025
5.9560 0.2691 -0.1483
5.9464 0.3615 -0.2084
5.8343 0.2192 -0.4833
5.7593 -0.3561 -0.5000
5.7410 -0.5273 -0.4933
5.7025 -0.8388 -0.4961
5.6994 -0.8894 -0.4872
5.6938 -0.9146 -0.4946
5.6885 -0.9386 -0.5016
5.6875 -0.9857 -0.4882
5.6804 -1.0376 -0.4905
5.6775 -1.0626 -0.4903
5.6752 -1.0881 -0.4881
5.6701 -1.1306 -0.4879
5.6670 -1.1469 -0.4913
5.6639 -1.1621 -0.4949
5.6609 -1.2000 -0.4903
5.6592 -1.2161 -0.4897
5.6577 -1.2321 -0.4883
5.6546 -1.2602 -0.4876
5.6510 -1.2837 -0.4898
5.6496 -1.2957 -0.4896
6.1286 -0.0605 0.5746
6.1315 0.0058 0.5651
6.1183 -0.0049 0.5308
6.0930 0.0434 0.4461
6.0890 0.0909 0.4222
6.0783 0.1015 0.3891
6.0711 0.1372 0.3592
6.0598 0.1493 0.3240
6.0504 0.1782 0.2898
6.0249 0.1959 0.2128
6.0133 0.2189 0.1738
5.9926 0.3076 0.0915
5.9728 0.2641 0.0472
5.9584 0.2798 0.0023
5.9444 0.3069 -0.0445
5.9319 0.3667 -0.0959
5.9178 0.4201 -0.1502
5.9008 0.4408 -0.2037
5.7700 0.1650 -0.5001
5.7551 0.0514 -0.5120
5.7433 -0.0941 -0.5067
5.6786 -0.8221 -0.4952
5.6763 -0.8706 -0.4887
5.6722 -0.9024 -0.4919
5.6688 -0.9345 -0.4930
5.6666 -0.9698 -0.4898
5.6638 -0.9984 -0.4900
5.6602 -1.0207 -0.4944
5.6581 -1.0477 -0.4930
5.6561 -1.1031 -0.4839
5.6528 -1.1190 -0.4891
5.6516 -1.1412 -0.4864
5.6489 -1.1566 -0.4901
5.6477 -1.1759 -0.4884
5.6460 -1.1924 -0.4886
5.6449 -1.2095 -0.4872
5.6441 -1.2264 -0.4849
5.6425 -1.2399 -0.4860
5.6405 -1.2517 -0.4886
5.6399 -1.2664 -0.4863
5.6379 -1.2771 -0.4889
5.6378 -1.2914 -0.4854
6.0937 -0.0579 0.5793
6.0765 0.1068 0.5006
6.0706 0.1490 0.4761
6.0561 0.1372 0.4382
6.0470 0.1654 0.4079
6.0365 0.1861 0.3747
6.0223 0.1819 0.3364
6.0101 0.1949 0.3000
5.9975 0.2087 0.2626
5.9872 0.2495 0.2264
5.9782 0.3132 0.1894
5.9658 0.3501 0.1479
5.9502 0.3573 0.1035
5.9336 0.3542 0.0582
5.9207 0.4158 0.0107
5.8691 0.4523 -0.1389
5.8538 0.5767 -0.2049
5.7106 0.0954 -0.5096
5.6922 -0.1453 -0.5150
5.6778 -0.3326 -0.5192
5.6726 -0.5385 -0.4945
5.6692 -0.6103 -0.4903
5.6630 -0.6509 -0.4998
5.6586 -0.7684 -0.4897
5.6550 -0.8089 -0.4918
5.6524 -0.8497 -0.4914
5.6468 -0.9181 -0.4940
5.6448 -0.9510 -0.4933
5.6435 -0.9845 -0.4904
5.6397 -1.0043 -0.4973
5.6408 -1.0420 -0.4869
5.6377 -1.0895 -0.4864
5.6345 -1.1298 -0.4878
5.6315 -1.1657 -0.4893
5.6293 -1.1800 -0.4926
5.6291 -1.1989 -0.4895
5.6292 -1.2344 -0.4826
5.6267 -1.2448 -0.4874
5.6258 -1.2581 -0.4874
5.6248 -1.2704 -0.4880
5.6236 -1.2818 -0.4891
5.6211 -1.2901 -0.4944
6.0682 -0.0009 0.6018
6.0574 0.0010 0.5722
6.0651 0.2128 0.5683
6.0471 0.1766 0.5237
6.0378 0.2057 0.4953
6.0139 0.2314 0.4274
5.9620 0.2893 0.2801
5.9519 0.3553 0.2452
5.9402 0.4158 0.2064
5.9221 0.3902 0.1603
5.9054 0.3874 0.1153
5.8919 0.4614 0.0701
5.8618 0.6619 -0.0347
5.8414 0.6312 -0.0866
5.8220 0.6865 -0.1454
5.8015 0.8420 -0.2190
5.7714 1.8689 -0.4208
5.6992 1.1472 -0.5320
5.6769 0.5685 -0.5244
5.6634 0.1593 -0.5131
5.6525 -0.1154 -0.5105
5.6449 -0.3293 -0.5059
5.6407 -0.5071 -0.4966
5.6300 -0.7332 -0.4991
5.6314 -0.7965 -0.4877
5.6272 -0.8258 -0.4958
5.6224 -0.8932 -0.5009
5.6217 -0.9659 -0.4943
5.6209 -1.0268 -0.4894
5.6187 -1.0749 -0.4896
5.6175 -1.0963 -0.4903
5.6159 -1.1148 -0.4926
5.6141 -1.1529 -0.4929
5.6140 -1.1906 -0.4889
5.6124 -1.2209 -0.4895
5.6119 -1.2504 -0.4874
5.6113 -1.2767 -0.4860
5.6090 -1.2851 -0.4913
6.0108 0.2083 0.5374
6.0017 0.2473 0.5112
5.9901 0.2700 0.4795
5.9781 0.2935 0.4466
5.9633 0.2903 0.4075
5.9520 0.3331 0.3752
5.9379 0.3493 0.3371
5.9287 0.4514 0.3078
5.9114 0.4373 0.2625
5.8956 0.4566 0.2197
5.8793 0.4765 0.1754
5.8287 0.6723 0.0319
5.7372 3.0956 -0.3282
5.6742 2.3667 -0.4601
5.6204 0.6191 -0.5178
5.6135 0.4429 -0.5277
5.6126 0.2374 -0.5200
5.6104 -0.0711 -0.5109
5.6080 -0.2934 -0.5065
5.6055 -0.4615 -0.5049
5.6055 -0.6066 -0.4981
5.6059 -0.7258 -0.4912
5.6042 -0.7682 -0.4937
5.6031 -0.8100 -0.4944
5.6009 -0.8827 -0.4969
5.6028 -0.9597 -0.4879
5.5991 -1.0070 -0.4956
5.5989 -1.0337 -0.4948
5.6007 -1.0644 -0.4886
5.5984 -1.0817 -0.4937
5.5990 -1.1267 -0.4901
5.5987 -1.1457 -0.4900
5.5990 -1.1831 -0.4872
5.5970 -1.2113 -0.4912
5.5975 -1.2275 -0.4891
5.5971 -1.2411 -0.4895
5.5977 -1.2561 -0.4871
5.5962 -1.2662 -0.4907
5.9940 0.1757 0.6022
5.9814 0.1791 0.5696
5.9765 0.2673 0.5583
5.9318 0.4574 0.4452
5.9167 0.4758 0.4062
5.9001 0.4737 0.3631
5.8833 0.4703 0.3193
5.8659 0.4561 0.2740
5.8478 0.4095 0.2261
5.8323 0.4960 0.1873
5.7625 2.2158 0.0340
5.7252 2.4336 -0.0594
5.6890 2.4485 -0.1533
5.6258 3.2029 -0.3052
5.5807 3.2311 -0.4218
5.5678 2.6390 -0.4650
5.5710 -0.0547 -0.5009
5.5696 -0.1561 -0.5063
5.5756 -0.7384 -0.5001
5.5792 -0.7958 -0.4917
5.5803 -0.8393 -0.4896
5.5787 -0.8702 -0.4942
5.5782 -0.9025 -0.4961
5.5805 -0.9712 -0.4912
5.5790 -1.0202 -0.4958
5.5818 -1.0748 -0.4895
5.5843 -1.1024 -0.4836
5.5820 -1.1168 -0.4897
5.5799 -1.1310 -0.4953
5.5836 -1.1576 -0.4862
5.5825 -1.1722 -0.4893
5.5835 -1.1907 -0.4869
5.5818 -1.2024 -0.4917
5.5830 -1.2196 -0.4888
5.5833 -1.2341 -0.4883
5.5847 -1.2501 -0.4850
5.5824 -1.2587 -0.4909
5.5816 -1.2696 -0.4931
5.9481 0.2432 0.5927
5.9365 0.2736 0.5657
5.9044 0.4895 0.5005
5.8898 0.5314 0.4667
5.8717 0.4945 0.4176
5.8552 0.5032 0.3761
5.8394 0.5710 0.3411
5.8217 0.5929 0.2979
5.7391 2.5133 0.2367
5.7034 2.5287 0.1470
5.6641 2.6370 0.0552
5.6241 2.7038 -0.0417
5.5847 2.7220 -0.1407
5.5187 3.1862 -0.2728
5.4728 3.2144 -0.3875
5.4724 2.6306 -0.4341
5.4349 2.6001 -0.5319
5.5062 0.5232 -0.5118
5.5114 0.2012 -0.5237
5.5277 -0.1140 -0.5067
5.5325 -0.3077 -0.5096
5.5466 -0.6178 -0.4977
5.5478 -0.7150 -0.5021
5.5548 -0.8180 -0.4923
5.5553 -0.8866 -0.4963
5.5569 -0.9496 -0.4974
5.5622 -1.0155 -0.4889
5.5638 -1.0644 -0.4886
5.5632 -1.0836 -0.4916
5.5633 -1.1034 -0.4928
5.5642 -1.1237 -0.4923
5.5657 -1.1447 -0.4900
5.5650 -1.1757 -0.4942
5.5687 -1.2124 -0.4875
5.5706 -1.2424 -0.4850
5.5699 -1.2535 -0.4878
5.5675 -1.2614 -0.4946
5.8975 0.2898 0.5756
5.8746 0.4560 0.5410
5.8614 0.5533 0.5213
5.8442 0.5393 0.4762
5.8271 0.5362 0.4330
5.8103 0.6293 0.4037
5.7141 2.7942 0.4576
5.6792 2.7166 0.3597
5.6417 2.7352 0.2684
5.6033 2.7544 0.1751
5.5765 2.5382 0.0787
5.5442 2.4663 -0.0120
5.5001 2.5709 -0.1080
5.3565 3.3241 -0.3649
5.3206 2.7920 -0.5271
5.3974 1.2835 -0.5402
5.4629 0.2398 -0.5184
5.4814 -0.0560 -0.5124
5.4977 -0.2887 -0.5032
5.5165 -0.5939 -0.4978
5.5219 -0.6999 -0.4987
5.5250 -0.7490 -0.4975
5.5263 -0.7888 -0.4998
5.5366 -0.8836 -0.4870
5.5382 -0.9435 -0.4910
5.5393 -0.9714 -0.4922
5.5433 -1.0486 -0.4927
5.5434 -1.0689 -0.4951
5.5467 -1.0950 -0.4905
5.5487 -1.1174 -0.4884
5.5487 -1.1342 -0.4908
5.5476 -1.1483 -0.4954
5.5490 -1.1664 -0.4945
5.5524 -1.1876 -0.4888
5.5530 -1.2027 -0.4893
5.5531 -1.2290 -0.4926
5.5535 -1.2419 -0.4934
5.9018 0.3167 0.6940
5.8319 0.4851 0.5545
5.8167 0.6316 0.5453
5.7989 0.5125 0.4789
5.7321 2.6398 0.7220
5.6950 2.7474 0.6514
5.6249 2.6904 0.4683
5.5899 2.6619 0.3767
5.5522 2.6792 0.2875
5.5168 2.6504 0.1950
5.4880 2.5322 0.1016
5.4533 2.5040 0.0110
5.3975 2.7048 -0.0875
5.3459 2.8241 -0.1916
5.2514 3.3062 -0.3313
5.2448 2.9745 -0.4112
5.2905 2.2804 -0.4317
5.3213 1.3599 -0.5323
5.4113 0.2894 -0.5161
5.4360 -0.0106 -0.5128
5.4767 -0.4910 -0.5049
5.4879 -0.6198 -0.5021
5.4945 -0.6809 -0.4976
5.4989 -0.7314 -0.4963
5.5042 -0.7813 -0.4928
5.5112 -0.8618 -0.4912
5.5121 -0.8918 -0.4947
5.5157 -0.9271 -0.4926
5.5208 -0.9869 -0.4915
5.5257 -1.0199 -0.4857
5.5251 -1.0388 -0.4908
5.5269 -1.0620 -0.4909
5.5278 -1.0822 -0.4926
5.5320 -1.1083 -0.4872
5.5314 -1.1236 -0.4916
5.5347 -1.1456 -0.4878
5.5346 -1.1604 -0.4908
5.5376 -1.1801 -0.4872
5.5385 -1.1954 -0.4879
5.5391 -1.2220 -0.4914
5.5413 -1.2374 -0.4891
5.8506 0.4032 0.6906
5.8052 0.5278 0.6114
5.7083 2.8711 0.9494
5.6447 2.6325 0.7376
5.5968 2.9318 0.6949
5.5681 2.7570 0.5831
5.5438 2.5504 0.4741
5.5012 2.6545 0.3965
5.4594 2.7177 0.3111
5.4240 2.6889 0.2185
5.3929 2.6144 0.1253
5.3483 2.6778 0.0331
5.2960 2.7943 -0.0646
5.2709 2.6666 -0.1564
5.2284 2.6850 -0.2545
5.1985 2.6077 -0.3455
5.2135 2.2375 -0.3996
5.2156 1.9893 -0.4551
5.2604 1.3403 -0.5054
5.3024 0.8267 -0.5294
5.3358 0.5459 -0.5173
5.3557 0.3513 -0.5168
5.3810 0.1498 -0.5048
5.4248 -0.2980 -0.5084
5.4585 -0.5584 -0.4907
5.4649 -0.6189 -0.4900
5.4689 -0.6686 -0.4924
5.4707 -0.7088 -0.4979
5.4765 -0.7886 -0.5033
5.4911 -0.8815 -0.4909
5.4976 -0.9457 -0.4909
5.5024 -0.9998 -0.4924
5.5046 -1.0245 -0.4930
5.5103 -1.0552 -0.4867
5.5108 -1.0738 -0.4902
5.5124 -1.0939 -0.4912
5.5139 -1.1129 -0.4923
5.5190 -1.1377 -0.4860
5.5231 -1.1735 -0.4847
5.5238 -1.2007 -0.4897
5.5243 -1.2256 -0.4946
4.8452 -1.7157 0.1961
4.7627 -1.7557 0.1935
4.7612 -1.7455 0.1955
4.8427 -1.6714 0.1949
4.8796 -1.6438 0.1936
4.9304 -1.5992 0.1929
4.9439 -1.5966 0.1911
4.9691 -1.5744 0.1908
4.9922 -1.5299 0.1948
5.0013 -1.5224 0.1946
5.0307 -1.5039 0.1929
5.0433 -1.5034 0.1909
5.0471 -1.4861 0.1933
5.0542 -1.4746 0.1941
5.0633 -1.4671 0.1939
5.0720 -1.4586 0.1940
5.0807 -1.4500 0.1940
5.0878 -1.4370 0.1951
5.0960 -1.4261 0.1957
5.1028 -1.4105 0.1973
5.1423 -1.3326 0.2044
5.1507 -1.3144 0.2062
5.1580 -1.2871 0.2098
5.1674 -1.2694 0.2114
4.9518 3.6854 1.1233
4.7010 -1.7394 0.1954
4.8001 -1.6493 0.1945
4.9659 -1.4931 0.1939
5.0153 -1.5004 0.1852
5.0323 -1.5062 0.1816
5.0402 -1.4968 0.1819
5.0482 -1.4874 0.1822
5.0548 -1.4749 0.1831
5.0621 -1.4633 0.1839
5.0701 -1.4525 0.1844
5.0781 -1.4416 0.1848
5.0871 -1.4328 0.1849
5.0954 -1.4218 0.1853
5.0999 -1.3983 0.1884
5.1100 -1.3914 0.1879
5.1252 -1.3578 0.1909
5.1331 -1.3400 0.1925
5.1417 -1.3231 0.1939
5.1501 -1.3035 0.1957
5.1581 -1.2786 0.1984
5.1668 -1.2545 0.2009
4.8691 3.7240 1.0357
4.9607 3.7994 1.0336
4.6670 -1.6829 0.1965
4.6837 -1.6762 0.1952
4.7799 -1.5788 0.1956
4.0505 -0.4659 0.4521
5.0350 -1.5103 0.1699
5.0397 -1.4952 0.1714
5.0483 -1.4868 0.1714
5.0545 -1.4732 0.1724
5.0638 -1.4656 0.1722
5.0704 -1.4517 0.1733
5.0790 -1.4419 0.1735
5.0868 -1.4298 0.1741
5.0949 -1.4176 0.1747
5.1027 -1.4042 0.1755
5.1098 -1.3871 0.1769
5.1247 -1.3510 0.1799
5.1334 -1.3355 0.1809
5.1421 -1.3185 0.1820
5.1496 -1.2927 0.1846
5.1575 -1.2653 0.1874
5.1663 -1.2397 0.1897
5.1772 -1.1033 0.2073
4.5084 -1.7162 0.1988
4.5871 -1.6556 0.1965
4.7111 -1.5340 0.1960
5.0339 -1.5079 0.1596
5.0403 -1.4956 0.1603
5.0455 -1.4802 0.1616
5.0553 -1.4735 0.1612
5.0618 -1.4598 0.1620
5.0708 -1.4510 0.1620
5.0774 -1.4358 0.1630
5.0854 -1.4236 0.1635
5.0947 -1.4146 0.1635
5.1000 -1.3922 0.1656
5.1087 -1.3795 0.1660
5.1166 -1.3632 0.1670
5.1246 -1.3455 0.1682
5.1322 -1.3239 0.1699
5.1409 -1.3056 0.1711
5.1476 -1.2736 0.1741
5.1560 -1.2459 0.1765
5.1644 -1.2138 0.1793
5.2877 -0.9955 0.1907
4.5749 -1.6222 0.1861
4.6245 -1.6270 0.1803
4.6370 -1.6167 0.1800
4.6378 -1.6008 0.1815
4.6268 -1.5781 0.1850
4.6096 -1.5508 0.1897
4.6046 -1.5286 0.1925
5.0323 -1.5045 0.1492
5.0394 -1.4931 0.1496
5.0442 -1.4767 0.1508
5.0531 -1.4679 0.1507
5.0613 -1.4571 0.1509
5.0708 -1.4492 0.1507
5.0763 -1.4309 0.1520
5.0856 -1.4218 0.1519
5.0936 -1.4084 0.1525
5.0997 -1.3881 0.1539
5.1082 -1.3742 0.1544
5.1152 -1.3532 0.1558
5.1237 -1.3365 0.1566
5.1315 -1.3149 0.1580
5.1396 -1.2916 0.1595
5.1480 -1.2668 0.1612
5.1550 -1.2291 0.1643
5.1624 -1.1857 0.1679
5.2282 -0.7926 0.2012
5.2767 -0.9962 0.1751
5.2913 -0.9662 0.1766
5.3061 -0.9429 0.1774
4.2887 -1.6856 0.1908
4.2750 -1.6653 0.1937
4.6311 -1.6321 0.1640
4.6424 -1.6214 0.1638
4.6465 -1.6071 0.1647
4.6323 -1.5651 0.1695
4.6250 -1.5423 0.1720
4.6244 -1.5221 0.1738
4.6122 -1.4937 0.1772
4.6141 -1.4729 0.1788
4.6175 -1.4522 0.1802
4.6171 -1.4278 0.1823
4.6123 -1.3987 0.1851
4.6278 -1.3846 0.1849
4.6709 -1.3670 0.1824
4.7158 -1.3534 0.1795
5.0302 -1.5002 0.1386
5.0374 -1.4888 0.1388
5.0429 -1.4732 0.1396
5.0520 -1.4644 0.1395
5.0616 -1.4565 0.1393
5.0691 -1.4434 0.1397
5.0768 -1.4302 0.1401
5.0851 -1.4179 0.1404
5.0914 -1.3990 0.1414
5.0995 -1.3841 0.1419
5.1079 -1.3689 0.1424
5.1159 -1.3513 0.1431
5.1240 -1.3323 0.1440
5.1312 -1.3071 0.1454
5.1461 -1.2468 0.1491
5.1549 -1.2175 0.1507
5.2797 -0.9787 0.1592
5.2943 -0.9570 0.1597
5.3089 -0.9422 0.1596
4.6329 -1.6192 0.1494
4.6351 -1.6037 0.1503
4.6346 -1.5864 0.1514
4.6377 -1.5701 0.1522
4.6265 -1.5452 0.1546
4.6104 -1.4724 0.1605
4.6149 -1.4523 0.1614
4.6007 -1.3915 0.1664
4.6075 -1.3696 0.1673
4.6285 -1.3591 0.1664
4.6354 -1.3057 0.1693
4.6642 -1.3024 0.1673
4.6829 -1.2897 0.1667
4.6988 -1.2740 0.1665
4.7141 -1.2573 0.1664
4.7334 -1.2455 0.1657
5.0231 -1.5112 0.1269
5.0297 -1.4989 0.1272
5.0341 -1.4816 0.1280
5.0408 -1.4679 0.1284
5.0519 -1.4629 0.1279
5.0598 -1.4509 0.1280
5.0679 -1.4388 0.1282
5.0762 -1.4265 0.1284
5.0839 -1.4120 0.1287
5.0907 -1.3940 0.1293
5.0977 -1.3746 0.1301
5.1063 -1.3594 0.1304
5.1149 -1.3427 0.1308
5.1232 -1.3236 0.1314
5.1368 -1.2618 0.1343
5.1472 -1.2437 0.1347
5.1522 -1.1877 0.1379
5.1547 -1.0982 0.1434
5.2681 -0.9790 0.1425
5.2822 -0.9809 0.1413
5.2976 -0.9451 0.1425
3.9803 -1.6686 0.1702
4.5901 -1.3852 0.1466
4.6030 -1.3678 0.1466
4.6113 -1.3461 0.1471
4.6171 -1.2897 0.1493
4.6398 -1.2792 0.1484
4.6802 -1.2541 0.1471
4.7009 -1.2425 0.1464
4.7214 -1.2310 0.1457
5.0226 -1.5099 0.1155
5.0298 -1.4985 0.1156
5.0343 -1.4812 0.1161
5.0420 -1.4694 0.1162
5.0500 -1.4575 0.1162
5.0585 -1.4464 0.1162
5.0680 -1.4372 0.1161
5.0724 -1.4145 0.1168
5.0827 -1.4061 0.1166
5.0905 -1.3902 0.1168
5.0959 -1.3653 0.1176
5.1048 -1.3499 0.1178
5.1128 -1.3297 0.1182
5.1215 -1.3104 0.1185
5.2706 -0.9881 0.1240
5.2856 -0.9554 0.1245
5.3009 -0.9319 0.1247
3.9675 -1.6914 0.1446
-0.0281 -0.4912 0.3447
4.5762 -1.3765 0.1262
4.4895 -1.1296 0.1359
4.5765 -1.1390 0.1320
4.4840 -0.9871 0.1397
4.5761 -1.0502 0.1342
4.5907 -1.0207 0.1343
5.0221 -1.5086 0.1039
5.0300 -1.4981 0.1039
5.0360 -1.4837 0.1039
5.0419 -1.4681 0.1041
5.0555 -1.4380 0.1042
5.0636 -1.4246 0.1042
5.0812 -1.3993 0.1041
5.0885 -1.3811 0.1042
5.0965 -1.3637 0.1043
5.1040 -1.3427 0.1045
5.1122 -1.3225 0.1046
5.1212 -1.3030 0.1047
5.2734 -0.9754 0.1062
5.2889 -0.9383 0.1064
5.3056 -0.8922 0.1068
5.3213 -0.8794 0.1065
3.9562 -1.6942 0.1192
3.9594 -1.6740 0.1192
0.5732 -0.6685 0.2121
3.4105 -1.1784 0.1357
4.5468 -1.3260 0.1053
4.3931 -1.1228 0.1102
4.4460 -1.1302 0.1088
4.4598 -1.1014 0.1085
4.4578 -1.0549 0.1088
4.5400 -1.0059 0.1068
5.0281 -1.4941 0.0920
5.0543 -1.4336 0.0916
5.0630 -1.4211 0.0914
5.0711 -1.4064 0.0912
5.0783 -1.3884 0.0911
5.0873 -1.3743 0.0909
5.0956 -1.3568 0.0908
5.1042 -1.3390 0.0906
5.1126 -1.3187 0.0905
5.1209 -1.2957 0.0904
5.1295 -1.2712 0.0903
5.1316 -1.2078 0.0905
5.1444 -1.0941 0.0906
5.2763 -0.9655 0.0877
5.2917 -0.9394 0.0874
5.3085 -0.8948 0.0872
5.3256 -0.8593 0.0869
3.9639 -1.7000 0.0931
3.9485 -1.6768 0.0929
3.9724 -1.6598 0.0924
3.9534 -1.6341 0.0921
0.1051 -0.6607 0.1124
0.2547 -0.6028 0.1101
3.5563 -1.1568 0.0881
3.4455 -1.0603 0.0876
5.0222 -1.5081 0.0801
5.0326 -1.4756 0.0794
5.0540 -1.4313 0.0785
5.0620 -1.4168 0.0782
5.0714 -1.4050 0.0779
5.0869 -1.3697 0.0772
5.0937 -1.3467 0.0768
5.1038 -1.3331 0.0765
5.1138 -1.3182 0.0761
5.1225 -1.2964 0.0757
5.1252 -1.2423 0.0748
5.1342 -1.2123 0.0742
5.1396 -1.1546 0.0732
5.1451 -1.0835 0.0720
5.2795 -0.9489 0.0686
5.2960 -0.9006 0.0677
5.3122 -0.8820 0.0672
5.3287 -0.8591 0.0667
3.9630 -1.6840 0.0663
3.9394 -1.6584 0.0651
3.9380 -1.6357 0.0643
3.9234 -1.6094 0.0632
3.5437 -1.2010 0.0452
3.4337 -1.0614 0.0393
2.5929 -0.3592 0.0069
2.7156 -0.2583 0.0041
3.4450 -0.1884 0.0071
5.0197 -1.5034 0.0677
5.0264 -1.4899 0.0673
5.0305 -1.4707 0.0666
5.0455 -1.4425 0.0656
5.0550 -1.4320 0.0653
5.0615 -1.4135 0.0647
5.0710 -1.4016 0.0643
5.0789 -1.3846 0.0638
5.0858 -1.3630 0.0630
5.0954 -1.3485 0.0626
5.1056 -1.3349 0.0621
5.1236 -1.2949 0.0608
5.1373 -1.2201 0.0581
4.7981 2.8563 -0.0948
5.2669 -0.9706 0.0499
5.2826 -0.9366 0.0488
5.2994 -0.8923 0.0473
5.3162 -0.8653 0.0464
5.3356 -0.8070 0.0444
3.9158 -1.6589 0.0367
3.9252 -1.6380 0.0358
3.9161 -1.6127 0.0341
3.4314 -1.0669 -0.0096
2.5205 -0.4132 -0.0701
2.6688 -0.4120 -0.0665
2.9342 -0.4879 -0.0555
3.1165 -0.5245 -0.0488
3.1080 -0.4407 -0.0539
3.4531 -0.2908 -0.0539
3.4671 -0.2136 -0.0581
3.5070 -0.1584 -0.0603
3.5716 -0.1276 -0.0604
3.7312 -0.2039 -0.0520
5.0172 -1.4988 0.0549
5.0287 -1.4933 0.0549
5.0299 -1.4687 0.0535
5.0364 -1.4528 0.0527
5.0425 -1.4347 0.0518
5.0536 -1.4269 0.0516
5.0622 -1.4132 0.0511
5.0707 -1.3983 0.0504
5.0802 -1.3853 0.0499
5.0865 -1.3617 0.0487
5.0965 -1.3482 0.0482
5.1050 -1.3281 0.0472
5.1142 -1.3087 0.0463
5.1303 -1.2520 0.0434
4.7829 2.2897 -0.1701
5.2701 -0.9347 0.0286
5.2861 -0.9136 0.0277
5.3024 -0.8923 0.0269
5.3193 -0.8652 0.0258
5.3376 -0.8252 0.0239
3.9331 -1.6445 0.0077
3.9114 -1.6167 0.0046
3.9135 -1.5927 0.0028
3.7589 -1.2618 -0.0300
3.3148 -0.9668 -0.0721
2.9902 -0.6048 -0.1145
3.1106 -0.5278 -0.1155
3.3417 -0.1001 -0.1395
3.5165 -0.1716 -0.1265
5.0164 -1.4970 0.0419
5.0333 -1.4452 0.0386
5.0448 -1.4383 0.0385
5.0546 -1.4276 0.0381
5.0638 -1.4149 0.0374
5.0719 -1.3991 0.0365
5.0807 -1.3840 0.0357
5.0908 -1.3718 0.0352
5.0995 -1.3542 0.0342
5.1099 -1.3417 0.0336
5.1165 -1.3127 0.0316
5.1249 -1.2876 0.0300
5.1330 -1.2574 0.0279
5.2416 -0.9840 0.0109
5.2571 -0.9504 0.0089
5.2730 -0.9307 0.0080
5.2894 -0.9029 0.0065
5.3061 -0.8787 0.0053
5.3227 -0.8625 0.0047
5.3400 -0.8364 0.0034
3.8962 -1.6423 -0.0238
3.9067 -1.6207 -0.0253
3.9214 -1.5995 -0.0266
3.9449 -1.5802 -0.0271
3.6005 -1.2425 -0.0818
3.7520 -1.2643 -0.0705
3.8018 -1.2467 -0.0692
3.7415 -1.0396 -0.0937
3.7914 -1.0193 -0.0927
3.8397 -0.9990 -0.0919
4.5636 -1.3498 -0.0131
3.3531 -0.2117 -0.2003
3.2921 -0.0584 -0.2194
3.2228 0.1154 -0.2411
3.1619 0.2948 -0.2628
5.0071 -1.5061 0.0293
5.0156 -1.4952 0.0287
5.0352 -1.4479 0.0251
5.0467 -1.4410 0.0251
5.0541 -1.4246 0.0239
5.0641 -1.4137 0.0234
5.0739 -1.4018 0.0228
5.0806 -1.3807 0.0211
5.0892 -1.3632 0.0198
5.0985 -1.3466 0.0187
5.1083 -1.3307 0.0177
5.1186 -1.3157 0.0168
5.1233 -1.2730 0.0128
5.1333 -1.2505 0.0111
5.2285 -0.9893 -0.0094
5.2444 -0.9905 -0.0083
5.2599 -0.9505 -0.0114
5.2923 -0.9083 -0.0137
5.3089 -0.8869 -0.0149
5.3253 -0.8707 -0.0155
5.3439 -0.8295 -0.0186
3.8984 -1.6240 -0.0560
3.8961 -1.5989 -0.0592
3.7763 -1.2801 -0.1076
3.8013 -1.2518 -0.1091
3.8017 -1.2116 -0.1140
3.8209 -1.1790 -0.1165
3.8226 -1.1364 -0.1216
3.8100 -1.0837 -0.1290
3.8176 -1.0401 -0.1338
3.8654 -1.0201 -0.1325
3.9298 -1.0121 -0.1284
4.5646 -1.3526 -0.0372
5.0478 -1.4418 0.0114
5.0564 -1.4283 0.0105
5.0649 -1.4136 0.0093
5.0737 -1.3986 0.0082
5.0837 -1.3865 0.0075
5.0919 -1.3682 0.0059
5.1017 -1.3536 0.0049
5.1101 -1.3326 0.0029
5.1202 -1.3165 0.0018
5.1285 -1.2904 -0.0008
5.2154 -1.0025 -0.0293
5.2313 -0.9920 -0.0293
5.2469 -0.9727 -0.0305
5.2627 -0.9584 -0.0310
3.8170 -1.5597 -0.1040
3.8276 -1.5344 -0.1066
3.7351 -1.1857 -0.1659
3.7057 -1.1268 -0.1773
3.7547 -1.1056 -0.1756
4.5173 -1.3492 -0.0670
4.5751 -1.3630 -0.0594
4.6270 -1.3753 -0.0527
5.0043 -1.5011 0.0018
5.0584 -1.4310 -0.0031
5.0657 -1.4134 -0.0049
5.0774 -1.4063 -0.0048
5.1395 -1.2657 -0.0192
5.1412 -0.9445 -0.0655
5.1591 -0.9297 -0.0659
5.1786 -0.9342 -0.0634
5.2341 -0.9960 -0.0491
5.2497 -0.9691 -0.0515
5.3212 -0.7785 -0.0721
3.8469 -1.5721 -0.1327
3.8476 -1.5449 -0.1372
3.8133 -1.5070 -0.1475
3.8290 -1.4814 -0.1499
3.1467 -0.9756 -0.3126
3.2179 -0.9501 -0.3087
3.3100 -0.9365 -0.3004
3.5018 -0.9222 -0.2808
3.4732 -0.8466 -0.2967
3.3734 -0.7217 -0.3290
3.5193 -0.7490 -0.3077
4.5698 -1.3609 -0.0851
4.7549 -1.4335 -0.0518
4.7876 -1.4383 -0.0472
4.8178 -1.4427 -0.0430
4.8391 -1.4391 -0.0412
4.8593 -1.4352 -0.0395
5.0040 -1.5004 -0.0120
5.0591 -1.4309 -0.0173
5.0696 -1.4210 -0.0177
5.0790 -1.4081 -0.0188
5.0893 -1.3971 -0.0195
5.1058 -1.3594 -0.0239
5.1156 -1.3437 -0.0254
5.1245 -1.3225 -0.0279
5.1479 -0.9779 -0.0827
5.1664 -0.9754 -0.0810
5.1855 -0.9863 -0.0770
5.2031 -0.9871 -0.0749
5.2199 -0.9834 -0.0736
5.2364 -0.9800 -0.0722
5.2863 -0.8767 -0.0838
5.3038 -0.8547 -0.0854
5.3211 -0.8405 -0.0858
3.8122 -1.5414 -0.1771
3.8389 -1.5195 -0.1777
3.8033 -1.4478 -0.1960
3.7315 -1.3908 -0.2164
3.7245 -1.3524 -0.2246
2.7736 -0.8213 -0.4522
3.2131 -0.9555 -0.3681
3.4561 -1.0155 -0.3243
3.5532 -1.0113 -0.3122
3.6687 -1.0210 -0.2949
3.6661 -0.9663 -0.3056
3.5136 -0.8155 -0.3546
4.5716 -1.3645 -0.1094
4.8264 -1.4526 -0.0587
4.8488 -1.4506 -0.0561
4.8738 -1.4527 -0.0523
4.9927 -1.5075 -0.0261
5.0027 -1.4980 -0.0265
5.0405 -1.3849 -0.0429
5.0517 -1.3732 -0.0437
5.0708 -1.3385 -0.0477
5.0807 -1.3203 -0.0498
5.0869 -1.2874 -0.0552
5.1100 -1.2532 -0.0586
5.1045 -0.9372 -0.1193
5.1285 -0.9592 -0.1119
5.1493 -0.9673 -0.1076
5.1875 -0.9774 -0.1006
5.2057 -0.9852 -0.0967
5.2223 -0.9728 -0.0968
5.2392 -0.9803 -0.0932
5.4671 1.4648 -0.5265
5.5261 1.5613 -0.5370
3.8323 -1.5519 -0.2075
3.8679 -1.5326 -0.2062
3.8602 -1.5013 -0.2140
3.8461 -1.4666 -0.2236
3.7673 -1.4086 -0.2479
2.8665 -0.9957 -0.4729
3.7088 -1.0983 -0.3228
3.6755 -1.0305 -0.3423
4.5609 -1.3583 -0.1377
4.8643 -1.4683 -0.0681
4.8793 -1.4597 -0.0676
4.9051 -1.4648 -0.0626
5.0002 -1.4667 -0.0477
5.0028 -1.4420 -0.0526
5.0135 -1.4307 -0.0533
5.0252 -1.4211 -0.0536
5.0364 -1.4106 -0.0541
5.0458 -1.3954 -0.0559
5.0542 -1.3771 -0.0585
5.0645 -1.3624 -0.0601
5.0740 -1.3446 -0.0625
5.0938 -1.3070 -0.0674
5.1057 -1.2935 -0.0685
5.1070 -0.9364 -0.1442
5.1311 -0.9592 -0.1357
5.1506 -0.9557 -0.1335
5.2228 0.0800 -0.3428
5.2572 0.9531 -0.5232
5.3070 1.0128 -0.5284
5.3543 0.9765 -0.5134
5.4086 1.1353 -0.5389
5.4619 1.2192 -0.5487
5.5096 1.2184 -0.5412
3.8829 -1.5419 -0.2368
3.8695 -1.5094 -0.2468
3.7175 -1.3981 -0.2991
3.5076 -1.2882 -0.3610
3.4101 -1.1121 -0.4193
3.6069 -1.1020 -0.3880
3.6278 -1.0624 -0.3937
3.6413 -1.0176 -0.4020
4.5566 -1.3571 -0.1648
4.9029 -1.4878 -0.0746
4.9879 -1.5000 -0.0571
5.0111 -1.4561 -0.0635
5.0197 -1.4415 -0.0655
5.0316 -1.4329 -0.0654
5.0410 -1.4190 -0.0671
5.0525 -1.4095 -0.0674
5.0608 -1.3915 -0.0702
5.0687 -1.3712 -0.0736
5.0778 -1.3526 -0.0765
5.1513 -0.7208 -0.2130
5.1659 -0.1126 -0.3540
5.1963 -0.0192 -0.3709
5.2653 0.6512 -0.5173
5.3104 0.7182 -0.5254
5.3548 0.7398 -0.5229
5.4012 0.8091 -0.5313
5.4453 0.8292 -0.5284
5.4917 0.8836 -0.5333
5.5352 0.9032 -0.5305
3.8430 -1.5370 -0.2810
3.8889 -1.5202 -0.2766
3.4609 -1.3212 -0.4101
3.4623 -1.2793 -0.4207
3.3563 -1.1960 -0.4626
3.3344 -1.1386 -0.4817
3.7447 -1.2187 -0.3825
3.5444 -1.0782 -0.4572
3.5281 -1.0175 -0.4761
3.5596 -0.9792 -0.4800
3.5041 -0.8902 -0.5138
3.5860 -0.8784 -0.5012
4.9750 -1.5063 -0.0727
4.9866 -1.4980 -0.0727
4.9899 -1.4768 -0.0776
4.9998 -1.4649 -0.0787
4.8198 -0.6688 -0.3199
4.8570 -0.6740 -0.3114
4.8464 -0.5246 -0.3523
4.8279 -0.1554 -0.4517
4.8627 -0.1156 -0.4554
4.9051 -0.1117 -0.4483
4.9494 -0.1259 -0.4362
4.9889 -0.1218 -0.4297
5.1297 -0.7129 -0.2493
5.1524 -0.6942 -0.2498
5.1706 -0.0971 -0.4014
5.2028 -0.0446 -0.4089
5.2329 0.2656 -0.4837
5.3547 0.5241 -0.5275
5.3951 0.5438 -0.5249
5.4412 0.6484 -0.5433
5.4859 0.7124 -0.5514
5.5255 0.7178 -0.5452
3.3019 -1.4052 -0.4692
3.3653 -1.2978 -0.4863
3.3446 -1.2461 -0.5054
3.4326 -1.2314 -0.4910
3.7515 -1.2696 -0.4129
3.6320 -1.1741 -0.4652
3.5949 -1.1089 -0.4916
3.6248 -1.0732 -0.4954
3.6552 -1.0371 -0.4992
3.6859 -1.0008 -0.5030
3.7247 -0.9688 -0.5039
3.7636 -0.9369 -0.5048
3.8610 -0.9450 -0.4819
4.8611 -1.4671 -0.1230
4.9737 -1.5045 -0.0886
4.9827 -1.4921 -0.0902
4.8312 -0.6940 -0.3487
4.8632 -0.6848 -0.3445
4.8692 -0.4602 -0.4070
4.8545 -0.2465 -0.4707
4.8862 -0.2019 -0.4767
4.9265 -0.1970 -0.4696
5.1305 -0.6881 -0.2872
5.1574 -0.7102 -0.2753
5.1786 -0.1515 -0.4293
5.2777 0.2319 -0.5172
5.3167 0.3192 -0.5338
5.3546 0.3394 -0.5315
5.3929 0.3709 -0.5324
5.4276 0.3553 -0.5206
5.4694 0.4339 -0.5341
5.5115 0.5016 -0.5445
3.4372 -1.4087 -0.4883
3.4104 -1.3613 -0.5091
3.4996 -1.3476 -0.4927
3.7172 -1.3025 -0.4563
3.7908 -1.2919 -0.4426
3.7001 -1.2106 -0.4886
3.6911 -1.1607 -0.5060
3.7199 -1.1273 -0.5097
3.7482 -1.0930 -0.5137
3.7926 -1.0674 -0.5114
3.8427 -1.0457 -0.5065
4.5726 -1.3443 -0.2460
4.8868 -1.4708 -0.1345
4.9169 -1.2388 -0.1990
4.7625 -0.7018 -0.4001
4.8000 -0.7014 -0.3916
4.8424 -0.7189 -0.3764
4.8740 -0.7100 -0.3718
4.9035 -0.6967 -0.3691
4.9620 -0.6741 -0.3626
4.9967 -0.6918 -0.3491
5.0235 -0.6783 -0.3471
5.0531 -0.6832 -0.3387
5.0853 -0.7140 -0.3218
5.1177 -0.7641 -0.2989
5.1414 -0.7592 -0.2949
5.1646 -0.7547 -0.2910
5.2484 -0.0679 -0.4832
5.2823 0.0452 -0.5103
5.3183 0.1310 -0.5284
5.3532 0.1499 -0.5261
5.3865 0.1493 -0.5183
5.4220 0.1883 -0.5221
5.4606 0.2566 -0.5342
3.5314 -1.4772 -0.4910
3.5645 -1.4499 -0.4918
3.6129 -1.4271 -0.4872
3.6521 -1.4020 -0.4857
3.6848 -1.3751 -0.4864
3.7042 -1.3434 -0.4921
3.8614 -1.3641 -0.4458
3.8633 -1.3275 -0.4575
3.7773 -1.2506 -0.5047
3.8483 -1.2406 -0.4902
3.8371 -1.1917 -0.5092
3.8959 -1.1773 -0.4993
3.9412 -1.1569 -0.4947
3.9740 -1.1299 -0.4954
4.0068 -1.1029 -0.4962
4.0655 -1.0933 -0.4846
4.5424 -1.3553 -0.2776
4.5702 -1.3446 -0.2742
4.4057 -0.8521 -0.4795
4.4263 -0.8121 -0.4876
4.4511 -0.7760 -0.4934
4.4932 -0.7643 -0.4867
4.4993 -0.6976 -0.5074
4.9208 -1.2448 -0.2194
4.7928 -0.6762 -0.4407
4.8302 -0.6769 -0.4311
4.8760 -0.7081 -0.4092
4.9119 -0.7161 -0.3975
4.9383 -0.6944 -0.3981
4.9698 -0.6939 -0.3904
4.9984 -0.6849 -0.3862
5.0312 -0.7014 -0.3725
5.0968 -0.7708 -0.3329
5.1257 -0.8028 -0.3150
5.1473 -0.7849 -0.3155
5.1695 -0.7727 -0.3140
5.1924 -0.7780 -0.3065
5.3520 -0.0116 -0.5215
5.3834 -0.0014 -0.5170
5.4143 0.0083 -0.5124
5.4472 0.0438 -0.5160
3.6727 -1.5183 -0.4842
3.6700 -1.4845 -0.4970
3.7643 -1.4429 -0.4863
3.7886 -1.4157 -0.4894
3.8131 -1.3883 -0.4925
3.8668 -1.3717 -0.4839
3.8913 -1.3444 -0.4870
3.9169 -1.3173 -0.4897
3.9251 -1.2818 -0.5002
3.9561 -1.2562 -0.5009
4.0234 -1.2081 -0.4999
4.5559 -1.3680 -0.2979
4.5760 -1.3514 -0.2983
4.5539 -1.2988 -0.3232
4.5456 -1.2143 -0.3557
4.4062 -0.9747 -0.4793
4.4084 -0.9189 -0.4987
4.4458 -0.9025 -0.4944
4.4692 -0.8688 -0.5001
4.5180 -0.8694 -0.4866
4.5389 -0.8319 -0.4944
4.9242 -1.2499 -0.2401
4.8101 -0.7156 -0.4623
4.8301 -0.6691 -0.4735
4.8427 -0.5950 -0.4966
4.8773 -0.5870 -0.4900
4.9039 -0.5519 -0.4954
4.9321 -0.5214 -0.4986
4.9678 -0.5245 -0.4878
5.1051 -0.8067 -0.3495
5.1280 -0.7951 -0.3474
5.1512 -0.7904 -0.3428
5.1711 -0.7488 -0.3523
5.1955 -0.7708 -0.3378
5.2176 -0.7730 -0.3310
5.2385 -0.7486 -0.3340
5.3064 -0.5714 -0.3790
5.4033 -0.1973 -0.4865
5.4375 -0.1188 -0.5053
5.4670 -0.0944 -0.5060
3.7870 -1.5211 -0.4926
3.8322 -1.5018 -0.4868
3.8396 -1.4718 -0.4961
3.8687 -1.4479 -0.4967
3.9131 -1.4293 -0.4909
3.9319 -1.4019 -0.4959
3.9706 -1.3819 -0.4922
3.9899 -1.3542 -0.4972
3.9938 -1.3187 -0.5096
4.0478 -1.3064 -0.4985
4.0857 -1.2872 -0.4948
4.1326 -1.2737 -0.4863
4.1516 -1.2449 -0.4917
4.2007 -1.2343 -0.4814
4.5371 -1.3879 -0.3240
4.5610 -1.3742 -0.3223
4.5760 -1.3536 -0.3258
4.4515 -1.1257 -0.4496
4.4247 -1.0499 -0.4865
4.4527 -1.0269 -0.4871
4.4777 -1.0003 -0.4900
4.5198 -0.9943 -0.4800
4.5289 -0.9475 -0.4953
4.8739 -1.2479 -0.2791
4.8951 -1.2400 -0.2759
4.9290 -1.2574 -0.2593
4.9440 -1.2403 -0.2615
4.7907 -0.7547 -0.4925
4.8169 -0.7272 -0.4954
4.8388 -0.6865 -0.5046
4.8774 -0.6953 -0.4899
4.9023 -0.6629 -0.4951
4.9276 -0.6301 -0.5002
4.9569 -0.6120 -0.4986
4.9860 -0.5940 -0.4970
5.0934 -0.8705 -0.3595
5.1117 -0.8315 -0.3691
5.1493 -0.7338 -0.3955
5.1725 -0.7184 -0.3947
5.3595 -0.5084 -0.4204
5.3802 -0.5248 -0.4081
5.4072 -0.4691 -0.4215
3.8080 -1.5628 -0.5100
3.8526 -1.5438 -0.5038
3.9008 -1.5266 -0.4957
3.9377 -1.5069 -0.4922
3.9742 -1.4876 -0.4886
4.0062 -1.4671 -0.4869
4.0103 -1.4365 -0.4982
4.0416 -1.4155 -0.4969
4.0604 -1.3894 -0.5017
4.1008 -1.3727 -0.4959
4.1199 -1.3464 -0.5006
4.1596 -1.3302 -0.4948
4.1978 -1.2763 -0.5048
4.5747 -1.4171 -0.3289
4.5744 -1.3866 -0.3415
4.5869 -1.3645 -0.3466
4.5453 -1.2957 -0.3878
4.5021 -1.1762 -0.4502
4.5930 -1.2233 -0.4024
4.6577 -1.2506 -0.3710
4.6817 -1.2367 -0.3691
4.7165 -1.2365 -0.3582
4.8505 -1.2529 -0.3095
4.8878 -1.2707 -0.2905
4.9184 -1.2811 -0.2766
4.9332 -1.2642 -0.2789
4.9514 -1.2539 -0.2774
4.9661 -1.2359 -0.2801
4.9718 -0.6618 -0.5132
5.0840 -0.9376 -0.3651
5.1211 -0.6750 -0.4609
5.1490 -0.6911 -0.4456
5.1698 -0.6267 -0.4654
5.1909 -0.5336 -0.4969
5.2183 -0.5548 -0.4796
5.2860 -0.8175 -0.3508
5.3486 -0.3884 -0.5068
5.3746 -0.3717 -0.5054
5.3975 -0.3872 -0.4919
5.4161 -0.4323 -0.4676
3.9526 -1.6019 -0.4846
3.9823 -1.5821 -0.4833
3.9991 -1.5589 -0.4877
4.0193 -1.5364 -0.4907
4.0501 -1.5170 -0.4889
4.0584 -1.4901 -0.4978
4.0922 -1.4718 -0.4944
4.1140 -1.4491 -0.4970
4.1558 -1.4347 -0.4892
4.1812 -1.4138 -0.4898
4.2129 -1.3959 -0.4870
4.2355 -1.3738 -0.4890
4.2805 -1.3638 -0.4783
4.3212 -1.3526 -0.4695
4.5796 -1.3609 -0.3792
4.5295 -1.2846 -0.4292
4.4920 -1.2120 -0.4733
4.5554 -1.2292 -0.4446
4.5593 -1.1907 -0.4600
4.5720 -1.1591 -0.4695
4.8864 -1.3094 -0.2987
4.9039 -1.2973 -0.2980
4.9218 -1.2861 -0.2969
4.9391 -1.2741 -0.2963
4.9604 -1.2708 -0.2906
4.9747 -1.2531 -0.2935
4.9842 -1.2229 -0.3034
4.9986 -1.2029 -0.3073
5.0718 -0.9816 -0.3791
5.0907 -0.9602 -0.3821
5.0989 -0.6855 -0.4989
5.1243 -0.6694 -0.4974
5.1483 -0.6402 -0.5021
5.1724 -0.6062 -0.5087
5.1983 -0.5990 -0.5032
5.2239 -0.6003 -0.4941
5.2485 -0.5929 -0.4890
5.2897 -0.8164 -0.3779
5.3959 -0.4587 -0.4980
4.0316 -1.6251 -0.4822
4.0643 -1.6076 -0.4786
4.0721 -1.5837 -0.4869
4.0773 -1.5584 -0.4967
4.1059 -1.5395 -0.4952
4.1858 -1.4819 -0.4932
4.2035 -1.4592 -0.4974
4.2545 -1.4511 -0.4829
4.2810 -1.4328 -0.4819
4.2890 -1.4052 -0.4918
4.3131 -1.3854 -0.4923
4.5812 -1.4820 -0.3519
4.4744 -1.3167 -0.4664
4.4757 -1.2807 -0.4826
4.5042 -1.2654 -0.4794
4.5391 -1.2565 -0.4711
4.5726 -1.2476 -0.4632
4.5890 -1.2225 -0.4690
4.5874 -1.1771 -0.4905
4.6129 -1.1596 -0.4894
4.6264 -1.1275 -0.4994
4.8975 -1.3266 -0.3106
4.9083 -1.3038 -0.3173
4.9195 -1.2806 -0.3240
4.9708 -1.2908 -0.3009
4.9897 -1.2333 -0.3207
4.9987 -1.1991 -0.3333
5.0185 -1.1932 -0.3289
5.0313 -1.1663 -0.3368
5.0630 -1.1275 -0.3434
5.0842 -1.0307 -0.3805
5.0920 -0.8015 -0.4836
5.1121 -0.7604 -0.4954
5.1337 -0.7228 -0.5050
5.1579 -0.7076 -0.5034
5.1807 -0.6714 -0.5120
5.2046 -0.6481 -0.5142
5.2289 -0.6317 -0.5131
5.2530 -0.6293 -0.5056
5.2762 -0.6498 -0.4878
5.2984 -0.6572 -0.4765
5.4159 -0.5232 -0.4964
4.0515 -1.6589 -0.4928
4.0825 -1.6415 -0.4896
4.1229 -1.6267 -0.4814
4.1286 -1.6036 -0.4906
4.1652 -1.5885 -0.4841
4.1706 -1.5644 -0.4938
4.2007 -1.5477 -0.4906
4.2266 -1.5299 -0.4895
4.2342 -1.5051 -0.4987
4.2724 -1.4922 -0.4905
4.3017 -1.4761 -0.4872
4.3298 -1.4600 -0.4844
4.3472 -1.4387 -0.4882
4.5828 -1.5111 -0.3634
4.5828 -1.4856 -0.3759
4.4800 -1.3584 -0.4771
4.4785 -1.3225 -0.4952
4.5065 -1.3076 -0.4918
4.5313 -1.2906 -0.4907
4.5581 -1.2756 -0.4879
4.5871 -1.2632 -0.4829
4.6189 -1.2544 -0.4752
4.6373 -1.2324 -0.4790
4.6577 -1.2121 -0.4811
4.8877 -1.3493 -0.3267
4.9014 -1.3322 -0.3299
4.9089 -1.3041 -0.3408
4.9173 -1.2752 -0.3518
4.9479 -1.2882 -0.3338
4.9764 -1.3006 -0.3169
4.9961 -1.2972 -0.3111
5.0495 -1.1490 -0.3632
5.0666 -1.1338 -0.3642
5.0818 -1.1097 -0.3702
5.0986 -1.0912 -0.3729
5.1342 -1.0642 -0.3725
5.1657 -0.7570 -0.5108
5.1901 -0.7624 -0.4989
5.2118 -0.7271 -0.5079
5.2343 -0.6936 -0.5157
5.2573 -0.6850 -0.5112
5.2800 -0.6780 -0.5060
5.3017 -0.6856 -0.4941
5.3223 -0.6964 -0.4809
4.0980 -1.6954 -0.4892
4.1452 -1.6600 -0.4884
4.1573 -1.6397 -0.4941
4.1826 -1.6223 -0.4929
4.2046 -1.6042 -0.4934
4.2327 -1.5880 -0.4904
4.2516 -1.5690 -0.4926
4.2794 -1.5530 -0.4897
4.3258 -1.5182 -0.4890
4.3449 -1.4991 -0.4912
4.3667 -1.4812 -0.4917
4.4844 -1.3970 -0.4878
4.5022 -1.3766 -0.4912
4.5275 -1.3614 -0.4888
4.5577 -1.3504 -0.4824
4.5707 -1.3259 -0.4898
4.5849 -1.3016 -0.4966
4.6138 -1.2904 -0.4908
4.6342 -1.2714 -0.4924
4.6625 -1.2607 -0.4865
4.8741 -1.4003 -0.3294
4.8864 -1.3832 -0.3332
5.0022 -1.3087 -0.3252
5.0215 -1.3065 -0.3185
4.9610 -1.0116 -0.4951
4.9832 -0.9967 -0.4938
5.0131 -1.0100 -0.4749
5.0506 -1.0608 -0.4337
5.0701 -1.0470 -0.4329
5.1374 -1.0687 -0.3947
5.1548 -1.0521 -0.3963
5.1733 -1.0460 -0.3920
5.1879 -0.9949 -0.4125
5.1984 -0.8427 -0.4869
5.2396 -0.7663 -0.5097
5.2613 -0.7518 -0.5085
5.2828 -0.7433 -0.5042
5.3042 -0.7292 -0.5029
5.3250 -0.7224 -0.4980
5.3461 -0.7073 -0.4973
5.3651 -0.7147 -0.4859
5.3813 -0.8898 -0.3890
4.1755 -1.6929 -0.4899
4.2107 -1.6787 -0.4826
4.2314 -1.6617 -0.4831
4.2352 -1.6403 -0.4931
4.2727 -1.6276 -0.4840
4.2904 -1.6097 -0.4863
4.3091 -1.5920 -0.4880
4.3425 -1.5793 -0.4807
4.3583 -1.5607 -0.4841
4.3733 -1.5415 -0.4882
4.4040 -1.5287 -0.4821
4.4378 -1.5181 -0.4735
4.5224 -1.4541 -0.4723
4.5270 -1.4275 -0.4848
4.5475 -1.4107 -0.4853
4.5621 -1.3895 -0.4906
4.5885 -1.3769 -0.4862
4.6069 -1.3583 -0.4885
4.6275 -1.3414 -0.4890
4.6532 -1.3294 -0.4846
4.6798 -1.3189 -0.4790
4.8647 -1.4210 -0.3449
4.8801 -1.4084 -0.3452
4.8897 -1.3879 -0.3522
4.9290 -1.2472 -0.4121
5.0255 -1.3138 -0.3349
4.9976 -1.0368 -0.4974
5.0222 -1.0348 -0.4880
5.0540 -1.0656 -0.4577
5.0742 -1.0547 -0.4551
5.1012 -0.9572 -0.4966
5.1232 -0.9516 -0.4903
5.1462 -0.9579 -0.4772
5.1742 -1.0272 -0.4276
5.1914 -1.0016 -0.4342
5.2443 -0.8338 -0.5030
5.2649 -0.8146 -0.5047
5.2855 -0.7976 -0.5052
5.3064 -0.7736 -0.5094
5.3263 -0.7697 -0.5030
5.3468 -0.7528 -0.5035
5.3667 -0.7421 -0.5008
5.3867 -0.7291 -0.4994
4.2442 -1.7669 -0.4478
4.2477 -1.7493 -0.4563
4.2518 -1.7312 -0.4648
4.2363 -1.7089 -0.4845
4.2430 -1.6898 -0.4924
4.2598 -1.6726 -0.4948
4.2853 -1.6573 -0.4921
4.3053 -1.6408 -0.4926
4.3234 -1.6237 -0.4943
4.3534 -1.6103 -0.4885
4.3800 -1.5963 -0.4845
4.3998 -1.5800 -0.4850
4.4103 -1.5601 -0.4917
4.4482 -1.5515 -0.4796
4.4458 -1.5252 -0.4957
4.5478 -1.5250 -0.4501
4.5337 -1.4914 -0.4757
4.5395 -1.4673 -0.4869
4.5654 -1.4551 -0.4823
4.5811 -1.4364 -0.4859
4.5920 -1.4139 -0.4939
4.6133 -1.3986 -0.4931
4.6318 -1.3812 -0.4948
4.6497 -1.3630 -0.4971
4.8597 -1.4460 -0.3555
4.8708 -1.4289 -0.3603
4.8032 -1.2673 -0.4831
4.8269 -1.2579 -0.4778
4.8428 -1.2369 -0.4827
4.8621 -1.2210 -0.4832
4.8777 -1.1981 -0.4894
4.9028 -1.1932 -0.4809
4.9220 -1.1774 -0.4813
5.0326 -1.3286 -0.3452
5.0121 -1.0783 -0.4976
5.0331 -1.0668 -0.4948
5.0570 -1.0686 -0.4831
5.0766 -1.0547 -0.4822
5.0944 -1.0321 -0.4872
5.1106 -0.9973 -0.4998
5.1303 -0.9811 -0.5003
5.1566 -1.0217 -0.4653
5.1784 -1.0422 -0.4437
5.1963 -1.0298 -0.4428
5.2101 -0.9369 -0.4898
5.2285 -0.8923 -0.5070
5.2483 -0.8704 -0.5107
5.2681 -0.8734 -0.5002
5.2873 -0.8711 -0.4928
5.3069 -0.8494 -0.4965
5.3261 -0.8369 -0.4950
5.3471 -0.8004 -0.5065
5.3666 -0.7866 -0.5056
5.3849 -0.7829 -0.4996
5.4032 -0.7757 -0.4955
4.2193 -1.7858 -0.4759
4.2582 -1.7730 -0.4653
4.2442 -1.7531 -0.4839
4.2552 -1.7361 -0.4889
4.2744 -1.7203 -0.4893
4.2957 -1.7050 -0.4885
4.3170 -1.6897 -0.4876
4.3340 -1.6735 -0.4893
4.3603 -1.6597 -0.4852
4.3833 -1.6453 -0.4830
4.4022 -1.6297 -0.4835
4.4124 -1.6112 -0.4898
4.4315 -1.5955 -0.4902
4.4690 -1.5871 -0.4776
4.6018 -1.6002 -0.4070
4.5436 -1.5257 -0.4793
4.5590 -1.5085 -0.4823
4.5635 -1.4846 -0.4946
4.5934 -1.4757 -0.4858
4.5966 -1.4495 -0.5000
4.6245 -1.4400 -0.4926
4.6513 -1.4303 -0.4857
4.8433 -1.4857 -0.3619
4.8005 -1.3053 -0.4905
4.8203 -1.2912 -0.4896
4.8391 -1.2758 -0.4900
4.8597 -1.2633 -0.4878
4.8775 -1.2464 -0.4895
4.8820 -1.2045 -0.5126
4.9122 -1.2100 -0.4950
4.9337 -1.2001 -0.4908
5.0600 -1.3489 -0.3418
5.0430 -1.0956 -0.5021
5.0604 -1.0734 -0.5072
5.0818 -1.0682 -0.5002
5.1020 -1.0594 -0.4960
5.1190 -1.0330 -0.5038
5.1393 -1.0265 -0.4982
5.1620 -1.0449 -0.4764
5.1825 -1.0572 -0.4593
5.2006 -1.0512 -0.4544
5.2157 -0.9872 -0.4857
5.2522 -0.9335 -0.5007
5.2896 -0.9118 -0.4962
5.3269 -0.8811 -0.4970
5.3460 -0.8609 -0.5002
5.3640 -0.8528 -0.4965
5.3831 -0.8325 -0.4997
5.4028 -0.8096 -0.5042
4.2502 -1.7935 -0.4840
4.2662 -1.7782 -0.4858
4.2845 -1.7631 -0.4862
4.3074 -1.7488 -0.4839
4.3167 -1.7322 -0.4898
4.3231 -1.7146 -0.4976
4.3493 -1.7009 -0.4933
4.3845 -1.6897 -0.4829
4.3944 -1.6726 -0.4887
4.4088 -1.6564 -0.4918
4.4331 -1.6431 -0.4882
4.4456 -1.6261 -0.4927
4.4715 -1.6137 -0.4877
4.5611 -1.5845 -0.4616
4.5427 -1.5528 -0.4907
4.5745 -1.5200 -0.4956
4.5944 -1.5058 -0.4947
4.6204 -1.4955 -0.4882
4.6386 -1.4806 -0.4886
4.6510 -1.4615 -0.4945
4.6847 -1.4583 -0.4799
4.8212 -1.5175 -0.3748
4.8357 -1.5056 -0.3752
4.8441 -1.4875 -0.3824
4.7929 -1.3715 -0.4809
4.8020 -1.3462 -0.4924
4.8201 -1.3312 -0.4928
4.8433 -1.3233 -0.4863
4.8593 -1.3057 -0.4894
4.8718 -1.2820 -0.4982
4.8980 -1.2805 -0.4861
4.9142 -1.2627 -0.4893
4.9282 -1.2400 -0.4966
4.9501 -1.2331 -0.4901
4.9681 -1.2183 -0.4905
5.0644 -1.3576 -0.3551
5.0818 -1.3577 -0.3464
5.0570 -1.1407 -0.4953
5.0764 -1.1314 -0.4916
5.0952 -1.1205 -0.4892
5.1112 -1.0961 -0.4966
5.1287 -1.0773 -0.4998
5.1479 -1.0704 -0.4946
5.1650 -1.0474 -0.5006
5.1855 -1.0595 -0.4828
5.2021 -1.0302 -0.4930
5.2192 -0.9983 -0.5046
5.2374 -0.9811 -0.5065
5.2557 -0.9794 -0.4984
5.2738 -0.9600 -0.5017
5.2918 -0.9497 -0.4993
5.3097 -0.9372 -0.4983
5.3277 -0.9224 -0.4987
5.3459 -0.9052 -0.5005
5.3644 -0.8855 -0.5037
5.3828 -0.8682 -0.5055
5.3982 -0.8733 -0.4947
4.2869 -1.8016 -0.4874
4.2859 -1.7848 -0.4990
4.3246 -1.7728 -0.4868
4.3400 -1.7580 -0.4886
4.3532 -1.7426 -0.4918
4.3775 -1.7293 -0.4880
4.3951 -1.7148 -0.4884
4.4169 -1.7013 -0.4859
4.4304 -1.6858 -0.4892
4.4480 -1.6713 -0.4896
4.4715 -1.6586 -0.4857
4.4871 -1.6435 -0.4875
4.5607 -1.5873 -0.4863
4.5782 -1.5730 -0.4867
4.5857 -1.5535 -0.4956
4.6147 -1.5451 -0.4861
4.6259 -1.5271 -0.4921
4.6480 -1.5155 -0.4883
4.6625 -1.4991 -0.4915
4.6843 -1.4878 -0.4876
4.8349 -1.5309 -0.3809
4.8102 -1.3920 -0.4854
4.8237 -1.3732 -0.4908
4.8437 -1.3622 -0.4876
4.8620 -1.3494 -0.4866
4.8783 -1.3337 -0.4884
4.8947 -1.3180 -0.4902
4.9090 -1.2985 -0.4957
4.9257 -1.2826 -0.4975
4.9448 -1.2713 -0.4950
4.9630 -1.2585 -0.4940
4.9814 -1.2466 -0.4922
4.9988 -1.2324 -0.4926
5.0879 -1.3724 -0.3539
5.0877 -1.1703 -0.4873
5.1036 -1.1505 -0.4921
5.1205 -1.1344 -0.4939
5.1375 -1.1182 -0.4957
5.1551 -1.1059 -0.4947
5.1724 -1.0916 -0.4951
5.1893 -1.0722 -0.4991
5.2072 -1.0653 -0.4944
5.2417 -1.0390 -0.4937
5.2590 -1.0127 -0.5022
5.2764 -1.0006 -0.5011
5.2937 -0.9885 -0.5000
5.3110 -0.9754 -0.4997
5.3282 -0.9635 -0.4986
5.3457 -0.9468 -0.5005
5.3795 -0.9257 -0.4969
5.3974 -0.9065 -0.5002
4.3210 -1.8091 -0.4906
4.3598 -1.7816 -0.4885
4.3769 -1.7676 -0.4889
4.3895 -1.7528 -0.4922
4.4163 -1.7406 -0.4860
4.4301 -1.7260 -0.4886
4.4470 -1.7120 -0.4890
4.4640 -1.6980 -0.4893
4.4860 -1.6855 -0.4861
4.4873 -1.6668 -0.4982
4.6184 -1.6730 -0.4225
4.5752 -1.6383 -0.4699
4.5827 -1.6212 -0.4777
4.5889 -1.6029 -0.4869
4.6074 -1.5899 -0.4858
4.6226 -1.5752 -0.4876
4.6418 -1.5627 -0.4858
4.6578 -1.5485 -0.4869
4.6746 -1.5346 -0.4873
4.6935 -1.5223 -0.4855
4.7152 -1.5121 -0.4807
4.7747 -1.4797 -0.4707
4.7784 -1.4547 -0.4859
4.7920 -1.4380 -0.4900
4.8065 -1.4217 -0.4933
4.8262 -1.4110 -0.4900
4.8467 -1.4017 -0.4852
4.8669 -1.3928 -0.4803
4.8725 -1.3641 -0.4971
4.8875 -1.3473 -0.5005
4.9118 -1.3449 -0.4889
4.9306 -1.3349 -0.4856
4.9451 -1.3174 -0.4897
4.9610 -1.3022 -0.4915
4.9796 -1.2924 -0.4882
4.9927 -1.2706 -0.4961
5.0080 -1.2526 -0.5002
5.1075 -1.3791 -0.3587
5.0967 -1.2004 -0.4878
5.1132 -1.1868 -0.4882
5.1306 -1.1780 -0.4848
5.1449 -1.1508 -0.4957
5.1601 -1.1251 -0.5051
5.1786 -1.1253 -0.4950
5.1954 -1.1137 -0.4938
5.2118 -1.0958 -0.4972
5.2289 -1.0916 -0.4908
5.2454 -1.0780 -0.4912
5.2787 -1.0374 -0.5010
5.2957 -1.0190 -0.5044
5.3114 -1.0248 -0.4919
5.3274 -1.0182 -0.4878
5.3448 -0.9940 -0.4950
5.3616 -0.9780 -0.4969
5.3784 -0.9631 -0.4980
5.3945 -0.9531 -0.4961
4.3481 -1.8307 -0.4860
4.3656 -1.8174 -0.4857
4.3855 -1.8043 -0.4838
4.3983 -1.7905 -0.4864
4.4147 -1.7770 -0.4868
4.4310 -1.7635 -0.4871
4.4506 -1.7507 -0.4852
4.4563 -1.7351 -0.4932
4.4801 -1.7232 -0.4883
4.5086 -1.7128 -0.4795
4.5058 -1.6944 -0.4943
4.5436 -1.6872 -0.4779
4.5859 -1.6644 -0.4703
4.5945 -1.6290 -0.4909
4.6126 -1.6163 -0.4897
4.6297 -1.6033 -0.4893
4.6501 -1.5920 -0.4859
4.6702 -1.5808 -0.4824
4.6840 -1.5662 -0.4851
4.7016 -1.5539 -0.4839
4.7148 -1.5387 -0.4873
4.7324 -1.5264 -0.4862
4.7959 -1.5492 -0.4335
4.7795 -1.4855 -0.4888
4.7957 -1.4722 -0.4892
4.8088 -1.4559 -0.4934
4.8309 -1.4486 -0.4860
4.8425 -1.4303 -0.4926
4.8817 -1.4123 -0.4833
4.8962 -1.3971 -0.4860
4.9122 -1.3839 -0.4863
4.9251 -1.3657 -0.4921
4.9408 -1.3516 -0.4932
4.9615 -1.3466 -0.4851
4.9782 -1.3350 -0.4839
4.9923 -1.3179 -0.4881
5.0076 -1.3031 -0.4901
5.0237 -1.2899 -0.4904
5.0398 -1.2767 -0.4908
5.1100 -1.3832 -0.3740
5.1258 -1.3844 -0.3642
5.1205 -1.2125 -0.4910
5.1365 -1.1993 -0.4914
5.1692 -1.1778 -0.4882
5.1847 -1.1607 -0.4917
5.2008 -1.1496 -0.4905
5.2170 -1.1396 -0.4885
5.2328 -1.1254 -0.4897
5.2486 -1.1016 -0.4979
5.2647 -1.0916 -0.4959
5.3128 -1.0542 -0.4954
5.3442 -1.0338 -0.4922
5.3139 -2.9081 -0.4712
5.3296 -2.8963 -0.4723
5.3454 -2.8823 -0.4719
5.3613 -2.8640 -0.4685
5.3769 -2.8534 -0.4704
5.3926 -2.8417 -0.4715
5.4082 -2.8257 -0.4696
5.4240 -2.8181 -0.4738
5.4394 -2.8002 -0.4703
5.4550 -2.7874 -0.4707
5.4707 -2.7747 -0.4710
5.4869 -2.7667 -0.4752
5.5027 -2.7538 -0.4756
5.5175 -2.7364 -0.4721
5.5331 -2.7236 -0.4725
5.5472 -2.7047 -0.4675
5.5637 -2.6955 -0.4709
5.5800 -2.6853 -0.4735
5.6091 -2.6541 -0.4689
5.6246 -2.6414 -0.4692
5.6411 -2.6311 -0.4719
5.6555 -2.6162 -0.4699
5.6714 -2.6043 -0.4711
5.6869 -2.5916 -0.4714
5.7024 -2.5789 -0.4718
5.7188 -2.5677 -0.4737
5.7334 -2.5536 -0.4725
5.7499 -2.5423 -0.4744
5.7638 -2.5277 -0.4724
5.7825 -2.5187 -0.4774
5.7953 -2.5030 -0.4739
5.8073 -2.4868 -0.4696
5.8275 -2.4788 -0.4762
5.8456 -2.4683 -0.4796
5.8592 -2.4539 -0.4777
5.8741 -2.4407 -0.4773
5.8883 -2.4270 -0.4761
5.9009 -2.4125 -0.4733
5.9193 -2.4017 -0.4768
5.9363 -2.3899 -0.4787
5.9518 -2.3772 -0.4790
5.9633 -2.3625 -0.4755
5.9804 -2.3507 -0.4774
5.9967 -2.3384 -0.4785
6.0139 -2.3265 -0.4805
6.0304 -2.3141 -0.4816
6.0450 -2.3011 -0.4812
6.0605 -2.2884 -0.4815
6.0732 -2.2748 -0.4795
6.0887 -2.2622 -0.4799
6.1042 -2.2495 -0.4803
6.1196 -2.2369 -0.4806
6.1351 -2.2243 -0.4810
6.1485 -2.2112 -0.4798
6.1606 -2.1981 -0.4778
6.1848 -2.1868 -0.4844
6.1981 -2.1738 -0.4832
6.2125 -2.1610 -0.4827
6.2244 -2.1481 -0.4807
6.2410 -2.1356 -0.4819
6.2589 -2.1231 -0.4838
6.2743 -2.1105 -0.4842
6.2911 -2.0979 -0.4853
5.3147 -2.9467 -0.4736
5.3472 -2.9233 -0.4766
5.3640 -2.9010 -0.4711
5.3802 -2.8877 -0.4715
5.3965 -2.8766 -0.4733
5.4128 -2.8612 -0.4722
5.4289 -2.8458 -0.4711
5.4454 -2.8366 -0.4744
5.4775 -2.8050 -0.4715
5.4937 -2.7918 -0.4719
5.5417 -2.7494 -0.4708
5.5581 -2.7371 -0.4719
5.7491 -2.5745 -0.4719
5.7682 -2.5654 -0.4767
5.7961 -2.5340 -0.4715
5.8594 -2.4812 -0.4722
5.8754 -2.4681 -0.4726
5.8934 -2.4566 -0.4752
5.9276 -2.4319 -0.4782
5.9415 -2.4173 -0.4763
5.9552 -2.4029 -0.4744
5.9712 -2.3898 -0.4748
5.9839 -2.3751 -0.4721
6.0316 -2.3362 -0.4732
6.0439 -2.3219 -0.4706
6.0606 -2.3093 -0.4717
6.0792 -2.2973 -0.4743
6.0941 -2.2840 -0.4739
6.1110 -2.2713 -0.4751
6.1289 -2.2589 -0.4769
6.1427 -2.2454 -0.4758
6.1607 -2.2328 -0.4777
6.1734 -2.2192 -0.4758
6.1947 -2.2072 -0.4799
6.2029 -2.1930 -0.4750
6.2154 -2.1796 -0.4731
6.2311 -2.1667 -0.4734
6.2492 -2.1541 -0.4753
6.2614 -2.1409 -0.4734
6.2808 -2.1283 -0.4760
6.2966 -2.1154 -0.4764
6.3162 -2.1026 -0.4790
5.3330 -2.9672 -0.4720
5.3501 -2.9511 -0.4710
5.3670 -2.9373 -0.4714
5.3839 -2.9202 -0.4696
5.4007 -2.9043 -0.4686
5.4174 -2.8885 -0.4676
5.4344 -2.8790 -0.4708
5.4510 -2.8632 -0.4698
5.4683 -2.8544 -0.4737
5.4846 -2.8357 -0.4705
5.5017 -2.8239 -0.4724
5.5342 -2.7909 -0.4689
5.5509 -2.7772 -0.4692
5.5685 -2.7671 -0.4725
5.5831 -2.7455 -0.4664
5.6010 -2.7363 -0.4704
5.6177 -2.7226 -0.4708
5.6341 -2.7082 -0.4704
5.6495 -2.6913 -0.4680
5.6675 -2.6809 -0.4712
5.7000 -2.6521 -0.4705
5.7154 -2.6363 -0.4688
5.7346 -2.6271 -0.4735
5.7513 -2.6135 -0.4738
5.7710 -2.6039 -0.4785
5.7832 -2.5842 -0.4725
5.7998 -2.5706 -0.4728
5.8148 -2.5551 -0.4711
5.8320 -2.5422 -0.4722
5.8515 -2.5316 -0.4762
5.8707 -2.5202 -0.4794
5.8862 -2.5054 -0.4784
5.9016 -2.4906 -0.4773
5.9163 -2.4754 -0.4755
5.9343 -2.4628 -0.4774
5.9445 -2.4448 -0.4712
5.9625 -2.4323 -0.4730
5.9813 -2.4201 -0.4756
5.9939 -2.4044 -0.4724
6.0145 -2.3930 -0.4764
6.0386 -2.3830 -0.4833
6.0477 -2.3659 -0.4771
6.0634 -2.3520 -0.4768
6.0808 -2.3388 -0.4779
6.0993 -2.3259 -0.4797
6.1206 -2.3138 -0.4838
6.1258 -2.2966 -0.4754
6.1403 -2.2826 -0.4743
6.1608 -2.2702 -0.4776
6.1773 -2.2567 -0.4780
6.1918 -2.2427 -0.4769
6.2125 -2.2301 -0.4802
6.2302 -2.2167 -0.4813
6.2457 -2.2030 -0.4810
6.2622 -2.1895 -0.4814
6.2742 -2.1754 -0.4788
6.2907 -2.1619 -0.4792
6.3095 -2.1486 -0.4810
6.3285 -2.1353 -0.4829
6.3401 -2.1215 -0.4803
6.3566 -2.1080 -0.4807
5.3349 -3.0071 -0.4720
5.3527 -2.9893 -0.4704
5.3703 -2.9705 -0.4681
5.3878 -2.9563 -0.4685
5.4051 -2.9355 -0.4648
5.4230 -2.9351 -0.4740
5.4410 -2.9291 -0.4799
5.4587 -2.9125 -0.4789
5.4936 -2.8796 -0.4770
5.5113 -2.8651 -0.4774
5.5286 -2.8488 -0.4765
