ply
format ascii 1.0
element vertex 2087
property float x
property float y
property float z
end_header
3.0576 -1.1158 0.1669
3.0815 -1.1800 0.1731
3.1133 -1.1939 0.1748
3.1383 -1.2314 0.1786
3.1723 -1.2265 0.1786
3.2102 -1.2077 0.1775
3.2617 -1.1450 0.1726
3.3390 -1.0103 0.1616
3.4075 -0.9145 0.1540
3.4492 -0.9007 0.1534
3.4810 -0.9125 0.1549
3.5152 -0.9161 0.1558
3.5382 -0.9446 0.1587
3.5610 -0.9700 0.1613
1.3652 -1.9149 0.1784
1.3838 -1.8940 0.1764
1.3705 -1.8510 0.1711
1.3689 -1.8136 0.1667
-0.7490 -0.0255 -0.0921
-0.6131 -0.0229 -0.0892
1.9960 1.0573 -0.1534
2.0997 1.0915 -0.1549
2.2622 1.5540 -0.2050
2.4904 1.6292 -0.2084
2.9937 -0.7058 0.0760
3.0070 -0.9628 0.1063
3.0388 -1.0250 0.1143
3.0827 -1.0021 0.1127
3.1483 -1.2092 0.1384
3.1815 -1.2098 0.1392
3.2254 -1.1722 0.1359
3.2813 -1.0989 0.1287
3.3658 -0.9467 0.1129
3.4132 -0.9164 0.1105
3.4520 -0.9110 0.1108
3.4866 -0.9154 0.1121
3.5144 -0.9346 0.1150
3.5377 -0.9618 0.1187
3.5498 -1.0105 0.1247
3.5679 -1.0414 0.1288
3.5817 -1.0779 0.1333
1.3877 -1.8338 0.1319
0.5085 -0.7952 -0.0458
-0.2032 0.6555 -0.2772
0.1666 0.7240 -0.2750
0.3368 0.6765 -0.2626
0.5256 0.5911 -0.2442
0.9452 0.7294 -0.2504
2.0356 0.8658 -0.2345
2.3037 1.2253 -0.2774
2.4427 0.8776 -0.2229
2.5342 0.9883 -0.2358
2.6281 1.1480 -0.2557
2.7279 1.4143 -0.2907
2.8344 1.4002 -0.2852
2.9427 1.4851 -0.2938
3.0433 1.4209 -0.2813
3.0844 0.7624 -0.1855
3.1109 0.2635 -0.1130
3.1281 -0.1255 -0.0567
3.0964 -0.9534 0.0611
3.3348 -0.9460 0.0678
3.3796 -0.9239 0.0661
3.4189 -0.9183 0.0666
3.4610 -0.9045 0.0660
3.4964 -0.9074 0.0676
3.5381 -0.8937 0.0670
3.5798 -0.8799 0.0663
3.5982 -0.9178 0.0724
3.5976 -0.9924 0.0830
0.4094 -0.8870 -0.1086
0.4612 -0.8502 -0.1127
0.5131 -0.8123 -0.1170
0.5495 -0.7587 -0.1247
0.5153 -0.6348 -0.1472
0.5357 -0.5564 -0.1598
0.3921 -0.1806 -0.2299
0.2655 0.0948 -0.2822
0.3855 0.0959 -0.2774
0.4557 0.1575 -0.2850
0.5508 0.1888 -0.2864
0.6233 0.2522 -0.2942
0.7194 0.2839 -0.2956
0.8360 0.2828 -0.2906
0.9865 0.2202 -0.2737
1.0787 0.2505 -0.2750
1.1865 0.2507 -0.2706
1.2475 0.3436 -0.2839
2.1778 -1.2679 0.0299
2.0699 0.2487 -0.2335
2.0928 0.5848 -0.2900
2.1732 0.6851 -0.3037
2.2819 0.6118 -0.2867
2.3732 0.6419 -0.2881
2.4674 0.6376 -0.2834
2.5578 0.6674 -0.2847
2.6460 0.7671 -0.2981
2.7376 0.9096 -0.3186
2.8334 0.9807 -0.3268
2.9116 0.6176 -0.2616
2.9933 0.5832 -0.2523
3.1461 -0.0443 -0.1388
3.4344 0.1298 -0.1566
3.4661 0.0051 -0.1339
3.3296 -0.8550 0.0072
3.3486 -0.9215 0.0194
3.3855 -0.9249 0.0215
0.0749 -0.7998 -0.2165
0.2711 -0.8693 -0.1928
0.1385 -0.6828 -0.2365
0.3179 -0.7434 -0.2154
0.3718 -0.7019 -0.2209
0.6198 -0.8360 -0.1818
0.4059 -0.5441 -0.2505
0.3819 -0.4167 -0.2770
0.5807 -0.5122 -0.2480
0.7429 -0.5796 -0.2264
0.7354 -0.4613 -0.2502
0.8411 -0.3480 -0.2674
0.9844 -0.2739 -0.2748
1.0939 -0.2915 -0.2658
1.1726 -0.2655 -0.2669
1.2247 -0.1947 -0.2783
1.3173 -0.1910 -0.2744
1.3967 -0.1648 -0.2755
1.4981 -0.1841 -0.2666
1.6149 -0.2447 -0.2487
2.2134 -1.0769 -0.0533
2.1580 -0.1369 -0.2425
2.2141 -0.0235 -0.2622
2.2862 0.0251 -0.2682
2.3757 -0.0414 -0.2505
2.4370 0.0996 -0.2753
2.5122 0.1502 -0.2815
2.5902 0.1759 -0.2827
2.9010 0.2525 -0.2822
2.9677 0.1299 -0.2545
3.0635 0.3846 -0.3001
3.0810 -0.1022 -0.2027
3.1141 -0.9121 -0.0404
3.4000 -0.0528 -0.1963
3.3154 -0.7818 -0.0561
3.3411 -0.8373 -0.0437
3.3684 -0.8789 -0.0341
3.4034 -0.8911 -0.0299
3.4435 -0.8862 -0.0289
3.4800 -0.8896 -0.0263
3.5229 -0.8755 -0.0270
4.2138 0.2712 -0.2194
0.1245 -0.9980 -0.2490
0.4858 -1.1814 -0.1858
0.3178 -0.9928 -0.2386
0.3320 -0.9296 -0.2520
0.3647 -0.8778 -0.2618
0.3802 -0.8092 -0.2764
0.5051 -0.8316 -0.2639
0.6866 -0.9092 -0.2354
0.8239 -0.9541 -0.2170
0.7764 -0.8221 -0.2498
0.8010 -0.7546 -0.2636
0.8266 -0.6836 -0.2781
0.9543 -0.7245 -0.2612
0.9966 -0.6696 -0.2711
1.0669 -0.6464 -0.2721
1.1494 -0.6397 -0.2687
1.2073 -0.6001 -0.2742
1.3000 -0.6106 -0.2663
1.3584 -0.5708 -0.2718
1.4383 -0.5650 -0.2683
1.5074 -0.5422 -0.2693
1.5853 -0.5361 -0.2661
1.6702 -0.5470 -0.2585
1.7149 -0.4739 -0.2724
2.1752 -1.2676 -0.0653
2.2132 -0.8910 -0.1482
2.2582 -0.8382 -0.1574
2.2269 -0.4384 -0.2498
2.2752 -0.3281 -0.2719
2.3434 -0.3057 -0.2729
2.4089 -0.2646 -0.2782
2.4755 -0.2232 -0.2836
2.5430 -0.1804 -0.2893
2.6081 -0.0749 -0.3092
2.6823 -0.1345 -0.2913
2.7520 -0.1115 -0.2923
2.8227 -0.0472 -0.3027
3.0390 -0.8670 -0.1042
3.0734 -0.9284 -0.0882
3.1101 -0.9594 -0.0790
3.1587 -0.9260 -0.0837
3.2124 -0.8744 -0.0921
3.2609 -0.8492 -0.0950
3.2987 -0.8634 -0.0895
3.3414 -0.8576 -0.0882
3.3773 -0.8714 -0.0830
3.4218 -0.8567 -0.0836
3.4527 -0.8793 -0.0767
4.1046 0.2554 -0.2944
4.1829 0.3006 -0.3000
4.2510 0.3231 -0.3010
4.3546 0.4167 -0.3160
0.5047 -1.2068 -0.2448
0.5655 -1.1868 -0.2457
0.6264 -1.1667 -0.2466
0.6164 -1.0906 -0.2667
0.6935 -1.0815 -0.2636
0.7833 -1.0844 -0.2567
0.8185 -1.0403 -0.2655
0.9187 -1.0551 -0.2548
0.9559 -1.0113 -0.2634
1.0061 -0.9784 -0.2682
1.0917 -0.9828 -0.2612
1.1853 -0.9988 -0.2507
1.2150 -0.9422 -0.2630
1.2959 -0.9460 -0.2564
1.3752 -0.9505 -0.2498
1.4176 -0.9059 -0.2582
1.4701 -0.8734 -0.2629
1.6755 -0.8515 -0.2543
1.7424 -0.8447 -0.2514
1.8021 -0.8250 -0.2522
1.8734 -0.8311 -0.2458
2.0008 -0.9754 -0.2002
2.2229 -0.9256 -0.1975
2.2763 -0.9080 -0.1983
2.3168 -0.8336 -0.2144
2.3363 -0.6337 -0.2640
2.4604 -0.6233 -0.2581
2.5164 -0.5743 -0.2667
2.5754 -0.5406 -0.2712
2.6358 -0.5207 -0.2720
2.6963 -0.5008 -0.2729
2.7567 -0.5257 -0.2624
2.8108 -0.7084 -0.2121
2.8695 -0.5995 -0.2358
2.9258 -0.5809 -0.2367
2.9795 -1.0143 -0.1226
3.0267 -0.9814 -0.1277
3.0747 -0.9493 -0.1325
3.1079 -0.9964 -0.1182
3.1372 -1.0489 -0.1029
3.2443 -0.9352 -0.1244
3.2966 -0.8925 -0.1317
3.3471 -0.8596 -0.1365
3.3959 -0.8343 -0.1396
3.4279 -0.8584 -0.1313
3.4624 -0.8715 -0.1255
3.4992 -0.8756 -0.1219
3.5506 -0.8424 -0.1268
0.6191 -1.3562 -0.2602
0.6882 -1.3466 -0.2575
0.7443 -1.3281 -0.2583
0.7881 -1.3005 -0.2627
0.8680 -1.3005 -0.2564
0.9351 -1.2915 -0.2537
0.9794 -1.2638 -0.2580
1.0243 -1.2358 -0.2624
1.0803 -1.2174 -0.2633
1.1363 -1.1989 -0.2641
1.2020 -1.1904 -0.2613
1.2756 -1.1914 -0.2552
1.3133 -1.1537 -0.2630
1.3603 -1.1251 -0.2674
1.4246 -1.1170 -0.2646
1.4803 -1.0987 -0.2654
1.5359 -1.0803 -0.2662
1.5843 -1.0512 -0.2707
1.6473 -1.0437 -0.2679
1.7523 -0.9959 -0.2732
1.8142 -0.9886 -0.2704
1.8754 -0.9816 -0.2675
1.9307 -0.9634 -0.2683
1.9860 -0.9451 -0.2692
2.1188 -1.1279 -0.2069
2.2476 -1.1896 -0.1793
2.2416 -0.9914 -0.2360
2.2626 -0.8540 -0.2732
2.3309 -0.8932 -0.2568
2.3777 -0.8403 -0.2681
2.4244 -0.7744 -0.2831
2.4787 -0.7433 -0.2876
2.5364 -0.7374 -0.2847
2.5954 -0.7564 -0.2747
2.6517 -0.7631 -0.2684
2.7044 -0.6821 -0.2872
2.7603 -0.7627 -0.2599
2.8133 -0.7574 -0.2573
2.8902 -1.0951 -0.1555
2.9319 -1.0975 -0.1516
3.0750 -0.6944 -0.2545
3.0928 -0.8746 -0.2021
3.1306 -0.9076 -0.1897
3.1472 -1.0265 -0.1547
3.1690 -1.0992 -0.1324
3.2268 -1.0225 -0.1496
3.3592 -0.8414 -0.1905
3.4053 -0.8262 -0.1912
3.4445 -0.8305 -0.1869
3.4902 -0.8154 -0.1876
3.5558 -0.7493 -0.2012
3.5983 -0.7444 -0.1992
3.6357 -0.7502 -0.1946
3.7028 -0.8505 -0.1609
1.0002 -1.4143 -0.2706
1.0617 -1.4051 -0.2681
1.1405 -1.4113 -0.2592
1.2003 -1.4026 -0.2566
1.2587 -1.3934 -0.2543
1.2927 -1.3611 -0.2614
1.3665 -1.3679 -0.2528
1.4092 -1.3438 -0.2566
1.4524 -1.3195 -0.2603
1.5162 -1.3186 -0.2550
1.5731 -1.3109 -0.2524
1.5970 -1.2608 -0.2659
1.6658 -1.2692 -0.2572
1.7324 -1.2774 -0.2488
1.7768 -1.2538 -0.2522
1.8155 -1.2199 -0.2594
1.8654 -1.2035 -0.2601
1.9202 -1.1964 -0.2575
1.9741 -1.1887 -0.2552
2.0309 -1.1891 -0.2500
2.0942 -1.2074 -0.2387
2.1544 -1.2237 -0.2283
2.2152 -1.2478 -0.2154
2.2853 -1.1444 -0.2415
2.3307 -1.1194 -0.2453
2.3809 -1.1129 -0.2429
2.4287 -1.0971 -0.2437
2.4735 -1.0633 -0.2503
2.5254 -1.0743 -0.2423
2.5720 -1.0499 -0.2458
2.6183 -1.0155 -0.2524
2.6626 -0.9206 -0.2782
2.7140 -0.9449 -0.2661
2.7632 -0.9768 -0.2517
2.8106 -0.9803 -0.2465
2.8483 -1.1436 -0.1921
2.9042 -0.9675 -0.2422
2.9542 -0.9239 -0.2514
3.0060 -0.8777 -0.2613
3.0529 -0.8723 -0.2588
3.0995 -0.8660 -0.2567
3.1495 -0.8405 -0.2602
3.2002 -0.8137 -0.2641
3.2193 -0.9169 -0.2302
3.3590 -0.8628 -0.2348
3.4151 -0.8172 -0.2441
3.4580 -0.8121 -0.2419
3.5160 -0.7659 -0.2512
3.5886 -0.6857 -0.2699
3.6420 -0.6581 -0.2738
3.6806 -0.6654 -0.2681
3.7241 -0.6601 -0.2659
3.7513 -0.6883 -0.2547
3.7469 -0.7771 -0.2273
3.6515 -1.0365 -0.1547
1.3573 -1.8269 -0.1521
1.2372 -1.6561 -0.2223
1.3414 -1.6886 -0.2010
1.2603 -1.5219 -0.2660
1.2999 -1.4998 -0.2697
1.3687 -1.5041 -0.2615
1.4084 -1.4820 -0.2651
1.4686 -1.4802 -0.2599
1.5085 -1.4580 -0.2635
1.5488 -1.4358 -0.2672
1.6016 -1.4273 -0.2649
1.6367 -1.3978 -0.2716
1.6783 -1.3751 -0.2752
1.7779 -1.3513 -0.2736
1.8440 -1.3654 -0.2623
1.8901 -1.3502 -0.2630
1.9234 -1.3123 -0.2727
1.9864 -1.3274 -0.2614
2.0911 -1.3258 -0.2516
2.1206 -1.2742 -0.2664
2.1756 -1.2820 -0.2583
2.2390 -1.3179 -0.2398
2.3025 -1.3648 -0.2176
2.3349 -1.3172 -0.2307
2.3631 -1.2451 -0.2526
2.3897 -1.1496 -0.2827
2.4433 -1.1679 -0.2712
2.4908 -1.1612 -0.2688
2.5398 -1.1699 -0.2610
2.6315 -1.1567 -0.2565
2.6746 -1.1086 -0.2688
2.7201 -1.0856 -0.2722
2.7660 -1.0525 -0.2790
2.8092 -1.1380 -0.2455
2.8489 -1.1917 -0.2232
2.9073 -0.9790 -0.2903
2.9503 -1.0007 -0.2786
2.9977 -0.9762 -0.2824
3.0425 -0.9704 -0.2800
3.0938 -0.9265 -0.2900
3.1367 -0.9303 -0.2845
3.1808 -0.9248 -0.2820
3.2269 -0.9096 -0.2827
3.2094 -1.2513 -0.1675
3.4404 -0.8811 -0.2715
3.4888 -0.8572 -0.2750
3.5455 -0.8136 -0.2843
3.5913 -0.7984 -0.2850
3.6372 -0.7833 -0.2857
3.6739 -0.7882 -0.2804
3.7051 -0.8028 -0.2724
3.6107 -1.1300 -0.1697
1.1322 -1.7251 -0.2569
1.1822 -1.7156 -0.2551
1.2814 -1.7413 -0.2348
1.3282 -1.7318 -0.2333
1.4063 -1.7466 -0.2193
1.4288 -1.7194 -0.2270
1.3838 -1.6343 -0.2636
1.4394 -1.6308 -0.2589
1.4941 -1.6276 -0.2541
1.5251 -1.6026 -0.2601
1.6323 -1.5969 -0.2506
1.6695 -1.5777 -0.2538
1.7118 -1.5638 -0.2544
1.7673 -1.5663 -0.2475
1.8181 -1.5644 -0.2427
1.8507 -1.5388 -0.2487
1.8885 -1.5194 -0.2518
1.9341 -1.5113 -0.2499
1.9688 -1.4860 -0.2556
2.0075 -1.4663 -0.2588
2.1508 -1.4607 -0.2454
2.2022 -1.4714 -0.2358
2.2354 -1.4397 -0.2441
2.2786 -1.4324 -0.2421
2.3093 -1.3876 -0.2555
2.3637 -1.4182 -0.2382
2.3910 -1.3538 -0.2593
2.4402 -1.3722 -0.2471
2.4872 -1.3904 -0.2353
2.5231 -1.3518 -0.2457
2.5630 -1.3317 -0.2489
2.6039 -1.3182 -0.2495
2.6464 -1.3250 -0.2424
2.6852 -1.2786 -0.2555
2.7269 -1.2846 -0.2487
2.7677 -1.2573 -0.2545
2.8086 -1.2508 -0.2525
2.8492 -1.2443 -0.2505
2.8911 -1.2166 -0.2563
2.9354 -1.1743 -0.2673
2.9783 -1.1533 -0.2705
3.0215 -1.1321 -0.2737
3.0611 -1.1329 -0.2691
3.1078 -1.0957 -0.2779
3.1503 -1.0818 -0.2786
3.1829 -1.1066 -0.2658
3.2265 -1.0853 -0.2690
3.2472 -1.2537 -0.2041
3.3961 -1.0225 -0.2741
3.4380 -1.0087 -0.2747
3.5358 -0.9477 -0.2868
3.5749 -0.9418 -0.2848
3.5865 -0.9944 -0.2640
3.5656 -1.1092 -0.2235
3.5965 -1.1108 -0.2196
3.6603 -1.0483 -0.2360
1.2222 -1.8308 -0.2523
1.2357 -1.8007 -0.2628
1.2761 -1.7874 -0.2634
1.3289 -1.7828 -0.2591
1.3689 -1.7696 -0.2596
1.4431 -1.7825 -0.2457
1.4821 -1.7696 -0.2463
1.4949 -1.7350 -0.2587
1.5184 -1.7076 -0.2670
1.5635 -1.6986 -0.2653
1.6091 -1.6905 -0.2632
1.6543 -1.6824 -0.2611
1.6942 -1.6693 -0.2617
1.7155 -1.6357 -0.2727
1.7646 -1.6323 -0.2682
1.8011 -1.6144 -0.2712
1.8493 -1.6113 -0.2667
1.8818 -1.5878 -0.2723
1.9106 -1.5577 -0.2811
1.9657 -1.5660 -0.2712
2.1617 -1.4887 -0.2792
2.2071 -1.4865 -0.2748
2.2625 -1.5124 -0.2578
2.3317 -1.4592 -0.2711
2.3780 -1.4685 -0.2619
2.4114 -1.4329 -0.2722
2.4552 -1.4371 -0.2654
2.4922 -1.4122 -0.2711
2.5328 -1.4047 -0.2693
2.5723 -1.3917 -0.2699
2.6131 -1.3910 -0.2653
2.6523 -1.3781 -0.2659
2.6915 -1.3652 -0.2665
2.7699 -1.3265 -0.2728
2.8092 -1.3205 -0.2706
2.8478 -1.3195 -0.2664
2.8885 -1.2874 -0.2745
2.9302 -1.2550 -0.2827
2.9693 -1.2490 -0.2805
3.0071 -1.2484 -0.2763
3.0517 -1.2081 -0.2872
3.0875 -1.2160 -0.2798
3.1287 -1.1965 -0.2828
3.1652 -1.1962 -0.2786
3.2008 -1.1973 -0.2740
3.2219 -1.2444 -0.2525
3.2418 -1.2869 -0.2331
3.2885 -1.2450 -0.2444
3.3628 -1.1311 -0.2815
3.4050 -1.1113 -0.2845
3.4507 -1.0835 -0.2903
3.4941 -1.0623 -0.2937
3.5111 -1.1009 -0.2762
3.5024 -1.1902 -0.2412
3.5118 -1.2343 -0.2224
3.5722 -1.1731 -0.2399
1.3328 -1.8712 -0.2657
1.3873 -1.8698 -0.2593
1.4409 -1.8688 -0.2529
1.4880 -1.8640 -0.2490
1.5346 -1.8593 -0.2450
1.5709 -1.8474 -0.2456
1.5980 -1.8277 -0.2506
1.6257 -1.8078 -0.2557
1.6975 -1.8271 -0.2381
1.7333 -1.8153 -0.2386
1.7609 -1.7955 -0.2437
1.7814 -1.7673 -0.2533
1.8256 -1.7634 -0.2493
1.8587 -1.7477 -0.2519
1.9122 -1.7563 -0.2413
1.9480 -1.7445 -0.2418
1.9682 -1.7116 -0.2535
1.9986 -1.6908 -0.2586
2.0381 -1.6827 -0.2571
2.0832 -1.6844 -0.2506
2.1293 -1.6897 -0.2424
2.1578 -1.6647 -0.2496
2.1939 -1.6528 -0.2501
2.2237 -1.6273 -0.2573
2.2701 -1.6384 -0.2466
2.3092 -1.6352 -0.2429
2.3417 -1.6148 -0.2476
2.3803 -1.6118 -0.2440
2.4132 -1.5912 -0.2487
2.4476 -1.5740 -0.2517
2.4848 -1.5676 -0.2497
2.5224 -1.5650 -0.2461
2.5514 -1.5135 -0.2647
2.5922 -1.5322 -0.2513
2.6304 -1.5440 -0.2413
2.6648 -1.5229 -0.2460
2.6997 -1.5017 -0.2508
2.7350 -1.4637 -0.2627
2.7711 -1.4781 -0.2518
2.8069 -1.4615 -0.2545
2.8431 -1.4437 -0.2575
2.8795 -1.4268 -0.2602
2.9155 -1.4149 -0.2607
2.9486 -1.4245 -0.2523
2.9915 -1.3684 -0.2712
3.0238 -1.3792 -0.2623
3.0711 -1.3149 -0.2842
3.1042 -1.3205 -0.2775
3.1351 -1.3318 -0.2686
3.1666 -1.3370 -0.2623
3.2058 -1.3144 -0.2671
3.2385 -1.3134 -0.2634
3.2764 -1.2960 -0.2660
3.3124 -1.2841 -0.2666
3.3603 -1.2420 -0.2787
3.4078 -1.2039 -0.2891
3.4477 -1.1859 -0.2918
3.4650 -1.2182 -0.2756
3.4760 -1.2604 -0.2559
3.4495 -1.3745 -0.2098
1.3684 -1.9693 -0.2586
1.3983 -1.9546 -0.2612
1.4446 -1.9500 -0.2570
1.4737 -1.9346 -0.2601
1.5145 -1.9270 -0.2580
1.5541 -1.9188 -0.2563
1.5970 -1.9134 -0.2529
1.6238 -1.8958 -0.2574
1.6544 -1.8809 -0.2601
1.7008 -1.8792 -0.2545
1.7282 -1.8614 -0.2589
1.7593 -1.8463 -0.2616
1.7861 -1.8268 -0.2670
1.8292 -1.8233 -0.2626
1.8675 -1.8155 -0.2610
1.9865 -1.7995 -0.2519
2.0091 -1.7727 -0.2612
2.0389 -1.7541 -0.2657
2.0786 -1.7498 -0.2623
2.2522 -1.6926 -0.2648
2.2941 -1.6981 -0.2564
2.3283 -1.6868 -0.2569
2.3668 -1.6877 -0.2512
2.5067 -1.6639 -0.2429
2.6378 -1.6032 -0.2530
2.6715 -1.5921 -0.2535
2.7383 -1.5372 -0.2697
2.7728 -1.5355 -0.2658
2.8077 -1.5095 -0.2730
2.8421 -1.5030 -0.2713
2.8748 -1.5116 -0.2628
2.9437 -1.4840 -0.2660
2.9778 -1.4728 -0.2665
3.0140 -1.4512 -0.2716
3.0473 -1.4450 -0.2698
3.0865 -1.4137 -0.2789
3.1202 -1.4065 -0.2776
3.1534 -1.4004 -0.2759
3.1879 -1.3890 -0.2764
3.2225 -1.3776 -0.2769
3.2625 -1.3508 -0.2838
3.2954 -1.3448 -0.2820
3.3302 -1.3334 -0.2825
3.3651 -1.3219 -0.2830
3.4024 -1.3048 -0.2858
3.4326 -1.3035 -0.2822
3.4674 -1.2920 -0.2827
3.4271 -1.4825 -0.1998
1.5648 -2.1178 -0.1961
1.4751 -2.0387 -0.2487
1.5024 -2.0249 -0.2515
1.5440 -2.0198 -0.2478
1.5891 -2.0175 -0.2423
1.6126 -2.0011 -0.2469
1.6448 -1.9905 -0.2474
1.6699 -1.9745 -0.2516
1.6911 -1.9550 -0.2581
1.7568 -1.9334 -0.2591
1.7786 -1.9127 -0.2661
1.8224 -1.9117 -0.2600
1.8611 -1.9067 -0.2568
1.9029 -1.9054 -0.2512
1.9236 -1.8822 -0.2596
1.9563 -1.8714 -0.2601
1.9997 -1.8735 -0.2526
2.0350 -1.8667 -0.2508
2.0763 -1.8684 -0.2437
2.1058 -1.8549 -0.2461
2.1376 -1.8444 -0.2465
2.1674 -1.8307 -0.2489
2.1993 -1.8202 -0.2494
2.2423 -1.8301 -0.2381
2.2719 -1.8165 -0.2404
2.2966 -1.7920 -0.2489
2.3284 -1.7815 -0.2494
2.3629 -1.7778 -0.2461
2.3868 -1.7459 -0.2583
2.4227 -1.7465 -0.2527
2.4567 -1.7430 -0.2493
2.4866 -1.7255 -0.2536
2.5193 -1.7186 -0.2522
2.5511 -1.7081 -0.2526
2.5841 -1.7049 -0.2493
2.6152 -1.6908 -0.2517
2.6469 -1.6804 -0.2521
2.6800 -1.6896 -0.2426
2.7097 -1.6443 -0.2607
2.7419 -1.6414 -0.2574
2.7737 -1.6424 -0.2521
2.8057 -1.6203 -0.2583
2.8385 -1.5970 -0.2650
2.8699 -1.5953 -0.2612
2.9020 -1.5848 -0.2616
2.9353 -1.5651 -0.2664
2.9660 -1.5636 -0.2626
2.9972 -1.5572 -0.2611
3.0291 -1.5467 -0.2616
3.0611 -1.5362 -0.2621
3.0930 -1.5256 -0.2625
3.1289 -1.5013 -0.2693
3.1638 -1.4821 -0.2736
3.1995 -1.4617 -0.2784
3.2272 -1.4651 -0.2726
3.2596 -1.4544 -0.2731
3.2845 -1.4625 -0.2654
3.3145 -1.4565 -0.2639
3.3443 -1.4505 -0.2624
3.3781 -1.4355 -0.2648
3.4121 -1.4205 -0.2672
3.4371 -1.4237 -0.2619
3.4609 -1.4284 -0.2560
1.5969 -2.1417 -0.2125
1.5698 -2.1001 -0.2389
1.5610 -2.0668 -0.2579
1.5991 -2.0609 -0.2549
1.6194 -2.0437 -0.2608
1.6572 -2.0379 -0.2578
1.6957 -2.0329 -0.2543
1.7229 -2.0201 -0.2568
1.7478 -2.0052 -0.2607
1.7790 -1.9949 -0.2611
1.8101 -1.9847 -0.2616
1.8436 -1.9765 -0.2606
1.8625 -1.9550 -0.2689
1.9396 -1.9486 -0.2600
1.9658 -1.9333 -0.2639
2.0015 -1.9282 -0.2609
2.0350 -1.9210 -0.2593
2.0990 -1.9038 -0.2583
2.1253 -1.8874 -0.2627
2.1853 -1.8639 -0.2656
2.2219 -1.8632 -0.2601
2.2562 -1.8596 -0.2565
2.3769 -1.8160 -0.2603
2.4774 -1.8153 -0.2447
2.5094 -1.8143 -0.2401
2.5331 -1.7788 -0.2551
2.5652 -1.7787 -0.2500
2.5935 -1.7589 -0.2560
2.6225 -1.7388 -0.2619
2.6534 -1.7325 -0.2604
2.6842 -1.7290 -0.2573
2.7749 -1.7029 -0.2566
2.8053 -1.6862 -0.2606
2.8377 -1.6459 -0.2767
2.8678 -1.6465 -0.2716
2.8997 -1.6284 -0.2761
2.9283 -1.6342 -0.2685
2.9618 -1.6079 -0.2770
2.9934 -1.5946 -0.2790
3.0221 -1.5957 -0.2739
3.0826 -1.5795 -0.2728
3.1158 -1.5610 -0.2773
3.1441 -1.5593 -0.2737
3.1705 -1.5620 -0.2680
3.2009 -1.5520 -0.2685
3.2380 -1.5245 -0.2771
3.2688 -1.5144 -0.2775
3.2978 -1.5086 -0.2759
3.3360 -1.4817 -0.2841
3.3671 -1.4715 -0.2845
3.3983 -1.4612 -0.2850
3.4185 -1.4727 -0.2757
3.4419 -1.4764 -0.2700
1.6170 -2.1333 -0.2474
1.6358 -2.1177 -0.2530
1.6540 -2.1012 -0.2592
1.6972 -2.1003 -0.2523
1.7159 -2.0837 -0.2585
1.7491 -2.0765 -0.2568
1.7882 -2.0740 -0.2516
1.8225 -2.0684 -0.2489
1.8514 -2.0589 -0.2493
1.8754 -2.0453 -0.2528
1.9068 -2.0378 -0.2517
1.9509 -2.0422 -0.2417
1.9794 -2.0328 -0.2421
2.0036 -2.0192 -0.2457
2.0342 -2.0119 -0.2445
2.0452 -1.9827 -0.2591
2.0869 -1.9879 -0.2490
2.1198 -1.9837 -0.2458
2.1386 -1.9614 -0.2551
2.1752 -1.9626 -0.2482
2.2069 -1.9578 -0.2455
2.2353 -1.9484 -0.2459
2.2656 -1.9423 -0.2442
2.2940 -1.9329 -0.2446
2.3194 -1.9179 -0.2487
2.3491 -1.9110 -0.2476
2.3801 -1.9074 -0.2443
2.4073 -1.8956 -0.2463
2.4326 -1.8777 -0.2520
2.4601 -1.8649 -0.2545
2.4881 -1.8528 -0.2566
2.5175 -1.8460 -0.2554
2.5476 -1.8427 -0.2521
2.5756 -1.8306 -0.2541
2.6043 -1.8212 -0.2545
2.6324 -1.8081 -0.2571
2.6617 -1.8051 -0.2538
2.6901 -1.7929 -0.2558
2.7188 -1.7863 -0.2546
2.7472 -1.7703 -0.2588
2.7756 -1.7770 -0.2502
2.8045 -1.7552 -0.2575
2.8334 -1.7419 -0.2600
2.8611 -1.7422 -0.2551
2.8917 -1.7160 -0.2646
2.9210 -1.7035 -0.2667
2.9482 -1.7040 -0.2617
2.9769 -1.6946 -0.2622
3.0063 -1.6820 -0.2642
3.0307 -1.6901 -0.2555
3.0639 -1.6631 -0.2650
3.0927 -1.6536 -0.2655
3.1191 -1.6515 -0.2621
3.1492 -1.6378 -0.2647
3.1818 -1.6176 -0.2705
3.2166 -1.5928 -0.2785
3.2411 -1.5952 -0.2730
3.2720 -1.5812 -0.2756
3.2942 -1.5871 -0.2684
3.3178 -1.5888 -0.2635
3.3479 -1.5761 -0.2655
3.3731 -1.5735 -0.2627
3.4154 -1.5377 -0.2755
3.4363 -1.5432 -0.2689
1.6368 -2.1505 -0.2678
1.7167 -2.1458 -0.2561
1.7417 -2.1347 -0.2582
1.7603 -2.1192 -0.2640
1.7858 -2.1080 -0.2661
1.8195 -2.1025 -0.2632
1.8614 -2.1037 -0.2549
1.8892 -2.0946 -0.2553
1.9121 -2.0814 -0.2590
1.9345 -2.0674 -0.2632
1.9656 -2.0609 -0.2615
1.9980 -2.0559 -0.2586
2.0125 -2.0333 -0.2694
2.0536 -2.0375 -0.2594
2.0834 -2.0305 -0.2582
2.1130 -2.0236 -0.2569
2.1407 -2.0145 -0.2573
2.1684 -2.0054 -0.2577
2.1895 -1.9871 -0.2648
2.2253 -1.9894 -0.2569
2.3189 -1.9821 -0.2443
2.3458 -1.9732 -0.2447
2.3739 -1.9668 -0.2434
2.4256 -1.9441 -0.2476
2.4490 -1.9251 -0.2546
2.4859 -1.9458 -0.2356
2.5051 -1.9122 -0.2521
2.5886 -1.8960 -0.2466
2.6683 -1.8613 -0.2528
2.6967 -1.8707 -0.2420
2.7770 -1.8076 -0.2650
2.8039 -1.8138 -0.2565
2.8576 -1.8017 -0.2539
2.8861 -1.7810 -0.2611
2.9154 -1.7591 -0.2688
2.9426 -1.7530 -0.2675
2.9961 -1.7419 -0.2644
3.0261 -1.7227 -0.2704
3.0833 -1.6982 -0.2746
3.1122 -1.6858 -0.2767
3.1707 -1.6600 -0.2815
3.2238 -1.6490 -0.2783
3.2531 -1.6366 -0.2805
3.2751 -1.6406 -0.2741
3.3044 -1.6281 -0.2762
3.3321 -1.6190 -0.2766
3.3599 -1.6098 -0.2770
3.3797 -1.6155 -0.2700
3.4154 -1.5915 -0.2778
1.7458 -2.1940 -0.2534
1.7613 -2.1786 -0.2601
1.8016 -2.1784 -0.2524
1.8280 -2.1697 -0.2528
1.8737 -2.1472 -0.2582
1.9071 -2.1436 -0.2540
1.9285 -2.1310 -0.2578
1.9551 -2.1222 -0.2582
1.9886 -2.1196 -0.2534
2.0195 -2.1150 -0.2504
2.0493 -2.1098 -0.2479
2.0795 -2.1055 -0.2448
2.0993 -2.0906 -0.2504
2.1292 -2.0863 -0.2473
2.1446 -2.0653 -0.2575
2.1775 -2.0648 -0.2515
2.2087 -2.0629 -0.2467
2.2362 -2.0566 -0.2454
2.2502 -2.0306 -0.2591
2.2863 -2.0373 -0.2479
2.3108 -2.0264 -0.2500
2.3380 -2.0203 -0.2486
2.3614 -2.0070 -0.2525
2.3874 -1.9984 -0.2529
2.4134 -1.9898 -0.2532
2.4414 -1.9862 -0.2501
2.4673 -1.9777 -0.2505
2.4931 -1.9691 -0.2509
2.5182 -1.9581 -0.2530
2.5435 -1.9469 -0.2552
2.5695 -1.9384 -0.2555
2.5960 -1.9324 -0.2542
2.6208 -1.9168 -0.2592
2.6482 -1.9180 -0.2532
2.6743 -1.9122 -0.2518
2.7001 -1.9037 -0.2522
2.7258 -1.8925 -0.2543
2.7516 -1.8811 -0.2565
2.7779 -1.8566 -0.2668
2.8040 -1.8536 -0.2637
2.8292 -1.8584 -0.2559
2.8554 -1.8470 -0.2580
2.8821 -1.8326 -0.2619
2.9072 -1.8299 -0.2588
2.9312 -1.8322 -0.2527
2.9558 -1.8288 -0.2501
2.9883 -1.7901 -0.2682
3.0125 -1.7896 -0.2638
3.0426 -1.7666 -0.2725
3.0672 -1.7641 -0.2693
3.0946 -1.7523 -0.2715
3.1158 -1.7583 -0.2636
3.1418 -1.7497 -0.2640
3.1737 -1.7262 -0.2727
3.1911 -1.7391 -0.2612
3.2279 -1.7055 -0.2752
3.2484 -1.7100 -0.2685
3.2719 -1.7069 -0.2659
3.3007 -1.6927 -0.2693
3.3221 -1.6931 -0.2649
3.3517 -1.6778 -0.2688
3.3639 -1.6943 -0.2561
1.7650 -2.2336 -0.2549
1.7842 -2.2217 -0.2589
1.7998 -2.2073 -0.2652
1.8333 -2.2037 -0.2608
1.8663 -2.2002 -0.2564
1.8935 -2.1931 -0.2556
1.9232 -2.1879 -0.2529
1.9441 -2.1764 -0.2563
1.9677 -2.1668 -0.2579
1.9907 -2.1565 -0.2601
2.0200 -2.1514 -0.2574
2.0438 -2.1417 -0.2590
2.0691 -2.1334 -0.2594
2.0924 -2.1229 -0.2616
2.1198 -2.1167 -0.2601
2.1432 -2.1062 -0.2623
2.1798 -2.1108 -0.2518
2.2000 -2.0967 -0.2570
2.2240 -2.0870 -0.2586
2.2754 -2.0718 -0.2581
2.3874 -2.0609 -0.2426
2.4092 -2.0472 -0.2472
2.4821 -2.0204 -0.2501
2.5808 -1.9879 -0.2516
2.6308 -1.9760 -0.2493
2.6791 -1.9508 -0.2561
2.7535 -1.9309 -0.2541
2.8522 -1.8984 -0.2556
2.9047 -1.8626 -0.2686
2.9308 -1.8494 -0.2721
2.9541 -1.8509 -0.2663
2.9780 -1.8477 -0.2636
3.0021 -1.8425 -0.2621
3.0322 -1.8159 -0.2736
3.0585 -1.8045 -0.2758
3.0812 -1.8044 -0.2712
3.1105 -1.7846 -0.2784
3.1380 -1.7709 -0.2819
3.1879 -1.7572 -0.2808
3.2149 -1.7456 -0.2830
3.2299 -1.7600 -0.2704
3.2550 -1.7518 -0.2707
3.2757 -1.7524 -0.2661
3.3069 -1.7319 -0.2733
3.3284 -1.7303 -0.2700
1.8136 -2.2657 -0.2526
1.8500 -2.2647 -0.2455
1.8668 -2.2527 -0.2502
1.8880 -2.2430 -0.2525
1.9008 -2.2278 -0.2603
1.9343 -2.2259 -0.2544
1.9585 -2.2179 -0.2548
1.9783 -2.2068 -0.2583
2.0009 -2.1975 -0.2599
2.0381 -2.1999 -0.2502
2.0620 -2.1921 -0.2505
2.0912 -2.1889 -0.2465
2.1098 -2.1763 -0.2512
2.1337 -2.1684 -0.2516
2.1550 -2.1578 -0.2545
2.1835 -2.1548 -0.2504
2.2085 -2.1484 -0.2495
2.2282 -2.1355 -0.2543
2.2510 -2.1261 -0.2559
2.2772 -2.1212 -0.2537
2.3036 -2.1170 -0.2509
2.3274 -2.1092 -0.2512
2.3553 -2.1083 -0.2459
2.3728 -2.0897 -0.2551
2.3995 -2.0873 -0.2510
2.4266 -2.0866 -0.2457
2.4462 -2.0700 -0.2530
2.4723 -2.0679 -0.2489
2.4944 -2.0560 -0.2524
2.5189 -2.0507 -0.2509
2.5447 -2.0504 -0.2455
2.5681 -2.0427 -0.2458
2.5898 -2.0273 -0.2519
2.6126 -2.0152 -0.2555
2.6376 -2.0152 -0.2501
2.6602 -1.9995 -0.2562
2.6848 -2.0015 -0.2495
2.7082 -1.9920 -0.2511
2.7318 -1.9860 -0.2502
2.7552 -1.9682 -0.2576
2.7790 -1.9622 -0.2566
2.8031 -1.9460 -0.2627
2.8262 -1.9494 -0.2554
2.8496 -1.9435 -0.2545
2.8747 -1.9242 -0.2625
2.8990 -1.9144 -0.2642
2.9233 -1.9045 -0.2658
2.9479 -1.8937 -0.2681
2.9687 -1.8997 -0.2594
2.9916 -1.8949 -0.2578
3.0187 -1.8749 -0.2659
3.0443 -1.8619 -0.2695
3.0666 -1.8591 -0.2666
3.0951 -1.8387 -0.2747
3.1154 -1.8412 -0.2686
3.1364 -1.8407 -0.2645
3.1584 -1.8371 -0.2622
3.1864 -1.8196 -0.2684
3.2079 -1.8172 -0.2655
3.2306 -1.8115 -0.2646
3.2555 -1.8015 -0.2662
3.2770 -1.7981 -0.2640
3.3007 -1.7902 -0.2643
3.3244 -1.7824 -0.2647
1.8210 -2.2952 -0.2587
1.8558 -2.2937 -0.2519
1.8789 -2.2861 -0.2522
1.9020 -2.2785 -0.2525
1.9184 -2.2667 -0.2575
1.9464 -2.2621 -0.2545
1.9883 -2.2437 -0.2585
2.0158 -2.2392 -0.2556
2.0365 -2.2296 -0.2579
2.0565 -2.2194 -0.2608
2.0783 -2.2104 -0.2625
2.1197 -2.2186 -0.2471
2.1345 -2.2037 -0.2546
2.1576 -2.1961 -0.2550
2.2011 -2.1781 -0.2583
2.2521 -2.1686 -0.2537
2.3017 -2.1586 -0.2497
2.3472 -2.1436 -0.2504
2.3718 -2.1392 -0.2481
2.4390 -2.1152 -0.2504
2.4617 -2.1077 -0.2508
2.5314 -2.0902 -0.2478
2.5549 -2.0861 -0.2455
2.5748 -2.0686 -0.2538
2.6439 -2.0513 -0.2508
2.6902 -2.0488 -0.2421
2.7568 -2.0141 -0.2524
2.7794 -2.0085 -0.2514
2.8018 -2.0029 -0.2504
2.8255 -1.9815 -0.2608
2.8695 -1.9788 -0.2528
2.9182 -1.9454 -0.2662
2.9674 -1.9174 -0.2756
3.0098 -1.9171 -0.2662
3.0519 -1.9132 -0.2595
3.1902 -1.8640 -0.2642
3.2130 -1.8565 -0.2645
3.2408 -1.8391 -0.2709
3.2662 -1.8271 -0.2740
3.2924 -1.8139 -0.2777
3.3145 -1.8084 -0.2767
1.8494 -2.3337 -0.2510
1.8737 -2.3275 -0.2500
1.8959 -2.3202 -0.2503
1.9220 -2.3152 -0.2479
1.9440 -2.3079 -0.2482
1.9660 -2.3007 -0.2486
1.9899 -2.2946 -0.2475
2.0137 -2.2886 -0.2465
2.0321 -2.2789 -0.2495
2.0438 -2.2642 -0.2580
2.0695 -2.2593 -0.2556
2.0917 -2.2520 -0.2560
2.1170 -2.2473 -0.2536
2.1391 -2.2400 -0.2539
2.1670 -2.2381 -0.2487
2.1903 -2.2322 -0.2477
2.2041 -2.2168 -0.2562
2.2327 -2.2164 -0.2497
2.2521 -2.2064 -0.2528
2.2765 -2.2020 -0.2503
2.2984 -2.1947 -0.2507
2.3171 -2.1832 -0.2551
2.3412 -2.1788 -0.2527
2.3631 -2.1716 -0.2530
2.3887 -2.1704 -0.2478
2.4079 -2.1587 -0.2523
2.4322 -2.1561 -0.2485
2.4517 -2.1442 -0.2529
2.4736 -2.1370 -0.2532
2.4942 -2.1266 -0.2563
2.5174 -2.1226 -0.2539
2.5419 -2.1235 -0.2473
2.5612 -2.1081 -0.2545
2.5827 -2.0992 -0.2562
2.6057 -2.0971 -0.2524
2.6269 -2.0865 -0.2555
2.6501 -2.0879 -0.2489
2.6713 -2.0773 -0.2520
2.6931 -2.0701 -0.2523
2.7151 -2.0682 -0.2485
2.7365 -2.0558 -0.2530
2.7583 -2.0450 -0.2561
2.7801 -2.0378 -0.2564
2.8020 -2.0306 -0.2567
2.8241 -2.0196 -0.2598
2.8455 -2.0180 -0.2559
2.8678 -2.0071 -0.2591
2.8910 -1.9922 -0.2650
2.9127 -1.9868 -0.2639
2.9348 -1.9796 -0.2642
2.9583 -1.9664 -0.2687
2.9805 -1.9591 -0.2691
3.0015 -1.9558 -0.2666
3.0230 -1.9505 -0.2655
3.0444 -1.9453 -0.2644
3.0664 -1.9380 -0.2648
3.0860 -1.9370 -0.2609
3.1070 -1.9319 -0.2598
3.1360 -1.9078 -0.2714
3.1563 -1.9047 -0.2689
3.1764 -1.9017 -0.2664
3.1941 -1.9031 -0.2611
3.2171 -1.8938 -0.2628
3.2424 -1.8800 -0.2674
3.2632 -1.8749 -0.2663
3.2800 -1.8766 -0.2610
1.8511 -2.3570 -0.2592
1.9316 -2.3439 -0.2495
1.9478 -2.3341 -0.2534
1.9672 -2.3259 -0.2551
2.0332 -2.3059 -0.2547
2.0590 -2.3019 -0.2514
2.0743 -2.2906 -0.2567
2.0874 -2.2773 -0.2641
2.1155 -2.2752 -0.2588
2.1323 -2.2643 -0.2634
2.1622 -2.2643 -0.2558
2.1835 -2.2573 -0.2562
2.2242 -2.2412 -0.2589
2.2501 -2.2389 -0.2542
2.3572 -2.2054 -0.2544
2.4447 -2.1828 -0.2506
2.4680 -2.1806 -0.2466
2.5071 -2.1605 -0.2530
2.5287 -2.1552 -0.2518
2.5508 -2.1515 -0.2493
2.5700 -2.1389 -0.2546
2.5917 -2.1344 -0.2528
2.6127 -2.1275 -0.2531
2.6334 -2.1189 -0.2548
2.6552 -2.1171 -0.2508
2.7179 -2.0982 -0.2503
2.7386 -2.0833 -0.2571
2.7596 -2.0746 -0.2589
2.7809 -2.0622 -0.2635
2.8016 -2.0652 -0.2559
2.8229 -2.0555 -0.2584
2.8879 -2.0242 -0.2673
2.9709 -2.0049 -0.2620
2.9932 -1.9940 -0.2652
3.0122 -1.9940 -0.2604
3.0595 -1.9659 -0.2712
3.0781 -1.9660 -0.2665
3.1011 -1.9549 -0.2697
3.1409 -1.9471 -0.2659
3.1595 -1.9455 -0.2626
3.1805 -1.9385 -0.2629
3.2016 -1.9316 -0.2632
3.2480 -1.9100 -0.2690
1.9221 -2.3785 -0.2493
1.9383 -2.3696 -0.2526
1.9662 -2.3667 -0.2477
1.9835 -2.3583 -0.2502
2.0118 -2.3560 -0.2447
2.0340 -2.3505 -0.2435
2.0588 -2.3468 -0.2401
2.0663 -2.3319 -0.2507
2.0858 -2.3246 -0.2517
2.1088 -2.3196 -0.2498
2.1267 -2.3111 -0.2523
2.1400 -2.2987 -0.2593
2.1630 -2.2938 -0.2574
2.1866 -2.2895 -0.2547
2.2107 -2.2861 -0.2513
2.2373 -2.2853 -0.2450
2.2528 -2.2740 -0.2505
2.2737 -2.2679 -0.2500
2.2922 -2.2592 -0.2525
2.3114 -2.2511 -0.2543
2.3358 -2.2493 -0.2494
2.3518 -2.2369 -0.2557
2.3737 -2.2323 -0.2537
2.3932 -2.2241 -0.2555
2.4167 -2.2226 -0.2506
2.4349 -2.2122 -0.2546
2.4560 -2.2070 -0.2535
2.4775 -2.2026 -0.2515
2.4967 -2.1936 -0.2541
2.5157 -2.1837 -0.2573
2.5382 -2.1826 -0.2524
2.5566 -2.1703 -0.2579
2.5792 -2.1708 -0.2515
2.5993 -2.1642 -0.2518
2.6195 -2.1575 -0.2521
2.6407 -2.1559 -0.2479
2.6606 -2.1485 -0.2490
2.6801 -2.1376 -0.2530
2.7000 -2.1275 -0.2563
2.7205 -2.1243 -0.2536
2.7406 -2.1141 -0.2569
2.7609 -2.1020 -0.2617
2.7811 -2.1043 -0.2545
2.8014 -2.0958 -0.2563
2.8209 -2.0965 -0.2506
2.8407 -2.0918 -0.2494
2.8618 -2.0777 -0.2557
2.8827 -2.0672 -0.2590
2.9039 -2.0558 -0.2631
2.9228 -2.0558 -0.2581
2.9460 -2.0375 -0.2674
2.9655 -2.0346 -0.2647
3.0054 -2.0241 -0.2631
3.0258 -2.0174 -0.2634
3.0481 -2.0056 -0.2674
3.0645 -2.0091 -0.2602
3.0869 -1.9973 -0.2643
3.1082 -1.9885 -0.2661
3.1267 -1.9859 -0.2633
3.1455 -1.9824 -0.2614
3.1685 -1.9704 -0.2655
3.1871 -1.9669 -0.2635
3.2074 -1.9602 -0.2638
3.2277 -1.9535 -0.2641
3.2454 -1.9512 -0.2613
1.9431 -2.3929 -0.2565
1.9830 -2.3798 -0.2571
2.0060 -2.3748 -0.2551
2.0299 -2.3705 -0.2524
2.0506 -2.3646 -0.2519
2.0704 -2.3581 -0.2522
2.0892 -2.3510 -0.2532
2.1047 -2.3415 -0.2574
2.1271 -2.3367 -0.2554
2.1453 -2.3289 -0.2572
2.1644 -2.3218 -0.2582
2.1851 -2.3158 -0.2578
2.2503 -2.3014 -0.2525
2.3088 -2.2812 -0.2542
2.3331 -2.2803 -0.2483
2.3515 -2.2725 -0.2501
2.3705 -2.2653 -0.2512
2.3891 -2.2574 -0.2530
2.4097 -2.2524 -0.2518
2.4293 -2.2459 -0.2520
2.4514 -2.2440 -0.2477
2.4735 -2.2428 -0.2426
2.4891 -2.2289 -0.2506
2.5079 -2.2209 -0.2524
2.5303 -2.2215 -0.2458
2.5875 -2.2000 -0.2489
2.6075 -2.1960 -0.2469
2.6257 -2.1847 -0.2518
2.6452 -2.1783 -0.2521
2.6645 -2.1710 -0.2532
2.6841 -2.1655 -0.2527
2.7042 -2.1659 -0.2468
2.7232 -2.1552 -0.2509
2.7425 -2.1436 -0.2559
2.7620 -2.1371 -0.2562
2.7812 -2.1405 -0.2479
2.8010 -2.1270 -0.2544
2.8204 -2.1205 -0.2547
2.8387 -2.1243 -0.2464
2.8605 -2.1003 -0.2615
2.9400 -2.0714 -0.2650
2.9753 -2.0722 -0.2547
2.9957 -2.0628 -0.2573
3.0172 -2.0504 -0.2623
3.0350 -2.0490 -0.2586
3.0557 -2.0395 -0.2613
3.0748 -2.0340 -0.2608
3.0944 -2.0276 -0.2611
3.1350 -2.0116 -0.2640
3.1969 -1.9868 -0.2688
2.5555 -3.7143 -0.2499
2.5750 -3.7080 -0.2502
2.5939 -3.7036 -0.2520
2.6140 -3.6953 -0.2507
2.6342 -3.6861 -0.2487
2.7119 -3.6608 -0.2498
2.7320 -3.6490 -0.2455
2.7510 -3.6454 -0.2481
2.7702 -3.6409 -0.2499
2.7899 -3.6276 -0.2440
2.8091 -3.6257 -0.2481
2.8284 -3.6194 -0.2484
2.8477 -3.6131 -0.2487
2.8673 -3.6102 -0.2520
2.8863 -3.6005 -0.2492
2.9046 -3.5876 -0.2433
2.9242 -3.5838 -0.2459
2.9822 -3.5667 -0.2483
3.0017 -3.5612 -0.2493
3.0201 -3.5526 -0.2473
3.0383 -3.5440 -0.2452
3.0601 -3.5439 -0.2517
3.0784 -3.5353 -0.2496
3.0976 -3.5291 -0.2499
3.1173 -3.5235 -0.2510
3.1361 -3.5165 -0.2505
3.1553 -3.5103 -0.2507
3.1745 -3.5040 -0.2510
3.1927 -3.4963 -0.2497
3.2130 -3.4914 -0.2515
3.2294 -3.4818 -0.2479
3.2515 -3.4789 -0.2521
3.2726 -3.4746 -0.2547
3.2906 -3.4670 -0.2534
3.3099 -3.4608 -0.2537
3.3263 -3.4519 -0.2509
3.3484 -3.4482 -0.2542
3.3677 -3.4419 -0.2545
3.4054 -3.4288 -0.2543
3.4221 -3.4207 -0.2522
3.4438 -3.4162 -0.2548
3.4613 -3.4088 -0.2535
3.4823 -3.4037 -0.2554
3.5025 -3.3980 -0.2564
3.5218 -3.3917 -0.2567
3.5370 -3.3833 -0.2538
3.5572 -3.3776 -0.2549
3.5722 -3.3692 -0.2520
3.5956 -3.3651 -0.2554
3.6136 -3.3583 -0.2549
3.6305 -3.3511 -0.2536
3.6531 -3.3463 -0.2562
2.4227 -3.7940 -0.2541
2.4422 -3.7894 -0.2559
2.4636 -3.7807 -0.2547
2.4831 -3.7761 -0.2565
2.5032 -3.7704 -0.2575
2.5237 -3.7637 -0.2578
2.5460 -3.7521 -0.2544
2.5673 -3.7425 -0.2525
2.5888 -3.7320 -0.2498
2.6079 -3.7293 -0.2531
2.6270 -3.7274 -0.2570
2.6478 -3.7189 -0.2558
2.6682 -3.7123 -0.2561
2.6891 -3.7028 -0.2542
2.7096 -3.6944 -0.2530
2.7302 -3.6851 -0.2511
2.7504 -3.6785 -0.2514
2.7705 -3.6719 -0.2517
2.7907 -3.6654 -0.2519
2.8512 -3.6456 -0.2528
2.8714 -3.6391 -0.2531
2.8915 -3.6325 -0.2534
2.9114 -3.6243 -0.2522
2.9323 -3.6218 -0.2562
2.9522 -3.6136 -0.2550
2.9707 -3.6006 -0.2493
2.9919 -3.5981 -0.2533
3.0101 -3.5860 -0.2484
3.0315 -3.5834 -0.2524
3.0531 -3.5807 -0.2564
3.0747 -3.5772 -0.2597
3.0913 -3.5630 -0.2525
3.1125 -3.5587 -0.2550
3.1347 -3.5559 -0.2590
3.1519 -3.5442 -0.2541
3.1940 -3.5340 -0.2577
3.2168 -3.5309 -0.2617
3.2332 -3.5194 -0.2567
3.2533 -3.5129 -0.2570
3.2686 -3.5009 -0.2513
3.3116 -3.4912 -0.2556
3.3303 -3.4834 -0.2544
3.3524 -3.4788 -0.2569
3.3762 -3.4755 -0.2610
3.3902 -3.4639 -0.2553
3.4519 -3.4456 -0.2576
3.4719 -3.4390 -0.2579
3.4883 -3.4302 -0.2552
3.5272 -3.4166 -0.2550
3.5471 -3.4101 -0.2553
2.5610 -3.7735 -0.2503
2.6030 -3.7598 -0.2509
2.6676 -3.7308 -0.2454
2.6892 -3.7194 -0.2422
2.7105 -3.7081 -0.2389
2.7505 -3.7056 -0.2480
2.7715 -3.6953 -0.2455
2.7923 -3.6858 -0.2436
2.8336 -3.6750 -0.2464
2.9163 -3.6481 -0.2475
2.9577 -3.6346 -0.2481
2.9784 -3.6278 -0.2484
2.9996 -3.6227 -0.2501
3.0209 -3.6175 -0.2519
3.0402 -3.6068 -0.2486
3.0612 -3.6009 -0.2496
3.1015 -3.5851 -0.2480
3.1229 -3.5799 -0.2497
3.1655 -3.5686 -0.2525
3.1853 -3.5604 -0.2513
3.2025 -3.5486 -0.2466
3.2225 -3.5412 -0.2462
3.2469 -3.5395 -0.2515
3.2675 -3.5327 -0.2518
3.2900 -3.5281 -0.2543
3.3095 -3.5199 -0.2531
3.3302 -3.5132 -0.2534
3.3502 -3.5058 -0.2530
3.3694 -3.4978 -0.2518
3.4107 -3.4843 -0.2524
3.4519 -3.4709 -0.2530
3.4750 -3.4660 -0.2554
3.4914 -3.4563 -0.2521
3.5137 -3.4508 -0.2539
3.5325 -3.4429 -0.2527
3.5550 -3.4373 -0.2544
3.5756 -3.4306 -0.2547
3.5942 -3.4228 -0.2536
3.6147 -3.4161 -0.2539
3.6332 -3.4083 -0.2527
3.6580 -3.4037 -0.2559
3.6809 -3.3981 -0.2577
3.6947 -3.3883 -0.2536
3.7152 -3.3816 -0.2539
2.3488 -3.8898 -0.2576
2.3952 -3.8712 -0.2555
2.4173 -3.8640 -0.2558
2.4412 -3.8526 -0.2534
2.4632 -3.8455 -0.2537
2.4828 -3.8444 -0.2581
2.5071 -3.8311 -0.2544
2.5278 -3.8280 -0.2574
2.5492 -3.8227 -0.2591
2.5720 -3.8136 -0.2580
2.5946 -3.8044 -0.2570
2.6176 -3.7934 -0.2546
2.6395 -3.7862 -0.2549
2.6618 -3.7772 -0.2538
2.6837 -3.7700 -0.2541
2.7056 -3.7629 -0.2544
2.7273 -3.7576 -0.2561
2.7494 -3.7486 -0.2551
2.7933 -3.7290 -0.2516
2.8150 -3.7237 -0.2532
2.8371 -3.7254 -0.2604
2.8591 -3.7182 -0.2607
2.8807 -3.7059 -0.2569
2.9023 -3.6970 -0.2558
2.9234 -3.6848 -0.2520
2.9450 -3.6778 -0.2523
2.9663 -3.6690 -0.2513
2.9905 -3.6718 -0.2598
3.0139 -3.6696 -0.2643
3.0333 -3.6543 -0.2577
3.0552 -3.6472 -0.2580
3.0795 -3.6464 -0.2638
3.0968 -3.6283 -0.2545
3.1401 -3.6142 -0.2551
3.1643 -3.6117 -0.2596
3.1834 -3.6001 -0.2557
3.1999 -3.5850 -0.2484
3.2212 -3.5780 -0.2487
3.2517 -3.5832 -0.2608
3.2724 -3.5747 -0.2597
3.2953 -3.5690 -0.2614
3.3159 -3.5605 -0.2603
3.3364 -3.5520 -0.2593
3.3582 -3.5449 -0.2596
3.3813 -3.5392 -0.2613
3.4045 -3.5334 -0.2630
3.4248 -3.5250 -0.2619
3.4451 -3.5166 -0.2608
3.4636 -3.5070 -0.2583
3.4918 -3.5049 -0.2642
3.5068 -3.4929 -0.2589
3.5337 -3.4895 -0.2634
3.5474 -3.4771 -0.2574
3.5652 -3.4677 -0.2549
3.6295 -3.4467 -0.2559
3.6571 -3.4431 -0.2604
3.6724 -3.4328 -0.2565
3.6960 -3.4269 -0.2582
3.7152 -3.4188 -0.2571
3.7390 -3.4128 -0.2588
2.5430 -3.8556 -0.2543
2.7048 -3.7903 -0.2474
2.7728 -3.7601 -0.2424
2.8395 -3.7383 -0.2434
2.8618 -3.7311 -0.2437
2.9502 -3.6987 -0.2423
3.0185 -3.6836 -0.2485
3.0398 -3.6731 -0.2462
3.0633 -3.6690 -0.2492
3.1066 -3.6513 -0.2471
3.1519 -3.6383 -0.2491
3.1708 -3.6250 -0.2441
3.1947 -3.6208 -0.2471
3.2188 -3.6165 -0.2501
3.2391 -3.6063 -0.2477
3.2592 -3.5962 -0.2454
3.2790 -3.5862 -0.2430
3.3034 -3.5818 -0.2460
3.3255 -3.5746 -0.2463
3.3514 -3.5715 -0.2506
3.3750 -3.5657 -0.2523
3.3973 -3.5584 -0.2526
3.4182 -3.5498 -0.2516
3.4419 -3.5438 -0.2532
3.4658 -3.5379 -0.2549
3.4802 -3.5242 -0.2485
3.5056 -3.5195 -0.2515
3.5685 -3.4954 -0.2497
3.5925 -3.4894 -0.2514
3.6089 -3.4787 -0.2477
3.6368 -3.4750 -0.2520
3.6549 -3.4655 -0.2496
3.6790 -3.4594 -0.2513
3.7033 -3.4533 -0.2530
3.7276 -3.4472 -0.2546
3.7498 -3.4399 -0.2549
3.7720 -3.4327 -0.2553
3.7919 -3.4244 -0.2542
2.3888 -3.9498 -0.2549
2.4128 -3.9419 -0.2552
2.4367 -3.9341 -0.2555
2.4607 -3.9263 -0.2559
2.4846 -3.9185 -0.2562
2.5103 -3.9057 -0.2534
2.5331 -3.9009 -0.2556
2.5570 -3.8931 -0.2560
2.5809 -3.8853 -0.2563
2.6048 -3.8776 -0.2567
2.6279 -3.8737 -0.2595
2.6526 -3.8620 -0.2573
2.6776 -3.8475 -0.2533
2.7008 -3.8436 -0.2561
2.7250 -3.8321 -0.2539
2.7490 -3.8215 -0.2524
2.7727 -3.8120 -0.2515
2.7962 -3.8061 -0.2531
2.8199 -3.8075 -0.2597
2.8434 -3.7889 -0.2525
2.8671 -3.7830 -0.2541
2.8910 -3.7780 -0.2563
2.9137 -3.7624 -0.2509
2.9378 -3.7582 -0.2538
2.9617 -3.7522 -0.2554
2.9866 -3.7504 -0.2602
3.0065 -3.7277 -0.2491
3.0321 -3.7275 -0.2551
3.0551 -3.7182 -0.2542
3.0798 -3.7137 -0.2571
3.0999 -3.6972 -0.2504
3.1282 -3.7007 -0.2597
3.1507 -3.6906 -0.2581
3.1756 -3.6852 -0.2603
3.1971 -3.6737 -0.2575
3.2198 -3.6645 -0.2565
3.2467 -3.6621 -0.2613
3.2725 -3.6573 -0.2642
3.2904 -3.6415 -0.2575
3.3111 -3.6302 -0.2547
3.3333 -3.6212 -0.2537
3.3622 -3.6199 -0.2598
3.3871 -3.6136 -0.2614
3.4033 -3.5984 -0.2547
3.4329 -3.5969 -0.2608
3.4565 -3.5892 -0.2611
3.4801 -3.5815 -0.2615
3.4983 -3.5692 -0.2573
3.5273 -3.5661 -0.2621
3.5566 -3.5629 -0.2670
3.5761 -3.5520 -0.2641
3.5980 -3.5431 -0.2631
3.6216 -3.5354 -0.2635
3.6368 -3.5223 -0.2580
3.6534 -3.5106 -0.2538
3.6795 -3.5048 -0.2561
3.7048 -3.4983 -0.2577
3.7301 -3.4919 -0.2593
3.7492 -3.4820 -0.2571
3.7768 -3.4767 -0.2600
3.8024 -3.4701 -0.2616
3.8212 -3.4604 -0.2594
3.8386 -3.4502 -0.2564
2.4726 -3.9661 -0.2560
2.6751 -3.8855 -0.2492
2.7005 -3.8708 -0.2453
2.7982 -3.8326 -0.2424
2.8224 -3.8220 -0.2410
2.8948 -3.7984 -0.2420
2.9193 -3.7932 -0.2441
2.9428 -3.7809 -0.2415
2.9677 -3.7774 -0.2448
3.1865 -3.7079 -0.2491
3.2064 -3.6923 -0.2434
3.2800 -3.6711 -0.2462
3.3041 -3.6632 -0.2466
3.3310 -3.6590 -0.2500
3.3522 -3.6475 -0.2473
3.3776 -3.6411 -0.2488
3.3985 -3.6297 -0.2461
3.4258 -3.6254 -0.2495
3.4521 -3.6196 -0.2517
3.5020 -3.6051 -0.2536
3.5208 -3.5926 -0.2496
3.5505 -3.5893 -0.2543
3.5790 -3.5846 -0.2577
3.5905 -3.5671 -0.2488
3.6189 -3.5625 -0.2522
3.6413 -3.5534 -0.2513
3.6607 -3.5425 -0.2486
3.6846 -3.5347 -0.2489
3.7066 -3.5257 -0.2480
3.7376 -3.5220 -0.2527
3.7638 -3.5153 -0.2543
3.7858 -3.5063 -0.2534
3.8098 -3.4984 -0.2537
3.8339 -3.4906 -0.2541
3.8580 -3.4827 -0.2544
3.8821 -3.4749 -0.2548
2.3264 -4.0654 -0.2563
2.3550 -4.0515 -0.2538
2.3812 -4.0429 -0.2542
2.4061 -4.0376 -0.2563
2.4316 -4.0311 -0.2578
2.4586 -4.0205 -0.2570
2.4848 -4.0119 -0.2574
2.5129 -3.9973 -0.2543
2.5389 -3.9888 -0.2547
2.5643 -3.9833 -0.2568
2.5911 -3.9718 -0.2554
2.6178 -3.9603 -0.2541
2.6432 -3.9548 -0.2562
2.6702 -3.9405 -0.2531
2.6961 -3.9320 -0.2534
2.7222 -3.9217 -0.2527
2.7473 -3.9236 -0.2594
2.7733 -3.9179 -0.2615
2.7997 -3.9038 -0.2584
2.8258 -3.8981 -0.2605
2.8517 -3.8841 -0.2574
2.9032 -3.8627 -0.2552
2.9798 -3.8322 -0.2528
3.0082 -3.8359 -0.2613
3.0356 -3.8325 -0.2652
3.0589 -3.8138 -0.2586
3.0856 -3.8079 -0.2607
3.1101 -3.7953 -0.2582
3.1349 -3.7844 -0.2568
3.1597 -3.7736 -0.2554
3.1865 -3.7676 -0.2575
3.2346 -3.7446 -0.2536
3.2638 -3.7424 -0.2586
3.2935 -3.7401 -0.2636
3.3170 -3.7279 -0.2611
3.3336 -3.7068 -0.2515
3.3653 -3.7066 -0.2583
3.3910 -3.6983 -0.2587
3.4185 -3.6920 -0.2608
3.4462 -3.6858 -0.2629
3.4721 -3.6773 -0.2633
3.4994 -3.6703 -0.2648
3.5253 -3.6619 -0.2652
3.5512 -3.6534 -0.2656
3.5755 -3.6436 -0.2648
3.6054 -3.6385 -0.2681
3.6289 -3.6281 -0.2667
3.6548 -3.6196 -0.2670
3.6737 -3.6061 -0.2627
3.7021 -3.5996 -0.2648
3.7279 -3.5912 -0.2652
3.7479 -3.5792 -0.2620
3.7735 -3.5708 -0.2623
3.8022 -3.5643 -0.2645
3.8143 -3.5484 -0.2571
3.8278 -3.5338 -0.2510
3.8870 -3.5219 -0.2564
3.9122 -3.5137 -0.2568
3.9434 -3.5081 -0.2601
2.3871 -4.1008 -0.2586
2.4086 -4.1087 -0.2678
2.4377 -4.0964 -0.2665
2.4686 -4.0780 -0.2620
2.5294 -4.0405 -0.2524
2.9858 -3.8565 -0.2379
3.0696 -3.8478 -0.2501
3.0947 -3.8340 -0.2472
3.1170 -3.8138 -0.2397
3.1432 -3.8052 -0.2401
3.1723 -3.8032 -0.2449
3.1964 -3.7897 -0.2420
3.2753 -3.7640 -0.2431
3.3030 -3.7578 -0.2451
3.3278 -3.7469 -0.2438
3.3574 -3.7429 -0.2476
3.4019 -3.7153 -0.2405
3.4299 -3.7090 -0.2425
3.4580 -3.7027 -0.2446
3.4842 -3.6941 -0.2450
3.5160 -3.6912 -0.2498
3.5447 -3.6846 -0.2519
3.5712 -3.6760 -0.2523
3.6024 -3.6714 -0.2560
3.6267 -3.6607 -0.2547
3.6533 -3.6520 -0.2551
3.6773 -3.6414 -0.2538
3.7038 -3.6328 -0.2541
3.7276 -3.6222 -0.2528
3.7512 -3.6117 -0.2515
3.7747 -3.6013 -0.2502
3.7960 -3.5897 -0.2477
3.8252 -3.5830 -0.2498
3.8567 -3.5774 -0.2530
3.8744 -3.5642 -0.2488
3.9039 -3.5574 -0.2509
3.9301 -3.5488 -0.2513
3.9494 -3.5369 -0.2482
3.9826 -3.5317 -0.2520
2.3070 -4.1913 -0.2610
2.3375 -4.1786 -0.2598
2.3683 -4.1648 -0.2582
2.4011 -4.1447 -0.2534
2.4285 -4.1396 -0.2559
2.4587 -4.1260 -0.2542
2.4896 -4.1094 -0.2510
2.5162 -4.1072 -0.2550
2.5440 -4.1019 -0.2575
2.5738 -4.0885 -0.2558
2.6026 -4.0791 -0.2562
2.6307 -4.0737 -0.2587
2.6601 -4.0604 -0.2571
2.6889 -4.0510 -0.2575
2.7179 -4.0387 -0.2563
2.7464 -4.0322 -0.2583
2.7752 -4.0229 -0.2587
2.8040 -4.0107 -0.2575
2.8326 -3.9976 -0.2558
2.8614 -3.9920 -0.2583
2.8903 -3.9854 -0.2603
2.9188 -3.9733 -0.2591
2.9475 -3.9639 -0.2596
3.0041 -3.9417 -0.2583
3.0321 -3.9298 -0.2571
3.0899 -3.9138 -0.2595
3.1185 -3.9044 -0.2599
3.1723 -3.8775 -0.2554
3.2032 -3.8740 -0.2595
3.2278 -3.8566 -0.2546
3.2561 -3.8474 -0.2550
3.2874 -3.8438 -0.2591
3.3172 -3.8369 -0.2611
3.3423 -3.8222 -0.2578
3.3742 -3.8183 -0.2619
3.4011 -3.8067 -0.2607
3.4255 -3.7922 -0.2574
3.4496 -3.7778 -0.2541
3.4820 -3.7738 -0.2582
3.5102 -3.7646 -0.2586
3.5364 -3.7533 -0.2574
3.5689 -3.7483 -0.2610
3.6023 -3.7440 -0.2652
3.6331 -3.7368 -0.2672
3.6570 -3.7234 -0.2644
3.6903 -3.7181 -0.2680
3.7163 -3.7068 -0.2668
3.7509 -3.7021 -0.2709
3.7707 -3.6863 -0.2660
3.7991 -3.6770 -0.2664
3.8209 -3.6634 -0.2630
3.8424 -3.6498 -0.2596
3.8744 -3.6431 -0.2622
3.9128 -3.6400 -0.2680
3.9307 -3.6248 -0.2630
3.9417 -3.6062 -0.2547
3.9650 -3.5949 -0.2530
3.9893 -3.5842 -0.2517
2.2807 -4.2691 -0.2628
2.3151 -4.2503 -0.2593
2.3518 -4.2242 -0.2524
2.4392 -4.2061 -0.2591
2.4698 -4.1961 -0.2595
2.5015 -4.1820 -0.2580
3.3556 -3.8461 -0.2397
3.3876 -3.8413 -0.2432
3.4188 -3.8349 -0.2456
3.4497 -3.8277 -0.2475
3.4789 -3.8182 -0.2479
3.5151 -3.8168 -0.2539
3.5374 -3.7991 -0.2488
3.5666 -3.7896 -0.2492
3.5866 -3.7708 -0.2430
3.6280 -3.7734 -0.2520
3.6489 -3.7562 -0.2469
3.6835 -3.7515 -0.2508
3.7127 -3.7420 -0.2512
3.7419 -3.7325 -0.2517
3.7746 -3.7256 -0.2541
3.8004 -3.7134 -0.2525
3.8333 -3.7065 -0.2549
3.8560 -3.6925 -0.2518
3.8851 -3.6830 -0.2522
3.9143 -3.6735 -0.2526
3.9393 -3.6616 -0.2510
3.9909 -3.6391 -0.2487
4.0154 -3.6273 -0.2471
4.0487 -3.6203 -0.2495
4.0810 -3.6125 -0.2515
2.2557 -4.3455 -0.2603
2.2882 -4.3349 -0.2608
2.3244 -4.3145 -0.2571
2.3597 -4.2954 -0.2538
2.3918 -4.2849 -0.2542
2.4239 -4.2745 -0.2547
2.4572 -4.2598 -0.2533
2.4892 -4.2494 -0.2537
2.5225 -4.2338 -0.2518
2.5870 -4.2090 -0.2509
2.6194 -4.1946 -0.2495
2.6505 -4.1883 -0.2518
2.6823 -4.1779 -0.2522
2.7144 -4.1636 -0.2508
2.7458 -4.1572 -0.2531
2.7774 -4.1507 -0.2555
2.8094 -4.1289 -0.2503
2.8411 -4.1261 -0.2545
2.8727 -4.1120 -0.2530
2.9046 -4.1054 -0.2554
2.9368 -4.0988 -0.2577
2.9693 -4.0929 -0.2605
3.0006 -4.0780 -0.2586
3.0324 -4.0676 -0.2591
3.0653 -4.0616 -0.2619
3.0983 -4.0547 -0.2642
3.1270 -4.0330 -0.2585
3.1576 -4.0192 -0.2571
3.1905 -4.0123 -0.2594
3.2209 -3.9986 -0.2580
3.2541 -3.9916 -0.2603
3.3176 -3.9709 -0.2612
3.3494 -3.9605 -0.2617
3.3793 -3.9470 -0.2602
3.4109 -3.9367 -0.2607
3.4426 -3.9263 -0.2611
3.4742 -3.9160 -0.2616
3.5036 -3.9027 -0.2601
3.5351 -3.8924 -0.2605
3.5642 -3.8791 -0.2591
3.5930 -3.8659 -0.2576
3.6353 -3.8674 -0.2657
3.6614 -3.8512 -0.2623
3.6900 -3.8381 -0.2609
3.7245 -3.8307 -0.2632
3.7592 -3.8232 -0.2656
3.7909 -3.8129 -0.2661
3.8225 -3.8025 -0.2665
3.8542 -3.7922 -0.2669
3.8858 -3.7819 -0.2674
3.9175 -3.7716 -0.2678
3.9530 -3.7639 -0.2702
3.9847 -3.7535 -0.2707
4.0165 -3.7431 -0.2711
4.0575 -3.7384 -0.2760
4.0758 -3.7200 -0.2701
4.0945 -3.7025 -0.2647
4.1214 -3.6899 -0.2632
4.1390 -3.6728 -0.2578
4.1792 -3.6673 -0.2621
2.1766 -4.4808 -0.2724
2.2120 -4.4693 -0.2729
2.2537 -4.4413 -0.2668
2.3551 -4.3266 -0.2305
2.3861 -4.3213 -0.2331
2.4367 -4.3538 -0.2565
2.4736 -4.3322 -0.2526
2.7112 -4.2500 -0.2537
3.2020 -4.0430 -0.2389
3.3620 -3.9860 -0.2390
3.4292 -3.9690 -0.2421
3.5535 -3.9198 -0.2399
3.5915 -3.9161 -0.2444
3.6266 -3.9085 -0.2467
3.6564 -3.8949 -0.2454
3.6888 -3.8843 -0.2458
3.7272 -3.8795 -0.2499
3.7568 -3.8660 -0.2486
3.7862 -3.8526 -0.2472
3.8145 -3.8386 -0.2454
3.8469 -3.8280 -0.2458
3.8949 -3.8297 -0.2545
3.9160 -3.8103 -0.2490
3.9485 -3.7997 -0.2495
3.9886 -3.7944 -0.2536
4.0173 -3.7812 -0.2522
4.0499 -3.7705 -0.2527
4.0783 -3.7574 -0.2513
4.1519 -3.7411 -0.2559
4.1801 -3.7281 -0.2546
4.2081 -3.7151 -0.2532
4.2406 -3.7046 -0.2536
2.1621 -4.5328 -0.2522
2.1985 -4.5210 -0.2527
2.2462 -4.4793 -0.2421
2.3056 -4.4019 -0.2179
2.3532 -4.3505 -0.2032
2.3475 -4.4618 -0.2502
2.3785 -4.4672 -0.2573
2.4150 -4.4553 -0.2579
2.4543 -4.4318 -0.2538
2.4917 -4.4148 -0.2523
2.5277 -4.4031 -0.2528
2.5990 -4.3847 -0.2559
2.6366 -4.3618 -0.2518
2.6730 -4.3451 -0.2503
2.7134 -4.2738 -0.2258
2.7799 -4.3209 -0.2564
2.8160 -4.3140 -0.2590
2.8523 -4.3079 -0.2620
2.8880 -4.2857 -0.2579
2.9241 -4.2739 -0.2584
2.9953 -4.2449 -0.2569
3.0304 -4.2286 -0.2553
3.0671 -4.2215 -0.2579
3.1019 -4.2053 -0.2563
3.1403 -4.2035 -0.2615
3.1747 -4.1864 -0.2594
3.2123 -4.1800 -0.2625
3.2500 -4.1726 -0.2651
3.2823 -4.1514 -0.2610
3.3126 -4.1270 -0.2551
3.3457 -4.1104 -0.2531
3.3878 -4.1122 -0.2604
3.4190 -4.0923 -0.2566
3.4545 -4.0807 -0.2572
3.4900 -4.0692 -0.2577
3.5255 -4.0576 -0.2582
3.5610 -4.0461 -0.2587
3.5929 -4.0298 -0.2566
3.6160 -4.0029 -0.2486
3.6738 -4.0190 -0.2644
3.6989 -3.9953 -0.2581
3.7169 -3.9652 -0.2479
3.7480 -3.9503 -0.2463
3.7974 -3.9535 -0.2553
3.8401 -3.9493 -0.2601
3.8802 -3.9420 -0.2632
3.9239 -3.9375 -0.2680
3.9597 -3.9258 -0.2685
3.9814 -3.9032 -0.2621
4.0222 -3.8958 -0.2652
4.0623 -3.8875 -0.2678
4.0931 -3.8727 -0.2662
4.1335 -3.8643 -0.2689
4.1741 -3.8559 -0.2715
4.2099 -3.8443 -0.2720
4.2350 -3.8264 -0.2682
4.2585 -3.8081 -0.2640
4.3060 -3.8033 -0.2692
4.3346 -3.7882 -0.2671
4.3828 -3.7831 -0.2724
4.4184 -3.7715 -0.2729
2.1579 -4.6416 -0.2539
2.2099 -4.5945 -0.2426
2.3568 -4.5642 -0.2517
2.7162 -4.2919 -0.1947
2.7805 -4.4632 -0.2725
2.8202 -4.4503 -0.2731
2.8594 -4.4248 -0.2686
3.1301 -4.3180 -0.2650
3.1689 -4.3054 -0.2655
3.6686 -4.0743 -0.2453
3.7126 -4.0707 -0.2502
3.7351 -4.0419 -0.2419
3.7676 -4.0254 -0.2400
3.8040 -4.0135 -0.2406
3.8449 -4.0061 -0.2435
3.8901 -4.0021 -0.2484
3.9270 -3.9901 -0.2489
3.9639 -3.9780 -0.2495
4.0050 -3.9695 -0.2520
4.0324 -3.9499 -0.2481
4.0746 -3.9420 -0.2510
4.1115 -3.9299 -0.2516
4.1427 -3.9139 -0.2497
4.1794 -3.9020 -0.2502
4.2050 -3.8829 -0.2462
4.2529 -3.8780 -0.2512
4.2897 -3.8660 -0.2517
4.3263 -3.8219 -0.2394
4.4068 -3.8337 -0.2557
4.4179 -3.8086 -0.2473
2.1679 -4.7277 -0.2433
2.4105 -4.6625 -0.2518
2.4519 -4.6490 -0.2524
2.6741 -4.4260 -0.1999
2.8244 -4.5000 -0.2475
2.8658 -4.5072 -0.2557
2.9070 -4.4938 -0.2563
2.9507 -4.5071 -0.2671
2.9903 -4.4736 -0.2600
3.0307 -4.4535 -0.2581
3.0708 -4.4335 -0.2561
3.1105 -4.4137 -0.2541
3.1544 -4.4132 -0.2598
3.1973 -4.4061 -0.2630
3.2368 -4.3863 -0.2610
3.2739 -4.3605 -0.2564
3.3193 -4.3595 -0.2622
3.3630 -4.3521 -0.2653
3.4044 -4.3386 -0.2659
3.4458 -4.3251 -0.2665
3.4842 -4.3057 -0.2645
3.5254 -4.2923 -0.2651
3.5565 -4.2615 -0.2579
3.6007 -4.2540 -0.2611
3.6416 -4.2407 -0.2616
3.6903 -4.2386 -0.2674
3.7315 -4.2251 -0.2680
3.7641 -4.2007 -0.2634
3.8050 -4.1874 -0.2640
3.8365 -4.1634 -0.2593
3.8818 -4.1555 -0.2625
3.9175 -4.1370 -0.2605
3.9737 -4.1393 -0.2689
4.0093 -4.1209 -0.2668
4.0389 -4.0974 -0.2622
4.0794 -4.0842 -0.2628
4.1139 -4.0661 -0.2607
4.1427 -4.0439 -0.2564
4.2008 -4.0447 -0.2645
4.2479 -4.0362 -0.2677
4.2818 -4.0183 -0.2656
4.3223 -4.0051 -0.2662
4.3628 -3.9919 -0.2668
4.3762 -3.9619 -0.2575
4.4160 -3.9490 -0.2581
4.4956 -3.9230 -0.2592
4.5652 -3.9259 -0.2696
4.5670 -3.8929 -0.2577
2.4300 -4.7815 -0.2485
2.4744 -4.7670 -0.2491
2.6751 -4.4656 -0.1718
2.7849 -4.6986 -0.2646
2.9157 -4.5756 -0.2392
2.9589 -4.5616 -0.2398
3.0123 -4.6324 -0.2705
3.0532 -4.5864 -0.2600
3.3990 -4.4420 -0.2541
3.4455 -4.4338 -0.2572
3.5562 -4.3521 -0.2432
3.6024 -4.3440 -0.2462
3.6418 -4.3242 -0.2444
3.6764 -4.2980 -0.2399
3.7188 -4.2842 -0.2405
3.7653 -4.2760 -0.2435
4.0101 -4.1823 -0.2423
4.0461 -4.1627 -0.2401
4.1057 -4.1651 -0.2483
4.1674 -4.1678 -0.2569
4.2466 -4.1340 -0.2554
4.2696 -4.1047 -0.2483
4.2913 -4.0758 -0.2412
4.3331 -4.0622 -0.2418
4.4511 -4.0168 -0.2411
4.5644 -4.0464 -0.2653
4.5902 -4.0221 -0.2602
4.6332 -4.0081 -0.2608
4.6945 -4.0040 -0.2671
4.7379 -3.9898 -0.2677
4.7812 -3.9757 -0.2683
