ply
format ascii 1.0
element vertex 2081
property float x
property float y
property float z
end_header
0.8302 -2.7517 -0.0315
0.7245 -2.6501 -0.1559
0.7474 -2.6516 -0.1797
0.8069 -2.6809 -0.1787
0.8650 -2.7107 -0.1748
0.9128 -2.7340 -0.1744
1.0332 -2.7929 -0.1733
1.0656 -2.8082 -0.1743
1.0973 -2.8238 -0.1737
1.1276 -2.8391 -0.1722
1.1538 -2.8516 -0.1728
1.2071 -2.8799 -0.1669
1.2226 -2.8843 -0.1748
1.2657 -2.9068 -0.1706
1.2838 -2.9155 -0.1708
1.2985 -2.9211 -0.1746
1.3147 -2.9288 -0.1750
1.3310 -2.9373 -0.1736
1.3475 -2.9466 -0.1704
1.3604 -2.9521 -0.1723
1.3858 -2.9640 -0.1732
1.3998 -2.9726 -0.1690
1.4120 -2.9792 -0.1672
1.4210 -2.9818 -0.1716
0.9007 -3.0494 0.5688
0.8993 -3.0431 0.5544
0.9025 -3.0385 0.5386
0.9036 -3.0329 0.5231
0.8928 -3.0099 0.4767
0.8988 -3.0058 0.4592
0.9008 -2.9999 0.4419
0.9049 -2.9948 0.4241
0.8948 -2.9690 0.3696
0.8986 -2.9632 0.3504
0.9073 -2.9597 0.3313
0.9161 -2.9563 0.3122
0.9307 -2.9557 0.2937
0.9432 -2.9541 0.2753
0.9388 -2.9439 0.2542
0.9255 -2.9287 0.2306
0.9391 -2.9276 0.2118
0.8085 -2.7914 0.0149
0.8201 -2.7868 -0.0103
0.6944 -2.6641 -0.1786
0.7561 -2.6918 -0.1794
0.8087 -2.7145 -0.1823
0.8616 -2.7389 -0.1815
0.9919 -2.7984 -0.1808
1.0614 -2.8298 -0.1811
1.1236 -2.8590 -0.1787
1.1533 -2.8737 -0.1755
1.1797 -2.8864 -0.1737
1.1970 -2.8915 -0.1808
1.2204 -2.9027 -0.1792
1.2456 -2.9167 -0.1729
1.2660 -2.9265 -0.1713
1.2829 -2.9335 -0.1730
1.2994 -2.9407 -0.1740
1.3161 -2.9486 -0.1732
1.3336 -2.9579 -0.1696
1.3462 -2.9623 -0.1730
1.3591 -2.9675 -0.1748
1.3749 -2.9766 -0.1698
1.3861 -2.9807 -0.1723
1.3991 -2.9875 -0.1700
1.4113 -2.9938 -0.1681
1.4203 -2.9962 -0.1724
0.8817 -3.0673 0.5836
0.8837 -3.0624 0.5683
0.8857 -3.0574 0.5528
0.8825 -3.0446 0.5224
0.8762 -3.0363 0.5074
0.8790 -3.0311 0.4905
0.8807 -3.0254 0.4734
0.8858 -3.0209 0.4557
0.8868 -3.0148 0.4382
0.8775 -3.0044 0.4210
0.8748 -2.9963 0.4027
0.8784 -2.9908 0.3838
0.8852 -2.9864 0.3646
0.8901 -2.9812 0.3453
0.8960 -2.9764 0.3259
0.9049 -2.9729 0.3065
0.9157 -2.9703 0.2874
0.9312 -2.9699 0.2690
0.9165 -2.9550 0.2458
0.9127 -2.9450 0.2235
0.8122 -2.8655 0.1252
0.7976 -2.8472 0.0931
0.7967 -2.8360 0.0643
0.8081 -2.8315 0.0395
0.8195 -2.8270 0.0146
0.8259 -2.8195 -0.0125
0.9167 -2.7952 -0.1793
1.0013 -2.8322 -0.1762
1.0353 -2.8461 -0.1775
1.0657 -2.8581 -0.1798
1.1009 -2.8748 -0.1752
1.1238 -2.8823 -0.1808
1.1852 -2.9127 -0.1692
1.2070 -2.9215 -0.1704
1.2270 -2.9293 -0.1721
1.2670 -2.9466 -0.1710
1.3009 -2.9605 -0.1724
1.3171 -2.9674 -0.1723
1.3334 -2.9750 -0.1704
1.3578 -2.9828 -0.1773
1.3747 -2.9926 -0.1700
1.3854 -2.9959 -0.1735
1.3990 -3.0029 -0.1700
1.4097 -3.0070 -0.1713
1.4207 -3.0117 -0.1710
0.8671 -3.0870 0.5974
0.8551 -3.0669 0.5549
0.8519 -3.0601 0.5396
0.8568 -3.0558 0.5223
0.8585 -3.0503 0.5054
0.8635 -3.0459 0.4878
0.8546 -3.0302 0.4540
0.8527 -3.0229 0.4360
0.8562 -3.0175 0.4172
0.8599 -3.0121 0.3982
0.8955 -2.9908 0.3009
0.9064 -2.9881 0.2816
0.9153 -2.9846 0.2621
0.8989 -2.9694 0.2381
0.8859 -2.9553 0.2133
0.8129 -2.8831 0.0930
0.7760 -2.8536 0.0515
0.7919 -2.8513 0.0279
0.8527 -2.8634 -0.0047
0.9122 -2.8768 -0.0322
1.0781 -2.9316 -0.0610
1.0876 -2.9286 -0.0795
1.0890 -2.9200 -0.1048
1.0943 -2.9139 -0.1274
1.1047 -2.9114 -0.1455
1.1108 -2.9058 -0.1677
1.1308 -2.9107 -0.1757
1.1611 -2.9244 -0.1709
1.1841 -2.9330 -0.1722
1.2053 -2.9407 -0.1740
1.2292 -2.9513 -0.1707
1.2501 -2.9599 -0.1695
1.2692 -2.9676 -0.1690
1.2818 -2.9698 -0.1765
1.2984 -2.9761 -0.1771
1.3321 -2.9908 -0.1730
1.3593 -3.0009 -0.1746
1.3740 -3.0079 -0.1713
1.3874 -3.0139 -0.1693
1.3988 -3.0182 -0.1699
1.4096 -3.0220 -0.1711
1.4196 -3.0253 -0.1729
1.4298 -3.0292 -0.1731
0.8433 -3.1098 0.6287
0.8330 -3.0913 0.5865
0.8331 -3.0859 0.5707
0.8322 -3.0800 0.5549
0.8262 -3.0607 0.5055
0.8239 -3.0538 0.4883
0.8273 -3.0486 0.4698
0.8307 -3.0434 0.4512
0.8889 -2.9956 0.2534
0.8566 -2.9742 0.2255
0.8682 -2.9712 0.2047
0.2934 -2.6603 -0.0889
0.7653 -2.8667 0.0120
0.7908 -2.8690 -0.0079
0.7891 -2.8573 -0.0398
0.7885 -2.8459 -0.0721
0.7875 -2.8338 -0.1055
0.7612 -2.8070 -0.1551
0.7906 -2.8117 -0.1724
0.8368 -2.8268 -0.1770
0.8904 -2.8475 -0.1734
1.0865 -2.9409 -0.1098
1.1004 -2.9408 -0.1245
1.1078 -2.9363 -0.1451
1.1181 -2.9338 -0.1629
1.1386 -2.9389 -0.1697
1.1628 -2.9472 -0.1711
1.1878 -2.9567 -0.1697
1.2076 -2.9629 -0.1728
1.2290 -2.9707 -0.1724
1.2473 -2.9767 -0.1745
1.2690 -2.9860 -0.1703
1.3029 -2.9982 -0.1707
1.3138 -2.9993 -0.1788
1.3325 -3.0082 -0.1727
1.3463 -3.0129 -0.1736
1.3625 -3.0205 -0.1688
1.3739 -3.0237 -0.1714
1.3857 -3.0276 -0.1725
1.3972 -3.0316 -0.1731
1.4095 -3.0368 -0.1708
-1.5157 -2.6773 1.6247
-1.4641 -2.6705 1.5529
0.8061 -3.0309 0.3687
0.8115 -3.0257 0.3479
0.8211 -3.0219 0.3270
0.8327 -3.0189 0.3064
0.8442 -3.0158 0.2859
0.8576 -3.0136 0.2657
0.8402 -2.9994 0.2407
0.8358 -2.9899 0.2166
0.8317 -2.9802 0.1918
0.2999 -2.7071 -0.0948
0.7848 -2.8952 -0.0156
0.6848 -2.8109 -0.1679
0.7973 -2.8468 -0.1728
0.8956 -2.8792 -0.1736
0.9678 -2.9003 -0.1826
1.0913 -2.9573 -0.1354
1.1067 -2.9580 -0.1486
1.1127 -2.9526 -0.1706
1.1416 -2.9629 -0.1686
1.1604 -2.9668 -0.1757
1.1854 -2.9756 -0.1742
1.2073 -2.9828 -0.1747
1.2332 -2.9935 -0.1683
1.2515 -2.9991 -0.1700
1.2700 -3.0053 -0.1699
1.2857 -3.0096 -0.1726
1.3040 -3.0166 -0.1698
1.3189 -3.0212 -0.1710
1.3312 -3.0239 -0.1753
1.3439 -3.0271 -0.1782
1.3613 -3.0353 -0.1711
1.3733 -3.0388 -0.1727
1.3845 -3.0418 -0.1747
1.3976 -3.0472 -0.1718
1.4094 -3.0515 -0.1705
1.4174 -3.0521 -0.1767
0.8172 -3.0151 0.2318
0.8006 -3.0014 0.2047
0.1086 -2.7023 -0.0716
0.7558 -2.9213 -0.0024
0.6289 -2.8301 -0.1661
0.6743 -2.8397 -0.1792
0.7970 -2.8775 -0.1777
0.8993 -2.9095 -0.1749
0.9768 -2.9318 -0.1786
1.1059 -2.9707 -0.1799
1.1433 -2.9856 -0.1689
1.1682 -2.9932 -0.1689
1.2103 -3.0048 -0.1726
1.2278 -3.0088 -0.1767
1.2507 -3.0171 -0.1723
1.2698 -3.0233 -0.1712
1.2880 -3.0292 -0.1700
1.3206 -3.0395 -0.1688
1.3346 -3.0434 -0.1700
1.3483 -3.0474 -0.1705
1.3595 -3.0495 -0.1745
1.3710 -3.0522 -0.1770
1.3845 -3.0570 -0.1747
1.3965 -3.0610 -0.1738
1.4093 -3.0661 -0.1701
1.4188 -3.0681 -0.1727
1.4291 -3.0713 -0.1725
0.7607 -3.1457 0.6220
0.7488 -3.0470 0.3118
0.7612 -3.0435 0.2895
0.7735 -3.0401 0.2673
0.7652 -3.0301 0.2422
0.7718 -3.0247 0.2187
0.1333 -2.7591 -0.0736
0.7703 -2.9470 -0.0322
0.6206 -2.8615 -0.1762
0.6737 -2.8734 -0.1850
0.8485 -2.9224 -0.1819
0.9086 -2.9420 -0.1719
0.9488 -2.9527 -0.1732
0.9859 -2.9625 -0.1744
1.0569 -2.9827 -0.1723
1.0879 -2.9914 -0.1717
1.1140 -2.9979 -0.1740
1.1465 -3.0088 -0.1676
1.1686 -3.0140 -0.1703
1.2128 -3.0260 -0.1711
1.2328 -3.0313 -0.1716
1.2499 -3.0351 -0.1746
1.2860 -3.0453 -0.1738
1.3163 -3.0528 -0.1763
1.3322 -3.0578 -0.1745
1.3471 -3.0623 -0.1729
1.3600 -3.0656 -0.1737
1.3731 -3.0695 -0.1728
1.3855 -3.0730 -0.1724
1.3959 -3.0752 -0.1747
1.4093 -3.0804 -0.1697
1.4182 -3.0818 -0.1734
0.6659 -3.0981 0.4640
0.6844 -3.0827 0.3964
0.6845 -3.0760 0.3734
0.2116 -2.8320 -0.0590
0.6417 -2.9051 -0.1706
0.6797 -2.9096 -0.1869
0.7488 -2.9281 -0.1822
0.8052 -2.9422 -0.1814
0.9070 -2.9686 -0.1769
1.0193 -2.9956 -0.1794
1.0556 -3.0055 -0.1762
1.0853 -3.0126 -0.1768
1.1165 -3.0211 -0.1738
1.1413 -3.0268 -0.1753
1.1683 -3.0343 -0.1725
1.1873 -3.0376 -0.1773
1.2099 -3.0435 -0.1762
1.2294 -3.0479 -0.1774
1.2536 -3.0558 -0.1707
1.2689 -3.0585 -0.1745
1.2865 -3.0630 -0.1739
1.3031 -3.0672 -0.1734
1.3186 -3.0712 -0.1731
1.3321 -3.0739 -0.1750
1.3465 -3.0777 -0.1743
1.3599 -3.0811 -0.1739
1.3753 -3.0865 -0.1685
1.3860 -3.0883 -0.1712
1.3980 -3.0917 -0.1700
1.4077 -3.0932 -0.1728
1.4177 -3.0953 -0.1740
-1.3682 -2.8664 1.1222
-1.3389 -2.8548 1.0584
-1.3925 -2.8132 0.9521
0.2802 -2.8847 -0.0896
0.7817 -3.0089 -0.0369
0.6343 -2.9364 -0.1802
0.6857 -2.9452 -0.1887
0.7542 -2.9616 -0.1837
0.8227 -2.9792 -0.1743
0.8649 -2.9871 -0.1788
0.9520 -3.0064 -0.1777
1.0285 -3.0241 -0.1742
1.0936 -3.0392 -0.1711
1.1218 -3.0455 -0.1705
1.1403 -3.0473 -0.1785
1.1702 -3.0555 -0.1723
1.1864 -3.0569 -0.1800
1.2137 -3.0648 -0.1729
1.2358 -3.0704 -0.1704
1.2720 -3.0781 -0.1711
1.2858 -3.0798 -0.1758
1.3030 -3.0840 -0.1742
1.3180 -3.0871 -0.1747
1.3315 -3.0895 -0.1765
1.3476 -3.0942 -0.1725
1.3605 -3.0969 -0.1730
1.3731 -3.0996 -0.1729
1.3854 -3.1025 -0.1721
1.3980 -3.1060 -0.1696
1.4066 -3.1064 -0.1747
1.4177 -3.1092 -0.1734
1.4275 -3.1112 -0.1741
-1.3110 -2.9434 1.0899
-1.3923 -2.9177 1.0520
-1.4797 -2.8901 1.0111
-1.5230 -2.8674 0.9575
0.2029 -3.0782 0.5203
-0.1535 -2.8194 -0.1899
-0.0173 -2.8427 -0.1998
0.3976 -2.9491 -0.0976
0.6481 -2.9751 -0.1782
0.7621 -2.9953 -0.1835
0.8728 -3.0181 -0.1772
0.9133 -3.0251 -0.1797
0.9529 -3.0325 -0.1804
1.0227 -3.0453 -0.1823
1.0658 -3.0562 -0.1720
1.0940 -3.0612 -0.1732
1.1421 -3.0690 -0.1785
1.1727 -3.0768 -0.1713
1.1937 -3.0803 -0.1730
1.2156 -3.0847 -0.1721
1.2370 -3.0893 -0.1701
1.2739 -3.0965 -0.1695
1.2888 -3.0986 -0.1721
1.3017 -3.0998 -0.1769
1.3344 -3.1074 -0.1718
1.3605 -3.1120 -0.1731
1.3865 -3.1178 -0.1697
1.3975 -3.1197 -0.1704
1.4082 -3.1217 -0.1707
1.4187 -3.1238 -0.1704
1.4275 -3.1247 -0.1733
-1.3261 -3.0240 1.1308
-1.3624 -3.0062 1.0841
-1.3711 -2.9757 0.9707
-0.9525 -2.7384 -0.2214
-0.1721 -2.8835 -0.1506
-0.0538 -2.8981 -0.1687
0.0530 -2.9113 -0.1848
0.6544 -3.0103 -0.1801
0.7692 -3.0281 -0.1837
0.8281 -3.0388 -0.1793
0.8929 -3.0525 -0.1668
0.9624 -3.0614 -0.1763
1.0336 -3.0732 -0.1755
1.0936 -3.0828 -0.1760
1.1490 -3.0925 -0.1731
1.1725 -3.0963 -0.1733
1.1963 -3.1006 -0.1715
1.2155 -3.1032 -0.1737
1.2362 -3.1069 -0.1724
1.2552 -3.1101 -0.1719
1.2725 -3.1128 -0.1723
1.2901 -3.1160 -0.1710
1.3091 -3.1204 -0.1659
1.3179 -3.1193 -0.1758
1.3338 -3.1226 -0.1732
1.3476 -3.1249 -0.1730
1.3645 -3.1295 -0.1656
1.3737 -3.1295 -0.1716
1.3860 -3.1317 -0.1706
1.3964 -3.1330 -0.1723
1.4067 -3.1343 -0.1737
1.4177 -3.1365 -0.1722
1.4260 -3.1368 -0.1762
-1.1912 -3.1015 1.0794
-1.2026 -3.0878 1.0292
-1.4021 -3.0435 0.9584
-0.9524 -2.8312 -0.1627
-0.8820 -2.8268 -0.2201
-0.1703 -2.9508 -0.1063
-0.1587 -2.9400 -0.1572
-0.0505 -2.9497 -0.1775
0.2132 -2.9840 -0.1833
0.6804 -3.0502 -0.1709
0.7188 -3.0521 -0.1844
0.7848 -3.0625 -0.1784
0.8436 -3.0718 -0.1730
0.8897 -3.0781 -0.1729
0.9269 -3.0822 -0.1767
0.9681 -3.0882 -0.1750
1.0014 -3.0921 -0.1773
1.0324 -3.0958 -0.1794
1.0658 -3.1008 -0.1773
1.0978 -3.1059 -0.1743
1.1203 -3.1078 -0.1788
1.1523 -3.1140 -0.1714
1.1703 -3.1149 -0.1777
1.1941 -3.1186 -0.1758
1.2140 -3.1210 -0.1770
1.2375 -3.1254 -0.1720
1.2532 -3.1266 -0.1758
1.2706 -3.1288 -0.1762
1.3004 -3.1319 -0.1803
1.3204 -3.1365 -0.1723
1.3338 -3.1380 -0.1736
1.3464 -3.1393 -0.1753
1.3605 -3.1417 -0.1732
1.3743 -3.1443 -0.1704
1.3844 -3.1448 -0.1737
1.3954 -3.1462 -0.1742
1.4078 -3.1487 -0.1708
1.4162 -3.1488 -0.1751
1.4275 -3.1512 -0.1717
-1.0764 -3.1830 1.0842
-1.1991 -3.1650 1.0642
-1.2105 -3.1522 1.0139
-1.2439 -3.1376 0.9666
-1.4108 -3.1137 0.9417
-0.7972 -2.9129 -0.2146
-0.5277 -2.9424 -0.2131
-0.1746 -2.9901 -0.1724
0.2281 -3.0307 -0.1855
0.6929 -3.0849 -0.1690
0.7413 -3.0886 -0.1757
0.7788 -3.0902 -0.1867
0.8378 -3.0979 -0.1811
0.8866 -3.1036 -0.1790
0.9183 -3.1053 -0.1868
1.0079 -3.1178 -0.1748
1.0708 -3.1245 -0.1752
1.1222 -3.1292 -0.1789
1.1536 -3.1342 -0.1720
1.1772 -3.1369 -0.1715
1.2180 -3.1409 -0.1734
1.2381 -3.1433 -0.1725
1.2551 -3.1447 -0.1742
1.2901 -3.1488 -0.1726
1.3048 -3.1501 -0.1741
1.3229 -3.1533 -0.1687
1.3363 -3.1545 -0.1697
1.3459 -3.1540 -0.1765
1.3600 -3.1561 -0.1743
1.3732 -3.1579 -0.1724
1.3850 -3.1592 -0.1722
1.3955 -3.1600 -0.1738
1.4073 -3.1619 -0.1713
1.4152 -3.1615 -0.1768
1.4245 -3.1621 -0.1783
-1.2114 -3.0268 0.1293
-0.9494 -2.9777 -0.1924
-0.7187 -2.9929 -0.2094
-0.5208 -3.0059 -0.2238
-0.1715 -3.0436 -0.1819
0.0070 -3.0592 -0.1776
0.2229 -3.0729 -0.1956
0.6986 -3.1172 -0.1708
0.7318 -3.1165 -0.1863
0.8511 -3.1285 -0.1761
0.8859 -3.1298 -0.1833
0.9377 -3.1357 -0.1755
0.9678 -3.1368 -0.1818
1.0035 -3.1398 -0.1815
1.0803 -3.1489 -0.1687
1.1032 -3.1497 -0.1736
1.1278 -3.1514 -0.1752
1.1527 -3.1535 -0.1749
1.1785 -3.1562 -0.1718
1.2166 -3.1583 -0.1766
1.2381 -3.1607 -0.1738
1.2585 -3.1630 -0.1708
1.2725 -3.1632 -0.1753
1.2914 -3.1655 -0.1715
1.3067 -3.1667 -0.1717
1.3229 -3.1686 -0.1691
1.3358 -3.1693 -0.1710
1.3495 -3.1706 -0.1702
1.3612 -3.1711 -0.1720
1.3721 -3.1715 -0.1745
1.3845 -3.1728 -0.1730
1.3955 -3.1736 -0.1733
1.4158 -3.1750 -0.1748
-1.1979 -3.3239 1.1831
-1.1717 -3.3136 1.1261
-1.1838 -3.3031 1.0786
-1.1952 -3.2923 1.0295
-1.1682 -3.2817 0.9709
-0.8808 -3.0570 -0.1921
-0.4198 -3.0793 -0.2078
-0.1874 -3.0943 -0.1972
0.0258 -3.1096 -0.1805
0.1372 -3.1139 -0.1897
0.2426 -3.1185 -0.1955
0.7548 -3.1644 -0.1109
0.7632 -3.1592 -0.1386
0.7700 -3.1535 -0.1676
0.8122 -3.1546 -0.1739
0.8545 -3.1561 -0.1778
0.9348 -3.1598 -0.1812
1.0164 -3.1660 -0.1733
1.0459 -3.1672 -0.1755
1.0709 -3.1676 -0.1801
1.1030 -3.1702 -0.1761
1.1336 -3.1729 -0.1712
1.1755 -3.1741 -0.1769
1.2158 -3.1759 -0.1789
1.2374 -3.1777 -0.1759
1.2605 -3.1804 -0.1690
1.2745 -3.1803 -0.1733
1.2908 -3.1813 -0.1731
1.3061 -3.1821 -0.1732
1.3224 -3.1835 -0.1705
1.3340 -3.1834 -0.1744
1.3460 -3.1836 -0.1767
1.3607 -3.1851 -0.1730
1.3728 -3.1858 -0.1731
1.3841 -3.1863 -0.1738
1.3967 -3.1877 -0.1704
1.4064 -3.1878 -0.1724
1.4154 -3.1877 -0.1753
-1.0384 -3.3334 0.8766
-1.1412 -3.3236 0.8419
-1.3324 -3.3011 0.7554
-1.2076 -3.1763 0.0962
-0.9974 -3.1325 -0.1602
-0.5913 -3.1359 -0.2038
-0.3511 -3.1437 -0.1999
-0.1151 -3.1536 -0.1847
0.0760 -3.1617 -0.1722
0.1674 -3.1615 -0.1868
0.2810 -3.1647 -0.1876
0.3749 -3.1668 -0.1909
0.4552 -3.1683 -0.1956
0.7685 -3.1883 -0.1402
0.8241 -3.1840 -0.1703
0.8538 -3.1826 -0.1822
0.9431 -3.1860 -0.1781
1.0216 -3.1895 -0.1718
1.0433 -3.1885 -0.1806
1.0775 -3.1903 -0.1762
1.1133 -3.1930 -0.1679
1.1357 -3.1930 -0.1711
1.1547 -3.1925 -0.1765
1.1826 -3.1945 -0.1704
1.2001 -3.1942 -0.1749
1.2221 -3.1953 -0.1724
1.2415 -3.1960 -0.1717
1.2579 -3.1961 -0.1737
1.2889 -3.1964 -0.1767
1.3075 -3.1980 -0.1717
1.3238 -3.1990 -0.1688
1.3497 -3.1995 -0.1703
1.3603 -3.1991 -0.1740
1.3735 -3.1999 -0.1717
1.3830 -3.1994 -0.1757
1.3969 -3.2009 -0.1699
1.4049 -3.2001 -0.1754
1.4160 -3.2009 -0.1732
-1.3255 -3.3475 0.6139
-1.2307 -3.3352 0.5448
-1.0607 -3.3232 0.4757
-1.1932 -3.3120 0.4176
-1.1020 -3.3007 0.3537
-1.0731 -3.2893 0.2909
-1.0841 -3.2773 0.2259
-1.1584 -3.2639 0.1540
-1.1279 -3.2519 0.0878
-1.1809 -3.1965 -0.2134
-0.5407 -3.2008 -0.2032
-0.3112 -3.2023 -0.1996
-0.0923 -3.2053 -0.1873
0.1687 -3.2049 -0.1945
0.3914 -3.2065 -0.1905
0.4825 -3.2071 -0.1889
0.5779 -3.2091 -0.1799
0.6997 -3.2086 -0.1851
0.7631 -3.2096 -0.1810
0.8225 -3.2108 -0.1755
0.8656 -3.2105 -0.1779
0.9095 -3.2108 -0.1770
0.9418 -3.2100 -0.1825
0.9712 -3.2090 -0.1886
1.0531 -3.2119 -0.1743
1.1132 -3.2128 -0.1703
1.1311 -3.2115 -0.1780
1.1546 -3.2115 -0.1785
1.1841 -3.2131 -0.1704
1.2008 -3.2122 -0.1755
1.2235 -3.2129 -0.1720
1.2423 -3.2130 -0.1719
1.2566 -3.2122 -0.1766
1.2766 -3.2131 -0.1721
1.2936 -3.2135 -0.1705
1.3070 -3.2130 -0.1731
1.3189 -3.2123 -0.1774
1.3336 -3.2126 -0.1758
1.3463 -3.2125 -0.1768
1.3592 -3.2127 -0.1761
1.3731 -3.2134 -0.1725
1.3843 -3.2133 -0.1729
1.3970 -3.2140 -0.1693
1.4056 -3.2133 -0.1734
1.4172 -3.2140 -0.1699
-1.0110 -3.4254 0.6831
-1.2051 -3.4133 0.5875
-1.1764 -3.4020 0.5251
-1.1681 -3.3912 0.4633
-1.3347 -3.3844 0.4023
-1.3038 -3.3722 0.3351
-1.2280 -3.3593 0.2695
-0.9851 -3.3339 0.1523
-0.4788 -3.2627 -0.1989
-0.2729 -3.2581 -0.1992
-0.0278 -3.2568 -0.1759
0.2097 -3.2498 -0.1867
0.4061 -3.2448 -0.1906
0.7083 -3.2392 -0.1849
0.8150 -3.2369 -0.1847
0.8692 -3.2367 -0.1792
0.9156 -3.2362 -0.1760
0.9861 -3.2341 -0.1793
1.0490 -3.2325 -0.1807
1.1078 -3.2317 -0.1779
1.1575 -3.2308 -0.1771
1.2051 -3.2306 -0.1718
1.2444 -3.2300 -0.1702
1.2614 -3.2296 -0.1709
1.2794 -3.2295 -0.1689
1.3084 -3.2284 -0.1715
1.3196 -3.2273 -0.1766
1.3331 -3.2270 -0.1770
1.3494 -3.2276 -0.1713
1.3629 -3.2276 -0.1692
1.3732 -3.2269 -0.1722
1.3839 -3.2264 -0.1736
1.3949 -3.2262 -0.1734
1.4046 -3.2257 -0.1751
1.4152 -3.2257 -0.1739
1.4234 -3.2249 -0.1774
-1.0420 -3.5456 1.0287
-1.0173 -3.5358 0.9749
-1.0260 -3.5287 0.9279
-1.0523 -3.5228 0.8831
-0.9676 -3.5002 0.7670
-1.1522 -3.4770 0.5673
-1.1241 -3.4659 0.5062
-1.2018 -3.4398 0.3199
-1.2368 -3.4306 0.2525
-1.2509 -3.4202 0.1833
-1.1125 -3.4045 0.1257
-0.4205 -3.3208 -0.1948
-0.2353 -3.3115 -0.1985
0.0004 -3.3041 -0.1758
0.1121 -3.2973 -0.1852
0.2245 -3.2915 -0.1887
0.6887 -3.2732 -0.1667
0.7302 -3.2697 -0.1767
0.8237 -3.2643 -0.1830
0.8762 -3.2626 -0.1780
0.9881 -3.2570 -0.1806
1.0519 -3.2540 -0.1806
1.1161 -3.2524 -0.1717
1.1582 -3.2494 -0.1782
1.1841 -3.2489 -0.1737
1.2058 -3.2481 -0.1723
1.2236 -3.2469 -0.1745
1.2445 -3.2464 -0.1713
1.2595 -3.2452 -0.1746
1.2755 -3.2443 -0.1754
1.3060 -3.2428 -0.1760
1.3229 -3.2427 -0.1716
1.3352 -3.2417 -0.1738
1.3478 -3.2411 -0.1745
1.3619 -3.2409 -0.1712
1.3841 -3.2396 -0.1731
1.3957 -3.2393 -0.1715
1.4053 -3.2386 -0.1731
1.4137 -3.2376 -0.1768
1.4252 -3.2377 -0.1725
-1.0395 -3.6095 1.0599
-0.9987 -3.5981 1.0029
-1.0407 -3.5955 0.9646
-0.9662 -3.5806 0.9005
-0.9652 -3.5508 0.7000
-1.1893 -3.5081 0.3038
-1.1597 -3.4964 0.2396
-1.1509 -3.4860 0.1738
-1.0015 -3.4674 0.1205
-0.5746 -3.3911 -0.1867
-0.1708 -3.3618 -0.1890
0.0025 -3.3501 -0.1841
0.1279 -3.3405 -0.1878
0.6788 -3.3025 -0.1773
0.7328 -3.2983 -0.1797
0.8816 -3.2879 -0.1779
0.9288 -3.2852 -0.1730
1.0237 -3.2772 -0.1811
1.0612 -3.2755 -0.1745
1.1175 -3.2717 -0.1723
1.1377 -3.2696 -0.1770
1.1671 -3.2685 -0.1700
1.1885 -3.2670 -0.1701
1.2066 -3.2653 -0.1728
1.2391 -3.2619 -0.1797
1.2603 -3.2612 -0.1745
1.2783 -3.2602 -0.1722
1.3074 -3.2578 -0.1743
1.3372 -3.2562 -0.1706
1.3492 -3.2551 -0.1721
1.3609 -3.2541 -0.1732
1.3730 -3.2534 -0.1725
1.3843 -3.2525 -0.1725
1.4055 -3.2511 -0.1723
1.4232 -3.2492 -0.1765
-1.0466 -3.6668 1.0463
-1.0221 -3.6572 0.9932
-0.9905 -3.6123 0.6880
-0.9815 -3.6040 0.6340
-0.9723 -3.5956 0.5794
-0.9464 -3.5854 0.5232
-1.1152 -3.5697 0.2899
-1.2102 -3.5694 0.2209
-1.1802 -3.5576 0.1556
-1.0292 -3.5357 0.1027
-0.4848 -3.4450 -0.1760
-0.1671 -3.4114 -0.1978
0.1506 -3.3822 -0.1875
0.3675 -3.3614 -0.1868
0.5599 -3.3445 -0.1747
0.6877 -3.3318 -0.1771
0.7320 -3.3265 -0.1849
0.8947 -3.3126 -0.1721
0.9682 -3.3051 -0.1745
1.0030 -3.3019 -0.1740
1.0323 -3.2987 -0.1762
1.0907 -3.2932 -0.1753
1.1183 -3.2908 -0.1737
1.1384 -3.2882 -0.1781
1.1864 -3.2842 -0.1742
1.2260 -3.2804 -0.1741
1.2462 -3.2788 -0.1713
1.2611 -3.2769 -0.1743
1.2758 -3.2752 -0.1768
1.2929 -3.2738 -0.1745
1.3214 -3.2710 -0.1751
1.3368 -3.2700 -0.1716
1.3482 -3.2686 -0.1742
1.3623 -3.2677 -0.1706
1.3726 -3.2663 -0.1732
1.3839 -3.2653 -0.1731
1.3938 -3.2641 -0.1750
1.4052 -3.2633 -0.1726
1.4130 -3.2619 -0.1774
1.4234 -3.2611 -0.1754
-1.1228 -3.7345 1.0495
-1.0800 -3.7220 0.9910
-0.9803 -3.6951 0.8732
-1.0053 -3.6925 0.8286
-0.8997 -3.6714 0.7621
-1.0052 -3.6797 0.7269
-0.9979 -3.6721 0.6737
-0.9390 -3.6576 0.6151
-0.9468 -3.6520 0.5626
-0.8886 -3.6377 0.5053
-0.8784 -3.6296 0.4510
-0.9890 -3.6362 0.3970
-1.0832 -3.6323 0.2753
-1.0749 -3.6234 0.2126
-1.0661 -3.6143 0.1491
-0.5861 -3.5183 -0.1529
-0.4655 -3.5000 -0.1827
-0.1068 -3.4560 -0.1884
0.1852 -3.4214 -0.1825
0.3724 -3.3977 -0.1915
0.7021 -3.3601 -0.1737
0.7931 -3.3479 -0.1836
0.8917 -3.3367 -0.1779
0.9621 -3.3276 -0.1825
1.0338 -3.3196 -0.1776
1.1214 -3.3097 -0.1726
1.1445 -3.3067 -0.1735
1.1865 -3.3014 -0.1757
1.2282 -3.2968 -0.1725
1.2449 -3.2945 -0.1741
1.2648 -3.2926 -0.1702
1.2964 -3.2889 -0.1698
1.3236 -3.2853 -0.1719
1.3472 -3.2819 -0.1762
1.3620 -3.2808 -0.1714
1.3723 -3.2792 -0.1739
1.3841 -3.2779 -0.1725
1.3963 -3.2769 -0.1693
1.4132 -3.2739 -0.1764
-0.9712 -3.7497 0.8566
-1.0298 -3.7537 0.8175
-0.9545 -3.7357 0.7557
-0.9299 -3.7260 0.7022
-0.9547 -3.7240 0.6540
-0.9618 -3.7191 0.6023
-0.8881 -3.7017 0.5439
-0.9450 -3.7042 0.4935
-0.9881 -3.6909 0.3235
-0.9432 -3.6778 0.2657
-0.9788 -3.6686 0.1415
-0.5367 -3.5708 -0.1533
-0.4348 -3.5522 -0.1860
-0.0599 -3.4983 -0.1827
0.3369 -3.4421 -0.1725
0.3983 -3.4316 -0.1866
0.5594 -3.4083 -0.1862
0.7678 -3.3797 -0.1719
0.8039 -3.3735 -0.1807
0.9059 -3.3598 -0.1711
0.9610 -3.3501 -0.1865
1.0962 -3.3319 -0.1745
1.1245 -3.3281 -0.1714
1.1499 -3.3247 -0.1695
1.1658 -3.3216 -0.1767
1.2107 -3.3156 -0.1722
1.2306 -3.3129 -0.1707
1.2472 -3.3103 -0.1722
1.2643 -3.3078 -0.1719
1.2789 -3.3055 -0.1739
1.2933 -3.3032 -0.1753
1.3264 -3.2993 -0.1677
1.3373 -3.2973 -0.1715
1.3486 -3.2954 -0.1738
1.3743 -3.2921 -0.1699
1.3844 -3.2905 -0.1718
1.3960 -3.2890 -0.1697
1.4118 -3.2857 -0.1792
1.4238 -3.2846 -0.1731
-0.9456 -3.7904 0.7397
-0.9053 -3.7779 0.6846
-0.8654 -3.7655 0.6302
-0.8879 -3.7642 0.5815
-0.9184 -3.7586 0.4778
-0.9267 -3.7543 0.4233
-0.8849 -3.7414 0.3674
-0.8753 -3.7340 0.3115
-0.9599 -3.7356 0.1901
-0.9680 -3.7305 0.1278
-0.7314 -3.6618 -0.1493
-0.5438 -3.6284 -0.1670
-0.2270 -3.5722 -0.1932
0.2131 -3.4987 -0.1872
0.3053 -3.4825 -0.1927
0.5666 -3.4390 -0.1880
0.7068 -3.4161 -0.1804
0.8104 -3.3986 -0.1806
0.9767 -3.3710 -0.1769
1.0017 -3.3661 -0.1838
1.0466 -3.3598 -0.1713
1.0728 -3.3552 -0.1734
1.1001 -3.3506 -0.1728
1.1230 -3.3465 -0.1750
1.1470 -3.3425 -0.1746
1.1667 -3.3389 -0.1774
1.1920 -3.3352 -0.1724
1.2123 -3.3318 -0.1715
1.2315 -3.3287 -0.1708
1.2496 -3.3257 -0.1701
1.2652 -3.3229 -0.1716
1.2805 -3.3202 -0.1724
1.2949 -3.3177 -0.1736
1.3234 -3.3129 -0.1731
1.3369 -3.3107 -0.1724
1.3458 -3.3085 -0.1792
1.3600 -3.3065 -0.1752
1.3740 -3.3047 -0.1705
1.3840 -3.3028 -0.1723
1.3945 -3.3010 -0.1726
1.4030 -3.2992 -0.1761
1.4142 -3.2976 -0.1729
-0.9688 -3.8601 0.8267
-1.0107 -3.8642 0.7844
-0.9859 -3.8544 0.7306
-0.9123 -3.8348 0.6711
-0.8794 -3.8187 0.5666
-0.8870 -3.8154 0.5153
-0.8668 -3.7912 0.2976
-0.8728 -3.7871 0.2404
-0.8637 -3.7800 0.1829
-0.9583 -3.7917 0.1142
-0.7558 -3.7265 -0.1678
-0.5509 -3.6860 -0.1808
0.3490 -3.5130 -0.1811
0.6581 -3.4538 -0.1794
0.7693 -3.4324 -0.1796
0.8541 -3.4156 -0.1856
0.9476 -3.3986 -0.1751
0.9773 -3.3925 -0.1793
1.0189 -3.3852 -0.1717
1.0752 -3.3742 -0.1735
1.1010 -3.3692 -0.1741
1.1231 -3.3647 -0.1769
1.1699 -3.3559 -0.1755
1.2162 -3.3476 -0.1681
1.2463 -3.3412 -0.1757
1.2655 -3.3378 -0.1722
1.2808 -3.3348 -0.1728
1.2958 -3.3319 -0.1728
1.3092 -3.3292 -0.1743
1.3244 -3.3265 -0.1720
1.3353 -3.3241 -0.1756
1.3505 -3.3216 -0.1709
1.3622 -3.3193 -0.1712
1.3737 -3.3171 -0.1710
1.3849 -3.3150 -0.1704
1.3930 -3.3130 -0.1754
1.4027 -3.3110 -0.1764
1.4128 -3.3092 -0.1757
-1.0326 -3.9416 0.9673
-1.0087 -3.9321 0.9151
-0.9681 -3.9188 0.8598
-0.9607 -3.9132 0.8107
-0.9367 -3.9037 0.7585
-0.9353 -3.8952 0.6593
-0.9436 -3.8929 0.6091
-0.9345 -3.8866 0.5564
-0.8620 -3.8663 0.4999
-0.8694 -3.8636 0.4477
-0.8762 -3.8606 0.3941
-0.8673 -3.8542 0.3394
-0.7792 -3.8309 0.2868
-0.8544 -3.8375 0.1697
-0.8785 -3.8376 0.1082
-0.7151 -3.7793 -0.1715
-0.5445 -3.7410 -0.1910
0.3494 -3.5487 -0.1877
0.6758 -3.4795 -0.1744
0.7732 -3.4579 -0.1814
0.8651 -3.4381 -0.1815
0.9500 -3.4202 -0.1764
1.0164 -3.4059 -0.1766
1.0721 -3.3937 -0.1789
1.1311 -3.3817 -0.1706
1.1715 -3.3726 -0.1752
1.1908 -3.3683 -0.1767
1.2120 -3.3639 -0.1747
1.2305 -3.3600 -0.1745
1.2480 -3.3562 -0.1745
1.2636 -3.3527 -0.1757
1.2797 -3.3493 -0.1753
1.3122 -3.3427 -0.1701
1.3247 -3.3399 -0.1719
1.3356 -3.3373 -0.1754
1.3501 -3.3344 -0.1717
1.3594 -3.3320 -0.1766
1.3740 -3.3294 -0.1704
1.3834 -3.3271 -0.1733
1.3957 -3.3248 -0.1695
1.4024 -3.3228 -0.1766
1.4125 -3.3207 -0.1758
-0.9828 -3.9732 0.7998
-0.9586 -3.9637 0.7473
-0.9506 -3.9581 0.6968
-0.8956 -3.9410 0.6408
-0.8717 -3.9315 0.5886
-0.8935 -3.9332 0.5394
-0.8691 -3.9236 0.4862
-0.8600 -3.9176 0.4335
-0.7898 -3.8970 0.3799
-0.8976 -3.9147 0.2685
-0.7924 -3.8860 0.2176
-0.7675 -3.8762 0.1635
-0.9039 -3.9035 0.0915
-0.4608 -3.7783 -0.1808
0.3556 -3.5828 -0.1917
0.6695 -3.5087 -0.1828
0.7917 -3.4802 -0.1739
0.8683 -3.4612 -0.1829
0.9558 -3.4409 -0.1749
1.0172 -3.4260 -0.1787
1.0482 -3.4187 -0.1775
1.0753 -3.4122 -0.1781
1.1265 -3.4001 -0.1774
1.1756 -3.3887 -0.1723
1.1941 -3.3842 -0.1744
1.2152 -3.3793 -0.1720
1.2344 -3.3748 -0.1706
1.2504 -3.3709 -0.1723
1.2646 -3.3673 -0.1753
1.2828 -3.3632 -0.1715
1.3119 -3.3563 -0.1712
1.3320 -3.3507 -0.1820
1.3622 -3.3443 -0.1713
1.3731 -3.3417 -0.1721
1.3844 -3.3390 -0.1712
1.3930 -3.3367 -0.1748
1.4045 -3.3342 -0.1718
1.4134 -3.3320 -0.1733
1.4227 -3.3297 -0.1732
-0.9277 -4.0130 0.7766
-0.9041 -4.0037 0.7254
-0.9266 -4.0067 0.6796
-0.9174 -4.0012 0.6289
-0.9091 -3.9959 0.5776
-0.8209 -3.9631 0.4189
-0.8589 -3.9698 0.3662
-0.8970 -3.9763 0.3109
-0.8405 -3.9583 0.2571
-0.7995 -3.9443 0.2037
-0.8062 -3.9426 0.1467
-0.6253 -3.8756 -0.1753
-0.2526 -3.7774 -0.1883
0.0783 -3.6915 -0.1795
0.5375 -3.5710 -0.1888
0.6781 -3.5346 -0.1827
0.7939 -3.5047 -0.1765
0.8318 -3.4945 -0.1821
0.8760 -3.4830 -0.1811
0.9531 -3.4629 -0.1801
1.1021 -3.4241 -0.1795
1.1353 -3.4160 -0.1700
1.1601 -3.4096 -0.1675
1.1789 -3.4046 -0.1701
1.1928 -3.4005 -0.1774
1.2377 -3.3894 -0.1676
1.2449 -3.3867 -0.1808
1.2664 -3.3815 -0.1737
1.2768 -3.3783 -0.1812
1.2975 -3.3735 -0.1724
1.3122 -3.3697 -0.1712
1.3247 -3.3663 -0.1728
1.3495 -3.3598 -0.1731
1.3600 -3.3569 -0.1755
1.3728 -3.3538 -0.1726
1.3829 -3.3510 -0.1741
1.3910 -3.3486 -0.1789
1.4036 -3.3457 -0.1732
1.4131 -3.3432 -0.1734
1.4202 -3.3410 -0.1786
-0.7718 -4.0338 0.9933
-0.7873 -4.0320 0.8727
-0.9726 -4.0768 0.7204
-0.9023 -4.0539 0.6627
-0.9095 -4.0535 0.6140
-0.8855 -4.0440 0.5618
-0.9076 -4.0477 0.5121
-0.8988 -4.0425 0.4595
-0.8908 -4.0376 0.4063
-0.8661 -4.0278 0.3524
-0.8413 -4.0180 0.2986
-0.8005 -4.0037 0.2456
-0.8067 -4.0027 0.1899
-0.7671 -3.9887 0.1371
-0.7883 -3.9917 0.0778
-0.5763 -3.9186 -0.1753
-0.2484 -3.8245 -0.1971
0.2936 -3.6710 -0.1911
0.4842 -3.6173 -0.1841
0.5412 -3.6007 -0.1924
0.7853 -3.5317 -0.1862
0.9591 -3.4828 -0.1785
0.9999 -3.4715 -0.1722
1.0272 -3.4636 -0.1752
1.0499 -3.4569 -0.1808
1.0845 -3.4475 -0.1738
1.1127 -3.4396 -0.1708
1.1984 -3.4152 -0.1721
1.2321 -3.4055 -0.1761
1.2517 -3.4001 -0.1725
1.2653 -3.3960 -0.1762
1.2964 -3.3873 -0.1747
1.3112 -3.3831 -0.1734
1.3230 -3.3797 -0.1759
1.3373 -3.3757 -0.1735
1.3480 -3.3726 -0.1762
1.3610 -3.3690 -0.1737
1.3732 -3.3656 -0.1719
1.3838 -3.3626 -0.1720
1.3949 -3.3596 -0.1703
1.4040 -3.3569 -0.1721
1.4117 -3.3545 -0.1761
-0.7936 -4.0827 0.8606
-0.8229 -4.0865 0.7331
-0.7865 -4.0733 0.6825
-0.8924 -4.1002 0.5484
-0.9146 -4.1050 0.4985
-0.8503 -4.0809 0.3921
-0.7965 -4.0623 0.3397
-0.8321 -4.0710 0.2854
-0.8238 -4.0663 0.2310
-0.8139 -4.0610 0.1760
-0.7289 -4.0330 0.1280
-0.5300 -3.9598 -0.1755
-0.2243 -3.8652 -0.1996
0.0954 -3.7678 -0.1896
0.3319 -3.6957 -0.1819
0.5123 -3.6407 -0.1764
0.6277 -3.6050 -0.1870
0.7665 -3.5631 -0.1712
0.8518 -3.5368 -0.1759
0.9348 -3.5116 -0.1729
0.9685 -3.5012 -0.1739
1.0050 -3.4902 -0.1706
1.0324 -3.4817 -0.1732
1.0525 -3.4752 -0.1809
1.1137 -3.4569 -0.1719
1.1398 -3.4490 -0.1691
1.1614 -3.4424 -0.1695
1.1763 -3.4375 -0.1762
1.2033 -3.4296 -0.1677
1.2183 -3.4248 -0.1720
1.2369 -3.4192 -0.1710
1.2528 -3.4143 -0.1721
1.2670 -3.4098 -0.1746
1.2817 -3.4053 -0.1755
1.2968 -3.4007 -0.1747
1.3102 -3.3966 -0.1755
1.3281 -3.3914 -0.1679
1.3363 -3.3886 -0.1754
1.3516 -3.3841 -0.1698
1.3723 -3.3776 -0.1735
1.3830 -3.3744 -0.1736
1.3911 -3.3717 -0.1782
1.4037 -3.3681 -0.1722
1.4115 -3.3655 -0.1761
-0.7897 -4.1326 0.9305
-0.7553 -4.1198 0.8817
-0.7867 -4.1290 0.8460
-0.7522 -4.1162 0.7969
-0.7308 -4.1077 0.7504
-0.8360 -4.1399 0.6752
-0.8041 -4.1265 0.5774
-0.8834 -4.1512 0.5340
-0.8900 -4.1518 0.4835
-0.8728 -4.1429 0.3786
-0.8958 -4.1488 0.3245
-0.8392 -4.1286 0.2717
-0.8460 -4.1292 0.2162
-0.7901 -4.1092 0.1647
-0.7655 -4.0995 0.1113
-0.8029 -4.1099 0.0496
-0.7620 -4.0949 -0.0028
-0.7668 -4.0946 -0.0627
-0.7474 -4.0847 -0.1803
-0.3135 -3.9422 -0.1836
-0.1634 -3.8927 -0.1905
0.9711 -3.5210 -0.1748
1.0034 -3.5104 -0.1748
1.0593 -3.4920 -0.1770
1.0890 -3.4823 -0.1739
1.1205 -3.4722 -0.1670
1.1569 -3.4600 -0.1762
1.1789 -3.4528 -0.1748
1.1967 -3.4469 -0.1770
1.2179 -3.4400 -0.1738
1.2380 -3.4335 -0.1707
1.2547 -3.4281 -0.1706
1.2681 -3.4235 -0.1739
1.2993 -3.4134 -0.1716
1.3072 -3.4105 -0.1810
1.3272 -3.4043 -0.1699
1.3394 -3.4003 -0.1704
1.3507 -3.3965 -0.1716
1.3611 -3.3930 -0.1736
1.3739 -3.3889 -0.1703
1.3815 -3.3862 -0.1764
1.3933 -3.3825 -0.1733
1.4023 -3.3795 -0.1749
1.4095 -3.3769 -0.1802
1.4201 -3.3736 -0.1771
-0.7690 -4.1727 0.9127
-0.7614 -4.1691 0.8699
-0.7666 -4.1701 0.8291
-0.7584 -4.1663 0.7850
-0.7628 -4.1670 0.7424
-0.7633 -4.1644 0.6076
-0.8014 -4.1759 0.5156
-0.7990 -4.1730 0.4163
-0.8044 -4.1738 0.3652
-0.7807 -4.1644 0.3137
-0.8005 -4.1703 0.2601
-0.7915 -4.1660 0.2066
-0.8133 -4.1725 0.1496
-0.7886 -4.1627 0.0957
-0.7638 -4.1529 0.0419
-0.7693 -4.1536 -0.0168
-0.7597 -4.1491 -0.0742
-0.7093 -4.1292 -0.1839
-0.1325 -3.9272 -0.1901
0.3280 -3.7659 -0.1969
0.5162 -3.7003 -0.1857
0.6041 -3.6697 -0.1758
0.8292 -3.5911 -0.1693
0.8984 -3.5667 -0.1787
0.9790 -3.5386 -0.1713
1.0000 -3.5311 -0.1804
1.0368 -3.5183 -0.1743
1.0637 -3.5089 -0.1753
1.1150 -3.4910 -0.1746
1.1387 -3.4827 -0.1739
1.1596 -3.4754 -0.1749
1.2244 -3.4529 -0.1670
1.2399 -3.4474 -0.1693
1.2506 -3.4435 -0.1771
1.2664 -3.4379 -0.1774
1.2839 -3.4319 -0.1738
1.2976 -3.4271 -0.1748
1.3152 -3.4210 -0.1686
1.3283 -3.4165 -0.1684
1.3378 -3.4130 -0.1735
1.3524 -3.4080 -0.1687
1.3712 -3.4013 -0.1756
1.3801 -3.3981 -0.1792
1.3943 -3.3933 -0.1709
1.4021 -3.3905 -0.1750
1.4105 -3.3875 -0.1775
-0.7688 -4.3694 0.1035
-0.6996 -4.3384 0.0539
-0.6748 -4.3282 -0.0006
-0.6501 -4.3180 -0.0552
-0.6534 -4.3211 -0.1158
-0.6140 -4.3040 -0.1675
-0.2137 -4.1174 -0.1731
-0.0657 -4.0484 -0.1777
0.0834 -3.9789 -0.1745
0.1934 -3.9276 -0.1785
0.2908 -3.8823 -0.1820
0.3967 -3.8327 -0.1767
0.4967 -3.7859 -0.1684
0.5483 -3.7621 -0.1793
0.7413 -3.6719 -0.1725
0.8507 -3.6206 -0.1623
0.8729 -3.6106 -0.1760
0.9226 -3.5872 -0.1675
0.9818 -3.5598 -0.1749
1.0468 -3.5293 -0.1699
1.0708 -3.5182 -0.1725
1.1021 -3.5035 -0.1661
1.1220 -3.4943 -0.1698
1.1629 -3.4752 -0.1721
1.1883 -3.4632 -0.1652
1.2037 -3.4561 -0.1691
1.2182 -3.4495 -0.1733
1.2393 -3.4395 -0.1672
1.2545 -3.4324 -0.1680
1.2701 -3.4251 -0.1672
1.2807 -3.4203 -0.1731
1.2958 -3.4132 -0.1710
1.3086 -3.4073 -0.1715
1.3230 -3.4005 -0.1681
1.3328 -3.3960 -0.1721
1.3572 -3.3845 -0.1682
1.3681 -3.3794 -0.1672
1.3771 -3.3752 -0.1694
1.3882 -3.3700 -0.1662
1.3963 -3.3663 -0.1690
1.4053 -3.3620 -0.1688
1.4121 -3.3590 -0.1736
-0.6823 -4.3902 0.0638
-0.6292 -4.3659 0.0130
-0.6045 -4.3558 -0.0416
-0.5930 -4.3522 -0.0989
-0.5007 -4.3082 -0.1376
-0.2449 -4.1843 -0.1823
-0.0726 -4.0996 -0.1810
0.0953 -4.0169 -0.1721
0.2245 -3.9533 -0.1692
0.3304 -3.9013 -0.1690
0.4008 -3.8671 -0.1790
0.4900 -3.8232 -0.1764
0.5864 -3.7754 -0.1649
0.6396 -3.7495 -0.1716
0.7077 -3.7159 -0.1667
0.7439 -3.6985 -0.1777
0.8130 -3.6642 -0.1650
0.8855 -3.6289 -0.1748
0.9666 -3.5889 -0.1691
0.9966 -3.5742 -0.1714
1.0573 -3.5444 -0.1698
1.0833 -3.5317 -0.1704
1.1072 -3.5200 -0.1715
1.1299 -3.5089 -0.1723
1.1535 -3.4971 -0.1704
1.1753 -3.4864 -0.1691
1.1959 -3.4763 -0.1677
1.2132 -3.4678 -0.1691
1.2316 -3.4587 -0.1678
1.2476 -3.4509 -0.1686
1.2619 -3.4439 -0.1706
1.2792 -3.4353 -0.1670
1.2917 -3.4293 -0.1698
1.3032 -3.4237 -0.1732
1.3202 -3.4152 -0.1662
1.3325 -3.4091 -0.1662
1.3445 -3.4032 -0.1657
1.3551 -3.3981 -0.1669
1.3638 -3.3939 -0.1713
1.3757 -3.3880 -0.1681
1.3846 -3.3837 -0.1705
1.4040 -3.3741 -0.1690
1.4124 -3.3700 -0.1702
1.4206 -3.3660 -0.1711
-0.6362 -4.4284 0.0776
-0.5836 -4.4037 0.0266
-0.5094 -4.3731 -0.1370
-0.1847 -4.2067 -0.1643
-0.0795 -4.1533 -0.1843
0.2314 -3.9919 -0.1693
0.3228 -3.9450 -0.1757
0.4377 -3.8852 -0.1666
0.5973 -3.8026 -0.1646
0.6472 -3.7773 -0.1734
0.7245 -3.7369 -0.1632
0.8153 -3.6903 -0.1709
0.8569 -3.6690 -0.1734
0.8911 -3.6515 -0.1791
0.9734 -3.6087 -0.1726
1.0093 -3.5901 -0.1699
1.0436 -3.5721 -0.1662
1.0966 -3.5448 -0.1675
1.1410 -3.5221 -0.1713
1.1863 -3.4985 -0.1678
1.2065 -3.4880 -0.1666
1.2236 -3.4792 -0.1681
1.2410 -3.4702 -0.1680
1.2587 -3.4610 -0.1660
1.2734 -3.4534 -0.1672
1.2859 -3.4471 -0.1708
1.2982 -3.4409 -0.1738
1.3170 -3.4308 -0.1646
1.3275 -3.4255 -0.1686
1.3426 -3.4175 -0.1632
1.3509 -3.4135 -0.1696
1.3637 -3.4068 -0.1664
1.3728 -3.4022 -0.1697
1.3818 -3.3977 -0.1726
1.3932 -3.3916 -0.1690
1.4029 -3.3866 -0.1685
1.4113 -3.3824 -0.1702
1.4185 -3.3788 -0.1742
1.4281 -3.3737 -0.1712
-0.5900 -4.4666 0.0914
-0.5649 -4.4563 0.0361
-0.4503 -4.4034 -0.1202
-0.0864 -4.2097 -0.1876
0.2513 -4.0247 -0.1645
0.3142 -3.9916 -0.1832
0.4140 -3.9373 -0.1819
0.5178 -3.8804 -0.1728
0.6046 -3.8328 -0.1664
0.6445 -3.8120 -0.1813
0.7130 -3.7746 -0.1769
0.7477 -3.7565 -0.1899
0.8243 -3.7138 -0.1726
0.8781 -3.6842 -0.1664
0.9101 -3.6672 -0.1734
0.9508 -3.6450 -0.1714
0.9737 -3.6331 -0.1819
1.0520 -3.5898 -0.1685
1.0770 -3.5764 -0.1716
1.1086 -3.5589 -0.1661
1.1239 -3.5512 -0.1762
1.1501 -3.5367 -0.1728
1.1778 -3.5212 -0.1656
1.1995 -3.5094 -0.1638
1.2334 -3.4912 -0.1680
1.2679 -3.4723 -0.1663
1.2824 -3.4645 -0.1677
1.2942 -3.4584 -0.1724
1.3135 -3.4474 -0.1633
1.3229 -3.4426 -0.1699
1.3357 -3.4357 -0.1698
1.3454 -3.4307 -0.1746
1.3604 -3.4222 -0.1677
1.3702 -3.4170 -0.1704
1.3813 -3.4109 -0.1692
1.3923 -3.4048 -0.1674
1.4024 -3.3992 -0.1662
1.4124 -3.3937 -0.1646
1.4201 -3.3897 -0.1676
1.4268 -3.3864 -0.1729
1.4357 -3.3814 -0.1714
-0.5576 -4.5129 0.1035
-0.5324 -4.5025 0.0479
-0.4726 -4.4852 -0.1854
-0.2500 -4.3579 -0.1836
-0.0295 -4.2309 -0.1701
0.1268 -4.1414 -0.1670
0.2335 -4.0809 -0.1745
0.4385 -3.9638 -0.1752
0.5326 -3.9097 -0.1708
0.6086 -3.8663 -0.1702
0.7302 -3.7970 -0.1736
0.7781 -3.7699 -0.1780
0.8338 -3.7378 -0.1741
0.8835 -3.7092 -0.1710
0.9252 -3.6853 -0.1707
0.9538 -3.6696 -0.1785
0.9945 -3.6459 -0.1740
1.0373 -3.6208 -0.1647
1.0529 -3.6129 -0.1784
1.0898 -3.5912 -0.1699
1.1609 -3.5507 -0.1726
1.1881 -3.5347 -0.1657
1.2087 -3.5229 -0.1650
1.2249 -3.5139 -0.1686
1.2460 -3.5015 -0.1643
1.2584 -3.4949 -0.1709
1.2755 -3.4851 -0.1695
1.3085 -3.4658 -0.1640
1.3181 -3.4609 -0.1713
1.3303 -3.4540 -0.1731
1.3457 -3.4448 -0.1677
1.3574 -3.4382 -0.1682
1.3699 -3.4308 -0.1659
1.3805 -3.4248 -0.1663
1.3894 -3.4200 -0.1698
1.3997 -3.4141 -0.1694
1.4097 -3.4083 -0.1684
1.4190 -3.4030 -0.1682
1.4281 -3.3977 -0.1675
1.4360 -3.3933 -0.1690
1.4430 -3.3896 -0.1728
-0.5111 -4.5513 0.1174
-0.4807 -4.5591 -0.1860
-0.0267 -4.2850 -0.1703
0.1023 -4.2081 -0.1781
0.2727 -4.1044 -0.1622
0.3263 -4.0742 -0.1861
0.5479 -3.9395 -0.1686
0.6809 -3.8601 -0.1738
0.7365 -3.8270 -0.1770
0.7979 -3.7898 -0.1729
0.8570 -3.7536 -0.1662
0.8958 -3.7307 -0.1707
0.9686 -3.6874 -0.1760
1.0419 -3.6430 -0.1711
1.0653 -3.6295 -0.1776
1.0965 -3.6105 -0.1745
1.1514 -3.5770 -0.1696
1.2175 -3.5371 -0.1670
1.2348 -3.5269 -0.1691
1.2499 -3.5182 -0.1731
1.2707 -3.5052 -0.1672
1.2898 -3.4932 -0.1621
1.3044 -3.4845 -0.1627
1.3158 -3.4781 -0.1676
1.3418 -3.4626 -0.1687
1.3546 -3.4548 -0.1678
1.3640 -3.4496 -0.1728
1.3779 -3.4408 -0.1674
1.4001 -3.4272 -0.1646
1.4082 -3.4227 -0.1689
1.4185 -3.4163 -0.1669
1.4280 -3.4105 -0.1655
1.4374 -3.4047 -0.1636
1.4435 -3.4016 -0.1703
1.4529 -3.3956 -0.1662
-0.5183 -4.6562 -0.1943
-0.0135 -4.3346 -0.1672
0.0919 -4.2698 -0.1843
0.2364 -4.1781 -0.1799
0.3692 -4.0934 -0.1718
0.4439 -4.0473 -0.1827
0.5202 -3.9997 -0.1884
0.6796 -3.8984 -0.1817
0.8124 -3.8134 -0.1714
0.8576 -3.7852 -0.1745
0.9115 -3.7505 -0.1681
0.9787 -3.7090 -0.1778
1.0193 -3.6829 -0.1730
1.0520 -3.6622 -0.1726
1.0799 -3.6448 -0.1747
1.1078 -3.6272 -0.1747
1.1397 -3.6064 -0.1682
1.1675 -3.5883 -0.1637
1.2055 -3.5650 -0.1705
1.2419 -3.5424 -0.1738
1.2807 -3.5172 -0.1672
1.2966 -3.5072 -0.1670
1.3121 -3.4973 -0.1660
1.3239 -3.4902 -0.1702
1.3637 -3.4649 -0.1678
1.3740 -3.4586 -0.1708
1.3866 -3.4504 -0.1677
1.3988 -3.4423 -0.1639
1.4079 -3.4368 -0.1664
1.4164 -3.4318 -0.1697
1.4260 -3.4256 -0.1689
1.4345 -3.4204 -0.1702
1.4425 -3.4156 -0.1723
1.4591 -3.4050 -0.1716
-0.4194 -4.6359 0.0858
-0.3813 -4.6168 0.0317
-0.4675 -4.6982 -0.1791
0.1138 -4.3122 -0.1788
0.2644 -4.2114 -0.1722
0.3904 -4.1272 -0.1669
0.4542 -4.0867 -0.1832
0.5536 -4.0200 -0.1774
0.7270 -3.9030 -0.1609
0.7721 -3.8742 -0.1702
0.8169 -3.8452 -0.1769
0.9159 -3.7792 -0.1743
0.9927 -3.7284 -0.1764
1.1207 -3.6431 -0.1735
1.1786 -3.6036 -0.1638
1.2165 -3.5791 -0.1704
1.2546 -3.5539 -0.1707
1.2704 -3.5437 -0.1734
1.2865 -3.5332 -0.1744
1.3059 -3.5195 -0.1681
1.3217 -3.5089 -0.1663
1.3334 -3.5016 -0.1707
1.3453 -3.4940 -0.1735
1.3585 -3.4851 -0.1726
1.3700 -3.4777 -0.1742
1.3840 -3.4678 -0.1687
1.3935 -3.4619 -0.1724
1.4078 -3.4514 -0.1632
1.4149 -3.4474 -0.1704
1.4255 -3.4402 -0.1680
1.4349 -3.4338 -0.1674
1.4450 -3.4267 -0.1637
1.4519 -3.4227 -0.1684
1.4596 -3.4178 -0.1702
-0.4679 -4.7433 0.0868
-0.5719 -4.8536 -0.2048
0.1040 -4.3795 -0.1850
0.2456 -4.2805 -0.1835
0.4058 -4.1662 -0.1647
0.4803 -4.1158 -0.1762
0.5738 -4.0501 -0.1732
0.6446 -4.0012 -0.1767
0.7175 -3.9500 -0.1743
0.7710 -3.9134 -0.1793
0.8276 -3.8738 -0.1786
0.8785 -3.8381 -0.1780
0.9429 -3.7913 -0.1631
1.0104 -3.7453 -0.1719
1.0454 -3.7209 -0.1716
1.0788 -3.6973 -0.1701
1.1389 -3.6550 -0.1665
1.1576 -3.6430 -0.1742
1.1826 -3.6253 -0.1729
1.2057 -3.6090 -0.1717
1.2254 -3.5955 -0.1734
1.2430 -3.5836 -0.1764
1.2685 -3.5644 -0.1659
1.2835 -3.5545 -0.1695
1.3002 -3.5427 -0.1688
1.3139 -3.5335 -0.1719
1.3294 -3.5226 -0.1704
1.3445 -3.5117 -0.1682
1.3562 -3.5039 -0.1710
1.3706 -3.4934 -0.1672
1.3818 -3.4858 -0.1688
1.4038 -3.4705 -0.1693
1.4138 -3.4637 -0.1704
1.4252 -3.4552 -0.1663
1.4343 -3.4490 -0.1675
1.4407 -3.4455 -0.1754
1.4522 -3.4365 -0.1672
1.4625 -3.4284 -0.1606
-0.5066 -4.8504 0.0899
-0.5407 -4.8858 0.0181
-0.5007 -4.8861 -0.1842
-0.0025 -4.5183 -0.1676
0.1275 -4.4246 -0.1791
0.2818 -4.3105 -0.1727
0.4168 -4.2103 -0.1646
0.4817 -4.1651 -0.1813
0.6646 -4.0298 -0.1727
0.7207 -3.9897 -0.1803
0.8012 -3.9289 -0.1682
0.8508 -3.8930 -0.1716
0.8958 -3.8605 -0.1750
0.9905 -3.7900 -0.1678
1.0263 -3.7640 -0.1692
1.0605 -3.7389 -0.1692
1.0819 -3.7247 -0.1797
1.1692 -3.6599 -0.1745
1.1867 -3.6482 -0.1825
1.2404 -3.6068 -0.1683
1.2597 -3.5926 -0.1682
1.2786 -3.5786 -0.1670
1.2944 -3.5673 -0.1691
1.3248 -3.5453 -0.1709
1.3375 -3.5365 -0.1744
1.3528 -3.5248 -0.1715
1.3644 -3.5168 -0.1746
1.3812 -3.5030 -0.1649
1.3917 -3.4957 -0.1677
1.4016 -3.4890 -0.1710
1.4252 -3.4706 -0.1640
1.4327 -3.4661 -0.1703
1.4408 -3.4606 -0.1740
1.4507 -3.4530 -0.1713
1.4603 -3.4455 -0.1681
1.4682 -3.4398 -0.1692
1.4766 -3.4334 -0.1674
-0.4415 -4.8929 0.0414
-0.5086 -4.9694 -0.1106
-0.4466 -4.9309 -0.1680
-0.2354 -4.7699 -0.1788
-0.0381 -4.6181 -0.1809
0.1504 -4.4716 -0.1735
0.2983 -4.3570 -0.1700
0.4222 -4.2610 -0.1672
0.5134 -4.1914 -0.1718
0.6814 -4.0618 -0.1707
0.8117 -3.9612 -0.1702
0.9267 -3.8711 -0.1617
0.9951 -3.8207 -0.1754
1.0634 -3.7686 -0.1791
1.1824 -3.6759 -0.1733
1.2041 -3.6596 -0.1756
1.2331 -3.6357 -0.1660
1.2704 -3.6073 -0.1689
1.3080 -3.5776 -0.1643
1.3225 -3.5668 -0.1666
1.3367 -3.5561 -0.1681
1.3487 -3.5476 -0.1727
1.3669 -3.5320 -0.1631
1.3910 -3.5137 -0.1647
1.4114 -3.4988 -0.1700
1.4225 -3.4901 -0.1686
1.4309 -3.4843 -0.1733
1.4419 -3.4753 -0.1696
1.4517 -3.4673 -0.1675
1.4603 -3.4609 -0.1685
1.4696 -3.4532 -0.1653
1.4767 -3.4483 -0.1690
1.4840 -3.4431 -0.1711
1.4920 -3.4365 -0.1689
-0.4805 -5.0120 0.0426
-0.4673 -5.0135 -0.0252
-0.3051 -4.9135 -0.1993
0.0165 -4.6465 -0.1642
0.3151 -4.4051 -0.1672
0.4342 -4.3085 -0.1669
0.5058 -4.2531 -0.1819
0.6448 -4.1358 -0.1558
0.7015 -4.0918 -0.1669
0.7760 -4.0307 -0.1629
0.8197 -3.9973 -0.1742
0.8650 -3.9619 -0.1813
0.9254 -3.9115 -0.1733
0.9651 -3.8801 -0.1777
1.0169 -3.8364 -0.1681
1.0812 -3.7855 -0.1746
1.1074 -3.7653 -0.1802
1.1376 -3.7406 -0.1793
1.1918 -3.6962 -0.1770
1.2399 -3.6565 -0.1729
1.2617 -3.6384 -0.1707
1.2788 -3.6251 -0.1736
1.2945 -3.6130 -0.1773
1.3152 -3.5951 -0.1707
1.3296 -3.5839 -0.1734
1.3455 -3.5707 -0.1717
1.3742 -3.5470 -0.1692
1.3866 -3.5370 -0.1697
1.3967 -3.5297 -0.1745
1.4098 -3.5184 -0.1705
1.4209 -3.5092 -0.1699
1.4337 -3.4977 -0.1633
1.4412 -3.4928 -0.1702
1.4590 -3.4789 -0.1728
1.4692 -3.4698 -0.1680
1.4780 -3.4623 -0.1661
1.4856 -3.4564 -0.1675
1.4918 -3.4525 -0.1734
1.4991 -3.4467 -0.1740
-0.4423 -5.0709 0.0564
-0.4284 -5.0727 -0.0119
-0.4458 -5.1028 -0.0882
-0.4809 -5.1495 -0.1726
-0.3847 -5.0776 -0.2229
0.2076 -4.5599 -0.1582
0.2829 -4.5011 -0.1850
0.4101 -4.3923 -0.1835
0.5033 -4.3141 -0.1898
0.6659 -4.1679 -0.1515
0.7195 -4.1248 -0.1645
0.8450 -4.0182 -0.1666
0.8995 -3.9718 -0.1664
0.9394 -3.9392 -0.1736
0.9746 -3.9108 -0.1817
1.1309 -3.7750 -0.1691
1.1531 -3.7576 -0.1766
1.1737 -3.7417 -0.1843
1.2045 -3.7139 -0.1770
1.2249 -3.6972 -0.1808
1.2526 -3.6720 -0.1721
1.2713 -3.6563 -0.1741
1.3262 -3.6089 -0.1710
1.3431 -3.5941 -0.1686
1.3581 -3.5812 -0.1679
1.3736 -3.5673 -0.1644
1.3848 -3.5585 -0.1685
1.3970 -3.5482 -0.1691
1.4093 -3.5375 -0.1680
1.4205 -3.5281 -0.1682
1.4306 -3.5198 -0.1699
1.4508 -3.5024 -0.1693
1.4598 -3.4949 -0.1704
1.4689 -3.4871 -0.1698
1.4781 -3.4788 -0.1675
1.4861 -3.4721 -0.1682
1.4945 -3.4645 -0.1659
1.5009 -3.4600 -0.1707
-0.3877 -5.1160 0.0727
-0.3581 -5.1039 0.0074
-0.3752 -5.1692 -0.2199
0.2167 -4.6249 -0.1579
0.3431 -4.5130 -0.1645
0.4463 -4.4223 -0.1727
0.5218 -4.3578 -0.1876
0.6643 -4.2240 -0.1600
0.7633 -4.1419 -0.1899
0.8571 -4.0530 -0.1684
0.9160 -3.9994 -0.1649
0.9582 -3.9628 -0.1701
0.9992 -3.9266 -0.1729
1.0689 -3.8658 -0.1804
1.1069 -3.8309 -0.1763
1.1382 -3.8027 -0.1760
1.1720 -3.7711 -0.1700
1.1999 -3.7455 -0.1677
1.2210 -3.7276 -0.1721
1.2460 -3.7044 -0.1688
1.2886 -3.6656 -0.1658
1.3050 -3.6516 -0.1691
1.3223 -3.6360 -0.1690
1.3388 -3.6212 -0.1687
1.3535 -3.6084 -0.1700
1.3682 -3.5951 -0.1695
1.3829 -3.5814 -0.1672
1.3948 -3.5713 -0.1697
1.4079 -3.5590 -0.1676
1.4169 -3.5525 -0.1746
1.4305 -3.5389 -0.1680
1.4397 -3.5315 -0.1719
1.4504 -3.5214 -0.1700
1.4608 -3.5115 -0.1673
1.4697 -3.5039 -0.1685
1.4776 -3.4974 -0.1714
1.4863 -3.4894 -0.1705
1.5026 -3.4742 -0.1681
1.5092 -3.4691 -0.1717
1.5170 -3.4615 -0.1687
-0.3036 -5.1324 0.0933
-0.3035 -5.1490 0.0237
-0.3332 -5.1959 -0.0545
-0.3329 -5.2138 -0.1297
-0.3487 -5.2486 -0.2120
0.5051 -4.4284 -0.1513
0.6577 -4.2894 -0.1718
0.7593 -4.1902 -0.1579
0.8040 -4.1517 -0.1732
0.9045 -4.0598 -0.1854
0.9732 -3.9913 -0.1700
1.0117 -3.9562 -0.1750
1.0867 -3.8860 -0.1771
1.1643 -3.8091 -0.1619
1.1830 -3.7941 -0.1730
1.2124 -3.7653 -0.1686
1.2580 -3.7226 -0.1697
1.2803 -3.7010 -0.1674
1.2992 -3.6834 -0.1683
1.3345 -3.6500 -0.1681
1.3616 -3.6264 -0.1764
1.3789 -3.6086 -0.1702
1.3913 -3.5975 -0.1727
1.4182 -3.5710 -0.1680
1.4378 -3.5544 -0.1758
1.4510 -3.5400 -0.1676
1.4605 -3.5314 -0.1689
1.4690 -3.5240 -0.1719
1.4804 -3.5112 -0.1632
1.4876 -3.5056 -0.1684
1.4961 -3.4974 -0.1675
1.5042 -3.4894 -0.1661
1.5109 -3.4841 -0.1702
1.5255 -3.4699 -0.1685
-0.2931 -5.2215 0.1033
-0.3226 -5.2709 0.0269
-0.2447 -5.2484 -0.1810
-0.0188 -5.0246 -0.1833
0.1361 -4.8741 -0.1958
0.3304 -4.6769 -0.1799
0.4603 -4.5476 -0.1788
0.6727 -4.3348 -0.1719
0.7602 -4.2466 -0.1668
0.8098 -4.2007 -0.1798
0.8565 -4.1575 -0.1913
0.9882 -4.0210 -0.1702
1.0309 -3.9789 -0.1713
1.0675 -3.9435 -0.1745
1.0951 -3.9185 -0.1837
1.1720 -3.8382 -0.1691
1.2267 -3.7834 -0.1674
1.2662 -3.7468 -0.1770
1.2881 -3.7246 -0.1753
1.3102 -3.7014 -0.1706
1.3469 -3.6641 -0.1671
1.3613 -3.6504 -0.1698
1.3746 -3.6381 -0.1733
1.4046 -3.6067 -0.1671
1.4161 -3.5961 -0.1700
1.4269 -3.5862 -0.1731
1.4505 -3.5614 -0.1684
1.4604 -3.5519 -0.1695
1.4694 -3.5437 -0.1721
1.4790 -3.5338 -0.1709
1.4886 -3.5235 -0.1680
1.4968 -3.5156 -0.1689
1.5130 -3.4989 -0.1668
1.5199 -3.4929 -0.1698
0.7677 -4.1028 0.5094
-0.2511 -5.3017 0.0465
-0.1486 -5.2302 -0.0777
-0.2469 -5.3629 -0.1815
0.1342 -4.9697 -0.2006
0.4493 -4.6373 -0.1910
0.5746 -4.5041 -0.1835
0.7795 -4.2843 -0.1646
0.8420 -4.2202 -0.1689
0.8925 -4.1696 -0.1767
1.0375 -4.0077 -0.1408
1.0498 -4.0026 -0.1681
1.0876 -3.9635 -0.1696
1.1223 -3.9276 -0.1708
1.1509 -3.8990 -0.1756
1.1783 -3.8714 -0.1791
1.2129 -3.8327 -0.1704
1.2830 -3.7596 -0.1714
1.3060 -3.7343 -0.1670
1.3207 -3.7211 -0.1744
1.3375 -3.7041 -0.1764
1.3562 -3.6834 -0.1726
1.3735 -3.6643 -0.1690
1.4000 -3.6380 -0.1739
1.4151 -3.6208 -0.1688
1.4276 -3.6074 -0.1681
1.4382 -3.5973 -0.1714
1.4494 -3.5855 -0.1711
1.4591 -3.5762 -0.1741
1.4711 -3.5617 -0.1672
1.4794 -3.5544 -0.1720
1.4887 -3.5443 -0.1710
1.5135 -3.5188 -0.1721
1.5222 -3.5080 -0.1663
1.5287 -3.5024 -0.1706
1.5364 -3.4930 -0.1659
-0.2586 -5.0970 1.0904
-0.3061 -5.1581 1.0625
-0.2932 -5.1750 0.9628
-0.1234 -5.2880 0.0046
-0.1730 -5.3940 -0.1594
0.5011 -4.6552 -0.1732
0.7720 -4.3437 -0.1320
1.0182 -4.0601 -0.0928
1.0400 -4.0546 -0.1523
1.0999 -3.9950 -0.1729
1.1358 -3.9555 -0.1728
1.1634 -3.9269 -0.1787
1.2239 -3.8589 -0.1748
1.2798 -3.7939 -0.1637
1.3119 -3.7635 -0.1796
1.3360 -3.7338 -0.1698
1.3505 -3.7197 -0.1758
1.3855 -3.6790 -0.1690
1.4025 -3.6583 -0.1627
1.4134 -3.6482 -0.1691
1.4396 -3.6182 -0.1654
1.4496 -3.6085 -0.1697
1.4611 -3.5952 -0.1676
1.4709 -3.5851 -0.1696
1.4806 -3.5745 -0.1700
1.4895 -3.5653 -0.1719
1.4991 -3.5537 -0.1689
1.5070 -3.5459 -0.1717
1.5158 -3.5352 -0.1685
1.5232 -3.5276 -0.1703
1.5312 -3.5177 -0.1669
1.5376 -3.5121 -0.1713
1.5444 -3.5047 -0.1718
-0.2724 -5.2098 1.0812
-0.2344 -5.1862 1.0208
-0.1144 -5.4425 -0.1419
0.5369 -4.6733 -0.1065
0.5805 -4.6346 -0.1417
0.7847 -4.3945 -0.1338
0.7910 -4.4026 -0.1791
1.0584 -4.0556 -0.0726
1.0501 -4.0941 -0.1577
1.0745 -4.0718 -0.1754
1.1059 -4.0381 -0.1837
1.1815 -3.9474 -0.1754
1.2090 -3.9163 -0.1781
1.2335 -3.8892 -0.1821
1.2905 -3.8184 -0.1686
1.3137 -3.7902 -0.1651
1.3273 -3.7782 -0.1762
1.3491 -3.7506 -0.1697
1.3637 -3.7355 -0.1752
1.3807 -3.7152 -0.1735
1.3977 -3.6938 -0.1689
1.4099 -3.6814 -0.1739
1.4237 -3.6650 -0.1730
1.4385 -3.6456 -0.1666
1.4505 -3.6317 -0.1663
1.4712 -3.6087 -0.1699
1.4918 -3.5838 -0.1667
1.5011 -3.5725 -0.1655
1.5086 -3.5657 -0.1710
1.5245 -3.5479 -0.1733
1.5322 -3.5389 -0.1730
1.5404 -3.5276 -0.1675
1.5472 -3.5200 -0.1685
1.5536 -3.5131 -0.1702
-0.2117 -5.2506 1.0434
-0.2477 -5.3079 1.0079
-0.1090 -5.4759 0.0926
-0.0558 -5.4909 -0.1244
0.5870 -4.6895 -0.0899
0.7369 -4.5172 -0.1211
0.8304 -4.4005 -0.1158
0.8232 -4.4292 -0.1694
1.0513 -4.1504 -0.1723
1.1306 -4.0541 -0.1749
1.1921 -3.9813 -0.1821
1.2246 -3.9400 -0.1781
1.2497 -3.9101 -0.1807
1.3008 -3.8455 -0.1753
1.3435 -3.7916 -0.1713
1.3805 -3.7445 -0.1668
1.3943 -3.7294 -0.1715
1.4108 -3.7075 -0.1671
1.4252 -3.6893 -0.1656
1.4364 -3.6774 -0.1707
1.4490 -3.6616 -0.1699
1.4610 -3.6466 -0.1690
1.4722 -3.6325 -0.1681
1.4828 -3.6192 -0.1673
1.5023 -3.5950 -0.1664
1.5188 -3.5765 -0.1710
1.5269 -3.5664 -0.1709
1.5345 -3.5577 -0.1724
1.5425 -3.5466 -0.1689
1.5495 -3.5381 -0.1693
1.5563 -3.5297 -0.1692
1.5626 -3.5227 -0.1710
-0.2126 -5.3444 1.0758
0.9191 -4.0998 0.5225
-0.0653 -5.5417 0.1076
-0.0290 -5.5525 -0.0368
-0.0380 -5.5971 -0.1189
0.6034 -4.7536 -0.0883
0.5613 -4.8400 -0.1675
0.8415 -4.4574 -0.1191
1.1088 -4.0855 -0.0550
1.0766 -4.1712 -0.1648
1.1085 -4.1341 -0.1755
1.1517 -4.0760 -0.1701
1.1823 -4.0383 -0.1748
1.2107 -4.0032 -0.1791
1.2445 -3.9565 -0.1721
1.3136 -3.8696 -0.1785
1.3381 -3.8349 -0.1715
1.3764 -3.7841 -0.1684
1.3930 -3.7627 -0.1684
1.4070 -3.7458 -0.1717
1.4216 -3.7269 -0.1718
1.4348 -3.7104 -0.1731
1.4481 -3.6926 -0.1718
1.4620 -3.6723 -0.1660
1.4710 -3.6639 -0.1742
1.4834 -3.6453 -0.1681
1.4924 -3.6358 -0.1733
1.5035 -3.6190 -0.1672
1.5108 -3.6130 -0.1761
1.5202 -3.5998 -0.1734
1.5292 -3.5867 -0.1699
1.5368 -3.5778 -0.1721
1.5443 -3.5682 -0.1726
1.5521 -3.5569 -0.1693
1.5658 -3.5383 -0.1675
1.5718 -3.5318 -0.1706
1.5780 -3.5234 -0.1696
0.6479 -4.7778 -0.0742
0.5973 -4.8835 -0.1579
0.7815 -4.6122 -0.1145
0.8992 -4.4416 -0.0930
1.1314 -4.1042 -0.0482
1.0957 -4.1842 -0.1200
1.0908 -4.2119 -0.1684
1.1341 -4.1519 -0.1668
1.1704 -4.1027 -0.1681
1.2018 -4.0611 -0.1714
1.2306 -4.0230 -0.1744
1.2584 -3.9853 -0.1752
1.2819 -3.9548 -0.1793
1.3061 -3.9217 -0.1791
1.3345 -3.8776 -0.1674
1.3528 -3.8542 -0.1711
1.3714 -3.8288 -0.1714
1.3896 -3.8030 -0.1695
1.4063 -3.7796 -0.1683
1.4215 -3.7587 -0.1681
1.4334 -3.7453 -0.1746
1.4455 -3.7305 -0.1788
1.4613 -3.7045 -0.1687
1.4732 -3.6880 -0.1682
1.4835 -3.6752 -0.1713
1.4940 -3.6611 -0.1719
1.5130 -3.6362 -0.1744
1.5226 -3.6219 -0.1716
1.5312 -3.6097 -0.1711
1.5392 -3.5991 -0.1719
1.5476 -3.5859 -0.1678
1.5547 -3.5768 -0.1695
1.5615 -3.5686 -0.1719
1.5686 -3.5577 -0.1691
1.5747 -3.5509 -0.1728
1.5812 -3.5409 -0.1701
1.5871 -3.5330 -0.1705
-0.1875 -5.5373 1.0854
-0.1465 -5.5090 1.0194
0.6639 -4.6838 0.2763
0.6761 -4.8017 -0.0117
0.7395 -4.7221 -0.0380
0.6773 -4.8534 -0.1253
0.9613 -4.4123 -0.0632
0.9801 -4.4008 -0.0965
1.1341 -4.1419 -0.0206
1.1465 -4.1367 -0.0481
1.1108 -4.2444 -0.1668
1.1523 -4.1840 -0.1665
1.1837 -4.1418 -0.1734
