ply
format ascii 1.0
element vertex 2111
property float x
property float y
property float z
end_header
4.7005 -3.9701 -0.2574
4.7431 -3.9562 -0.2580
2.1508 -5.0556 -0.2513
2.2064 -5.0175 -0.2459
2.2575 -4.9918 -0.2439
2.3032 -4.9859 -0.2473
2.4043 -4.9339 -0.2430
2.4522 -4.9183 -0.2437
2.5080 -4.8541 -0.2302
2.5754 -4.6911 -0.1876
2.6209 -4.6542 -0.1815
2.6647 -4.6250 -0.1775
2.7047 -4.6419 -0.1873
2.7874 -4.8089 -0.2486
2.8353 -4.7933 -0.2493
2.8836 -4.7875 -0.2531
2.9300 -4.7444 -0.2451
2.9740 -4.6930 -0.2343
3.0225 -4.6952 -0.2406
3.0776 -4.7332 -0.2587
3.1212 -4.6910 -0.2507
3.1726 -4.6932 -0.2573
3.2208 -4.6775 -0.2581
3.2689 -4.6618 -0.2588
3.3171 -4.6461 -0.2595
3.3622 -4.6214 -0.2570
3.4071 -4.5977 -0.2549
3.4516 -4.5742 -0.2528
3.5059 -4.5745 -0.2592
3.5579 -4.5675 -0.2630
3.6187 -4.5767 -0.2729
3.6630 -4.5522 -0.2704
3.7068 -4.5279 -0.2680
3.7454 -4.4964 -0.2627
3.7884 -4.4733 -0.2605
3.8412 -4.4651 -0.2641
3.8891 -4.4495 -0.2648
3.9432 -4.4418 -0.2687
3.9849 -4.4182 -0.2662
4.0328 -4.4026 -0.2669
4.0877 -4.3947 -0.2708
4.1220 -4.3645 -0.2654
4.1629 -4.3421 -0.2632
4.1955 -4.3125 -0.2578
4.2496 -4.3038 -0.2614
4.3051 -4.2957 -0.2653
4.3603 -4.2867 -0.2689
4.3831 -4.2513 -0.2606
4.3287 -4.1580 -0.2255
4.6075 -4.2151 -0.2754
4.6462 -4.1934 -0.2731
4.6939 -4.1779 -0.2738
4.7319 -4.1565 -0.2716
4.7387 -4.1173 -0.2603
4.7750 -4.0964 -0.2580
4.8212 -4.0813 -0.2587
4.8580 -4.0613 -0.2568
4.9040 -4.0463 -0.2574
1.9467 -5.4109 -0.2755
2.0078 -5.3779 -0.2727
2.0857 -5.2900 -0.2564
2.1477 -5.2455 -0.2505
2.2012 -5.2281 -0.2513
2.2581 -5.1974 -0.2487
2.3023 -5.2193 -0.2596
2.3591 -5.1887 -0.2570
2.4434 -5.0049 -0.2144
2.4983 -4.9568 -0.2068
2.6715 -4.6070 -0.1271
2.7114 -4.6152 -0.1336
2.7500 -4.6862 -0.1576
2.8922 -4.8897 -0.2298
2.9400 -4.8328 -0.2189
2.9778 -4.6965 -0.1847
3.0464 -4.8606 -0.2380
3.4213 -4.7947 -0.2593
3.5659 -4.7133 -0.2519
3.9728 -4.5694 -0.2547
4.3840 -4.4353 -0.2608
4.4086 -4.3950 -0.2521
4.6617 -4.3668 -0.2711
4.7466 -4.3734 -0.2819
4.7776 -4.3411 -0.2762
4.8411 -4.3315 -0.2802
4.7940 -4.1594 -0.2270
4.8000 -4.1202 -0.2166
4.9332 -4.1523 -0.2397
4.9819 -4.1364 -0.2405
1.9778 -5.4997 -0.2397
2.0410 -5.4649 -0.2371
2.0944 -5.4617 -0.2415
2.1526 -5.4427 -0.2423
2.2435 -5.2922 -0.2132
2.2761 -5.3740 -0.2370
2.5049 -4.9591 -0.1547
2.5589 -4.9028 -0.1457
2.6725 -4.6555 -0.0945
2.7182 -4.5827 -0.0806
2.7596 -4.5489 -0.0761
2.7991 -4.5990 -0.0925
2.8983 -4.9242 -0.1840
3.0704 -5.0224 -0.2254
3.1373 -5.0798 -0.2463
3.1967 -5.0736 -0.2505
3.2571 -5.0681 -0.2550
3.3215 -5.0756 -0.2631
3.3730 -5.0303 -0.2567
3.4348 -5.0244 -0.2612
3.4888 -4.9925 -0.2584
3.5514 -4.9863 -0.2629
3.6046 -4.9547 -0.2601
3.6466 -4.8994 -0.2502
3.6926 -4.8580 -0.2442
3.7487 -4.8397 -0.2451
3.8170 -4.8438 -0.2527
3.8808 -4.8372 -0.2572
3.9380 -4.8185 -0.2581
3.9952 -4.7999 -0.2589
4.0679 -4.8036 -0.2669
4.1012 -4.7511 -0.2569
4.1837 -4.7658 -0.2686
4.2416 -4.7469 -0.2695
4.3186 -4.7502 -0.2777
4.3384 -4.6879 -0.2640
4.4051 -4.6793 -0.2683
4.4527 -4.6506 -0.2657
4.4195 -4.5446 -0.2358
4.4639 -4.5179 -0.2333
4.5178 -4.5004 -0.2341
4.7959 -4.5386 -0.2707
4.8654 -4.5292 -0.2750
4.9103 -4.5013 -0.2724
4.9805 -4.4916 -0.2767
5.0524 -4.4824 -0.2814
5.0535 -4.4272 -0.2676
5.1531 -4.4353 -0.2793
5.1378 -4.3733 -0.2622
4.9347 -4.2069 -0.2006
4.8618 -4.1230 -0.1724
4.9087 -4.1077 -0.1731
1.8555 -5.9050 -0.2566
1.9421 -5.8205 -0.2453
2.4935 -4.8043 -0.0664
2.5308 -4.8351 -0.0766
2.5750 -4.8289 -0.0791
2.6261 -4.7610 -0.0684
2.6762 -4.6740 -0.0533
2.7227 -4.5862 -0.0378
2.7632 -4.5730 -0.0384
2.8037 -4.5598 -0.0390
2.8447 -4.5750 -0.0460
2.9648 -5.0600 -0.1649
3.0314 -5.1590 -0.1929
3.0910 -5.1539 -0.1970
3.2041 -5.4834 -0.2806
3.2788 -5.4990 -0.2906
3.3209 -5.3522 -0.2615
3.3862 -5.3309 -0.2624
3.4381 -5.2607 -0.2513
3.4832 -5.1784 -0.2369
3.7130 -5.2243 -0.2672
3.7513 -5.1411 -0.2520
3.8362 -5.1656 -0.2649
3.9011 -5.1445 -0.2659
3.9582 -4.9764 -0.2333
4.2058 -5.0102 -0.2626
4.2499 -4.9621 -0.2557
4.3029 -4.9284 -0.2528
4.4089 -4.9614 -0.2695
4.5378 -4.9193 -0.2714
4.5897 -4.8850 -0.2682
4.6163 -4.8261 -0.2574
4.7176 -4.8432 -0.2701
4.7417 -4.7852 -0.2592
4.7640 -4.7288 -0.2486
4.9243 -4.7932 -0.2770
4.9583 -4.7473 -0.2698
5.0219 -4.7266 -0.2707
5.0551 -4.6830 -0.2639
5.0866 -4.6399 -0.2570
5.2102 -4.5996 -0.2588
5.2721 -4.5794 -0.2597
5.2831 -4.5277 -0.2491
5.3105 -4.4881 -0.2427
5.2852 -4.3684 -0.2137
5.2954 -4.3251 -0.2049
1.6035 -6.3075 -0.2434
1.7802 -5.9878 -0.1947
2.4204 -4.6298 0.0209
2.4529 -4.6460 0.0151
2.4794 -4.6993 0.0026
2.5341 -4.8558 -0.0323
2.5736 -4.8883 -0.0418
2.6153 -4.9221 -0.0517
2.6792 -4.7011 -0.0134
2.7268 -4.5969 0.0032
2.7679 -4.5629 0.0067
2.8079 -4.5436 0.0073
2.8481 -4.5501 0.0029
3.1408 -5.5057 -0.2073
3.2170 -5.5396 -0.2199
3.3757 -5.5920 -0.2426
3.4187 -5.4532 -0.2188
3.5186 -5.5454 -0.2447
3.6025 -5.5624 -0.2546
3.7106 -5.6437 -0.2791
3.7330 -5.4754 -0.2479
3.8045 -5.4521 -0.2489
3.8760 -5.4288 -0.2500
3.9130 -5.3322 -0.2340
4.0006 -5.3459 -0.2435
4.0904 -5.3588 -0.2531
4.5242 -5.1131 -0.2391
4.5564 -4.9500 -0.2097
4.8606 -5.0859 -0.2602
4.9821 -5.1123 -0.2749
4.9370 -4.9785 -0.2452
4.9889 -4.9409 -0.2419
5.1442 -4.9934 -0.2644
5.1972 -4.9554 -0.2611
5.3249 -4.9777 -0.2755
5.1916 -4.7984 -0.2299
5.4484 -4.9158 -0.2731
5.6533 -4.9861 -0.3030
5.4959 -4.7373 -0.2419
5.4638 -4.5353 -0.1998
5.4536 -4.4747 -0.1871
5.4793 -4.4364 -0.1817
2.4092 -4.5608 0.0745
2.4323 -4.6063 0.0653
2.4555 -4.6632 0.0541
2.4880 -4.6869 0.0478
2.5140 -4.7595 0.0338
2.5853 -4.8443 0.0145
2.6117 -5.0197 -0.0169
2.6194 -5.5659 -0.1094
2.7263 -4.6985 0.0293
3.2053 -5.9589 -0.2165
3.2925 -5.9855 -0.2270
3.3678 -5.9329 -0.2234
3.4646 -5.6290 -0.1789
3.5610 -5.6911 -0.1961
3.6566 -5.7337 -0.2100
3.7414 -5.7320 -0.2156
3.7262 -5.4563 -0.1681
3.7966 -5.4334 -0.1691
3.8586 -5.3913 -0.1664
3.9285 -5.3685 -0.1674
4.0077 -5.3645 -0.1722
4.0876 -5.3592 -0.1769
4.2129 -5.4306 -0.1977
4.2866 -5.4065 -0.1987
4.5646 -5.4125 -0.2191
4.6256 -5.3677 -0.2158
4.8442 -5.3982 -0.2362
4.8360 -5.2751 -0.2149
4.9859 -5.2262 -0.2171
5.1548 -5.1950 -0.2236
5.5109 -5.0549 -0.2248
5.5409 -4.9973 -0.2172
5.7324 -5.0564 -0.2405
5.9109 -4.9483 -0.2347
5.7218 -4.7626 -0.1903
5.3921 -4.4524 -0.1150
5.4174 -4.4150 -0.1105
2.3013 -4.6122 0.1125
2.3493 -4.5619 0.1167
2.3798 -4.5698 0.1138
2.3999 -4.6219 0.1052
2.4314 -4.6367 0.1011
2.4609 -4.6669 0.0951
2.4976 -4.6686 0.0926
2.5112 -4.8139 0.0712
2.5511 -4.8249 0.0672
2.5653 -5.5681 -0.0388
2.6467 -5.2933 -0.0049
2.7755 -4.6051 0.0847
3.5049 -5.7809 -0.1262
3.5875 -5.7791 -0.1309
3.6436 -5.6865 -0.1212
3.6968 -5.5979 -0.1119
3.7475 -5.5133 -0.1031
3.7884 -5.4141 -0.0915
3.8821 -5.4474 -0.1019
3.9530 -5.4242 -0.1030
4.0149 -5.3831 -0.1009
4.8341 -5.6520 -0.1889
5.2031 -5.9809 -0.2579
5.3785 -6.0451 -0.2776
5.5056 -6.0456 -0.2854
5.3819 -5.7718 -0.2392
5.3379 -5.4877 -0.1963
5.5733 -5.6035 -0.2270
5.3214 -5.2658 -0.1639
5.5709 -5.0335 -0.1462
5.3750 -4.8168 -0.1036
5.4226 -4.7814 -0.1015
5.8185 -4.9769 -0.1532
5.8195 -4.9053 -0.1432
5.8203 -4.8370 -0.1335
5.5195 -4.5372 -0.0728
2.3546 -4.5656 0.1536
2.3869 -4.5667 0.1518
2.4167 -4.5802 0.1487
2.4369 -4.6401 0.1408
2.4679 -4.6627 0.1366
2.4989 -4.6937 0.1314
2.5342 -4.7107 0.1276
2.5686 -4.7438 0.1220
2.6105 -4.7301 0.1214
2.6532 -4.7088 0.1216
2.6938 -4.7113 0.1192
2.7378 -4.6590 0.1229
2.7800 -4.5946 0.1281
2.9415 -4.5630 0.1233
3.6673 -6.0577 -0.0865
3.8256 -6.2709 -0.1193
3.8260 -5.7242 -0.0565
4.0482 -6.0601 -0.1067
4.0099 -5.7433 -0.0683
3.9516 -5.4247 -0.0286
4.0220 -5.4017 -0.0296
4.1651 -5.5144 -0.0500
4.7640 -5.8603 -0.1211
4.7949 -5.7521 -0.1103
4.7536 -5.5566 -0.0856
4.9860 -5.7214 -0.1167
5.4745 -6.1740 -0.1943
5.4869 -6.0391 -0.1794
5.5554 -5.9745 -0.1756
5.6527 -5.9428 -0.1770
5.9156 -6.0754 -0.2060
5.7931 -5.3947 -0.1213
6.1568 -5.5831 -0.1620
6.4708 -5.7181 -0.1939
6.4144 -5.5750 -0.1745
5.5558 -4.8169 -0.0425
5.9011 -4.9722 -0.0784
5.8510 -4.8704 -0.0640
5.8990 -4.8326 -0.0622
5.5444 -4.5642 -0.0128
5.4124 -4.4363 0.0088
2.3788 -4.6205 0.1849
2.4110 -4.6280 0.1828
2.4408 -4.6502 0.1796
2.4733 -4.6662 0.1767
2.5030 -4.7043 0.1720
2.5408 -4.7058 0.1703
2.5792 -4.7082 0.1684
2.6200 -4.6948 0.1678
2.6595 -4.6968 0.1659
2.7002 -4.6910 0.1646
2.7441 -4.6182 0.1691
2.7850 -4.5506 0.1734
2.8233 -4.4818 0.1778
2.8588 -4.4171 0.1820
3.9857 -6.7825 -0.0774
3.9478 -6.3314 -0.0357
3.8788 -5.8659 0.0087
3.9590 -5.8398 0.0075
4.0179 -5.7642 0.0116
4.0044 -5.5411 0.0321
4.0103 -5.3829 0.0459
4.0893 -5.3784 0.0428
4.1592 -5.3556 0.0418
4.3214 -5.4855 0.0231
4.8698 -5.7212 -0.0218
5.2733 -6.0956 -0.0727
5.4263 -6.1307 -0.0825
5.4405 -6.0006 -0.0715
5.6881 -6.1345 -0.0943
5.7295 -5.9063 -0.0758
6.5015 -5.8691 -0.1062
6.5202 -5.7737 -0.0986
6.4615 -5.6271 -0.0830
6.3019 -5.4187 -0.0575
5.8347 -4.8748 0.0113
6.0587 -4.9431 -0.0046
5.5319 -4.5697 0.0516
2.3993 -4.7019 0.2173
2.4319 -4.7180 0.2152
2.4685 -4.7200 0.2137
2.5058 -4.7218 0.2123
2.5472 -4.7018 0.2121
2.5854 -4.7033 0.2107
2.6242 -4.7056 0.2091
2.6657 -4.6846 0.2090
2.7077 -4.6495 0.2097
2.7495 -4.5941 0.2118
2.8267 -4.4618 0.2174
2.8624 -4.4266 0.2184
2.8989 -4.4264 0.2171
3.7921 -6.4868 0.0555
3.6459 -5.6799 0.1116
3.7547 -5.5309 0.1172
3.8327 -5.5268 0.1147
3.9207 -5.5431 0.1105
3.9836 -5.5001 0.1110
4.0266 -5.4197 0.1146
4.0964 -5.3969 0.1135
4.1770 -5.3931 0.1109
4.2695 -5.4068 0.1068
4.6413 -5.5575 0.0842
4.8047 -5.6456 0.0728
5.0458 -5.8207 0.0533
5.3805 -6.0896 0.0245
5.4778 -6.0578 0.0231
5.6661 -6.1259 0.0121
5.6429 -5.9632 0.0232
5.5114 -5.7031 0.0443
6.6670 -6.1389 -0.0240
6.5533 -5.9286 -0.0067
6.6135 -5.8629 -0.0047
6.5098 -5.6804 0.0105
6.1492 -5.3290 0.0454
6.0542 -5.1801 0.0581
5.9415 -5.0283 0.0717
5.7724 -4.8501 0.0889
5.4084 -4.4580 0.1265
5.4656 -4.4393 0.1257
1.6757 -5.8644 0.2329
2.3871 -4.7800 0.2547
2.4276 -4.7668 0.2541
2.4681 -4.7536 0.2535
2.5099 -4.7324 0.2531
2.5525 -4.7045 0.2530
2.5933 -4.6847 0.2527
2.6331 -4.6717 0.2521
2.6735 -4.6510 0.2518
2.7131 -4.6381 0.2512
2.7535 -4.6044 0.2514
2.7931 -4.5516 0.2523
2.8308 -4.5015 0.2532
2.8664 -4.4478 0.2542
2.9037 -4.4540 0.2530
2.9502 -4.5542 0.2480
3.6120 -5.8368 0.1817
3.7543 -5.5293 0.1894
3.9551 -5.4422 0.1873
4.0624 -5.4957 0.1824
4.1441 -5.4917 0.1803
4.9521 -5.7135 0.1501
5.3903 -6.1153 0.1231
5.6384 -6.2577 0.1110
5.6763 -6.1526 0.1140
5.8440 -6.1906 0.1080
6.5007 -5.7962 0.1051
5.8477 -5.2141 0.1448
5.8986 -5.0152 0.1509
5.6917 -4.8130 0.1641
5.6546 -4.7270 0.1684
5.4467 -4.4916 0.1829
2.4140 -4.8605 0.2943
2.4795 -4.7261 0.2948
2.5177 -4.7212 0.2942
2.5565 -4.7151 0.2935
2.5946 -4.7168 0.2928
2.6364 -4.6890 0.2923
2.6769 -4.6693 0.2918
2.7167 -4.6563 0.2912
2.7567 -4.6356 0.2907
2.7963 -4.6303 0.2901
2.8353 -4.5622 0.2902
3.5937 -5.7644 0.2606
4.0407 -5.4566 0.2561
4.1952 -5.5931 0.2514
4.5203 -5.5371 0.2460
4.6259 -5.5548 0.2438
4.9803 -5.7608 0.2345
5.3206 -6.0442 0.2244
5.4975 -6.1093 0.2203
6.0566 -5.4748 0.2178
5.7065 -5.1250 0.2289
5.6640 -5.0172 0.2310
5.6049 -4.9039 0.2336
5.6109 -4.8400 0.2343
5.5564 -4.7404 0.2366
5.5250 -4.6605 0.2382
5.4620 -4.5658 0.2406
5.4864 -4.5264 0.2406
5.4932 -4.4785 0.2411
1.0770 -7.9549 0.3885
0.9931 -8.4957 0.3959
2.4820 -4.7447 0.3351
2.5218 -4.7318 0.3345
2.5606 -4.7257 0.3340
2.6023 -4.6978 0.3332
2.6434 -4.6702 0.3324
2.6821 -4.6652 0.3319
2.7212 -4.6590 0.3314
2.7603 -4.6605 0.3310
2.8003 -4.6475 0.3305
2.8409 -4.6791 0.3304
2.8849 -4.7359 0.3306
3.6142 -5.8300 0.3357
3.7685 -5.5663 0.3309
3.9780 -5.4979 0.3278
4.0768 -5.5335 0.3272
4.3527 -5.8956 0.3285
4.3653 -5.7448 0.3266
4.4167 -5.6733 0.3252
4.4661 -5.6035 0.3238
4.5141 -5.5364 0.3225
5.0507 -5.8627 0.3206
5.5564 -6.3457 0.3209
5.5074 -6.1351 0.3189
5.6905 -5.1274 0.3049
5.6493 -5.0205 0.3041
5.5106 -4.8523 0.3036
5.4780 -4.6440 0.3014
5.4337 -4.5610 0.3009
5.4585 -4.5223 0.3002
5.4830 -4.4847 0.2995
1.5113 -6.7579 0.4507
2.4448 -4.7753 0.3762
2.4904 -4.7318 0.3745
2.5319 -4.7050 0.3734
2.5730 -4.6773 0.3723
2.6116 -4.6647 0.3717
2.6509 -4.6453 0.3709
2.6883 -4.6463 0.3708
2.7252 -4.6695 0.3716
2.7637 -4.6933 0.3723
2.8041 -4.7033 0.3726
2.8455 -4.7129 0.3728
3.5348 -5.8275 0.4112
3.7540 -5.5267 0.3996
3.9152 -5.5392 0.3996
4.0126 -5.5757 0.4007
4.0181 -5.4196 0.3950
4.3339 -5.6958 0.4041
4.4202 -5.5387 0.3981
4.4807 -5.4947 0.3964
4.5967 -5.5318 0.3974
4.6566 -5.4869 0.3956
4.9974 -5.8057 0.4061
5.5058 -6.2980 0.4225
5.5467 -6.1953 0.4187
5.5284 -6.0326 0.4128
5.6786 -5.0553 0.3770
5.7053 -5.0003 0.3749
5.6655 -4.9031 0.3715
5.5016 -4.6710 0.3636
5.3578 -4.5272 0.3588
5.4146 -4.5086 0.3580
5.5049 -4.5090 0.3577
2.4471 -4.7942 0.4172
2.5873 -4.6130 0.4070
2.6250 -4.5941 0.4060
2.6580 -4.6210 0.4078
3.5729 -5.9670 0.4933
3.7903 -5.6240 0.4737
3.8607 -5.6011 0.4727
3.9059 -5.5197 0.4680
4.0104 -5.5744 0.4718
4.0164 -5.4203 0.4626
4.8070 -5.9941 0.5010
4.7132 -5.7071 0.4832
4.8639 -5.7778 0.4882
5.0266 -5.8547 0.4937
5.5159 -6.3246 0.5243
5.6482 -6.3292 0.5253
5.6550 -6.1893 0.5169
5.7293 -5.1846 0.4568
5.5240 -4.8874 0.4379
5.6103 -4.8792 0.4379
5.6987 -4.8715 0.4378
5.7020 -4.8093 0.4341
5.9010 -4.8687 0.4387
5.8125 -4.6955 0.4278
2.5049 -4.7158 0.4511
2.5875 -4.6486 0.4465
2.6265 -4.6235 0.4449
2.7349 -4.6541 0.4488
2.7729 -4.6708 0.4507
3.5619 -5.9141 0.5648
3.9098 -6.4973 0.6180
3.6995 -5.5851 0.5390
3.7471 -5.5070 0.5330
3.8516 -5.5792 0.5404
3.9128 -5.5379 0.5377
4.0176 -5.5932 0.5436
4.5380 -6.0731 0.5904
5.2714 -6.3437 0.6223
5.1674 -6.0489 0.5963
5.5261 -6.3512 0.6262
5.6266 -6.3184 0.6247
5.6343 -6.1806 0.6133
5.7634 -6.1832 0.6151
5.6894 -5.1685 0.5292
5.6275 -5.0455 0.5181
5.5503 -4.9187 0.5065
5.5370 -4.8425 0.4999
5.5825 -4.8086 0.4977
5.5327 -4.7153 0.4892
5.5028 -4.6390 0.4825
2.4403 -4.5659 0.4715
2.4800 -4.6892 0.4855
2.5186 -4.6698 0.4842
2.5558 -4.6577 0.4836
2.5930 -4.6455 0.4831
2.6280 -4.6533 0.4846
2.6995 -4.6851 0.4895
2.7368 -4.7090 0.4928
2.7768 -4.6880 0.4914
4.0655 -7.3859 0.8062
3.7557 -5.7471 0.6245
3.7747 -5.5809 0.6071
3.8510 -5.5786 0.6084
3.9113 -5.5364 0.6051
3.9628 -5.4779 0.5999
3.9467 -5.2872 0.5792
4.6330 -6.2502 0.6961
4.6843 -5.9835 0.6686
5.7240 -6.7862 0.7756
5.9047 -6.2115 0.7177
6.7003 -5.9519 0.7060
5.5973 -4.9649 0.5780
5.5246 -4.8467 0.5639
5.5502 -4.8001 0.5594
5.6534 -4.8047 0.5620
2.4293 -4.7917 0.5338
2.4826 -4.7051 0.5241
2.5236 -4.6724 0.5210
2.5616 -4.6544 0.5197
2.5968 -4.6554 0.5208
2.6340 -4.6432 0.5202
2.6689 -4.6579 0.5231
2.7421 -4.6896 0.5292
2.7811 -4.6837 0.5296
2.8208 -4.7626 0.5409
4.0615 -7.3618 0.9132
4.1566 -7.2730 0.9043
3.8357 -5.9783 0.7271
3.7963 -5.6384 0.6818
3.8423 -5.5577 0.6726
3.9182 -5.5545 0.6743
3.9227 -5.2423 0.6338
4.5079 -6.0334 0.7529
4.4560 -5.7759 0.7180
4.4771 -5.6601 0.7035
5.9136 -6.1044 0.8011
6.8879 -6.1142 0.8293
5.6249 -4.9976 0.6492
5.6518 -4.9469 0.6433
5.6356 -4.8694 0.6328
5.6798 -4.8345 0.6295
5.7663 -4.8267 0.6309
5.7888 -4.7797 0.6254
0.9922 -8.0185 1.0139
2.4397 -4.7714 0.5690
2.5249 -4.6967 0.5606
2.5614 -4.6906 0.5609
2.5996 -4.6724 0.5595
2.6334 -4.6945 0.5641
2.6709 -4.6891 0.5646
2.7079 -4.6976 0.5672
2.7455 -4.7150 0.5711
2.7847 -4.7170 0.5728
2.8249 -4.7736 0.5829
2.8697 -4.8697 0.5991
4.1042 -7.5010 1.0441
4.0486 -6.9231 0.9539
3.8344 -5.7403 0.7659
3.8568 -5.5948 0.7444
3.8854 -5.4804 0.7280
3.9671 -5.3361 0.7088
4.4028 -6.0264 0.8295
4.7470 -6.4703 0.9093
4.7611 -6.3012 0.8840
6.7062 -6.1051 0.9223
6.8199 -5.9721 0.9060
5.5705 -4.9717 0.7095
5.7225 -5.0089 0.7205
5.4936 -4.6143 0.6522
5.6781 -4.6694 0.6671
1.0427 -7.9337 1.1001
2.4258 -4.8678 0.6223
2.4875 -4.7396 0.6025
2.5277 -4.7127 0.5995
2.5691 -4.6739 0.5944
2.6052 -4.6679 0.5949
2.6422 -4.6558 0.5944
2.6777 -4.6638 0.5973
2.8290 -4.7685 0.6220
2.8727 -4.8370 0.6358
4.1468 -7.2291 1.1084
3.9306 -5.7796 0.8456
3.8764 -5.4616 0.7877
4.0095 -5.5883 0.8155
4.0783 -5.5659 0.8145
4.4558 -6.1337 0.9298
6.6073 -5.9354 0.9863
6.6630 -5.8735 0.9778
5.7294 -5.0271 0.7902
5.7327 -4.9605 0.7787
5.7142 -4.8827 0.7643
5.7170 -4.8219 0.7538
5.6052 -4.6940 0.7266
5.4570 -4.5515 0.6954
0.8767 -8.7507 1.3489
2.4412 -4.8227 0.6527
2.5279 -4.7446 0.6416
2.5649 -4.7395 0.6424
2.6030 -4.7271 0.6419
2.6746 -4.7616 0.6522
4.3549 -7.1389 1.2038
3.8181 -5.4999 0.8543
3.9645 -5.4938 0.8604
6.7405 -6.0572 1.1090
6.8840 -6.0578 1.1162
6.2846 -5.4303 0.9629
6.0218 -5.1699 0.8986
5.5640 -4.7971 0.8024
5.5330 -4.7181 0.7853
5.5928 -4.6986 0.7845
5.5985 -4.6469 0.7746
1.0586 -7.7588 1.2537
1.0631 -7.9870 1.3038
2.3989 -4.8785 0.6996
2.4978 -4.7448 0.6760
2.5375 -4.7190 0.6726
2.5708 -4.7350 0.6780
2.6077 -4.7299 0.6789
2.7572 -4.7534 0.6926
4.0222 -6.0098 1.0390
6.5274 -5.8066 1.1365
6.3368 -5.5704 1.0741
6.3888 -5.5197 1.0659
6.3123 -5.3826 1.0316
6.0251 -5.1138 0.9565
5.6707 -4.8180 0.8718
5.5989 -4.7144 0.8450
5.6410 -4.6843 0.8408
0.8658 -3.0505 0.7209
0.8612 -3.0114 0.7191
0.8486 -2.9725 0.7194
0.7869 -5.8746 0.8923
1.6744 -4.1716 0.5707
1.5665 -4.0924 0.5905
0.1619 -5.3360 1.0016
-0.0047 -5.3969 1.0446
-0.1194 -5.4003 1.0715
-0.1452 -5.3207 1.0722
0.0238 -4.9889 1.0104
-0.1518 -5.0292 1.0540
-0.3798 -3.9056 1.0314
0.7430 -3.1812 0.7210
0.7957 -3.1331 0.7054
0.8220 -3.0895 0.6964
0.7957 -3.0082 0.6970
0.8128 -2.9681 0.6903
0.8080 -2.9285 0.6888
-1.3747 -2.3304 1.1570
-1.9184 -1.9675 1.2592
-1.5235 -1.9789 1.1679
-2.1349 -1.3003 1.2646
-1.9757 -1.2773 1.2260
-0.5234 -1.7219 0.9176
-0.3858 -1.7286 0.8860
0.7015 -6.0334 0.8601
0.9061 -5.6113 0.7915
0.8658 -5.5863 0.7985
0.8577 -5.5116 0.7957
1.6175 -4.1665 0.5545
1.5389 -4.1725 0.5714
1.5428 -4.1242 0.5677
1.5606 -4.0623 0.5602
1.5544 -3.9864 0.5569
-0.5935 -4.0593 1.0142
0.8252 -3.2135 0.6641
0.8194 -3.1710 0.6628
0.9037 -3.1223 0.6421
0.8241 -3.0863 0.6567
0.7654 -3.0047 0.6641
0.8226 -2.9646 0.6496
0.8096 -2.9246 0.6500
-1.3259 -2.4084 1.0692
-2.0381 -1.9256 1.1903
0.1750 -2.3051 0.7465
0.2355 -2.2790 0.7321
0.5179 -2.2914 0.6733
-0.3892 -1.8177 0.8361
-0.4684 -1.7332 0.8477
1.5436 -4.1735 0.5392
1.5582 -4.1130 0.5332
1.7951 -3.7862 0.4712
1.7030 -3.7771 0.4881
0.8190 -3.2118 0.6248
0.8751 -3.1630 0.6116
0.8988 -3.1199 0.6049
0.8714 -3.0810 0.6080
0.8130 -3.0420 0.6169
0.7837 -3.0010 0.6203
0.8981 -2.9627 0.5967
0.8044 -2.9204 0.6121
0.7831 -2.8795 0.6139
-1.2412 -2.4912 0.9749
-1.4541 -2.3776 1.0090
-1.6041 -2.2674 1.0315
-1.5520 -2.1921 1.0177
0.3605 -2.3941 0.6679
0.4212 -2.3698 0.6551
0.4384 -2.3348 0.6500
0.5034 -2.3168 0.6368
0.4895 -2.2741 0.6372
1.6196 -4.1773 0.4950
1.5515 -4.2159 0.5081
1.5516 -4.1706 0.5060
1.7134 -3.8048 0.4625
1.1675 -4.0052 0.5622
0.8875 -3.1179 0.5681
0.9170 -3.0758 0.5613
0.8829 -3.0372 0.5652
0.9132 -2.9977 0.5583
0.8423 -2.9576 0.5683
0.7832 -2.9153 0.5761
0.7699 -2.8743 0.5765
-0.8743 -2.6053 0.8368
0.2523 -2.4936 0.6449
0.3333 -2.4667 0.6303
0.4044 -2.3990 0.6154
0.4537 -2.3722 0.6060
0.5241 -2.3165 0.5918
-0.2309 -1.9597 0.7007
0.8725 -2.2526 0.5311
1.7634 -4.2429 0.4466
1.7542 -4.2145 0.4468
1.7373 -4.1973 0.4486
1.7280 -4.1687 0.4488
1.6246 -4.2221 0.4656
1.6208 -4.1826 0.4647
1.5670 -4.1592 0.4715
1.7137 -3.8428 0.4384
1.7198 -3.8025 0.4360
1.1463 -4.0241 0.5264
0.8757 -3.2873 0.5369
0.8534 -3.2466 0.5386
0.8865 -3.1989 0.5320
0.9389 -3.1518 0.5227
0.9537 -3.1105 0.5190
0.9745 -3.0703 0.5145
0.9353 -3.0329 0.5187
0.9013 -2.9942 0.5221
0.8294 -2.9534 0.5308
0.8162 -2.9129 0.5311
0.7881 -2.8713 0.5336
0.7667 -2.8297 0.5350
0.7123 -2.7838 0.5410
0.1892 -2.5208 0.6057
0.3729 -2.5134 0.5792
0.4138 -2.4792 0.5721
0.4196 -2.4380 0.5697
0.4046 -2.3918 0.5700
0.4647 -2.3683 0.5606
0.5094 -2.3427 0.5532
0.5980 -2.3343 0.5402
0.9178 -2.2662 0.4919
1.7726 -4.2369 0.4174
1.5959 -4.2210 0.4380
1.5533 -4.2277 0.4433
1.5424 -4.1943 0.4436
1.1438 -4.0296 0.4862
0.8874 -3.2395 0.4927
0.8815 -3.1970 0.4921
0.8909 -3.1536 0.4896
0.9764 -3.1063 0.4780
0.9905 -3.0667 0.4751
0.9314 -3.0297 0.4810
0.8828 -2.9905 0.4856
0.7771 -2.9479 0.4970
0.8114 -2.9085 0.4916
0.7659 -2.8652 0.4958
0.7606 -2.8244 0.4951
0.7390 -2.7820 0.4964
0.1989 -2.6653 0.5574
0.2751 -2.6272 0.5472
0.3455 -2.5919 0.5377
0.3294 -2.5424 0.5381
0.3134 -2.4929 0.5385
1.6206 -4.2422 0.4041
1.6204 -4.1971 0.4030
1.5575 -4.2297 0.4098
1.5684 -4.1705 0.4074
1.1216 -4.0496 0.4476
0.9125 -3.2337 0.4489
0.8605 -3.1969 0.4530
0.9226 -3.1480 0.4459
0.9728 -3.1037 0.4401
0.9393 -3.0657 0.4424
0.9332 -3.0264 0.4421
0.9138 -2.9872 0.4431
0.8865 -2.9475 0.4448
0.8441 -2.9062 0.4479
0.7842 -2.8622 0.4527
0.7293 -2.8166 0.4569
0.6634 -2.7678 0.4621
0.5831 -2.5478 0.4647
0.5301 -2.4943 0.4686
0.5547 -2.4602 0.4655
0.5503 -2.4193 0.4649
0.5832 -2.3903 0.4611
0.6230 -2.3654 0.4567
0.6961 -2.2509 0.4471
1.6355 -4.2301 0.3707
1.6181 -4.2073 0.3716
1.5942 -4.1917 0.3731
1.5837 -4.1591 0.3734
1.5699 -4.1302 0.3739
1.0694 -4.0915 0.4094
0.9864 -4.0947 0.4155
0.9005 -3.2332 0.4086
0.8794 -3.1923 0.4094
0.9035 -3.1470 0.4070
0.8902 -3.1060 0.4074
0.9282 -3.0631 0.4040
0.8790 -3.0237 0.4069
0.8880 -2.9833 0.4056
0.8671 -2.9429 0.4065
0.8315 -2.9013 0.4085
0.7535 -2.8552 0.4134
0.3834 -2.7272 0.4381
0.2125 -2.6540 0.4493
-0.0508 -2.5584 0.4669
0.4607 -2.6005 0.4306
0.4120 -2.5460 0.4333
0.4419 -2.5085 0.4306
0.4266 -2.4613 0.4310
0.5157 -2.4427 0.4243
0.4913 -2.3950 0.4253
0.5173 -2.3627 0.4229
0.6158 -2.3560 0.4157
0.5929 -2.2375 0.4156
0.8292 -2.2054 0.3980
1.6433 -4.2273 0.3383
1.6128 -4.2214 0.3397
1.5595 -4.1484 0.3417
1.1088 -4.0668 0.3627
0.9181 -3.2285 0.3657
0.9046 -3.1869 0.3660
0.8762 -3.1466 0.3671
0.8852 -3.1033 0.3663
0.8946 -3.0611 0.3656
0.9175 -3.0198 0.3642
0.8526 -2.9792 0.3670
0.8693 -2.9391 0.3659
0.8864 -2.9004 0.3648
0.8125 -2.8555 0.3680
-0.0008 -2.6150 0.4052
0.3975 -2.4911 0.3852
0.4262 -2.4541 0.3835
0.3420 -2.3876 0.3871
-0.1895 -2.1315 0.4106
0.4312 -2.2868 0.3820
0.4374 -2.2483 0.3815
0.4439 -2.2107 0.3809
0.4507 -2.1741 0.3803
0.5440 -2.1737 0.3758
0.5494 -2.1396 0.3753
0.5358 -2.0976 0.3756
0.5028 -2.0466 0.3768
1.3085 -5.1635 0.3133
1.2590 -5.1726 0.3145
0.8172 -5.7117 0.3245
1.6209 -4.2185 0.3065
1.5303 -4.1885 0.3087
1.4781 -4.1992 0.3099
0.6769 -4.6064 0.3284
1.1537 -4.0910 0.3175
1.1054 -4.0733 0.3187
0.9054 -3.2279 0.3238
0.9223 -3.1824 0.3235
0.8546 -3.1456 0.3251
0.8729 -3.1009 0.3247
0.8971 -3.0577 0.3241
0.8914 -3.0166 0.3243
0.9241 -2.8987 0.3236
0.8754 -2.8565 0.3248
-0.1620 -2.5827 0.3492
0.3858 -2.4812 0.3364
0.4271 -2.4471 0.3355
-0.6864 -2.0265 0.3618
0.2058 -2.2023 0.3408
0.3263 -2.2004 0.3380
-0.1810 -1.9154 0.3500
0.1130 -1.9869 0.3431
-0.0676 -1.8642 0.3474
-0.2735 -1.7244 0.3523
-0.1034 -1.7540 0.3483
1.3111 -5.1011 0.2653
1.1955 -5.1390 0.2648
1.1944 -5.0654 0.2654
1.6433 -4.2902 0.2728
1.6327 -4.2574 0.2730
1.5946 -4.2603 0.2730
1.5228 -4.2528 0.2729
1.4371 -4.3031 0.2724
0.6743 -4.6922 0.2679
0.5216 -4.7464 0.2672
1.1444 -4.1026 0.2737
1.1303 -4.0591 0.2740
0.8947 -3.1828 0.2812
0.8544 -2.7343 0.2851
0.4282 -2.4401 0.2870
-0.6182 -2.0355 0.2889
-0.8519 -1.8969 0.2898
-0.5919 -1.9195 0.2900
-0.2759 -1.8141 0.2913
-0.2764 -1.7622 0.2918
-0.2958 -1.7024 0.2923
1.5923 -4.2711 0.2381
1.4933 -4.3478 0.2341
1.5238 -4.2591 0.2364
1.3933 -4.3616 0.2312
1.1962 -4.5276 0.2232
1.1061 -4.1370 0.2273
1.0984 -4.0868 0.2280
0.9208 -3.1774 0.2385
0.8384 -2.6513 0.2452
0.8406 -2.6149 0.2459
0.7166 -2.5481 0.2437
-0.8091 -1.9653 0.2128
-0.6237 -1.9590 0.2178
0.1887 -2.1328 0.2366
-0.2973 -1.8464 0.2284
-0.3571 -1.7681 0.2282
-0.3572 -1.7148 0.2291
-0.3381 -1.6710 0.2303
1.6325 -4.2739 0.2048
1.5895 -4.2829 0.2023
1.5555 -4.2772 0.2007
1.5441 -4.2419 0.2010
1.5124 -4.2302 0.1997
1.0737 -4.1671 0.1783
1.0880 -4.0988 0.1808
0.9001 -3.1770 0.1941
0.9175 -3.1318 0.1962
1.0622 -2.8260 0.2114
1.0393 -2.7885 0.2111
1.0389 -2.7542 0.2120
0.9908 -2.7115 0.2105
0.9055 -2.6596 0.2074
0.8642 -2.6146 0.2064
0.7677 -2.5545 0.2028
-0.3800 -2.1461 0.1532
-0.6316 -1.9444 0.1451
0.1072 -2.1409 0.1787
-0.2439 -1.9096 0.1662
1.6017 -4.2750 0.1676
1.5755 -4.2597 0.1661
1.5452 -4.2481 0.1641
1.5213 -4.2270 0.1630
1.5011 -4.2006 0.1623
1.4720 -4.1830 0.1606
1.2190 -4.2218 0.1395
1.1717 -4.2070 0.1363
1.0776 -4.2281 0.1283
1.0056 -4.2255 0.1227
-0.2668 -4.9009 0.0007
-0.5827 -4.4511 -0.0089
-0.6438 -4.3741 -0.0111
-0.7743 -4.3225 -0.0196
-0.8049 -4.2282 -0.0188
-0.8355 -4.1338 -0.0180
0.9918 -3.1648 0.1572
0.9714 -3.1247 0.1570
1.0460 -3.0405 0.1656
1.0336 -3.0022 0.1659
1.0341 -2.9643 0.1672
1.1858 -2.8687 0.1823
1.0887 -2.8249 0.1762
1.0772 -2.7895 0.1765
1.1106 -2.7615 0.1800
1.0768 -2.7228 0.1787
0.9811 -2.6701 0.1729
0.8600 -2.6079 0.1656
0.6493 -2.5184 0.1521
-0.4727 -2.0464 0.0803
-0.4949 -1.9781 0.0808
0.2814 -2.1932 0.1343
-0.7866 -1.6846 0.0679
0.1429 -1.8711 0.1342
1.6141 -4.3164 0.1312
1.5689 -4.3270 0.1260
1.5573 -4.2911 0.1263
1.5336 -4.2700 0.1247
1.2883 -4.2748 0.0989
-0.4138 -5.1192 -0.1143
-0.4750 -5.0478 -0.1176
-0.5980 -4.7858 -0.1195
-0.6619 -4.7091 -0.1229
-0.6592 -4.5972 -0.1179
-0.6837 -4.2875 -0.1075
-0.6174 -4.1601 -0.0952
-0.6780 -4.0808 -0.0982
-0.8082 -4.0207 -0.1092
-0.8385 -3.9274 -0.1085
0.9140 -3.1702 0.1063
0.9598 -3.1228 0.1130
0.9968 -3.0385 0.1204
0.9417 -2.9986 0.1164
0.9442 -2.9184 0.1200
0.9452 -2.8794 0.1217
1.0517 -2.7133 0.1398
0.9902 -2.6669 0.1354
0.8320 -2.5956 0.1219
-0.5489 -2.0107 0.0023
-0.5243 -1.9564 0.0072
0.0718 -2.0604 0.0650
-0.4767 -1.7943 0.0189
-0.6887 -1.6482 0.0030
-0.3910 -1.7169 0.0311
1.2416 -4.5114 0.0359
1.1254 -4.5764 0.0174
1.2987 -4.2710 0.0556
-0.4523 -5.1548 -0.2186
-0.4520 -5.0396 -0.2127
-0.6053 -4.6832 -0.2147
-0.5710 -4.5566 -0.2038
-0.7340 -4.5257 -0.2236
-0.8011 -4.4448 -0.2283
-0.7965 -4.3331 -0.2220
-0.7246 -4.1992 -0.2058
-0.7890 -4.1172 -0.2101
-0.8549 -4.0335 -0.2145
-0.7809 -3.9097 -0.1985
-0.9167 -3.8429 -0.2130
-0.9477 -3.7476 -0.2122
-0.9420 -3.6456 -0.2063
1.0123 -3.0751 0.0787
0.9931 -3.0353 0.0782
0.8689 -2.9946 0.0639
0.8380 -2.9512 0.0621
0.8079 -2.9069 0.0604
0.7264 -2.8139 0.0544
0.9542 -2.6538 0.0924
0.7545 -2.5711 0.0704
0.4352 -2.4493 0.0348
-0.7375 -2.0057 -0.0964
-0.7082 -1.9475 -0.0896
-0.8149 -1.8448 -0.0984
-0.8082 -1.7138 -0.0908
-0.6988 -1.6925 -0.0754
-0.6214 -1.6629 -0.0638
-0.6942 -1.5710 -0.0687
1.0826 -5.0022 -0.0672
1.0284 -4.9953 -0.0754
1.0006 -4.9516 -0.0772
0.8791 -5.0194 -0.1004
1.1385 -4.6389 -0.0368
1.1682 -4.5382 -0.0261
1.2626 -4.3736 -0.0014
0.8121 -4.5403 -0.0825
0.6486 -4.6040 -0.1121
-0.2544 -5.0212 -0.2796
-0.2030 -4.8780 -0.2630
-0.2310 -4.7917 -0.2623
-0.3408 -4.7548 -0.2774
-0.3415 -4.6500 -0.2713
-0.1630 -4.3569 -0.2257
-0.1178 -4.2429 -0.2118
-0.2155 -4.1950 -0.2244
-0.3994 -4.1765 -0.2523
-0.5128 -4.1222 -0.2670
-0.4549 -4.0055 -0.2509
-0.5111 -3.9286 -0.2552
-0.2235 -3.7568 -0.1996
-0.2487 -3.6792 -0.1989
-0.3478 -3.6173 -0.2109
-0.3992 -3.5424 -0.2146
-0.3994 -3.4582 -0.2096
0.7814 -2.9452 0.0074
0.0142 -2.8572 -0.1086
0.0629 -2.7989 -0.0974
0.3174 -2.7656 -0.0552
0.9837 -2.6549 0.0567
0.8812 -2.5956 0.0440
0.4360 -2.4419 -0.0172
-0.6392 -2.0234 -0.1622
-1.2392 -1.6844 -0.2369
-1.2673 -1.5981 -0.2362
-1.0562 -1.6042 -0.2032
-0.6537 -1.6357 -0.1415
-0.6512 -1.5761 -0.1375
-0.6495 -1.5170 -0.1338
-0.6475 -1.4591 -0.1300
0.8477 -5.8239 -0.2252
1.0194 -5.4489 -0.1677
0.9135 -5.5206 -0.1922
0.9153 -5.4242 -0.1853
0.6755 -5.6722 -0.2467
0.8395 -5.3466 -0.1941
0.8543 -5.2362 -0.1838
0.8912 -5.1016 -0.1678
1.1508 -4.6345 -0.0877
1.1498 -4.5676 -0.0833
1.2736 -4.3697 -0.0469
1.3197 -4.2635 -0.0311
0.6257 -4.7959 -0.1961
0.5621 -4.7686 -0.2060
0.5690 -4.6784 -0.1986
0.3591 -4.7639 -0.2433
0.2456 -4.7610 -0.2642
0.3127 -4.6209 -0.2422
0.3073 -4.5374 -0.2375
0.3364 -4.4329 -0.2249
0.3303 -4.3537 -0.2206
0.2383 -4.3246 -0.2357
0.2514 -4.2344 -0.2271
0.2109 -4.1734 -0.2305
0.2060 -4.0947 -0.2260
0.2015 -4.0171 -0.2215
0.1790 -3.9478 -0.2210
0.0614 -3.9132 -0.2404
0.0576 -3.8346 -0.2357
0.0344 -3.7631 -0.2351
0.0511 -3.6809 -0.2264
0.0081 -3.6153 -0.2299
-0.0352 -3.5487 -0.2334
-0.0379 -3.4735 -0.2288
-0.0609 -3.4026 -0.2282
-0.0839 -3.3316 -0.2276
0.7895 -2.9861 -0.0421
0.7747 -2.9406 -0.0417
0.0092 -2.7876 -0.1732
0.0580 -2.7311 -0.1603
1.1171 -2.7444 0.0352
1.1002 -2.7082 0.0345
1.1055 -2.6768 0.0376
0.9202 -2.5992 0.0086
0.4483 -2.4375 -0.0679
-0.8371 -1.8797 -0.2680
-0.4490 -1.7098 -0.1845
-0.6097 -1.5807 -0.2055
1.2312 -5.2921 -0.1753
1.1650 -4.7687 -0.1489
1.2014 -4.6533 -0.1323
1.2078 -4.5781 -0.1251
1.3111 -4.3969 -0.0891
1.3661 -4.2787 -0.0682
1.3579 -4.2314 -0.0663
1.3608 -4.1739 -0.0612
1.2663 -4.2084 -0.0840
1.2131 -4.1993 -0.0947
0.5214 -4.4765 -0.2635
0.4557 -4.4416 -0.2748
0.3535 -4.4268 -0.2955
0.3644 -4.3372 -0.2862
0.4063 -4.2324 -0.2692
0.3518 -3.9536 -0.2593
0.2645 -3.4159 -0.2363
0.3066 -3.3434 -0.2217
0.3459 -3.2747 -0.2080
0.7266 -3.1267 -0.1154
0.7584 -3.0761 -0.1047
0.7716 -3.0283 -0.0982
0.8440 -2.9826 -0.0793
0.7860 -2.9366 -0.0881
0.8644 -2.8968 -0.0683
0.8261 -2.8516 -0.0729
0.7512 -2.8011 -0.0850
1.0625 -2.7645 -0.0158
1.0985 -2.7364 -0.0060
1.0803 -2.6993 -0.0070
1.0919 -2.6687 -0.0021
1.0213 -2.6186 -0.0133
1.2191 -5.2468 -0.2327
1.1141 -5.0801 -0.2436
1.1559 -4.9422 -0.2216
1.2241 -4.7757 -0.1908
1.2511 -4.6706 -0.1752
1.3983 -4.3646 -0.1132
1.4004 -4.3051 -0.1075
1.3817 -4.2694 -0.1090
1.3575 -4.2388 -0.1122
1.3439 -4.1968 -0.1118
1.3787 -4.1095 -0.0959
0.9086 -4.4058 -0.2349
0.8907 -4.3507 -0.2345
0.8728 -4.2956 -0.2340
0.9044 -4.2046 -0.2185
0.8082 -4.1374 -0.2359
0.7690 -4.0949 -0.2417
0.7619 -4.0323 -0.2380
0.7100 -3.9947 -0.2473
0.7143 -3.9265 -0.2404
0.6731 -3.8811 -0.2464
0.6779 -3.8142 -0.2394
0.6236 -3.7725 -0.2489
0.6178 -3.7106 -0.2450
0.6352 -3.6419 -0.2348
0.6172 -3.5861 -0.2344
0.5625 -3.5402 -0.2436
0.5441 -3.4834 -0.2431
0.5257 -3.4266 -0.2427
0.5804 -3.3567 -0.2234
0.6325 -3.2914 -0.2052
0.5086 -3.2515 -0.2317
0.4648 -3.1981 -0.2376
0.4464 -3.1416 -0.2371
0.5287 -3.0813 -0.2121
0.8267 -3.0236 -0.1352
0.7772 -2.9776 -0.1432
0.7972 -2.9325 -0.1344
0.8667 -2.8925 -0.1142
0.8767 -2.8513 -0.1082
0.9390 -2.8172 -0.0902
0.9265 -2.7378 -0.0864
1.0477 -2.7222 -0.0558
1.1012 -2.6986 -0.0408
1.0951 -2.6643 -0.0393
1.0481 -2.6199 -0.0468
0.1570 -2.2903 -0.2334
0.1226 -2.2284 -0.2363
0.1041 -2.1712 -0.2359
0.0705 -2.1086 -0.2385
0.0670 -2.0568 -0.2349
0.0332 -1.9936 -0.2376
0.0617 -1.9558 -0.2275
0.1478 -1.9451 -0.2057
1.4234 -4.5217 -0.1673
1.4459 -4.4320 -0.1527
1.4765 -4.3362 -0.1352
1.4540 -4.3075 -0.1386
1.2574 -4.4743 -0.2076
1.2002 -4.4727 -0.2229
1.2707 -4.2754 -0.1850
1.4163 -4.0291 -0.1221
1.0576 -4.2854 -0.2434
1.0075 -4.2621 -0.2547
0.9989 -4.2042 -0.2515
1.0337 -4.1153 -0.2336
1.0506 -4.0428 -0.2221
0.9847 -4.0267 -0.2383
0.8443 -3.6282 -0.2381
0.7987 -3.5873 -0.2465
0.8115 -3.5271 -0.2373
0.7951 -3.4765 -0.2368
0.7890 -3.4235 -0.2334
0.7822 -3.3713 -0.2302
0.7564 -3.3230 -0.2326
0.7401 -3.2727 -0.2322
0.7238 -3.2224 -0.2318
0.5941 -3.1281 -0.2577
0.9416 -3.0618 -0.1576
0.7190 -3.0208 -0.2137
0.7327 -2.9726 -0.2054
0.7069 -2.9242 -0.2078
0.8734 -2.8048 -0.1514
0.9644 -2.7768 -0.1242
1.0504 -2.7177 -0.0953
1.0929 -2.6586 -0.0782
1.0206 -2.6073 -0.0927
0.3030 -1.9597 -0.2245
0.3237 -1.9270 -0.2157
0.2955 -1.8713 -0.2180
0.2671 -1.8150 -0.2203
1.5437 -4.3704 -0.1627
1.5042 -4.3663 -0.1741
1.4527 -4.3744 -0.1904
1.3523 -4.4363 -0.2269
1.2755 -4.4627 -0.2526
1.2537 -4.4233 -0.2550
1.2175 -4.3982 -0.2632
1.2088 -4.3438 -0.2600
1.1935 -4.2964 -0.2596
1.3928 -4.0043 -0.1694
1.2037 -4.1082 -0.2368
1.1472 -4.0949 -0.2523
1.1165 -4.0593 -0.2577
1.1315 -3.9909 -0.2461
1.1015 -3.9542 -0.2512
1.0863 -3.9073 -0.2508
1.0711 -3.8604 -0.2504
1.0635 -3.8093 -0.2473
1.0562 -3.7587 -0.2442
1.0411 -3.7123 -0.2438
1.0260 -3.6659 -0.2434
0.9781 -3.6325 -0.2542
0.9627 -3.5851 -0.2538
0.9727 -3.5293 -0.2450
0.9575 -3.4826 -0.2446
0.9341 -3.4382 -0.2469
0.9272 -3.3893 -0.2438
0.9121 -3.3426 -0.2435
0.8884 -3.2974 -0.2458
0.8818 -3.2493 -0.2427
0.8667 -3.2026 -0.2423
0.8154 -3.1591 -0.2531
0.9741 -3.1007 -0.1995
0.8381 -3.0620 -0.2361
0.7881 -3.0160 -0.2462
0.7819 -2.9691 -0.2431
0.7666 -2.9221 -0.2427
0.7319 -2.8739 -0.2480
0.7362 -2.8283 -0.2420
0.7669 -2.7869 -0.2284
0.8216 -2.7512 -0.2083
1.0218 -2.7433 -0.1477
0.9889 -2.7008 -0.1530
1.0032 -2.6675 -0.1452
1.0604 -2.6456 -0.1259
1.0364 -2.6057 -0.1288
0.5469 -2.3902 -0.2525
0.5739 -2.3559 -0.2408
0.5586 -2.3088 -0.2404
0.5536 -2.2654 -0.2374
0.5682 -2.2300 -0.2293
0.5335 -2.1758 -0.2339
0.4974 -2.1202 -0.2389
0.4704 -2.0678 -0.2414
0.4550 -2.0204 -0.2411
0.4515 -1.9787 -0.2377
0.4242 -1.9255 -0.2403
0.4209 -1.8844 -0.2370
1.8102 -4.2407 -0.1034
1.4615 -4.4311 -0.2397
1.4820 -4.3469 -0.2233
1.4739 -4.3004 -0.2206
1.3319 -4.2867 -0.2657
1.3445 -4.1597 -0.2470
1.3361 -4.1122 -0.2443
1.3667 -4.0316 -0.2250
1.3204 -4.0178 -0.2386
1.2523 -3.8081 -0.2369
1.1910 -3.6435 -0.2382
1.1574 -3.5616 -0.2398
1.1425 -3.4266 -0.2292
1.0189 -3.2269 -0.2469
1.0270 -3.1811 -0.2390
1.1265 -3.1286 -0.2003
1.0688 -3.0919 -0.2150
0.9429 -2.9681 -0.2422
0.9513 -2.9262 -0.2346
0.9447 -2.8844 -0.2320
0.9083 -2.8400 -0.2388
0.8789 -2.7953 -0.2434
0.9340 -2.7623 -0.2215
0.9564 -2.7271 -0.2101
0.9784 -2.6934 -0.1990
1.0063 -2.6627 -0.1863
1.0510 -2.6379 -0.1688
1.0989 -2.6166 -0.1506
1.0390 -2.5670 -0.1646
0.7109 -2.2774 -0.2391
0.6796 -2.2271 -0.2436
1.6410 -4.2569 -0.2004
1.5412 -4.3366 -0.2461
1.5018 -4.3309 -0.2595
1.4930 -4.2857 -0.2570
1.4894 -4.2350 -0.2520
1.4671 -4.2058 -0.2563
1.4541 -4.1658 -0.2560
1.4464 -4.1206 -0.2532
1.4380 -4.0765 -0.2507
1.4351 -4.0278 -0.2457
1.4177 -3.9926 -0.2475
1.3471 -4.0007 -0.2738
1.3503 -3.9463 -0.2659
1.3586 -3.8896 -0.2559
1.3294 -3.8607 -0.2627
1.3211 -3.8169 -0.2603
1.3080 -3.7764 -0.2599
1.2949 -3.7359 -0.2596
1.2876 -3.6922 -0.2568
1.2726 -3.6063 -0.2514
1.2657 -3.5637 -0.2486
1.2467 -3.5264 -0.2508
1.2160 -3.4929 -0.2576
1.2324 -3.4426 -0.2455
1.1938 -3.3238 -0.2445
1.1689 -3.2866 -0.2488
1.1250 -3.2520 -0.2602
1.1373 -3.2075 -0.2503
1.1367 -3.1660 -0.2454
1.1238 -3.1262 -0.2450
1.1038 -3.0465 -0.2423
1.0721 -2.9671 -0.2437
1.0592 -2.9273 -0.2434
1.0189 -2.8855 -0.2526
1.0334 -2.8478 -0.2428
1.0133 -2.8071 -0.2449
1.0076 -2.7682 -0.2421
1.0010 -2.7296 -0.2397
1.0347 -2.6992 -0.2238
1.1138 -2.6811 -0.1932
1.1301 -2.6518 -0.1838
1.1240 -2.6178 -0.1817
1.1289 -2.5872 -0.1762
1.0361 -2.5269 -0.2019
0.9598 -2.4685 -0.2220
0.8613 -2.3995 -0.2487
0.8481 -2.3590 -0.2483
0.8656 -2.3307 -0.2386
0.8299 -2.2814 -0.2452
0.8168 -2.2411 -0.2449
0.7886 -2.1939 -0.2491
0.7672 -2.1493 -0.2512
0.7540 -2.1085 -0.2509
0.8108 -2.1036 -0.2300
1.6566 -4.2445 -0.2329
1.6155 -4.2480 -0.2494
1.5925 -4.2254 -0.2553
1.5805 -4.1884 -0.2550
1.5877 -4.1291 -0.2442
1.5644 -4.1055 -0.2501
1.5561 -4.0649 -0.2479
1.5568 -4.0156 -0.2410
1.5241 -3.9996 -0.2515
1.5250 -3.9509 -0.2446
1.5170 -3.9112 -0.2424
1.5176 -3.8646 -0.2359
1.4935 -3.8385 -0.2418
1.4904 -3.7958 -0.2373
1.4955 -3.7480 -0.2289
1.4799 -3.7152 -0.2305
1.4463 -3.6933 -0.2406
1.4395 -3.6541 -0.2380
1.4278 -3.6179 -0.2377
1.4017 -3.5890 -0.2440
1.3856 -3.5544 -0.2456
1.3831 -3.5136 -0.2411
1.3661 -3.4792 -0.2431
1.3662 -3.3981 -0.2321
1.3501 -3.3635 -0.2337
1.3339 -3.3287 -0.2354
1.3222 -3.2925 -0.2351
1.3151 -3.2554 -0.2329
1.3080 -3.2186 -0.2306
1.3114 -3.1806 -0.2242
1.2951 -3.1457 -0.2259
1.2578 -3.1122 -0.2359
1.2248 -3.0771 -0.2440
1.2498 -3.0392 -0.2292
1.2175 -3.0033 -0.2369
1.1889 -2.9664 -0.2431
1.1931 -2.8948 -0.2318
1.1176 -2.7802 -0.2458
1.1285 -2.7470 -0.2371
1.1397 -2.7151 -0.2284
1.1450 -2.6829 -0.2221
1.1655 -2.6553 -0.2104
1.1757 -2.6263 -0.2025
1.2048 -2.6039 -0.1882
1.1798 -2.5661 -0.1929
1.1424 -2.5235 -0.2017
0.9970 -2.4082 -0.2427
0.9917 -2.3737 -0.2401
0.9399 -2.3200 -0.2531
0.9275 -2.2820 -0.2527
0.9083 -2.2408 -0.2547
0.8889 -2.1994 -0.2567
0.8625 -2.1540 -0.2609
1.7063 -4.3376 -0.2657
1.7303 -4.2493 -0.2430
1.7798 -4.1285 -0.2048
1.6855 -4.2134 -0.2565
1.6708 -4.1833 -0.2583
1.6561 -4.1529 -0.2601
1.6370 -4.0789 -0.2575
1.6257 -4.0441 -0.2572
1.6071 -4.0170 -0.2611
1.5958 -3.9819 -0.2608
1.5955 -3.9361 -0.2543
1.5768 -3.9084 -0.2581
1.5654 -3.8734 -0.2579
1.5579 -3.8353 -0.2555
1.5428 -3.8036 -0.2573
1.5354 -3.7657 -0.2549
1.5161 -3.7365 -0.2588
1.5048 -3.7014 -0.2585
1.4812 -3.6739 -0.2644
1.4499 -3.6075 -0.2679
1.4634 -3.5591 -0.2553
1.4225 -3.4178 -0.2521
1.3980 -3.3873 -0.2580
1.4132 -3.3442 -0.2454
1.3682 -3.2807 -0.2551
1.3434 -3.1742 -0.2501
1.3048 -3.0700 -0.2513
1.2708 -2.9652 -0.2504
1.2694 -2.9309 -0.2461
1.2631 -2.8966 -0.2438
1.2368 -2.8605 -0.2496
1.2152 -2.8242 -0.2534
1.2038 -2.7890 -0.2531
1.2028 -2.7557 -0.2487
1.1810 -2.7186 -0.2525
1.1643 -2.6822 -0.2543
1.1794 -2.6536 -0.2438
1.2421 -2.6096 -0.2112
1.2815 -2.5930 -0.1922
1.2582 -2.5572 -0.1969
1.2005 -2.5083 -0.2140
1.1598 -2.4640 -0.2247
1.0950 -2.4086 -0.2439
1.0611 -2.3642 -0.2517
1.0554 -2.3314 -0.2494
1.0141 -2.2823 -0.2596
1.2693 -2.3510 -0.1625
1.2433 -2.3128 -0.1679
1.8285 -4.3505 -0.2529
1.8180 -4.3183 -0.2526
1.8020 -4.2956 -0.2564
1.7864 -4.2715 -0.2597
1.7758 -4.2388 -0.2594
1.8204 -4.1227 -0.2214
1.8059 -4.0990 -0.2243
1.7553 -4.1250 -0.2511
1.7361 -4.1045 -0.2566
1.7317 -4.0641 -0.2523
1.7212 -4.0318 -0.2520
1.7163 -3.9929 -0.2482
1.6938 -3.9743 -0.2555
1.6739 -3.9517 -0.2610
1.6756 -3.9062 -0.2532
1.6621 -3.8766 -0.2547
1.6382 -3.8564 -0.2624
1.6245 -3.8260 -0.2639
1.6403 -3.7707 -0.2482
1.6299 -3.7384 -0.2479
1.6226 -3.7039 -0.2459
1.6049 -3.6376 -0.2436
1.5881 -3.6096 -0.2469
1.5600 -3.5113 -0.2443
1.5672 -3.4708 -0.2348
1.5468 -3.4437 -0.2398
1.5468 -3.4078 -0.2343
1.5037 -3.3882 -0.2507
1.5115 -3.3496 -0.2412
1.5125 -3.3142 -0.2353
1.4951 -3.2844 -0.2385
1.4731 -3.2552 -0.2440
1.4522 -3.1908 -0.2434
1.4575 -3.1564 -0.2358
1.4350 -3.1260 -0.2412
1.4284 -3.0935 -0.2392
1.4228 -3.0613 -0.2367
1.4098 -2.9976 -0.2327
1.3829 -2.9654 -0.2399
1.3765 -2.9335 -0.2379
1.3363 -2.8990 -0.2506
1.3268 -2.8042 -0.2403
1.3029 -2.7695 -0.2457
1.2789 -2.7341 -0.2510
1.2912 -2.7066 -0.2412
1.2892 -2.6764 -0.2375
1.2703 -2.6420 -0.2407
1.2683 -2.6122 -0.2370
1.2623 -2.5815 -0.2350
1.2475 -2.5480 -0.2364
1.2371 -2.5159 -0.2362
1.2178 -2.4804 -0.2394
1.1828 -2.4380 -0.2486
1.1766 -2.4070 -0.2466
1.1512 -2.3676 -0.2520
1.2752 -2.3977 -0.2008
1.2988 -2.3841 -0.1881
1.2684 -2.3442 -0.1956
1.1923 -2.2794 -0.2199
1.1386 -2.2244 -0.2355
1.8586 -4.3065 -0.2683
1.8558 -4.2623 -0.2623
1.8482 -4.2272 -0.2602
1.8257 -4.2170 -0.2694
1.8206 -4.1776 -0.2653
1.8330 -4.1122 -0.2486
1.8134 -4.0963 -0.2554
1.8035 -4.0657 -0.2552
1.7856 -4.0459 -0.2606
1.7755 -4.0150 -0.2603
1.7573 -3.9943 -0.2657
1.7269 -3.9006 -0.2649
1.7254 -3.8605 -0.2591
1.7095 -3.8353 -0.2626
1.6965 -3.8069 -0.2642
1.6451 -3.6132 -0.2570
1.5477 -3.3722 -0.2643
1.5554 -3.3010 -0.2489
1.4384 -2.9642 -0.2499
1.4184 -2.9026 -0.2494
1.3965 -2.8704 -0.2547
1.3944 -2.8404 -0.2507
1.3803 -2.8089 -0.2523
1.3662 -2.7771 -0.2539
1.3602 -2.7468 -0.2518
1.3501 -2.7158 -0.2516
1.3527 -2.6881 -0.2458
1.3300 -2.6538 -0.2511
1.3242 -2.6241 -0.2490
1.3099 -2.5917 -0.2505
1.2782 -2.5531 -0.2595
1.2941 -2.5313 -0.2482
1.2753 -2.4970 -0.2516
1.2696 -2.4677 -0.2495
1.2596 -2.4367 -0.2493
1.2315 -2.3974 -0.2564
1.3155 -2.4107 -0.2181
1.3060 -2.3815 -0.2178
1.2758 -2.3416 -0.2258
1.2325 -2.2939 -0.2389
1.1945 -2.2480 -0.2496
1.8946 -4.2033 -0.2679
1.8960 -4.1547 -0.2587
1.8909 -4.1185 -0.2549
1.8835 -4.0866 -0.2532
1.8678 -4.0676 -0.2580
1.8712 -4.0195 -0.2478
1.8581 -3.9966 -0.2505
1.8461 -3.9715 -0.2523
1.8348 -3.9453 -0.2535
1.8390 -3.8996 -0.2434
1.8229 -3.8794 -0.2481
1.8046 -3.8611 -0.2543
1.7924 -3.8352 -0.2561
1.8001 -3.7885 -0.2439
1.7952 -3.7558 -0.2407
1.7787 -3.7344 -0.2454
1.7746 -3.7013 -0.2417
1.7654 -3.6730 -0.2415
1.7434 -3.6549 -0.2497
1.7317 -3.6279 -0.2509
1.7201 -3.6006 -0.2522
1.7208 -3.5649 -0.2455
1.7195 -3.5313 -0.2403
1.7079 -3.5044 -0.2416
1.6825 -3.4849 -0.2512
1.6756 -3.4547 -0.2495
1.6584 -3.3637 -0.2424
1.6348 -3.3084 -0.2449
1.6281 -3.2790 -0.2432
1.5977 -3.2559 -0.2548
1.6122 -3.2212 -0.2412
1.5886 -3.1955 -0.2489
1.5910 -3.1646 -0.2422
1.5789 -3.1364 -0.2435
1.5632 -3.1084 -0.2467
1.5379 -3.0510 -0.2496
1.5324 -2.9930 -0.2423
1.5193 -2.9642 -0.2440
1.5070 -2.9352 -0.2453
1.4908 -2.9057 -0.2485
1.5012 -2.8790 -0.2384
1.4859 -2.8496 -0.2411
1.4726 -2.8203 -0.2429
1.4805 -2.7948 -0.2343
1.4580 -2.7636 -0.2404
1.4446 -2.7339 -0.2422
1.4456 -2.7079 -0.2370
1.4332 -2.6785 -0.2383
1.4102 -2.6456 -0.2444
1.4008 -2.6167 -0.2441
1.3871 -2.5862 -0.2459
1.3853 -2.5600 -0.2422
1.3792 -2.5325 -0.2405
1.3665 -2.5023 -0.2417
1.3683 -2.4783 -0.2366
1.3590 -2.4497 -0.2364
1.3306 -2.4119 -0.2444
1.3370 -2.3908 -0.2374
1.3197 -2.3580 -0.2406
1.3138 -2.3310 -0.2389
1.3045 -2.3022 -0.2386
1.9437 -4.1693 -0.2692
1.9382 -4.1348 -0.2659
1.9352 -4.0963 -0.2604
1.9191 -4.0380 -0.2584
1.9102 -4.0105 -0.2581
1.9012 -3.9829 -0.2579
1.8626 -3.8378 -0.2521
1.7805 -3.6283 -0.2581
1.7095 -3.3745 -0.2498
1.6981 -3.3481 -0.2512
1.6268 -3.1283 -0.2494
1.5944 -3.0462 -0.2518
1.5642 -2.8832 -0.2381
1.5257 -2.8256 -0.2484
1.5107 -2.7969 -0.2513
1.4915 -2.7669 -0.2562
1.4989 -2.7429 -0.2478
1.4930 -2.7162 -0.2460
1.4599 -2.6316 -0.2484
1.4403 -2.6002 -0.2533
1.4355 -2.5739 -0.2510
1.4298 -2.5474 -0.2493
1.4208 -2.5197 -0.2491
1.4151 -2.4935 -0.2473
1.4095 -2.4674 -0.2455
1.4039 -2.4414 -0.2438
1.3984 -2.4157 -0.2420
1.3758 -2.3811 -0.2479
1.3588 -2.3490 -0.2513
1.9774 -4.0730 -0.2639
1.9754 -4.0350 -0.2576
1.9639 -4.0140 -0.2601
1.9603 -3.9797 -0.2555
1.9499 -3.9566 -0.2569
1.9396 -3.9332 -0.2584
1.9349 -3.9015 -0.2548
1.9303 -3.8701 -0.2513
1.9232 -3.8425 -0.2500
1.9168 -3.8141 -0.2481
1.8990 -3.7997 -0.2556
1.8885 -3.7759 -0.2571
1.8918 -3.7368 -0.2475
1.8855 -3.7088 -0.2456
1.8729 -3.6874 -0.2487
1.8645 -3.6615 -0.2485
1.8561 -3.6356 -0.2483
1.8536 -3.6048 -0.2437
1.8379 -3.5851 -0.2490
1.8295 -3.5592 -0.2488
1.8142 -3.5382 -0.2535
1.8188 -3.5033 -0.2440
1.8019 -3.4830 -0.2498
1.7974 -3.4547 -0.2468
1.7851 -3.4310 -0.2494
1.7747 -3.3760 -0.2446
1.7598 -3.3531 -0.2487
1.7422 -3.3308 -0.2545
1.7370 -3.2743 -0.2465
1.7209 -3.2507 -0.2512
1.7124 -3.2245 -0.2509
1.7118 -3.1966 -0.2458
1.7052 -3.1703 -0.2445
1.7039 -3.1433 -0.2399
1.6839 -3.1192 -0.2468
1.6754 -3.0932 -0.2466
1.6643 -3.0674 -0.2480
1.6632 -3.0411 -0.2435
1.6474 -3.0153 -0.2476
1.6417 -2.9893 -0.2458
1.6304 -2.9632 -0.2472
1.6162 -2.9367 -0.2502
1.6135 -2.9111 -0.2468
1.5943 -2.8837 -0.2525
1.5858 -2.8573 -0.2523
1.5742 -2.8304 -0.2537
1.5687 -2.8046 -0.2519
1.5480 -2.7755 -0.2582
1.5740 -2.7575 -0.2395
1.5430 -2.7255 -0.2512
1.5573 -2.7059 -0.2391
1.5405 -2.6775 -0.2432
1.5226 -2.6483 -0.2479
1.5237 -2.6255 -0.2428
1.5120 -2.5983 -0.2442
1.5068 -2.5735 -0.2424
1.5038 -2.5499 -0.2394
1.4933 -2.5230 -0.2403
1.4749 -2.4925 -0.2450
1.4764 -2.4712 -0.2399
1.4737 -2.4482 -0.2370
1.4653 -2.4224 -0.2368
1.4512 -2.3935 -0.2393
1.9931 -3.9728 -0.2648
1.9782 -3.9585 -0.2710
1.9718 -3.9300 -0.2691
1.9685 -3.8970 -0.2642
1.9553 -3.8791 -0.2686
1.9521 -3.8465 -0.2638
1.9439 -3.8212 -0.2636
1.9476 -3.7809 -0.2530
1.8877 -3.6106 -0.2545
1.8847 -3.5813 -0.2502
1.8484 -3.4552 -0.2463
1.8389 -3.4316 -0.2473
1.8325 -3.4060 -0.2459
1.8045 -3.3340 -0.2482
1.7846 -3.2584 -0.2447
1.7429 -3.1357 -0.2449
1.7332 -3.0858 -0.2405
1.7207 -3.0616 -0.2431
1.7155 -3.0369 -0.2412
1.6869 -2.9631 -0.2435
1.6761 -2.9383 -0.2450
1.6581 -2.8886 -0.2457
1.6440 -2.8393 -0.2442
1.6359 -2.8146 -0.2440
1.6078 -2.7853 -0.2551
1.5996 -2.7600 -0.2549
1.6016 -2.7376 -0.2490
1.5935 -2.7126 -0.2488
1.5857 -2.6655 -0.2439
1.5850 -2.6434 -0.2397
1.5717 -2.6167 -0.2423
1.5583 -2.5898 -0.2450
1.5427 -2.5616 -0.2487
1.5258 -2.5326 -0.2531
1.5198 -2.5084 -0.2517
1.5094 -2.4821 -0.2527
1.5012 -2.4568 -0.2525
1.4987 -2.4346 -0.2494
2.0585 -3.9793 -0.2541
2.0497 -3.9578 -0.2552
2.0402 -3.9372 -0.2568
2.0284 -3.9206 -0.2608
2.0224 -3.8936 -0.2588
2.0104 -3.8765 -0.2629
2.0069 -3.8459 -0.2584
2.0016 -3.8183 -0.2558
1.9939 -3.7946 -0.2556
1.9881 -3.7682 -0.2536
1.9785 -3.7470 -0.2552
1.9695 -3.7249 -0.2562
1.9584 -3.7049 -0.2591
1.9588 -3.6719 -0.2516
1.9463 -3.6534 -0.2557
1.9420 -3.6260 -0.2524
1.9322 -3.6044 -0.2541
1.9316 -3.5741 -0.2478
1.9305 -3.5450 -0.2422
1.9040 -3.5372 -0.2577
1.9065 -3.5053 -0.2491
1.9056 -3.4768 -0.2435
1.8882 -3.4602 -0.2511
1.8859 -3.4331 -0.2467
1.8612 -3.3913 -0.2535
1.8630 -3.3625 -0.2461
1.8530 -3.3402 -0.2477
1.8437 -3.3173 -0.2487
1.8344 -3.2943 -0.2497
1.8267 -3.2706 -0.2495
1.8165 -3.2477 -0.2512
1.8130 -3.2227 -0.2480
1.7994 -3.2006 -0.2520
1.7994 -3.1750 -0.2464
1.7700 -3.1301 -0.2556
1.7589 -3.0817 -0.2522
1.7467 -3.0581 -0.2550
1.7471 -3.0338 -0.2494
1.7504 -3.0099 -0.2420
1.7279 -2.9861 -0.2514
1.7352 -2.9630 -0.2416
1.7143 -2.9385 -0.2498
1.7305 -2.9171 -0.2347
1.7056 -2.8917 -0.2453
1.6931 -2.8673 -0.2480
1.6746 -2.8416 -0.2544
1.6729 -2.7967 -0.2457
1.6673 -2.7735 -0.2443
1.6474 -2.7465 -0.2512
1.6611 -2.7290 -0.2385
1.6422 -2.7019 -0.2449
1.6387 -2.6797 -0.2423
1.6289 -2.6553 -0.2433
1.6159 -2.6296 -0.2461
1.6039 -2.6040 -0.2483
1.6005 -2.5820 -0.2457
1.5885 -2.5563 -0.2479
1.5698 -2.5271 -0.2536
1.5619 -2.5030 -0.2535
1.5730 -2.4887 -0.2432
1.5597 -2.4620 -0.2459
1.5576 -2.4413 -0.2428
2.0742 -3.9203 -0.2584
2.0163 -3.7361 -0.2556
2.0160 -3.7042 -0.2485
2.0140 -3.6753 -0.2432
2.0001 -3.6608 -0.2494
2.0022 -3.6277 -0.2403
1.9896 -3.6114 -0.2452
1.9606 -3.5219 -0.2445
1.9345 -3.4304 -0.2412
1.8939 -3.3475 -0.2499
1.8864 -3.2990 -0.2439
1.8791 -3.2766 -0.2437
1.8628 -3.2575 -0.2504
1.8373 -3.1902 -0.2524
1.8316 -3.1670 -0.2509
1.8299 -3.1194 -0.2412
1.8192 -3.0975 -0.2435
1.8208 -3.0741 -0.2371
1.8027 -3.0299 -0.2392
1.7846 -2.9852 -0.2413
1.7810 -2.9629 -0.2386
1.7597 -2.9395 -0.2478
1.7542 -2.9170 -0.2464
1.7411 -2.8936 -0.2500
1.7463 -2.8728 -0.2417
1.7302 -2.8487 -0.2471
1.7135 -2.8028 -0.2480
1.7131 -2.7818 -0.2434
1.7098 -2.7604 -0.2407
1.6984 -2.7367 -0.2431
1.6932 -2.7148 -0.2416
1.6765 -2.6890 -0.2470
1.6671 -2.6654 -0.2481
1.6660 -2.6451 -0.2442
1.6427 -2.5960 -0.2488
1.6012 -2.4792 -0.2503
2.1029 -3.8745 -0.2545
2.0936 -3.8569 -0.2569
2.0842 -3.8392 -0.2594
2.0841 -3.8054 -0.2513
2.0735 -3.7895 -0.2551
2.0640 -3.7715 -0.2575
2.0545 -3.7532 -0.2600
2.0511 -3.7260 -0.2559
2.0453 -3.7024 -0.2544
2.0331 -3.6873 -0.2595
2.0272 -3.6637 -0.2580
2.0241 -3.6371 -0.2538
2.0196 -3.6123 -0.2510
2.0072 -3.5964 -0.2561
2.0042 -3.5703 -0.2520
1.9999 -3.5459 -0.2492
1.9929 -3.5243 -0.2490
1.9873 -3.5015 -0.2475
1.9717 -3.4870 -0.2552
1.9632 -3.4662 -0.2564
1.9649 -3.4379 -0.2483
1.9489 -3.4224 -0.2560
1.9433 -3.3994 -0.2545
1.9408 -3.3748 -0.2504
1.9407 -3.3492 -0.2443
1.9313 -3.3290 -0.2461
1.9149 -3.3119 -0.2538
1.9197 -3.2848 -0.2438
1.8975 -3.2694 -0.2561
1.9001 -3.2439 -0.2480
1.8881 -3.2238 -0.2518
1.8824 -3.1780 -0.2449
1.8703 -3.1576 -0.2486
1.8657 -3.1126 -0.2411
1.8491 -3.0924 -0.2481
1.8483 -3.0701 -0.2433
1.8404 -3.0486 -0.2438
1.8298 -3.0272 -0.2462
1.8137 -3.0055 -0.2526
1.8124 -2.9623 -0.2431
1.7905 -2.9396 -0.2534
1.7833 -2.9176 -0.2532
1.7876 -2.8971 -0.2452
1.7806 -2.8755 -0.2450
1.7697 -2.8531 -0.2474
1.7665 -2.8321 -0.2446
1.7614 -2.8109 -0.2432
1.7485 -2.7877 -0.2469
1.7374 -2.7648 -0.2493
1.7303 -2.7429 -0.2491
1.7273 -2.7224 -0.2464
1.7181 -2.6999 -0.2475
1.7111 -2.6780 -0.2473
1.6998 -2.6545 -0.2497
1.6990 -2.6353 -0.2457
1.6941 -2.6145 -0.2442
1.6913 -2.5947 -0.2414
1.6778 -2.5699 -0.2451
1.6620 -2.5437 -0.2501
1.6527 -2.5206 -0.2512
1.6522 -2.5022 -0.2472
1.6473 -2.4816 -0.2457
1.6380 -2.4584 -0.2468
2.1063 -3.7749 -0.2534
2.0954 -3.7607 -0.2580
2.0706 -3.6732 -0.2546
2.0557 -3.6329 -0.2556
2.0509 -3.6096 -0.2534
2.0454 -3.5872 -0.2518
2.0427 -3.5621 -0.2475
2.0346 -3.5428 -0.2487
2.0327 -3.5174 -0.2438
2.0246 -3.4981 -0.2450
2.0144 -3.4805 -0.2482
2.0098 -3.4580 -0.2460
2.0081 -3.4335 -0.2411
2.0044 -3.4109 -0.2381
1.9860 -3.3735 -0.2426
1.9793 -3.3529 -0.2424
1.9726 -3.3324 -0.2423
1.9590 -3.3154 -0.2482
1.9593 -3.2913 -0.2419
1.9511 -3.2714 -0.2431
1.9353 -3.2311 -0.2448
1.9209 -3.1675 -0.2396
1.9093 -3.1481 -0.2435
1.9017 -3.1276 -0.2440
1.9053 -3.1053 -0.2357
1.8848 -3.0867 -0.2464
1.8737 -3.0663 -0.2496
1.8713 -3.0451 -0.2460
1.8583 -3.0245 -0.2506
1.8493 -2.9827 -0.2469
1.8553 -2.9626 -0.2372
1.8459 -2.9419 -0.2391
1.8243 -2.9196 -0.2498
1.8279 -2.9001 -0.2421
1.8173 -2.8788 -0.2447
1.8000 -2.8559 -0.2520
1.8000 -2.8363 -0.2471
1.8079 -2.8190 -0.2367
1.7864 -2.7945 -0.2467
1.7786 -2.7734 -0.2472
1.7728 -2.7527 -0.2464
1.7681 -2.7325 -0.2448
1.7501 -2.7076 -0.2521
1.7453 -2.6873 -0.2506
1.7499 -2.6708 -0.2430
1.7316 -2.6451 -0.2502
1.7290 -2.6259 -0.2474
1.7243 -2.6059 -0.2458
1.7132 -2.5829 -0.2484
1.7086 -2.5630 -0.2469
1.6972 -2.5222 -0.2452
1.6937 -2.5032 -0.2430
2.1525 -3.8280 -0.2567
2.1476 -3.8047 -0.2543
2.1383 -3.7898 -0.2578
2.1264 -3.7474 -0.2560
2.1210 -3.7254 -0.2544
