ply
format ascii 1.0
element vertex 2110
property float x
property float y
property float z
end_header
2.4856 -3.9175 -0.2549
2.5112 -3.9047 -0.2521
2.5341 -3.9000 -0.2544
2.5580 -3.8922 -0.2547
2.5809 -3.8884 -0.2576
2.6058 -3.8766 -0.2555
2.6293 -3.8708 -0.2571
2.6545 -3.8563 -0.2530
2.6791 -3.8438 -0.2503
2.7018 -3.8427 -0.2550
2.7259 -3.8331 -0.2541
2.7498 -3.8235 -0.2532
2.7741 -3.8047 -0.2460
2.7972 -3.8081 -0.2540
2.8209 -3.8022 -0.2556
2.8448 -3.7962 -0.2572
2.8685 -3.7867 -0.2563
2.8918 -3.7746 -0.2535
2.9148 -3.7617 -0.2501
2.9383 -3.7540 -0.2504
2.9621 -3.7481 -0.2521
2.9860 -3.7422 -0.2537
3.0076 -3.7270 -0.2483
3.0327 -3.7252 -0.2531
3.0567 -3.7191 -0.2548
3.0797 -3.7099 -0.2539
3.1033 -3.7022 -0.2542
3.1299 -3.7017 -0.2603
3.1518 -3.6900 -0.2575
3.1755 -3.6823 -0.2578
3.1952 -3.6678 -0.2525
3.2488 -3.6630 -0.2621
3.2736 -3.6568 -0.2638
3.2926 -3.6424 -0.2584
3.3100 -3.6268 -0.2517
3.3374 -3.6243 -0.2565
3.3664 -3.6230 -0.2627
3.3927 -3.6180 -0.2656
3.4118 -3.6055 -0.2615
3.4390 -3.6012 -0.2650
3.4591 -3.5901 -0.2622
3.4798 -3.5798 -0.2600
3.5049 -3.5734 -0.2616
3.5324 -3.5690 -0.2652
3.5520 -3.5581 -0.2623
3.5739 -3.5492 -0.2614
3.5930 -3.5384 -0.2585
3.6191 -3.5326 -0.2608
3.6314 -3.5178 -0.2534
3.6989 -3.4940 -0.2532
3.7199 -3.4854 -0.2523
3.7504 -3.4818 -0.2572
3.7759 -3.4753 -0.2588
3.7969 -3.4667 -0.2579
3.8167 -3.4575 -0.2563
3.8457 -3.4526 -0.2599
2.6763 -3.8827 -0.2468
2.7503 -3.8541 -0.2449
2.7993 -3.8318 -0.2414
2.8234 -3.8194 -0.2388
2.8957 -3.7959 -0.2399
2.9204 -3.7924 -0.2433
2.9683 -3.7741 -0.2422
3.3052 -3.6627 -0.2461
3.3321 -3.6585 -0.2496
3.3546 -3.6485 -0.2481
3.4048 -3.6349 -0.2507
3.4270 -3.6249 -0.2492
3.4511 -3.6171 -0.2496
3.4774 -3.6113 -0.2518
3.5032 -3.6047 -0.2534
3.5259 -3.5955 -0.2525
3.5517 -3.5889 -0.2541
3.5785 -3.5830 -0.2564
3.5960 -3.5700 -0.2518
3.6228 -3.5640 -0.2540
3.6470 -3.5561 -0.2544
3.6665 -3.5452 -0.2517
3.6858 -3.5344 -0.2489
3.7098 -3.5266 -0.2493
3.7337 -3.5188 -0.2497
3.7629 -3.5139 -0.2531
3.7870 -3.5060 -0.2535
3.8078 -3.4965 -0.2520
3.8318 -3.4887 -0.2524
3.8558 -3.4809 -0.2527
3.8833 -3.4747 -0.2550
2.3273 -4.0643 -0.2547
2.3536 -4.0558 -0.2551
2.3799 -4.0472 -0.2555
2.4062 -4.0387 -0.2559
2.4302 -4.0364 -0.2598
2.4588 -4.0216 -0.2567
2.4867 -4.0079 -0.2543
2.5129 -3.9994 -0.2547
2.5407 -3.9848 -0.2516
2.5667 -3.9763 -0.2520
2.5902 -3.9788 -0.2587
2.6181 -3.9624 -0.2545
2.6452 -3.9480 -0.2515
2.6703 -3.9454 -0.2553
2.6967 -3.9341 -0.2540
2.7230 -3.9227 -0.2527
2.7485 -3.9200 -0.2565
2.7744 -3.9143 -0.2587
2.8007 -3.9002 -0.2556
2.8267 -3.8945 -0.2577
2.8530 -3.8915 -0.2616
2.8789 -3.8776 -0.2585
2.9818 -3.8367 -0.2555
3.0077 -3.8283 -0.2559
3.0599 -3.8132 -0.2578
3.0828 -3.7956 -0.2518
3.1135 -3.8013 -0.2621
3.1324 -3.7749 -0.2497
3.1628 -3.7779 -0.2582
3.1864 -3.7647 -0.2551
3.2365 -3.7456 -0.2542
3.2672 -3.7458 -0.2610
3.2892 -3.7312 -0.2567
3.3165 -3.7251 -0.2589
3.3406 -3.7145 -0.2575
3.3664 -3.7062 -0.2579
3.3938 -3.7000 -0.2600
3.4196 -3.6916 -0.2604
3.4473 -3.6853 -0.2626
3.4746 -3.6783 -0.2642
3.4991 -3.6685 -0.2634
3.5264 -3.6615 -0.2649
3.5568 -3.6571 -0.2689
3.5767 -3.6433 -0.2646
3.6001 -3.6329 -0.2632
3.6301 -3.6278 -0.2665
3.6586 -3.6213 -0.2687
3.6801 -3.6096 -0.2661
3.6978 -3.5956 -0.2612
3.7140 -3.5811 -0.2557
3.7618 -3.5628 -0.2547
3.7952 -3.5593 -0.2598
3.8155 -3.5481 -0.2572
3.8290 -3.5336 -0.2511
3.8848 -3.5201 -0.2548
3.9135 -3.5135 -0.2570
2.3879 -4.0998 -0.2571
2.4094 -4.1076 -0.2662
2.4386 -4.0954 -0.2650
2.4695 -4.0770 -0.2605
2.7766 -3.9316 -0.2382
3.0431 -3.8533 -0.2472
3.1180 -3.8131 -0.2390
3.1755 -3.8074 -0.2476
3.2250 -3.7830 -0.2434
3.2527 -3.7768 -0.2455
3.2726 -3.7573 -0.2381
3.3056 -3.7596 -0.2463
3.3305 -3.7487 -0.2450
3.3585 -3.7424 -0.2471
3.4030 -3.7149 -0.2401
3.4310 -3.7086 -0.2422
3.4604 -3.7037 -0.2454
3.4907 -3.6994 -0.2491
3.5214 -3.6950 -0.2529
3.5436 -3.6822 -0.2499
3.5701 -3.6736 -0.2503
3.6012 -3.6690 -0.2541
3.6278 -3.6604 -0.2545
3.6569 -3.6537 -0.2566
3.6810 -3.6431 -0.2553
3.7023 -3.6306 -0.2524
3.7260 -3.6201 -0.2511
3.7580 -3.6152 -0.2549
3.8021 -3.5925 -0.2506
3.8264 -3.5828 -0.2499
3.8547 -3.5754 -0.2514
3.8788 -3.5657 -0.2507
3.9051 -3.5572 -0.2511
3.9212 -3.5436 -0.2463
3.9471 -3.5351 -0.2467
3.9838 -3.5316 -0.2523
2.3124 -4.1794 -0.2541
2.3414 -4.1700 -0.2545
2.3703 -4.1605 -0.2550
2.3982 -4.1543 -0.2570
2.4308 -4.1343 -0.2522
2.4605 -4.1219 -0.2511
2.4883 -4.1156 -0.2531
2.5152 -4.1134 -0.2572
2.5441 -4.1040 -0.2576
2.5746 -4.0875 -0.2544
2.6034 -4.0782 -0.2549
2.6327 -4.0659 -0.2537
2.6614 -4.0565 -0.2542
2.6890 -4.0569 -0.2598
2.7764 -4.0154 -0.2538
2.8049 -4.0099 -0.2564
2.8335 -3.9940 -0.2531
2.8621 -3.9875 -0.2551
2.8912 -3.9846 -0.2593
2.9197 -3.9725 -0.2581
2.9484 -3.9632 -0.2586
3.0337 -3.9317 -0.2578
3.0609 -3.9172 -0.2550
3.0883 -3.9046 -0.2534
3.1178 -3.8987 -0.2559
3.2042 -3.8735 -0.2588
3.2300 -3.8585 -0.2555
3.2558 -3.8445 -0.2528
3.2884 -3.8433 -0.2585
3.3150 -3.8309 -0.2568
3.3403 -3.8170 -0.2541
3.3753 -3.8178 -0.2614
3.3999 -3.8032 -0.2581
3.4266 -3.7918 -0.2570
3.4488 -3.7752 -0.2521
3.4874 -3.7785 -0.2616
3.5159 -3.7693 -0.2620
3.5443 -3.7601 -0.2624
3.5749 -3.7529 -0.2645
3.5982 -3.7388 -0.2612
3.6319 -3.7344 -0.2653
3.6580 -3.7231 -0.2642
3.6946 -3.7205 -0.2700
3.7174 -3.7066 -0.2666
3.7485 -3.6993 -0.2687
3.7655 -3.6815 -0.2621
3.7965 -3.6743 -0.2642
3.8192 -3.6613 -0.2614
3.8503 -3.6540 -0.2634
3.8855 -3.6491 -0.2676
3.9099 -3.6374 -0.2659
3.9277 -3.6223 -0.2609
3.9321 -3.6002 -0.2495
3.9706 -3.5971 -0.2553
3.9904 -3.5841 -0.2519
2.2851 -4.2592 -0.2571
2.3124 -4.2579 -0.2615
2.3433 -4.2478 -0.2620
2.3742 -4.2378 -0.2624
2.4038 -4.2320 -0.2649
2.4348 -4.2219 -0.2654
2.4706 -4.1951 -0.2579
2.5034 -4.1769 -0.2545
3.1303 -3.9352 -0.2442
3.1631 -3.9350 -0.2501
3.3596 -3.8503 -0.2422
3.3907 -3.8440 -0.2447
3.4160 -3.8291 -0.2416
3.4490 -3.8250 -0.2455
3.4721 -3.8080 -0.2409
3.5117 -3.8112 -0.2500
3.5384 -3.7988 -0.2484
3.5704 -3.7921 -0.2509
3.5947 -3.7776 -0.2478
3.6239 -3.7681 -0.2482
3.6553 -3.7607 -0.2502
3.6845 -3.7512 -0.2506
3.7138 -3.7417 -0.2511
3.7464 -3.7349 -0.2536
3.7722 -3.7227 -0.2520
3.7988 -3.7113 -0.2509
3.8279 -3.7018 -0.2513
3.8637 -3.6968 -0.2554
3.8862 -3.6828 -0.2522
3.9184 -3.6752 -0.2542
3.9404 -3.6614 -0.2511
3.9695 -3.6520 -0.2515
3.9985 -3.6425 -0.2520
4.0242 -3.6313 -0.2509
4.0532 -3.6219 -0.2513
4.0903 -3.6165 -0.2553
2.2582 -4.3400 -0.2566
2.2889 -4.3338 -0.2589
2.3283 -4.3048 -0.2515
2.3620 -4.2900 -0.2502
2.3898 -4.2924 -0.2562
2.4234 -4.2777 -0.2549
2.4556 -4.2672 -0.2554
2.4889 -4.2525 -0.2540
2.5211 -4.2421 -0.2545
2.5860 -4.2172 -0.2536
2.6181 -4.2067 -0.2541
2.6501 -4.1963 -0.2546
2.6831 -4.1770 -0.2508
2.7155 -4.1589 -0.2476
2.7469 -4.1525 -0.2499
2.8419 -4.1216 -0.2514
2.8737 -4.1150 -0.2537
2.9065 -4.1168 -0.2604
2.9369 -4.0907 -0.2528
2.9696 -4.0877 -0.2571
3.0002 -4.0701 -0.2538
3.0326 -4.0634 -0.2562
3.0652 -4.0566 -0.2586
3.0992 -4.0541 -0.2633
3.1289 -4.0358 -0.2595
3.1597 -4.0220 -0.2581
3.1889 -4.0049 -0.2548
3.2191 -3.9913 -0.2534
3.2506 -3.9810 -0.2539
3.2852 -3.9774 -0.2582
3.3152 -3.9638 -0.2567
3.3432 -3.9471 -0.2534
3.3783 -3.9433 -0.2577
3.4039 -3.9236 -0.2524
3.4372 -3.9165 -0.2548
3.4774 -3.9187 -0.2630
3.5046 -3.9023 -0.2596
3.5361 -3.8920 -0.2601
3.5992 -3.8715 -0.2611
3.6363 -3.8671 -0.2654
3.6595 -3.8481 -0.2601
3.6880 -3.8350 -0.2587
3.7194 -3.8248 -0.2591
3.7539 -3.8174 -0.2616
3.7821 -3.8044 -0.2601
3.8134 -3.7942 -0.2606
3.8483 -3.7867 -0.2630
3.8761 -3.7738 -0.2615
3.9149 -3.7688 -0.2659
3.9502 -3.7612 -0.2683
3.9858 -3.7534 -0.2707
4.0346 -3.7537 -0.2795
4.0627 -3.7408 -0.2780
4.0811 -3.7224 -0.2722
4.0999 -3.7049 -0.2668
4.1314 -3.6946 -0.2673
4.1537 -3.6797 -0.2639
4.1896 -3.6719 -0.2663
2.1821 -4.4685 -0.2659
2.2149 -4.4626 -0.2686
2.2522 -4.4457 -0.2670
2.3806 -4.3396 -0.2393
2.3988 -4.3788 -0.2604
2.4348 -4.3623 -0.2587
2.4703 -4.3469 -0.2575
2.6766 -4.2750 -0.2584
2.7467 -4.2205 -0.2449
3.4256 -3.9613 -0.2375
3.5624 -3.9293 -0.2453
3.6032 -3.9285 -0.2517
3.6574 -3.8946 -0.2450
3.6927 -3.8870 -0.2473
3.7452 -3.8958 -0.2601
3.7747 -3.8814 -0.2583
3.7936 -3.8580 -0.2506
3.8197 -3.8418 -0.2475
3.8479 -3.8278 -0.2457
3.8959 -3.8295 -0.2544
3.9242 -3.8155 -0.2526
3.9615 -3.8082 -0.2554
3.9944 -3.7975 -0.2559
4.0144 -3.7785 -0.2505
4.0469 -3.7679 -0.2510
4.0835 -3.7599 -0.2533
4.1856 -3.7305 -0.2566
4.2092 -3.7152 -0.2535
4.2463 -3.7069 -0.2558
2.1628 -4.5316 -0.2501
2.1968 -4.5254 -0.2527
2.2515 -4.4660 -0.2356
2.3118 -4.3854 -0.2103
2.3592 -4.3342 -0.1956
2.3444 -4.4726 -0.2528
2.3773 -4.4725 -0.2579
2.4139 -4.4606 -0.2585
2.4550 -4.4308 -0.2520
2.4924 -4.4138 -0.2505
2.5273 -4.4073 -0.2531
2.5635 -4.3955 -0.2537
2.6022 -4.3674 -0.2476
2.6380 -4.3558 -0.2482
2.6742 -4.3392 -0.2466
2.7175 -4.2312 -0.2069
2.7517 -4.1988 -0.1983
2.7816 -4.2839 -0.2395
2.8167 -4.3083 -0.2555
2.8528 -4.2966 -0.2560
2.8891 -4.2897 -0.2587
2.9248 -4.2732 -0.2571
2.9969 -4.2497 -0.2582
3.0329 -4.2380 -0.2588
3.0690 -4.2263 -0.2593
3.1038 -4.2092 -0.2574
3.1384 -4.1931 -0.2558
3.1729 -4.1770 -0.2543
3.2114 -4.1742 -0.2590
3.2492 -4.1677 -0.2621
3.2814 -4.1466 -0.2580
3.3135 -4.1265 -0.2543
3.3426 -4.1015 -0.2481
3.3819 -4.0984 -0.2529
3.4199 -4.0919 -0.2559
3.4554 -4.0803 -0.2565
3.4934 -4.0728 -0.2592
3.5205 -4.0485 -0.2529
3.5557 -4.0370 -0.2534
3.5973 -4.0342 -0.2587
3.6359 -4.0265 -0.2613
3.6683 -4.0111 -0.2597
3.7071 -4.0033 -0.2624
3.7427 -3.9917 -0.2630
3.7704 -3.9721 -0.2588
3.8058 -3.9606 -0.2593
3.8373 -3.9455 -0.2577
3.8812 -3.9418 -0.2630
3.9249 -3.9373 -0.2678
3.9649 -3.9292 -0.2705
3.9876 -3.9072 -0.2646
4.0276 -3.8991 -0.2673
4.0679 -3.8908 -0.2700
4.0989 -3.8759 -0.2684
4.1296 -3.8611 -0.2668
4.1751 -3.8559 -0.2717
4.2161 -3.8475 -0.2744
4.2413 -3.8296 -0.2706
4.2715 -3.8149 -0.2690
4.3070 -3.8034 -0.2695
4.3356 -3.7883 -0.2674
4.3710 -3.7768 -0.2680
4.4194 -3.7717 -0.2733
2.1670 -4.6192 -0.2444
2.2181 -4.5733 -0.2335
2.3078 -4.6105 -0.2614
2.3495 -4.5901 -0.2593
2.6260 -4.4885 -0.2589
2.7815 -4.4496 -0.2659
2.8207 -4.4251 -0.2618
2.8595 -4.4057 -0.2597
3.7393 -4.0454 -0.2435
3.7761 -4.0334 -0.2441
3.8013 -4.0096 -0.2382
3.8541 -4.0139 -0.2476
3.8948 -4.0055 -0.2502
3.9191 -3.9820 -0.2443
3.9689 -3.9815 -0.2513
4.0017 -3.9659 -0.2499
4.0386 -3.9539 -0.2504
4.0756 -3.9419 -0.2510
4.1125 -3.9299 -0.2516
4.1436 -3.9139 -0.2497
4.1804 -3.9020 -0.2503
4.2060 -3.8829 -0.2464
4.2539 -3.8780 -0.2514
4.2853 -3.8629 -0.2499
4.3274 -3.8541 -0.2525
4.3831 -3.8526 -0.2600
4.4535 -3.8580 -0.2724
4.4505 -3.8248 -0.2587
4.4816 -3.8099 -0.2572
2.1596 -4.7501 -0.2485
2.3574 -4.3768 -0.1376
2.4128 -4.6540 -0.2473
2.4541 -4.6405 -0.2479
2.6761 -4.4129 -0.1940
2.8251 -4.4992 -0.2460
2.8662 -4.4996 -0.2517
2.9085 -4.5066 -0.2599
2.9526 -4.5208 -0.2711
2.9901 -4.4662 -0.2561
3.0323 -4.4594 -0.2593
3.0726 -4.4394 -0.2574
3.1125 -4.4196 -0.2554
3.1551 -4.4126 -0.2586
3.1963 -4.3992 -0.2593
3.2337 -4.3732 -0.2548
3.2746 -4.3599 -0.2554
3.3200 -4.3590 -0.2612
3.3612 -4.3456 -0.2618
3.4025 -4.3321 -0.2624
3.4437 -4.3187 -0.2630
3.4879 -4.3112 -0.2663
3.5230 -4.2861 -0.2617
3.5572 -4.2611 -0.2572
3.6015 -4.2536 -0.2604
3.6424 -4.2404 -0.2610
3.6832 -4.2271 -0.2616
3.7200 -4.2082 -0.2596
3.7649 -4.2005 -0.2629
3.8103 -4.1926 -0.2661
3.8467 -4.1739 -0.2641
3.8875 -4.1606 -0.2647
3.9132 -4.1316 -0.2575
3.9588 -4.1237 -0.2608
3.9939 -4.1054 -0.2588
4.0342 -4.0923 -0.2594
4.0918 -4.0942 -0.2679
4.1267 -4.0760 -0.2659
4.1436 -4.0439 -0.2563
4.1954 -4.0399 -0.2618
4.2422 -4.0315 -0.2651
4.2894 -4.0230 -0.2683
4.3370 -4.0145 -0.2716
4.3779 -4.0012 -0.2722
4.3907 -3.9704 -0.2626
4.4521 -3.9701 -0.2708
4.5081 -3.9657 -0.2768
4.5111 -3.9313 -0.2645
4.5662 -3.9262 -0.2700
4.5984 -3.9088 -0.2680
4.6160 -3.8844 -0.2614
2.4325 -4.7709 -0.2434
2.5851 -4.5894 -0.2010
2.6782 -4.4401 -0.1622
2.9136 -4.5312 -0.2225
2.9595 -4.5608 -0.2383
3.0109 -4.6155 -0.2633
3.0549 -4.5933 -0.2613
3.3968 -4.4345 -0.2504
3.4374 -4.4134 -0.2483
3.4714 -4.3795 -0.2411
3.5107 -4.3588 -0.2390
3.6425 -4.3239 -0.2437
3.6891 -4.3157 -0.2468
4.0049 -4.1763 -0.2392
4.0415 -4.1574 -0.2374
4.0889 -4.1490 -0.2405
4.1616 -4.1620 -0.2540
4.2045 -4.1480 -0.2547
4.2281 -4.1186 -0.2476
4.2504 -4.0895 -0.2406
4.2922 -4.0759 -0.2412
4.3407 -4.0671 -0.2443
4.4750 -4.0313 -0.2491
4.5567 -4.0414 -0.2627
4.5594 -4.0039 -0.2504
4.5847 -3.9808 -0.2457
4.6770 -3.9944 -0.2619
4.7294 -3.9853 -0.2654
4.7822 -3.9761 -0.2689
2.1404 -4.8480 -0.1845
2.1104 -5.0477 -0.2428
2.1588 -5.0320 -0.2435
2.2545 -4.8589 -0.2011
2.4408 -4.4524 -0.0970
2.4709 -4.4636 -0.1040
2.5008 -4.4809 -0.1128
2.5486 -4.6133 -0.1592
2.5941 -4.5655 -0.1497
2.6332 -4.5588 -0.1522
2.6920 -4.8496 -0.2489
2.7394 -4.8532 -0.2555
2.7886 -4.7992 -0.2445
2.9227 -4.6166 -0.2036
2.9690 -4.6266 -0.2120
3.0303 -4.7486 -0.2568
3.0760 -4.7148 -0.2516
3.1208 -4.6822 -0.2468
3.1718 -4.6836 -0.2531
3.2219 -4.6773 -0.2570
3.2654 -4.6442 -0.2517
3.3130 -4.6287 -0.2525
3.3634 -4.6213 -0.2560
3.4113 -4.6057 -0.2568
3.4560 -4.5822 -0.2547
3.5037 -4.5667 -0.2554
3.5477 -4.5434 -0.2533
3.5952 -4.5279 -0.2540
3.6467 -4.5201 -0.2576
3.6988 -4.5122 -0.2612
3.7421 -4.4891 -0.2590
3.7946 -4.4811 -0.2626
3.8482 -4.4736 -0.2665
3.8851 -4.4426 -0.2612
3.9384 -4.4343 -0.2648
3.9863 -4.4187 -0.2655
4.0221 -4.3891 -0.2605
4.0695 -4.3737 -0.2613
4.1235 -4.3651 -0.2649
4.1568 -4.3353 -0.2595
4.2040 -4.3199 -0.2602
4.2665 -4.3186 -0.2670
4.3067 -4.2965 -0.2649
4.3223 -4.2545 -0.2537
4.3307 -4.2088 -0.2405
4.3304 -4.1589 -0.2251
4.5546 -4.1789 -0.2572
4.6387 -4.1886 -0.2700
4.6861 -4.1731 -0.2707
4.7336 -4.1577 -0.2714
4.7305 -4.1127 -0.2571
4.8071 -4.1148 -0.2667
4.8759 -4.1114 -0.2736
4.9233 -4.0960 -0.2743
4.9370 -4.0636 -0.2659
2.4200 -4.5584 -0.0855
2.4678 -4.5026 -0.0750
2.5082 -4.4733 -0.0711
2.5368 -4.5033 -0.0825
2.6447 -4.5035 -0.0940
2.7530 -4.6385 -0.1434
2.8392 -4.6569 -0.1577
3.0026 -4.9423 -0.2550
3.0569 -4.9367 -0.2592
3.6373 -4.7359 -0.2647
3.6657 -4.6702 -0.2493
3.7329 -4.6826 -0.2599
3.7793 -4.6555 -0.2572
3.8090 -4.6025 -0.2456
3.8539 -4.5768 -0.2431
3.9045 -4.5603 -0.2439
3.9490 -4.5358 -0.2418
3.9800 -4.4945 -0.2335
4.0561 -4.5110 -0.2462
4.0925 -4.4780 -0.2409
4.1425 -4.4618 -0.2416
4.3765 -4.4280 -0.2570
4.4368 -4.4195 -0.2611
4.6632 -4.3680 -0.2707
4.8010 -4.3575 -0.2824
4.8538 -4.3403 -0.2832
4.8146 -4.2644 -0.2578
4.8426 -4.2341 -0.2523
4.8486 -4.1919 -0.2411
4.9200 -4.1888 -0.2479
4.8692 -4.1177 -0.2225
4.9718 -4.1316 -0.2374
2.0946 -5.0248 -0.1300
2.0560 -5.4171 -0.2249
2.1298 -5.3403 -0.2127
2.2037 -5.2544 -0.1983
2.2735 -5.1728 -0.1845
2.5007 -4.5373 -0.0469
2.5439 -4.4948 -0.0404
2.6137 -4.5006 -0.0486
2.6830 -4.5471 -0.0670
2.7200 -4.5747 -0.0775
2.7955 -5.1117 -0.2198
2.8515 -5.1452 -0.2337
2.9110 -5.1950 -0.2520
2.9712 -5.2038 -0.2600
3.0276 -5.1570 -0.2537
3.0841 -5.1244 -0.2510
3.1442 -5.1191 -0.2555
3.2025 -5.1002 -0.2564
3.2608 -5.0812 -0.2573
3.3255 -5.0886 -0.2654
3.3738 -5.0302 -0.2555
3.4317 -5.0114 -0.2564
3.4813 -4.9679 -0.2502
3.5385 -4.9492 -0.2511
3.5907 -4.9181 -0.2483
3.6475 -4.8996 -0.2492
3.7102 -4.8934 -0.2537
3.7555 -4.8513 -0.2475
3.8372 -4.8795 -0.2625
3.8951 -4.8607 -0.2634
3.9250 -4.7962 -0.2501
4.0110 -4.8230 -0.2652
4.0609 -4.7926 -0.2624
4.0711 -4.7090 -0.2424
4.0959 -4.6512 -0.2303
4.2427 -4.7477 -0.2687
4.2911 -4.7177 -0.2659
4.3296 -4.6778 -0.2596
4.4370 -4.7129 -0.2789
4.4137 -4.6108 -0.2509
4.4593 -4.5828 -0.2483
4.5051 -4.5557 -0.2460
4.5493 -4.5281 -0.2433
4.8092 -4.5493 -0.2738
4.8544 -4.5213 -0.2712
4.9243 -4.5118 -0.2756
4.9419 -4.4655 -0.2656
5.0261 -4.4655 -0.2738
5.0549 -4.4287 -0.2674
5.0565 -4.3764 -0.2544
5.0973 -4.3499 -0.2517
4.7963 -4.1280 -0.1667
4.7352 -4.0534 -0.1420
4.7709 -4.0347 -0.1408
2.0880 -5.0695 -0.0887
2.5717 -4.5755 -0.0209
2.7987 -5.4688 -0.2402
3.0515 -5.3528 -0.2365
3.1230 -5.3982 -0.2529
3.1961 -5.4296 -0.2664
3.2560 -5.3733 -0.2591
3.3363 -5.4219 -0.2770
3.3992 -5.3820 -0.2736
3.4431 -5.2767 -0.2539
3.4888 -5.1943 -0.2396
3.5462 -5.1582 -0.2366
3.6196 -5.1681 -0.2452
3.7009 -5.1928 -0.2579
3.7396 -5.1127 -0.2434
3.8508 -5.0438 -0.2378
3.9507 -5.0942 -0.2578
3.9983 -5.0449 -0.2510
4.0531 -5.0108 -0.2482
4.1712 -5.0757 -0.2731
4.1755 -4.8594 -0.2252
4.2447 -4.8522 -0.2296
4.4580 -4.8300 -0.2434
4.6422 -4.7701 -0.2462
4.7688 -4.8108 -0.2664
4.8054 -4.7661 -0.2597
4.9254 -4.7946 -0.2766
4.9451 -4.7370 -0.2655
5.0230 -4.7281 -0.2703
5.0865 -4.7074 -0.2713
5.0876 -4.5781 -0.2425
5.0883 -4.5186 -0.2293
5.3352 -4.5611 -0.2605
5.3717 -4.4704 -0.2434
5.3492 -4.4051 -0.2269
5.3431 -4.3518 -0.2145
2.0457 -4.9881 -0.0183
2.0722 -5.0239 -0.0274
2.0575 -5.1844 -0.0576
2.0715 -6.0832 -0.2343
2.1110 -6.2137 -0.2629
2.5726 -4.6064 0.0147
2.6112 -4.6001 0.0129
2.5859 -5.8932 -0.2377
2.9491 -5.7751 -0.2433
3.0234 -5.7737 -0.2488
3.0966 -5.7498 -0.2500
3.1670 -5.7043 -0.2466
3.2396 -5.6806 -0.2477
3.2970 -5.5753 -0.2317
3.3940 -5.6758 -0.2589
3.4678 -5.6518 -0.2601
3.7263 -5.4564 -0.2423
3.8368 -5.5318 -0.2657
3.8521 -5.3732 -0.2359
3.9391 -5.3872 -0.2455
4.0011 -5.3464 -0.2424
4.0522 -5.2875 -0.2349
4.1215 -5.2650 -0.2360
4.2712 -5.2369 -0.2423
4.2959 -5.1484 -0.2270
4.4201 -5.0895 -0.2253
4.5374 -5.1297 -0.2424
4.5801 -5.0756 -0.2351
4.7567 -4.9800 -0.2304
4.8690 -5.0023 -0.2436
4.9060 -4.9500 -0.2363
5.0919 -5.0340 -0.2673
5.1634 -5.0107 -0.2684
5.2160 -4.9719 -0.2650
5.2491 -4.9189 -0.2573
5.1585 -4.7741 -0.2218
5.3888 -4.8735 -0.2594
5.5640 -4.9248 -0.2832
5.5572 -4.7785 -0.2541
5.5644 -4.7174 -0.2427
5.4470 -4.5266 -0.1962
5.4213 -4.4576 -0.1807
5.4463 -4.4196 -0.1752
2.0296 -5.1667 0.0006
2.1161 -5.0409 0.0156
1.7287 -6.6081 -0.2206
1.7438 -6.8246 -0.2580
1.8694 -6.6539 -0.2381
3.0872 -6.5290 -0.3023
3.3009 -6.0387 -0.2348
3.5030 -5.7839 -0.2062
3.5865 -5.7827 -0.2118
3.7782 -6.1298 -0.2835
3.7913 -5.8792 -0.2423
3.7266 -5.4566 -0.1668
3.7605 -5.3427 -0.1500
3.8675 -5.4108 -0.1690
3.9733 -5.4636 -0.1852
4.0657 -5.4793 -0.1943
4.1081 -5.3969 -0.1835
4.1089 -5.2491 -0.1587
4.1286 -5.1471 -0.1429
4.2783 -5.2554 -0.1716
4.3481 -5.2326 -0.1726
4.3821 -5.1603 -0.1628
4.5011 -5.2047 -0.1786
4.7500 -5.4044 -0.2296
4.8275 -5.3791 -0.2308
5.0434 -5.1853 -0.2133
5.1366 -5.1788 -0.2187
5.5565 -5.0912 -0.2333
5.6563 -5.0837 -0.2391
5.7332 -5.0586 -0.2402
5.7892 -4.8731 -0.2130
5.7230 -4.7648 -0.1901
5.5078 -4.5750 -0.1432
5.4273 -4.4733 -0.1205
5.4022 -4.4077 -0.1077
5.4939 -4.4070 -0.1140
2.0198 -5.1049 0.0616
2.1275 -5.0332 0.0651
2.5699 -4.4674 0.1179
3.6361 -5.9540 -0.1571
3.6719 -5.7780 -0.1344
3.7338 -5.7065 -0.1281
3.7338 -5.4752 -0.0955
3.7964 -5.4328 -0.0933
3.8746 -5.4294 -0.0976
3.9535 -5.4247 -0.1018
4.3152 -5.9813 -0.2025
4.0806 -5.0744 -0.0602
4.8991 -5.6019 -0.1846
5.1755 -5.8052 -0.2302
5.3937 -5.9206 -0.2599
5.5752 -5.9830 -0.2798
5.3959 -5.6634 -0.2237
5.3152 -5.4666 -0.1910
5.6854 -5.7116 -0.2482
5.6081 -5.5274 -0.2175
5.7867 -5.2829 -0.1939
5.6405 -5.0865 -0.1573
5.2844 -4.7532 -0.0885
5.3679 -4.7448 -0.0924
5.5712 -4.8148 -0.1147
5.7270 -4.8479 -0.1289
5.7757 -4.8112 -0.1267
5.8461 -4.7883 -0.1278
5.4582 -4.4506 -0.0564
5.5169 -4.4315 -0.0573
2.5347 -4.2183 0.1853
2.5543 -4.2520 0.1804
2.5833 -4.4166 0.1600
2.7504 -4.4140 0.1516
3.6995 -6.1739 -0.0999
3.8353 -6.3038 -0.1219
3.7818 -5.8455 -0.0666
3.8262 -5.7245 -0.0551
4.1230 -6.2472 -0.1305
3.8982 -5.4859 -0.0315
3.9265 -5.3701 -0.0198
3.9953 -5.3478 -0.0208
5.4742 -6.1759 -0.1934
5.3501 -5.8850 -0.1535
5.5852 -6.0090 -0.1801
5.6527 -5.9449 -0.1763
5.7501 -5.9132 -0.1778
6.0320 -5.5894 -0.1555
6.2260 -5.6392 -0.1714
6.1327 -5.2867 -0.1261
5.5569 -4.8188 -0.0423
5.7571 -4.8814 -0.0599
5.8051 -4.8436 -0.0581
6.1619 -4.9913 -0.0938
5.6207 -4.6093 -0.0216
5.4641 -4.4661 0.0030
2.7889 -4.4236 0.1856
3.9339 -6.6177 -0.0588
3.8343 -5.9976 0.0004
3.8880 -5.8909 0.0075
4.0007 -5.9435 -0.0021
3.9498 -5.6072 0.0299
3.9502 -5.4243 0.0460
4.0297 -5.4208 0.0428
4.0803 -5.3608 0.0459
4.0736 -5.2046 0.0600
4.1020 -5.1220 0.0661
4.1847 -5.1313 0.0616
4.3462 -5.1351 0.0542
5.4261 -6.1325 -0.0816
5.6173 -6.2053 -0.0964
5.6558 -6.1014 -0.0889
5.7246 -6.0355 -0.0861
5.7295 -5.9084 -0.0751
6.6284 -5.9711 -0.1202
6.3367 -5.4453 -0.0609
5.8358 -4.8770 0.0114
5.5216 -4.5105 0.0576
2.3354 -4.9692 0.2043
2.5521 -4.6782 0.2148
2.5761 -4.7817 0.2074
2.7915 -4.4965 0.2176
2.8283 -4.4609 0.2185
3.6388 -5.9393 0.0970
3.9574 -5.6269 0.1052
4.0318 -5.6027 0.1041
4.0653 -5.4965 0.1096
4.0504 -5.3097 0.1218
4.0536 -5.1748 0.1301
4.0653 -5.0672 0.1365
4.1007 -5.0064 0.1390
4.2991 -5.0768 0.1275
5.3273 -6.0272 0.0313
5.5067 -6.0930 0.0208
5.6352 -6.0941 0.0162
5.6725 -5.9963 0.0210
5.6211 -5.8150 0.0341
6.6209 -6.1044 -0.0196
6.5119 -5.8989 -0.0029
6.6997 -5.9310 -0.0116
6.5101 -5.6832 0.0107
6.0310 -5.2481 0.0550
5.9688 -5.0477 0.0698
5.7073 -4.8105 0.0940
5.3680 -4.4872 0.1263
1.7150 -5.9015 0.2328
2.0857 -5.1392 0.2510
2.5898 -4.7208 0.2528
2.6201 -4.8037 0.2489
2.7158 -4.6162 0.2532
2.7557 -4.5827 0.2534
2.7948 -4.5377 0.2540
3.5242 -5.8147 0.1864
3.5683 -5.6796 0.1903
3.7623 -5.5496 0.1898
3.8327 -5.5267 0.1887
3.9031 -5.5038 0.1876
3.9914 -5.5193 0.1846
4.0828 -5.5360 0.1815
4.0634 -5.0699 0.1994
4.1069 -5.0223 0.2000
4.1912 -4.9323 0.2010
5.4183 -6.1510 0.1220
5.4600 -6.0534 0.1245
5.6151 -6.0870 0.1190
5.9133 -6.2662 0.1041
6.6062 -5.9923 0.0954
6.5406 -5.8292 0.1032
5.9234 -4.9611 0.1525
5.8976 -4.8768 0.1563
5.7001 -4.6951 0.1685
5.4483 -4.4934 0.1829
2.5949 -4.7236 0.2941
2.6313 -4.7498 0.2930
2.7190 -4.6409 0.2927
2.7589 -4.6138 0.2923
2.7986 -4.5477 0.2923
2.8361 -4.5105 0.2920
3.5202 -5.7883 0.2632
3.6133 -5.8330 0.2609
3.6678 -5.7403 0.2609
3.7270 -5.6732 0.2606
3.7766 -5.5876 0.2607
3.8399 -5.5453 0.2600
4.0413 -5.4570 0.2572
4.2542 -5.7039 0.2501
4.0609 -5.0714 0.2616
4.0878 -4.9986 0.2619
4.1885 -4.9355 0.2608
4.3235 -5.0197 0.2571
5.4852 -6.2465 0.2197
5.5858 -6.2138 0.2182
5.6864 -6.1811 0.2167
5.5748 -5.9230 0.2220
5.2894 -5.5074 0.2326
5.8055 -5.1994 0.2264
5.6001 -4.9729 0.2331
5.6061 -4.9058 0.2338
5.5912 -4.8280 0.2351
5.5769 -4.7545 0.2362
5.5264 -4.6623 0.2383
5.4800 -4.5774 0.2403
5.4710 -4.5184 0.2412
2.2989 -5.0398 0.3422
1.8228 -8.2224 0.3871
2.5991 -4.7343 0.3351
2.6847 -4.6496 0.3331
2.7230 -4.6513 0.3327
2.7617 -4.6595 0.3323
2.8399 -4.5203 0.3297
3.5277 -5.8078 0.3380
3.6277 -5.8770 0.3377
3.6824 -5.7826 0.3359
3.7417 -5.7141 0.3344
3.7914 -5.6268 0.3327
3.8389 -5.5436 0.3312
3.9431 -5.6005 0.3307
4.0059 -5.5571 0.3295
4.0484 -5.4754 0.3280
5.3302 -6.0708 0.3209
5.5074 -6.1368 0.3198
5.6654 -6.1729 0.3184
5.7649 -6.1406 0.3169
5.8319 -6.0750 0.3154
6.0704 -6.1802 0.3140
5.4730 -4.8272 0.3039
5.5781 -4.8324 0.3028
5.5258 -4.7345 0.3022
5.4968 -4.6564 0.3015
5.4021 -4.5428 0.3012
5.4431 -4.5142 0.3004
5.4846 -4.4864 0.2996
1.4996 -6.7879 0.4548
2.5880 -4.8701 0.3807
2.6908 -4.6316 0.3716
2.7285 -4.6326 0.3715
3.5592 -5.9220 0.4161
3.7100 -6.1617 0.4244
3.8023 -6.1636 0.4242
3.7411 -5.4903 0.3996
3.8870 -5.6644 0.4055
3.9158 -5.5393 0.4009
3.9950 -5.5367 0.4005
4.0555 -5.4939 0.3987
3.9753 -5.1871 0.3877
3.9969 -5.0952 0.3843
4.0408 -5.0490 0.3824
4.0756 -4.9914 0.3802
4.2651 -5.0587 0.3820
5.5172 -6.1625 0.4184
5.6451 -6.1650 0.4180
5.8073 -6.2015 0.4188
5.9429 -6.2048 0.4185
5.7805 -5.9116 0.4083
5.8435 -5.8525 0.4059
5.7064 -5.0022 0.3752
5.6457 -4.8908 0.3713
5.6716 -4.8416 0.3694
5.5390 -4.6951 0.3644
5.4578 -4.5882 0.3608
5.4489 -4.5294 0.3587
5.5238 -4.5204 0.3581
2.5869 -4.9277 0.4274
2.6407 -4.8159 0.4209
2.6921 -4.6771 0.4127
2.7708 -4.6448 0.4111
3.5797 -5.9924 0.4965
3.7344 -5.4714 0.4655
3.8377 -5.5422 0.4703
3.9229 -5.5577 0.4716
4.0021 -5.5553 0.4718
4.0919 -5.5716 0.4732
3.9956 -5.0979 0.4440
4.0158 -5.0125 0.4389
4.0577 -4.9689 0.4365
4.1231 -4.9632 0.4364
4.1885 -4.9563 0.4363
4.2737 -4.9752 0.4378
5.5271 -6.1882 0.5170
5.6550 -6.1910 0.5177
5.7535 -6.1590 0.5162
5.9181 -6.1954 0.5192
5.9841 -6.1284 0.5154
5.9808 -5.9985 0.5075
5.6323 -5.5613 0.4794
5.9073 -5.3198 0.4660
5.6919 -5.0058 0.4460
5.6958 -4.9379 0.4419
5.6170 -4.8192 0.4343
5.6417 -4.7724 0.4316
5.6860 -4.7391 0.4298
2.5023 -4.7370 0.4543
2.6191 -4.6990 0.4525
2.6481 -4.7936 0.4609
3.5280 -6.1172 0.5831
3.5942 -6.0386 0.5773
3.7070 -5.6051 0.5421
3.7684 -5.5628 0.5393
3.8601 -5.5989 0.5434
3.8738 -5.4458 0.5307
3.9908 -5.5341 0.5395
4.3955 -6.1906 0.5998
3.9789 -5.0729 0.5005
4.0294 -5.0408 0.4984
4.0955 -5.0350 0.4988
4.1538 -5.0160 0.4979
4.1861 -4.9597 0.4935
4.2168 -4.9050 0.4893
4.2819 -4.8983 0.4895
5.6957 -6.2518 0.6207
5.7952 -6.2194 0.6192
5.8947 -6.1871 0.6177
5.9603 -6.1210 0.6129
6.0238 -6.0557 0.6082
6.0528 -5.9613 0.6006
5.4378 -5.3039 0.5377
5.8369 -5.2814 0.5406
5.7902 -5.0886 0.5238
5.6806 -4.9410 0.5101
5.6237 -4.8365 0.5006
5.4980 -4.6940 0.4870
5.6006 -4.6428 0.4840
2.3693 -4.4969 0.4641
2.6012 -4.9045 0.5125
2.8545 -4.5406 0.4784
3.9919 -7.1303 0.7794
3.7790 -5.8138 0.6336
3.8126 -5.6813 0.6200
3.8592 -5.5975 0.6119
3.9120 -5.5364 0.6064
3.9802 -5.5142 0.6053
4.4355 -6.2769 0.6963
4.4455 -6.0958 0.6770
3.9922 -5.1016 0.5612
4.0202 -5.0306 0.5541
4.0693 -4.9989 0.5516
4.1973 -4.8852 0.5419
4.2787 -4.9016 0.5453
4.3635 -4.9190 0.5488
5.9047 -6.2134 0.7184
6.0042 -6.1810 0.7169
6.0336 -6.0814 0.7068
6.0624 -5.9865 0.6971
5.9302 -5.7537 0.6695
5.7879 -5.5275 0.6424
6.5392 -5.8314 0.6899
5.8223 -5.0514 0.5918
5.7558 -4.9368 0.5782
5.8929 -4.9586 0.5832
2.6066 -4.9065 0.5553
4.0606 -7.3618 0.9153
4.1722 -7.3255 0.9136
3.7712 -5.7884 0.7020
3.7545 -5.5240 0.6671
3.9274 -5.5743 0.6784
4.0817 -5.7373 0.7038
4.4694 -6.1474 0.7679
4.0372 -5.1872 0.6308
3.9963 -4.9953 0.6046
4.0521 -4.9772 0.6038
4.4298 -5.0097 0.6183
5.8488 -6.1704 0.8084
5.9462 -6.1388 0.8069
6.0787 -6.1410 0.8108
6.1065 -6.0436 0.7988
6.2028 -6.0122 0.7973
5.9358 -5.5697 0.7323
6.7250 -5.8855 0.7950
5.6531 -4.9486 0.6435
5.6369 -4.8711 0.6330
5.6812 -4.8362 0.6297
5.8330 -4.8073 0.6300
0.9907 -8.0155 1.0176
2.8971 -4.5178 0.5476
4.0348 -6.8806 0.9488
3.8429 -5.7615 0.7708
3.8426 -5.5573 0.7395
3.9099 -5.5354 0.7385
4.0590 -5.6913 0.7675
3.9746 -5.0795 0.6709
4.0020 -5.0101 0.6612
4.0655 -5.0043 0.6625
4.4047 -4.9864 0.6714
4.6113 -5.1453 0.7029
6.0244 -6.2336 0.9184
6.1979 -6.2730 0.9305
6.2606 -6.2036 0.9220
6.2855 -6.1030 0.9075
6.1185 -5.6368 0.8303
6.5585 -5.8818 0.8830
6.6538 -5.8508 0.8815
6.6300 -5.7341 0.8628
5.5461 -4.8230 0.6858
5.5530 -4.7660 0.6773
5.5956 -4.7338 0.6739
5.7759 -4.7859 0.6881
1.0212 -7.9867 1.1128
2.6407 -7.6646 1.1239
3.9222 -5.7572 0.8427
3.9583 -5.6500 0.8254
4.0663 -5.7103 0.8405
4.0333 -5.4728 0.7974
3.9663 -5.1957 0.7460
3.9804 -5.0946 0.7288
3.9861 -4.9881 0.7104
4.1193 -4.9885 0.7160
4.4737 -5.0813 0.7471
4.5343 -5.0616 0.7462
6.2580 -6.0952 0.9996
6.3187 -6.0318 0.9911
6.6474 -5.9686 0.9937
6.7876 -5.9690 0.9996
5.5525 -4.8397 0.7498
5.5592 -4.7823 0.7400
5.8905 -4.8688 0.7690
6.0748 -4.9169 0.7852
0.9488 -8.2464 1.2577
4.2479 -7.1736 1.2073
4.0524 -6.3252 1.0301
4.0079 -5.5864 0.8820
3.9730 -5.3535 0.8343
3.9218 -5.1144 0.7845
3.9645 -5.0705 0.7779
3.9849 -4.9909 0.7632
4.0394 -4.9732 0.7624
4.4478 -5.0568 0.7989
4.4854 -5.0110 0.7917
6.0673 -6.0554 1.0755
6.1269 -5.9932 1.0661
6.2560 -5.9940 1.0726
6.4249 -6.0259 1.0872
6.5599 -6.0260 1.0938
6.7139 -5.9319 1.0828
6.6488 -5.7830 1.0501
6.5522 -5.6200 1.0132
6.3673 -5.4058 0.9618
5.5467 -4.7863 0.7993
5.5346 -4.7196 0.7855
5.7286 -4.7826 0.8075
1.0219 -8.0970 1.3301
3.9735 -5.8870 1.0108
4.0330 -5.6439 0.9608
4.0291 -5.4716 0.9228
3.9561 -5.1843 0.8557
3.9844 -5.1110 0.8412
4.0047 -5.0298 0.8246
4.0234 -4.9527 0.8087
4.4327 -5.0456 0.8520
4.3998 -4.9153 0.8216
7.1777 -6.4214 1.3076
6.8946 -6.0871 1.2184
6.6967 -5.8357 1.1521
0.8346 -5.7953 0.8789
1.5823 -4.0752 0.5878
-0.2213 -5.0778 1.0768
-0.6374 -3.9808 1.0997
-0.9352 -3.2564 1.1202
0.8160 -2.9651 0.6916
0.9272 -2.8583 0.6584
0.9610 -2.8266 0.6483
0.9676 -2.7934 0.6446
0.9562 -2.7582 0.6448
0.9387 -2.7219 0.6465
0.9272 -2.6866 0.6467
0.8500 -2.6372 0.6614
-0.3436 -1.8408 0.8862
-0.3437 -1.7903 0.8828
0.6603 -6.0975 0.8758
0.9274 -5.5760 0.7877
0.9498 -5.4566 0.7758
1.6252 -4.1572 0.5543
1.5451 -4.1655 0.5717
1.5448 -4.1219 0.5692
1.5456 -4.0781 0.5664
-0.3813 -5.2052 1.0419
-0.7998 -4.1243 1.0649
-1.0116 -3.2561 1.0571
0.8409 -2.9619 0.6477
0.8724 -2.9243 0.6388
0.9022 -2.8886 0.6303
0.9493 -2.8562 0.6184
0.9697 -2.8235 0.6121
0.9642 -2.7887 0.6112
0.9213 -2.7484 0.6178
0.9413 -2.7177 0.6117
0.9298 -2.6823 0.6120
0.9060 -2.6441 0.6147
0.8608 -2.6005 0.6216
0.6423 -2.5113 0.6624
0.3491 -2.3514 0.7147
0.3776 -2.3185 0.7067
0.3628 -2.2730 0.7070
0.4531 -2.2641 0.6874
0.1272 -2.1062 0.7467
-0.1891 -1.8922 0.8007
-0.2749 -1.8082 0.8137
-0.2250 -1.7812 0.8015
1.5597 -4.1550 0.5372
1.7974 -3.7842 0.4725
1.7014 -3.8124 0.4921
1.7053 -3.7750 0.4894
0.8029 -2.9980 0.6185
0.8656 -2.9588 0.6046
0.8889 -2.9213 0.5982
0.9512 -2.8881 0.5846
0.9394 -2.8513 0.5849
0.9654 -2.8189 0.5782
0.9538 -2.7830 0.5785
0.9735 -2.7520 0.5731
0.9742 -2.7189 0.5712
0.9446 -2.6804 0.5748
0.9271 -2.6437 0.5761
0.9156 -2.6082 0.5764
0.9041 -2.5727 0.5767
0.5128 -2.2776 0.6349
-0.3317 -1.9270 0.7758
-0.1079 -1.9621 0.7354
0.0244 -1.9686 0.7107
1.6313 -4.1630 0.4944
1.5610 -4.1598 0.5059
1.5606 -4.1163 0.5040
1.7811 -3.8049 0.4530
1.7310 -3.8219 0.4621
1.7105 -3.8076 0.4649
1.1816 -3.9940 0.5614
0.5770 -3.0403 0.6181
1.0333 -2.9247 0.5369
0.9859 -2.8517 0.5414
0.9743 -2.8158 0.5417
0.9698 -2.7808 0.5408
0.9391 -2.7421 0.5441
0.9527 -2.7105 0.5404
0.9351 -2.6736 0.5417
0.9297 -2.6392 0.5410
0.9182 -2.6036 0.5413
0.8930 -2.5645 0.5436
0.8889 -2.5307 0.5428
0.8157 -2.4764 0.5524
0.5089 -2.3068 0.5957
-0.3559 -1.9073 0.7211
0.3880 -2.0700 0.6049
0.8949 -2.2580 0.5292
1.7393 -4.1953 0.4501
1.7300 -4.1667 0.4503
1.6164 -4.1885 0.4674
1.5829 -4.1408 0.4704
1.5759 -4.1052 0.4700
1.5857 -4.0519 0.4665
1.4095 -4.0057 0.4900
1.4071 -3.9633 0.4887
1.1613 -4.0122 0.5258
0.7797 -3.1637 0.5478
0.5937 -3.0836 0.5714
0.5571 -3.0368 0.5748
0.5417 -2.9891 0.5752
0.9693 -2.8816 0.5098
0.9761 -2.8467 0.5075
0.9960 -2.8142 0.5033
0.9963 -2.7802 0.5020
0.9789 -2.7439 0.5031
0.8895 -2.6941 0.5140
0.9041 -2.6624 0.5107
0.8861 -2.6244 0.5118
0.9134 -2.5972 0.5068
0.8821 -2.5561 0.5097
0.8902 -2.5254 0.5074
0.6018 -2.3311 0.5412
0.4762 -2.2495 0.5561
0.9098 -2.2580 0.4943
1.6146 -4.1977 0.4369
1.5584 -4.2216 0.4444
1.5476 -4.1883 0.4447
1.1395 -4.0316 0.4888
0.6973 -3.1217 0.5136
0.5743 -3.0807 0.5271
0.5688 -3.0326 0.5263
0.5534 -2.9849 0.5267
0.9968 -2.8799 0.4702
0.9792 -2.8430 0.4711
0.9674 -2.8065 0.4714
0.9298 -2.7663 0.4747
0.8764 -2.7224 0.4798
0.8355 -2.6791 0.4833
0.8746 -2.6165 0.4767
0.9101 -2.5911 0.4716
0.8775 -2.5493 0.4742
0.8311 -2.5027 0.4784
1.6224 -4.1950 0.4046
1.5913 -4.1885 0.4074
1.5881 -4.1475 0.4068
1.1300 -4.0424 0.4485
0.6987 -3.1183 0.4685
0.5960 -3.0761 0.4774
0.6016 -3.0282 0.4757
0.5864 -2.9810 0.4761
0.5598 -2.9334 0.4775
1.0125 -2.8772 0.4326
0.9560 -2.8365 0.4371
0.9822 -2.8040 0.4338
0.9190 -2.7602 0.4388
0.8645 -2.7155 0.4431
0.7537 -2.6584 0.4524
0.8026 -2.6308 0.4470
0.8417 -2.6035 0.4426
0.7384 -2.5425 0.4512
0.5956 -2.3898 0.4614
0.7062 -2.3532 0.4498
0.7326 -2.3282 0.4467
0.7354 -2.2955 0.4457
1.6335 -4.2332 0.3726
1.6169 -4.2092 0.3735
1.5993 -4.1857 0.3744
1.5992 -4.1409 0.3737
1.5824 -4.1162 0.3745
1.1135 -4.0582 0.4076
0.7862 -4.1060 0.4321
0.7196 -3.1137 0.4214
0.6077 -3.0719 0.4289
0.6231 -3.0239 0.4270
0.5980 -2.9769 0.4281
0.5928 -2.9301 0.4277
1.0146 -2.8735 0.3962
0.9456 -2.8312 0.4006
0.9404 -2.7944 0.4004
0.5479 -2.6134 0.4260
0.5628 -2.5742 0.4243
0.5687 -2.5341 0.4233
0.5193 -2.4395 0.4254
0.5048 -2.3947 0.4257
0.5309 -2.3626 0.4233
0.6109 -2.3500 0.4173
0.6410 -2.3234 0.4147
0.6704 -2.2982 0.4122
0.7144 -2.2803 0.4087
0.7553 -2.2632 0.4055
0.7890 -2.2133 0.4023
0.7992 -2.1869 0.4011
1.6513 -4.2171 0.3394
1.6248 -4.2063 0.3406
1.5651 -4.1881 0.3434
1.5470 -4.1628 0.3441
1.4882 -4.1815 0.3471
1.1108 -4.0642 0.3644
0.7211 -3.1103 0.3757
0.6401 -3.0671 0.3793
0.6139 -3.0200 0.3802
0.6096 -2.9727 0.3801
1.0654 -2.8739 0.3572
0.9817 -2.7953 0.3607
0.4653 -2.5911 0.3840
0.4451 -2.4983 0.3843
0.4298 -2.4508 0.3847
0.3336 -2.3809 0.3888
0.3684 -2.2611 0.3861
0.4723 -2.2561 0.3811
0.4690 -2.2155 0.3809
0.4747 -2.1788 0.3803
0.5289 -2.1627 0.3776
0.5712 -2.1441 0.3754
0.5577 -2.1025 0.3757
0.5352 -2.0567 0.3765
1.2961 -5.1841 0.3158
1.2600 -5.1701 0.3166
1.2226 -5.1558 0.3175
0.9099 -5.5657 0.3249
1.6462 -4.2317 0.3075
1.6296 -4.2075 0.3079
1.4588 -4.3743 0.3120
1.4733 -4.3046 0.3116
1.5083 -4.2137 0.3108
1.4969 -4.1784 0.3111
1.1356 -4.1039 0.3197
1.1145 -4.0655 0.3202
0.6711 -3.0623 0.3308
0.6255 -3.0159 0.3319
0.5904 -2.9681 0.3328
1.0684 -2.8703 0.3214
0.9959 -2.8281 0.3231
0.8984 -2.7428 0.3255
0.4012 -2.4807 0.3373
0.4534 -2.4498 0.3361
-0.4680 -2.0269 0.3580
0.2611 -2.2164 0.3407
0.3067 -2.1886 0.3396
0.2217 -2.0268 0.3416
1.2650 -5.1776 0.2667
1.1582 -5.1961 0.2664
1.2100 -5.0410 0.2677
1.6277 -4.2645 0.2745
1.5857 -4.2721 0.2744
1.4681 -4.3710 0.2735
1.5207 -4.2554 0.2745
1.4342 -4.3063 0.2740
1.4732 -4.1623 0.2752
0.6378 -4.7231 0.2697
1.1593 -4.0900 0.2754
1.1384 -4.0520 0.2757
0.6381 -3.1082 0.2829
1.0660 -2.8662 0.2853
0.9734 -2.8213 0.2855
0.9612 -2.7836 0.2858
0.9491 -2.7460 0.2861
0.8006 -2.6456 0.2868
0.8109 -2.6103 0.2871
0.4425 -2.4397 0.2881
-0.6370 -1.9609 0.2908
0.0697 -2.1418 0.2901
0.2941 -2.1754 0.2901
-0.4711 -1.7264 0.2929
-0.4490 -1.6808 0.2933
1.6395 -4.2565 0.2410
1.5979 -4.2641 0.2398
1.4866 -4.3562 0.2354
1.5372 -4.2429 0.2386
1.3997 -4.3539 0.2331
1.1843 -4.5402 0.2244
1.4615 -4.1322 0.2384
1.1149 -4.1291 0.2293
1.0934 -4.0894 0.2294
-0.9721 -3.2823 0.1883
0.8844 -3.0068 0.2415
0.8861 -2.9655 0.2423
1.0324 -2.8951 0.2473
1.0859 -2.8641 0.2492
0.9760 -2.8172 0.2470
0.9829 -2.7820 0.2478
0.9845 -2.7469 0.2484
0.8440 -2.6121 0.2469
0.8078 -2.5669 0.2467
0.8031 -2.5291 0.2472
0.2214 -2.1853 0.2375
0.1791 -2.1244 0.2374
-0.3520 -1.8735 0.2275
-0.5435 -1.7410 0.2246
-0.6112 -1.6547 0.2243
-0.4761 -1.6564 0.2278
1.6306 -4.2769 0.2061
1.6025 -4.2661 0.2049
1.5649 -4.2655 0.2029
1.5497 -4.2351 0.2029
1.4972 -4.2480 0.1999
1.4352 -4.1654 0.1987
1.1191 -4.1305 0.1831
1.0976 -4.0906 0.1830
-0.8715 -4.4662 0.0717
-0.9844 -3.2771 0.0951
0.8711 -3.0032 0.1980
0.9959 -2.9261 0.2063
1.0946 -2.8610 0.2131
1.0353 -2.8198 0.2110
1.0112 -2.7815 0.2107
0.9936 -2.7436 0.2107
0.9213 -2.6954 0.2081
0.8802 -2.6509 0.2071
0.8387 -2.6052 0.2061
0.8107 -2.5616 0.2057
0.8200 -2.5275 0.2070
0.7445 -2.4696 0.2045
-0.2178 -2.0765 0.1643
0.1255 -2.1425 0.1805
-0.3562 -1.9162 0.1611
-0.6707 -1.7374 0.1491
-0.7452 -1.6458 0.1475
-0.6181 -1.6386 0.1543
-0.2810 -1.6792 0.1708
1.6072 -4.3175 0.1680
1.5960 -4.2828 0.1683
1.5697 -4.2673 0.1668
1.5507 -4.2414 0.1662
1.5270 -4.2204 0.1650
1.4858 -4.2178 0.1619
1.4329 -4.2252 0.1575
1.3760 -4.2330 0.1528
1.3631 -4.1932 0.1532
1.2836 -4.2167 0.1462
1.2076 -4.2313 0.1398
1.1934 -4.1873 0.1402
1.0794 -4.2256 0.1300
1.0158 -4.2163 0.1254
-0.4971 -5.0521 -0.0197
-0.4956 -4.9386 -0.0159
-0.7387 -4.3049 -0.0139
-0.7014 -4.1870 -0.0071
-0.8595 -3.9313 -0.0110
0.8319 -3.0432 0.1497
0.9909 -2.9996 0.1635
0.9910 -2.9605 0.1648
0.9924 -2.9221 0.1662
1.0256 -2.8867 0.1699
1.0628 -2.8539 0.1739
1.0266 -2.8145 0.1724
0.9890 -2.7737 0.1708
0.8275 -2.5599 0.1653
0.8379 -2.5263 0.1672
0.7546 -2.4660 0.1627
-0.4909 -1.9741 0.0821
-1.2049 -1.5136 0.0418
-0.9177 -1.5610 0.0625
-0.6260 -1.6220 0.0832
-0.5090 -1.6159 0.0925
1.6048 -4.3296 0.1310
1.5787 -4.3141 0.1289
1.5553 -4.2938 0.1273
1.5519 -4.2476 0.1289
1.5282 -4.2262 0.1273
-0.8186 -4.3373 -0.1214
-0.7120 -4.1910 -0.1042
0.9003 -2.9958 0.1130
0.8782 -2.9536 0.1124
0.8882 -2.9127 0.1151
0.9483 -2.8767 0.1229
1.0412 -2.8119 0.1352
0.8840 -2.6778 0.1244
0.8258 -2.6283 0.1204
0.7966 -2.5837 0.1192
0.8454 -2.5584 0.1254
0.7861 -2.5057 0.1214
-0.5926 -1.9278 0.0019
-0.5667 -1.8745 0.0069
-0.6100 -1.6751 0.0106
-0.4077 -1.7039 0.0304
1.2430 -4.5091 0.0377
1.0873 -4.6171 0.0120
1.2822 -4.2870 0.0540
-0.5139 -5.0781 -0.2202
-0.3902 -4.8842 -0.1944
-0.6703 -4.7142 -0.2225
-0.6681 -4.6014 -0.2165
-0.8402 -4.5712 -0.2375
-0.8724 -4.4717 -0.2367
-0.8674 -4.3576 -0.2303
-0.8626 -4.2459 -0.2241
-0.9689 -4.1733 -0.2344
-0.9629 -4.0623 -0.2280
-0.9195 -3.9436 -0.2164
-0.8004 -3.6158 -0.1845
-0.8985 -3.5358 -0.1933
0.8812 -2.9497 0.0685
0.8910 -2.9086 0.0718
0.8925 -2.8680 0.0741
0.9804 -2.7998 0.0890
0.9745 -2.7622 0.0901
0.9344 -2.7189 0.0870
0.8490 -2.6656 0.0785
0.6183 -2.5773 0.0528
0.6704 -2.5474 0.0611
0.7934 -2.5388 0.0776
0.7800 -2.4976 0.0779
0.7981 -2.4659 0.0819
-0.8675 -1.8211 -0.1034
-0.9519 -1.7220 -0.1095
-0.8040 -1.7096 -0.0896
-0.6693 -1.6986 -0.0714
-0.6924 -1.6271 -0.0709
-0.5678 -1.6207 -0.0543
-0.5209 -1.5841 -0.0463
1.1011 -5.1345 -0.0702
1.0740 -5.0924 -0.0720
1.1089 -4.9656 -0.0591
1.0476 -4.9691 -0.0689
0.9520 -5.0110 -0.0865
0.9227 -4.9656 -0.0884
1.1550 -4.6191 -0.0315
1.1620 -4.5443 -0.0259
1.2642 -4.3714 0.0003
0.7567 -4.5874 -0.0924
0.7129 -4.5485 -0.0970
-0.1508 -4.8398 -0.2502
-0.2041 -4.7716 -0.2546
-0.3397 -4.7511 -0.2748
-0.4871 -4.7294 -0.2968
-0.3688 -4.5583 -0.2681
-0.2619 -4.4032 -0.2421
-0.1877 -4.2724 -0.2227
-0.2139 -4.1914 -0.2221
-0.3166 -4.1407 -0.2353
-0.3975 -4.0771 -0.2443
-0.4523 -3.9076 -0.2430
-0.3448 -3.7865 -0.2189
-0.3198 -3.6932 -0.2095
-0.3709 -3.6189 -0.2132
-0.5049 -3.5583 -0.2307
0.8076 -2.8566 0.0174
0.2472 -2.6998 -0.0617
0.3120 -2.6557 -0.0489
0.6208 -2.6585 -0.0004
0.6056 -2.6116 -0.0001
0.5490 -2.5555 -0.0057
0.5335 -2.5076 -0.0053
0.6761 -2.5015 0.0175
0.7902 -2.4940 0.0359
0.7768 -2.4528 0.0363
-0.9679 -1.7727 -0.1988
-1.2277 -1.6065 -0.2300
-1.2910 -1.5071 -0.2341
-0.9835 -1.5573 -0.1886
-0.6001 -1.6527 -0.1338
-0.4829 -1.6450 -0.1148
-0.6452 -1.5130 -0.1327
-0.5495 -1.5002 -0.1168
0.7675 -5.9533 -0.2463
1.0690 -5.3686 -0.1510
0.9361 -5.4844 -0.1834
0.9494 -5.3723 -0.1733
0.6906 -5.6484 -0.2399
0.8523 -5.3275 -0.1883
0.8317 -5.2639 -0.1878
0.9030 -5.0852 -0.1625
1.0620 -4.8102 -0.1145
1.1747 -4.6061 -0.0798
1.1511 -4.5653 -0.0814
1.2621 -4.3813 -0.0485
1.3152 -4.2676 -0.0310
0.5037 -4.8182 -0.2183
0.5564 -4.6871 -0.1997
0.4431 -4.6947 -0.2212
0.2467 -4.7579 -0.2618
0.2731 -4.5585 -0.2434
0.2857 -4.4633 -0.2347
0.2982 -4.3710 -0.2261
0.2581 -4.3110 -0.2295
0.2354 -4.2407 -0.2289
0.2304 -4.1614 -0.2245
0.2428 -4.0754 -0.2164
0.2033 -4.0139 -0.2195
0.1626 -3.9518 -0.2228
0.1021 -3.8958 -0.2302
0.0792 -3.8248 -0.2297
0.0365 -3.7598 -0.2332
0.0333 -3.6829 -0.2286
0.0305 -3.6072 -0.2240
-0.0126 -3.5410 -0.2275
-0.0355 -3.4701 -0.2269
-0.0792 -3.4023 -0.2304
-0.1023 -3.3307 -0.2298
-0.0833 -3.2552 -0.2212
-0.1273 -3.1863 -0.2247
-0.1717 -3.1162 -0.2282
-0.0925 -2.9745 -0.2039
0.0714 -2.9128 -0.1695
0.7451 -2.8912 -0.0434
0.7748 -2.8490 -0.0350
0.5536 -2.7816 -0.0714
0.3777 -2.6591 -0.0956
0.5332 -2.5905 -0.0622
0.5608 -2.5513 -0.0545
0.4790 -2.4870 -0.0652
0.6779 -2.4952 -0.0290
0.7844 -2.4858 -0.0087
0.7629 -2.4417 -0.0097
1.3123 -5.1517 -0.1454
1.1662 -4.7664 -0.1470
1.1806 -4.6778 -0.1371
1.2576 -4.5195 -0.1086
1.3126 -4.3948 -0.0873
1.3563 -4.2888 -0.0699
1.3542 -4.2348 -0.0662
1.3516 -4.1824 -0.0627
1.2980 -4.1784 -0.0738
0.4937 -4.4947 -0.2692
0.4261 -4.4599 -0.2809
0.3880 -4.4025 -0.2846
0.4594 -4.2775 -0.2599
0.3091 -3.3403 -0.2201
0.2892 -3.2789 -0.2196
0.2694 -3.2175 -0.2191
0.2174 -3.1582 -0.2256
0.7017 -2.9782 -0.1088
0.7349 -2.9318 -0.0982
0.8181 -2.8911 -0.0773
0.8449 -2.8503 -0.0685
0.8788 -2.8123 -0.0584
0.8577 -2.7691 -0.0596
0.7953 -2.7189 -0.0690
0.6537 -2.6521 -0.0940
0.5562 -2.5884 -0.1099
0.5615 -2.5446 -0.1054
0.5459 -2.4964 -0.1050
0.6889 -2.4913 -0.0742
0.7187 -2.4599 -0.0655
0.7891 -2.4430 -0.0492
0.8229 -2.4174 -0.0400
0.1263 -1.9884 -0.1554
0.1945 -1.9710 -0.1396
1.2118 -5.2578 -0.2335
1.1071 -5.3433 -0.2661
1.0885 -5.1157 -0.2511
1.1484 -4.9515 -0.2226
1.2102 -4.7933 -0.1941
1.2451 -4.6776 -0.1758
1.3915 -4.3147 -0.1094
1.3667 -4.2851 -0.1129
1.3423 -4.2539 -0.1160
1.3456 -4.1947 -0.1102
1.3805 -4.1074 -0.0943
0.9848 -4.4078 -0.2154
0.9492 -4.3702 -0.2207
0.9019 -4.3404 -0.2296
0.8540 -4.3087 -0.2384
0.8871 -4.2159 -0.2225
0.9463 -4.1092 -0.1991
0.8099 -4.1348 -0.2341
0.7818 -4.0855 -0.2367
0.7741 -4.0238 -0.2332
0.7344 -3.9800 -0.2390
0.7049 -3.9295 -0.2418
0.6981 -3.8677 -0.2382
0.6800 -3.8115 -0.2377
0.6618 -3.7554 -0.2373
0.6555 -3.6949 -0.2336
0.6374 -3.6392 -0.2332
0.5953 -3.5906 -0.2392
0.5770 -3.5341 -0.2388
0.5587 -3.4776 -0.2383
0.5529 -3.4185 -0.2347
0.5222 -3.3646 -0.2374
0.4777 -3.3121 -0.2436
0.5229 -3.2472 -0.2272
0.6009 -3.1828 -0.2029
0.5249 -3.1338 -0.2170
0.5667 -3.0771 -0.2021
0.4966 -2.9707 -0.2098
0.8863 -2.8910 -0.1091
0.9028 -2.8508 -0.1017
0.8659 -2.8059 -0.1067
0.8681 -2.7654 -0.1027
0.8780 -2.7269 -0.0970
0.8569 -2.6837 -0.0984
0.5998 -2.5908 -0.1524
0.6151 -2.5500 -0.1452
0.5688 -2.4950 -0.1517
0.6808 -2.4822 -0.1236
0.7034 -2.4484 -0.1152
0.6518 -2.3924 -0.1229
0.1053 -2.1165 -0.2309
0.0556 -2.0478 -0.2370
0.0686 -2.0029 -0.2300
0.0808 -1.9589 -0.2233
0.0781 -1.9095 -0.2197
0.1485 -1.8943 -0.2014
1.4674 -4.4044 -0.1431
1.4737 -4.3396 -0.1353
1.4505 -4.3115 -0.1389
1.2159 -4.4552 -0.2157
1.2807 -4.3244 -0.1858
1.2662 -4.2793 -0.1855
1.0094 -4.1950 -0.2467
1.0191 -4.1248 -0.2374
1.0359 -4.0518 -0.2259
0.9774 -4.0302 -0.2397
0.8036 -3.3647 -0.2233
0.7972 -3.3136 -0.2202
0.7848 -3.2128 -0.2140
0.7691 -3.1641 -0.2136
0.6513 -3.1219 -0.2413
0.6566 -3.0697 -0.2349
0.6402 -3.0188 -0.2345
0.6451 -2.9684 -0.2284
0.8943 -2.9295 -0.1575
0.9041 -2.8877 -0.1509
0.8173 -2.8381 -0.1696
0.6326 -2.7734 -0.2133
0.6475 -2.7288 -0.2050
0.7195 -2.6952 -0.1824
0.8349 -2.6739 -0.1493
0.8841 -2.6445 -0.1332
0.7482 -2.5744 -0.1632
0.6313 -2.5038 -0.1880
0.6451 -2.4652 -0.1806
0.7143 -2.4445 -0.1600
0.7000 -2.4005 -0.1597
0.6949 -2.3596 -0.1572
0.2972 -2.1301 -0.2426
0.2774 -2.0315 -0.2385
0.2994 -1.8682 -0.2171
1.5410 -4.3741 -0.1629
1.5100 -4.3589 -0.1706
1.4735 -4.3485 -0.1804
1.2564 -4.4839 -0.2594
1.2551 -4.4212 -0.2532
1.2257 -4.3890 -0.2586
1.2035 -4.3484 -0.2610
1.2435 -4.2484 -0.2387
1.4002 -3.9975 -0.1657
1.1418 -4.1577 -0.2595
1.1264 -4.1100 -0.2592
1.1037 -4.0677 -0.2615
1.1260 -3.9937 -0.2472
1.1034 -3.9519 -0.2495
1.0958 -3.9003 -0.2464
1.0654 -3.8624 -0.2515
1.0579 -3.8111 -0.2484
1.0505 -3.7603 -0.2454
1.0354 -3.7136 -0.2450
1.0203 -3.6669 -0.2446
0.9892 -3.6266 -0.2497
0.9649 -3.5827 -0.2524
0.9750 -3.5269 -0.2435
0.9599 -3.4802 -0.2432
0.9448 -3.4335 -0.2428
0.9297 -3.3868 -0.2424
0.9146 -3.3401 -0.2421
0.8995 -3.2934 -0.2417
0.8844 -3.2467 -0.2413
0.8857 -3.1981 -0.2359
0.8708 -3.1519 -0.2355
0.8391 -3.1067 -0.2403
0.8061 -3.0606 -0.2453
0.7999 -3.0134 -0.2422
0.8110 -2.9670 -0.2341
0.9875 -2.9295 -0.1775
0.7996 -2.8758 -0.2280
0.7578 -2.8275 -0.2354
0.7334 -2.7799 -0.2377
0.7183 -2.7332 -0.2373
0.6735 -2.6815 -0.2453
0.6978 -2.6417 -0.2339
0.9750 -2.5864 -0.1454
0.7685 -2.4539 -0.1932
0.8197 -2.4322 -0.1757
0.7735 -2.3794 -0.1840
0.7086 -2.3183 -0.1970
0.6406 -2.2540 -0.2105
0.5476 -2.1772 -0.2303
0.4685 -2.1033 -0.2462
0.4741 -2.0649 -0.2405
0.4706 -2.0230 -0.2372
0.4660 -1.9810 -0.2342
0.4509 -1.9341 -0.2338
0.4466 -1.8928 -0.2308
1.5920 -4.3692 -0.1889
1.5548 -4.3651 -0.2006
1.4776 -4.4100 -0.2310
1.4792 -4.3502 -0.2237
1.4704 -4.3044 -0.2214
1.3477 -4.3287 -0.2643
1.3454 -4.2722 -0.2587
1.3569 -4.1475 -0.2407
1.3548 -4.0948 -0.2354
1.2728 -4.0016 -0.2517
1.2468 -3.9672 -0.2563
1.2236 -3.8248 -0.2477
1.1871 -3.6441 -0.2391
1.1987 -3.5908 -0.2292
1.1729 -3.5541 -0.2335
1.1594 -3.5121 -0.2331
1.0213 -3.2701 -0.2509
1.0215 -3.2245 -0.2456
1.0076 -3.1813 -0.2453
0.9858 -3.1388 -0.2476
0.9493 -3.0968 -0.2547
0.9829 -2.9665 -0.2289
1.0392 -2.9278 -0.2060
0.9404 -2.8814 -0.2331
0.9113 -2.8375 -0.2377
0.8975 -2.7947 -0.2374
0.8763 -2.7508 -0.2393
0.8400 -2.6633 -0.2412
0.8743 -2.6307 -0.2263
0.8986 -2.5979 -0.2146
0.9147 -2.5646 -0.2055
0.8413 -2.5070 -0.2230
0.7868 -2.4525 -0.2347
0.7897 -2.4153 -0.2295
0.7929 -2.3788 -0.2243
0.7623 -2.3305 -0.2288
0.7004 -2.2316 -0.2379
0.6957 -2.1924 -0.2349
0.6632 -2.1410 -0.2398
0.5650 -1.9823 -0.2539
1.8069 -4.2097 -0.1345
1.6542 -4.2909 -0.1992
1.6316 -4.2701 -0.2047
1.5344 -4.3456 -0.2488
1.4934 -4.3414 -0.2629
1.4946 -4.2838 -0.2554
1.4773 -4.2488 -0.2572
1.4644 -4.2086 -0.2569
1.4411 -4.1794 -0.2616
1.4429 -4.1239 -0.2541
1.4254 -4.0882 -0.2560
1.4170 -4.0439 -0.2535
1.4095 -3.9993 -0.2507
1.3912 -3.9640 -0.2529
1.3988 -3.9080 -0.2432
1.3549 -3.8917 -0.2569
1.3314 -3.8587 -0.2613
1.3289 -3.8110 -0.2563
1.3265 -3.7641 -0.2513
1.2803 -3.7434 -0.2653
1.2839 -3.6933 -0.2579
1.2827 -3.6468 -0.2525
1.2809 -3.6014 -0.2476
1.2732 -3.5594 -0.2451
1.2490 -3.5243 -0.2495
1.2347 -3.4405 -0.2442
1.2036 -3.3627 -0.2457
1.1843 -3.3244 -0.2479
1.1529 -3.2882 -0.2547
1.1463 -3.2465 -0.2519
1.1456 -3.2045 -0.2470
1.1450 -3.1631 -0.2420
1.1007 -3.0045 -0.2383
1.0999 -2.9654 -0.2338
1.0490 -2.9243 -0.2469
1.0290 -2.8837 -0.2491
1.0425 -2.8460 -0.2396
1.0297 -2.8064 -0.2393
1.0034 -2.7647 -0.2435
0.9904 -2.7248 -0.2432
0.9638 -2.6820 -0.2475
0.9507 -2.6417 -0.2472
0.9377 -2.6014 -0.2469
0.9106 -2.5573 -0.2511
0.8974 -2.5166 -0.2508
0.8909 -2.4780 -0.2484
0.8855 -2.4401 -0.2456
0.8647 -2.3970 -0.2477
0.8516 -2.3565 -0.2474
0.8691 -2.3282 -0.2377
0.8414 -2.2822 -0.2419
0.8054 -2.2320 -0.2486
0.8154 -2.2019 -0.2413
0.7791 -2.1506 -0.2480
0.7659 -2.1100 -0.2476
0.8370 -2.1126 -0.2225
1.7892 -4.1531 -0.1686
1.6548 -4.2474 -0.2333
1.6061 -4.2607 -0.2540
1.5941 -4.2236 -0.2537
1.5779 -4.1917 -0.2558
1.5816 -4.1363 -0.2469
1.5582 -4.1125 -0.2529
1.5498 -4.0716 -0.2506
1.5542 -4.0182 -0.2418
1.5342 -3.9898 -0.2458
1.5224 -3.9532 -0.2455
1.5235 -3.9053 -0.2387
1.5243 -3.8589 -0.2322
1.5041 -3.8299 -0.2362
1.4837 -3.8003 -0.2401
1.4976 -3.7461 -0.2275
1.4499 -3.6473 -0.2328
1.4517 -3.6042 -0.2264
1.4090 -3.5845 -0.2404
1.4066 -3.5436 -0.2358
1.3165 -3.3319 -0.2426
1.2974 -3.2574 -0.2401
1.2957 -3.2191 -0.2356
1.2779 -3.1458 -0.2327
1.2662 -3.1096 -0.2325
1.2488 -3.0738 -0.2345
1.2477 -3.0371 -0.2300
1.2361 -3.0011 -0.2297
1.2294 -2.9652 -0.2275
1.2178 -2.9293 -0.2273
1.2122 -2.8939 -0.2247
1.1844 -2.8564 -0.2305
1.1320 -2.7796 -0.2406
1.1149 -2.7418 -0.2422
1.0903 -2.7022 -0.2464
1.0729 -2.6636 -0.2480
1.0843 -2.6320 -0.2394
1.0907 -2.6001 -0.2327
1.0604 -2.5582 -0.2388
1.0430 -2.5195 -0.2404
1.0057 -2.4739 -0.2488
0.9935 -2.4362 -0.2486
0.9813 -2.3986 -0.2483
1.7389 -4.4470 -0.2671
1.7224 -4.3660 -0.2624
1.7013 -4.3460 -0.2683
1.7194 -4.2663 -0.2494
1.7815 -4.1269 -0.2034
1.6703 -4.2350 -0.2654
1.6623 -4.1951 -0.2631
1.6543 -4.1555 -0.2607
1.6465 -4.1162 -0.2584
1.6352 -4.0812 -0.2581
1.6203 -4.0503 -0.2599
1.6090 -4.0152 -0.2596
1.6013 -3.9764 -0.2573
1.5974 -3.9343 -0.2529
1.5825 -3.9031 -0.2547
1.5712 -3.8683 -0.2544
1.5523 -3.8398 -0.2583
1.5331 -3.8109 -0.2621
1.5139 -3.7814 -0.2660
1.5063 -3.7430 -0.2636
1.5069 -3.6995 -0.2572
1.4753 -3.6771 -0.2672
1.4521 -3.6056 -0.2666
1.4375 -3.5301 -0.2620
1.4157 -3.3422 -0.2442
1.3708 -3.2786 -0.2539
1.3171 -3.0674 -0.2461
1.2914 -3.0331 -0.2520
1.3031 -2.9640 -0.2372
1.2921 -2.9298 -0.2369
1.2610 -2.8941 -0.2448
1.2335 -2.8240 -0.2463
1.2222 -2.7892 -0.2460
1.2058 -2.7535 -0.2478
1.1945 -2.7185 -0.2475
1.1779 -2.6824 -0.2492
1.1613 -2.6460 -0.2510
1.1553 -2.6122 -0.2487
1.1547 -2.5804 -0.2444
1.1326 -2.5421 -0.2482
1.1158 -2.5051 -0.2499
1.1154 -2.4739 -0.2456
1.0874 -2.4326 -0.2514
1.0704 -2.3949 -0.2531
1.0646 -2.3619 -0.2508
1.0588 -2.3291 -0.2485
1.0589 -2.2992 -0.2442
1.2727 -2.3488 -0.1618
1.2679 -2.3217 -0.1599
1.7929 -4.3121 -0.2624
1.7791 -4.2843 -0.2644
1.7684 -4.2513 -0.2641
1.8050 -4.1012 -0.2247
1.7424 -4.1438 -0.2594
1.7466 -4.0911 -0.2494
1.7417 -4.0519 -0.2456
1.7313 -4.0199 -0.2454
1.7154 -3.9945 -0.2486
1.6865 -3.9829 -0.2599
1.6722 -3.9538 -0.2618
1.6717 -3.9104 -0.2554
1.6707 -3.8684 -0.2494
1.6439 -3.8512 -0.2588
1.6332 -3.8183 -0.2586
1.6394 -3.7714 -0.2486
1.6189 -3.7470 -0.2541
1.6247 -3.7021 -0.2446
1.5726 -3.5798 -0.2493
1.5629 -3.4722 -0.2372
1.5629 -3.4004 -0.2262
1.5027 -3.3875 -0.2513
1.5104 -3.3488 -0.2419
1.5151 -3.3123 -0.2342
1.5119 -3.2787 -0.2304
1.4757 -3.2533 -0.2429
1.4725 -3.2196 -0.2391
1.4548 -3.1888 -0.2424
1.4564 -3.1549 -0.2364
1.4499 -3.1227 -0.2344
1.4396 -3.0909 -0.2342
1.4027 -3.0277 -0.2411
1.4001 -2.9955 -0.2374
1.3858 -2.9634 -0.2389
1.3715 -2.9310 -0.2403
1.3286 -2.8641 -0.2494
1.3139 -2.8308 -0.2509
1.3124 -2.7993 -0.2467
1.3019 -2.7667 -0.2465
1.2768 -2.7309 -0.2523
1.2985 -2.7055 -0.2386
1.2965 -2.6754 -0.2349
1.2915 -2.6449 -0.2325
1.2758 -2.6114 -0.2344
1.2287 -2.5674 -0.2488
1.2279 -2.5379 -0.2447
1.2020 -2.4996 -0.2505
