ply
format ascii 1.0
element vertex 2082
property float x
property float y
property float z
end_header
3.4704 -0.8689 -0.0612
3.5582 -0.6890 -0.0981
3.5866 -0.8874 -0.0524
3.6445 -0.8887 -0.0497
3.7017 -0.8902 -0.0471
3.7695 -0.8474 -0.0540
3.8645 -0.9094 -0.0363
3.9425 -0.8375 -0.0494
4.0027 -0.8243 -0.0499
3.8433 -1.5029 0.0964
3.8765 -1.5156 0.1006
3.9321 -1.4755 0.0938
4.4699 -0.4007 -0.1266
4.5911 -0.2783 -0.1493
4.6856 -0.2177 -0.1591
4.6662 -0.3756 -0.1244
4.6796 -0.4605 -0.1047
1.3488 -1.2555 -0.1270
1.4136 -1.2413 -0.1276
1.4424 -1.1854 -0.1404
1.5866 -1.2659 -0.1133
1.6397 -1.2394 -0.1176
1.6827 -1.1982 -0.1260
1.7373 -1.1704 -0.1306
1.7928 -1.1424 -0.1351
1.8485 -1.1134 -0.1399
2.0837 -1.1422 -0.1217
2.4162 -1.1150 -0.1132
2.4873 -1.1282 -0.1065
2.5949 -1.0452 -0.1227
2.6613 -1.0455 -0.1195
2.7328 -1.0745 -0.1088
2.7892 -1.0334 -0.1167
2.8534 -1.0332 -0.1137
3.0037 -1.3046 -0.0378
3.0446 -1.0895 -0.0906
3.1015 -1.0086 -0.1085
3.1625 -1.0092 -0.1055
3.2215 -1.0646 -0.0887
3.2776 -1.1039 -0.0761
3.3300 -1.1539 -0.0610
3.3868 -1.1296 -0.0645
3.4427 -1.1173 -0.0650
3.5108 -1.0271 -0.0848
3.5787 -0.9597 -0.0988
3.6471 -0.9031 -0.1100
3.7009 -0.9191 -0.1035
3.7683 -0.8766 -0.1111
3.8375 -0.8327 -0.1191
3.8849 -0.8649 -0.1087
3.9028 -0.9800 -0.0786
3.8673 -1.4576 0.0411
4.3755 -0.6247 -0.1470
4.4568 -0.5752 -0.1558
4.6353 -0.6581 -0.1265
4.6298 -0.7564 -0.1018
4.6161 -0.8605 -0.0759
1.2884 -1.6263 -0.0939
1.2408 -1.5255 -0.1250
1.2876 -1.5024 -0.1291
1.3343 -1.4784 -0.1334
1.4265 -1.4976 -0.1231
1.4636 -1.4639 -0.1307
1.5324 -1.4617 -0.1277
1.5907 -1.4489 -0.1283
1.6583 -1.4469 -0.1253
1.7163 -1.4342 -0.1258
1.7743 -1.4215 -0.1263
1.8322 -1.4088 -0.1269
1.8981 -1.4072 -0.1239
1.9633 -1.4057 -0.1208
2.0410 -1.4252 -0.1112
2.0846 -1.3920 -0.1183
2.1350 -1.3681 -0.1224
2.1861 -1.3442 -0.1265
2.2380 -1.3200 -0.1306
2.3122 -1.3422 -0.1204
2.4213 -1.3055 -0.1251
2.4742 -1.2811 -0.1292
2.5434 -1.3034 -0.1192
2.5966 -1.2799 -0.1231
2.6438 -1.2312 -0.1344
2.7046 -1.2307 -0.1313
2.7571 -1.1936 -0.1391
2.8133 -1.1685 -0.1432
2.8811 -1.2176 -0.1257
2.9539 -1.3395 -0.0873
3.0510 -1.1676 -0.1309
3.1079 -1.1424 -0.1351
3.1655 -1.1426 -0.1320
3.2234 -1.1043 -0.1398
3.2814 -1.0916 -0.1403
3.3344 -1.1421 -0.1232
3.3806 -1.2245 -0.0974
3.4404 -1.1661 -0.1108
3.4990 -1.1306 -0.1178
3.5663 -1.0549 -0.1357
3.6320 -1.0021 -0.1472
3.6871 -1.0028 -0.1441
3.7416 -1.0037 -0.1410
3.7992 -0.9911 -0.1415
3.8568 -0.9785 -0.1420
3.8716 -1.0944 -0.1084
3.8306 -1.3495 -0.0382
3.8347 -1.4529 -0.0086
3.8412 -1.5372 0.0156
3.9061 -1.4747 0.0013
4.2024 -0.9028 -0.1452
4.2668 -0.8760 -0.1495
4.3247 -0.8633 -0.1500
4.3976 -0.8217 -0.1580
4.4485 -0.8234 -0.1548
4.4986 -0.8252 -0.1516
4.5481 -0.8272 -0.1485
4.6057 -0.8146 -0.1490
4.6725 -0.7871 -0.1532
1.3123 -1.6572 -0.1420
1.4750 -1.7379 -0.1070
1.5175 -1.7188 -0.1105
1.5332 -1.6743 -0.1235
1.5678 -1.6453 -0.1306
1.6211 -1.6336 -0.1311
1.6660 -1.6130 -0.1348
1.7970 -1.6166 -0.1259
1.8497 -1.6051 -0.1264
1.9024 -1.5935 -0.1269
1.9482 -1.5728 -0.1307
2.0079 -1.5704 -0.1279
2.0728 -1.5768 -0.1221
2.2502 -1.5790 -0.1108
2.3101 -1.5845 -0.1056
2.4581 -1.5433 -0.1097
2.5089 -1.5322 -0.1102
2.6073 -1.5008 -0.1142
2.6636 -1.5071 -0.1089
2.7094 -1.4785 -0.1151
2.8519 -1.3857 -0.1357
2.9046 -1.3742 -0.1362
2.9655 -1.4322 -0.1144
3.0179 -1.4393 -0.1091
3.0653 -1.3801 -0.1248
3.1168 -1.3688 -0.1253
3.1684 -1.3477 -0.1289
3.2206 -1.3256 -0.1327
3.2738 -1.2934 -0.1397
3.3224 -1.3336 -0.1242
3.3673 -1.3824 -0.1062
3.4157 -1.3806 -0.1039
3.4730 -1.3212 -0.1191
3.5397 -1.2244 -0.1455
3.5927 -1.2128 -0.1460
3.6484 -1.1899 -0.1499
3.6786 -1.2664 -0.1241
3.7266 -1.4172 -0.0740
3.7291 -1.5379 -0.0360
3.8181 -1.5115 -0.0390
3.8369 -1.5622 -0.0220
3.9014 -1.5002 -0.0376
4.0922 -1.1651 -0.1313
4.4415 -1.0270 -0.1539
4.4726 -1.0515 -0.1444
1.4997 -1.8219 -0.1319
1.5489 -1.8111 -0.1324
1.6139 -1.8144 -0.1270
1.6625 -1.8037 -0.1274
1.7186 -1.8002 -0.1249
1.7670 -1.7896 -0.1254
1.8362 -1.8007 -0.1170
1.8772 -1.7830 -0.1204
1.9187 -1.7651 -0.1238
1.9730 -1.7620 -0.1213
2.0209 -1.7515 -0.1217
2.0688 -1.7410 -0.1222
2.1113 -1.7230 -0.1256
2.1595 -1.7124 -0.1260
2.1823 -1.6628 -0.1416
2.2511 -1.6837 -0.1299
2.3302 -1.7265 -0.1099
2.3521 -1.6703 -0.1278
2.4082 -1.6755 -0.1223
2.4596 -1.6730 -0.1198
2.4862 -1.6147 -0.1381
2.5383 -1.6121 -0.1355
2.5959 -1.6257 -0.1271
2.6892 -1.5965 -0.1309
2.7418 -1.6025 -0.1254
2.7875 -1.5837 -0.1288
2.8354 -1.5732 -0.1293
2.8818 -1.5543 -0.1327
2.9361 -1.5852 -0.1185
2.9791 -1.5418 -0.1306
3.0278 -1.5399 -0.1281
3.0745 -1.5122 -0.1345
3.1224 -1.4930 -0.1380
3.1708 -1.4824 -0.1384
3.2187 -1.4893 -0.1328
3.2671 -1.4700 -0.1363
3.3153 -1.4595 -0.1367
3.3634 -1.4489 -0.1372
3.4128 -1.4294 -0.1407
3.4597 -1.4279 -0.1381
3.5096 -1.4082 -0.1416
3.5560 -1.4068 -0.1390
3.6064 -1.3870 -0.1425
3.6524 -1.3857 -0.1399
3.6897 -1.4125 -0.1282
3.7230 -1.4459 -0.1145
3.7523 -1.4852 -0.0991
3.7794 -1.5239 -0.0840
3.8081 -1.5526 -0.0722
3.8448 -1.5572 -0.0682
3.8837 -1.5555 -0.0662
3.9952 -1.3942 -0.1143
4.0811 -1.3006 -0.1408
4.1339 -1.2803 -0.1443
4.1666 -1.2994 -0.1356
4.2303 -1.2592 -0.1452
4.2784 -1.2487 -0.1457
4.3266 -1.2381 -0.1461
4.3747 -1.2276 -0.1466
4.3673 -1.3049 -0.1205
1.7417 -1.9363 -0.1249
1.8639 -1.8951 -0.1314
1.9090 -1.8852 -0.1318
2.0050 -1.8719 -0.1298
2.1442 -1.8482 -0.1286
2.1937 -1.8451 -0.1262
2.2555 -1.8605 -0.1159
2.3152 -1.8754 -0.1060
2.3471 -1.8481 -0.1139
2.3866 -1.8318 -0.1171
2.4775 -1.8196 -0.1151
2.5209 -1.8101 -0.1155
2.6651 -1.8190 -0.1017
2.7421 -1.7752 -0.1125
2.8298 -1.7627 -0.1108
2.8713 -1.7469 -0.1137
2.9132 -1.7310 -0.1166
2.9544 -1.7075 -0.1224
2.9990 -1.7055 -0.1199
3.0424 -1.6959 -0.1203
3.0867 -1.6998 -0.1157
3.1296 -1.6836 -0.1186
3.1728 -1.6529 -0.1270
3.2161 -1.6647 -0.1194
3.2590 -1.6621 -0.1173
3.3002 -1.6742 -0.1097
3.3436 -1.6570 -0.1130
3.3901 -1.6198 -0.1236
3.4361 -1.5953 -0.1294
3.4828 -1.5706 -0.1353
3.5271 -1.5609 -0.1357
3.5753 -1.5350 -0.1419
3.6220 -1.5180 -0.1449
3.6600 -1.5319 -0.1369
3.6970 -1.5450 -0.1293
3.7303 -1.5656 -0.1191
3.7732 -1.5563 -0.1195
3.8099 -1.5627 -0.1145
3.8524 -1.5534 -0.1149
3.8790 -1.5803 -0.1028
3.9047 -1.6056 -0.0915
3.9712 -1.6836 -0.0575
3.9676 -1.7509 -0.0325
1.7333 -2.0727 -0.1192
1.7623 -2.0539 -0.1245
1.8039 -2.0448 -0.1249
1.8507 -2.0403 -0.1230
1.8920 -2.0312 -0.1234
1.9334 -2.0222 -0.1237
1.9859 -2.0241 -0.1188
2.0215 -2.0096 -0.1218
2.0575 -1.9950 -0.1249
2.0989 -1.9860 -0.1253
2.1362 -1.9721 -0.1279
2.1685 -1.9516 -0.1337
2.2274 -1.9645 -0.1237
2.2523 -1.9332 -0.1345
2.2983 -1.9299 -0.1322
2.3438 -1.9266 -0.1299
2.3817 -1.9116 -0.1329
2.4587 -1.8814 -0.1391
2.5597 -1.8985 -0.1241
2.5954 -1.8773 -0.1299
2.6392 -1.8744 -0.1276
2.6761 -1.8539 -0.1330
2.7592 -1.8357 -0.1337
2.7990 -1.8203 -0.1368
2.8436 -1.8230 -0.1322
2.8825 -1.8020 -0.1376
2.9306 -1.8288 -0.1229
2.9713 -1.8199 -0.1233
3.0113 -1.8054 -0.1260
3.0526 -1.8021 -0.1240
3.0929 -1.7875 -0.1267
3.1341 -1.7910 -0.1221
3.1746 -1.7381 -0.1403
3.2156 -1.7550 -0.1302
3.2559 -1.7576 -0.1259
3.2975 -1.7370 -0.1310
3.3385 -1.7280 -0.1313
3.3778 -1.7309 -0.1270
3.4185 -1.7220 -0.1274
3.4628 -1.6941 -0.1352
3.5100 -1.6580 -0.1461
3.5554 -1.6346 -0.1520
3.5919 -1.6467 -0.1442
3.6297 -1.6509 -0.1395
3.6664 -1.6563 -0.1344
3.7099 -1.6400 -0.1375
3.7511 -1.6310 -0.1379
3.7952 -1.6147 -0.1410
3.8304 -1.6204 -0.1359
3.8625 -1.6316 -0.1288
3.8968 -1.7092 -0.0946
3.9668 -1.6384 -0.1178
3.9960 -1.6492 -0.1110
4.0109 -1.6843 -0.0956
4.0052 -1.7516 -0.0688
4.0128 -1.8399 -0.0323
4.0335 -1.8526 -0.0255
4.0516 -1.8678 -0.0179
1.8242 -2.1514 -0.1223
1.8573 -2.1384 -0.1251
1.8906 -2.1254 -0.1279
1.9296 -2.1169 -0.1283
1.9787 -2.1175 -0.1237
2.0695 -2.1138 -0.1175
2.0946 -2.0922 -0.1248
2.1458 -2.0971 -0.1182
2.1840 -2.0888 -0.1186
2.2105 -2.0668 -0.1259
2.2636 -2.0761 -0.1172
2.2947 -2.0588 -0.1221
2.3330 -2.0505 -0.1224
2.4129 -2.0387 -0.1207
2.5079 -2.0540 -0.1058
2.5474 -2.0501 -0.1040
2.5655 -2.0053 -0.1221
2.6012 -1.9917 -0.1249
2.6857 -1.9942 -0.1166
2.7182 -1.9719 -0.1235
2.8446 -1.9907 -0.1043
2.8756 -1.9583 -0.1158
2.9202 -1.9837 -0.1009
2.9489 -1.9318 -0.1211
2.9919 -1.9585 -0.1057
3.0252 -1.9199 -0.1197
3.0629 -1.9116 -0.1201
3.0994 -1.8827 -0.1296
3.1383 -1.8951 -0.1208
3.1761 -1.8764 -0.1257
3.2524 -1.8549 -0.1285
3.2892 -1.8621 -0.1222
3.3262 -1.8597 -0.1200
3.3631 -1.8564 -0.1183
3.4070 -1.8097 -0.1349
3.5610 -1.7760 -0.1363
3.5995 -1.7675 -0.1367
3.6416 -1.7479 -0.1417
3.7103 -1.7547 -0.1327
3.7418 -1.7630 -0.1264
3.7844 -1.7432 -0.1313
3.8224 -1.7349 -0.1317
3.8415 -1.7668 -0.1161
3.8785 -1.7588 -0.1164
3.9271 -1.7282 -0.1256
4.0192 -1.6814 -0.1381
4.0366 -1.7089 -0.1245
4.0740 -1.7008 -0.1249
4.1004 -1.7102 -0.1185
1.8769 -2.2352 -0.1209
1.8987 -2.2163 -0.1277
1.9445 -2.2157 -0.1237
1.9808 -2.2078 -0.1240
2.0170 -2.1999 -0.1244
2.0626 -2.2003 -0.1199
2.1027 -2.1962 -0.1181
2.1298 -2.1799 -0.1232
2.1621 -2.1681 -0.1257
2.1873 -2.1484 -0.1326
2.2424 -2.1609 -0.1216
2.2709 -2.1443 -0.1267
2.3176 -2.1492 -0.1201
2.3465 -2.1325 -0.1252
2.4251 -2.1256 -0.1211
2.5247 -2.0887 -0.1291
2.5661 -2.0901 -0.1246
2.7078 -2.0534 -0.1286
2.7845 -2.0507 -0.1226
2.8216 -2.0474 -0.1208
2.8550 -2.0316 -0.1251
2.8917 -2.0273 -0.1236
2.9266 -2.0159 -0.1257
2.9631 -2.0117 -0.1243
2.9976 -1.9956 -0.1286
3.0702 -1.9882 -0.1253
3.1065 -1.9897 -0.1212
3.1774 -1.9648 -0.1263
3.2132 -1.9531 -0.1284
3.2493 -1.9405 -0.1309
3.2845 -1.9413 -0.1273
3.3225 -1.9141 -0.1365
3.3572 -1.9169 -0.1319
3.3932 -1.9090 -0.1323
3.4291 -1.9012 -0.1326
3.4631 -1.9022 -0.1289
3.4988 -1.8944 -0.1293
3.5356 -1.8826 -0.1314
3.5714 -1.8747 -0.1317
3.6159 -1.8405 -0.1437
3.6525 -1.8325 -0.1440
3.6851 -1.8348 -0.1399
3.7214 -1.8268 -0.1402
3.7528 -1.8303 -0.1356
3.7864 -1.8277 -0.1337
3.8277 -1.8083 -0.1390
3.8638 -1.8004 -0.1393
3.9027 -1.7871 -0.1419
3.9326 -1.7910 -0.1373
3.9813 -1.7605 -0.1470
4.0083 -1.7687 -0.1407
4.0511 -1.7499 -0.1455
4.0633 -1.7803 -0.1301
3.9739 -2.0028 -0.0340
1.9631 -2.3059 -0.1171
1.9921 -2.2949 -0.1197
2.0644 -2.2837 -0.1181
2.0938 -2.2726 -0.1207
2.1243 -2.2622 -0.1229
2.1542 -2.2509 -0.1255
2.1852 -2.2404 -0.1277
2.2633 -2.2355 -0.1223
2.2908 -2.2210 -0.1268
2.3249 -2.2136 -0.1271
2.4020 -2.2098 -0.1212
2.4382 -2.2057 -0.1197
2.4718 -2.1983 -0.1200
2.5240 -2.2187 -0.1045
2.5547 -2.2083 -0.1066
2.5875 -2.2011 -0.1069
2.6166 -2.1872 -0.1110
2.6601 -2.2002 -0.1001
2.6892 -2.1863 -0.1041
2.7108 -2.1544 -0.1180
2.7456 -2.1505 -0.1164
2.7832 -2.1545 -0.1106
2.8455 -2.1287 -0.1173
2.8820 -2.1329 -0.1115
2.9192 -2.1435 -0.1025
2.9478 -2.1185 -0.1122
2.9781 -2.0959 -0.1204
3.0132 -2.1004 -0.1146
3.0471 -2.1005 -0.1112
3.0799 -2.0933 -0.1115
3.1121 -2.0741 -0.1179
3.1454 -2.0715 -0.1159
3.1784 -2.0680 -0.1143
3.2112 -2.0646 -0.1127
3.2445 -2.0498 -0.1168
3.2784 -2.0339 -0.1213
3.3121 -2.0228 -0.1235
3.3462 -2.0106 -0.1262
3.3783 -2.0121 -0.1223
3.4116 -2.0048 -0.1226
3.4410 -2.0143 -0.1149
3.4804 -1.9813 -0.1275
3.5151 -1.9699 -0.1297
3.5435 -1.9797 -0.1219
3.5810 -1.9593 -0.1284
3.6240 -1.9255 -0.1410
3.6497 -1.9405 -0.1309
3.6833 -1.9331 -0.1312
3.7188 -1.9216 -0.1334
3.7525 -1.9142 -0.1337
3.7863 -1.9068 -0.1341
3.8588 -1.8825 -0.1390
3.8957 -1.8698 -0.1417
3.9165 -1.8858 -0.1315
3.9468 -1.8839 -0.1294
3.9291 -2.0414 -0.0521
3.9603 -2.0318 -0.0538
1.9773 -2.3539 -0.1279
2.0186 -2.3532 -0.1238
2.0547 -2.3491 -0.1222
2.0905 -2.3449 -0.1205
2.1253 -2.3401 -0.1194
2.1511 -2.3280 -0.1231
2.1723 -2.3112 -0.1297
2.2080 -2.3071 -0.1281
2.2475 -2.3069 -0.1240
2.2766 -2.2968 -0.1262
2.3052 -2.2859 -0.1290
2.3468 -2.2888 -0.1229
2.3734 -2.2756 -0.1271
2.4082 -2.2717 -0.1255
2.4379 -2.2615 -0.1277
2.4767 -2.2632 -0.1226
2.5070 -2.2538 -0.1244
2.6031 -2.2328 -0.1253
2.6365 -2.2282 -0.1241
2.6636 -2.2121 -0.1298
2.6991 -2.2117 -0.1262
2.7338 -2.2106 -0.1230
2.7604 -2.1909 -0.1307
2.8014 -2.2070 -0.1177
2.8329 -2.2001 -0.1180
2.8537 -2.1584 -0.1381
2.8904 -2.1661 -0.1299
2.9266 -2.1759 -0.1208
2.9885 -2.1549 -0.1254
3.0209 -2.1515 -0.1237
3.0497 -2.1192 -0.1379
3.0832 -2.1239 -0.1317
3.1157 -2.1233 -0.1286
3.1477 -2.1163 -0.1288
3.1795 -2.1205 -0.1232
3.2114 -2.1061 -0.1274
3.2428 -2.1067 -0.1238
3.2755 -2.0884 -0.1300
3.3097 -2.0623 -0.1403
3.3376 -2.0859 -0.1246
3.3699 -2.0751 -0.1269
3.4009 -2.0721 -0.1252
3.4343 -2.0573 -0.1295
3.4699 -2.0356 -0.1373
3.4991 -2.0394 -0.1321
3.5311 -2.0324 -0.1324
3.5603 -2.0335 -0.1287
3.5950 -2.0184 -0.1330
3.6312 -2.0003 -0.1388
3.6601 -2.0014 -0.1351
3.6890 -2.0016 -0.1319
3.7261 -1.9832 -0.1377
3.7627 -1.9668 -0.1425
3.7845 -1.9807 -0.1328
3.8203 -1.9663 -0.1366
3.8506 -1.9625 -0.1354
3.8825 -1.9555 -0.1357
3.8966 -1.9785 -0.1219
3.8573 -2.0857 -0.0687
3.8814 -2.0860 -0.0660
3.9822 -1.9700 -0.1172
2.0799 -2.4041 -0.1245
2.1066 -2.3946 -0.1268
2.1373 -2.3879 -0.1271
2.1806 -2.3913 -0.1201
2.2205 -2.3927 -0.1147
2.2589 -2.3936 -0.1098
2.2977 -2.3952 -0.1044
2.3160 -2.3783 -0.1119
2.3405 -2.3665 -0.1158
2.3624 -2.3515 -0.1218
2.3878 -2.3395 -0.1257
2.4332 -2.3499 -0.1146
2.4605 -2.3402 -0.1170
2.4949 -2.3391 -0.1136
2.5330 -2.3437 -0.1066
2.5528 -2.3237 -0.1157
2.5919 -2.3308 -0.1072
2.6177 -2.3187 -0.1111
2.6351 -2.2918 -0.1244
2.6769 -2.3058 -0.1116
2.7096 -2.3051 -0.1082
2.7362 -2.2928 -0.1122
2.7643 -2.2830 -0.1145
2.7929 -2.2739 -0.1164
2.8282 -2.2819 -0.1078
2.8869 -2.2690 -0.1083
2.9138 -2.2539 -0.1138
2.9426 -2.2439 -0.1162
2.9718 -2.2348 -0.1180
3.0038 -2.2407 -0.1110
3.0301 -2.2128 -0.1238
3.0619 -2.2215 -0.1152
3.0905 -2.2023 -0.1228
3.1215 -2.2149 -0.1121
3.1509 -2.2085 -0.1123
3.1804 -2.1891 -0.1200
3.2101 -2.1854 -0.1187
3.2398 -2.1789 -0.1189
3.2701 -2.1667 -0.1224
3.3013 -2.1497 -0.1284
3.3290 -2.1593 -0.1198
3.3593 -2.1500 -0.1216
3.3863 -2.1570 -0.1145
3.4173 -2.1437 -0.1185
3.4568 -2.0990 -0.1393
3.4836 -2.1061 -0.1322
3.5415 -2.1008 -0.1286
3.5654 -2.1113 -0.1199
3.6363 -2.0699 -0.1352
3.6636 -2.0704 -0.1318
3.6886 -2.0751 -0.1263
3.7134 -2.0789 -0.1212
3.7542 -2.0506 -0.1326
3.8274 -2.0142 -0.1449
3.8447 -2.0308 -0.1335
3.8238 -2.1480 -0.0692
3.8659 -2.1185 -0.0812
3.9576 -2.0162 -0.1288
3.9927 -2.0021 -0.1328
2.1381 -2.4521 -0.1234
2.1737 -2.4507 -0.1198
2.1960 -2.4394 -0.1239
2.2223 -2.4309 -0.1258
2.2601 -2.4318 -0.1206
2.2830 -2.4204 -0.1247
2.3071 -2.4096 -0.1282
2.3433 -2.4099 -0.1236
2.3775 -2.4089 -0.1201
2.4040 -2.4003 -0.1220
2.4350 -2.3963 -0.1206
2.4657 -2.3923 -0.1192
2.4878 -2.3783 -0.1249
2.5192 -2.3751 -0.1230
2.5456 -2.3657 -0.1255
2.5785 -2.3649 -0.1219
2.6472 -2.3700 -0.1104
2.6661 -2.3485 -0.1211
2.6947 -2.3422 -0.1213
2.7177 -2.3252 -0.1287
2.7532 -2.3321 -0.1202
2.8103 -2.3196 -0.1208
2.8388 -2.3134 -0.1210
2.8975 -2.3061 -0.1183
2.9244 -2.2947 -0.1218
2.9536 -2.2910 -0.1204
3.0121 -2.2874 -0.1155
3.0674 -2.2661 -0.1215
3.0957 -2.2572 -0.1234
3.1526 -2.2365 -0.1289
3.1814 -2.2302 -0.1292
3.2102 -2.2239 -0.1294
3.2392 -2.2138 -0.1319
3.2684 -2.2047 -0.1339
3.2965 -2.2050 -0.1302
3.3253 -2.1987 -0.1305
3.3541 -2.1924 -0.1308
3.3817 -2.1918 -0.1277
3.4170 -2.1575 -0.1441
3.4415 -2.1696 -0.1338
3.4676 -2.1730 -0.1285
3.4962 -2.1668 -0.1288
3.5292 -2.1476 -0.1363
3.5582 -2.1413 -0.1365
3.5833 -2.1449 -0.1313
3.6132 -2.1356 -0.1332
3.6420 -2.1293 -0.1335
3.6756 -2.1128 -0.1393
3.7016 -2.1126 -0.1362
3.7321 -2.1032 -0.1382
3.7572 -2.1041 -0.1345
3.7883 -2.0937 -0.1370
3.8191 -2.0842 -0.1390
3.8160 -2.1307 -0.1113
3.8230 -2.1576 -0.0943
3.8636 -2.1303 -0.1057
2.2187 -2.4898 -0.1222
2.2490 -2.4859 -0.1207
2.2711 -2.4756 -0.1244
2.3490 -2.4531 -0.1286
2.3792 -2.4492 -0.1272
2.4160 -2.4521 -0.1206
2.4434 -2.4461 -0.1208
2.4742 -2.4439 -0.1182
2.5170 -2.4555 -0.1053
2.5397 -2.4450 -0.1090
2.5615 -2.4330 -0.1138
2.5802 -2.4162 -0.1221
2.6155 -2.4212 -0.1143
2.6376 -2.4082 -0.1197
2.6694 -2.4094 -0.1148
2.6979 -2.4059 -0.1133
2.7257 -2.4016 -0.1124
2.7465 -2.3843 -0.1207
2.7773 -2.3858 -0.1158
2.8073 -2.3865 -0.1114
2.8313 -2.3740 -0.1163
2.8563 -2.3630 -0.1200
2.8861 -2.3647 -0.1151
2.9159 -2.3682 -0.1090
2.9385 -2.3478 -0.1190
2.9649 -2.3392 -0.1210
2.9941 -2.3429 -0.1149
3.0206 -2.3352 -0.1163
3.0495 -2.3435 -0.1073
3.0746 -2.3252 -0.1157
3.1002 -2.3042 -0.1258
3.1282 -2.3117 -0.1173
3.1550 -2.3004 -0.1210
3.1820 -2.2945 -0.1213
3.2090 -2.2913 -0.1198
3.2363 -2.2798 -0.1235
3.2632 -2.2767 -0.1220
3.2889 -2.2811 -0.1159
3.3157 -2.2752 -0.1162
3.3433 -2.2646 -0.1193
3.3708 -2.2559 -0.1213
3.4017 -2.2336 -0.1314
3.4256 -2.2412 -0.1236
3.4509 -2.2411 -0.1203
3.4753 -2.2430 -0.1159
3.5125 -2.2067 -0.1342
3.5371 -2.2085 -0.1298
3.5664 -2.1976 -0.1330
3.6226 -2.1826 -0.1352
3.6736 -2.1787 -0.1311
3.7068 -2.1614 -0.1378
3.7327 -2.1585 -0.1363
3.7638 -2.1462 -0.1400
3.7829 -2.1548 -0.1321
3.8005 -2.1645 -0.1236
3.8221 -2.1671 -0.1191
3.8606 -2.1432 -0.1293
3.8834 -2.1437 -0.1261
3.9171 -2.1281 -0.1316
2.2675 -2.5311 -0.1197
2.2890 -2.5219 -0.1229
2.3171 -2.5175 -0.1220
2.3390 -2.5082 -0.1252
2.3654 -2.5025 -0.1254
2.3893 -2.4945 -0.1275
2.4283 -2.5004 -0.1181
2.4543 -2.4947 -0.1184
2.4730 -2.4816 -0.1246
2.5007 -2.4773 -0.1237
2.5256 -2.4701 -0.1251
2.5480 -2.4598 -0.1290
2.5875 -2.4701 -0.1166
2.6134 -2.4644 -0.1168
2.6291 -2.4447 -0.1279
2.6598 -2.4452 -0.1233
2.6844 -2.4372 -0.1254
2.7359 -2.4241 -0.1271
2.7631 -2.4199 -0.1261
2.8699 -2.4020 -0.1235
2.8966 -2.3979 -0.1225
2.9234 -2.3948 -0.1209
2.9482 -2.3848 -0.1242
2.9746 -2.3808 -0.1232
3.0016 -2.3795 -0.1204
3.0524 -2.3620 -0.1251
3.0790 -2.3607 -0.1224
3.1046 -2.3506 -0.1256
3.1310 -2.3511 -0.1216
3.1566 -2.3338 -0.1298
3.1828 -2.3353 -0.1251
3.2091 -2.3223 -0.1302
3.2346 -2.3267 -0.1238
3.2598 -2.3284 -0.1192
3.2862 -2.3172 -0.1231
3.3155 -2.2900 -0.1373
3.3392 -2.2992 -0.1278
3.3639 -2.3002 -0.1238
3.4195 -2.2744 -0.1334
3.4452 -2.2706 -0.1324
3.4714 -2.2649 -0.1327
3.4977 -2.2591 -0.1329
3.5269 -2.2455 -0.1380
3.5509 -2.2457 -0.1346
3.5772 -2.2399 -0.1349
3.6026 -2.2362 -0.1339
3.6327 -2.2224 -0.1390
3.6536 -2.2277 -0.1325
3.6771 -2.2271 -0.1297
3.7087 -2.2111 -0.1361
3.7303 -2.2136 -0.1314
3.7613 -2.1996 -0.1366
3.7895 -2.1908 -0.1387
3.8085 -2.1965 -0.1322
3.8367 -2.1877 -0.1342
3.8650 -2.1787 -0.1363
3.8987 -2.1623 -0.1427
2.2645 -2.5812 -0.1152
2.2844 -2.5724 -0.1186
2.3161 -2.5718 -0.1144
2.3344 -2.5615 -0.1190
2.3594 -2.5560 -0.1193
2.4424 -2.5468 -0.1137
2.4577 -2.5327 -0.1214
2.4804 -2.5250 -0.1236
2.5107 -2.5247 -0.1194
2.5356 -2.5192 -0.1196
2.5686 -2.5228 -0.1123
2.5906 -2.5144 -0.1151
2.6134 -2.5067 -0.1172
2.6423 -2.5066 -0.1130
2.6698 -2.5051 -0.1101
2.6894 -2.4927 -0.1160
2.7115 -2.4834 -0.1194
2.7349 -2.4756 -0.1215
2.7667 -2.4821 -0.1123
2.7929 -2.4799 -0.1100
2.8165 -2.4730 -0.1115
2.8364 -2.4579 -0.1193
2.8623 -2.4549 -0.1176
2.8882 -2.4528 -0.1153
2.9122 -2.4457 -0.1168
2.9374 -2.4420 -0.1157
2.9610 -2.4333 -0.1185
2.9880 -2.4372 -0.1118
3.0112 -2.4259 -0.1164
3.0373 -2.4291 -0.1103
3.0595 -2.4090 -0.1213
3.0854 -2.4141 -0.1140
3.1092 -2.4008 -0.1199
3.1339 -2.3954 -0.1201
3.1584 -2.3793 -0.1280
3.1832 -2.3927 -0.1149
3.2075 -2.3919 -0.1119
3.2329 -2.3711 -0.1229
3.2572 -2.3702 -0.1200
3.2821 -2.3630 -0.1215
3.3083 -2.3483 -0.1281
3.3333 -2.3428 -0.1283
3.3562 -2.3468 -0.1222
3.3827 -2.3338 -0.1275
3.4069 -2.3312 -0.1258
3.4352 -2.3143 -0.1337
3.4613 -2.3059 -0.1358
3.4807 -2.3168 -0.1252
3.5062 -2.3095 -0.1267
3.5370 -2.2893 -0.1365
3.5610 -2.2867 -0.1349
3.5798 -2.2951 -0.1262
3.6089 -2.2807 -0.1321
3.6339 -2.2752 -0.1324
3.6579 -2.2718 -0.1313
3.6761 -2.2785 -0.1239
3.7049 -2.2660 -0.1286
3.7254 -2.2678 -0.1243
3.7513 -2.2603 -0.1258
3.7760 -2.2549 -0.1261
3.8028 -2.2463 -0.1282
3.8312 -2.2356 -0.1317
3.8539 -2.2334 -0.1300
2.2572 -2.6032 -0.1293
2.2977 -2.6086 -0.1190
2.3177 -2.6006 -0.1219
2.3351 -2.5906 -0.1267
2.3576 -2.5839 -0.1282
2.3837 -2.5800 -0.1271
2.4114 -2.5775 -0.1247
2.4339 -2.5708 -0.1263
2.4597 -2.5669 -0.1252
2.4877 -2.5652 -0.1221
2.5292 -2.5481 -0.1285
2.5925 -2.5538 -0.1145
2.6104 -2.5419 -0.1206
2.6343 -2.5367 -0.1208
2.6529 -2.5246 -0.1270
2.6810 -2.5247 -0.1226
2.7038 -2.5179 -0.1241
2.7324 -2.5197 -0.1184
2.7868 -2.5211 -0.1090
2.8093 -2.5144 -0.1106
2.8283 -2.5005 -0.1180
2.9473 -2.4762 -0.1178
2.9969 -2.4751 -0.1110
3.0190 -2.4640 -0.1158
3.0426 -2.4589 -0.1160
3.0654 -2.4486 -0.1202
3.0884 -2.4373 -0.1251
3.1125 -2.4347 -0.1233
3.1367 -2.4383 -0.1169
3.1839 -2.4244 -0.1200
3.2319 -2.4041 -0.1277
3.2552 -2.4052 -0.1233
3.2785 -2.4037 -0.1209
3.3041 -2.3865 -0.1297
3.3290 -2.3766 -0.1332
3.3499 -2.3863 -0.1229
3.3773 -2.3661 -0.1337
3.4014 -2.3608 -0.1339
3.4236 -2.3621 -0.1295
3.4504 -2.3483 -0.1357
3.4753 -2.3411 -0.1373
3.4980 -2.3396 -0.1348
3.5186 -2.3431 -0.1291
3.5412 -2.3408 -0.1273
3.5641 -2.3376 -0.1262
3.5913 -2.3254 -0.1311
3.6413 -2.3109 -0.1342
3.6643 -2.3077 -0.1331
3.6871 -2.3045 -0.1319
3.7110 -2.2992 -0.1322
3.7363 -2.2919 -0.1337
3.7637 -2.2815 -0.1373
3.7857 -2.2793 -0.1355
3.8134 -2.2688 -0.1391
2.3180 -2.6471 -0.1141
2.3408 -2.6421 -0.1143
2.3675 -2.6398 -0.1118
2.3807 -2.6281 -0.1188
2.4092 -2.6272 -0.1150
2.4338 -2.6235 -0.1138
2.4565 -2.6186 -0.1140
2.4793 -2.6136 -0.1142
2.5004 -2.6072 -0.1158
2.5138 -2.5937 -0.1242
2.5415 -2.5929 -0.1203
2.5601 -2.5835 -0.1246
2.5874 -2.5829 -0.1207
2.6104 -2.5778 -0.1210
2.6333 -2.5728 -0.1212
2.6650 -2.5782 -0.1118
2.6816 -2.5658 -0.1189
2.7079 -2.5653 -0.1150
2.7316 -2.5619 -0.1138
2.7553 -2.5585 -0.1127
2.7759 -2.5504 -0.1156
2.8004 -2.5486 -0.1131
2.8273 -2.5515 -0.1064
2.8472 -2.5419 -0.1108
2.8682 -2.5338 -0.1137
2.8887 -2.5240 -0.1180
2.9152 -2.5288 -0.1100
2.9359 -2.5189 -0.1143
2.9570 -2.5090 -0.1187
2.9802 -2.5057 -0.1175
3.0049 -2.5091 -0.1108
3.0248 -2.4924 -0.1207
3.0488 -2.4942 -0.1154
3.0727 -2.4978 -0.1087
3.0931 -2.4757 -0.1227
3.1160 -2.4725 -0.1215
3.1393 -2.4779 -0.1135
3.1618 -2.4730 -0.1137
3.1844 -2.4593 -0.1208
3.2073 -2.4507 -0.1237
3.2301 -2.4475 -0.1226
3.2527 -2.4443 -0.1214
3.2762 -2.4339 -0.1258
3.2982 -2.4344 -0.1218
3.3230 -2.4183 -0.1303
3.3453 -2.4170 -0.1278
3.3683 -2.4119 -0.1280
3.3881 -2.4182 -0.1199
3.4130 -2.4057 -0.1257
3.4346 -2.4045 -0.1231
3.4824 -2.3887 -0.1277
3.5069 -2.3798 -0.1307
3.5307 -2.3729 -0.1323
3.5520 -2.3717 -0.1297
3.5721 -2.3726 -0.1258
3.5989 -2.3597 -0.1315
3.6230 -2.3527 -0.1331
3.6484 -2.3436 -0.1361
3.6692 -2.3426 -0.1335
3.6947 -2.3334 -0.1365
3.7089 -2.3427 -0.1270
3.7357 -2.3315 -0.1314
3.7559 -2.3306 -0.1288
3.7817 -2.3215 -0.1318
3.8061 -2.3143 -0.1334
2.3436 -2.6682 -0.1198
2.3840 -2.6558 -0.1231
2.4167 -2.6583 -0.1155
2.4341 -2.6501 -0.1192
2.4508 -2.6412 -0.1237
2.4661 -2.6308 -0.1296
2.4869 -2.6245 -0.1312
2.5176 -2.6266 -0.1243
2.5367 -2.6189 -0.1274
2.5590 -2.6140 -0.1276
2.5916 -2.6192 -0.1178
2.6066 -2.6071 -0.1251
2.6362 -2.6103 -0.1175
2.6498 -2.5959 -0.1270
2.6770 -2.5969 -0.1215
2.7201 -2.5858 -0.1233
2.7411 -2.5794 -0.1250
2.7654 -2.5776 -0.1223
2.7855 -2.5697 -0.1254
2.8581 -2.5670 -0.1153
2.9212 -2.5470 -0.1209
2.9874 -2.5334 -0.1208
3.0079 -2.5228 -0.1260
3.0313 -2.5238 -0.1212
3.0541 -2.5240 -0.1171
3.0762 -2.5210 -0.1159
3.0971 -2.5085 -0.1225
3.1190 -2.5037 -0.1227
3.1413 -2.5050 -0.1179
3.1851 -2.4805 -0.1305
3.2070 -2.4827 -0.1250
3.2289 -2.4797 -0.1238
3.2515 -2.4695 -0.1283
3.2741 -2.4610 -0.1313
3.2958 -2.4598 -0.1287
3.3186 -2.4513 -0.1318
3.3400 -2.4501 -0.1291
3.3622 -2.4452 -0.1293
3.3838 -2.4422 -0.1281
3.4071 -2.4337 -0.1311
3.4515 -2.4239 -0.1316
3.4681 -2.4334 -0.1210
3.5142 -2.4181 -0.1257
3.5384 -2.4084 -0.1295
3.5595 -2.4055 -0.1283
3.5846 -2.3948 -0.1328
3.6090 -2.3860 -0.1359
3.6279 -2.3871 -0.1318
3.6524 -2.3782 -0.1349
3.6697 -2.3814 -0.1293
3.6930 -2.3746 -0.1309
3.7151 -2.3697 -0.1311
3.7400 -2.3608 -0.1342
3.7637 -2.3539 -0.1359
3.7844 -2.3511 -0.1346
2.3646 -2.7038 -0.1123
2.3857 -2.6992 -0.1125
2.3977 -2.6887 -0.1193
2.4336 -2.6939 -0.1085
2.4488 -2.6854 -0.1131
2.4699 -2.6808 -0.1133
2.4954 -2.6795 -0.1098
2.5102 -2.6702 -0.1151
2.5413 -2.6738 -0.1065
2.5524 -2.6610 -0.1155
2.5720 -2.6549 -0.1172
2.5946 -2.6517 -0.1159
2.6121 -2.6436 -0.1198
2.6382 -2.6439 -0.1148
2.6566 -2.6364 -0.1180
2.6790 -2.6333 -0.1167
2.6977 -2.6257 -0.1199
2.7200 -2.6225 -0.1186
2.7423 -2.6194 -0.1173
2.7650 -2.6170 -0.1153
2.7870 -2.6140 -0.1140
2.8070 -2.6078 -0.1157
2.8276 -2.6025 -0.1166
2.8508 -2.6017 -0.1131
2.8729 -2.5995 -0.1111
2.8918 -2.5910 -0.1150
2.9135 -2.5880 -0.1137
2.9347 -2.5842 -0.1131
2.9541 -2.5756 -0.1170
2.9752 -2.5710 -0.1172
2.9973 -2.5705 -0.1137
3.0170 -2.5610 -0.1184
3.0391 -2.5614 -0.1141
3.0592 -2.5526 -0.1180
3.0802 -2.5480 -0.1182
3.1013 -2.5434 -0.1184
3.1224 -2.5406 -0.1171
3.1434 -2.5360 -0.1173
3.1643 -2.5288 -0.1197
3.1855 -2.5181 -0.1251
3.2059 -2.5284 -0.1127
3.2282 -2.5052 -0.1285
3.2494 -2.5023 -0.1272
3.2691 -2.5084 -0.1185
3.2901 -2.5039 -0.1187
3.3127 -2.4911 -0.1256
3.3335 -2.4883 -0.1243
3.3546 -2.4836 -0.1245
3.3726 -2.4901 -0.1157
3.3984 -2.4697 -0.1286
3.4190 -2.4669 -0.1273
3.4434 -2.4538 -0.1342
3.4615 -2.4576 -0.1277
3.4799 -2.4597 -0.1227
3.5036 -2.4493 -0.1273
3.5220 -2.4505 -0.1231
3.5460 -2.4400 -0.1277
3.5651 -2.4393 -0.1249
3.5852 -2.4367 -0.1236
3.6073 -2.4301 -0.1253
3.6314 -2.4205 -0.1293
3.6520 -2.4168 -0.1287
3.6752 -2.4091 -0.1312
3.6944 -2.4075 -0.1291
3.7128 -2.4070 -0.1263
3.7376 -2.3972 -0.1303
3.7565 -2.3957 -0.1282
2.4686 -2.7035 -0.1188
2.5301 -2.6900 -0.1193
2.5506 -2.6856 -0.1195
2.5719 -2.6818 -0.1190
2.6621 -2.6724 -0.1105
2.6947 -2.6549 -0.1201
2.7145 -2.6497 -0.1211
2.7309 -2.6400 -0.1266
2.7765 -2.6370 -0.1209
2.8618 -2.6252 -0.1155
2.8808 -2.6184 -0.1180
2.8993 -2.6101 -0.1220
2.9215 -2.6095 -0.1184
2.9644 -2.6070 -0.1126
2.9822 -2.5954 -0.1197
3.0040 -2.5958 -0.1153
3.0648 -2.5842 -0.1143
3.0850 -2.5798 -0.1145
3.1250 -2.5676 -0.1179
3.1451 -2.5597 -0.1212
3.1654 -2.5553 -0.1214
3.2063 -2.5429 -0.1249
3.2267 -2.5402 -0.1235
3.2471 -2.5357 -0.1237
3.3088 -2.5196 -0.1266
3.3498 -2.5106 -0.1270
3.3722 -2.4997 -0.1326
3.4318 -2.4927 -0.1277
3.4531 -2.4863 -0.1295
3.4748 -2.4789 -0.1320
3.4976 -2.4696 -0.1360
3.5147 -2.4728 -0.1300
3.5362 -2.4664 -0.1318
3.5548 -2.4658 -0.1289
3.5774 -2.4573 -0.1322
3.5997 -2.4499 -0.1347
3.6133 -2.4573 -0.1256
3.6349 -2.4508 -0.1273
3.6598 -2.4393 -0.1329
3.6832 -2.4308 -0.1362
3.7018 -2.4293 -0.1341
3.7187 -2.4299 -0.1304
3.7423 -2.4213 -0.1337
2.7999 -4.1074 -0.1165
2.8214 -4.1003 -0.1144
2.8418 -4.0951 -0.1138
2.8626 -4.0889 -0.1124
2.8824 -4.0846 -0.1126
2.9014 -4.0822 -0.1143
2.9236 -4.0724 -0.1099
2.9617 -4.0676 -0.1133
2.9808 -4.0651 -0.1150
3.0195 -4.0602 -0.1184
3.0395 -4.0559 -0.1186
3.0601 -4.0489 -0.1165
3.0801 -4.0437 -0.1159
3.1004 -4.0369 -0.1137
3.1400 -4.0283 -0.1141
3.1598 -4.0241 -0.1143
3.1794 -4.0224 -0.1167
3.1993 -4.0181 -0.1169
3.2191 -4.0088 -0.1125
3.2389 -4.0071 -0.1150
3.2585 -4.0011 -0.1136
3.2788 -4.0018 -0.1184
3.2986 -3.9967 -0.1178
3.3383 -3.9882 -0.1181
3.3569 -3.9791 -0.1137
3.3773 -3.9772 -0.1162
3.3971 -3.9730 -0.1163
3.4357 -3.9622 -0.1144
3.4565 -3.9602 -0.1169
3.4755 -3.9544 -0.1155
3.4952 -3.9502 -0.1156
3.5171 -3.9497 -0.1197
3.5333 -3.9395 -0.1137
3.5530 -3.9352 -0.1138
3.5726 -3.9310 -0.1140
3.5917 -3.9261 -0.1134
3.6102 -3.9204 -0.1120
3.6362 -3.9240 -0.1207
3.6585 -3.9226 -0.1240
3.6747 -3.9141 -0.1195
3.6938 -3.9091 -0.1189
3.7115 -3.9028 -0.1168
3.7509 -3.8943 -0.1171
3.7714 -3.8907 -0.1181
3.7911 -3.8865 -0.1182
3.8083 -3.8803 -0.1161
3.8279 -3.8760 -0.1162
3.8476 -3.8718 -0.1164
3.8691 -3.8688 -0.1182
3.8888 -3.8646 -0.1183
3.9085 -3.8604 -0.1185
3.9262 -3.8549 -0.1171
3.9458 -3.8506 -0.1173
3.9686 -3.8483 -0.1198
3.9905 -3.8452 -0.1215
4.0114 -3.8416 -0.1225
2.6961 -4.1676 -0.1243
2.7190 -4.1602 -0.1223
2.7394 -4.1567 -0.1232
2.7591 -4.1541 -0.1249
2.7813 -4.1476 -0.1236
2.8027 -4.1422 -0.1230
2.8222 -4.1405 -0.1254
2.8465 -4.1294 -0.1204
2.8686 -4.1221 -0.1184
2.8889 -4.1185 -0.1193
2.9062 -4.1224 -0.1261
2.9290 -4.1133 -0.1226
2.9489 -4.1115 -0.1250
2.9692 -4.1089 -0.1267
2.9908 -4.1025 -0.1254
3.0117 -4.0980 -0.1256
3.0333 -4.0908 -0.1235
3.0560 -4.0783 -0.1170
3.0970 -4.0712 -0.1189
3.1179 -4.0650 -0.1176
3.1385 -4.0606 -0.1177
3.2004 -4.0464 -0.1175
3.2211 -4.0470 -0.1222
3.2831 -4.0311 -0.1205
3.3050 -4.0349 -0.1281
3.3249 -4.0247 -0.1231
3.3455 -4.0194 -0.1225
3.3658 -4.0133 -0.1212
3.3872 -4.0112 -0.1236
3.4084 -4.0084 -0.1253
3.4501 -3.9994 -0.1257
3.4692 -3.9911 -0.1221
3.4887 -3.9843 -0.1201
3.5085 -3.9783 -0.1187
3.5265 -3.9694 -0.1144
3.5496 -3.9695 -0.1191
3.5687 -3.9629 -0.1170
3.5892 -3.9584 -0.1172
3.6096 -3.9540 -0.1174
3.6747 -3.9451 -0.1224
3.6985 -3.9442 -0.1264
3.7793 -3.9243 -0.1248
3.8000 -3.9198 -0.1250
3.8183 -3.9133 -0.1229
3.8330 -3.9042 -0.1178
3.8491 -3.8966 -0.1143
3.8738 -3.8955 -0.1182
3.8961 -3.8924 -0.1199
3.9137 -3.8860 -0.1178
3.9984 -3.8703 -0.1208
2.9669 -4.1256 -0.1146
2.9888 -4.1192 -0.1134
3.0096 -4.1164 -0.1150
3.0314 -4.1100 -0.1138
3.0532 -4.1028 -0.1118
3.0741 -4.1000 -0.1134
3.0949 -4.0981 -0.1158
3.1162 -4.0935 -0.1159
3.1377 -4.0871 -0.1147
3.2229 -4.0688 -0.1154
3.2652 -4.0571 -0.1136
3.2873 -4.0600 -0.1203
3.3288 -4.0434 -0.1142
3.3483 -4.0315 -0.1079
3.3716 -4.0359 -0.1160
3.4342 -4.0190 -0.1137
3.4566 -4.0176 -0.1168
3.4764 -4.0099 -0.1141
3.4965 -4.0031 -0.1121
3.5187 -4.0008 -0.1144
3.5420 -4.0001 -0.1182
3.5628 -3.9947 -0.1177
3.5855 -3.9924 -0.1200
3.6023 -3.9811 -0.1137
3.6255 -3.9795 -0.1168
3.6467 -3.9750 -0.1170
3.6679 -3.9704 -0.1172
3.6879 -3.9644 -0.1159
3.7116 -3.9627 -0.1190
3.7301 -3.9553 -0.1163
3.7527 -3.9522 -0.1179
3.7710 -3.9448 -0.1152
3.7920 -3.9403 -0.1154
3.8147 -3.9371 -0.1170
3.8334 -3.9305 -0.1150
3.8545 -3.9260 -0.1152
3.8781 -3.9234 -0.1176
3.8975 -3.9176 -0.1163
3.9204 -3.9143 -0.1179
3.9415 -3.9098 -0.1181
3.9646 -3.9065 -0.1198
3.9838 -3.9007 -0.1185
4.0070 -3.8974 -0.1201
4.0261 -3.8916 -0.1189
4.0472 -3.8870 -0.1191
2.6561 -4.2443 -0.1276
2.6801 -4.2374 -0.1264
2.7089 -4.2226 -0.1198
2.7302 -4.2197 -0.1213
2.7494 -4.2208 -0.1257
2.7731 -4.2139 -0.1245
2.7967 -4.2071 -0.1233
2.8202 -4.2004 -0.1221
2.8436 -4.1936 -0.1209
2.8652 -4.1907 -0.1225
2.8862 -4.1896 -0.1255
2.9102 -4.1810 -0.1229
2.9327 -4.1761 -0.1231
2.9558 -4.1694 -0.1219
2.9783 -4.1646 -0.1221
3.0002 -4.1616 -0.1237
3.0209 -4.1640 -0.1294
3.0444 -4.1555 -0.1269
3.0677 -4.1471 -0.1243
3.0914 -4.1351 -0.1190
3.1142 -4.1258 -0.1157
3.2250 -4.1020 -0.1167
3.2471 -4.0972 -0.1169
3.2700 -4.1001 -0.1233
3.2928 -4.0986 -0.1263
3.3811 -4.0727 -0.1215
3.4256 -4.0631 -0.1219
3.4485 -4.0599 -0.1235
3.4696 -4.0519 -0.1209
3.4915 -4.0463 -0.1204
3.5140 -4.0423 -0.1213
3.5379 -4.0407 -0.1243
3.5572 -4.0305 -0.1196
3.5844 -4.0341 -0.1274
3.6030 -4.0232 -0.1221
3.6458 -4.0114 -0.1204
3.6668 -4.0051 -0.1192
3.6919 -4.0041 -0.1228
3.7153 -4.0007 -0.1244
3.7415 -4.0003 -0.1288
3.7640 -3.9954 -0.1290
3.7822 -3.9863 -0.1250
3.8045 -3.9815 -0.1252
3.9099 -3.9528 -0.1213
3.9540 -3.9433 -0.1217
3.9809 -3.9418 -0.1254
4.0021 -3.9364 -0.1249
4.0223 -3.9303 -0.1236
4.0445 -3.9255 -0.1238
4.0687 -3.9220 -0.1254
4.0909 -3.9173 -0.1256
2.9260 -4.2058 -0.1175
2.9519 -4.1924 -0.1118
2.9754 -4.1856 -0.1107
3.0432 -4.1744 -0.1139
3.0898 -4.1609 -0.1117
3.2729 -4.1215 -0.1133
3.3415 -4.1067 -0.1139
3.3633 -4.0968 -0.1101
3.3864 -4.0936 -0.1116
3.4553 -4.0805 -0.1135
3.4769 -4.0724 -0.1110
3.5003 -4.0691 -0.1126
3.5223 -4.0626 -0.1114
3.5467 -4.0608 -0.1143
3.5695 -4.0559 -0.1145
3.5896 -4.0464 -0.1107
3.6142 -4.0445 -0.1136
3.6400 -4.0442 -0.1178
3.6630 -4.0392 -0.1180
3.6836 -4.0313 -0.1155
3.7089 -4.0294 -0.1184
3.7293 -4.0215 -0.1159
3.7534 -4.0180 -0.1175
3.7750 -4.0117 -0.1163
3.7950 -4.0039 -0.1138
3.8177 -3.9990 -0.1140
3.8389 -3.9927 -0.1129
3.8679 -3.9934 -0.1185
3.8875 -3.9857 -0.1160
3.9103 -3.9808 -0.1162
3.9313 -3.9745 -0.1150
3.9558 -3.9710 -0.1166
3.9767 -3.9647 -0.1154
3.9995 -3.9598 -0.1156
4.0261 -3.9576 -0.1185
4.0509 -3.9540 -0.1201
4.0738 -3.9490 -0.1203
4.0946 -3.9428 -0.1191
4.1174 -3.9379 -0.1193
2.6423 -4.3156 -0.1229
2.6692 -4.3063 -0.1206
2.7869 -4.2888 -0.1274
2.8107 -4.2855 -0.1288
2.8370 -4.2763 -0.1265
2.8627 -4.2681 -0.1248
2.8872 -4.2628 -0.1250
2.9107 -4.2604 -0.1272
2.9353 -4.2551 -0.1274
2.9607 -4.2470 -0.1257
2.9857 -4.2399 -0.1246
3.0101 -4.2346 -0.1248
3.0593 -4.2223 -0.1240
3.0841 -4.2143 -0.1223
3.1811 -4.1996 -0.1276
3.2056 -4.1925 -0.1266
3.2301 -4.1873 -0.1268
3.2542 -4.1777 -0.1238
3.3028 -4.1672 -0.1242
3.3275 -4.1645 -0.1263
3.3508 -4.1534 -0.1221
3.3740 -4.1440 -0.1191
3.3972 -4.1355 -0.1167
3.4212 -4.1303 -0.1169
3.4476 -4.1325 -0.1229
3.5163 -4.1081 -0.1165
3.5417 -4.1061 -0.1193
3.5665 -4.1026 -0.1208
3.5897 -4.0958 -0.1197
3.6146 -4.0922 -0.1212
3.6401 -4.0893 -0.1233
3.6689 -4.0910 -0.1293
3.6906 -4.0820 -0.1263
3.7148 -4.0768 -0.1265
3.7391 -4.0715 -0.1268
3.7633 -4.0663 -0.1270
3.7804 -4.0530 -0.1201
3.8070 -4.0508 -0.1229
3.8375 -4.0521 -0.1289
3.8618 -4.0469 -0.1291
3.8883 -4.0438 -0.1313
3.9072 -4.0336 -0.1270
3.9330 -4.0298 -0.1285
4.0333 -3.9889 -0.1153
4.0609 -3.9865 -0.1181
4.0867 -3.9827 -0.1196
4.1156 -3.9808 -0.1230
4.1375 -3.9744 -0.1219
4.1537 -3.9647 -0.1176
2.7227 -4.2593 -0.0677
2.7550 -4.2373 -0.0576
3.1824 -4.2196 -0.1127
3.2073 -4.2098 -0.1099
3.2323 -4.2133 -0.1162
3.2569 -4.2009 -0.1115
3.3554 -4.1753 -0.1093
3.3806 -4.1725 -0.1114
3.4054 -4.1672 -0.1116
3.4549 -4.1565 -0.1120
3.5061 -4.1499 -0.1155
3.5767 -4.1258 -0.1100
3.6035 -4.1245 -0.1133
3.6292 -4.1207 -0.1148
3.6530 -4.1138 -0.1138
3.6778 -4.1085 -0.1140
3.7036 -4.1047 -0.1154
3.7285 -4.0994 -0.1156
3.7533 -4.0940 -0.1159
3.7781 -4.0887 -0.1161
3.8062 -4.0870 -0.1194
3.8277 -4.0780 -0.1165
3.8490 -4.0690 -0.1136
3.8774 -4.0673 -0.1170
3.9045 -4.0641 -0.1190
3.9270 -4.0566 -0.1174
3.9502 -4.0498 -0.1164
3.9724 -4.0424 -0.1147
3.9971 -4.0371 -0.1149
4.0263 -4.0352 -0.1183
4.0492 -4.0285 -0.1172
4.0712 -4.0211 -0.1156
4.0988 -4.0178 -0.1177
4.1205 -4.0105 -0.1160
4.1452 -4.0052 -0.1162
4.1699 -3.9999 -0.1165
4.1946 -3.9946 -0.1167
4.2226 -3.9912 -0.1188
2.6997 -4.3931 -0.1249
2.7251 -4.3904 -0.1269
2.7533 -4.3816 -0.1254
2.7827 -4.3699 -0.1221
2.8082 -4.3671 -0.1241
2.8360 -4.3584 -0.1226
2.8634 -4.3508 -0.1217
2.8874 -4.3527 -0.1266
2.9133 -4.3498 -0.1286
2.9418 -4.3383 -0.1253
2.9685 -4.3326 -0.1255
2.9963 -4.3221 -0.1228
3.0214 -4.3239 -0.1277
3.0477 -4.3209 -0.1297
3.0761 -4.3050 -0.1235
3.2090 -4.2808 -0.1276
3.2357 -4.2724 -0.1261
3.2613 -4.2499 -0.1152
3.2876 -4.2469 -0.1172
3.3147 -4.2482 -0.1221
3.3416 -4.2451 -0.1241
3.3681 -4.2394 -0.1243
3.4211 -4.2280 -0.1248
3.4483 -4.2248 -0.1268
3.4763 -4.2232 -0.1300
3.5015 -4.2134 -0.1273
3.5261 -4.2027 -0.1240
3.5536 -4.1995 -0.1260
3.5801 -4.1938 -0.1262
3.6054 -4.1856 -0.1247
3.6305 -4.1775 -0.1231
3.6569 -4.1719 -0.1234
3.6822 -4.1646 -0.1224
3.7054 -4.1543 -0.1191
3.7288 -4.1448 -0.1164
3.7611 -4.1476 -0.1231
3.7874 -4.1420 -0.1233
3.8187 -4.1424 -0.1283
3.8472 -4.1389 -0.1303
3.8676 -4.1265 -0.1252
3.8869 -4.1134 -0.1195
3.9284 -4.1232 -0.1322
3.9535 -4.1160 -0.1312
3.9754 -4.1060 -0.1279
3.9953 -4.0945 -0.1234
4.0308 -4.0967 -0.1301
4.0616 -4.0945 -0.1333
4.0784 -4.0811 -0.1271
4.0880 -4.0630 -0.1166
4.1139 -4.0574 -0.1168
4.1417 -4.0532 -0.1182
4.1656 -4.0463 -0.1173
4.1914 -4.0407 -0.1175
4.2141 -4.0331 -0.1160
4.2431 -4.0296 -0.1180
4.2780 -4.0292 -0.1229
2.8511 -4.3970 -0.1177
3.2109 -4.3007 -0.1092
3.3197 -4.2800 -0.1118
3.3457 -4.2671 -0.1075
3.3730 -4.2631 -0.1089
3.4001 -4.2572 -0.1091
3.4260 -4.2472 -0.1066
3.4541 -4.2456 -0.1096
3.5091 -4.2365 -0.1118
3.5362 -4.2306 -0.1120
3.5615 -4.2207 -0.1094
3.5850 -4.2075 -0.1046
3.6154 -4.2091 -0.1099
3.6424 -4.2033 -0.1101
3.6717 -4.2014 -0.1132
3.6963 -4.1916 -0.1106
3.7218 -4.1835 -0.1092
3.7503 -4.1800 -0.1111
3.7801 -4.1781 -0.1141
3.8072 -4.1723 -0.1144
3.8400 -4.1733 -0.1197
3.8615 -4.1606 -0.1149
3.8886 -4.1548 -0.1151
3.9221 -4.1556 -0.1204
3.9472 -4.1475 -0.1190
3.9676 -4.1350 -0.1141
3.9930 -4.1278 -0.1132
4.0266 -4.1277 -0.1180
4.0512 -4.1197 -0.1165
4.1081 -4.1102 -0.1187
4.1568 -4.0943 -0.1158
4.1867 -4.0905 -0.1177
4.2169 -4.0868 -0.1196
4.2441 -4.0809 -0.1199
4.2681 -4.0730 -0.1184
4.2919 -4.0652 -0.1170
2.6490 -4.5157 -0.1281
2.6806 -4.5053 -0.1262
2.7102 -4.4989 -0.1265
2.7398 -4.4925 -0.1267
2.7694 -4.4862 -0.1270
2.7963 -4.4867 -0.1309
2.8261 -4.4803 -0.1312
2.8582 -4.4670 -0.1278
2.8886 -4.4578 -0.1264
2.9192 -4.4475 -0.1246
2.9500 -4.4355 -0.1217
2.9801 -4.4253 -0.1198
3.0079 -4.4257 -0.1238
3.0377 -4.4166 -0.1224
3.0666 -4.4131 -0.1243
3.0962 -4.4040 -0.1229
3.1252 -4.4005 -0.1248
3.1544 -4.3969 -0.1266
3.1840 -4.3814 -0.1216
3.2131 -4.3725 -0.1202
3.2421 -4.3662 -0.1205
3.2716 -4.3662 -0.1245
3.3011 -4.3626 -0.1263
3.3281 -4.3386 -0.1159
3.3846 -4.3210 -0.1132
3.4150 -4.3226 -0.1183
3.4454 -4.3224 -0.1223
3.4745 -4.3162 -0.1225
3.5007 -4.3014 -0.1174
3.5304 -4.2978 -0.1193
3.5583 -4.2890 -0.1179
3.5881 -4.2853 -0.1198
3.6208 -4.2874 -0.1254
3.6487 -4.2787 -0.1241
3.6777 -4.2724 -0.1243
3.6993 -4.2532 -0.1160
3.7294 -4.2495 -0.1178
3.7612 -4.2481 -0.1213
3.7923 -4.2450 -0.1237
3.8247 -4.2435 -0.1272
3.8580 -4.2427 -0.1312
3.8855 -4.2340 -0.1298
3.9081 -4.2201 -0.1247
3.9439 -4.2214 -0.1304
3.9803 -4.2227 -0.1360
4.0024 -4.2089 -0.1309
4.0316 -4.2026 -0.1311
4.0577 -4.1933 -0.1292
4.1008 -4.1995 -0.1386
4.1244 -4.1880 -0.1351
4.1424 -4.1724 -0.1284
4.1687 -4.1640 -0.1270
4.1940 -4.1549 -0.1251
4.2267 -4.1515 -0.1275
4.2586 -4.1473 -0.1294
4.2846 -4.1390 -0.1280
4.3062 -4.1280 -0.1245
4.3350 -4.1218 -0.1247
4.3605 -4.1136 -0.1234
4.3858 -4.1054 -0.1220
2.6178 -4.5905 -0.1314
2.6844 -4.5688 -0.1279
2.7139 -4.5661 -0.1302
2.8066 -4.5498 -0.1330
2.8783 -4.5069 -0.1185
2.9127 -4.4867 -0.1117
2.9449 -4.4724 -0.1080
2.9776 -4.4535 -0.1017
3.3651 -4.3792 -0.1101
3.4541 -4.3564 -0.1089
3.5158 -4.3495 -0.1130
3.5458 -4.3430 -0.1132
3.5749 -4.3340 -0.1120
3.6034 -4.3242 -0.1102
3.6321 -4.3153 -0.1089
3.6948 -4.3082 -0.1130
3.7228 -4.2985 -0.1113
3.7527 -4.2921 -0.1115
3.7810 -4.2832 -0.1103
3.8108 -4.2768 -0.1105
3.8405 -4.2704 -0.1108
3.8746 -4.2695 -0.1146
3.9045 -4.2630 -0.1149
3.9299 -4.2512 -0.1116
3.9597 -4.2448 -0.1118
3.9916 -4.2406 -0.1136
4.0326 -4.2456 -0.1215
4.0567 -4.2330 -0.1177
4.0899 -4.2295 -0.1200
4.1234 -4.2260 -0.1223
4.1502 -4.2166 -0.1206
4.3139 -4.1657 -0.1134
4.3395 -4.1566 -0.1116
4.3616 -4.1454 -0.1083
2.7034 -4.3409 0.0231
2.6259 -4.6467 -0.1258
2.6588 -4.6396 -0.1261
2.6900 -4.6366 -0.1283
2.7246 -4.6255 -0.1267
2.7575 -4.6184 -0.1269
2.7890 -4.6153 -0.1291
2.8233 -4.6042 -0.1275
2.8562 -4.5971 -0.1278
2.8905 -4.5851 -0.1257
2.9318 -4.5430 -0.1089
2.9946 -4.5332 -0.1113
3.0222 -4.5531 -0.1250
3.0554 -4.5422 -0.1233
3.0875 -4.5390 -0.1255
3.1205 -4.5282 -0.1239
3.1530 -4.5212 -0.1242
3.1855 -4.5179 -0.1264
3.2182 -4.5146 -0.1286
3.2510 -4.5075 -0.1289
3.2833 -4.4932 -0.1253
3.3158 -4.4862 -0.1256
3.3488 -4.4828 -0.1278
3.3809 -4.4721 -0.1262
3.4121 -4.4580 -0.1226
3.4436 -4.4476 -0.1210
3.4777 -4.4476 -0.1251
3.5101 -4.4406 -0.1254
3.5448 -4.4406 -0.1295
3.5750 -4.4267 -0.1260
3.6075 -4.4197 -0.1263
3.6399 -4.4127 -0.1265
3.6739 -4.4091 -0.1288
3.7065 -4.4021 -0.1290
3.7448 -4.4058 -0.1356
3.7716 -4.3880 -0.1296
3.8041 -4.3810 -0.1299
3.8346 -4.3708 -0.1282
3.8515 -4.3413 -0.1150
3.8879 -4.3408 -0.1192
3.9246 -4.3403 -0.1233
3.9568 -4.3334 -0.1236
3.9968 -4.3358 -0.1297
4.0293 -4.3288 -0.1300
4.0617 -4.3219 -0.1302
4.0942 -4.3149 -0.1305
4.1266 -4.3079 -0.1308
4.1623 -4.3039 -0.1330
4.1981 -4.2999 -0.1353
4.2308 -4.2929 -0.1355
4.2634 -4.2858 -0.1358
4.2961 -4.2788 -0.1361
4.3288 -4.2718 -0.1364
4.3653 -4.2676 -0.1386
4.4030 -4.2641 -0.1414
4.3861 -4.2225 -0.1178
2.5892 -4.7395 -0.1296
2.6203 -4.7412 -0.1339
2.6573 -4.7295 -0.1325
2.6946 -4.7168 -0.1305
3.4885 -4.4900 -0.1104
3.5231 -4.4863 -0.1125
3.5581 -4.4834 -0.1151
3.5902 -4.4718 -0.1131
3.6211 -4.4577 -0.1098
3.6560 -4.4539 -0.1119
3.6879 -4.4433 -0.1104
3.7141 -4.4219 -0.1029
3.7448 -4.4106 -0.1009
3.7799 -4.4077 -0.1035
3.8103 -4.3965 -0.1015
3.8500 -4.4001 -0.1077
3.9238 -4.3963 -0.1142
4.0941 -4.3633 -0.1175
4.1247 -4.3530 -0.1160
4.1613 -4.3489 -0.1181
4.1885 -4.3356 -0.1147
4.2177 -4.3246 -0.1127
4.2621 -4.3272 -0.1190
4.3001 -4.3236 -0.1216
4.3628 -4.3055 -0.1199
4.3887 -4.2924 -0.1165
2.6647 -4.4337 0.0396
2.6763 -4.4575 0.0277
2.5605 -4.8168 -0.1224
2.5974 -4.8089 -0.1227
2.6343 -4.8010 -0.1230
2.6732 -4.7879 -0.1212
2.7099 -4.7800 -0.1216
2.7501 -4.7619 -0.1177
2.7834 -4.7642 -0.1222
2.8216 -4.7512 -0.1204
2.9569 -4.6056 -0.0690
3.0006 -4.7381 -0.1334
3.0387 -4.7242 -0.1312
3.0764 -4.7114 -0.1294
3.1134 -4.7034 -0.1298
3.1507 -4.6898 -0.1275
3.1877 -4.6771 -0.1257
3.2245 -4.6692 -0.1261
3.2612 -4.6613 -0.1264
3.2980 -4.6534 -0.1267
3.3347 -4.6455 -0.1270
3.3715 -4.6375 -0.1274
3.4075 -4.6251 -0.1255
3.4450 -4.6217 -0.1280
3.4797 -4.6048 -0.1241
3.5210 -4.6157 -0.1333
3.5580 -4.6077 -0.1337
3.5920 -4.5901 -0.1293
3.6272 -4.5778 -0.1275
3.6600 -4.5604 -0.1231
3.6964 -4.5526 -0.1234
3.7327 -4.5447 -0.1237
3.7715 -4.5420 -0.1266
3.8102 -4.5384 -0.1291
3.8416 -4.5213 -0.1247
3.8729 -4.5051 -0.1207
3.9116 -4.5015 -0.1232
3.9595 -4.5109 -0.1325
3.9933 -4.4989 -0.1307
4.0269 -4.4870 -0.1289
4.0633 -4.4792 -0.1292
4.0998 -4.4713 -0.1295
4.1363 -4.4635 -0.1298
4.1728 -4.4556 -0.1301
4.2093 -4.4477 -0.1304
4.2457 -4.4399 -0.1308
4.2902 -4.4397 -0.1354
4.3270 -4.4318 -0.1357
4.3595 -4.4201 -0.1339
4.3819 -4.4002 -0.1273
4.3953 -4.3739 -0.1168
4.6945 -4.3527 -0.1389
4.7369 -4.3482 -0.1414
3.3058 -4.7361 -0.1216
3.5691 -4.6472 -0.1104
3.6102 -4.6488 -0.1151
3.6503 -4.6458 -0.1179
3.8675 -4.5725 -0.1086
3.9804 -4.5482 -0.1096
4.0145 -4.5352 -0.1075
4.0557 -4.5320 -0.1103
4.1004 -4.5328 -0.1151
4.1384 -4.5246 -0.1154
4.2560 -4.5040 -0.1184
4.2902 -4.4919 -0.1167
4.3193 -4.4753 -0.1126
4.3519 -4.4625 -0.1105
4.3989 -4.4629 -0.1153
4.6061 -4.4732 -0.1402
4.6634 -4.4779 -0.1478
4.6971 -4.4649 -0.1457
4.7511 -4.3974 -0.1227
2.7368 -4.7380 -0.0272
2.7621 -4.7602 -0.0382
2.8053 -4.9916 -0.1320
2.8950 -4.9522 -0.1250
2.9805 -4.9271 -0.1231
3.0225 -4.9181 -0.1235
3.0638 -4.9159 -0.1264
3.1485 -4.8910 -0.1246
3.2325 -4.8729 -0.1253
3.2739 -4.8506 -0.1205
3.3156 -4.8416 -0.1209
3.3592 -4.8523 -0.1290
3.4023 -4.8497 -0.1320
3.4468 -4.8535 -0.1376
3.4858 -4.8250 -0.1301
3.5251 -4.8032 -0.1253
3.5670 -4.7942 -0.1257
3.6106 -4.7915 -0.1286
3.6546 -4.7887 -0.1316
3.6946 -4.7734 -0.1294
3.7318 -4.7520 -0.1245
3.7786 -4.7553 -0.1301
3.8262 -4.7584 -0.1357
3.8716 -4.7553 -0.1387
3.9110 -4.7401 -0.1365
3.9500 -4.7251 -0.1342
3.9887 -4.7100 -0.1319
4.0270 -4.6951 -0.1297
4.0727 -4.6920 -0.1327
4.1065 -4.6713 -0.1278
4.1438 -4.6566 -0.1255
4.1852 -4.6477 -0.1259
4.2267 -4.6387 -0.1262
4.2730 -4.6355 -0.1292
4.3146 -4.6265 -0.1296
4.3563 -4.6175 -0.1300
4.3979 -4.6086 -0.1303
4.4395 -4.5996 -0.1307
4.4870 -4.5961 -0.1337
4.5228 -4.5817 -0.1314
4.5644 -4.5727 -0.1318
4.6124 -4.5691 -0.1348
4.6542 -4.5601 -0.1352
4.6893 -4.5458 -0.1329
4.7449 -4.5472 -0.1386
4.7725 -4.5279 -0.1336
4.8215 -4.5240 -0.1366
4.8709 -4.5201 -0.1397
4.9129 -4.5110 -0.1400
4.9549 -4.5020 -0.1404
2.6475 -4.6055 0.0659
2.7192 -4.8048 -0.0114
3.2372 -4.9831 -0.1194
3.2835 -5.0039 -0.1308
3.3309 -5.0168 -0.1395
3.3757 -4.9918 -0.1344
3.4194 -4.9660 -0.1289
3.4648 -4.9562 -0.1293
3.9736 -4.7735 -0.1077
4.0205 -4.7701 -0.1105
4.4733 -4.6938 -0.1220
4.4819 -4.6496 -0.1070
4.5374 -4.6521 -0.1126
4.5808 -4.6428 -0.1130
4.6108 -4.6218 -0.1081
4.6941 -4.6463 -0.1239
4.7317 -4.6314 -0.1219
4.7611 -4.6107 -0.1170
4.7976 -4.5961 -0.1149
4.8328 -4.5808 -0.1124
4.8991 -4.5877 -0.1206
4.9429 -4.5783 -0.1210
4.9789 -4.5638 -0.1189
2.6374 -4.5825 0.1072
2.5998 -5.3011 -0.1246
2.6466 -5.2998 -0.1278
2.6935 -5.2994 -0.1314
2.7436 -5.2886 -0.1319
2.7979 -5.2585 -0.1263
2.8457 -5.2569 -0.1296
2.8954 -5.2462 -0.1300
2.9465 -5.2265 -0.1276
2.9982 -5.1969 -0.1220
3.0456 -5.2051 -0.1285
3.0951 -5.1945 -0.1289
3.1453 -5.1652 -0.1233
3.1943 -5.1547 -0.1238
3.2435 -5.1528 -0.1271
3.2936 -5.1605 -0.1335
3.3434 -5.1497 -0.1339
3.3923 -5.1305 -0.1315
3.4405 -5.1104 -0.1288
3.4898 -5.0998 -0.1292
3.5390 -5.0892 -0.1296
3.5864 -5.0703 -0.1272
3.6354 -5.0597 -0.1276
3.6868 -5.0574 -0.1309
3.7360 -5.0468 -0.1314
3.7824 -5.0280 -0.1289
3.8314 -5.0175 -0.1293
3.8771 -4.9989 -0.1269
3.9258 -4.9884 -0.1273
3.9746 -4.9779 -0.1277
4.0275 -4.9753 -0.1311
4.0765 -4.9647 -0.1315
4.1158 -4.9378 -0.1258
4.1643 -4.9274 -0.1262
4.2235 -4.9331 -0.1328
4.2778 -4.9301 -0.1361
4.3215 -4.9120 -0.1336
4.3705 -4.9014 -0.1341
4.4135 -4.8834 -0.1316
4.4686 -4.8803 -0.1349
4.5176 -4.8697 -0.1354
4.5522 -4.8438 -0.1296
4.6007 -4.8334 -0.1301
4.6273 -4.8015 -0.1217
4.6533 -4.7706 -0.1137
4.6494 -4.7142 -0.0950
4.8116 -4.8064 -0.1379
4.8864 -4.8175 -0.1475
4.9182 -4.7922 -0.1417
4.9674 -4.7816 -0.1421
4.9987 -4.7574 -0.1367
5.0474 -4.7469 -0.1371
5.1057 -4.7431 -0.1405
5.1147 -4.7053 -0.1289
5.1338 -4.6759 -0.1208
2.4073 -5.6014 -0.1467
2.4723 -5.5639 -0.1403
2.6017 -5.4783 -0.1243
2.6327 -5.5529 -0.1487
3.3047 -5.3270 -0.1305
3.3596 -5.3259 -0.1341
3.4117 -5.2932 -0.1282
3.7749 -5.1709 -0.1183
3.8839 -5.1582 -0.1225
3.9326 -5.1370 -0.1197
3.9767 -5.1069 -0.1140
4.0196 -5.0771 -0.1083
4.0665 -5.0573 -0.1058
4.1079 -5.0288 -0.1004
4.1431 -4.9918 -0.0920
4.1929 -4.9811 -0.0924
4.2427 -4.9704 -0.0928
4.2758 -4.9359 -0.0850
4.4050 -4.9550 -0.1001
4.4620 -4.9525 -0.1035
4.5056 -4.9333 -0.1009
4.5843 -4.8880 -0.0932
4.6565 -4.9008 -0.1023
4.7069 -4.8900 -0.1027
4.8881 -4.9420 -0.1313
4.9643 -4.8943 -0.1227
5.0163 -4.8831 -0.1231
5.1209 -4.9134 -0.1397
5.1523 -4.8851 -0.1336
5.2165 -4.8820 -0.1373
5.2358 -4.8466 -0.1282
5.2881 -4.8353 -0.1287
5.3760 -4.8477 -0.1387
5.2879 -4.7453 -0.1020
2.1996 -5.7520 -0.1134
2.2466 -5.7686 -0.1209
2.3004 -5.7708 -0.1251
2.3657 -5.7429 -0.1220
2.4253 -5.7301 -0.1225
2.4709 -5.7617 -0.1339
2.5401 -5.7192 -0.1272
2.6000 -5.7063 -0.1277
2.6737 -5.6362 -0.1139
2.7290 -5.6381 -0.1180
2.7826 -5.6532 -0.1256
2.8421 -5.6403 -0.1261
2.9017 -5.6275 -0.1267
2.9612 -5.6147 -0.1272
3.0196 -5.6159 -0.1314
3.0819 -5.5621 -0.1211
3.1403 -5.5623 -0.1251
3.1993 -5.5910 -0.1366
3.2593 -5.5643 -0.1335
3.3172 -5.5114 -0.1232
3.3781 -5.5249 -0.1308
3.4362 -5.4986 -0.1276
3.4918 -5.4600 -0.1210
3.5545 -5.4731 -0.1287
3.6163 -5.4736 -0.1329
3.6759 -5.4608 -0.1334
3.7354 -5.4480 -0.1340
3.7877 -5.4101 -0.1273
3.8347 -5.3605 -0.1172
3.8966 -5.3600 -0.1211
3.9502 -5.3357 -0.1182
3.9981 -5.2997 -0.1118
4.0304 -5.2326 -0.0960
4.0858 -5.2207 -0.0965
4.1521 -5.2300 -0.1034
4.2325 -5.2620 -0.1172
4.2770 -5.2278 -0.1110
4.3472 -5.2373 -0.1182
4.4268 -5.2587 -0.1292
4.5013 -5.2693 -0.1370
4.5692 -5.2685 -0.1413
4.6021 -5.2209 -0.1307
4.6253 -5.1646 -0.1173
4.6739 -5.1424 -0.1145
4.7393 -5.1401 -0.1183
4.8901 -5.0830 -0.1130
5.0111 -5.1329 -0.1343
5.0696 -5.1203 -0.1348
5.1406 -5.1188 -0.1391
5.1745 -5.0849 -0.1323
5.2838 -5.1146 -0.1475
5.3297 -5.0909 -0.1442
5.3618 -5.0574 -0.1374
5.3934 -5.0249 -0.1308
5.4935 -5.0428 -0.1422
5.4806 -4.9805 -0.1247
5.4430 -4.9047 -0.1020
5.3255 -4.7811 -0.0612
2.2689 -6.0423 -0.1247
2.5673 -5.8637 -0.1001
2.6025 -5.9705 -0.1276
2.6574 -6.0123 -0.1409
2.8164 -5.8419 -0.1099
2.8764 -5.8608 -0.1180
3.0685 -5.8880 -0.1360
3.2033 -5.6801 -0.0946
3.2656 -5.6666 -0.0951
3.3279 -5.6532 -0.0957
3.4031 -5.7981 -0.1346
3.4815 -5.8896 -0.1611
3.5462 -5.8388 -0.1529
3.5925 -5.6907 -0.1205
3.6573 -5.6767 -0.1210
3.7188 -5.6476 -0.1178
3.7832 -5.6337 -0.1183
3.8564 -5.6498 -0.1265
3.9169 -5.6208 -0.1233
3.9711 -5.5764 -0.1160
4.0411 -5.5782 -0.1206
4.1241 -5.6090 -0.1329
4.1830 -5.5795 -0.1294
4.2002 -5.4654 -0.1033
4.2555 -5.4386 -0.1002
4.3248 -5.4386 -0.1044
4.3871 -5.4252 -0.1049
4.4331 -5.3854 -0.0982
4.4780 -5.3469 -0.0918
4.5561 -5.3589 -0.0993
4.6088 -5.3337 -0.0965
4.6790 -5.3325 -0.1004
4.7609 -5.3447 -0.1082
4.8345 -5.3447 -0.1126
5.0480 -5.2530 -0.1036
5.0732 -5.2048 -0.0937
5.1457 -5.2032 -0.0976
5.1813 -5.1677 -0.0913
5.2283 -5.1436 -0.0884
5.4430 -5.2594 -0.1289
5.6042 -5.2575 -0.1381
5.7509 -5.2418 -0.1431
5.5704 -5.0033 -0.0756
2.2519 -6.3146 -0.1111
2.3254 -6.2988 -0.1118
2.4112 -6.2392 -0.1039
2.4607 -6.3127 -0.1220
2.5354 -6.2966 -0.1226
2.5904 -6.3750 -0.1420
2.9852 -6.1777 -0.1219
3.0604 -6.1405 -0.1182
3.1339 -6.1247 -0.1188
3.2075 -6.1299 -0.1239
3.2815 -6.1139 -0.1245
3.3490 -5.9772 -0.0995
3.5015 -6.0455 -0.1221
3.5638 -5.9500 -0.1054
3.6519 -6.0342 -0.1278
3.7101 -5.9385 -0.1109
3.8302 -5.8164 -0.0918
3.9043 -5.8185 -0.0962
4.0160 -5.9347 -0.1266
4.0565 -5.8248 -0.1057
4.2529 -5.9268 -0.1377
4.3276 -5.9107 -0.1383
4.5811 -5.6357 -0.0944
4.6394 -5.6051 -0.0911
5.0604 -5.6277 -0.1185
5.0618 -5.5322 -0.0986
5.1732 -5.5643 -0.1113
5.3904 -5.7039 -0.1522
5.4759 -5.3709 -0.0871
5.6465 -5.4434 -0.1115
