ply
format ascii 1.0
element vertex 2103
property float x
property float y
property float z
end_header
3.5520 -2.8258 -0.2516
7.8113 -3.0022 1.3375
8.3384 -3.1217 1.0765
7.6437 -3.0961 0.7926
5.6170 -2.9168 0.4615
7.2083 -3.1423 0.3180
7.1662 -3.1560 0.2283
7.2051 -3.1803 0.1353
7.2886 -3.2115 0.0354
7.1598 -3.2140 -0.0516
7.0371 -3.2164 -0.1351
6.9192 -3.2187 -0.2151
6.8413 -3.2266 -0.2978
5.7753 -3.0720 -0.1852
5.7993 -3.0905 -0.2591
5.5870 -3.0680 -0.2764
5.3034 -3.0304 -0.2629
4.9936 -2.9954 -0.2772
4.7198 -2.9608 -0.2727
4.4909 -2.9296 -0.2583
4.4246 -2.9230 -0.2654
4.3605 -2.9161 -0.2701
4.2960 -2.9084 -0.2709
4.2203 -2.8970 -0.2609
4.1167 -2.8839 -0.2595
3.9539 -2.8629 -0.2546
3.9284 -2.8610 -0.2604
3.9003 -2.8580 -0.2623
3.8692 -2.8535 -0.2592
3.8380 -2.8486 -0.2538
3.7926 -2.8434 -0.2557
3.7546 -2.8397 -0.2604
3.7325 -2.8362 -0.2566
3.7168 -2.8350 -0.2600
3.6994 -2.8328 -0.2599
3.6831 -2.8308 -0.2599
3.6653 -2.8278 -0.2562
3.6497 -2.8256 -0.2547
3.6393 -2.8256 -0.2608
3.6231 -2.8226 -0.2558
3.6108 -2.8212 -0.2566
3.5994 -2.8201 -0.2579
3.5865 -2.8180 -0.2553
3.5744 -2.8160 -0.2532
3.5648 -2.8153 -0.2552
3.5568 -2.8154 -0.2606
3.5455 -2.8133 -0.2570
7.7825 -2.9011 1.3028
7.7868 -2.9177 1.2210
8.1791 -2.9949 1.0215
7.2340 -2.9631 0.7212
5.5868 -2.8587 0.4455
6.0585 -2.9098 0.4176
6.6757 -2.9785 0.3709
7.7897 -3.1215 0.1912
7.2238 -3.0827 0.1116
7.6468 -3.1910 -0.2302
7.7040 -3.2204 -0.3509
6.6872 -3.1104 -0.2906
5.8990 -3.0211 -0.2236
5.8123 -3.0230 -0.2754
5.5238 -2.9945 -0.2721
5.3024 -2.9733 -0.2729
4.9689 -2.9420 -0.2770
4.8182 -2.9264 -0.2717
4.6910 -2.9133 -0.2676
4.6064 -2.9067 -0.2753
4.4976 -2.8945 -0.2668
4.4231 -2.8878 -0.2695
4.3388 -2.8783 -0.2625
4.2856 -2.8744 -0.2687
4.2148 -2.8660 -0.2609
4.1632 -2.8611 -0.2613
4.1019 -2.8534 -0.2519
4.0738 -2.8528 -0.2629
4.0237 -2.8465 -0.2553
3.9835 -2.8421 -0.2524
3.9535 -2.8398 -0.2558
3.8990 -2.8358 -0.2622
3.8388 -2.8287 -0.2553
3.8211 -2.8284 -0.2626
3.7954 -2.8252 -0.2592
3.7750 -2.8236 -0.2606
3.7531 -2.8210 -0.2584
3.7159 -2.8174 -0.2583
3.6966 -2.8149 -0.2551
3.6854 -2.8153 -0.2626
3.6519 -2.8110 -0.2571
3.6360 -2.8088 -0.2537
3.6269 -2.8094 -0.2613
3.6140 -2.8081 -0.2609
3.6019 -2.8070 -0.2611
3.5873 -2.8043 -0.2549
3.5752 -2.8027 -0.2526
3.5661 -2.8025 -0.2558
3.5560 -2.8016 -0.2562
3.5472 -2.8012 -0.2586
8.0590 -2.7197 1.8289
7.9301 -2.7616 1.5540
7.9360 -2.7767 1.4749
8.3829 -2.8037 1.4992
8.2180 -2.8158 1.3709
7.8057 -2.8190 1.1971
7.7759 -2.8823 0.8445
7.5885 -2.8896 0.7340
7.3717 -3.0512 -0.2197
7.3258 -3.0662 -0.3175
5.8187 -2.9420 -0.2210
5.7716 -2.9494 -0.2792
5.4520 -2.9242 -0.2648
5.1077 -2.9027 -0.2796
4.9608 -2.8928 -0.2824
4.8199 -2.8824 -0.2796
4.6922 -2.8724 -0.2746
4.5982 -2.8664 -0.2775
4.4999 -2.8586 -0.2732
4.3448 -2.8471 -0.2701
4.2887 -2.8440 -0.2744
4.2142 -2.8368 -0.2640
4.1683 -2.8343 -0.2678
4.1176 -2.8303 -0.2656
4.0728 -2.8269 -0.2646
4.0314 -2.8238 -0.2635
3.9910 -2.8204 -0.2605
3.9490 -2.8161 -0.2535
3.9319 -2.8173 -0.2665
3.8931 -2.8129 -0.2576
3.8417 -2.8096 -0.2591
3.8189 -2.8083 -0.2606
3.7938 -2.8060 -0.2577
3.7749 -2.8051 -0.2605
3.7542 -2.8036 -0.2598
3.7183 -2.8013 -0.2612
3.6807 -2.7974 -0.2545
3.6685 -2.7974 -0.2593
3.6528 -2.7960 -0.2575
3.6399 -2.7954 -0.2592
3.6278 -2.7949 -0.2614
3.6142 -2.7937 -0.2597
3.6004 -2.7921 -0.2563
3.5897 -2.7916 -0.2580
3.5765 -2.7898 -0.2532
3.5684 -2.7903 -0.2588
3.5562 -2.7885 -0.2541
7.8523 -2.6641 1.5045
7.9058 -2.6779 1.4387
7.7377 -2.7486 0.9879
7.8966 -2.7829 0.8316
5.7738 -2.7483 0.4808
7.7430 -2.9709 -0.2915
7.1297 -2.9462 -0.3086
5.7779 -2.8711 -0.2258
5.6983 -2.8760 -0.2746
5.3970 -2.8601 -0.2612
5.0980 -2.8508 -0.2854
4.7802 -2.8341 -0.2714
4.5696 -2.8245 -0.2704
4.3975 -2.8159 -0.2656
4.2606 -2.8090 -0.2615
4.1540 -2.8042 -0.2613
4.1066 -2.8020 -0.2606
4.0619 -2.7996 -0.2589
3.9841 -2.7958 -0.2566
3.9539 -2.7949 -0.2594
3.9197 -2.7928 -0.2565
3.8678 -2.7912 -0.2606
3.8416 -2.7899 -0.2597
3.8144 -2.7880 -0.2560
3.7697 -2.7857 -0.2542
3.7146 -2.7835 -0.2556
3.6966 -2.7823 -0.2538
3.6694 -2.7822 -0.2598
3.6555 -2.7817 -0.2609
3.6407 -2.7808 -0.2593
3.6268 -2.7800 -0.2581
3.6121 -2.7786 -0.2540
3.6006 -2.7782 -0.2548
3.5905 -2.7782 -0.2575
3.5805 -2.7782 -0.2598
3.5697 -2.7776 -0.2593
3.5575 -2.7762 -0.2545
3.5497 -2.7767 -0.2592
7.6602 -2.6369 1.0328
7.6639 -2.6504 0.9500
7.7132 -2.6641 0.8714
7.4915 -2.6779 0.7589
6.2459 -2.6853 0.5603
6.0752 -2.6937 0.4874
5.8376 -2.7004 0.4173
6.0576 -2.7126 0.3689
7.5494 -2.7980 0.0234
7.2341 -2.8352 -0.2457
6.8120 -2.8320 -0.2773
6.0615 -2.8209 -0.3004
5.5851 -2.8048 -0.2594
5.3830 -2.8022 -0.2681
5.0513 -2.7974 -0.2787
4.7561 -2.7899 -0.2688
4.6561 -2.7885 -0.2720
4.5426 -2.7849 -0.2636
4.4697 -2.7842 -0.2687
4.3992 -2.7832 -0.2710
4.3160 -2.7802 -0.2623
4.2460 -2.7779 -0.2565
4.1956 -2.7772 -0.2589
4.1616 -2.7783 -0.2694
4.0582 -2.7744 -0.2584
3.9932 -2.7744 -0.2660
3.9628 -2.7742 -0.2687
3.9252 -2.7725 -0.2629
3.8824 -2.7695 -0.2493
3.8625 -2.7702 -0.2560
3.8142 -2.7693 -0.2563
3.7955 -2.7695 -0.2603
3.7765 -2.7696 -0.2627
3.7509 -2.7679 -0.2553
3.7355 -2.7682 -0.2596
3.7163 -2.7675 -0.2575
3.7015 -2.7677 -0.2604
3.6857 -2.7674 -0.2607
3.6709 -2.7672 -0.2613
3.6421 -2.7665 -0.2605
3.6276 -2.7659 -0.2581
3.6152 -2.7657 -0.2583
3.6013 -2.7648 -0.2545
3.5918 -2.7652 -0.2582
3.5790 -2.7643 -0.2544
3.5693 -2.7644 -0.2561
3.5597 -2.7644 -0.2573
3.5493 -2.7639 -0.2556
7.5929 -2.5562 0.9136
7.3836 -2.5737 0.8037
6.7946 -2.5982 0.6604
6.5146 -2.6138 0.5659
5.7655 -2.6348 0.4512
6.4101 -2.6554 0.2924
6.4034 -2.6658 0.2229
6.4205 -2.6765 0.1511
6.8002 -2.7280 -0.2048
6.6966 -2.7393 -0.2767
6.2455 -2.7417 -0.2772
5.9325 -2.7446 -0.2861
5.5382 -2.7426 -0.2594
5.0429 -2.7488 -0.2844
4.8923 -2.7491 -0.2811
4.7572 -2.7490 -0.2760
4.6409 -2.7489 -0.2716
4.5354 -2.7485 -0.2657
4.4469 -2.7485 -0.2623
4.3765 -2.7490 -0.2635
4.3057 -2.7489 -0.2605
4.2514 -2.7496 -0.2634
4.1504 -2.7503 -0.2648
4.1019 -2.7502 -0.2625
4.0462 -2.7489 -0.2516
3.9958 -2.7519 -0.2700
3.9494 -2.7504 -0.2585
3.9276 -2.7517 -0.2665
3.8876 -2.7503 -0.2556
3.8669 -2.7512 -0.2614
3.8383 -2.7508 -0.2575
3.8118 -2.7504 -0.2539
3.7945 -2.7513 -0.2594
3.7712 -2.7510 -0.2563
3.7385 -2.7522 -0.2634
3.7024 -2.7520 -0.2611
3.6679 -2.7514 -0.2555
3.6553 -2.7519 -0.2583
3.6405 -2.7516 -0.2563
3.6302 -2.7524 -0.2613
3.6166 -2.7522 -0.2592
3.6044 -2.7522 -0.2588
3.5942 -2.7526 -0.2613
3.5694 -2.7516 -0.2541
3.5531 -2.7530 -0.2623
7.9888 -2.4308 1.0327
7.8929 -2.4478 0.9299
6.5345 -2.5317 0.6140
6.5027 -2.5420 0.5461
6.2826 -2.5860 0.2755
6.2294 -2.5966 0.2104
6.4604 -2.6007 0.1316
6.8275 -2.6156 -0.0539
7.1113 -2.6240 -0.1750
6.7842 -2.6401 -0.2213
6.1210 -2.6661 -0.2676
5.8882 -2.6760 -0.2897
5.5079 -2.6835 -0.2630
5.1778 -2.6962 -0.2842
5.0001 -2.7006 -0.2781
4.8784 -2.7049 -0.2834
4.7468 -2.7081 -0.2785
4.6170 -2.7103 -0.2672
4.5561 -2.7140 -0.2807
4.4743 -2.7164 -0.2809
4.3679 -2.7171 -0.2633
4.2480 -2.7209 -0.2649
4.1416 -2.7236 -0.2617
4.0565 -2.7261 -0.2617
4.0148 -2.7269 -0.2585
3.9757 -2.7275 -0.2548
3.9478 -2.7289 -0.2586
3.9181 -2.7298 -0.2589
3.8583 -2.7308 -0.2534
3.8137 -2.7325 -0.2565
3.7759 -2.7344 -0.2621
3.7508 -2.7342 -0.2550
3.7312 -2.7345 -0.2533
3.7161 -2.7354 -0.2564
3.7040 -2.7367 -0.2628
3.6661 -2.7362 -0.2517
3.6561 -2.7375 -0.2585
3.6406 -2.7375 -0.2552
3.6303 -2.7385 -0.2601
3.6149 -2.7381 -0.2544
3.6039 -2.7387 -0.2560
3.5920 -2.7388 -0.2548
3.5826 -2.7396 -0.2579
3.5711 -2.7396 -0.2557
3.5637 -2.7406 -0.2618
3.5532 -2.7407 -0.2599
7.5403 -2.3630 0.9366
7.6731 -2.3639 0.8736
6.9522 -2.4238 0.7066
6.4742 -2.4643 0.5895
6.5551 -2.4846 0.3962
6.4382 -2.5086 0.2568
6.2213 -2.5282 0.1943
6.2800 -2.5339 0.1244
6.9465 -2.5249 -0.0856
6.8394 -2.5402 -0.1604
6.5473 -2.5718 -0.2858
6.1349 -2.5938 -0.2851
5.7588 -2.6124 -0.2728
5.5189 -2.6258 -0.2770
5.1675 -2.6463 -0.2900
4.9597 -2.6551 -0.2722
4.8167 -2.6622 -0.2675
4.7180 -2.6682 -0.2733
4.6089 -2.6736 -0.2694
4.5395 -2.6784 -0.2783
4.4678 -2.6828 -0.2825
4.2954 -2.6895 -0.2624
4.2596 -2.6931 -0.2754
4.0849 -2.6999 -0.2553
3.9847 -2.7064 -0.2642
3.9486 -2.7079 -0.2607
3.8959 -2.7113 -0.2658
3.8634 -2.7123 -0.2595
3.8385 -2.7136 -0.2590
3.8170 -2.7149 -0.2608
3.7946 -2.7160 -0.2600
3.7532 -2.7180 -0.2580
3.7370 -2.7192 -0.2608
3.6876 -2.7219 -0.2613
3.6694 -2.7222 -0.2562
3.6562 -2.7231 -0.2576
3.6419 -2.7237 -0.2563
3.6310 -2.7248 -0.2600
3.6185 -2.7254 -0.2598
3.6051 -2.7258 -0.2568
3.5926 -2.7261 -0.2542
3.5826 -2.7269 -0.2560
3.5711 -2.7272 -0.2536
3.5632 -2.7282 -0.2583
3.5554 -2.7292 -0.2627
7.6445 -2.2630 0.9271
7.3558 -2.2992 0.8077
7.0998 -2.3314 0.7014
6.3267 -2.4078 0.5582
6.8051 -2.3741 0.5298
6.3013 -2.4543 0.1749
6.4134 -2.4544 0.0996
6.5358 -2.4545 0.0168
6.5847 -2.4603 -0.0654
6.6352 -2.4664 -0.1519
6.6891 -2.4729 -0.2431
6.3723 -2.5005 -0.2703
6.0219 -2.5283 -0.2758
5.4501 -2.5718 -0.2698
5.1090 -2.5994 -0.2801
4.9604 -2.6109 -0.2802
4.8383 -2.6206 -0.2827
4.7370 -2.6290 -0.2875
4.6006 -2.6377 -0.2714
4.5104 -2.6445 -0.2697
4.4193 -2.6507 -0.2626
4.3623 -2.6558 -0.2688
4.2982 -2.6607 -0.2679
4.1767 -2.6691 -0.2593
4.0775 -2.6759 -0.2523
4.0150 -2.6820 -0.2626
3.9387 -2.6868 -0.2534
3.8957 -2.6917 -0.2666
3.8297 -2.6949 -0.2502
3.8144 -2.6970 -0.2583
3.7971 -2.6989 -0.2632
3.7534 -2.7017 -0.2582
3.7164 -2.7043 -0.2560
3.7016 -2.7057 -0.2581
3.6877 -2.7071 -0.2607
3.6702 -2.7079 -0.2564
3.6549 -2.7089 -0.2545
3.6438 -2.7102 -0.2585
3.6311 -2.7112 -0.2587
3.6204 -2.7124 -0.2618
3.6057 -2.7129 -0.2563
3.5943 -2.7137 -0.2560
3.5838 -2.7146 -0.2564
3.5751 -2.7157 -0.2602
3.5655 -2.7166 -0.2611
3.5571 -2.7176 -0.2642
7.8415 -2.1398 1.0143
7.4116 -2.1984 0.8691
7.0505 -2.2476 0.7471
7.0758 -2.2682 0.5266
6.5253 -2.3486 0.2901
6.2564 -2.3824 0.2261
6.3613 -2.3793 0.1556
6.5568 -2.3683 0.0728
6.4973 -2.3816 0.0028
6.4372 -2.3949 -0.0659
6.5932 -2.3895 -0.1636
6.6450 -2.3937 -0.2536
6.3626 -2.4254 -0.2844
5.9952 -2.4624 -0.2839
5.7174 -2.4908 -0.2875
5.4350 -2.5181 -0.2763
5.0729 -2.5546 -0.2769
4.8266 -2.5803 -0.2852
4.7038 -2.5921 -0.2800
4.5921 -2.6027 -0.2733
4.4998 -2.6116 -0.2697
4.4216 -2.6193 -0.2683
4.3579 -2.6260 -0.2705
4.2882 -2.6325 -0.2658
4.1701 -2.6436 -0.2581
4.0915 -2.6523 -0.2649
4.0226 -2.6598 -0.2707
3.9418 -2.6666 -0.2576
3.9136 -2.6695 -0.2584
3.8835 -2.6722 -0.2557
3.8362 -2.6772 -0.2578
3.7966 -2.6818 -0.2630
3.7738 -2.6837 -0.2598
3.7521 -2.6856 -0.2565
3.7193 -2.6892 -0.2596
3.6844 -2.6922 -0.2549
3.6589 -2.6953 -0.2600
3.6349 -2.6982 -0.2642
3.6192 -2.6991 -0.2580
3.6069 -2.7002 -0.2569
3.5943 -2.7012 -0.2541
3.5867 -2.7027 -0.2606
3.5774 -2.7039 -0.2631
3.5660 -2.7047 -0.2601
7.7507 -2.0285 1.2906
7.6253 -2.0537 1.1876
6.4272 -2.2582 0.5930
6.1852 -2.2958 0.5129
6.5395 -2.2746 0.2722
6.6395 -2.2691 0.1989
6.3055 -2.3159 0.1418
6.4698 -2.3243 -0.1630
6.6608 -2.3111 -0.2736
6.0484 -2.3903 -0.3093
5.6811 -2.4340 -0.2905
5.0727 -2.5089 -0.2852
4.7821 -2.5439 -0.2747
4.6886 -2.5559 -0.2798
4.5748 -2.5692 -0.2709
4.4805 -2.5804 -0.2653
4.4201 -2.5885 -0.2720
4.2845 -2.6048 -0.2673
4.2314 -2.6115 -0.2684
4.1696 -2.6184 -0.2607
4.1259 -2.6240 -0.2619
4.0830 -2.6292 -0.2611
4.0487 -2.6338 -0.2645
4.0252 -2.6377 -0.2747
3.9771 -2.6425 -0.2628
3.9383 -2.6466 -0.2559
3.8600 -2.6566 -0.2584
3.8388 -2.6595 -0.2613
3.7931 -2.6649 -0.2591
3.7688 -2.6674 -0.2537
3.7530 -2.6697 -0.2575
3.7166 -2.6741 -0.2554
3.6997 -2.6760 -0.2541
3.6858 -2.6780 -0.2563
3.6722 -2.6798 -0.2579
3.6575 -2.6815 -0.2568
3.6432 -2.6831 -0.2550
3.6317 -2.6847 -0.2571
3.6081 -2.6877 -0.2576
3.5967 -2.6891 -0.2571
3.5866 -2.6905 -0.2585
3.5762 -2.6917 -0.2583
3.5660 -2.6929 -0.2577
7.2527 -2.0781 0.4932
7.6234 -2.0295 0.4235
7.1391 -2.1085 0.3288
7.0659 -2.1260 0.2479
6.9275 -2.1527 0.1709
6.9867 -2.1580 0.0037
6.9834 -2.1656 -0.0811
7.2836 -2.1320 -0.2059
6.5395 -2.2398 -0.1899
6.4167 -2.2693 -0.3264
5.9436 -2.3364 -0.2993
5.5749 -2.3884 -0.2753
4.3461 -2.5684 -0.2721
4.2843 -2.5773 -0.2709
4.2339 -2.5849 -0.2732
4.1727 -2.5933 -0.2657
4.1279 -2.5999 -0.2659
4.0375 -2.6124 -0.2580
4.0107 -2.6169 -0.2648
3.9710 -2.6223 -0.2592
3.9421 -2.6267 -0.2607
3.9097 -2.6311 -0.2571
3.8827 -2.6350 -0.2569
3.8548 -2.6389 -0.2538
3.8375 -2.6420 -0.2605
3.8098 -2.6455 -0.2544
3.7895 -2.6486 -0.2550
3.7786 -2.6511 -0.2659
3.7494 -2.6543 -0.2528
3.7346 -2.6567 -0.2567
3.7187 -2.6592 -0.2580
3.7031 -2.6615 -0.2587
3.6878 -2.6638 -0.2587
3.6735 -2.6659 -0.2591
3.6601 -2.6680 -0.2600
3.6490 -2.6699 -0.2638
3.6323 -2.6718 -0.2568
3.6216 -2.6736 -0.2595
3.6080 -2.6752 -0.2558
3.5871 -2.6785 -0.2577
3.5676 -2.6815 -0.2592
7.2319 -1.9972 0.4703
7.4263 -1.9698 0.3948
7.4700 -1.9752 0.2203
7.3446 -2.0026 0.1348
7.1876 -2.0350 0.0550
7.4726 -1.9950 -0.0569
7.3440 -2.0228 -0.1393
7.1435 -2.0617 -0.2082
6.7598 -2.1290 -0.2409
6.5757 -2.1639 -0.2926
6.1257 -2.2393 -0.2822
5.8644 -2.2843 -0.2940
5.5997 -2.3290 -0.2927
4.4535 -2.5206 -0.2616
4.2106 -2.5617 -0.2618
4.1156 -2.5776 -0.2599
4.0365 -2.5909 -0.2593
4.0098 -2.5959 -0.2659
3.9674 -2.6025 -0.2577
3.9335 -2.6080 -0.2543
3.9051 -2.6127 -0.2540
3.8582 -2.6210 -0.2582
3.8169 -2.6283 -0.2629
3.7749 -2.6353 -0.2615
3.7376 -2.6415 -0.2604
3.7173 -2.6446 -0.2556
3.7017 -2.6473 -0.2560
3.6871 -2.6498 -0.2568
3.6734 -2.6522 -0.2581
3.6594 -2.6546 -0.2578
3.6496 -2.6567 -0.2636
3.6334 -2.6590 -0.2576
3.6221 -2.6610 -0.2590
3.6110 -2.6629 -0.2600
3.5882 -2.6666 -0.2581
3.5766 -2.6684 -0.2551
3.5586 -2.6716 -0.2580
7.3235 -1.9012 0.3702
7.4440 -1.8834 0.2863
7.4881 -1.8806 0.1973
7.1685 -1.9465 0.1210
7.2048 -1.9451 0.0332
7.2030 -1.9509 -0.0547
7.2400 -1.9497 -0.1487
7.2799 -1.9483 -0.2467
7.0464 -1.9966 -0.3046
6.0978 -2.1771 -0.2903
5.7918 -2.2356 -0.2894
5.5406 -2.2835 -0.2883
4.6448 -2.4543 -0.2786
4.4479 -2.4910 -0.2635
4.2202 -2.5350 -0.2710
4.1166 -2.5543 -0.2631
4.0442 -2.5684 -0.2673
3.9330 -2.5890 -0.2552
3.9104 -2.5936 -0.2602
3.8568 -2.6037 -0.2575
3.8132 -2.6121 -0.2591
3.7935 -2.6160 -0.2603
3.7705 -2.6201 -0.2560
3.7516 -2.6237 -0.2555
3.7368 -2.6267 -0.2591
3.7094 -2.6325 -0.2667
3.6891 -2.6359 -0.2592
3.6720 -2.6389 -0.2550
3.6573 -2.6416 -0.2533
3.6455 -2.6440 -0.2555
3.6339 -2.6463 -0.2572
3.6213 -2.6486 -0.2561
3.6109 -2.6508 -0.2581
3.5993 -2.6529 -0.2573
3.5929 -2.6547 -0.2660
3.5794 -2.6568 -0.2591
7.3014 -1.8249 0.2650
7.6390 -1.7579 0.1706
7.3403 -1.8257 0.0919
7.5089 -1.7951 -0.0094
7.3813 -1.8266 -0.0920
7.2578 -1.8571 -0.1711
7.1404 -1.8861 -0.2473
5.7540 -2.1839 -0.2923
5.4735 -2.2431 -0.2810
4.3183 -2.4886 -0.2682
4.2741 -2.4984 -0.2754
4.2002 -2.5134 -0.2615
4.1443 -2.5250 -0.2552
4.0344 -2.5488 -0.2616
3.9980 -2.5564 -0.2598
3.9182 -2.5739 -0.2687
3.8828 -2.5810 -0.2598
3.8562 -2.5866 -0.2576
3.8219 -2.5945 -0.2694
3.7905 -2.6005 -0.2569
3.7689 -2.6050 -0.2542
3.7345 -2.6124 -0.2558
3.7222 -2.6153 -0.2617
3.7043 -2.6190 -0.2588
3.6732 -2.6255 -0.2561
3.6605 -2.6283 -0.2576
3.6453 -2.6313 -0.2541
3.6244 -2.6361 -0.2603
3.6119 -2.6387 -0.2587
3.6029 -2.6408 -0.2626
3.5903 -2.6433 -0.2587
3.5786 -2.6456 -0.2555
7.6810 -1.6289 0.7587
7.6835 -1.6318 0.6764
7.5166 -1.6750 0.5807
7.5178 -1.6782 0.4983
7.6052 -1.6612 0.4166
7.4378 -1.7042 0.3277
7.3978 -1.7172 0.2424
7.3983 -1.7208 0.1558
7.5699 -1.6846 0.0578
7.2778 -1.7562 -0.0134
7.3163 -1.7511 -0.1066
7.4858 -1.7162 -0.2195
5.7341 -2.1306 -0.2992
5.4463 -2.1975 -0.2839
4.8569 -2.3362 -0.2930
4.4599 -2.4288 -0.2786
4.3815 -2.4469 -0.2730
4.2417 -2.4792 -0.2592
4.1553 -2.4997 -0.2654
3.9977 -2.5365 -0.2613
3.8863 -2.5628 -0.2642
3.8563 -2.5696 -0.2585
3.8326 -2.5751 -0.2575
3.8125 -2.5799 -0.2591
3.7897 -2.5851 -0.2562
3.7712 -2.5895 -0.2571
3.7545 -2.5935 -0.2591
3.7344 -2.5980 -0.2555
3.7184 -2.6018 -0.2560
3.7049 -2.6051 -0.2591
3.6895 -2.6087 -0.2585
3.6758 -2.6120 -0.2594
3.6589 -2.6157 -0.2541
3.6478 -2.6184 -0.2572
3.6349 -2.6214 -0.2564
3.6242 -2.6240 -0.2586
3.6136 -2.6266 -0.2604
3.5996 -2.6296 -0.2543
3.5919 -2.6317 -0.2603
3.5814 -2.6341 -0.2595
3.5711 -2.6365 -0.2583
3.5621 -2.6386 -0.2594
7.6178 -1.5634 0.5642
7.5352 -1.5874 0.4762
7.5789 -1.5789 0.3929
7.5381 -1.5922 0.3059
7.4562 -1.6159 0.2197
7.2581 -1.6692 0.1397
7.4157 -1.6319 0.0449
7.2952 -1.6654 -0.0354
7.2169 -1.6880 -0.1167
7.3759 -1.6509 -0.2267
7.2139 -1.6947 -0.2972
5.6846 -2.0861 -0.2983
4.9312 -2.2784 -0.2826
4.7034 -2.3367 -0.2804
4.3638 -2.4232 -0.2675
4.2467 -2.4531 -0.2655
4.2099 -2.4628 -0.2738
4.1507 -2.4776 -0.2650
4.0738 -2.4974 -0.2681
4.0258 -2.5094 -0.2588
3.9938 -2.5176 -0.2598
3.9399 -2.5316 -0.2655
3.9028 -2.5408 -0.2564
3.8740 -2.5481 -0.2529
3.8286 -2.5597 -0.2537
3.8165 -2.5632 -0.2640
3.7951 -2.5686 -0.2629
3.7711 -2.5745 -0.2570
3.7521 -2.5794 -0.2559
3.7190 -2.5879 -0.2565
3.7055 -2.5914 -0.2594
3.6943 -2.5945 -0.2650
3.6607 -2.6028 -0.2561
3.6482 -2.6060 -0.2568
3.6373 -2.6089 -0.2594
3.6252 -2.6119 -0.2592
3.6128 -2.6151 -0.2572
3.6018 -2.6179 -0.2572
3.5911 -2.6206 -0.2567
3.5836 -2.6227 -0.2623
3.5738 -2.6252 -0.2624
3.5671 -2.6271 -0.2688
7.3531 -1.5467 0.6795
7.3911 -1.5378 0.6062
7.5510 -1.4951 0.5371
7.6824 -1.4605 0.4592
7.4311 -1.5321 0.3675
7.3918 -1.5449 0.2839
7.3926 -1.5466 0.1993
7.6495 -1.4776 0.1017
7.3134 -1.5723 0.0304
7.3926 -1.5525 -0.0645
7.4357 -1.5428 -0.1608
7.4356 -1.5449 -0.2551
5.7511 -2.0116 -0.2648
5.5950 -2.0554 -0.2867
5.3725 -2.1169 -0.2831
5.1757 -2.1713 -0.2768
4.6725 -2.3105 -0.2733
4.4935 -2.3600 -0.2683
4.4273 -2.3784 -0.2709
4.3634 -2.3961 -0.2713
4.2364 -2.4310 -0.2625
4.1866 -2.4448 -0.2617
4.1451 -2.4564 -0.2639
4.1044 -2.4676 -0.2644
4.0636 -2.4789 -0.2625
3.9977 -2.4972 -0.2647
3.9591 -2.5077 -0.2581
3.8774 -2.5303 -0.2572
3.8589 -2.5356 -0.2627
3.8415 -2.5405 -0.2684
3.7880 -2.5551 -0.2546
3.7717 -2.5596 -0.2579
3.7558 -2.5641 -0.2606
3.7188 -2.5742 -0.2558
3.6891 -2.5825 -0.2565
3.6739 -2.5866 -0.2548
3.6653 -2.5892 -0.2627
3.6364 -2.5971 -0.2565
3.6263 -2.5999 -0.2597
3.6164 -2.6028 -0.2626
3.6066 -2.6055 -0.2651
3.5908 -2.6096 -0.2543
3.5821 -2.6121 -0.2572
3.5736 -2.6145 -0.2597
7.0702 -1.3399 1.0974
6.9671 -1.3731 0.8143
7.1461 -1.2939 0.3087
7.1445 -1.2928 0.2268
7.3348 -1.2182 0.1356
7.2544 -1.2471 0.0510
7.1387 -1.2895 -0.0288
7.1364 -1.2885 -0.1174
7.0603 -1.3158 -0.1979
6.8821 -1.3825 -0.2606
6.1476 -1.6622 -0.2866
5.5226 -1.9011 -0.2715
5.2558 -2.0033 -0.2540
5.1472 -2.0443 -0.2729
4.8928 -2.1412 -0.2818
4.4751 -2.3010 -0.2655
4.2563 -2.3849 -0.2485
4.2339 -2.3930 -0.2664
4.1315 -2.4323 -0.2592
4.0147 -2.4769 -0.2553
3.9796 -2.4904 -0.2525
3.9518 -2.5010 -0.2542
3.9294 -2.5094 -0.2593
3.8339 -2.5458 -0.2600
3.7887 -2.5632 -0.2538
3.7708 -2.5700 -0.2544
3.7482 -2.5788 -0.2473
3.7346 -2.5839 -0.2512
3.7185 -2.5901 -0.2505
3.7068 -2.5944 -0.2554
3.6920 -2.6001 -0.2545
3.6781 -2.6054 -0.2541
3.6658 -2.6101 -0.2553
3.6369 -2.6213 -0.2467
3.6272 -2.6249 -0.2498
3.6153 -2.6295 -0.2477
3.6072 -2.6325 -0.2525
3.5957 -2.6370 -0.2494
3.5868 -2.6403 -0.2509
3.5802 -2.6427 -0.2574
3.5710 -2.6462 -0.2570
6.8162 -1.3665 1.1312
7.0755 -1.2614 1.1290
7.0078 -1.2842 0.9829
7.0341 -1.2692 0.8510
7.0313 -1.2681 0.7802
7.0923 -1.2389 0.6411
6.9904 -1.2775 0.5580
7.1943 -1.1929 0.4934
7.1925 -1.1910 0.4124
7.2674 -1.1580 0.3306
7.1523 -1.2020 0.2461
7.3062 -1.1367 0.1557
7.1868 -1.1824 0.0723
6.9658 -1.2695 0.0007
7.1837 -1.1778 -0.1083
7.1429 -1.1915 -0.1962
6.9903 -1.2510 -0.2670
6.0749 -1.6215 -0.2660
5.6039 -1.8113 -0.2903
5.3028 -1.9340 -0.2665
5.1215 -2.0074 -0.2649
4.8898 -2.1006 -0.2825
4.7551 -2.1554 -0.2749
4.6346 -2.2044 -0.2664
4.4593 -2.2755 -0.2619
4.3459 -2.3211 -0.2730
4.2199 -2.3723 -0.2638
4.1218 -2.4122 -0.2593
4.0378 -2.4464 -0.2541
3.9114 -2.4977 -0.2510
3.8671 -2.5154 -0.2571
3.8425 -2.5254 -0.2554
3.8214 -2.5339 -0.2561
3.8016 -2.5419 -0.2568
3.7763 -2.5524 -0.2492
3.7580 -2.5598 -0.2489
3.7429 -2.5658 -0.2517
3.7294 -2.5711 -0.2558
3.7114 -2.5785 -0.2523
3.6972 -2.5843 -0.2532
3.6826 -2.5902 -0.2524
3.6689 -2.5957 -0.2521
3.6549 -2.6015 -0.2500
3.6443 -2.6057 -0.2530
3.6302 -2.6115 -0.2486
3.6095 -2.6198 -0.2510
3.5907 -2.6273 -0.2544
3.5807 -2.6314 -0.2535
3.5720 -2.6349 -0.2548
3.5635 -2.6383 -0.2558
7.0499 -1.1934 1.1544
7.0797 -1.1780 1.0944
6.8324 -1.2789 0.9777
6.8279 -1.2780 0.9121
6.8827 -1.2521 0.8548
6.9092 -1.2379 0.7901
6.9692 -1.2094 0.7271
6.9018 -1.2349 0.6476
6.9617 -1.2063 0.5795
7.2021 -1.0969 0.4356
7.1609 -1.1073 0.2663
7.0845 -1.1364 0.1820
7.0453 -1.1495 0.0975
6.9352 -1.1933 0.0184
7.0025 -1.1604 -0.0752
6.8253 -1.2334 -0.1432
6.0443 -1.5635 -0.2540
5.8964 -1.6252 -0.2928
5.1231 -1.9579 -0.2654
4.4441 -2.2494 -0.2586
4.3903 -2.2720 -0.2673
4.2613 -2.3275 -0.2631
4.2101 -2.3494 -0.2639
4.1608 -2.3706 -0.2630
4.1101 -2.3926 -0.2580
4.0331 -2.4256 -0.2583
3.9910 -2.4439 -0.2517
3.9642 -2.4552 -0.2560
3.9355 -2.4675 -0.2569
3.9098 -2.4784 -0.2589
3.8628 -2.4984 -0.2627
3.8090 -2.5219 -0.2522
3.7717 -2.5378 -0.2547
3.7543 -2.5452 -0.2557
3.7365 -2.5529 -0.2549
3.7199 -2.5601 -0.2544
3.7075 -2.5652 -0.2592
3.6914 -2.5721 -0.2573
3.6763 -2.5787 -0.2557
3.6597 -2.5860 -0.2501
3.6502 -2.5898 -0.2559
3.6373 -2.5954 -0.2546
3.6276 -2.5994 -0.2585
3.6134 -2.6058 -0.2526
3.6030 -2.6102 -0.2531
3.5922 -2.6149 -0.2520
3.5806 -2.6201 -0.2479
3.5735 -2.6229 -0.2535
3.5654 -2.6262 -0.2562
3.5570 -2.6298 -0.2573
6.7684 -1.2432 1.2393
6.8464 -1.2057 1.1997
6.9310 -1.1650 1.1579
6.9887 -1.1359 1.1058
6.9543 -1.1475 1.0315
6.8592 -1.1859 0.9459
6.8254 -1.1972 0.8728
6.9768 -1.1260 0.8270
6.8775 -1.1664 0.7419
6.8739 -1.1641 0.6697
6.9664 -1.1185 0.6043
7.1374 -1.0373 0.5386
7.0624 -1.0666 0.4534
7.0966 -1.0466 0.3720
6.9855 -1.0924 0.2876
7.1298 -1.0221 0.2002
7.1273 -1.0184 0.1112
7.0115 -1.0664 0.0286
7.1219 -1.0108 -0.0722
6.9682 -1.0763 -0.1483
6.8222 -1.1387 -0.2198
6.0129 -1.5047 -0.2418
5.8841 -1.5607 -0.2857
5.0972 -1.9193 -0.2572
4.7210 -2.0895 -0.2664
4.6165 -2.1370 -0.2650
4.5378 -2.1724 -0.2701
4.3879 -2.2404 -0.2712
4.2992 -2.2814 -0.2573
4.1421 -2.3527 -0.2571
4.0484 -2.3957 -0.2492
4.0247 -2.4058 -0.2597
3.9591 -2.4356 -0.2604
3.8977 -2.4636 -0.2566
3.8736 -2.4744 -0.2585
3.8500 -2.4851 -0.2593
3.8233 -2.4975 -0.2548
3.8000 -2.5082 -0.2525
3.7759 -2.5194 -0.2473
3.7612 -2.5258 -0.2528
3.7414 -2.5349 -0.2502
3.7266 -2.5414 -0.2533
3.7096 -2.5493 -0.2519
3.6973 -2.5545 -0.2568
3.6784 -2.5635 -0.2498
3.6674 -2.5682 -0.2546
3.6517 -2.5756 -0.2502
3.6429 -2.5792 -0.2573
3.6290 -2.5857 -0.2539
3.6171 -2.5911 -0.2533
3.6066 -2.5958 -0.2545
3.5935 -2.6020 -0.2491
3.5846 -2.6060 -0.2518
3.5752 -2.6101 -0.2528
3.5651 -2.6149 -0.2508
3.5567 -2.6186 -0.2523
3.5484 -2.6223 -0.2534
7.2034 -0.9762 1.5280
6.9078 -1.0993 1.2483
6.9036 -1.0970 1.1832
6.7543 -1.1619 1.0833
6.8960 -1.0917 1.0499
6.8317 -1.1172 0.9697
6.8577 -1.1005 0.9066
6.8229 -1.1121 0.8316
6.8182 -1.1096 0.7606
6.7831 -1.1214 0.6850
6.8398 -1.0897 0.6179
6.9663 -1.0246 0.5518
6.9974 -1.0044 0.4739
6.9249 -1.0336 0.3900
6.7576 -1.1083 0.3074
7.0991 -0.9387 0.2209
6.9478 -1.0057 0.1377
6.9082 -1.0190 0.0524
6.8343 -1.0490 -0.0298
6.9359 -0.9934 -0.1310
6.8595 -1.0245 -0.2139
6.7167 -1.0884 -0.2834
6.0651 -1.4035 -0.2462
5.8340 -1.5128 -0.2700
5.3219 -1.7586 -0.2685
5.1077 -1.8619 -0.2605
5.0309 -1.8969 -0.2883
4.6983 -2.0584 -0.2598
4.5208 -2.1431 -0.2662
4.3646 -2.2182 -0.2639
4.2955 -2.2515 -0.2610
4.2422 -2.2769 -0.2638
4.1324 -2.3300 -0.2575
4.0728 -2.3594 -0.2456
4.0544 -2.3672 -0.2620
4.0096 -2.3891 -0.2557
3.9712 -2.4077 -0.2520
3.9247 -2.4291 -0.2658
3.8640 -2.4587 -0.2588
3.8336 -2.4738 -0.2518
3.8145 -2.4827 -0.2557
3.7895 -2.4950 -0.2511
3.7712 -2.5036 -0.2532
3.7357 -2.5205 -0.2549
3.7192 -2.5284 -0.2555
3.7011 -2.5373 -0.2524
3.6847 -2.5453 -0.2504
3.6735 -2.5503 -0.2558
3.6566 -2.5588 -0.2503
3.6435 -2.5651 -0.2503
3.6319 -2.5705 -0.2520
3.6194 -2.5766 -0.2509
3.6094 -2.5812 -0.2538
3.5990 -2.5861 -0.2551
3.5878 -2.5916 -0.2536
3.5774 -2.5966 -0.2527
3.5672 -2.6016 -0.2513
3.5577 -2.6062 -0.2508
3.5494 -2.6101 -0.2523
3.5422 -2.6133 -0.2562
6.7884 -1.0703 1.1862
6.8124 -1.0535 1.1281
6.8377 -1.0359 1.0682
6.8957 -1.0021 1.0127
6.8290 -1.0294 0.9306
6.8870 -0.9952 0.8701
6.9157 -0.9752 0.8017
6.7845 -1.0344 0.7111
6.8423 -0.9998 0.6434
6.8056 -1.0121 0.5643
6.9324 -0.9422 0.4943
6.8939 -0.9551 0.4114
6.7574 -1.0177 0.3276
6.9204 -0.9284 0.2442
6.8808 -0.9417 0.1588
6.9485 -0.9000 0.0667
6.8363 -0.9504 -0.0150
6.8668 -0.9274 -0.1093
6.7912 -0.9592 -0.1923
6.6504 -1.0250 -0.2625
6.1452 -1.2816 -0.2555
5.8396 -1.4356 -0.2667
5.6688 -1.5199 -0.2963
5.0709 -1.8267 -0.2490
4.9532 -1.8853 -0.2625
4.7224 -2.0015 -0.2726
4.5172 -2.1058 -0.2688
4.3558 -2.1880 -0.2646
4.2236 -2.2555 -0.2588
4.1334 -2.3007 -0.2658
4.0739 -2.3317 -0.2543
3.9725 -2.3825 -0.2624
3.9370 -2.4008 -0.2590
3.9124 -2.4128 -0.2639
3.8542 -2.4428 -0.2589
3.8195 -2.4613 -0.2468
3.8061 -2.4673 -0.2573
3.7869 -2.4768 -0.2598
3.7635 -2.4890 -0.2554
3.7266 -2.5078 -0.2549
3.6913 -2.5260 -0.2508
3.6600 -2.5421 -0.2474
3.6487 -2.5476 -0.2513
3.6364 -2.5537 -0.2526
3.6255 -2.5590 -0.2555
3.6121 -2.5660 -0.2524
3.5919 -2.5759 -0.2569
3.5788 -2.5830 -0.2508
3.5686 -2.5882 -0.2500
3.5596 -2.5927 -0.2511
3.5516 -2.5965 -0.2545
3.5425 -2.6012 -0.2536
3.5318 -2.6072 -0.2470
7.2563 -0.7747 1.6246
6.8613 -0.9681 1.4290
6.7139 -1.0370 1.3218
6.8792 -0.9413 1.2435
6.9384 -0.9048 1.1921
6.8399 -0.9491 1.1006
6.8359 -0.9448 1.0315
6.9270 -0.8912 0.9794
7.1329 -0.7775 0.9419
7.0569 -0.8098 0.8518
6.8170 -0.9281 0.7421
6.9016 -0.8619 0.5170
7.0056 -0.7990 0.4389
6.6942 -0.9572 0.3475
6.6568 -0.9697 0.2669
6.6819 -0.9487 0.1843
6.9159 -0.8143 0.0863
6.8386 -0.8477 0.0005
6.9441 -0.7816 -0.1037
6.9015 -0.7959 -0.1954
6.7162 -0.8888 -0.2635
6.3400 -1.0880 -0.2864
5.8260 -1.3657 -0.2590
5.6531 -1.4555 -0.2893
4.9597 -1.8288 -0.2659
4.8671 -1.8767 -0.2840
4.7285 -1.9514 -0.2782
4.4906 -2.0804 -0.2604
4.3454 -2.1578 -0.2645
4.2162 -2.2272 -0.2608
4.1116 -2.2835 -0.2580
3.9488 -2.3713 -0.2506
3.9148 -2.3898 -0.2478
3.8858 -2.4053 -0.2476
3.8679 -2.4140 -0.2571
3.8380 -2.4305 -0.2522
3.7981 -2.4511 -0.2597
3.7337 -2.4862 -0.2531
3.7179 -2.4944 -0.2558
3.6844 -2.5125 -0.2541
3.6685 -2.5212 -0.2526
3.6535 -2.5293 -0.2512
3.6406 -2.5361 -0.2522
3.6296 -2.5417 -0.2558
3.6161 -2.5491 -0.2535
3.6056 -2.5545 -0.2561
3.5917 -2.5625 -0.2502
3.5811 -2.5681 -0.2505
3.5704 -2.5740 -0.2491
3.5608 -2.5791 -0.2496
3.5519 -2.5838 -0.2509
3.5449 -2.5869 -0.2569
3.5337 -2.5936 -0.2497
3.5271 -2.5966 -0.2550
6.8934 -0.8666 1.4766
6.7994 -0.9098 1.3835
6.7090 -0.9513 1.2936
6.9137 -0.8351 1.2881
6.9673 -0.7840 1.0926
6.8283 -0.8441 0.9199
7.0274 -0.7272 0.8782
4.7150 -1.9847 0.4207
6.6995 -0.8668 0.4494
6.7254 -0.8436 0.3695
7.2067 -0.5628 0.2855
6.6807 -0.8512 0.2028
6.7073 -0.8269 0.1157
6.6677 -0.8401 0.0303
6.8721 -0.7128 -0.0810
6.9004 -0.6753 -0.2829
5.7740 -1.3159 -0.2426
5.6541 -1.3790 -0.2865
5.1437 -1.6689 -0.2719
4.9582 -1.7742 -0.2666
4.8176 -1.8536 -0.2674
4.6032 -1.9740 -0.2740
4.4822 -2.0437 -0.2610
4.3993 -2.0906 -0.2601
4.3287 -2.1304 -0.2611
4.2598 -2.1696 -0.2586
4.2198 -2.1909 -0.2703
4.1051 -2.2567 -0.2613
4.0703 -2.2756 -0.2684
3.9440 -2.3483 -0.2560
3.9083 -2.3688 -0.2518
3.8866 -2.3803 -0.2592
3.8258 -2.4156 -0.2500
3.8077 -2.4252 -0.2563
3.7423 -2.4625 -0.2527
3.7264 -2.4711 -0.2564
3.7084 -2.4814 -0.2557
3.6897 -2.4923 -0.2522
3.6749 -2.5005 -0.2535
3.6587 -2.5099 -0.2511
3.6446 -2.5179 -0.2509
3.6324 -2.5246 -0.2531
3.6225 -2.5295 -0.2590
3.5832 -2.5527 -0.2495
3.5748 -2.5570 -0.2546
3.5646 -2.5627 -0.2546
3.5547 -2.5684 -0.2541
3.5441 -2.5747 -0.2507
3.5372 -2.5780 -0.2567
3.5284 -2.5830 -0.2561
6.8931 -0.7709 1.4508
6.7920 -0.7611 0.8708
6.8526 -0.7170 0.8045
4.6698 -1.9720 0.4268
6.6604 -0.7814 0.3900
6.6538 -0.7754 0.3072
6.8176 -0.6671 0.2192
6.7074 -0.7225 0.1336
6.7352 -0.6948 0.0414
6.7641 -0.6659 -0.0547
6.7220 -0.6800 -0.1455
5.8167 -1.2072 -0.2470
5.6040 -1.3311 -0.2707
5.3653 -1.4727 -0.2755
5.1790 -1.5828 -0.2831
4.8438 -1.7829 -0.2798
4.6072 -1.9238 -0.2801
4.3969 -2.0510 -0.2644
4.3149 -2.1006 -0.2594
4.2580 -2.1339 -0.2643
4.1555 -2.1941 -0.2710
4.0418 -2.2638 -0.2549
3.9646 -2.3099 -0.2541
3.9027 -2.3464 -0.2570
3.8542 -2.3744 -0.2653
3.8226 -2.3940 -0.2583
3.7969 -2.4096 -0.2558
3.7812 -2.4180 -0.2640
3.7591 -2.4313 -0.2625
3.7176 -2.4566 -0.2578
3.6832 -2.4772 -0.2569
3.6521 -2.4959 -0.2555
3.6209 -2.5155 -0.2477
3.6107 -2.5209 -0.2526
3.5992 -2.5276 -0.2537
3.5880 -2.5342 -0.2544
3.5668 -2.5468 -0.2551
3.5568 -2.5527 -0.2553
3.5479 -2.5578 -0.2573
3.5383 -2.5636 -0.2565
3.5290 -2.5693 -0.2552
3.5187 -2.5761 -0.2496
6.9944 -0.6199 1.5241
7.0908 -0.5346 1.3427
6.9114 -0.6309 1.2216
6.7775 -0.7008 1.1172
6.8035 -0.6756 1.0518
6.6675 -0.7377 0.8799
6.9622 -0.5487 0.8520
6.6857 -0.6514 0.3289
6.6795 -0.6436 0.2422
6.6724 -0.6360 0.1537
6.5908 -0.6633 -0.0223
6.5830 -0.6557 -0.1145
6.5743 -0.6484 -0.2084
5.7625 -1.1555 -0.2299
5.5539 -1.2832 -0.2549
5.3337 -1.4201 -0.2651
5.1940 -1.5048 -0.2878
4.8639 -1.7119 -0.2900
4.7174 -1.8048 -0.2836
4.5937 -1.8832 -0.2782
4.3997 -2.0060 -0.2717
4.2407 -2.1074 -0.2607
4.1269 -2.1791 -0.2591
4.0420 -2.2317 -0.2644
3.9986 -2.2594 -0.2617
3.9337 -2.2993 -0.2675
3.8866 -2.3310 -0.2519
3.8390 -2.3598 -0.2605
3.8150 -2.3747 -0.2620
3.7879 -2.3923 -0.2576
3.7687 -2.4038 -0.2613
3.7434 -2.4206 -0.2550
3.7052 -2.4448 -0.2538
3.6758 -2.4623 -0.2606
3.6576 -2.4743 -0.2558
3.6415 -2.4849 -0.2530
3.6140 -2.5024 -0.2516
3.6024 -2.5094 -0.2535
3.5902 -2.5172 -0.2527
3.5782 -2.5249 -0.2513
3.5693 -2.5299 -0.2559
3.5574 -2.5378 -0.2521
3.5480 -2.5435 -0.2535
3.5393 -2.5487 -0.2557
3.5283 -2.5564 -0.2501
3.5204 -2.5610 -0.2525
3.5126 -2.5656 -0.2546
6.7734 -0.6564 1.4885
6.7380 -0.6683 1.4122
6.8577 -0.5848 1.3841
6.8207 -0.5972 1.3042
6.7836 -0.6096 1.2244
6.7466 -0.6220 1.1446
6.7403 -0.6151 1.0718
6.8331 -0.5456 1.0182
6.6355 -0.6593 0.9050
6.7554 -0.5717 0.8508
4.5553 -1.9611 0.4060
6.6850 -0.5426 0.3514
6.6111 -0.5782 0.2637
6.5707 -0.5918 0.1766
6.6988 -0.4921 0.0787
6.4581 -0.6404 0.0053
6.6487 -0.4968 -0.1090
6.6057 -0.5112 -0.2017
5.8274 -1.0211 -0.2384
5.6577 -1.1275 -0.2772
5.2746 -1.3859 -0.2469
5.1510 -1.4636 -0.2743
4.8195 -1.6829 -0.2754
4.6841 -1.7729 -0.2731
4.5739 -1.8458 -0.2736
4.3813 -1.9742 -0.2678
4.3258 -2.0092 -0.2790
4.1208 -2.1474 -0.2632
4.0802 -2.1734 -0.2691
4.0302 -2.2073 -0.2644
3.9453 -2.2645 -0.2573
3.9152 -2.2839 -0.2608
3.8769 -2.3104 -0.2535
3.8281 -2.3416 -0.2607
3.8051 -2.3565 -0.2632
3.7820 -2.3716 -0.2639
3.7572 -2.3886 -0.2601
3.7325 -2.4059 -0.2541
3.6955 -2.4304 -0.2543
3.6618 -2.4529 -0.2532
3.6492 -2.4605 -0.2579
3.6189 -2.4812 -0.2537
3.6044 -2.4913 -0.2503
3.5921 -2.4995 -0.2503
3.5828 -2.5048 -0.2560
3.5697 -2.5141 -0.2515
3.5600 -2.5202 -0.2540
3.5485 -2.5284 -0.2503
3.5392 -2.5343 -0.2518
3.5294 -2.5409 -0.2504
3.5210 -2.5462 -0.2522
3.5121 -2.5523 -0.2510
3.5045 -2.5571 -0.2532
3.4977 -2.5609 -0.2576
6.7435 -0.5801 1.5182
6.7078 -0.5920 1.4412
6.7635 -0.5452 1.3937
6.5783 -0.6536 1.2697
6.6294 -0.6093 1.2183
6.8114 -0.4788 1.1975
6.9103 -0.4013 1.1476
6.9064 -0.3909 1.0692
4.5148 -1.9493 0.4119
6.8284 -0.3292 0.3783
6.6084 -0.4670 0.2851
6.7050 -0.3840 0.1920
6.7350 -0.3468 0.0950
6.4847 -0.5085 0.0184
6.4751 -0.4997 -0.0742
6.4023 -0.5362 -0.1594
6.2133 -0.6576 -0.2217
5.6729 -1.0384 -0.1998
5.3499 -1.2641 -0.1978
5.1539 -1.3878 -0.2752
4.6901 -1.7195 -0.2277
4.5216 -1.8327 -0.2539
4.4781 -1.8586 -0.2798
4.3188 -1.9694 -0.2821
4.1555 -2.0872 -0.2589
4.0683 -2.1463 -0.2695
4.0126 -2.1868 -0.2599
3.9256 -2.2492 -0.2499
3.9094 -2.2576 -0.2668
3.8749 -2.2823 -0.2635
3.8394 -2.3083 -0.2561
3.8211 -2.3195 -0.2658
3.7925 -2.3401 -0.2615
3.7676 -2.3579 -0.2593
3.7422 -2.3764 -0.2542
3.7275 -2.3854 -0.2621
3.7049 -2.4020 -0.2569
3.6704 -2.4260 -0.2574
3.6551 -2.4365 -0.2586
3.6381 -2.4489 -0.2552
3.5970 -2.4778 -0.2541
3.5871 -2.4838 -0.2594
3.5744 -2.4931 -0.2570
3.5603 -2.5042 -0.2494
3.5524 -2.5085 -0.2565
3.5414 -2.5166 -0.2542
3.5312 -2.5240 -0.2524
3.5223 -2.5300 -0.2535
3.5133 -2.5364 -0.2530
3.5059 -2.5409 -0.2570
3.4959 -2.5489 -0.2505
3.4902 -2.5515 -0.2588
6.8805 -0.4153 1.7429
6.8115 -0.4489 1.6506
6.7432 -0.4823 1.5596
6.7381 -0.4735 1.4923
6.7014 -0.4858 1.4132
6.6341 -0.5189 1.3245
6.7200 -0.4478 1.2819
6.8827 -0.3232 1.2551
6.7684 -0.3738 1.0748
6.9424 -0.2383 1.0334
6.7227 -0.3769 0.9102
6.4341 -0.4610 0.2197
6.4879 -0.4044 0.1276
6.4463 -0.4183 0.0378
6.5376 -0.3318 -0.0671
6.4941 -0.3463 -0.1608
6.4507 -0.3609 -0.2545
5.2236 -1.2799 -0.1636
4.7461 -1.6245 -0.1986
4.6433 -1.6976 -0.2120
4.6694 -1.6668 -0.2745
4.5222 -1.7779 -0.2590
4.4577 -1.8223 -0.2753
4.2959 -1.9412 -0.2759
4.1567 -2.0449 -0.2684
4.0559 -2.1187 -0.2697
3.9635 -2.1880 -0.2627
3.8629 -2.2618 -0.2634
3.8371 -2.2802 -0.2667
3.7792 -2.3241 -0.2590
3.7565 -2.3408 -0.2593
3.7317 -2.3599 -0.2545
3.6929 -2.3885 -0.2544
3.6596 -2.4126 -0.2562
3.6431 -2.4250 -0.2548
3.6270 -2.4373 -0.2524
3.5993 -2.4577 -0.2517
3.5880 -2.4655 -0.2547
3.5748 -2.4757 -0.2520
3.5532 -2.4913 -0.2539
3.5426 -2.4992 -0.2534
3.5323 -2.5069 -0.2523
3.5128 -2.5218 -0.2495
3.5050 -2.5269 -0.2526
3.4964 -2.5334 -0.2517
3.4887 -2.5389 -0.2529
3.4805 -2.5452 -0.2510
6.8179 -0.3554 1.7627
6.6585 -0.4525 1.6333
6.8403 -0.3131 1.6402
6.8648 -0.2678 1.5108
6.7582 -0.3286 1.4043
6.7197 -0.3415 1.3214
7.0325 -0.0863 1.2576
7.1112 -0.0123 1.1940
6.6296 -0.3467 1.0036
4.4040 -1.9514 0.4193
5.4657 -1.1084 0.3177
5.3531 -1.1836 0.2589
5.2875 -1.2230 0.2028
5.0794 -1.3755 0.1602
6.2041 -0.4499 -0.1072
6.2509 -0.3928 -0.2095
5.1067 -1.2949 -0.1320
5.0051 -1.3664 -0.1669
4.8674 -1.4694 -0.1849
4.6825 -1.6141 -0.1775
4.6827 -1.6032 -0.2301
4.6479 -1.6223 -0.2693
4.4376 -1.7848 -0.2710
4.3736 -1.8317 -0.2837
4.2845 -1.9022 -0.2767
4.1970 -1.9725 -0.2640
4.1419 -2.0146 -0.2671
4.0366 -2.0967 -0.2646
3.9548 -2.1596 -0.2663
3.8827 -2.2159 -0.2644
3.8139 -2.2715 -0.2535
3.7926 -2.2867 -0.2594
3.7659 -2.3081 -0.2564
3.7229 -2.3410 -0.2578
3.7028 -2.3566 -0.2575
3.6813 -2.3743 -0.2528
3.6496 -2.3981 -0.2566
3.6329 -2.4114 -0.2546
3.6172 -2.4240 -0.2525
3.5900 -2.4451 -0.2521
3.5660 -2.4636 -0.2528
3.5558 -2.4709 -0.2558
3.5451 -2.4791 -0.2561
3.5332 -2.4893 -0.2514
3.5238 -2.4963 -0.2527
3.5146 -2.5032 -0.2534
3.5061 -2.5096 -0.2548
3.4970 -2.5169 -0.2534
3.4874 -2.5255 -0.2478
3.4807 -2.5297 -0.2527
3.4730 -2.5358 -0.2522
7.7862 0.4639 2.1491
7.5347 0.3186 1.8804
7.1729 0.0712 1.6661
6.9640 -0.0314 1.3617
6.9598 -0.0167 1.2805
6.4038 -0.3890 0.9155
5.1285 -1.2869 0.2751
5.1151 -1.2860 0.2221
5.0491 -1.3287 0.1721
5.7410 -0.6822 -0.1957
4.9434 -1.3436 -0.1482
4.9689 -1.3074 -0.2169
4.7257 -1.5109 -0.1942
4.6401 -1.5759 -0.2161
4.6399 -1.5640 -0.2701
4.5486 -1.6358 -0.2820
4.4411 -1.7242 -0.2792
4.3405 -1.8078 -0.2722
4.2682 -1.8663 -0.2748
4.1944 -1.9273 -0.2711
4.1292 -1.9813 -0.2675
4.0784 -2.0222 -0.2698
4.0265 -2.0652 -0.2671
3.9402 -2.1362 -0.2647
3.8678 -2.1959 -0.2619
3.8280 -2.2306 -0.2515
3.8076 -2.2453 -0.2603
3.7801 -2.2681 -0.2586
3.7613 -2.2819 -0.2659
3.7316 -2.3083 -0.2561
3.7083 -2.3281 -0.2526
3.6715 -2.3577 -0.2543
3.6561 -2.3694 -0.2578
3.6421 -2.3799 -0.2622
3.6226 -2.3976 -0.2544
3.6072 -2.4106 -0.2524
3.5931 -2.4223 -0.2515
3.5798 -2.4334 -0.2506
3.5688 -2.4416 -0.2539
3.5357 -2.4683 -0.2550
3.5255 -2.4767 -0.2549
3.5159 -2.4845 -0.2552
3.5059 -2.4932 -0.2527
3.4984 -2.4982 -0.2578
3.4883 -2.5077 -0.2518
3.4807 -2.5136 -0.2535
3.4720 -2.5214 -0.2499
3.4656 -2.5256 -0.2546
6.5663 -0.2521 1.4236
5.0085 -1.2900 0.1849
4.9279 -1.3481 0.1388
4.9229 -1.3397 0.0866
4.9181 -1.3308 0.0331
4.9211 -1.2861 -0.1405
4.9560 -1.2385 -0.2128
4.6387 -1.5099 -0.2185
4.6104 -1.5237 -0.2615
4.5632 -1.5562 -0.2948
4.3195 -1.7723 -0.2677
4.2409 -1.8402 -0.2662
4.1810 -1.8905 -0.2712
4.1102 -1.9532 -0.2636
4.0464 -2.0100 -0.2554
4.0067 -2.0426 -0.2618
3.9586 -2.0850 -0.2575
3.9206 -2.1174 -0.2586
3.8230 -2.2009 -0.2601
3.7932 -2.2271 -0.2578
3.7700 -2.2462 -0.2611
3.7428 -2.2707 -0.2568
3.7213 -2.2888 -0.2580
3.6995 -2.3080 -0.2565
3.6830 -2.3209 -0.2615
3.6427 -2.3576 -0.2529
3.6281 -2.3695 -0.2557
3.5844 -2.4074 -0.2544
3.5694 -2.4216 -0.2490
3.5583 -2.4306 -0.2514
3.5482 -2.4383 -0.2552
3.5379 -2.4466 -0.2575
3.5279 -2.4548 -0.2593
3.5172 -2.4645 -0.2572
3.5049 -2.4774 -0.2477
3.4971 -2.4831 -0.2520
3.4799 -2.4980 -0.2513
3.4731 -2.5025 -0.2568
3.4652 -2.5095 -0.2559
6.7605 0.0177 1.5378
5.6230 -0.8487 0.9182
4.7977 -1.5270 0.6569
4.6219 -1.6119 0.3758
4.8866 -1.3522 0.3004
5.1277 -1.1042 0.1882
4.9241 -1.2488 0.0382
4.9384 -1.2200 -0.0220
4.9537 -1.1894 -0.0854
4.9180 -1.2078 -0.1379
4.8635 -1.2451 -0.1837
4.6368 -1.4406 -0.2208
4.5946 -1.4687 -0.2592
4.5280 -1.5225 -0.2837
4.3287 -1.7037 -0.2810
4.1551 -1.8657 -0.2631
4.0945 -1.9208 -0.2623
4.0422 -1.9679 -0.2630
3.9955 -2.0100 -0.2640
3.9438 -2.0588 -0.2563
3.9127 -2.0850 -0.2640
3.8730 -2.1219 -0.2601
3.8078 -2.1818 -0.2571
3.7579 -2.2258 -0.2615
3.7088 -2.2715 -0.2570
3.6708 -2.3051 -0.2602
3.6515 -2.3231 -0.2580
3.6319 -2.3422 -0.2530
3.6064 -2.3623 -0.2643
3.5895 -2.3791 -0.2586
3.5732 -2.3957 -0.2517
3.5509 -2.4143 -0.2578
3.5385 -2.4263 -0.2549
3.5274 -2.4365 -0.2542
3.5167 -2.4466 -0.2529
3.5078 -2.4538 -0.2562
3.4884 -2.4723 -0.2524
3.4718 -2.4871 -0.2532
3.4644 -2.4933 -0.2552
3.4567 -2.5005 -0.2543
6.5012 -0.1521 1.7483
6.3452 -0.1903 1.3625
6.3922 -0.1305 1.3108
5.6566 -0.7310 0.9570
4.7603 -1.5027 0.6651
4.7236 -1.5150 0.5860
4.6344 -1.5850 0.5332
4.6170 -1.5908 0.4957
4.5648 -1.6083 0.3832
4.6490 -1.5185 0.3501
5.2188 -0.9301 0.1950
4.7848 -1.3225 0.1187
4.8280 -1.2151 -0.1115
4.7599 -1.2687 -0.1510
4.6648 -1.3353 -0.2353
4.5300 -1.4480 -0.2911
4.2983 -1.6747 -0.2714
4.2179 -1.7520 -0.2695
4.1446 -1.8230 -0.2658
4.0356 -1.9260 -0.2694
3.9429 -2.0148 -0.2685
3.8640 -2.0911 -0.2649
3.7929 -2.1619 -0.2548
3.7417 -2.2103 -0.2564
3.7214 -2.2284 -0.2610
3.7007 -2.2475 -0.2631
3.6783 -2.2697 -0.2602
3.6602 -2.2865 -0.2619
3.6209 -2.3266 -0.2530
3.6096 -2.3348 -0.2621
3.5652 -2.3785 -0.2573
3.5394 -2.4042 -0.2533
3.5290 -2.4136 -0.2555
3.5188 -2.4229 -0.2570
3.4992 -2.4412 -0.2584
3.4890 -2.4519 -0.2549
3.4794 -2.4620 -0.2517
3.4712 -2.4697 -0.2524
3.4637 -2.4761 -0.2550
3.4556 -2.4841 -0.2536
3.4492 -2.4887 -0.2589
3.4412 -2.4978 -0.2540
6.4392 -0.0928 1.7679
6.3278 -0.0689 1.3311
6.3177 -0.0563 1.2580
4.7231 -1.4679 0.6383
4.6686 -1.5078 0.5903
4.6269 -1.5361 0.5468
4.6559 -1.4976 0.5166
5.3707 -0.7015 0.2692
5.4538 -0.5954 0.1971
4.7090 -1.3256 0.1351
5.2283 -0.7168 -0.1419
4.6719 -1.2824 -0.1233
4.7038 -1.2095 -0.2546
4.4936 -1.4132 -0.2796
4.3830 -1.5254 -0.2768
4.2889 -1.6207 -0.2745
4.1274 -1.7864 -0.2641
4.0795 -1.8318 -0.2732
4.0213 -1.8915 -0.2697
3.9633 -1.9526 -0.2609
3.9289 -1.9847 -0.2690
3.8918 -2.0213 -0.2713
3.8446 -2.0726 -0.2588
3.7865 -2.1296 -0.2634
3.7585 -2.1580 -0.2626
3.7310 -2.1868 -0.2593
3.7056 -2.2133 -0.2561
3.6871 -2.2303 -0.2612
3.6713 -2.2438 -0.2689
3.6505 -2.2657 -0.2658
3.6299 -2.2881 -0.2605
3.6151 -2.3018 -0.2643
3.5977 -2.3205 -0.2605
3.5827 -2.3358 -0.2598
3.5544 -2.3653 -0.2563
3.5215 -2.3964 -0.2630
3.5099 -2.4090 -0.2598
3.4976 -2.4240 -0.2516
3.4896 -2.4303 -0.2573
3.4799 -2.4407 -0.2550
3.4713 -2.4492 -0.2554
3.4634 -2.4565 -0.2575
3.4547 -2.4667 -0.2532
3.4481 -2.4714 -0.2591
3.4403 -2.4802 -0.2561
6.3198 0.0456 1.3718
6.2253 -0.0201 1.2692
6.2143 -0.0070 1.1956
4.6917 -1.4380 0.6482
4.6323 -1.4844 0.5986
4.6250 -1.4798 0.5621
4.6070 -1.4858 0.5231
5.2032 -0.7736 0.2862
5.3494 -0.5950 0.2165
4.6508 -1.3135 0.1491
4.9307 -0.9649 -0.0046
4.8929 -0.9862 -0.0604
4.6559 -1.2373 -0.0611
4.6179 -1.2625 -0.1063
4.6097 -1.2528 -0.1608
4.6010 -1.2433 -0.2165
4.5494 -1.2854 -0.2541
4.4572 -1.3784 -0.2682
4.2004 -1.6475 -0.2780
4.1284 -1.7246 -0.2760
4.0566 -1.8037 -0.2673
3.9507 -1.9175 -0.2630
3.9163 -1.9512 -0.2713
3.8745 -1.9965 -0.2685
3.8335 -2.0421 -0.2622
3.8010 -2.0767 -0.2617
3.7718 -2.1076 -0.2620
3.7494 -2.1291 -0.2686
3.6971 -2.1866 -0.2627
3.6759 -2.2088 -0.2634
3.6555 -2.2308 -0.2627
3.6317 -2.2593 -0.2529
3.6031 -2.2862 -0.2633
3.5858 -2.3060 -0.2589
3.5701 -2.3237 -0.2558
3.5553 -2.3405 -0.2525
3.5432 -2.3527 -0.2544
3.5315 -2.3647 -0.2555
3.5202 -2.3766 -0.2559
3.5092 -2.3884 -0.2555
3.4988 -2.3994 -0.2554
3.4888 -2.4103 -0.2546
3.4804 -2.4180 -0.2584
3.4709 -2.4287 -0.2562
3.4537 -2.4480 -0.2533
3.4462 -2.4554 -0.2550
3.4392 -2.4621 -0.2574
3.4319 -2.4699 -0.2569
3.4247 -2.4782 -0.2548
6.1877 0.0681 1.2990
6.1492 0.0552 1.2161
4.6546 -1.4139 0.6565
4.6248 -1.4319 0.6139
4.5623 -1.4839 0.5646
4.5605 -1.4732 0.5297
4.5216 -1.5015 0.4877
4.5932 -1.3684 0.3419
4.6370 -1.3039 0.2995
4.6784 -1.2047 0.1538
4.9976 -0.7364 -0.1518
4.8341 -0.9111 -0.1745
4.6373 -1.1320 -0.1727
4.6366 -1.1102 -0.2349
4.5886 -1.1483 -0.2778
4.4150 -1.3512 -0.2537
4.3611 -1.4015 -0.2813
4.2047 -1.5727 -0.2919
4.0471 -1.7562 -0.2724
3.9916 -1.8189 -0.2708
3.9484 -1.8656 -0.2753
3.8565 -1.9722 -0.2651
3.7831 -2.0573 -0.2569
3.7332 -2.1102 -0.2649
3.7068 -2.1405 -0.2626
3.6810 -2.1712 -0.2577
3.6374 -2.2220 -0.2521
3.6227 -2.2360 -0.2590
3.6083 -2.2499 -0.2650
3.5764 -2.2860 -0.2639
3.5453 -2.3242 -0.2548
3.5340 -2.3353 -0.2588
3.5223 -2.3483 -0.2593
3.4993 -2.3752 -0.2560
3.4891 -2.3865 -0.2560
3.4796 -2.3971 -0.2564
3.4699 -2.4088 -0.2541
3.4611 -2.4185 -0.2542
3.4529 -2.4275 -0.2548
3.4452 -2.4358 -0.2560
3.4369 -2.4464 -0.2520
3.4296 -2.4545 -0.2521
3.4231 -2.4607 -0.2553
3.4161 -2.4692 -0.2532
6.2273 0.1842 1.4969
6.2740 0.2590 1.4469
6.2053 0.2159 1.3501
6.1383 0.1739 1.2552
4.5555 -1.3573 0.3932
4.5597 -1.3364 0.3524
4.6425 -1.2223 0.3111
4.6349 -1.2131 0.2644
4.7510 -1.0329 0.1549
5.1654 -0.4064 -0.1946
4.9533 -0.6501 -0.2121
4.6600 -1.0078 -0.1829
4.6022 -1.0597 -0.2249
4.5852 -1.0572 -0.2825
4.3365 -1.3533 -0.2763
4.1738 -1.5432 -0.2822
4.0314 -1.7150 -0.2729
3.9286 -1.8369 -0.2716
3.8864 -1.8866 -0.2722
3.8446 -1.9372 -0.2688
3.7690 -2.0311 -0.2572
3.7441 -2.0583 -0.2625
3.7221 -2.0817 -0.2693
3.6664 -2.1529 -0.2553
3.6287 -2.1957 -0.2597
3.6103 -2.2179 -0.2589
3.5948 -2.2349 -0.2621
3.5778 -2.2559 -0.2595
3.5643 -2.2705 -0.2630
3.5482 -2.2919 -0.2572
3.5335 -2.3110 -0.2526
3.5099 -2.3384 -0.2537
3.5004 -2.3475 -0.2592
3.4899 -2.3599 -0.2593
3.4790 -2.3742 -0.2556
3.4706 -2.3823 -0.2603
3.4613 -2.3937 -0.2592
3.4517 -2.4070 -0.2542
3.4444 -2.4135 -0.2594
3.4355 -2.4266 -0.2529
3.4280 -2.4356 -0.2525
3.4213 -2.4426 -0.2551
3.4142 -2.4514 -0.2537
3.4079 -2.4583 -0.2554
6.1616 0.2470 1.5176
6.0443 0.1498 1.4016
6.2240 0.3728 1.4042
6.1832 0.3591 1.3163
4.6151 -1.3140 0.6479
4.4739 -1.3848 0.3989
4.5033 -1.3324 0.3616
4.8787 -0.7756 0.1523
4.9505 -0.5961 -0.0603
4.9567 -0.5565 -0.1360
4.8434 -0.6801 -0.1775
4.6086 -0.9777 -0.1663
4.5505 -1.0052 -0.2728
4.4231 -1.1639 -0.2734
4.3011 -1.3194 -0.2652
4.2334 -1.3976 -0.2800
4.1577 -1.4908 -0.2830
4.0845 -1.5832 -0.2804
3.9011 -1.8203 -0.2604
3.8637 -1.8649 -0.2651
3.8250 -1.9137 -0.2642
3.7927 -1.9529 -0.2667
3.7627 -1.9894 -0.2687
3.7042 -2.0645 -0.2636
3.6814 -2.0919 -0.2660
3.6576 -2.1227 -0.2635
3.6325 -2.1576 -0.2549
3.5812 -2.2198 -0.2591
3.5509 -2.2577 -0.2588
3.5376 -2.2739 -0.2599
3.5255 -2.2878 -0.2626
3.5112 -2.3086 -0.2556
3.5005 -2.3209 -0.2583
3.4896 -2.3344 -0.2584
3.4791 -2.3477 -0.2577
3.4692 -2.3603 -0.2572
3.4603 -2.3707 -0.2589
3.4512 -2.3824 -0.2580
3.4425 -2.3939 -0.2564
3.4341 -2.4054 -0.2541
3.4272 -2.4120 -0.2589
3.4191 -2.4246 -0.2530
3.4127 -2.4304 -0.2581
3.4055 -2.4415 -0.2532
3.3991 -2.4492 -0.2538
5.9805 0.2108 1.4217
6.2129 0.5044 1.4493
5.8488 0.2482 0.9589
5.8096 0.2350 0.8743
4.6103 -1.1000 0.3354
4.7973 -0.8312 0.2864
4.8808 -0.6934 0.2255
4.8321 -0.7309 0.1670
5.2116 -0.1036 -0.1123
5.0946 -0.2314 -0.1701
4.7324 -0.7214 -0.1425
4.5895 -0.9009 -0.1616
4.4927 -0.9873 -0.2521
4.4211 -1.0684 -0.2810
4.2703 -1.2782 -0.2568
4.2128 -1.3444 -0.2780
4.0609 -1.5455 -0.2758
3.9956 -1.6336 -0.2715
3.9453 -1.6985 -0.2742
3.8510 -1.8252 -0.2691
3.8152 -1.8712 -0.2716
3.7733 -1.9309 -0.2619
3.7477 -1.9613 -0.2692
3.7114 -2.0145 -0.2573
3.6918 -2.0359 -0.2671
3.6674 -2.0685 -0.2663
3.6449 -2.0985 -0.2655
3.6151 -2.1463 -0.2466
3.5968 -2.1705 -0.2466
3.5669 -2.2062 -0.2546
3.5533 -2.2223 -0.2587
3.5370 -2.2464 -0.2530
3.5246 -2.2614 -0.2558
3.5121 -2.2778 -0.2560
3.5009 -2.2912 -0.2589
3.4911 -2.3016 -0.2646
3.4796 -2.3183 -0.2613
3.4689 -2.3334 -0.2589
3.4586 -2.3484 -0.2557
3.4495 -2.3604 -0.2556
3.4411 -2.3710 -0.2568
3.4320 -2.3856 -0.2511
3.4242 -2.3959 -0.2510
3.4177 -2.4013 -0.2580
3.4103 -2.4121 -0.2557
3.4036 -2.4201 -0.2574
3.3969 -2.4294 -0.2563
3.3910 -2.4353 -0.2607
6.0814 0.3684 1.7125
5.9635 0.4637 1.1838
5.8460 0.3549 1.0719
5.7669 0.3284 0.9011
4.4022 -1.3175 0.3795
5.0653 -0.2487 0.0847
5.1370 -0.1045 -0.0054
5.1329 -0.0691 -0.0892
5.0965 -0.0813 -0.1675
4.5004 -0.9301 -0.1310
4.5117 -0.8802 -0.2004
4.5086 -0.8519 -0.2670
4.3932 -1.0088 -0.2751
4.2637 -1.1950 -0.2632
4.1786 -1.3117 -0.2672
4.0469 -1.4894 -0.2792
3.9263 -1.6607 -0.2728
3.8296 -1.7999 -0.2637
3.7589 -1.8984 -0.2638
3.6934 -1.9951 -0.2526
3.6701 -2.0263 -0.2554
3.6499 -2.0517 -0.2608
3.5890 -2.1569 -0.2193
3.5750 -2.1730 -0.2264
3.5661 -2.1766 -0.2443
3.5529 -2.1917 -0.2509
3.5396 -2.2082 -0.2551
3.5267 -2.2245 -0.2584
3.5138 -2.2422 -0.2592
3.4884 -2.2801 -0.2541
3.4783 -2.2922 -0.2580
3.4674 -2.3085 -0.2557
3.4577 -2.3218 -0.2563
3.4481 -2.3357 -0.2552
3.4395 -2.3473 -0.2562
3.4312 -2.3580 -0.2576
3.4230 -2.3701 -0.2563
3.4152 -2.3814 -0.2554
3.4080 -2.3912 -0.2560
3.4009 -2.4016 -0.2550
3.3944 -2.4098 -0.2568
3.3880 -2.4186 -0.2570
3.3822 -2.4239 -0.2627
4.3329 -1.3406 0.3859
4.3560 -1.2871 0.3492
4.5600 -0.9664 0.3118
5.0662 -0.1056 0.0960
5.0314 -0.1173 0.0210
4.9966 -0.1290 -0.0540
4.9478 -0.1634 -0.1253
4.8740 -0.2394 -0.1872
4.5181 -0.7157 -0.2794
4.3832 -0.9148 -0.2794
4.1739 -1.2248 -0.2769
4.0289 -1.4370 -0.2801
3.9529 -1.5567 -0.2656
3.9061 -1.6230 -0.2708
3.8177 -1.7539 -0.2701
3.7390 -1.8759 -0.2587
3.6881 -1.9456 -0.2689
3.5934 -2.1327 -0.1795
3.5832 -2.1388 -0.1961
3.5714 -2.1497 -0.2085
3.5604 -2.1590 -0.2218
3.5536 -2.1564 -0.2455
3.5287 -2.1856 -0.2600
3.5026 -2.2227 -0.2624
3.4913 -2.2376 -0.2659
3.4678 -2.2746 -0.2614
3.4581 -2.2876 -0.2641
3.4475 -2.3057 -0.2594
3.4389 -2.3161 -0.2634
3.4291 -2.3347 -0.2558
3.4212 -2.3450 -0.2584
3.4133 -2.3566 -0.2583
3.4060 -2.3667 -0.2598
3.3986 -2.3789 -0.2573
3.3918 -2.3881 -0.2587
3.3853 -2.3979 -0.2584
3.3790 -2.4069 -0.2588
3.3730 -2.4159 -0.2586
6.1566 1.0898 1.2684
6.1425 1.1196 1.1773
4.2943 -1.3233 0.3947
4.3060 -1.2842 0.3580
4.4688 -1.0097 0.3228
4.5536 -0.8491 0.2734
5.0162 0.0111 0.0327
5.0099 0.0485 -0.0504
4.9887 0.0622 -0.1327
5.0618 0.2412 -0.2465
4.5181 -0.6676 -0.1426
4.4177 -0.8091 -0.1699
4.4410 -0.7273 -0.2496
4.3599 -0.8385 -0.2768
4.2811 -0.9498 -0.2978
4.0755 -1.2825 -0.2778
3.9948 -1.4144 -0.2675
3.9447 -1.4880 -0.2758
3.8902 -1.5746 -0.2736
3.8428 -1.6494 -0.2722
3.7732 -1.7784 -0.2366
3.7416 -1.8256 -0.2405
3.7215 -1.8475 -0.2573
3.6686 -1.9270 -0.2628
3.5741 -2.1297 -0.1661
3.5659 -2.1310 -0.1863
3.5574 -2.1095 -0.2476
3.5470 -2.1165 -0.2638
3.5140 -2.1736 -0.2540
3.5028 -2.1867 -0.2617
3.4907 -2.2044 -0.2639
3.4780 -2.2259 -0.2609
3.4667 -2.2441 -0.2602
3.4563 -2.2598 -0.2611
3.4458 -2.2777 -0.2585
3.4363 -2.2931 -0.2576
3.4275 -2.3061 -0.2588
3.4186 -2.3220 -0.2553
3.4110 -2.3318 -0.2591
3.4032 -2.3444 -0.2582
3.3961 -2.3540 -0.2608
3.3889 -2.3672 -0.2575
3.3758 -2.3881 -0.2566
3.3700 -2.3944 -0.2617
3.3642 -2.4013 -0.2653
6.3000 1.2764 1.7159
4.2282 -1.3510 0.4000
4.2922 -1.2261 0.3693
4.3914 -1.0395 0.3331
4.4918 -0.8443 0.2864
5.1354 0.5637 -0.2698
4.3425 -0.8289 -0.1423
3.9307 -1.4262 -0.2816
3.7289 -1.8102 -0.2011
3.7118 -1.8255 -0.2221
3.7049 -1.8152 -0.2577
3.6786 -1.8560 -0.2622
3.5613 -2.1097 -0.1657
3.5546 -2.1060 -0.1898
3.5644 -2.0484 -0.2572
3.5471 -2.0773 -0.2571
3.5327 -2.0977 -0.2624
3.5178 -2.1221 -0.2631
3.4888 -2.1742 -0.2566
3.4768 -2.1931 -0.2580
3.4664 -2.2070 -0.2635
3.4555 -2.2248 -0.2640
3.4440 -2.2480 -0.2573
3.4251 -2.2797 -0.2568
3.4173 -2.2882 -0.2639
3.4086 -2.3045 -0.2608
3.4003 -2.3207 -0.2567
3.3928 -2.3336 -0.2559
3.3859 -2.3434 -0.2587
3.3792 -2.3546 -0.2587
3.3664 -2.3782 -0.2547
3.3606 -2.3846 -0.2599
3.3549 -2.3947 -0.2588
4.1140 -1.4856 0.4283
4.1743 -1.3645 0.4058
4.3449 -1.0233 0.3439
4.4256 -0.8515 0.2990
5.1200 0.7438 -0.2650
4.2757 -0.7971 -0.1826
4.0393 -1.1473 -0.2824
3.9031 -1.3923 -0.2744
3.6989 -1.8126 -0.1826
3.7038 -1.7694 -0.2350
3.6865 -1.7860 -0.2560
3.6559 -1.8424 -0.2520
3.5469 -2.0937 -0.1622
3.5435 -2.0779 -0.1951
3.5470 -2.0360 -0.2494
3.5341 -2.0510 -0.2609
3.5026 -2.1086 -0.2577
3.4761 -2.1551 -0.2577
3.4652 -2.1711 -0.2626
