ply
format ascii 1.0
element vertex 2108
property float x
property float y
property float z
end_header
2.3804 -3.8096 -0.2544
2.4020 -3.8008 -0.2532
2.4224 -3.7941 -0.2535
2.4418 -3.7895 -0.2553
2.4623 -3.7828 -0.2556
2.4828 -3.7762 -0.2559
2.5033 -3.7695 -0.2562
2.5238 -3.7628 -0.2565
2.5467 -3.7492 -0.2516
2.5663 -3.7445 -0.2534
2.5867 -3.7379 -0.2537
2.6067 -3.7322 -0.2547
2.6266 -3.7275 -0.2565
2.6470 -3.7208 -0.2568
2.6692 -3.7057 -0.2505
2.6890 -3.7010 -0.2523
2.7090 -3.6962 -0.2540
2.7297 -3.6859 -0.2514
2.7498 -3.6811 -0.2532
2.7704 -3.6683 -0.2483
2.7904 -3.6635 -0.2501
2.8508 -3.6464 -0.2532
2.8710 -3.6390 -0.2527
2.8916 -3.6366 -0.2567
2.9113 -3.6258 -0.2533
2.9327 -3.6258 -0.2596
2.9521 -3.6151 -0.2562
2.9699 -3.5988 -0.2475
2.9921 -3.6003 -0.2553
3.0102 -3.5874 -0.2496
3.0322 -3.5863 -0.2551
3.0511 -3.5767 -0.2524
3.0736 -3.5754 -0.2579
3.0909 -3.5628 -0.2523
3.1121 -3.5585 -0.2548
3.1351 -3.5571 -0.2603
3.1523 -3.5454 -0.2554
3.1691 -3.5338 -0.2505
3.1915 -3.5308 -0.2545
3.2137 -3.5271 -0.2578
3.2300 -3.5157 -0.2529
3.2528 -3.5126 -0.2569
3.2687 -3.5013 -0.2520
3.3285 -3.4818 -0.2528
3.3512 -3.4778 -0.2561
3.3749 -3.4745 -0.2602
3.3897 -3.4635 -0.2552
3.4556 -3.4481 -0.2614
3.4740 -3.4404 -0.2602
3.4941 -3.4338 -0.2605
3.5077 -3.4232 -0.2555
3.5296 -3.4179 -0.2573
3.5515 -3.4125 -0.2591
3.5665 -3.4032 -0.2556
2.5614 -3.7716 -0.2484
2.5826 -3.7638 -0.2480
2.7092 -3.7145 -0.2434
2.7508 -3.6974 -0.2412
2.7713 -3.6925 -0.2429
2.7919 -3.6858 -0.2432
2.8331 -3.6706 -0.2424
2.9155 -3.6454 -0.2451
2.9362 -3.6387 -0.2454
2.9573 -3.6344 -0.2478
2.9784 -3.6293 -0.2495
2.9987 -3.6209 -0.2484
3.0392 -3.6050 -0.2469
3.0608 -3.6006 -0.2493
3.1018 -3.5864 -0.2492
3.1228 -3.5804 -0.2503
3.1669 -3.5713 -0.2552
3.1835 -3.5579 -0.2490
3.2041 -3.5512 -0.2493
3.2220 -3.5409 -0.2460
3.2442 -3.5364 -0.2485
3.2671 -3.5324 -0.2517
3.2896 -3.5277 -0.2541
3.3084 -3.5189 -0.2523
3.3310 -3.5142 -0.2548
3.3497 -3.5054 -0.2529
3.3690 -3.4974 -0.2518
3.3896 -3.4907 -0.2521
3.4117 -3.4852 -0.2538
3.4324 -3.4785 -0.2541
3.4514 -3.4705 -0.2530
3.4737 -3.4650 -0.2547
3.4891 -3.4546 -0.2507
3.5132 -3.4503 -0.2539
3.5301 -3.4413 -0.2513
3.5525 -3.4357 -0.2530
3.5751 -3.4301 -0.2548
3.5937 -3.4223 -0.2536
3.6163 -3.4167 -0.2554
3.6348 -3.4089 -0.2543
3.6575 -3.4032 -0.2560
3.6781 -3.3965 -0.2563
3.6964 -3.3887 -0.2552
3.7147 -3.3810 -0.2540
2.3507 -3.8857 -0.2542
2.3718 -3.8806 -0.2559
2.3949 -3.8713 -0.2548
2.4160 -3.8662 -0.2565
2.4409 -3.8527 -0.2528
2.4629 -3.8456 -0.2531
2.4841 -3.8404 -0.2548
2.5068 -3.8312 -0.2538
2.5288 -3.8240 -0.2541
2.5508 -3.8168 -0.2544
2.5722 -3.8116 -0.2561
2.5943 -3.8044 -0.2564
2.6177 -3.7914 -0.2526
2.6396 -3.7843 -0.2530
2.6615 -3.7772 -0.2533
2.6831 -3.7719 -0.2550
2.7045 -3.7685 -0.2580
2.7267 -3.7594 -0.2570
2.7489 -3.7504 -0.2560
2.7928 -3.7343 -0.2552
2.8147 -3.7236 -0.2528
2.8364 -3.7165 -0.2531
2.8586 -3.7164 -0.2589
2.8798 -3.7006 -0.2524
2.9020 -3.6969 -0.2555
2.9233 -3.6864 -0.2530
2.9667 -3.6722 -0.2537
2.9910 -3.6749 -0.2623
3.0125 -3.6661 -0.2612
3.0329 -3.6541 -0.2574
3.0548 -3.6470 -0.2577
3.0760 -3.6383 -0.2567
3.0953 -3.6258 -0.2522
3.1405 -3.6155 -0.2563
3.1631 -3.6099 -0.2580
3.1830 -3.5998 -0.2555
3.2004 -3.5861 -0.2496
3.2218 -3.5791 -0.2499
3.2464 -3.5764 -0.2544
3.2708 -3.5729 -0.2582
3.2925 -3.5658 -0.2585
3.3130 -3.5574 -0.2574
3.3347 -3.5503 -0.2578
3.3617 -3.5486 -0.2636
3.3794 -3.5375 -0.2598
3.4026 -3.5317 -0.2615
3.4229 -3.5233 -0.2604
3.4446 -3.5162 -0.2608
3.4607 -3.5047 -0.2562
3.4847 -3.4995 -0.2586
3.5021 -3.4894 -0.2554
3.5254 -3.4836 -0.2571
3.5804 -3.4567 -0.2511
3.6250 -3.4440 -0.2531
3.6566 -3.4425 -0.2605
3.6740 -3.4333 -0.2580
3.6998 -3.4284 -0.2611
3.7214 -3.4214 -0.2614
3.7407 -3.4133 -0.2603
2.4937 -3.8797 -0.2589
2.5433 -3.8537 -0.2524
2.7048 -3.7884 -0.2456
2.7503 -3.7654 -0.2403
2.8837 -3.7237 -0.2436
3.0827 -3.6552 -0.2439
3.1048 -3.6479 -0.2442
3.1262 -3.6392 -0.2432
3.1515 -3.6381 -0.2489
3.1695 -3.6232 -0.2426
3.1952 -3.6220 -0.2482
3.2208 -3.6199 -0.2532
3.2367 -3.6031 -0.2449
3.2620 -3.6002 -0.2492
3.2764 -3.5830 -0.2402
3.3030 -3.5815 -0.2458
3.3535 -3.5739 -0.2532
3.3759 -3.5666 -0.2535
3.3955 -3.5566 -0.2512
3.4192 -3.5507 -0.2528
3.4430 -3.5447 -0.2545
3.4653 -3.5374 -0.2548
3.4797 -3.5238 -0.2485
3.5034 -3.5178 -0.2501
3.5290 -3.5131 -0.2531
3.5512 -3.5058 -0.2535
3.5663 -3.4937 -0.2484
3.5902 -3.4877 -0.2501
3.6123 -3.4805 -0.2504
3.6383 -3.4756 -0.2534
3.6585 -3.4672 -0.2524
3.6785 -3.4589 -0.2514
3.7028 -3.4528 -0.2531
3.7249 -3.4455 -0.2534
3.7493 -3.4394 -0.2551
3.7692 -3.4311 -0.2540
3.7960 -3.4259 -0.2571
2.3407 -3.9655 -0.2534
2.3646 -3.9577 -0.2538
2.3876 -3.9520 -0.2554
2.4103 -3.9473 -0.2576
2.4344 -3.9395 -0.2580
2.4604 -3.9264 -0.2552
2.4844 -3.9186 -0.2556
2.5090 -3.9088 -0.2547
2.5329 -3.9010 -0.2550
2.5568 -3.8932 -0.2554
2.5796 -3.8893 -0.2582
2.6046 -3.8776 -0.2561
2.6276 -3.8737 -0.2589
2.6532 -3.8572 -0.2536
2.6784 -3.8408 -0.2483
2.7008 -3.8416 -0.2543
2.7245 -3.8339 -0.2547
2.7481 -3.8280 -0.2563
2.7721 -3.8184 -0.2554
2.7958 -3.8106 -0.2557
2.8196 -3.8074 -0.2592
2.8432 -3.7906 -0.2533
2.8663 -3.7750 -0.2479
2.8903 -3.7735 -0.2527
2.9136 -3.7640 -0.2518
2.9377 -3.7598 -0.2547
2.9613 -3.7521 -0.2550
2.9842 -3.7410 -0.2528
3.0057 -3.7258 -0.2475
3.0300 -3.7215 -0.2503
3.0553 -3.7196 -0.2551
3.0777 -3.7087 -0.2529
3.1012 -3.7010 -0.2533
3.1285 -3.7020 -0.2607
3.1522 -3.6943 -0.2610
3.1740 -3.6827 -0.2582
3.1959 -3.6719 -0.2560
3.2185 -3.6627 -0.2550
3.2483 -3.6647 -0.2637
3.2711 -3.6555 -0.2628
3.3146 -3.6349 -0.2590
3.3370 -3.6258 -0.2580
3.3630 -3.6209 -0.2610
3.3841 -3.6105 -0.2587
3.4089 -3.6041 -0.2604
3.4388 -3.6026 -0.2665
3.4597 -3.5921 -0.2643
3.4797 -3.5811 -0.2614
3.5032 -3.5734 -0.2618
3.5268 -3.5657 -0.2621
3.5504 -3.5580 -0.2625
3.5663 -3.5446 -0.2570
3.5914 -3.5383 -0.2586
3.6148 -3.5306 -0.2590
3.6326 -3.5194 -0.2555
3.7023 -3.4966 -0.2565
3.7255 -3.4890 -0.2568
3.7455 -3.4798 -0.2552
3.7687 -3.4722 -0.2556
3.7896 -3.4636 -0.2546
3.8104 -3.4550 -0.2537
2.4705 -3.9714 -0.2583
2.6748 -3.8855 -0.2486
2.7011 -3.8641 -0.2405
2.7980 -3.8298 -0.2401
2.8221 -3.8173 -0.2375
2.8462 -3.8122 -0.2396
2.9666 -3.7729 -0.2414
2.9920 -3.7710 -0.2460
3.1592 -3.7100 -0.2443
3.1841 -3.7037 -0.2458
3.3048 -3.6643 -0.2476
3.3278 -3.6550 -0.2467
3.3501 -3.6450 -0.2453
3.3772 -3.6407 -0.2487
3.4013 -3.6328 -0.2490
3.4254 -3.6250 -0.2494
3.4496 -3.6171 -0.2498
3.4737 -3.6092 -0.2501
3.5038 -3.6067 -0.2554
3.5243 -3.5954 -0.2527
3.5525 -3.5908 -0.2561
3.5785 -3.5841 -0.2577
3.5944 -3.5698 -0.2519
3.6212 -3.5638 -0.2541
3.6426 -3.5541 -0.2526
3.6714 -3.5492 -0.2561
3.6909 -3.5383 -0.2533
3.7101 -3.5275 -0.2506
3.7300 -3.5173 -0.2485
3.7539 -3.5095 -0.2488
3.7799 -3.5028 -0.2504
3.8039 -3.4950 -0.2508
3.8301 -3.4883 -0.2524
3.8541 -3.4805 -0.2527
3.8816 -3.4742 -0.2549
2.3272 -4.0634 -0.2543
2.3549 -4.0516 -0.2530
2.3810 -4.0431 -0.2534
2.4059 -4.0377 -0.2555
2.4321 -4.0291 -0.2559
2.4605 -4.0144 -0.2528
2.4866 -4.0058 -0.2532
2.5127 -3.9973 -0.2536
2.5387 -3.9888 -0.2540
2.5648 -3.9803 -0.2544
2.5902 -3.9748 -0.2565
2.6163 -3.9663 -0.2569
2.6435 -3.9519 -0.2538
2.6695 -3.9434 -0.2542
2.6958 -3.9320 -0.2529
2.7219 -3.9217 -0.2521
2.7473 -3.9208 -0.2571
2.7733 -3.9123 -0.2575
2.7995 -3.8963 -0.2532
2.8516 -3.8895 -0.2604
2.8774 -3.8755 -0.2573
2.9029 -3.8626 -0.2548
2.9290 -3.8559 -0.2563
2.9558 -3.8527 -0.2602
2.9776 -3.8226 -0.2460
3.0057 -3.8263 -0.2545
3.0581 -3.8119 -0.2571
3.0839 -3.8035 -0.2574
3.1098 -3.7951 -0.2578
3.1873 -3.7697 -0.2590
3.2095 -3.7542 -0.2541
3.2364 -3.7482 -0.2562
3.2607 -3.7375 -0.2548
3.2878 -3.7314 -0.2570
3.3135 -3.7230 -0.2574
3.3649 -3.7063 -0.2581
3.3942 -3.7022 -0.2620
3.4182 -3.6916 -0.2606
3.4472 -3.6868 -0.2640
3.4717 -3.6769 -0.2632
3.4976 -3.6685 -0.2636
3.5271 -3.6635 -0.2669
3.5531 -3.6550 -0.2673
3.5728 -3.6412 -0.2629
3.5962 -3.6308 -0.2615
3.6285 -3.6276 -0.2666
3.6570 -3.6210 -0.2688
3.6732 -3.6056 -0.2627
3.6916 -3.5922 -0.2583
3.7171 -3.5839 -0.2587
3.7397 -3.5738 -0.2573
3.7631 -3.5643 -0.2565
3.7936 -3.5590 -0.2598
3.8076 -3.5443 -0.2537
3.8274 -3.5332 -0.2511
3.8524 -3.5250 -0.2515
3.8809 -3.5185 -0.2536
3.9060 -3.5103 -0.2540
2.4157 -4.0888 -0.2566
2.4443 -4.0767 -0.2554
2.4718 -4.0677 -0.2558
3.0910 -3.8237 -0.2401
3.1157 -3.8110 -0.2377
3.1741 -3.8078 -0.2480
3.1961 -3.7894 -0.2417
3.2224 -3.7809 -0.2421
3.2647 -3.7466 -0.2306
3.2958 -3.7467 -0.2371
3.3538 -3.7380 -0.2440
3.3772 -3.7257 -0.2416
3.4034 -3.7171 -0.2420
3.4295 -3.7086 -0.2424
3.4628 -3.7080 -0.2489
3.4872 -3.6972 -0.2476
3.5178 -3.6928 -0.2514
3.5465 -3.6862 -0.2535
3.5708 -3.6755 -0.2522
3.5997 -3.6688 -0.2543
3.6239 -3.6582 -0.2530
3.6504 -3.6495 -0.2534
3.6769 -3.6409 -0.2537
3.7034 -3.6322 -0.2541
3.7244 -3.6198 -0.2511
3.7508 -3.6112 -0.2515
3.8065 -3.5958 -0.2540
3.8299 -3.5854 -0.2527
3.8478 -3.5721 -0.2486
3.8708 -3.5618 -0.2472
3.8968 -3.5533 -0.2476
3.9263 -3.5464 -0.2497
3.9524 -3.5379 -0.2501
2.3115 -4.1807 -0.2549
2.3417 -4.1680 -0.2538
2.3694 -4.1618 -0.2558
2.3983 -4.1523 -0.2562
2.4298 -4.1355 -0.2530
2.4595 -4.1230 -0.2518
2.4894 -4.1095 -0.2502
2.5169 -4.1042 -0.2527
2.5448 -4.0979 -0.2547
2.5736 -4.0885 -0.2551
2.6024 -4.0791 -0.2555
2.6300 -4.0767 -0.2596
2.6594 -4.0643 -0.2585
2.6882 -4.0549 -0.2589
2.7171 -4.0454 -0.2593
2.7460 -4.0360 -0.2597
2.7749 -4.0266 -0.2602
2.8324 -3.9975 -0.2553
2.8610 -3.9882 -0.2557
2.8899 -3.9825 -0.2582
2.9185 -3.9731 -0.2586
2.9467 -3.9602 -0.2569
3.0325 -3.9322 -0.2582
3.0597 -3.9177 -0.2555
3.0881 -3.9084 -0.2559
3.1165 -3.8991 -0.2563
3.1450 -3.8898 -0.2567
3.1993 -3.8656 -0.2539
3.2275 -3.8563 -0.2543
3.2491 -3.8343 -0.2462
3.2853 -3.8403 -0.2567
3.3169 -3.8365 -0.2608
3.3390 -3.8171 -0.2544
3.3724 -3.8156 -0.2601
3.4024 -3.8086 -0.2621
3.4292 -3.7971 -0.2609
3.4552 -3.7848 -0.2592
3.4836 -3.7756 -0.2596
3.5099 -3.7642 -0.2585
3.5361 -3.7528 -0.2573
3.5685 -3.7478 -0.2609
3.5998 -3.7414 -0.2634
3.6282 -3.7321 -0.2639
3.6566 -3.7228 -0.2643
3.6818 -3.7109 -0.2626
3.7135 -3.7043 -0.2651
3.7419 -3.6950 -0.2655
3.7641 -3.6812 -0.2622
3.7951 -3.6739 -0.2642
3.8205 -3.6628 -0.2630
3.8488 -3.6535 -0.2635
3.8840 -3.6486 -0.2676
3.9022 -3.6333 -0.2627
3.9167 -3.6164 -0.2561
3.9646 -3.5942 -0.2531
3.9922 -3.5852 -0.2535
4.0198 -3.5762 -0.2539
2.3473 -4.2362 -0.2569
2.3734 -4.2390 -0.2632
2.4071 -4.2204 -0.2598
2.4404 -4.2020 -0.2563
3.3533 -3.8426 -0.2374
3.3805 -3.8309 -0.2363
3.4130 -3.8269 -0.2403
3.4454 -3.8220 -0.2438
3.4708 -3.8080 -0.2412
3.5103 -3.8112 -0.2502
3.5285 -3.7892 -0.2420
3.5663 -3.7891 -0.2490
3.5905 -3.7746 -0.2459
3.6247 -3.7701 -0.2499
3.6539 -3.7605 -0.2503
3.6808 -3.7489 -0.2492
3.7124 -3.7414 -0.2512
3.7391 -3.7299 -0.2501
3.7682 -3.7204 -0.2505
3.7973 -3.7109 -0.2510
3.8200 -3.6968 -0.2478
3.8518 -3.6893 -0.2498
3.8809 -3.6798 -0.2502
3.9099 -3.6703 -0.2506
3.9328 -3.6572 -0.2480
3.9648 -3.6496 -0.2500
3.9937 -3.6401 -0.2504
4.0227 -3.6307 -0.2508
4.0596 -3.6253 -0.2548
4.0887 -3.6158 -0.2553
2.2574 -4.3413 -0.2575
2.2882 -4.3351 -0.2598
2.3259 -4.3104 -0.2542
2.3582 -4.2998 -0.2547
2.3932 -4.2808 -0.2515
2.4268 -4.2651 -0.2496
2.4572 -4.2599 -0.2524
2.4881 -4.2536 -0.2547
2.5202 -4.2431 -0.2552
2.5551 -4.2194 -0.2496
2.5861 -4.2130 -0.2520
2.6193 -4.1946 -0.2487
2.6492 -4.1972 -0.2552
2.6817 -4.1818 -0.2534
2.7146 -4.1597 -0.2482
2.7461 -4.1494 -0.2487
2.7776 -4.1429 -0.2510
2.8092 -4.1326 -0.2515
2.8410 -4.1298 -0.2557
2.8729 -4.1194 -0.2562
2.9048 -4.1090 -0.2567
2.9362 -4.0949 -0.2552
2.9692 -4.0928 -0.2600
2.9998 -4.0742 -0.2562
3.0315 -4.0638 -0.2567
3.0625 -4.0499 -0.2552
3.0960 -4.0466 -0.2595
3.1279 -4.0362 -0.2600
3.1574 -4.0189 -0.2566
3.1932 -4.0197 -0.2633
3.2207 -3.9983 -0.2576
3.2524 -3.9879 -0.2580
3.2840 -3.9776 -0.2585
3.3191 -3.9738 -0.2628
3.3491 -3.9602 -0.2614
3.3828 -3.9530 -0.2637
3.4087 -3.9331 -0.2585
3.4360 -3.9166 -0.2551
3.4718 -3.9125 -0.2594
3.5056 -3.9053 -0.2618
3.5349 -3.8919 -0.2603
3.5614 -3.8756 -0.2570
3.5980 -3.8713 -0.2613
3.6350 -3.8669 -0.2656
3.6611 -3.8507 -0.2622
3.6926 -3.8404 -0.2627
3.7272 -3.8329 -0.2651
3.7621 -3.8254 -0.2675
3.7873 -3.8095 -0.2641
3.8087 -3.7911 -0.2587
3.8469 -3.7863 -0.2631
3.8819 -3.7786 -0.2655
3.9172 -3.7709 -0.2679
3.9526 -3.7632 -0.2703
3.9883 -3.7553 -0.2727
4.0332 -3.7531 -0.2795
4.0654 -3.7426 -0.2799
4.0797 -3.7217 -0.2721
4.1121 -3.6844 -0.2595
4.1568 -3.6813 -0.2658
4.1928 -3.6733 -0.2682
2.1839 -4.4643 -0.2647
2.2120 -4.4695 -0.2718
2.2558 -4.4360 -0.2635
2.3581 -4.3181 -0.2260
2.3847 -4.3257 -0.2339
2.4382 -4.3486 -0.2534
2.4709 -4.3428 -0.2561
2.6075 -4.2982 -0.2581
2.7125 -4.2322 -0.2450
2.7458 -4.2213 -0.2455
3.2043 -4.0495 -0.2421
3.3261 -3.9896 -0.2345
3.3618 -3.9857 -0.2386
3.3860 -3.9614 -0.2314
3.4244 -3.9614 -0.2378
3.4566 -3.9509 -0.2383
3.4911 -3.9435 -0.2405
3.5263 -3.9368 -0.2433
3.5557 -3.9224 -0.2415
3.5937 -3.9186 -0.2460
3.6263 -3.9080 -0.2465
3.6499 -3.8878 -0.2411
3.6886 -3.8838 -0.2457
3.7306 -3.8825 -0.2521
3.7565 -3.8655 -0.2485
3.7891 -3.8548 -0.2489
3.8143 -3.8380 -0.2453
3.8508 -3.8308 -0.2481
3.8946 -3.8290 -0.2545
3.9229 -3.8150 -0.2527
3.9556 -3.8043 -0.2532
3.9882 -3.7937 -0.2537
4.0209 -3.7830 -0.2541
4.0495 -3.7698 -0.2528
4.1842 -3.7297 -0.2565
4.2078 -3.7143 -0.2533
4.2344 -3.7008 -0.2515
2.1598 -4.5387 -0.2531
2.1963 -4.5268 -0.2536
2.2484 -4.4740 -0.2390
2.3056 -4.4020 -0.2169
2.3484 -4.3648 -0.2075
2.3620 -4.4166 -0.2319
2.3801 -4.4620 -0.2543
2.4164 -4.4501 -0.2548
2.4543 -4.4319 -0.2529
2.5277 -4.4031 -0.2519
2.5628 -4.3965 -0.2545
2.6007 -4.3735 -0.2504
2.6358 -4.3679 -0.2535
2.6740 -4.3350 -0.2453
2.7802 -4.3101 -0.2510
2.8159 -4.3091 -0.2561
2.8519 -4.2973 -0.2566
2.8880 -4.2855 -0.2572
2.9235 -4.2681 -0.2552
2.9594 -4.2564 -0.2557
2.9953 -4.2447 -0.2563
3.0311 -4.2330 -0.2568
3.0681 -4.2267 -0.2598
3.1029 -4.2096 -0.2579
3.1387 -4.1979 -0.2584
3.1746 -4.1862 -0.2589
3.2105 -4.1745 -0.2594
3.2498 -4.1723 -0.2646
3.2805 -4.1468 -0.2584
3.3084 -4.1173 -0.2501
3.3396 -4.0974 -0.2464
3.3787 -4.0943 -0.2511
3.4162 -4.0870 -0.2537
3.4544 -4.0803 -0.2568
3.4924 -4.0728 -0.2594
3.5221 -4.0524 -0.2553
3.5636 -4.0495 -0.2605
3.5869 -4.0216 -0.2521
3.6250 -4.0140 -0.2547
3.6736 -4.0184 -0.2642
3.7126 -4.0105 -0.2669
3.7381 -3.9877 -0.2610
3.7693 -3.9717 -0.2590
3.7897 -3.9457 -0.2509
3.8322 -3.9415 -0.2557
3.8712 -3.9336 -0.2584
3.9155 -3.9298 -0.2636
3.9637 -3.9286 -0.2706
3.9952 -3.9135 -0.2690
4.0354 -3.9052 -0.2716
4.0713 -3.8935 -0.2722
4.1129 -3.8857 -0.2753
4.1489 -3.8739 -0.2758
4.1739 -3.8551 -0.2716
4.2044 -3.8403 -0.2700
4.2347 -3.8256 -0.2683
4.2702 -3.8140 -0.2689
4.3056 -3.8024 -0.2694
4.3286 -3.7843 -0.2651
4.3579 -3.7699 -0.2635
2.2272 -4.5490 -0.2257
2.3587 -4.5579 -0.2483
2.3883 -4.5785 -0.2608
2.4696 -4.5402 -0.2573
2.5085 -4.5275 -0.2579
2.5487 -4.5076 -0.2558
2.5903 -4.4764 -0.2494
2.6270 -4.4761 -0.2546
2.7811 -4.4385 -0.2619
3.6684 -4.0737 -0.2450
3.7085 -4.0655 -0.2476
3.7422 -4.0496 -0.2461
3.7639 -4.0211 -0.2379
3.8160 -4.0255 -0.2472
3.8529 -4.0135 -0.2478
3.9092 -3.9736 -0.2400
3.9546 -3.9696 -0.2450
3.9954 -3.9611 -0.2475
4.0375 -3.9533 -0.2505
4.0789 -3.9446 -0.2530
4.1159 -3.9325 -0.2536
4.1482 -3.9171 -0.2521
4.1792 -3.9011 -0.2502
4.2048 -3.8820 -0.2463
4.2526 -3.8772 -0.2513
4.2894 -3.8652 -0.2519
4.3141 -3.8463 -0.2479
4.3450 -3.8314 -0.2464
4.3996 -3.8292 -0.2535
4.4176 -3.8077 -0.2475
2.4142 -4.6476 -0.2457
2.4569 -4.6268 -0.2438
2.4992 -4.6061 -0.2419
2.5361 -4.6148 -0.2500
2.5784 -4.5941 -0.2481
2.6185 -4.5878 -0.2512
2.6713 -4.4555 -0.2095
2.7422 -4.5475 -0.2531
2.7831 -4.5479 -0.2588
2.8245 -4.5068 -0.2492
2.8649 -4.4799 -0.2447
2.9062 -4.4802 -0.2504
2.9483 -4.4802 -0.2561
2.9887 -4.4601 -0.2542
3.0278 -4.4336 -0.2497
3.0696 -4.4268 -0.2528
3.1118 -4.4199 -0.2560
3.1956 -4.3995 -0.2598
3.2387 -4.3923 -0.2629
3.2780 -4.3726 -0.2610
3.3170 -4.3530 -0.2590
3.3556 -4.3335 -0.2571
3.3991 -4.3262 -0.2602
3.4486 -4.3307 -0.2686
3.4811 -4.2994 -0.2614
3.5093 -4.2626 -0.2517
3.5564 -4.2610 -0.2575
3.6042 -4.2592 -0.2633
3.6453 -4.2458 -0.2639
3.6902 -4.2380 -0.2671
3.7397 -4.2356 -0.2729
3.7770 -4.2166 -0.2709
3.8049 -4.1868 -0.2637
3.8317 -4.1574 -0.2565
3.8629 -4.1344 -0.2522
3.9079 -4.1266 -0.2554
3.9526 -4.1179 -0.2583
3.9983 -4.1099 -0.2615
4.0179 -4.0779 -0.2523
4.0685 -4.0742 -0.2578
4.1257 -4.0752 -0.2659
4.1373 -4.0389 -0.2541
4.1889 -4.0349 -0.2596
4.2411 -4.0306 -0.2651
4.2951 -4.0268 -0.2709
4.3290 -4.0088 -0.2689
4.3626 -3.9910 -0.2669
4.3822 -3.9649 -0.2599
4.4361 -3.9601 -0.2654
4.4917 -3.9557 -0.2713
4.5166 -3.9338 -0.2666
4.5650 -3.9249 -0.2698
4.5515 -3.8840 -0.2529
2.4859 -4.7079 -0.2293
2.5327 -4.6708 -0.2226
2.5886 -4.5622 -0.1928
2.6763 -4.4533 -0.1669
2.6944 -4.7281 -0.2623
2.7394 -4.7214 -0.2657
2.7849 -4.7065 -0.2663
2.8303 -4.6838 -0.2643
2.8753 -4.6602 -0.2620
2.9204 -4.6454 -0.2626
3.5917 -4.3251 -0.2383
3.9780 -4.2060 -0.2463
4.0040 -4.1756 -0.2393
4.1120 -4.1701 -0.2510
4.1806 -4.1785 -0.2624
4.2310 -4.1700 -0.2659
4.2831 -4.1143 -0.2535
4.2977 -4.0798 -0.2436
4.3474 -4.0715 -0.2471
4.3608 -4.0383 -0.2375
4.4885 -4.0393 -0.2539
4.5161 -4.0164 -0.2496
4.5341 -3.9887 -0.2424
4.5757 -3.9751 -0.2430
4.6851 -3.9980 -0.2645
4.7471 -3.9936 -0.2708
4.7906 -3.9794 -0.2714
2.0497 -5.0991 -0.2523
2.0989 -5.0830 -0.2530
2.1481 -5.0670 -0.2537
2.2404 -4.9068 -0.2149
2.3668 -4.6016 -0.1351
2.4690 -4.4702 -0.1063
2.5013 -4.4766 -0.1120
2.5278 -4.5190 -0.1282
2.5408 -4.6587 -0.1729
2.5955 -4.5529 -0.1465
2.6334 -4.5535 -0.1511
2.6925 -4.8403 -0.2466
2.7400 -4.8348 -0.2504
2.7880 -4.8281 -0.2539
2.8361 -4.7933 -0.2487
2.8852 -4.8063 -0.2584
2.9244 -4.6495 -0.2145
2.9732 -4.6766 -0.2285
3.0289 -4.7404 -0.2547
3.0771 -4.7247 -0.2554
3.1252 -4.7090 -0.2561
3.1734 -4.6933 -0.2568
3.2216 -4.6775 -0.2575
3.2697 -4.6618 -0.2582
3.3126 -4.6288 -0.2530
3.3545 -4.5962 -0.2477
3.4016 -4.5808 -0.2484
3.4524 -4.5742 -0.2523
3.5067 -4.5745 -0.2587
3.5509 -4.5510 -0.2565
3.6025 -4.5432 -0.2601
3.6462 -4.5199 -0.2579
3.6938 -4.5044 -0.2586
3.7415 -4.4888 -0.2593
3.7940 -4.4807 -0.2629
3.8419 -4.4650 -0.2636
3.8845 -4.4422 -0.2615
3.9321 -4.4266 -0.2622
3.9798 -4.4110 -0.2629
4.0335 -4.4025 -0.2664
4.0814 -4.3869 -0.2671
4.1162 -4.3575 -0.2621
4.1636 -4.3420 -0.2628
4.2110 -4.3266 -0.2635
4.2504 -4.3037 -0.2610
4.2900 -4.2818 -0.2588
4.3447 -4.2729 -0.2624
4.3839 -4.2511 -0.2602
4.5110 -4.1486 -0.2432
4.6184 -4.1746 -0.2636
4.7040 -4.1836 -0.2764
4.7519 -4.1680 -0.2771
4.7592 -4.1286 -0.2657
4.7757 -4.0962 -0.2576
4.8634 -4.1036 -0.2700
4.9105 -4.0882 -0.2707
4.9251 -4.0565 -0.2626
1.9476 -5.4111 -0.2748
2.0037 -5.3928 -0.2757
2.0691 -5.3452 -0.2693
2.1407 -5.2725 -0.2565
2.5064 -4.4798 -0.0733
2.6411 -4.5306 -0.1018
3.0025 -4.9428 -0.2557
3.0527 -4.9042 -0.2502
3.3142 -4.8189 -0.2541
3.4187 -4.7847 -0.2556
3.6469 -4.7566 -0.2720
3.6951 -4.7288 -0.2693
4.3506 -4.4685 -0.2660
4.3677 -4.4195 -0.2541
4.4186 -4.4029 -0.2549
4.6737 -4.3751 -0.2742
4.7554 -4.3252 -0.2689
4.7846 -4.2935 -0.2631
4.8032 -4.2562 -0.2546
4.8309 -4.2260 -0.2491
4.8157 -4.1715 -0.2322
4.8526 -4.1494 -0.2299
4.8797 -4.1224 -0.2253
5.0180 -4.1549 -0.2491
2.0370 -5.4809 -0.2399
2.0953 -5.4619 -0.2408
2.1451 -5.4741 -0.2487
2.2118 -5.4238 -0.2425
2.6071 -4.5461 -0.0600
2.6376 -4.6093 -0.0789
2.6721 -4.6702 -0.0975
2.7458 -4.9742 -0.1811
2.7962 -5.0380 -0.2021
2.8501 -5.0570 -0.2121
2.9081 -5.1275 -0.2354
2.9619 -5.0703 -0.2262
3.0198 -5.0778 -0.2337
3.0760 -5.0595 -0.2346
3.1464 -5.1330 -0.2599
3.1953 -5.0612 -0.2465
3.2551 -5.0548 -0.2507
3.3159 -5.0492 -0.2552
3.3738 -5.0303 -0.2561
3.4317 -5.0114 -0.2569
3.4896 -4.9925 -0.2578
3.5338 -4.9365 -0.2480
3.5906 -4.9179 -0.2488
3.6528 -4.9118 -0.2533
3.7553 -4.8509 -0.2479
3.8179 -4.8437 -0.2522
3.8683 -4.8141 -0.2496
3.9388 -4.8185 -0.2575
3.9812 -4.7772 -0.2513
4.0302 -4.7480 -0.2487
4.0785 -4.7190 -0.2461
4.1757 -4.7543 -0.2644
4.2156 -4.7139 -0.2580
4.3003 -4.7279 -0.2698
4.3392 -4.6878 -0.2634
4.4059 -4.6792 -0.2678
4.4535 -4.6505 -0.2651
4.4392 -4.5627 -0.2417
4.4745 -4.5268 -0.2361
4.5286 -4.5091 -0.2369
4.5932 -4.5002 -0.2409
4.8344 -4.5678 -0.2812
4.8794 -4.5389 -0.2783
4.9237 -4.5102 -0.2754
4.9543 -4.4728 -0.2690
4.9978 -4.4454 -0.2663
5.0133 -4.4007 -0.2565
5.0558 -4.3746 -0.2541
5.1385 -4.3730 -0.2617
4.8687 -4.1685 -0.1841
4.8313 -4.1056 -0.1647
4.8988 -4.1018 -0.1703
1.7892 -5.9272 -0.2548
1.8705 -5.8628 -0.2476
1.9238 -5.8833 -0.2568
2.0089 -5.7992 -0.2455
2.0854 -5.7373 -0.2384
2.1858 -5.5705 -0.2099
2.6269 -5.2914 -0.1863
2.7469 -5.1191 -0.1583
2.8009 -5.1793 -0.1765
2.8606 -5.3185 -0.2128
2.9226 -5.3300 -0.2208
2.9753 -5.1920 -0.1946
3.0350 -5.1868 -0.1987
3.1883 -5.3773 -0.2547
3.3110 -5.3025 -0.2487
3.3790 -5.2977 -0.2536
3.4390 -5.2607 -0.2506
3.4935 -5.2091 -0.2439
3.7073 -5.2079 -0.2624
3.7589 -5.1563 -0.2554
3.8868 -5.1145 -0.2573
3.9352 -5.0649 -0.2504
3.9819 -5.0159 -0.2436
4.0614 -5.0237 -0.2523
4.1427 -5.0310 -0.2610
4.2263 -5.0385 -0.2700
4.2912 -5.0173 -0.2710
4.3239 -4.9544 -0.2598
4.3874 -4.9337 -0.2608
4.4145 -4.7805 -0.2289
4.4853 -4.7728 -0.2334
4.5340 -4.7415 -0.2307
4.7425 -4.7851 -0.2587
4.8321 -4.7886 -0.2673
4.9104 -4.7804 -0.2724
4.9448 -4.7354 -0.2653
5.0540 -4.7509 -0.2784
5.1184 -4.7299 -0.2793
5.1020 -4.6503 -0.2601
5.1492 -4.6195 -0.2574
5.1627 -4.5670 -0.2469
5.3509 -4.5691 -0.2638
5.3113 -4.4878 -0.2422
5.3881 -4.4781 -0.2468
5.2859 -4.3681 -0.2132
1.5844 -6.3627 -0.2517
1.6703 -6.3100 -0.2482
1.7717 -6.2057 -0.2357
1.8048 -6.3156 -0.2598
1.8656 -6.3473 -0.2708
2.1424 -5.7938 -0.1843
2.1998 -5.8132 -0.1926
2.2789 -5.7306 -0.1827
2.5710 -4.6140 0.0127
2.6095 -5.6041 -0.1840
2.6768 -5.5461 -0.1779
2.7455 -5.3741 -0.1497
2.8061 -5.3543 -0.1505
2.8671 -5.3509 -0.1547
2.9915 -5.3423 -0.1628
3.0533 -5.3221 -0.1637
3.2336 -5.6387 -0.2398
3.2976 -5.5755 -0.2325
3.3995 -5.6980 -0.2644
3.4288 -5.4904 -0.2261
3.6097 -5.5830 -0.2585
3.6898 -5.5795 -0.2641
3.7128 -5.4183 -0.2344
3.7826 -5.3956 -0.2354
3.8371 -5.3375 -0.2283
3.9946 -5.5038 -0.2732
4.0198 -5.3821 -0.2514
4.5250 -5.1130 -0.2385
4.5417 -5.0291 -0.2234
4.9830 -5.1120 -0.2743
4.9869 -5.0241 -0.2574
4.9897 -4.9407 -0.2413
5.1277 -4.9782 -0.2595
5.2348 -4.9855 -0.2694
5.3460 -4.9935 -0.2797
5.1924 -4.7982 -0.2294
5.4287 -4.9005 -0.2680
5.6311 -4.9696 -0.2974
5.6591 -4.9140 -0.2887
5.5158 -4.7494 -0.2453
5.5835 -4.7272 -0.2463
5.6946 -4.7312 -0.2558
5.5010 -4.5561 -0.2063
5.4369 -4.4646 -0.1834
5.5692 -4.4843 -0.1976
5.5213 -4.4071 -0.1788
1.6316 -6.2733 -0.1588
1.5682 -6.8845 -0.2572
1.7205 -6.6435 -0.2273
1.7561 -6.7899 -0.2544
1.8347 -6.7975 -0.2611
2.2283 -5.7293 -0.1089
2.5369 -5.7824 -0.1393
2.5960 -5.8900 -0.1615
2.6713 -5.8009 -0.1518
2.8122 -5.4524 -0.1030
2.8757 -5.4650 -0.1095
2.9467 -5.5894 -0.1354
3.0015 -5.4073 -0.1086
3.0563 -5.3073 -0.0956
3.1298 -5.3820 -0.1133
3.2772 -5.8838 -0.2080
3.3593 -5.8830 -0.2135
3.4760 -5.6713 -0.1861
3.5619 -5.6911 -0.1954
3.7751 -5.8283 -0.2333
3.7340 -5.4748 -0.1710
3.8049 -5.4517 -0.1720
3.9187 -5.5268 -0.1926
4.0119 -5.5442 -0.2020
4.0972 -5.5402 -0.2073
4.1728 -5.5156 -0.2084
4.6265 -5.3675 -0.2151
4.8876 -5.3321 -0.2274
5.0200 -5.3669 -0.2425
5.5566 -5.0888 -0.2331
5.6093 -5.0467 -0.2297
5.7584 -5.0739 -0.2446
5.9910 -4.9980 -0.2481
5.7449 -4.7758 -0.1935
5.4779 -4.5002 -0.1286
5.4182 -4.4147 -0.1100
5.4761 -4.3958 -0.1109
2.6035 -4.4636 0.1157
2.6398 -4.4455 0.1160
2.8808 -5.4309 -0.0379
3.0015 -5.3433 -0.0329
3.5885 -5.7791 -0.1302
3.6513 -5.7083 -0.1240
3.6978 -5.5978 -0.1112
3.7411 -5.4936 -0.0991
3.8359 -5.5297 -0.1100
3.8666 -5.4097 -0.0949
3.9279 -5.3687 -0.0929
4.1606 -5.6709 -0.1497
4.4603 -5.8673 -0.1958
4.5631 -5.8663 -0.2019
4.6162 -5.7850 -0.1936
4.6841 -5.7314 -0.1902
4.8919 -5.7265 -0.2021
5.1549 -5.9192 -0.2454
5.2994 -5.9496 -0.2585
5.4779 -6.0128 -0.2783
5.4625 -5.8576 -0.2554
5.3473 -5.6103 -0.2134
5.3157 -5.4646 -0.1909
5.6294 -5.6554 -0.2370
5.5568 -5.4780 -0.2075
5.6170 -5.0667 -0.1531
5.3203 -4.7770 -0.0941
5.4234 -4.7811 -0.1009
5.7004 -4.8980 -0.1343
5.7964 -4.8897 -0.1390
5.6238 -4.7157 -0.1039
5.4666 -4.5062 -0.0647
2.5605 -4.2180 0.1833
2.5834 -4.2401 0.1796
2.6148 -4.4177 0.1576
2.6759 -4.4727 0.1481
2.7128 -4.4490 0.1489
2.9899 -5.1436 0.0547
3.1254 -5.2883 0.0310
3.6605 -6.0296 -0.0821
3.8356 -5.7476 -0.0589
3.9071 -5.5048 -0.0347
3.9435 -5.4054 -0.0252
4.0229 -5.4016 -0.0289
4.6248 -5.8077 -0.1070
4.7280 -5.8056 -0.1121
4.7372 -5.5335 -0.0814
5.5358 -6.2458 -0.2049
5.5462 -6.1052 -0.1893
5.6161 -6.0391 -0.1853
5.6243 -5.9119 -0.1712
5.6903 -5.8503 -0.1675
6.0009 -5.5611 -0.1506
6.3733 -5.7497 -0.1917
6.4323 -5.6883 -0.1877
6.4912 -5.6290 -0.1840
5.5566 -4.8166 -0.0419
5.6467 -4.8083 -0.0457
5.7590 -4.8127 -0.0520
5.6149 -4.6624 -0.0273
5.6400 -4.6184 -0.0235
2.5537 -4.2734 0.2086
2.5821 -4.2716 0.2075
2.5893 -4.4053 0.1953
2.6889 -4.3781 0.1934
2.7885 -4.4020 0.1869
2.8843 -5.1819 0.1136
2.9934 -5.1324 0.1132
3.0525 -5.1535 0.1088
3.1491 -5.4324 0.0798
3.9607 -6.6984 -0.0679
3.9046 -6.2011 -0.0213
3.8611 -5.8156 0.0147
3.9804 -5.8904 0.0029
4.0403 -5.8134 0.0071
3.9683 -5.4616 0.0414
4.0204 -5.4010 0.0445
4.1004 -5.3973 0.0414
4.2249 -5.4693 0.0295
4.3223 -5.4853 0.0238
4.4638 -5.5657 0.0105
4.6021 -5.6300 -0.0012
5.2234 -6.0311 -0.0639
5.3995 -6.0969 -0.0775
5.4689 -6.0317 -0.0747
5.5962 -6.0327 -0.0804
5.7304 -5.9060 -0.0750
6.5861 -5.9339 -0.1149
6.4817 -5.7437 -0.0934
6.6206 -5.7408 -0.0993
6.2695 -5.3951 -0.0533
5.8591 -4.8891 0.0095
5.4964 -4.5482 0.0556
0.9819 -8.3329 0.0396
2.5359 -4.7797 0.2082
3.0058 -5.2271 0.1634
3.0611 -5.1952 0.1635
3.1533 -5.4328 0.1453
3.7450 -6.3150 0.0689
3.7192 -5.9132 0.0951
3.8336 -5.5267 0.1154
3.9396 -5.5842 0.1080
4.0560 -5.4766 0.1107
4.1173 -5.4341 0.1112
4.1779 -5.3929 0.1116
4.2483 -5.3699 0.1106
4.4303 -5.5215 0.0946
4.5059 -5.4968 0.0935
4.5387 -5.4122 0.0977
5.0905 -5.8758 0.0490
5.3815 -6.0892 0.0253
5.4512 -6.0258 0.0269
5.5475 -5.9943 0.0254
5.6734 -5.9939 0.0210
5.8030 -5.9945 0.0164
6.6400 -5.9954 -0.0132
6.5719 -5.8302 -0.0004
6.5107 -5.6799 0.0112
6.0311 -5.2453 0.0555
5.8919 -4.9951 0.0761
5.6441 -4.7687 0.0991
5.6281 -4.6968 0.1042
5.5025 -4.5643 0.1170
1.6453 -5.9439 0.2316
0.9704 -8.4330 0.1565
2.5270 -4.8771 0.2478
2.5710 -4.8627 0.2471
2.6187 -4.8137 0.2477
2.7532 -4.6328 0.2508
2.7929 -4.6339 0.2497
2.8331 -4.6272 0.2489
2.8745 -4.6439 0.2472
2.9473 -5.1412 0.2265
3.0116 -5.2422 0.2210
3.0684 -5.2236 0.2202
3.6063 -5.8130 0.1835
3.8331 -5.5264 0.1881
3.9035 -5.5034 0.1871
4.1467 -5.6625 0.1746
4.1773 -5.5521 0.1779
4.1850 -5.4115 0.1829
4.3754 -5.5878 0.1712
4.4795 -5.6067 0.1677
4.9335 -5.6883 0.1523
5.4762 -6.2178 0.1178
5.5469 -6.1505 0.1184
5.5860 -6.0514 0.1211
5.7145 -6.0526 0.1175
6.6951 -6.0583 0.0908
6.6248 -5.8893 0.0991
5.6456 -4.8484 0.1646
5.6151 -4.7020 0.1709
5.6206 -4.6462 0.1729
5.5511 -4.5502 0.1783
2.5393 -4.8362 0.2929
2.5973 -4.7021 0.2934
2.7179 -4.6485 0.2918
2.7571 -4.6499 0.2911
2.7971 -4.6303 0.2906
2.8369 -4.6173 0.2900
2.9552 -5.1938 0.2805
3.0113 -5.1896 0.2795
3.0664 -5.1716 0.2787
3.5884 -5.7424 0.2617
4.0705 -5.5144 0.2555
4.2306 -5.6577 0.2507
4.3324 -5.5235 0.2504
4.4456 -5.5615 0.2478
4.5499 -5.5796 0.2456
5.0015 -5.7865 0.2345
5.4294 -6.1750 0.2216
5.5570 -6.1768 0.2192
5.6564 -6.1443 0.2177
5.5482 -5.8917 0.2229
5.8832 -5.2542 0.2246
5.6262 -4.9175 0.2336
5.5454 -4.6722 0.2382
5.5148 -4.5963 0.2397
5.4872 -4.5260 0.2411
5.5286 -4.4972 0.2407
1.0783 -7.9551 0.3897
2.3287 -5.8908 0.3512
2.7215 -4.6668 0.3321
2.7609 -4.6682 0.3317
2.8010 -4.6551 0.3311
2.9599 -5.1954 0.3359
3.0193 -5.2308 0.3357
3.5912 -6.0555 0.3395
3.6086 -5.8068 0.3363
3.6297 -5.6117 0.3337
3.6928 -5.5692 0.3325
3.8715 -5.6236 0.3312
3.8845 -5.4639 0.3292
3.9528 -5.4416 0.3281
4.0585 -5.4947 0.3276
4.3681 -5.9224 0.3295
4.4671 -5.6032 0.3245
4.5289 -5.5568 0.3233
5.0306 -5.8353 0.3213
5.3842 -6.1336 0.3211
5.5084 -6.1347 0.3197
5.6057 -6.1029 0.3183
5.6432 -6.0075 0.3167
5.8003 -6.0394 0.3154
5.8646 -5.1733 0.3042
5.5308 -4.8652 0.3041
5.5976 -4.8434 0.3031
5.5147 -4.6658 0.3018
5.5031 -4.6017 0.3012
5.4762 -4.5317 0.3006
1.4892 -6.8251 0.4542
2.5031 -5.1744 0.3911
2.7649 -4.6788 0.3723
2.8049 -4.6878 0.3725
3.5418 -5.8508 0.4128
3.5907 -5.7367 0.4085
3.6368 -5.6301 0.4045
3.7549 -5.5265 0.4003
3.8545 -5.5822 0.4021
3.8998 -5.5013 0.3990
3.9432 -5.4243 0.3961
4.3223 -5.6732 0.4040
4.4084 -5.5183 0.3982
4.4816 -5.4944 0.3971
4.6121 -5.5521 0.3988
4.7193 -5.5701 0.3991
4.9587 -5.7543 0.4052
5.3670 -6.1260 0.4175
5.5182 -6.1604 0.4183
5.6461 -6.1628 0.4181
5.7760 -6.1645 0.4177
5.9089 -6.1663 0.4174
5.8124 -5.9398 0.4095
5.8746 -5.8787 0.4070
6.0103 -5.3791 0.3885
5.7975 -5.1398 0.3804
5.7515 -5.0314 0.3765
5.4870 -4.7825 0.3682
5.3889 -4.6569 0.3639
5.4154 -4.6163 0.3624
5.4404 -4.5761 0.3609
5.4481 -4.5273 0.3590
5.5057 -4.5085 0.3582
2.7694 -4.6749 0.4121
2.8092 -4.6619 0.4115
3.5676 -5.9422 0.4926
3.8141 -5.6852 0.4783
3.8380 -5.5419 0.4697
3.9148 -5.5380 0.4699
3.9581 -5.4594 0.4653
4.4440 -6.0781 0.5051
4.7394 -6.0516 0.5049
4.8080 -5.9937 0.5018
4.7141 -5.7068 0.4840
4.9031 -5.8294 0.4923
5.0069 -5.8277 0.4927
5.3503 -6.1187 0.5120
5.4719 -6.1201 0.5127
5.6560 -6.1888 0.5177
5.8186 -6.2257 0.5208
5.9191 -6.1929 0.5193
5.9512 -6.0925 0.5134
6.0147 -6.0273 0.5098
6.0784 -5.4458 0.4750
5.7826 -5.0671 0.4506
5.6954 -4.9356 0.4423
5.5574 -4.7786 0.4321
5.5644 -4.7219 0.4287
5.5332 -4.6444 0.4239
5.5637 -4.5534 0.4185
2.4825 -4.6517 0.4459
2.5057 -4.7157 0.4516
3.5690 -5.9376 0.5676
3.8136 -5.6833 0.5494
3.8525 -5.5789 0.5411
3.9053 -5.5181 0.5367
3.8785 -5.2908 0.5172
4.5005 -6.1916 0.6007
4.6248 -6.2259 0.6052
4.6941 -5.9886 0.5861
5.1956 -6.2386 0.6135
5.1918 -6.0789 0.6000
5.4692 -6.2791 0.6203
5.5379 -6.2119 0.6156
5.6967 -6.2495 0.6207
5.8287 -6.2523 0.6226
6.0595 -6.0864 0.6116
5.4164 -5.2831 0.5360
5.6448 -5.1337 0.5263
5.8628 -5.1374 0.5294
5.7458 -4.9833 0.5150
5.6437 -4.8477 0.5023
5.5335 -4.7148 0.4898
2.5689 -4.8327 0.5032
2.8172 -4.6829 0.4921
4.0514 -7.3320 0.8013
3.7719 -5.7914 0.6304
3.7756 -5.5807 0.6078
3.8439 -5.5584 0.6068
3.8222 -5.3279 0.5817
3.8564 -5.2458 0.5735
4.5095 -6.2151 0.6907
5.5896 -6.6091 0.7549
5.9057 -6.2109 0.7185
6.0051 -6.1784 0.7171
6.1046 -6.1460 0.7156
6.1318 -6.0470 0.7055
6.0571 -5.8630 0.6843
5.7355 -5.4804 0.6367
6.6184 -5.8882 0.6983
5.8452 -5.1394 0.6024
5.6871 -4.9568 0.5796
5.6145 -4.7789 0.5590
5.6589 -4.7463 0.5564
0.9597 -8.6193 0.9921
4.1743 -7.3251 0.9127
3.7870 -5.8332 0.7077
3.8442 -5.7646 0.7003
3.8665 -5.6156 0.6815
3.8015 -5.2818 0.6363
3.8767 -5.2925 0.6397
4.5022 -6.2076 0.7762
4.5731 -6.1482 0.7705
4.5148 -5.8735 0.7331
4.6587 -5.7959 0.7270
5.4603 -6.2951 0.8142
5.8182 -6.1352 0.8033
5.9146 -6.1038 0.8019
6.0443 -6.1045 0.8056
6.1416 -6.0728 0.8041
6.3135 -6.1074 0.8134
6.3746 -6.0421 0.8066
6.6052 -5.7933 0.7806
5.7164 -4.9902 0.6514
5.6570 -4.8826 0.6357
5.6807 -4.8340 0.6301
5.8545 -4.8805 0.6409
5.8545 -4.8181 0.6328
0.9935 -8.0186 1.0151
2.7706 -5.6365 0.7134
2.8264 -4.8669 0.5977
2.8613 -4.5677 0.5532
3.1055 -5.2737 0.6697
4.0497 -6.9227 0.9549
3.8599 -5.8062 0.7776
3.8278 -5.5198 0.7327
3.8561 -5.4101 0.7169
3.9439 -5.4408 0.7247
4.4948 -6.1996 0.8600
4.9088 -6.5498 0.9281
5.9910 -6.1965 0.9121
6.0894 -6.1644 0.9107
6.0824 -6.0342 0.8905
6.2133 -6.0349 0.8952
6.3461 -6.0350 0.8999
6.4830 -6.0360 0.9048
6.1502 -5.6593 0.8356
6.6949 -5.8777 0.8881
6.5177 -5.6501 0.8471
5.8130 -5.0705 0.7337
5.7506 -4.8921 0.7043
5.8170 -4.8088 0.6939
1.0440 -7.9338 1.1014
3.1770 -5.3403 0.7375
3.8345 -5.5373 0.7999
3.8930 -5.4976 0.7954
4.0666 -5.7099 0.8399
4.3580 -6.1322 0.9263
6.1874 -6.0283 0.9857
6.3560 -6.0607 0.9985
6.5913 -6.0299 1.0031
6.5300 -5.8740 0.9732
6.4735 -5.7303 0.9456
5.5519 -4.8376 0.7501
5.6150 -4.8170 0.7492
5.8681 -4.9161 0.7773
5.8027 -4.8132 0.7565
2.7926 -4.8252 0.6711
2.8349 -4.8623 0.6805
2.8797 -4.9021 0.6906
4.0255 -6.0145 0.9668
3.9927 -5.7312 0.9093
4.0262 -5.6253 0.8901
6.2685 -6.1182 1.0985
6.3658 -6.0864 1.0971
6.5029 -6.0880 1.1042
6.6578 -5.9911 1.0928
6.6339 -5.8681 1.0673
6.8107 -5.8972 1.0818
6.8226 -5.8065 1.0645
5.7004 -4.8855 0.8272
5.6845 -4.8131 0.8122
5.8967 -4.8839 0.8367
5.8950 -4.8220 0.8244
2.8396 -4.9015 0.7302
6.8510 -6.0503 1.2091
7.0905 -6.1201 1.2380
5.7969 -4.7765 0.8705
0.8236 -5.8170 0.8809
1.7733 -4.1568 0.5473
-0.2698 -5.2196 1.0952
-0.2711 -5.1192 1.0887
-0.5033 -3.9440 1.0633
0.7396 -3.0086 0.7104
0.7900 -2.9678 0.6959
0.8004 -2.9283 0.6908
0.8690 -2.8936 0.6725
0.9245 -2.8613 0.6574
0.9522 -2.8290 0.6487
0.9526 -2.7948 0.6463
0.9533 -2.7612 0.6439
0.9664 -2.7302 0.6387
-1.4575 -2.0743 1.1590
-0.4034 -1.8232 0.8965
-0.3291 -1.8027 0.8778
-0.3666 -1.7370 0.8821
0.7288 -5.9906 0.8528
0.9177 -5.5947 0.7890
0.8775 -5.5700 0.7960
0.8586 -5.5117 0.7964
1.6182 -4.1666 0.5549
1.5472 -4.1640 0.5697
1.5477 -4.1196 0.5669
1.5648 -4.0587 0.5596
1.5778 -3.9643 0.5511
-0.3541 -5.2946 1.0390
-0.7391 -4.1086 1.0485
-1.1512 -3.2714 1.0847
-1.0416 -3.1767 1.0559
0.6890 -3.0049 0.6805
0.8463 -2.9653 0.6449
0.8557 -2.9268 0.6406
0.9324 -2.8939 0.6225
0.9465 -2.8593 0.6174
0.9610 -2.8259 0.6123
0.9422 -2.7892 0.6141
0.9438 -2.7553 0.6117
0.9128 -2.7164 0.6159
0.9011 -2.6803 0.6162
0.2009 -2.3128 0.7416
0.2360 -2.2792 0.7321
0.4600 -2.2713 0.6844
-0.3143 -1.8985 0.8252
-0.3518 -1.8328 0.8291
-0.3708 -1.7742 0.8295
0.7187 -6.0277 0.7939
1.5618 -4.1535 0.5352
1.5556 -4.1168 0.5344
1.7940 -3.7880 0.4720
0.7511 -3.0012 0.6267
0.8848 -2.9625 0.5994
0.9071 -2.9254 0.5932
0.9088 -2.8884 0.5909
0.9237 -2.8532 0.5863
0.9626 -2.8219 0.5773
0.9641 -2.7878 0.5752
0.9466 -2.7513 0.5765
0.9471 -2.7177 0.5746
0.9161 -2.6784 0.5784
0.9241 -2.6467 0.5752
0.4149 -2.4092 0.6585
0.4318 -2.3730 0.6534
0.4172 -2.3282 0.6538
0.4347 -2.2940 0.6487
0.5184 -2.2843 0.6324
-0.0070 -1.9615 0.7142
1.7333 -4.1966 0.4776
1.6300 -4.1652 0.4933
1.5598 -4.1621 0.5048
1.7088 -3.8098 0.4639
1.1682 -4.0053 0.5625
0.7385 -3.0840 0.5915
1.0250 -2.9625 0.5384
1.0007 -2.9261 0.5408
0.9386 -2.8505 0.5476
0.9656 -2.8181 0.5417
0.9539 -2.7820 0.5419
0.9422 -2.7460 0.5422
0.9498 -2.7135 0.5395
0.8994 -2.6701 0.5458
0.9328 -2.6436 0.5391
0.9275 -2.6096 0.5384
0.9284 -2.5775 0.5368
0.8720 -2.5299 0.5440
0.8189 -2.4815 0.5505
0.5527 -2.3261 0.5876
-0.3597 -1.9118 0.7198
0.3738 -2.0691 0.6054
0.8915 -2.2611 0.5284
1.7619 -4.2464 0.4475
1.7358 -4.2008 0.4495
1.6412 -4.2015 0.4630
1.6216 -4.1827 0.4651
1.5816 -4.1431 0.4693
1.5605 -4.1232 0.4715
1.4204 -3.9105 0.4834
1.1534 -4.0196 0.5257
0.7609 -3.1685 0.5491
0.9843 -2.9217 0.5077
0.9470 -2.8832 0.5115
0.9803 -2.8504 0.5055
0.9874 -2.8164 0.5032
0.9498 -2.7771 0.5071
0.9249 -2.7386 0.5091
0.8866 -2.6972 0.5130
0.9337 -2.6720 0.5053
0.9415 -2.6405 0.5030
0.9239 -2.6035 0.5041
0.9247 -2.5712 0.5027
0.9008 -2.5324 0.5046
0.8692 -2.4907 0.5076
0.8374 -2.4482 0.5105
0.7380 -2.3820 0.5221
0.6950 -2.3327 0.5264
0.8043 -2.3081 0.5098
0.8945 -2.2558 0.4949
1.5895 -4.2301 0.4396
1.5540 -4.2278 0.4438
1.5537 -4.1821 0.4424
1.1381 -4.0344 0.4875
0.6378 -3.1287 0.5194
0.6227 -3.0820 0.5198
0.6075 -3.0354 0.5201
1.0595 -2.9220 0.4626
0.9941 -2.8828 0.4692
0.9765 -2.8459 0.4702
0.9518 -2.8079 0.4719
0.9329 -2.7702 0.4731
0.8735 -2.7255 0.4788
0.8540 -2.6862 0.4799
0.8922 -2.6242 0.4734
0.8937 -2.5908 0.4722
0.8684 -2.5507 0.4740
1.6245 -4.2382 0.4041
1.6243 -4.1932 0.4031
1.5583 -4.2298 0.4103
1.5691 -4.1706 0.4079
1.1088 -4.0596 0.4495
0.6777 -3.1228 0.4691
0.5836 -3.0799 0.4771
0.6091 -3.0314 0.4736
0.5938 -2.9845 0.4739
1.0568 -2.9183 0.4280
0.9722 -2.8772 0.4351
0.9532 -2.8394 0.4361
0.9609 -2.8047 0.4345
0.9291 -2.7651 0.4367
0.8687 -2.7198 0.4414
0.7816 -2.6675 0.4486
0.8242 -2.6033 0.4430
0.7972 -2.5612 0.4446
0.7180 -2.3617 0.4476
0.7504 -2.2728 0.4424
0.7601 -2.2444 0.4408
1.6324 -4.2354 0.3715
1.6188 -4.2074 0.3721
1.5981 -4.1879 0.3733
1.5812 -4.1630 0.3741
1.5593 -4.1432 0.3754
1.0988 -4.0708 0.4075
0.7259 -3.1164 0.4196
0.5637 -3.0769 0.4307
0.5997 -3.0275 0.4273
0.5843 -2.9801 0.4277
0.9745 -2.8734 0.3979
0.9624 -2.8362 0.3982
0.9307 -2.7965 0.3999
0.5355 -2.6150 0.4256
0.4897 -2.5627 0.4281
0.4747 -2.5163 0.4284
0.4596 -2.4699 0.4288
0.4967 -2.4377 0.4256
0.5126 -2.4014 0.4239
0.5375 -2.3691 0.4216
0.6076 -2.3533 0.4163
0.6028 -2.3144 0.4161
0.7933 -2.2199 0.4009
0.8088 -2.1960 0.3994
1.6502 -4.2193 0.3384
1.6205 -4.2125 0.3397
1.5568 -4.1988 0.3427
1.5306 -4.1825 0.3438
1.4992 -4.1705 0.3452
0.6072 -3.0715 0.3796
0.6223 -3.0232 0.3785
0.6070 -2.9761 0.3789
1.0571 -2.8762 0.3566
0.9454 -2.8301 0.3616
0.9262 -2.7914 0.3622
0.4517 -2.5925 0.3834
0.4314 -2.4993 0.3837
0.4495 -2.4602 0.3825
0.3062 -2.3779 0.3888
0.2578 -2.2287 0.3899
0.4019 -2.1951 0.3828
0.4512 -2.1744 0.3803
0.5254 -2.1662 0.3766
0.5767 -2.1513 0.3741
0.5452 -2.1019 0.3752
0.5317 -2.0601 0.3755
1.3094 -5.1637 0.3139
1.2599 -5.1727 0.3151
0.8537 -5.6567 0.3244
1.5939 -4.2544 0.3076
1.4050 -4.4425 0.3120
1.4723 -4.3069 0.3104
1.4953 -4.2298 0.3099
1.4708 -4.2083 0.3105
0.6024 -4.6708 0.3306
1.1344 -4.1067 0.3184
1.0920 -4.0839 0.3194
0.5928 -3.1176 0.3314
0.6287 -3.0669 0.3306
0.6133 -3.0193 0.3310
0.5978 -2.9716 0.3314
1.0770 -2.8741 0.3202
0.9932 -2.8310 0.3222
0.9287 -2.7872 0.3237
0.8670 -2.7414 0.3252
0.4100 -2.4871 0.3359
0.4384 -2.4502 0.3353
0.1928 -2.1981 0.3411
0.3392 -2.2051 0.3377
-0.2708 -1.8800 0.3521
0.0395 -1.9108 0.3448
-0.0698 -1.8164 0.3474
1.3253 -5.0789 0.2661
1.2043 -5.1268 0.2655
1.1879 -5.0766 0.2659
1.6304 -4.2616 0.2734
1.5991 -4.2554 0.2734
1.5274 -4.2483 0.2734
1.4332 -4.3087 0.2727
0.9107 -4.5497 0.2699
0.6373 -4.7264 0.2681
1.1382 -4.1082 0.2740
1.1310 -4.0593 0.2744
1.0634 -2.8690 0.2843
0.9775 -2.8249 0.2846
0.9710 -2.7882 0.2849
0.9463 -2.7489 0.2852
0.9732 -2.7183 0.2855
0.8384 -2.6202 0.2861
0.5784 -2.5209 0.2866
0.4619 -2.4491 0.2870
-0.5922 -1.9813 0.2894
0.0663 -2.1458 0.2890
0.3276 -2.1925 0.2890
-0.3520 -1.7825 0.2914
-0.2950 -1.7543 0.2917
-0.2229 -1.7358 0.2920
1.6348 -4.2638 0.2397
1.5930 -4.2713 0.2385
1.4895 -4.3537 0.2344
1.5438 -4.2358 0.2378
1.3988 -4.3563 0.2319
1.1765 -4.5508 0.2228
0.9283 -4.3405 0.2196
1.1069 -4.1372 0.2278
1.0853 -4.0973 0.2278
-1.0088 -3.2902 0.1854
0.8325 -3.0532 0.2384
1.0232 -2.8974 0.2461
1.0722 -2.8658 0.2480
0.9923 -2.8223 0.2465
0.9746 -2.7842 0.2467
0.9242 -2.6689 0.2473
0.8550 -2.6183 0.2463
0.8131 -2.5720 0.2459
0.7683 -2.5237 0.2455
-0.3967 -2.0336 0.2226
0.3188 -2.2240 0.2385
0.2283 -2.1474 0.2374
-0.4593 -1.7812 0.2251
-0.4803 -1.7163 0.2256
-0.3569 -1.7152 0.2289
-0.3187 -1.6801 0.2305
1.6362 -4.2700 0.2055
1.5940 -4.2782 0.2031
1.5449 -4.2918 0.2002
1.5448 -4.2421 0.2014
1.5132 -4.2303 0.2001
1.4170 -4.1351 0.1974
1.1035 -4.1446 0.1808
1.0887 -4.0991 0.1812
-0.7355 -4.5200 0.0755
-0.6985 -4.3967 0.0805
-1.0585 -3.2879 0.0893
0.8612 -3.0062 0.1965
0.9089 -2.9652 0.2000
0.9999 -2.9293 0.2057
1.0203 -2.8933 0.2076
1.0810 -2.8627 0.2116
1.0149 -2.8206 0.2092
0.9771 -2.7799 0.2082
0.9716 -2.7434 0.2088
0.9185 -2.6983 0.2072
0.8556 -2.6494 0.2051
0.8358 -2.6082 0.2051
0.8299 -2.5702 0.2057
0.7947 -2.5246 0.2050
0.7002 -2.4607 0.2017
-0.1464 -2.1595 0.1650
-0.2404 -2.0743 0.1622
0.1643 -2.1612 0.1812
-0.3598 -1.9206 0.1598
-0.6500 -1.7517 0.1488
-0.6973 -1.6718 0.1484
-0.3416 -1.7098 0.1660
-0.2119 -1.7174 0.1726
1.5950 -4.2850 0.1672
1.5687 -4.2695 0.1656
1.5497 -4.2436 0.1650
1.5344 -4.2127 0.1648
1.5104 -4.1911 0.1637
1.4727 -4.1832 0.1610
1.4004 -4.2091 0.1545
1.3564 -4.2013 0.1513
1.3053 -4.1976 0.1475
1.2197 -4.2220 0.1400
1.1724 -4.2072 0.1368
1.0549 -4.2477 0.1262
1.0063 -4.2258 0.1232
-0.4352 -5.0150 -0.0157
-0.5857 -4.6658 -0.0158
-0.5223 -4.5273 -0.0063
-0.6457 -4.4810 -0.0144
-0.7735 -4.3230 -0.0191
-0.8393 -4.2415 -0.0215
-0.8702 -4.1462 -0.0208
0.8211 -3.0465 0.1480
0.9673 -3.0025 0.1609
0.9757 -2.9630 0.1628
0.9899 -2.9249 0.1652
0.9904 -2.8871 0.1665
1.0536 -2.8560 0.1725
1.0240 -2.8173 0.1715
1.0176 -2.7811 0.1722
0.8277 -2.6380 0.1621
0.8077 -2.5959 0.1619
0.8095 -2.5591 0.1633
0.7813 -2.5146 0.1626
0.7516 -2.4691 0.1618
-0.4285 -2.0606 0.0832
-0.4945 -1.9786 0.0808
-1.0457 -1.5831 0.0509
-0.9216 -1.5659 0.0612
-0.6534 -1.6165 0.0804
1.6148 -4.3166 0.1316
1.5815 -4.3114 0.1283
1.5543 -4.2960 0.1262
1.5509 -4.2498 0.1277
1.5187 -4.2384 0.1248
1.3121 -4.2519 0.1027
-0.5611 -4.5495 -0.1052
-0.6890 -4.5034 -0.1167
-0.7539 -4.4237 -0.1201
-0.7503 -4.3147 -0.1152
-0.7809 -4.2204 -0.1144
-0.8115 -4.1261 -0.1137
0.8782 -2.9152 0.1133
1.0331 -2.8140 0.1337
0.8880 -2.6821 0.1241
0.8150 -2.6296 0.1187
0.7526 -2.5771 0.1144
0.7562 -2.5393 0.1163
0.8365 -2.5236 0.1254
0.7536 -2.4631 0.1192
-0.5962 -1.9324 0.0006
-0.7682 -1.6787 -0.0068
-0.6383 -1.6695 0.0072
-0.3906 -1.7174 0.0310
1.2622 -4.4889 0.0402
1.1185 -4.5851 0.0165
1.2995 -4.2713 0.0560
-0.4829 -5.1778 -0.2232
-0.5139 -5.0825 -0.2225
-0.4785 -4.6168 -0.1943
-0.5386 -4.5415 -0.1984
-0.6995 -4.5107 -0.2179
-0.7304 -4.4154 -0.2171
-0.7614 -4.3200 -0.2164
-0.7923 -4.2247 -0.2156
-0.8582 -4.1411 -0.2200
-0.8895 -4.0448 -0.2193
-0.5895 -3.8585 -0.1706
-0.7984 -3.5249 -0.1811
-0.8949 -3.4438 -0.1897
-1.1479 -3.3747 -0.2193
0.8245 -2.9081 0.0626
0.8824 -2.8704 0.0721
0.9713 -2.8018 0.0872
0.9587 -2.7631 0.0875
0.9250 -2.7207 0.0852
0.8149 -2.6625 0.0737
0.6155 -2.5806 0.0518
0.6301 -2.5416 0.0556
0.8163 -2.5117 0.0815
0.7475 -2.4545 0.0754
-0.7862 -1.8551 -0.0952
-0.8963 -1.7484 -0.1043
-0.8078 -1.7144 -0.0910
-0.6731 -1.7032 -0.0728
-0.6453 -1.6532 -0.0666
-0.5961 -1.6145 -0.0582
-0.5938 -1.5570 -0.0550
1.1420 -4.9233 -0.0527
1.0380 -4.9842 -0.0727
0.9519 -5.0138 -0.0881
0.8912 -5.0062 -0.0972
1.1469 -4.6305 -0.0346
1.1836 -4.5224 -0.0224
1.2695 -4.3673 0.0004
0.8760 -4.4851 -0.0688
0.6625 -4.5934 -0.1089
-0.2003 -4.9836 -0.2683
-0.3105 -4.9520 -0.2839
-0.2569 -4.8093 -0.2669
-0.3687 -4.7726 -0.2824
-0.3135 -4.6351 -0.2656
-0.3143 -4.5333 -0.2596
-0.2885 -4.4202 -0.2489
-0.2383 -4.2995 -0.2338
-0.3710 -4.1661 -0.2469
-0.3985 -4.0814 -0.2462
-0.3988 -3.9876 -0.2407
-0.3986 -3.8954 -0.2352
-0.3213 -3.6974 -0.2113
-0.2975 -3.6074 -0.2022
-0.3474 -3.5337 -0.2057
-0.6956 -2.9805 -0.2279
0.0534 -2.9222 -0.1061
0.8051 -2.8596 0.0163
0.2728 -2.7070 -0.0587
0.2961 -2.6573 -0.0521
0.5121 -2.6432 -0.0171
0.5717 -2.6086 -0.0057
0.5136 -2.5516 -0.0115
0.5622 -2.5185 -0.0018
0.6823 -2.5071 0.0178
0.7208 -2.4781 0.0256
0.7739 -2.4558 0.0353
-0.9716 -1.7777 -0.2003
-1.3779 -1.5580 -0.2514
-1.3318 -1.4982 -0.2406
-0.9574 -1.5744 -0.1860
-0.6533 -1.6362 -0.1416
-0.7274 -1.5426 -0.1478
-0.6492 -1.5176 -0.1339
-0.6472 -1.4596 -0.1302
0.7685 -5.9563 -0.2482
0.9896 -5.4979 -0.1760
0.9144 -5.5210 -0.1915
0.9274 -5.4081 -0.1814
0.6616 -5.6936 -0.2502
0.8404 -5.3470 -0.1934
0.8436 -5.2517 -0.1863
0.9031 -5.0881 -0.1641
1.1516 -4.6348 -0.0872
1.1658 -4.5511 -0.0789
1.2613 -4.3838 -0.0498
1.3026 -4.2819 -0.0352
1.2579 -4.2685 -0.0425
0.6387 -4.6207 -0.1813
0.3944 -4.7368 -0.2345
0.2464 -4.7615 -0.2636
0.3135 -4.6214 -0.2416
0.2903 -4.5499 -0.2411
0.3201 -4.4443 -0.2284
0.3147 -4.3640 -0.2239
0.2922 -4.2947 -0.2233
0.2697 -4.2254 -0.2228
0.2116 -4.1739 -0.2300
0.2247 -4.0869 -0.2217
0.2022 -4.0176 -0.2211
0.1614 -3.9555 -0.2245
0.0815 -3.9066 -0.2360
0.0779 -3.8286 -0.2313
0.0548 -3.7577 -0.2307
0.0318 -3.6867 -0.2302
0.0088 -3.6158 -0.2296
-0.0345 -3.5492 -0.2331
-0.0373 -3.4740 -0.2285
-0.0603 -3.4030 -0.2279
-0.0625 -3.3295 -0.2233
-0.0853 -3.2592 -0.2228
-0.1294 -3.1903 -0.2262
-0.1310 -3.1184 -0.2216
-0.0932 -3.0470 -0.2098
-0.0181 -2.9791 -0.1912
0.6668 -2.8898 -0.0582
0.8073 -2.8550 -0.0298
0.2401 -2.6416 -0.1204
0.3840 -2.6137 -0.0918
0.5624 -2.6002 -0.0578
0.5145 -2.5448 -0.0629
0.5424 -2.5067 -0.0552
0.6931 -2.5032 -0.0270
0.7564 -2.4816 -0.0138
0.7679 -2.4472 -0.0093
0.7209 -2.3946 -0.0144
-0.6819 -1.4881 -0.2127
1.1811 -4.7497 -0.1437
1.2022 -4.6536 -0.1317
1.2294 -4.5541 -0.1183
1.3179 -4.3905 -0.0868
1.3775 -4.2676 -0.0646
1.3748 -4.2152 -0.0611
1.3724 -4.1635 -0.0577
1.3088 -4.1698 -0.0717
1.2648 -4.1543 -0.0799
1.2244 -4.0774 -0.0826
0.5081 -4.4872 -0.2668
0.4565 -4.4420 -0.2744
0.3873 -4.4059 -0.2863
0.4286 -4.2991 -0.2693
0.2759 -3.3485 -0.2285
0.2399 -3.2882 -0.2315
0.2037 -3.2271 -0.2345
0.7189 -2.9815 -0.1058
0.7782 -2.9366 -0.0897
0.8157 -2.8941 -0.0784
0.8425 -2.8533 -0.0695
0.8614 -2.8136 -0.0625
0.8712 -2.7742 -0.0573
0.5424 -2.5895 -0.1131
0.5797 -2.5526 -0.1024
0.5743 -2.5074 -0.1000
0.6770 -2.4920 -0.0770
0.7418 -2.4706 -0.0615
0.7702 -2.4411 -0.0532
0.7394 -2.3935 -0.0561
0.1667 -2.0103 -0.1485
0.3199 -2.0305 -0.1174
0.4540 -2.0485 -0.0903
1.2279 -5.2338 -0.2290
1.1255 -5.3169 -0.2609
1.1240 -5.0675 -0.2397
1.1568 -4.9425 -0.2210
1.2100 -4.7958 -0.1955
1.2584 -4.6626 -0.1724
1.2632 -4.5895 -0.1649
1.3880 -4.3779 -0.1165
1.3959 -4.3112 -0.1089
1.3771 -4.2753 -0.1103
1.3521 -4.2453 -0.1137
1.3500 -4.1917 -0.1096
1.3849 -4.1046 -0.0937
0.9572 -4.3655 -0.2194
0.9496 -4.3042 -0.2160
0.9225 -4.2585 -0.2185
0.9340 -4.1840 -0.2094
0.7989 -4.1443 -0.2385
0.7586 -4.1020 -0.2446
0.7403 -4.0455 -0.2441
0.7445 -3.9769 -0.2372
0.7150 -3.9269 -0.2400
0.6968 -3.8707 -0.2395
0.6670 -3.8196 -0.2423
0.6487 -3.7632 -0.2419
0.6303 -3.7067 -0.2414
0.6240 -3.6463 -0.2378
0.5816 -3.5974 -0.2438
0.5875 -3.5340 -0.2369
0.5693 -3.4779 -0.2364
0.5749 -3.4168 -0.2298
0.5329 -3.3657 -0.2355
0.4758 -3.3154 -0.2450
0.5337 -3.2489 -0.2253
0.6324 -3.1829 -0.1957
0.5348 -3.1362 -0.2153
0.5645 -3.0803 -0.2033
0.5696 -3.0271 -0.1975
0.4943 -2.9740 -0.2110
0.8995 -2.8949 -0.1065
0.9234 -2.8557 -0.0973
0.8867 -2.8115 -0.1023
0.8815 -2.7705 -0.1001
0.9130 -2.7359 -0.0895
0.8618 -2.6880 -0.0977
0.6659 -2.6083 -0.1381
0.6013 -2.5507 -0.1487
0.6070 -2.5086 -0.1437
0.6779 -2.4853 -0.1246
0.7771 -2.4741 -0.0997
0.7124 -2.4158 -0.1103
0.1321 -2.1310 -0.2257
0.0360 -2.0454 -0.2415
0.0336 -1.9940 -0.2377
0.0774 -1.9627 -0.2244
0.1482 -1.9455 -0.2058
0.2527 -1.9471 -0.1808
0.3119 -1.9318 -0.1652
0.3903 -1.9289 -0.1460
1.4023 -4.5511 -0.1755
1.4309 -4.4524 -0.1584
1.4678 -4.3480 -0.1384
1.4350 -4.3310 -0.1457
1.2152 -4.4577 -0.2171
1.2845 -4.2629 -0.1798
1.4311 -4.0167 -0.1167
1.0339 -4.2417 -0.2454
1.0425 -4.1716 -0.2364
1.0671 -4.0918 -0.2221
1.0431 -4.0488 -0.2245
0.9679 -4.0384 -0.2438
0.9106 -3.8308 -0.2394
0.7733 -3.3736 -0.2327
0.7570 -3.3233 -0.2323
0.7633 -3.2181 -0.2206
0.7955 -3.1645 -0.2068
0.6754 -3.0720 -0.2303
0.6893 -3.0214 -0.2218
0.6835 -2.9721 -0.2186
0.8920 -2.9324 -0.1586
0.9017 -2.8906 -0.1520
0.7888 -2.8387 -0.1775
0.6606 -2.7801 -0.2065
0.6947 -2.7390 -0.1933
0.7447 -2.7028 -0.1764
0.8161 -2.6738 -0.1543
0.9465 -2.6611 -0.1179
0.6323 -2.4656 -0.1841
0.7293 -2.4530 -0.1567
0.7411 -2.4177 -0.1501
0.6828 -2.3596 -0.1603
0.2813 -2.1288 -0.2466
0.2642 -2.0762 -0.2462
0.2471 -2.0236 -0.2458
0.2171 -1.9653 -0.2483
0.2261 -1.9245 -0.2420
0.3321 -1.8898 -0.2100
1.5354 -4.3828 -0.1663
1.5000 -4.3729 -0.1758
1.4584 -4.3684 -0.1878
1.2697 -4.4705 -0.2549
1.2478 -4.4309 -0.2573
1.2182 -4.3985 -0.2627
1.2172 -4.3366 -0.2565
1.2226 -4.2698 -0.2479
1.2728 -4.1646 -0.2218
1.1560 -4.1480 -0.2550
1.1407 -4.1008 -0.2546
1.1027 -4.0703 -0.2628
1.1019 -4.0122 -0.2569
1.1022 -3.9545 -0.2508
1.0794 -3.9122 -0.2531
1.0718 -3.8607 -0.2500
1.0403 -3.8225 -0.2554
1.0249 -3.7751 -0.2551
1.0418 -3.7126 -0.2435
1.0108 -3.6731 -0.2485
0.9627 -3.6392 -0.2594
0.9553 -3.5884 -0.2563
0.9737 -3.4783 -0.2392
0.9430 -3.4363 -0.2440
0.9195 -3.3916 -0.2463
0.9127 -3.3429 -0.2432
0.8976 -3.2963 -0.2428
0.8987 -3.2472 -0.2374
0.8760 -3.2019 -0.2394
0.8521 -3.1563 -0.2417
0.8370 -3.1096 -0.2414
0.8129 -3.0632 -0.2437
0.8067 -3.0163 -0.2406
0.9994 -2.9329 -0.1743
0.7705 -2.8769 -0.2368
0.7274 -2.8278 -0.2445
0.7309 -2.7829 -0.2388
0.7337 -2.7388 -0.2333
0.6911 -2.6880 -0.2407
0.6951 -2.6447 -0.2350
0.7437 -2.6120 -0.2170
0.8314 -2.5914 -0.1886
0.9656 -2.5875 -0.1481
0.7619 -2.4949 -0.1993
0.7823 -2.4620 -0.1897
0.8168 -2.4351 -0.1766
0.8418 -2.4070 -0.1662
0.7318 -2.3310 -0.1911
0.6375 -2.2571 -0.2115
0.5444 -2.1805 -0.2313
0.4652 -2.1066 -0.2472
0.4602 -2.0635 -0.2442
0.4448 -2.0158 -0.2438
0.4138 -1.9205 -0.2430
1.8058 -4.2495 -0.1056
1.4881 -4.5784 -0.2476
1.5666 -4.4060 -0.2021
1.5319 -4.3972 -0.2125
1.4769 -4.4122 -0.2322
1.4877 -4.3409 -0.2205
1.4602 -4.3178 -0.2269
1.3352 -4.3439 -0.2709
1.3452 -4.1599 -0.2466
1.3368 -4.1125 -0.2439
1.3266 -4.0136 -0.2359
1.2653 -4.0089 -0.2555
1.2577 -3.9608 -0.2525
1.1495 -3.4250 -0.2267
1.0615 -3.3106 -0.2424
1.0276 -3.1815 -0.2388
1.0060 -3.1396 -0.2411
0.9628 -3.0986 -0.2506
0.9656 -2.9689 -0.2348
1.0561 -2.9315 -0.2008
0.9605 -2.8858 -0.2269
0.9398 -2.8433 -0.2289
0.8794 -2.7956 -0.2432
0.8514 -2.7093 -0.2426
0.8214 -2.6631 -0.2471
