ply
format ascii 1.0
element vertex 2105
property float x
property float y
property float z
end_header
3.3020 -2.6122 -0.1188
3.3013 -2.6244 -0.1181
3.3003 -2.6369 -0.1155
3.3001 -2.6469 -0.1173
3.2997 -2.6567 -0.1186
3.2990 -2.6673 -0.1170
3.2988 -2.6762 -0.1188
3.2830 -0.8879 0.3531
3.2758 -1.3788 0.3023
3.2907 -1.0840 0.2335
3.2986 -1.0032 0.1783
3.3049 -0.9751 0.1264
3.3129 -0.9141 0.0660
3.3178 -0.9263 0.0166
3.3191 -1.0113 -0.0159
3.3219 -1.1566 -0.0780
3.3297 -1.1155 -0.1413
3.3311 -1.1815 -0.1705
3.3221 -1.4006 -0.1386
3.3193 -1.5116 -0.1391
3.3172 -1.6052 -0.1415
3.3152 -1.6892 -0.1434
3.3126 -1.7762 -0.1394
3.3080 -1.9228 -0.1322
3.3012 -2.1400 -0.1203
3.3015 -2.1676 -0.1297
3.3010 -2.2005 -0.1333
3.2984 -2.2756 -0.1262
3.2970 -2.3104 -0.1216
3.2967 -2.3349 -0.1247
3.2949 -2.3690 -0.1164
3.2946 -2.3910 -0.1188
3.2947 -2.4095 -0.1237
3.2926 -2.4409 -0.1121
3.2928 -2.4564 -0.1179
3.2929 -2.4723 -0.1222
3.2913 -2.5114 -0.1172
3.2918 -2.5230 -0.1243
3.2903 -2.5442 -0.1157
3.2900 -2.5712 -0.1189
3.2896 -2.5849 -0.1186
3.2890 -2.5989 -0.1165
3.2900 -2.6054 -0.1276
3.2889 -2.6207 -0.1210
3.2882 -2.6338 -0.1172
3.2880 -2.6445 -0.1176
3.2876 -2.6554 -0.1164
3.2877 -2.6639 -0.1197
3.2872 -2.6744 -0.1176
3.2301 -0.0282 0.4306
3.2365 -0.8740 0.3420
3.2661 -1.0150 0.0272
3.2694 -1.0742 -0.0086
3.2800 -1.0411 -0.1190
3.2837 -1.0823 -0.1587
3.2817 -1.2753 -0.1432
3.2812 -1.4082 -0.1407
3.2807 -1.5236 -0.1384
3.2809 -1.6098 -0.1431
3.2805 -1.7009 -0.1410
3.2803 -1.7788 -0.1407
3.2784 -1.9380 -0.1251
3.2786 -2.0380 -0.1294
3.2786 -2.1244 -0.1322
3.2774 -2.1786 -0.1213
3.2782 -2.2039 -0.1303
3.2775 -2.2462 -0.1236
3.2768 -2.2850 -0.1171
3.2769 -2.3117 -0.1194
3.2767 -2.3411 -0.1175
3.2767 -2.3896 -0.1188
3.2764 -2.4142 -0.1167
3.2770 -2.4301 -0.1231
3.2764 -2.4552 -0.1172
3.2760 -2.4769 -0.1138
3.2768 -2.5056 -0.1227
3.2760 -2.5274 -0.1147
3.2761 -2.5420 -0.1160
3.2763 -2.5550 -0.1188
3.2761 -2.5704 -0.1167
3.2762 -2.5828 -0.1184
3.2759 -2.5969 -0.1161
3.2763 -2.6070 -0.1202
3.2756 -2.6223 -0.1133
3.2762 -2.6302 -0.1200
3.2758 -2.6432 -0.1155
3.2758 -2.6531 -0.1166
3.2758 -2.6633 -0.1160
3.2763 -2.6706 -0.1215
3.2052 -1.1748 0.2269
3.2045 0.1063 -0.0738
3.2196 -1.0765 0.0327
3.2236 -1.0878 -0.0128
3.2280 -0.9943 -0.0874
3.2323 -1.0268 -0.1304
3.2361 -1.1149 -0.1545
3.2392 -1.2465 -0.1591
3.2412 -1.4161 -0.1424
3.2437 -1.5066 -0.1497
3.2454 -1.6196 -0.1423
3.2472 -1.7005 -0.1443
3.2486 -1.7845 -0.1404
3.2506 -1.9362 -0.1280
3.2528 -2.0420 -0.1279
3.2537 -2.0880 -0.1281
3.2543 -2.1374 -0.1231
3.2553 -2.1720 -0.1266
3.2563 -2.2025 -0.1314
3.2562 -2.2516 -0.1186
3.2569 -2.2815 -0.1196
3.2585 -2.3308 -0.1266
3.2593 -2.3843 -0.1230
3.2594 -2.4122 -0.1172
3.2604 -2.4266 -0.1253
3.2604 -2.4752 -0.1137
3.2610 -2.4908 -0.1168
3.2612 -2.5089 -0.1153
3.2617 -2.5238 -0.1171
3.2621 -2.5379 -0.1193
3.2624 -2.5529 -0.1188
3.2629 -2.5651 -0.1220
3.2628 -2.5821 -0.1159
3.2634 -2.5918 -0.1215
3.2630 -2.6088 -0.1127
3.2634 -2.6193 -0.1150
3.2639 -2.6290 -0.1180
3.2645 -2.6374 -0.1232
3.2644 -2.6496 -0.1193
3.2645 -2.6605 -0.1174
3.0253 1.3538 0.6499
3.1642 -1.3116 0.3097
3.1682 -1.3465 0.2767
3.1619 -1.0797 0.2069
3.1314 0.1522 -0.0952
3.1791 -0.9380 -0.1105
3.1844 -1.0021 -0.1450
3.1910 -1.1461 -0.1505
3.1968 -1.2800 -0.1526
3.2024 -1.4233 -0.1443
3.2069 -1.5300 -0.1440
3.2110 -1.6335 -0.1395
3.2147 -1.7455 -0.1255
3.2178 -1.7980 -0.1359
3.2206 -1.8674 -0.1345
3.2232 -1.9446 -0.1247
3.2255 -1.9982 -0.1251
3.2277 -2.0390 -0.1309
3.2296 -2.0932 -0.1251
3.2345 -2.2148 -0.1212
3.2359 -2.2472 -0.1220
3.2373 -2.2757 -0.1243
3.2383 -2.3141 -0.1155
3.2406 -2.3647 -0.1170
3.2418 -2.3830 -0.1229
3.2426 -2.4087 -0.1195
3.2437 -2.4277 -0.1220
3.2447 -2.4449 -0.1257
3.2451 -2.4720 -0.1154
3.2459 -2.4892 -0.1165
3.2467 -2.5052 -0.1178
3.2475 -2.5196 -0.1205
3.2479 -2.5385 -0.1153
3.2488 -2.5495 -0.1210
3.2495 -2.5624 -0.1230
3.2499 -2.5776 -0.1201
3.2502 -2.5937 -0.1142
3.2510 -2.6026 -0.1203
3.2513 -2.6163 -0.1166
3.2520 -2.6254 -0.1209
3.2520 -2.6403 -0.1123
3.2529 -2.6474 -0.1195
3.2535 -2.6554 -0.1239
3.0798 -0.6488 0.3958
3.0936 -0.8212 0.3538
3.1279 -1.3007 0.3011
3.1301 -1.2981 0.2641
3.1237 -1.1425 0.2065
3.1348 -1.0885 -0.0272
3.1385 -1.1006 -0.0723
3.1378 -1.0180 -0.1471
3.1469 -1.1501 -0.1553
3.1552 -1.2746 -0.1600
3.1637 -1.4117 -0.1535
3.1716 -1.5459 -0.1412
3.1824 -1.7070 -0.1472
3.1927 -1.8881 -0.1251
3.1999 -1.9951 -0.1283
3.2063 -2.1032 -0.1189
3.2111 -2.1622 -0.1345
3.2157 -2.2437 -0.1246
3.2196 -2.3052 -0.1230
3.2230 -2.3531 -0.1278
3.2245 -2.3826 -0.1219
3.2273 -2.4290 -0.1187
3.2287 -2.4462 -0.1221
3.2299 -2.4667 -0.1200
3.2311 -2.4825 -0.1229
3.2322 -2.5009 -0.1212
3.2332 -2.5188 -0.1187
3.2342 -2.5336 -0.1196
3.2352 -2.5475 -0.1210
3.2360 -2.5631 -0.1185
3.2370 -2.5731 -0.1243
3.2377 -2.5893 -0.1183
3.2385 -2.6008 -0.1197
3.2392 -2.6139 -0.1171
3.2401 -2.6225 -0.1225
3.2407 -2.6351 -0.1188
3.2413 -2.6463 -0.1171
3.2421 -2.6543 -0.1214
3.0900 -1.2458 0.2508
3.0941 -1.1579 0.0289
3.0955 -1.1450 -0.0197
3.0857 -0.9724 -0.1157
3.0940 -1.0521 -0.1432
3.1076 -1.2116 -0.1404
3.1165 -1.3072 -0.1532
3.1267 -1.4254 -0.1526
3.1378 -1.5623 -0.1381
3.1445 -1.6369 -0.1448
3.1521 -1.7267 -0.1404
3.1595 -1.8194 -0.1297
3.1650 -1.8826 -0.1302
3.1744 -1.9902 -0.1327
3.1823 -2.0790 -0.1364
3.1894 -2.1644 -0.1329
3.1931 -2.2127 -0.1228
3.1960 -2.2479 -0.1206
3.2011 -2.3079 -0.1197
3.2055 -2.3566 -0.1229
3.2078 -2.3886 -0.1140
3.2095 -2.4042 -0.1212
3.2113 -2.4241 -0.1225
3.2132 -2.4498 -0.1155
3.2146 -2.4622 -0.1236
3.2163 -2.4839 -0.1186
3.2177 -2.5016 -0.1176
3.2191 -2.5118 -0.1262
3.2205 -2.5344 -0.1155
3.2217 -2.5483 -0.1166
3.2229 -2.5618 -0.1172
3.2241 -2.5725 -0.1217
3.2252 -2.5875 -0.1178
3.2262 -2.5978 -0.1215
3.2272 -2.6109 -0.1187
3.2282 -2.6226 -0.1179
3.2291 -2.6328 -0.1190
3.2300 -2.6447 -0.1159
3.2309 -2.6533 -0.1188
2.9888 -0.8247 0.7027
3.0495 -1.2067 0.2386
3.0598 -1.2231 0.0373
3.0689 -1.2990 0.0139
3.0541 -1.1029 -0.1338
3.0667 -1.2156 -0.1448
3.0792 -1.3302 -0.1498
3.0926 -1.4570 -0.1445
3.1033 -1.5569 -0.1443
3.1137 -1.6548 -0.1399
3.1221 -1.7330 -0.1401
3.1306 -1.8146 -0.1346
3.1371 -1.8742 -0.1369
3.1443 -1.9441 -0.1300
3.1501 -1.9984 -0.1288
3.1559 -2.0545 -0.1236
3.1598 -2.0874 -0.1313
3.1681 -2.1632 -0.1340
3.1732 -2.2161 -0.1198
3.1764 -2.2446 -0.1232
3.1832 -2.3108 -0.1162
3.1907 -2.3771 -0.1249
3.1931 -2.4000 -0.1242
3.1957 -2.4263 -0.1181
3.1978 -2.4459 -0.1183
3.1998 -2.4644 -0.1186
3.2018 -2.4840 -0.1162
3.2034 -2.4966 -0.1220
3.2052 -2.5133 -0.1213
3.2069 -2.5310 -0.1176
3.2084 -2.5429 -0.1219
3.2100 -2.5593 -0.1180
3.2115 -2.5747 -0.1145
3.2128 -2.5858 -0.1173
3.2141 -2.5979 -0.1173
3.2153 -2.6099 -0.1167
3.2165 -2.6191 -0.1207
3.2177 -2.6306 -0.1192
3.2188 -2.6407 -0.1199
3.2199 -2.6506 -0.1201
3.2209 -2.6597 -0.1213
2.9497 -0.8318 0.6903
3.0141 -1.1647 0.0166
3.0226 -1.2230 -0.0125
3.0345 -1.3118 -0.0306
3.0149 -1.1333 -0.1304
3.0273 -1.2261 -0.1468
3.0419 -1.3392 -0.1515
3.0590 -1.4748 -0.1416
3.0749 -1.6015 -0.1287
3.0938 -1.7476 -0.1357
3.1023 -1.8127 -0.1379
3.1244 -1.9852 -0.1384
3.1481 -2.1728 -0.1266
3.1526 -2.2083 -0.1261
3.1575 -2.2474 -0.1204
3.1646 -2.3019 -0.1238
3.1684 -2.3330 -0.1193
3.1750 -2.3850 -0.1150
3.1771 -2.3999 -0.1228
3.1802 -2.4255 -0.1173
3.1828 -2.4460 -0.1163
3.1847 -2.4584 -0.1241
3.1874 -2.4819 -0.1167
3.1894 -2.4959 -0.1204
3.1917 -2.5156 -0.1152
3.1938 -2.5320 -0.1134
3.1954 -2.5438 -0.1175
3.1973 -2.5595 -0.1144
3.1989 -2.5709 -0.1175
3.2005 -2.5834 -0.1179
3.2019 -2.5930 -0.1225
3.2035 -2.6057 -0.1208
3.2050 -2.6188 -0.1172
3.2063 -2.6272 -0.1220
3.2076 -2.6385 -0.1200
3.2090 -2.6496 -0.1175
3.2101 -2.6570 -0.1226
2.9842 -1.2726 0.3039
2.9947 -1.3388 0.2748
2.7813 0.1617 -0.1627
2.9636 -1.0868 -0.0092
3.0097 -1.3900 -0.0536
3.0103 -1.3879 -0.0956
3.0155 -1.4177 -0.1266
3.0268 -1.4919 -0.1388
3.0563 -1.6920 -0.1289
3.0781 -1.8386 -0.1265
3.0948 -1.9505 -0.1293
3.1100 -2.0533 -0.1262
3.1280 -2.1746 -0.1254
3.1329 -2.2075 -0.1266
3.1431 -2.2766 -0.1206
3.1512 -2.3310 -0.1202
3.1580 -2.3768 -0.1224
3.1610 -2.3966 -0.1249
3.1645 -2.4200 -0.1219
3.1677 -2.4422 -0.1189
3.1758 -2.4969 -0.1166
3.1784 -2.5152 -0.1132
3.1800 -2.5244 -0.1220
3.1844 -2.5543 -0.1197
3.1864 -2.5678 -0.1194
3.1883 -2.5804 -0.1196
3.1902 -2.5940 -0.1170
3.1919 -2.6054 -0.1175
3.1934 -2.6146 -0.1212
3.1950 -2.6256 -0.1209
3.1968 -2.6383 -0.1161
3.1979 -2.6446 -0.1241
3.1992 -2.6526 -0.1278
2.9591 -1.3245 0.3007
2.6830 0.3438 -0.1341
2.7263 0.0892 -0.1609
2.8917 -0.8935 -0.1153
2.9091 -0.9953 -0.1370
2.9834 -1.4363 -0.1241
2.9941 -1.4980 -0.1404
3.0129 -1.6104 -0.1319
3.0252 -1.6827 -0.1364
3.0352 -1.7415 -0.1441
3.0501 -1.8302 -0.1332
3.0716 -1.9584 -0.1261
3.0796 -2.0056 -0.1280
3.0908 -2.0729 -0.1142
3.0940 -2.0909 -0.1308
3.1021 -2.1392 -0.1246
3.1131 -2.2041 -0.1293
3.1255 -2.2780 -0.1188
3.1323 -2.3173 -0.1327
3.1381 -2.3524 -0.1224
3.1427 -2.3801 -0.1176
3.1500 -2.4234 -0.1164
3.1554 -2.4548 -0.1244
3.1592 -2.4778 -0.1175
3.1614 -2.4904 -0.1230
3.1700 -2.5416 -0.1149
3.1714 -2.5497 -0.1239
3.1738 -2.5640 -0.1224
3.1771 -2.5842 -0.1095
3.1784 -2.5911 -0.1187
3.1806 -2.6045 -0.1153
3.1822 -2.6138 -0.1190
3.1839 -2.6241 -0.1197
3.1859 -2.6362 -0.1161
3.1874 -2.6449 -0.1187
2.2687 0.9772 0.6144
2.1684 1.2833 0.0071
2.1409 1.3740 -0.1005
2.8069 -1.1117 -0.1014
2.8599 -1.3125 -0.1281
2.9054 -1.4845 -0.1481
2.9324 -1.5851 -0.1454
2.9574 -1.6778 -0.1413
3.0391 -1.9798 -0.1159
3.0610 -2.0624 -0.1238
3.0833 -2.1454 -0.1224
3.0950 -2.1888 -0.1166
3.1049 -2.2251 -0.1140
3.1188 -2.2779 -0.1204
3.1348 -2.3369 -0.1143
3.1420 -2.3634 -0.1115
3.1472 -2.3831 -0.1146
3.1573 -2.4212 -0.1183
3.1632 -2.4428 -0.1153
3.1696 -2.4662 -0.1083
3.1721 -2.4766 -0.1173
3.1769 -2.4940 -0.1158
3.1806 -2.5083 -0.1177
3.1854 -2.5257 -0.1136
3.1886 -2.5380 -0.1165
3.1935 -2.5555 -0.1099
3.2001 -2.5801 -0.1106
3.2027 -2.5901 -0.1138
3.2061 -2.6025 -0.1118
3.2082 -2.6109 -0.1167
3.2114 -2.6228 -0.1137
3.2145 -2.6338 -0.1114
3.2171 -2.6435 -0.1113
1.9214 1.9191 0.7829
2.0181 1.5690 0.6687
2.1709 1.0263 0.5606
2.0874 1.3041 0.4829
2.0450 1.4378 0.3933
2.0923 1.2624 0.3055
2.0758 1.3061 0.2119
2.0588 1.3514 0.1144
2.0769 1.2630 -0.0712
2.6142 -0.6009 -0.1299
2.6477 -0.7204 -0.1582
2.8198 -1.3108 -0.1286
2.8500 -1.4159 -0.1340
2.8786 -1.5149 -0.1367
2.9040 -1.6032 -0.1393
2.9372 -1.7158 -0.1256
2.9580 -1.7878 -0.1265
2.9779 -1.8564 -0.1253
3.0128 -1.9765 -0.1222
3.0458 -2.0890 -0.1106
3.1048 -2.2930 -0.1135
3.1122 -2.3187 -0.1148
3.1168 -2.3358 -0.1232
3.1305 -2.3833 -0.1227
3.1380 -2.4086 -0.1183
3.1444 -2.4303 -0.1163
3.1561 -2.4702 -0.1125
3.1658 -2.5035 -0.1123
3.1702 -2.5189 -0.1122
3.1725 -2.5279 -0.1211
3.1821 -2.5601 -0.1135
3.1856 -2.5724 -0.1144
3.1896 -2.5857 -0.1123
3.1932 -2.5982 -0.1109
3.1950 -2.6055 -0.1187
3.1991 -2.6187 -0.1139
3.2019 -2.6286 -0.1147
3.2049 -2.6389 -0.1139
3.2073 -2.6474 -0.1166
3.2100 -2.6568 -0.1163
1.7441 2.1470 0.7301
2.0321 1.2006 0.5902
2.0016 1.2847 0.5061
1.9921 1.2856 0.3259
1.9733 1.3304 0.2308
1.9534 1.3780 0.1315
1.9864 1.2421 -0.0528
2.0365 1.0691 -0.1284
2.7739 -1.2961 -0.1337
2.8027 -1.3902 -0.1446
2.8425 -1.5168 -0.1373
2.8831 -1.6445 -0.1227
2.8981 -1.6952 -0.1381
2.9330 -1.8042 -0.1211
2.9703 -1.9243 -0.1248
2.9890 -1.9839 -0.1221
3.0016 -2.0253 -0.1278
3.0180 -2.0773 -0.1239
3.0448 -2.1626 -0.1210
3.0585 -2.2057 -0.1154
3.0673 -2.2344 -0.1193
3.0768 -2.2651 -0.1197
3.0865 -2.2959 -0.1181
3.0929 -2.3174 -0.1237
3.1044 -2.3525 -0.1140
3.1109 -2.3738 -0.1167
3.1175 -2.3953 -0.1177
3.1258 -2.4210 -0.1125
3.1306 -2.4372 -0.1171
3.1365 -2.4560 -0.1173
3.1420 -2.4738 -0.1176
3.1482 -2.4932 -0.1142
3.1528 -2.5081 -0.1160
3.1578 -2.5241 -0.1151
3.1625 -2.5391 -0.1146
3.1677 -2.5550 -0.1112
3.1704 -2.5649 -0.1171
3.1757 -2.5809 -0.1113
3.1792 -2.5921 -0.1129
3.1836 -2.6056 -0.1092
3.1859 -2.6141 -0.1146
3.1897 -2.6258 -0.1123
3.1925 -2.6351 -0.1145
3.1957 -2.6453 -0.1138
3.1979 -2.6531 -0.1179
3.2011 -2.6629 -0.1164
1.8126 1.5867 0.6321
1.9826 1.0593 0.5249
1.7651 1.6553 0.2377
1.9757 0.9642 -0.0996
2.6829 -1.1528 -0.1335
2.7738 -1.4238 -0.1323
2.8410 -1.6246 -0.1337
2.8889 -1.7691 -0.1424
2.9833 -2.0467 -0.1187
3.0162 -2.1436 -0.1121
3.0267 -2.1758 -0.1170
3.0406 -2.2165 -0.1130
3.0489 -2.2425 -0.1192
3.0690 -2.3024 -0.1195
3.0807 -2.3361 -0.1129
3.0954 -2.3809 -0.1175
3.1103 -2.4253 -0.1165
3.1169 -2.4450 -0.1168
3.1237 -2.4650 -0.1154
3.1284 -2.4797 -0.1197
3.1347 -2.4983 -0.1175
3.1404 -2.5150 -0.1166
3.1472 -2.5341 -0.1107
3.1504 -2.5450 -0.1166
3.1559 -2.5607 -0.1134
3.1602 -2.5736 -0.1139
3.1650 -2.5875 -0.1116
3.1681 -2.5974 -0.1156
3.1727 -2.6108 -0.1122
3.1760 -2.6209 -0.1141
3.1800 -2.6325 -0.1120
3.1832 -2.6422 -0.1130
3.1866 -2.6523 -0.1124
3.1892 -2.6605 -0.1152
3.1923 -2.6697 -0.1151
1.9257 0.9615 0.5456
1.8336 1.2012 0.4630
1.8044 1.2444 0.2764
1.8295 1.1558 0.1852
1.8085 1.1537 -0.1108
1.8809 0.9380 -0.1794
2.1467 0.2053 -0.1428
2.2935 -0.2027 -0.1385
2.3835 -0.4561 -0.1509
2.4653 -0.6852 -0.1575
2.6191 -1.1113 -0.1460
2.6764 -1.2701 -0.1427
2.7253 -1.4056 -0.1400
2.8714 -1.8095 -0.1248
2.9166 -1.9358 -0.1266
2.9415 -2.0034 -0.1192
2.9562 -2.0456 -0.1246
3.0154 -2.2105 -0.1247
3.0296 -2.2492 -0.1205
3.0413 -2.2815 -0.1195
3.0625 -2.3402 -0.1170
3.0800 -2.3889 -0.1174
3.0894 -2.4143 -0.1138
3.0974 -2.4363 -0.1125
3.1056 -2.4585 -0.1093
3.1090 -2.4699 -0.1190
3.1243 -2.5108 -0.1100
3.1344 -2.5396 -0.1135
3.1396 -2.5542 -0.1132
3.1442 -2.5672 -0.1145
3.1494 -2.5812 -0.1130
3.1547 -2.5954 -0.1097
3.1585 -2.6064 -0.1115
3.1617 -2.6161 -0.1151
3.1658 -2.6272 -0.1148
3.1703 -2.6392 -0.1116
3.1739 -2.6494 -0.1115
3.1773 -2.6587 -0.1122
3.1805 -2.6679 -0.1125
3.1824 -2.6744 -0.1191
1.7886 1.0985 0.6607
1.9484 0.6595 0.5585
1.7588 1.1373 0.4861
1.5879 1.5610 0.3909
1.5138 1.7300 0.2823
1.5230 1.6336 -0.0433
1.7637 0.9997 -0.0750
1.7893 0.9137 -0.1624
2.2060 -0.1664 -0.1391
2.5855 -1.1530 -0.1313
2.7820 -1.6625 -0.1208
2.8354 -1.8038 -0.1311
2.9359 -2.0628 -0.1184
2.9660 -2.1425 -0.1250
2.9849 -2.1904 -0.1184
2.9960 -2.2205 -0.1234
3.0106 -2.2578 -0.1202
3.0197 -2.2827 -0.1260
3.0358 -2.3223 -0.1160
3.0460 -2.3490 -0.1162
3.0648 -2.3979 -0.1163
3.0733 -2.4201 -0.1164
3.0814 -2.4411 -0.1163
3.0890 -2.4610 -0.1162
3.0962 -2.4798 -0.1161
3.1057 -2.5028 -0.1085
3.1091 -2.5136 -0.1171
3.1237 -2.5496 -0.1090
3.1282 -2.5621 -0.1120
3.1330 -2.5750 -0.1134
3.1434 -2.6016 -0.1111
3.1514 -2.6232 -0.1145
3.1569 -2.6364 -0.1095
3.1608 -2.6466 -0.1100
3.1646 -2.6565 -0.1099
3.1681 -2.6658 -0.1107
3.1713 -2.6744 -0.1124
3.1747 -2.6832 -0.1124
1.6315 1.2020 0.5117
1.4712 1.5455 0.3123
1.3893 1.7180 0.1970
2.4294 -0.9028 -0.1512
2.7433 -1.6621 -0.1232
2.7680 -1.7252 -0.1347
2.8407 -1.8991 -0.1206
2.9079 -2.0637 -0.1233
2.9472 -2.1586 -0.1192
2.9609 -2.1930 -0.1230
2.9802 -2.2384 -0.1154
2.9940 -2.2719 -0.1151
3.0062 -2.3018 -0.1161
3.0182 -2.3310 -0.1157
3.0304 -2.3603 -0.1132
3.0490 -2.4063 -0.1161
3.0587 -2.4296 -0.1147
3.0646 -2.4456 -0.1209
3.0730 -2.4659 -0.1203
3.0910 -2.5078 -0.1123
3.0973 -2.5236 -0.1135
3.1043 -2.5403 -0.1120
3.1098 -2.5542 -0.1137
3.1153 -2.5678 -0.1149
3.1214 -2.5823 -0.1133
3.1274 -2.5964 -0.1110
3.1313 -2.6069 -0.1147
3.1369 -2.6199 -0.1122
3.1462 -2.6423 -0.1114
3.1499 -2.6519 -0.1132
3.1540 -2.6618 -0.1133
3.1573 -2.6705 -0.1156
3.1619 -2.6809 -0.1123
3.1645 -2.6882 -0.1164
1.5543 1.1361 0.5356
1.3722 1.4762 0.2324
1.4284 1.3228 0.1344
1.2690 1.6524 -0.0049
2.7298 -1.7260 -0.1374
2.8056 -1.8967 -0.1261
2.8872 -2.0813 -0.1169
2.9023 -2.1178 -0.1241
2.9226 -2.1637 -0.1219
2.9742 -2.2802 -0.1154
2.9845 -2.3052 -0.1210
2.9960 -2.3320 -0.1233
3.0223 -2.3906 -0.1165
3.0401 -2.4324 -0.1213
3.0513 -2.4569 -0.1168
3.0601 -2.4770 -0.1163
3.0680 -2.4953 -0.1166
3.0766 -2.5144 -0.1142
3.0822 -2.5282 -0.1185
3.0906 -2.5465 -0.1143
3.0964 -2.5603 -0.1163
3.1025 -2.5743 -0.1167
3.1078 -2.5869 -0.1184
3.1163 -2.6042 -0.1099
3.1211 -2.6156 -0.1115
3.1263 -2.6273 -0.1114
3.1292 -2.6357 -0.1178
3.1342 -2.6469 -0.1167
3.1406 -2.6599 -0.1103
3.1455 -2.6705 -0.1081
3.1480 -2.6777 -0.1141
3.1521 -2.6870 -0.1135
1.2695 1.5481 0.6772
1.6390 0.7184 0.5482
1.3595 1.2987 0.4680
1.5044 0.9361 0.2780
1.5328 0.8508 0.1869
1.4206 1.0613 0.0707
1.4517 0.9694 -0.0233
1.5600 0.7181 -0.0916
1.9759 -0.1827 -0.1129
2.1275 -0.5098 -0.1164
2.2206 -0.7150 -0.1341
2.3009 -0.8918 -0.1493
2.4128 -1.1291 -0.1354
2.4818 -1.2784 -0.1392
2.5491 -1.4226 -0.1365
2.6094 -1.5513 -0.1320
2.7042 -1.7539 -0.1267
2.7702 -1.8969 -0.1303
2.8240 -2.0135 -0.1334
2.8810 -2.1325 -0.1196
2.8971 -2.1686 -0.1249
2.9147 -2.2068 -0.1261
2.9406 -2.2589 -0.1125
2.9665 -2.3163 -0.1187
2.9818 -2.3483 -0.1155
3.0048 -2.3984 -0.1174
3.0246 -2.4416 -0.1204
3.0451 -2.4849 -0.1166
3.0526 -2.5017 -0.1190
3.0597 -2.5175 -0.1215
3.0783 -2.5552 -0.1127
3.0851 -2.5699 -0.1128
3.0915 -2.5837 -0.1132
3.0970 -2.5961 -0.1151
3.1036 -2.6099 -0.1132
3.1102 -2.6233 -0.1106
3.1136 -2.6322 -0.1162
3.1193 -2.6441 -0.1147
3.1231 -2.6532 -0.1185
3.1283 -2.6640 -0.1170
3.1338 -2.6751 -0.1138
3.1378 -2.6840 -0.1150
3.1418 -2.6928 -0.1158
1.0767 1.6960 0.7174
1.4201 0.9625 0.5817
1.2768 1.2282 0.4935
1.2866 1.1804 0.3931
1.3854 0.9539 0.2990
1.3292 1.0388 0.1951
1.2692 1.1295 0.0839
1.5215 0.5789 -0.0575
1.5117 0.5717 -0.1545
2.0188 -0.4471 -0.1248
2.2693 -0.9554 -0.1280
2.5579 -1.5426 -0.1374
2.6617 -1.7510 -0.1314
2.6984 -1.8262 -0.1342
2.7472 -1.9214 -0.1208
2.7685 -1.9674 -0.1313
2.8015 -2.0328 -0.1264
2.8250 -2.0812 -0.1290
2.8560 -2.1414 -0.1196
2.8669 -2.1672 -0.1331
2.8952 -2.2213 -0.1215
2.9134 -2.2580 -0.1212
2.9314 -2.2939 -0.1190
2.9582 -2.3494 -0.1235
2.9727 -2.3782 -0.1216
2.9888 -2.4090 -0.1152
2.9987 -2.4299 -0.1181
3.0055 -2.4459 -0.1259
3.0199 -2.4728 -0.1178
3.0312 -2.4948 -0.1143
3.0382 -2.5102 -0.1186
3.0460 -2.5264 -0.1204
3.0537 -2.5423 -0.1214
3.0630 -2.5601 -0.1179
3.0701 -2.5746 -0.1183
3.0784 -2.5905 -0.1149
3.0862 -2.6054 -0.1118
3.0919 -2.6173 -0.1131
3.0975 -2.6290 -0.1140
3.1039 -2.6414 -0.1120
3.1083 -2.6511 -0.1151
3.1138 -2.6620 -0.1143
3.1242 -2.6825 -0.1122
3.1288 -2.6918 -0.1122
3.1333 -2.7008 -0.1118
1.3284 0.8449 0.3246
1.0720 1.2027 -0.1289
2.1903 -0.9324 -0.1320
2.3636 -1.2663 -0.1431
2.4344 -1.4024 -0.1461
2.5219 -1.5645 -0.1298
2.6387 -1.7841 -0.1182
2.6546 -1.8211 -0.1410
2.7123 -1.9260 -0.1228
2.7412 -1.9824 -0.1273
2.8081 -2.1071 -0.1170
2.8305 -2.1506 -0.1195
2.8732 -2.2322 -0.1200
2.8936 -2.2705 -0.1182
2.9086 -2.3003 -0.1216
2.9268 -2.3341 -0.1188
2.9430 -2.3645 -0.1171
2.9558 -2.3895 -0.1190
2.9703 -2.4165 -0.1167
2.9833 -2.4410 -0.1152
2.9958 -2.4642 -0.1134
3.0050 -2.4826 -0.1161
3.0146 -2.5012 -0.1172
3.0254 -2.5211 -0.1147
3.0361 -2.5405 -0.1111
3.0432 -2.5549 -0.1139
3.0668 -2.5995 -0.1125
3.0800 -2.6249 -0.1131
3.0863 -2.6369 -0.1129
3.0992 -2.6605 -0.1097
3.1036 -2.6698 -0.1124
3.1093 -2.6802 -0.1112
3.1137 -2.6891 -0.1130
3.1197 -2.6995 -0.1094
3.1236 -2.7076 -0.1116
0.8231 1.7113 0.8940
1.1213 1.0393 0.4442
1.0532 1.1307 0.3406
0.9197 1.3360 0.2240
1.2285 0.6692 -0.1446
1.8425 -0.4275 -0.1163
1.9474 -0.6247 -0.1440
2.2258 -1.1226 -0.1334
2.4028 -1.4408 -0.1320
2.5144 -1.6452 -0.1437
2.6245 -1.8407 -0.1347
2.6831 -1.9413 -0.1186
2.7131 -1.9969 -0.1237
2.7493 -2.0609 -0.1195
2.7709 -2.1019 -0.1272
2.8011 -2.1551 -0.1231
2.8310 -2.2069 -0.1162
2.8485 -2.2399 -0.1214
2.8692 -2.2770 -0.1208
2.8912 -2.3152 -0.1162
2.9077 -2.3451 -0.1171
2.9259 -2.3769 -0.1136
2.9388 -2.4009 -0.1164
2.9520 -2.4250 -0.1173
2.9698 -2.4546 -0.1092
2.9748 -2.4671 -0.1211
2.9862 -2.4878 -0.1210
3.0022 -2.5137 -0.1114
3.0112 -2.5303 -0.1133
3.0288 -2.5626 -0.1148
3.0389 -2.5797 -0.1115
3.0462 -2.5932 -0.1131
3.0520 -2.6050 -0.1171
3.0592 -2.6179 -0.1175
3.0671 -2.6315 -0.1150
3.0755 -2.6453 -0.1108
3.0798 -2.6545 -0.1157
3.0853 -2.6649 -0.1169
3.0922 -2.6764 -0.1141
3.0977 -2.6862 -0.1141
3.1044 -2.6971 -0.1101
3.1085 -2.7053 -0.1128
3.1125 -2.7133 -0.1151
3.1161 -2.7207 -0.1184
2.1413 -1.0948 -0.1408
2.3271 -1.4116 -0.1444
2.4676 -1.6504 -0.1442
2.5832 -1.8445 -0.1370
2.6868 -2.0146 -0.1181
2.7436 -2.1136 -0.1256
2.8087 -2.2203 -0.1129
2.8423 -2.2813 -0.1257
2.8682 -2.3229 -0.1179
2.8808 -2.3466 -0.1253
2.9186 -2.4087 -0.1181
2.9343 -2.4348 -0.1164
2.9470 -2.4568 -0.1179
2.9758 -2.5036 -0.1110
2.9847 -2.5199 -0.1149
2.9920 -2.5342 -0.1207
3.0032 -2.5525 -0.1187
3.0152 -2.5714 -0.1138
3.0247 -2.5872 -0.1126
3.0318 -2.6001 -0.1154
3.0402 -2.6142 -0.1146
3.0490 -2.6283 -0.1120
3.0622 -2.6515 -0.1140
3.0748 -2.6731 -0.1149
3.0819 -2.6843 -0.1122
3.0885 -2.6948 -0.1100
3.0937 -2.7039 -0.1108
3.0979 -2.7120 -0.1136
3.1030 -2.7206 -0.1136
3.1085 -2.7294 -0.1118
1.1011 0.4474 -0.1858
1.7595 -0.5955 -0.1412
2.0419 -1.0525 -0.1527
2.2733 -1.4206 -0.1419
2.4236 -1.6619 -0.1418
2.5550 -1.8685 -0.1283
2.6100 -1.9546 -0.1209
2.6424 -2.0087 -0.1277
2.6820 -2.0715 -0.1249
2.7788 -2.2244 -0.1175
2.8023 -2.2626 -0.1185
2.8226 -2.2959 -0.1212
2.8667 -2.3651 -0.1160
2.8817 -2.3903 -0.1195
2.9296 -2.4665 -0.1171
2.9431 -2.4881 -0.1170
2.9555 -2.5081 -0.1174
2.9657 -2.5254 -0.1201
2.9794 -2.5460 -0.1158
2.9899 -2.5629 -0.1157
2.9999 -2.5789 -0.1156
3.0093 -2.5939 -0.1155
3.0196 -2.6096 -0.1128
3.0264 -2.6215 -0.1160
3.0346 -2.6345 -0.1157
3.0422 -2.6468 -0.1157
3.0502 -2.6592 -0.1140
3.0582 -2.6712 -0.1116
3.0642 -2.6813 -0.1129
3.0702 -2.6911 -0.1137
3.0829 -2.7108 -0.1115
3.0887 -2.7199 -0.1108
3.0930 -2.7277 -0.1133
3.0983 -2.7360 -0.1129
1.6902 -0.6255 -0.1283
1.8373 -0.8533 -0.1421
1.9692 -1.0562 -0.1499
2.1233 -1.2853 -0.1356
2.2177 -1.4300 -0.1392
2.2988 -1.5541 -0.1424
2.3861 -1.6840 -0.1345
2.4345 -1.7608 -0.1449
2.5651 -1.9533 -0.1271
2.5998 -2.0083 -0.1341
2.6561 -2.0889 -0.1196
2.6896 -2.1401 -0.1205
2.7178 -2.1839 -0.1235
2.8028 -2.3106 -0.1166
2.8273 -2.3469 -0.1134
2.8409 -2.3700 -0.1212
2.8640 -2.4033 -0.1158
2.8969 -2.4534 -0.1165
2.9147 -2.4792 -0.1125
2.9372 -2.5157 -0.1196
2.9505 -2.5354 -0.1183
2.9631 -2.5541 -0.1169
2.9756 -2.5723 -0.1144
2.9854 -2.5875 -0.1154
2.9957 -2.6028 -0.1146
3.0033 -2.6154 -0.1178
3.0129 -2.6295 -0.1164
3.0208 -2.6419 -0.1173
3.0303 -2.6553 -0.1144
3.0391 -2.6678 -0.1118
3.0464 -2.6788 -0.1116
3.0541 -2.6899 -0.1098
3.0608 -2.6999 -0.1095
3.0654 -2.7082 -0.1134
3.0719 -2.7178 -0.1122
3.0770 -2.7260 -0.1140
3.0830 -2.7348 -0.1130
3.0879 -2.7426 -0.1139
0.8591 0.4224 -0.1563
1.5494 -0.5627 -0.1381
1.7158 -0.8062 -0.1518
1.9218 -1.0966 -0.1352
2.0289 -1.2542 -0.1464
2.2574 -1.5781 -0.1341
2.3489 -1.7071 -0.1267
2.4107 -1.7971 -0.1303
2.4821 -1.8968 -0.1221
2.5353 -1.9728 -0.1209
2.6097 -2.0829 -0.1308
2.6927 -2.1985 -0.1199
2.7130 -2.2309 -0.1293
2.7992 -2.3513 -0.1191
2.8245 -2.3861 -0.1145
2.8616 -2.4396 -0.1154
2.8741 -2.4595 -0.1212
2.8937 -2.4860 -0.1162
2.9098 -2.5085 -0.1144
2.9231 -2.5278 -0.1152
2.9335 -2.5441 -0.1191
2.9444 -2.5605 -0.1213
2.9595 -2.5803 -0.1157
2.9724 -2.5977 -0.1124
2.9803 -2.6104 -0.1164
2.9914 -2.6255 -0.1141
3.0024 -2.6402 -0.1109
3.0085 -2.6507 -0.1158
3.0177 -2.6634 -0.1141
3.0258 -2.6749 -0.1138
3.0334 -2.6858 -0.1138
3.0478 -2.7062 -0.1133
3.0546 -2.7159 -0.1127
3.0614 -2.7252 -0.1116
3.0656 -2.7327 -0.1159
3.0713 -2.7410 -0.1163
0.8056 0.3145 -0.1243
1.0710 -0.0570 -0.1559
1.6489 -0.8370 -0.1394
1.9851 -1.2916 -0.1329
2.2045 -1.5894 -0.1315
2.3630 -1.8046 -0.1306
2.4767 -1.9604 -0.1343
2.5851 -2.1039 -0.1232
2.6649 -2.2108 -0.1184
2.6954 -2.2527 -0.1195
2.7328 -2.3007 -0.1114
2.7523 -2.3295 -0.1181
2.7822 -2.3680 -0.1122
2.8173 -2.4188 -0.1209
2.8612 -2.4756 -0.1127
2.8688 -2.4900 -0.1243
2.8878 -2.5143 -0.1199
2.9038 -2.5354 -0.1180
2.9186 -2.5549 -0.1165
2.9455 -2.5904 -0.1134
2.9675 -2.6204 -0.1136
2.9864 -2.6467 -0.1151
2.9961 -2.6595 -0.1143
3.0067 -2.6728 -0.1107
3.0129 -2.6826 -0.1146
3.0218 -2.6940 -0.1127
3.0377 -2.7148 -0.1102
3.0427 -2.7229 -0.1143
3.0502 -2.7324 -0.1122
3.0562 -2.7408 -0.1130
3.0631 -2.7495 -0.1110
0.9494 -0.0616 -0.1452
1.5677 -0.8525 -0.1311
2.3091 -1.8077 -0.1335
2.4455 -1.9811 -0.1277
2.4844 -2.0345 -0.1370
2.5499 -2.1140 -0.1235
2.5950 -2.1711 -0.1205
2.6305 -2.2173 -0.1219
2.6689 -2.2652 -0.1178
2.6947 -2.2999 -0.1222
2.7512 -2.3717 -0.1195
2.8074 -2.4400 -0.1076
2.8238 -2.4624 -0.1116
2.8371 -2.4818 -0.1179
2.8563 -2.5057 -0.1158
2.8700 -2.5245 -0.1191
2.8847 -2.5438 -0.1199
2.9012 -2.5639 -0.1171
2.9307 -2.6002 -0.1120
2.9398 -2.6134 -0.1163
2.9506 -2.6275 -0.1171
2.9747 -2.6567 -0.1115
2.9835 -2.6685 -0.1128
2.9900 -2.6784 -0.1175
2.9993 -2.6900 -0.1165
3.0096 -2.7019 -0.1127
3.0260 -2.7223 -0.1104
3.0328 -2.7313 -0.1112
3.0390 -2.7397 -0.1127
3.0451 -2.7480 -0.1137
3.0511 -2.7559 -0.1142
3.0561 -2.7632 -0.1168
0.6209 0.1631 -0.1801
1.1932 -0.5168 -0.1301
1.4694 -0.8525 -0.1270
2.1410 -1.6797 -0.1505
2.3378 -1.9120 -0.1294
2.4445 -2.0449 -0.1373
2.5114 -2.1223 -0.1254
2.5567 -2.1771 -0.1244
2.5992 -2.2280 -0.1220
2.6317 -2.2687 -0.1246
2.6692 -2.3127 -0.1203
2.7268 -2.3827 -0.1192
2.7491 -2.4108 -0.1219
2.7731 -2.4397 -0.1209
2.8137 -2.4894 -0.1214
2.8378 -2.5164 -0.1147
2.8562 -2.5382 -0.1130
2.8647 -2.5520 -0.1225
2.9010 -2.5928 -0.1130
2.9222 -2.6210 -0.1194
2.9381 -2.6382 -0.1133
2.9485 -2.6513 -0.1144
2.9571 -2.6628 -0.1176
2.9668 -2.6749 -0.1182
2.9776 -2.6873 -0.1161
2.9889 -2.6997 -0.1121
2.9961 -2.7093 -0.1147
3.0014 -2.7177 -0.1201
3.0102 -2.7279 -0.1185
3.0183 -2.7374 -0.1173
3.0270 -2.7469 -0.1144
3.0310 -2.7539 -0.1203
3.0395 -2.7629 -0.1162
0.5064 0.1269 -0.1614
1.0022 -0.4385 -0.1414
1.3010 -0.7838 -0.1416
2.2984 -1.9298 -0.1248
2.3743 -2.0154 -0.1191
2.4204 -2.0714 -0.1267
2.5195 -2.1858 -0.1265
2.5698 -2.2416 -0.1200
2.6015 -2.2798 -0.1247
2.6706 -2.3585 -0.1217
2.7180 -2.4159 -0.1288
2.7744 -2.4775 -0.1191
2.7956 -2.5018 -0.1185
2.8115 -2.5216 -0.1223
2.8532 -2.5667 -0.1140
2.8663 -2.5830 -0.1173
2.8842 -2.6022 -0.1130
2.8971 -2.6175 -0.1142
2.9111 -2.6332 -0.1128
2.9207 -2.6457 -0.1167
2.9321 -2.6590 -0.1171
2.9452 -2.6730 -0.1139
2.9570 -2.6858 -0.1116
2.9657 -2.6966 -0.1136
2.9750 -2.7073 -0.1139
2.9860 -2.7187 -0.1104
2.9908 -2.7267 -0.1168
2.9969 -2.7352 -0.1208
3.0065 -2.7451 -0.1176
3.0160 -2.7547 -0.1137
3.0231 -2.7629 -0.1137
3.0290 -2.7704 -0.1157
3.0354 -2.7779 -0.1161
0.6213 -0.1830 -0.1930
1.2230 -0.8175 -0.1278
1.4077 -1.0268 -0.1471
2.2495 -1.9400 -0.1248
2.3896 -2.0917 -0.1203
2.4923 -2.2043 -0.1208
2.5469 -2.2612 -0.1130
2.5706 -2.2915 -0.1247
2.6016 -2.3269 -0.1288
2.6418 -2.3687 -0.1229
2.7020 -2.4338 -0.1205
2.7522 -2.4881 -0.1192
2.7950 -2.5347 -0.1181
2.8139 -2.5553 -0.1180
2.8288 -2.5727 -0.1211
2.8621 -2.6086 -0.1195
2.8925 -2.6408 -0.1167
2.9055 -2.6550 -0.1164
2.9204 -2.6698 -0.1124
2.9411 -2.6933 -0.1149
2.9500 -2.7039 -0.1171
2.9583 -2.7140 -0.1197
2.9690 -2.7249 -0.1176
2.9772 -2.7343 -0.1190
2.9884 -2.7449 -0.1143
2.9945 -2.7529 -0.1178
3.0117 -2.7704 -0.1143
3.0189 -2.7782 -0.1140
1.1805 -0.8865 -0.1044
1.3368 -1.0600 -0.1344
2.1881 -1.9415 -0.1303
2.3317 -2.0902 -0.1296
2.4531 -2.2136 -0.1229
2.5435 -2.3068 -0.1214
2.6153 -2.3814 -0.1217
2.6516 -2.4176 -0.1177
2.6773 -2.4452 -0.1204
2.7310 -2.5000 -0.1179
2.7514 -2.5220 -0.1202
2.7731 -2.5443 -0.1197
2.8139 -2.5855 -0.1165
2.8442 -2.6182 -0.1201
2.8612 -2.6350 -0.1178
2.8814 -2.6530 -0.1100
2.8928 -2.6658 -0.1124
2.9088 -2.6806 -0.1077
2.9155 -2.6903 -0.1150
2.9261 -2.7017 -0.1161
2.9373 -2.7131 -0.1155
2.9471 -2.7235 -0.1162
2.9568 -2.7336 -0.1163
2.9678 -2.7440 -0.1135
2.9761 -2.7529 -0.1144
2.9824 -2.7609 -0.1181
2.9900 -2.7691 -0.1190
2.9988 -2.7775 -0.1172
3.0082 -2.7859 -0.1135
3.0131 -2.7925 -0.1177
0.6934 -0.5230 -0.0982
0.8273 -0.6765 -0.1555
1.2322 -1.0649 -0.1303
2.1998 -2.0193 -0.1386
2.3114 -2.1205 -0.1164
2.4252 -2.2327 -0.1171
2.4657 -2.2745 -0.1224
2.5871 -2.3935 -0.1215
2.6173 -2.4241 -0.1239
2.6757 -2.4815 -0.1240
2.7095 -2.5120 -0.1166
2.7347 -2.5362 -0.1150
2.7591 -2.5592 -0.1126
2.7742 -2.5762 -0.1180
2.7990 -2.5982 -0.1119
2.8132 -2.6137 -0.1159
2.8253 -2.6276 -0.1214
2.8649 -2.6624 -0.1103
2.8905 -2.6882 -0.1121
2.9035 -2.7006 -0.1113
2.9096 -2.7097 -0.1192
2.9218 -2.7212 -0.1179
2.9319 -2.7314 -0.1189
2.9466 -2.7432 -0.1119
2.9552 -2.7523 -0.1134
2.9650 -2.7615 -0.1123
2.9709 -2.7691 -0.1171
2.9813 -2.7781 -0.1137
2.9884 -2.7856 -0.1153
2.9967 -2.7934 -0.1141
0.6750 -0.6301 -0.0658
0.6571 -0.6487 -0.1572
1.0672 -1.0242 -0.1403
1.2637 -1.2143 -0.1584
1.9485 -1.8467 -0.1443
2.3023 -2.1720 -0.1329
2.4158 -2.2772 -0.1316
2.5116 -2.3648 -0.1274
2.5554 -2.4040 -0.1234
2.6033 -2.4447 -0.1132
2.6523 -2.4941 -0.1227
2.7101 -2.5459 -0.1174
2.7266 -2.5636 -0.1238
2.7500 -2.5848 -0.1220
2.7762 -2.6067 -0.1156
2.7930 -2.6231 -0.1176
2.8132 -2.6408 -0.1146
2.8312 -2.6568 -0.1127
2.8476 -2.6716 -0.1114
2.8611 -2.6846 -0.1125
2.8731 -2.6966 -0.1146
2.8851 -2.7083 -0.1159
2.8970 -2.7196 -0.1165
2.9095 -2.7308 -0.1153
2.9198 -2.7408 -0.1164
2.9315 -2.7511 -0.1147
2.9417 -2.7605 -0.1144
2.9539 -2.7702 -0.1101
2.9586 -2.7773 -0.1173
2.9679 -2.7856 -0.1162
2.9766 -2.7935 -0.1158
2.9831 -2.8005 -0.1183
2.9890 -2.8072 -0.1216
0.6309 -0.7115 -0.0395
0.4735 -0.6192 -0.1588
0.8402 -0.9441 -0.1620
1.2244 -1.2735 -0.1370
1.8819 -1.8569 -0.1449
2.1112 -2.0542 -0.1318
2.2547 -2.1822 -0.1352
2.3239 -2.2417 -0.1313
2.3873 -2.2958 -0.1264
2.4841 -2.3804 -0.1242
2.5715 -2.4544 -0.1162
2.6047 -2.4836 -0.1161
2.6287 -2.5069 -0.1214
2.6525 -2.5294 -0.1252
2.6933 -2.5603 -0.1121
2.7342 -2.5983 -0.1171
2.7776 -2.6353 -0.1139
2.8102 -2.6653 -0.1167
2.8439 -2.6938 -0.1138
2.8541 -2.7048 -0.1188
2.8700 -2.7177 -0.1158
2.8865 -2.7303 -0.1109
2.8972 -2.7405 -0.1127
2.9057 -2.7496 -0.1169
2.9212 -2.7607 -0.1103
2.9288 -2.7690 -0.1142
2.9379 -2.7775 -0.1155
2.9468 -2.7857 -0.1163
2.9537 -2.7931 -0.1199
2.9653 -2.8015 -0.1150
2.9727 -2.8086 -0.1164
-0.2103 0.0804 0.5047
0.8338 -0.8306 0.4083
0.5342 -0.7502 -0.0224
0.4864 -0.7484 -0.1188
0.7520 -0.9817 -0.1474
0.9926 -1.1903 -0.1661
1.9489 -1.9782 -0.1367
2.1353 -2.1334 -0.1352
2.1957 -2.1869 -0.1426
2.3359 -2.3008 -0.1344
2.4092 -2.3570 -0.1215
2.4673 -2.4025 -0.1137
2.5384 -2.4643 -0.1196
2.5993 -2.5171 -0.1243
2.6330 -2.5439 -0.1209
2.6596 -2.5664 -0.1215
2.6883 -2.5892 -0.1185
2.7092 -2.6076 -0.1207
2.7583 -2.6459 -0.1139
2.7729 -2.6599 -0.1185
2.7881 -2.6737 -0.1214
2.8279 -2.7038 -0.1132
2.8428 -2.7162 -0.1131
2.8561 -2.7277 -0.1138
2.8789 -2.7483 -0.1178
2.8920 -2.7587 -0.1163
2.9014 -2.7676 -0.1191
2.9137 -2.7771 -0.1171
2.9236 -2.7856 -0.1176
2.9350 -2.7942 -0.1153
2.9442 -2.8020 -0.1156
2.9526 -2.8094 -0.1165
2.9609 -2.8165 -0.1170
-0.1583 0.0146 0.8317
0.0058 -0.1611 0.7169
0.0878 -0.2665 0.6157
0.1992 -0.3937 0.5181
0.6081 -0.7537 0.4271
0.4061 -0.7681 -0.0094
0.3854 -0.7887 -0.1020
0.5620 -0.9493 -0.1541
0.8305 -1.1695 -0.1731
1.2174 -1.4638 -0.1431
1.6038 -1.7696 -0.1429
2.0731 -2.1403 -0.1406
2.1756 -2.2169 -0.1292
2.2589 -2.2798 -0.1215
2.3208 -2.3285 -0.1206
2.3575 -2.3617 -0.1310
2.4116 -2.4033 -0.1282
2.4502 -2.4355 -0.1322
2.5116 -2.4784 -0.1178
2.5354 -2.5009 -0.1270
2.5931 -2.5393 -0.1087
2.6063 -2.5552 -0.1223
2.6438 -2.5819 -0.1149
2.6654 -2.6006 -0.1188
2.7122 -2.6377 -0.1192
2.7404 -2.6573 -0.1124
2.7568 -2.6716 -0.1156
2.7724 -2.6852 -0.1186
2.7940 -2.7005 -0.1141
2.8079 -2.7126 -0.1169
2.8255 -2.7256 -0.1145
2.8399 -2.7371 -0.1146
2.8543 -2.7481 -0.1138
2.8633 -2.7573 -0.1190
2.8813 -2.7687 -0.1118
2.8909 -2.7774 -0.1146
2.8997 -2.7857 -0.1179
2.9077 -2.7936 -0.1217
2.9202 -2.8022 -0.1186
2.9325 -2.8104 -0.1147
2.9411 -2.8176 -0.1157
2.9497 -2.8246 -0.1163
2.9581 -2.8313 -0.1163
0.1302 -0.3536 0.8129
0.1390 -0.3969 0.7220
-0.0271 -0.3046 0.6422
0.3805 -0.6883 0.4483
-0.2797 -0.4043 -0.0743
0.4018 -0.9110 -0.0643
0.4664 -0.9893 -0.1385
0.7466 -1.2077 -0.1591
1.0837 -1.4560 -0.1483
1.3826 -1.6720 -0.1285
2.0418 -2.1670 -0.1309
2.1285 -2.2313 -0.1290
2.1867 -2.2779 -0.1365
2.3159 -2.3735 -0.1335
2.4387 -2.4595 -0.1185
2.5138 -2.5172 -0.1220
2.5519 -2.5449 -0.1198
2.5792 -2.5669 -0.1236
2.6382 -2.6106 -0.1224
2.6699 -2.6322 -0.1171
2.6925 -2.6495 -0.1180
2.7328 -2.6807 -0.1204
2.7765 -2.7109 -0.1141
2.7915 -2.7230 -0.1162
2.8040 -2.7340 -0.1201
2.8196 -2.7455 -0.1198
2.8320 -2.7558 -0.1222
2.8628 -2.7768 -0.1170
2.8727 -2.7854 -0.1201
2.8976 -2.8030 -0.1173
2.9066 -2.8106 -0.1196
2.9208 -2.8189 -0.1137
2.9296 -2.8259 -0.1149
2.9368 -2.8326 -0.1179
2.9470 -2.8394 -0.1157
-0.0777 -0.3545 0.7589
-0.0684 -0.3997 0.6640
0.0132 -0.4974 0.5662
0.4239 -0.8285 0.4684
0.3190 -0.7881 0.3852
0.1529 -0.8937 -0.1635
1.3987 -1.7498 -0.0964
1.4041 -1.7762 -0.1517
1.9874 -2.1815 -0.1312
2.0789 -2.2456 -0.1294
2.1545 -2.2995 -0.1300
2.2129 -2.3430 -0.1352
2.2810 -2.3897 -0.1315
2.3252 -2.4236 -0.1377
2.3918 -2.4666 -0.1274
2.4913 -2.5332 -0.1175
2.5566 -2.5809 -0.1210
2.5935 -2.6053 -0.1164
2.6212 -2.6251 -0.1171
2.6686 -2.6601 -0.1203
2.7587 -2.7214 -0.1139
2.7692 -2.7319 -0.1214
2.7966 -2.7466 -0.1100
2.8069 -2.7563 -0.1158
2.8164 -2.7656 -0.1220
2.8362 -2.7769 -0.1154
2.8472 -2.7859 -0.1183
2.8565 -2.7943 -0.1226
2.8761 -2.8042 -0.1131
2.8868 -2.8122 -0.1140
2.8975 -2.8199 -0.1142
2.9133 -2.8338 -0.1208
2.9269 -2.8410 -0.1148
2.9312 -2.8470 -0.1221
1.2134 -1.4432 0.5301
0.4106 -0.9222 0.4881
0.3920 -0.9427 0.4079
0.2989 -1.0895 -0.1011
1.2476 -1.7294 -0.1102
1.4187 -1.8481 -0.1199
1.9442 -2.2030 -0.1260
2.0169 -2.2552 -0.1345
2.1309 -2.3254 -0.1193
2.1776 -2.3617 -0.1313
2.2482 -2.4076 -0.1279
2.3072 -2.4467 -0.1268
2.3608 -2.4821 -0.1256
2.4217 -2.5193 -0.1165
2.4542 -2.5435 -0.1225
2.5338 -2.5952 -0.1183
2.5690 -2.6179 -0.1161
2.5990 -2.6379 -0.1159
2.6527 -2.6737 -0.1154
2.6688 -2.6873 -0.1222
2.7358 -2.7307 -0.1186
2.7556 -2.7435 -0.1172
2.7688 -2.7541 -0.1216
2.7934 -2.7670 -0.1128
2.8015 -2.7757 -0.1209
2.8185 -2.7861 -0.1183
2.8466 -2.8044 -0.1170
2.8577 -2.8126 -0.1188
2.8744 -2.8212 -0.1127
2.8805 -2.8281 -0.1195
2.8914 -2.8354 -0.1194
2.9014 -2.8423 -0.1199
2.9138 -2.8492 -0.1163
2.9222 -2.8554 -0.1179
0.2898 -0.9429 0.5098
0.2689 -0.9635 0.4284
-0.5233 -0.5051 0.3232
-0.2191 -0.8959 -0.1544
1.3130 -1.8539 -0.1235
1.4258 -1.9346 -0.1457
1.6325 -2.0590 -0.1299
1.7538 -2.1374 -0.1337
1.9515 -2.2653 -0.1399
2.0541 -2.3274 -0.1330
2.1552 -2.3865 -0.1209
2.2079 -2.4228 -0.1278
2.2666 -2.4602 -0.1286
2.3258 -2.4966 -0.1257
2.3785 -2.5290 -0.1232
2.4389 -2.5629 -0.1129
2.5073 -2.6084 -0.1180
2.5373 -2.6285 -0.1207
2.5680 -2.6482 -0.1211
2.6247 -2.6838 -0.1204
2.6472 -2.6989 -0.1225
2.6756 -2.7151 -0.1181
2.6962 -2.7286 -0.1192
2.7192 -2.7421 -0.1167
2.7412 -2.7549 -0.1138
2.7513 -2.7646 -0.1218
2.7731 -2.7763 -0.1168
2.8030 -2.7959 -0.1183
2.8178 -2.8051 -0.1178
2.8292 -2.8134 -0.1204
2.8431 -2.8217 -0.1194
2.8610 -2.8302 -0.1124
2.8689 -2.8372 -0.1172
2.8792 -2.8442 -0.1183
2.9022 -2.8576 -0.1155
0.1086 -0.8256 0.7848
1.1608 -1.6692 0.2727
-0.1437 -1.0468 -0.1054
1.1367 -1.8040 -0.0841
1.1573 -1.8392 -0.1389
1.3596 -1.9604 -0.1392
1.5665 -2.0790 -0.1269
1.9147 -2.2897 -0.1325
2.0096 -2.3457 -0.1308
2.0830 -2.3909 -0.1338
2.2059 -2.4538 -0.1083
2.2423 -2.4809 -0.1211
2.3541 -2.5466 -0.1181
2.4060 -2.5760 -0.1143
2.4406 -2.5986 -0.1187
2.4777 -2.6211 -0.1194
2.5031 -2.6392 -0.1263
2.5738 -2.6791 -0.1207
2.6040 -2.6964 -0.1189
2.6271 -2.7112 -0.1213
2.6833 -2.7414 -0.1131
2.7189 -2.7648 -0.1179
2.7335 -2.7752 -0.1219
2.7559 -2.7866 -0.1172
2.7738 -2.7967 -0.1159
2.7890 -2.8061 -0.1163
2.8008 -2.8145 -0.1198
2.8184 -2.8234 -0.1158
2.8334 -2.8316 -0.1139
2.8450 -2.8391 -0.1152
2.8687 -2.8532 -0.1151
2.8759 -2.8596 -0.1202
1.0409 -1.5466 0.5759
0.9677 -1.5286 0.5206
1.0970 -1.6277 0.4587
1.2886 -1.7588 0.4042
1.3279 -1.8462 0.2494
0.1601 -1.3386 -0.1104
1.0115 -1.8092 -0.0866
1.4926 -2.0763 -0.0759
1.6063 -2.1663 -0.1373
1.8637 -2.3087 -0.1305
1.9345 -2.3531 -0.1410
2.0301 -2.4052 -0.1365
2.2033 -2.4964 -0.1211
2.2983 -2.5540 -0.1305
2.3404 -2.5795 -0.1345
2.4033 -2.6103 -0.1233
2.4864 -2.6555 -0.1194
2.5514 -2.6922 -0.1195
2.6085 -2.7241 -0.1186
2.6597 -2.7521 -0.1163
2.6979 -2.7753 -0.1202
2.7174 -2.7863 -0.1203
2.7715 -2.8159 -0.1181
2.7887 -2.8248 -0.1161
2.8287 -2.8482 -0.1180
2.8430 -2.8553 -0.1158
2.8582 -2.8622 -0.1118
2.8620 -2.8684 -0.1213
2.8762 -2.8746 -0.1172
2.8851 -2.8805 -0.1192
1.4879 -1.8461 0.6021
1.3374 -1.9300 0.2161
1.2863 -1.9950 -0.0011
1.3621 -2.0502 -0.0363
1.3091 -2.0501 -0.1024
1.5218 -2.1796 -0.1409
1.8451 -2.3409 -0.1156
1.8984 -2.3770 -0.1339
2.0123 -2.4330 -0.1233
2.1588 -2.5110 -0.1232
2.2042 -2.5387 -0.1317
2.2823 -2.5753 -0.1200
2.3877 -2.6289 -0.1142
2.4031 -2.6441 -0.1305
2.4502 -2.6669 -0.1253
2.4849 -2.6856 -0.1259
2.5343 -2.7069 -0.1142
2.5492 -2.7195 -0.1253
2.6558 -2.7748 -0.1218
2.6767 -2.7861 -0.1224
2.7011 -2.7975 -0.1186
2.7235 -2.8080 -0.1153
2.7386 -2.8171 -0.1179
2.7880 -2.8428 -0.1163
2.8019 -2.8504 -0.1168
2.8184 -2.8577 -0.1135
2.8268 -2.8644 -0.1187
2.8405 -2.8711 -0.1171
2.8515 -2.8773 -0.1181
2.8625 -2.8833 -0.1185
2.8725 -2.8891 -0.1195
1.5265 -1.8826 0.6926
1.4755 -1.8729 0.6558
1.4207 -1.8622 0.6167
1.3008 -1.9895 0.1785
1.0269 -1.8922 0.0853
1.1875 -1.9853 0.0555
1.2561 -2.0371 0.0149
1.0882 -1.9923 -0.0770
1.2949 -2.1204 -0.1344
1.6073 -2.2772 -0.1356
1.7374 -2.3415 -0.1335
1.8436 -2.3949 -0.1340
1.9414 -2.4432 -0.1324
2.0427 -2.4904 -0.1242
2.1174 -2.5274 -0.1232
2.1946 -2.5634 -0.1170
2.2942 -2.6157 -0.1227
2.3522 -2.6423 -0.1169
2.4667 -2.7011 -0.1203
2.5077 -2.7195 -0.1155
2.5305 -2.7336 -0.1215
2.5833 -2.7612 -0.1244
2.6450 -2.7878 -0.1142
2.6597 -2.7978 -0.1205
2.6856 -2.8089 -0.1161
2.7039 -2.8185 -0.1172
2.7267 -2.8282 -0.1130
2.7481 -2.8442 -0.1255
2.7922 -2.8602 -0.1113
2.8027 -2.8671 -0.1151
2.8131 -2.8738 -0.1184
2.8298 -2.8802 -0.1138
2.8383 -2.8863 -0.1181
2.8477 -2.8922 -0.1209
2.8570 -2.8978 -0.1233
-0.2901 -0.4621 2.1270
1.5219 -1.9483 0.6567
1.4324 -1.9205 0.6234
1.4368 -1.9420 0.5781
1.4920 -2.0839 0.3089
1.3881 -2.0585 0.2543
1.2470 -2.0198 0.1899
1.1249 -1.9920 0.1208
1.1354 -2.0434 0.0130
1.1265 -2.0638 -0.0441
1.0614 -2.0640 -0.1156
1.1512 -2.1205 -0.1489
1.5534 -2.3019 -0.1303
1.6504 -2.3526 -0.1420
1.7588 -2.4048 -0.1445
1.9015 -2.4647 -0.1278
1.9703 -2.5004 -0.1354
2.1600 -2.5809 -0.1149
2.2440 -2.6275 -0.1312
2.3526 -2.6757 -0.1246
2.4398 -2.7149 -0.1203
2.4739 -2.7314 -0.1212
2.5040 -2.7463 -0.1230
2.5387 -2.7613 -0.1199
2.5656 -2.7744 -0.1209
2.6238 -2.7993 -0.1151
2.6465 -2.8101 -0.1153
2.6624 -2.8196 -0.1201
2.6773 -2.8288 -0.1250
2.7258 -2.8472 -0.1147
2.7451 -2.8553 -0.1124
2.7512 -2.8625 -0.1224
2.7732 -2.8699 -0.1156
2.7849 -2.8767 -0.1187
2.8002 -2.8832 -0.1171
2.8145 -2.8894 -0.1158
2.8278 -2.8953 -0.1149
2.8364 -2.9010 -0.1188
2.8432 -2.9067 -0.1246
1.4013 -2.1127 0.2707
1.1230 -2.1164 -0.0217
1.1015 -2.1327 -0.0812
1.0504 -2.1398 -0.1497
1.4610 -2.3156 -0.1365
1.5743 -2.3695 -0.1454
1.7044 -2.4258 -0.1426
1.8358 -2.4797 -0.1329
1.9636 -2.5297 -0.1180
2.0203 -2.5590 -0.1279
2.0827 -2.5885 -0.1323
2.2277 -2.6478 -0.1212
2.3354 -2.6935 -0.1166
2.3616 -2.7095 -0.1268
2.4125 -2.7291 -0.1202
2.4829 -2.7603 -0.1204
2.6072 -2.8116 -0.1121
2.6352 -2.8224 -0.1085
2.6456 -2.8313 -0.1183
2.6647 -2.8404 -0.1200
2.6827 -2.8491 -0.1217
2.7233 -2.8654 -0.1178
2.7353 -2.8727 -0.1225
2.7482 -2.8798 -0.1256
2.7744 -2.8864 -0.1141
2.7843 -2.8928 -0.1188
2.7970 -2.8989 -0.1198
2.8078 -2.9047 -0.1223
2.8261 -2.9099 -0.1156
1.5218 -2.0419 0.6691
1.4039 -2.1604 0.2855
1.3150 -2.1473 0.2311
0.4988 -1.9042 0.0130
0.6685 -1.9913 -0.0255
1.0371 -2.1401 -0.0165
1.1116 -2.1879 -0.0553
1.0477 -2.1918 -0.1250
1.2105 -2.2642 -0.1364
1.4330 -2.3502 -0.1221
1.6717 -2.4536 -0.1326
1.7738 -2.4972 -0.1356
1.8918 -2.5425 -0.1272
2.0083 -2.5848 -0.1136
2.0576 -2.6099 -0.1245
2.1383 -2.6406 -0.1180
2.2095 -2.6676 -0.1123
2.2376 -2.6851 -0.1258
2.3042 -2.7087 -0.1166
2.3471 -2.7270 -0.1178
2.4617 -2.7744 -0.1178
2.4929 -2.7878 -0.1188
2.5815 -2.8233 -0.1160
2.6724 -2.8605 -0.1150
2.6848 -2.8683 -0.1212
2.6962 -2.8759 -0.1277
2.7231 -2.8831 -0.1187
2.7422 -2.8899 -0.1161
2.7601 -2.8962 -0.1136
2.7790 -2.9021 -0.1092
2.7842 -2.9083 -0.1185
2.7942 -2.9141 -0.1222
2.8109 -2.9191 -0.1179
1.5043 -2.0783 0.6774
1.3625 -2.1705 0.3419
1.3354 -2.1807 0.2948
1.3399 -2.2025 0.2491
1.3131 -2.2138 0.1997
0.4652 -1.9583 0.0330
0.4502 -1.9831 -0.0369
1.1837 -2.2588 -0.0173
1.1000 -2.2575 -0.0882
1.3342 -2.3658 -0.1282
1.4679 -2.4205 -0.1348
1.5842 -2.4682 -0.1409
1.7157 -2.5170 -0.1360
1.8225 -2.5576 -0.1342
1.9120 -2.5924 -0.1344
2.0230 -2.6295 -0.1208
2.0981 -2.6575 -0.1184
2.1478 -2.6795 -0.1247
2.2129 -2.7030 -0.1207
2.2777 -2.7251 -0.1137
2.3111 -2.7413 -0.1211
2.3899 -2.7730 -0.1237
2.4342 -2.7881 -0.1190
2.4680 -2.8012 -0.1191
2.5170 -2.8149 -0.1070
2.5322 -2.8250 -0.1167
2.6284 -2.8634 -0.1191
2.6522 -2.8716 -0.1169
2.6729 -2.8794 -0.1163
2.6895 -2.8867 -0.1183
2.7089 -2.8936 -0.1168
2.7244 -2.9002 -0.1182
2.7447 -2.9062 -0.1140
2.7560 -2.9123 -0.1179
2.7672 -2.9181 -0.1213
2.7824 -2.9234 -0.1200
2.8004 -2.9281 -0.1146
1.3231 -5.6806 1.0649
1.3588 -5.5675 1.0490
1.3933 -5.4592 1.0336
1.3918 -5.3911 1.0295
1.3435 -5.2317 1.0307
1.2446 -5.2504 1.0557
1.3413 -5.0988 1.0226
1.4079 -4.9788 0.9988
-1.0468 -3.3598 1.4822
-1.0699 -3.2543 1.4809
0.7078 -2.8698 1.0292
0.7268 -2.8182 1.0213
0.6483 -2.7409 1.0351
0.1602 -1.9023 1.0976
0.1680 -1.8462 1.0920
1.3241 -5.6184 1.0046
1.3480 -5.5193 0.9935
1.3588 -5.4364 0.9861
1.2586 -5.2481 0.9965
1.2832 -5.1569 0.9857
1.4311 -4.9683 0.9423
-0.2967 -5.4386 1.3452
-0.3183 -5.3397 1.3440
-0.4174 -5.2788 1.3618
-0.2857 -5.1072 1.3229
-0.8593 -3.2597 1.3362
0.7220 -2.8675 0.9697
0.7572 -2.8202 0.9592
-0.7771 -1.6572 1.2220
-0.4076 -1.7489 1.1474
0.1988 -1.9111 1.0256
0.2494 -1.8780 1.0127
1.3382 -5.6161 0.9451
1.3852 -5.4921 0.9292
1.2467 -5.2688 0.9437
1.3212 -5.1340 0.9219
1.4747 -4.9409 0.8815
1.4320 -4.9126 0.8882
-0.7160 -5.3124 1.3258
-0.7454 -4.0764 1.2634
-1.2519 -3.3444 1.3211
0.7492 -2.9249 0.9110
0.7524 -2.8690 0.9073
0.7547 -2.8136 0.9038
0.7264 -2.7502 0.9057
-0.7751 -1.7271 1.1399
-0.9178 -1.5807 1.1594
-0.5906 -1.6505 1.1000
0.1391 -1.9316 0.9743
0.1923 -1.8970 0.9621
1.4001 -5.5606 0.8748
1.3758 -5.5147 0.8767
1.4886 -5.0003 0.8319
1.4350 -4.9817 0.8400
1.4231 -4.9274 0.8393
2.0147 -4.3352 0.7094
2.0309 -4.2833 0.7041
2.0124 -4.1738 0.7017
1.9395 -4.1725 0.7140
-1.0208 -3.3460 1.1754
-0.9484 -3.2444 1.1581
0.7603 -2.9793 0.8548
0.7633 -2.9226 0.8514
0.8582 -2.8888 0.8336
0.8608 -2.8355 0.8305
0.7405 -2.7479 0.8466
0.8052 -2.7123 0.8338
0.7926 -2.6547 0.8331
-0.6771 -1.7568 1.0378
-0.6588 -1.6845 1.0311
-0.6414 -1.6134 1.0246
0.0359 -1.8698 0.9224
0.1638 -1.8714 0.9008
1.4595 -5.5072 0.8078
1.3287 -5.5784 0.8301
1.3154 -5.5178 0.8293
1.3398 -5.4194 0.8214
1.3385 -5.3486 0.8184
1.4417 -5.1813 0.7959
1.5520 -5.0161 0.7725
1.5112 -4.9896 0.7772
1.4377 -4.9880 0.7879
1.4257 -4.9334 0.7872
2.0233 -4.3338 0.6733
2.0307 -4.2875 0.6702
2.0074 -4.2613 0.6724
1.9995 -4.2250 0.6719
1.5806 -4.2085 0.7323
1.4520 -4.2097 0.7511
1.5683 -4.1121 0.7298
1.5835 -4.0568 0.7251
-1.3640 -3.3306 1.1224
0.5037 -2.9876 0.8348
0.6398 -2.9503 0.8133
0.8084 -2.9271 0.7877
0.9294 -2.9006 0.7689
0.7675 -2.8050 0.7882
0.8315 -2.7677 0.7772
0.8493 -2.7195 0.7725
0.8216 -2.6576 0.7738
0.7309 -2.5727 0.7832
0.4906 -2.4286 0.8118
0.0152 -2.1139 0.8671
-0.5472 -1.8008 0.9351
-0.7921 -1.6105 0.9623
0.2394 -1.9597 0.8275
0.1333 -1.8445 0.8378
2.4674 -4.4814 0.5901
2.4479 -4.4719 0.5921
2.4395 -4.4484 0.5922
2.4337 -4.4218 0.5919
2.3709 -4.4224 0.5995
2.3531 -4.4059 0.6011
2.3326 -4.3913 0.6030
1.5700 -4.8867 0.7151
1.4488 -4.9232 0.7313
2.0272 -4.3356 0.6379
2.0097 -4.3055 0.6388
2.0064 -4.2658 0.6377
2.0033 -4.2264 0.6365
1.5748 -4.2140 0.6881
1.5107 -4.1887 0.6949
1.5452 -4.1231 0.6881
-0.9222 -3.3392 0.9572
-0.4312 -2.9925 0.8839
0.6687 -3.0112 0.7510
0.6718 -2.9512 0.7482
0.6934 -2.8961 0.7435
0.9001 -2.8880 0.7180
0.9015 -2.8348 0.7157
0.8752 -2.7742 0.7166
0.7707 -2.6885 0.7259
0.7894 -2.6400 0.7217
0.7766 -2.5817 0.7210
0.7319 -2.5113 0.7237
0.6702 -2.4329 0.7281
0.1333 -2.1531 0.7823
-0.4918 -1.8127 0.8449
0.1575 -1.9708 0.7722
0.3409 -1.9999 0.7511
0.2406 -1.8890 0.7589
0.4511 -1.9429 0.7355
0.3185 -1.8133 0.7465
2.0451 -4.3277 0.6005
1.5682 -4.2199 0.6431
1.4936 -4.1450 0.6478
1.1096 -4.0375 0.6814
0.8425 -3.1528 0.6773
0.8319 -3.0352 0.6744
0.8945 -2.9906 0.6668
0.8670 -2.9294 0.6674
0.7926 -2.8558 0.6721
0.9287 -2.8363 0.6582
0.8737 -2.7676 0.6612
0.8009 -2.6913 0.6657
0.8183 -2.6429 0.6624
0.7904 -2.5794 0.6629
0.7623 -2.5153 0.6635
0.7329 -2.4500 0.6641
-0.4033 -1.8395 0.7536
0.5212 -2.1925 0.6759
0.6186 -2.1296 0.6643
0.4030 -1.9632 0.6796
0.4844 -1.9505 0.6713
0.5963 -1.9587 0.6607
0.9408 -2.1076 0.6324
1.2984 -6.2265 0.6732
1.2409 -6.2185 0.6771
1.9977 -5.0359 0.5888
2.0600 -4.7178 0.5753
1.9456 -4.7342 0.5840
2.0351 -4.3393 0.5663
1.5971 -4.2103 0.5942
1.5248 -4.1885 0.5988
1.0959 -4.0423 0.6256
0.9530 -2.9435 0.6046
0.9543 -2.8903 0.6030
0.7777 -2.7893 0.6128
0.7806 -2.7338 0.6111
0.7352 -2.6638 0.6123
0.6883 -2.5918 0.6137
0.8648 -2.5991 0.6011
0.4992 -1.9480 0.6090
0.4671 -1.8750 0.6092
1.2856 -6.1768 0.6076
1.9391 -5.1745 0.5539
1.9582 -4.7798 0.5440
1.9315 -4.7553 0.5446
1.8460 -4.7834 0.5493
1.7344 -4.8287 0.5556
1.6503 -4.8436 0.5599
1.6304 -4.8012 0.5598
1.6623 -4.7182 0.5564
1.7168 -4.6215 0.5517
2.0289 -4.3482 0.5307
1.8314 -4.2006 0.5366
1.5470 -4.2355 0.5508
1.5451 -4.1830 0.5496
0.4965 -3.0978 0.5739
0.9911 -3.0544 0.5497
0.9509 -2.9921 0.5502
0.9383 -2.9348 0.5495
0.9540 -2.8847 0.5476
0.8543 -2.8041 0.5504
0.7628 -2.7220 0.5528
0.4790 -2.5747 0.5627
0.3595 -2.4718 0.5660
0.4288 -2.4330 0.5618
0.5328 -2.4113 0.5565
0.4800 -2.3308 0.5571
0.4369 -2.1339 0.5546
0.6088 -2.1598 0.5471
0.6302 -2.1163 0.5451
0.7159 -2.1083 0.5409
0.6873 -2.0413 0.5407
0.6416 -1.9638 0.5411
0.6776 -1.9334 0.5387
1.1978 -6.4076 0.5476
1.3013 -6.1742 0.5413
1.5756 -5.3708 0.5215
1.3621 -5.5327 0.5289
1.5619 -5.2502 0.5197
1.5890 -5.1566 0.5175
1.6946 -4.9906 0.5123
1.7860 -4.8467 0.5079
1.4165 -5.1183 0.5205
1.3449 -5.1107 0.5219
1.4794 -4.9315 0.5159
1.4882 -4.8604 0.5145
2.0074 -4.3682 0.4948
1.5586 -4.2336 0.5021
1.5392 -4.1883 0.5017
1.1238 -4.1006 0.5091
0.6123 -3.1086 0.5028
1.0178 -3.0546 0.4932
0.9788 -2.9929 0.4929
0.9229 -2.9259 0.4930
0.8682 -2.8018 0.4920
0.7442 -2.7097 0.4930
0.2419 -2.4227 0.4988
0.2174 -2.2140 0.4957
0.1536 -2.1210 0.4955
0.0094 -1.9896 0.4963
-0.0333 -1.9009 0.4956
0.0033 -1.8504 0.4940
0.1622 -1.8652 0.4908
0.4489 -1.9556 0.4863
0.1308 -1.7218 0.4890
0.0412 -1.6076 0.4890
1.2451 -6.2707 0.4759
1.3766 -5.5303 0.4678
1.4694 -5.3581 0.4662
1.7307 -4.9652 0.4627
1.6955 -4.9390 0.4623
1.2963 -5.2352 0.4640
1.4618 -5.0206 0.4622
1.3701 -5.0293 0.4619
2.0064 -4.3738 0.4570
1.7857 -4.2307 0.4544
1.5768 -4.1756 0.4528
1.5487 -4.1339 0.4522
1.1502 -4.2219 0.4514
1.1509 -4.1577 0.4507
1.0964 -4.1104 0.4499
0.5088 -3.0895 0.4353
0.8259 -3.0142 0.4359
0.9492 -2.9816 0.4360
0.9366 -2.9236 0.4353
0.9529 -2.8731 0.4348
0.8820 -2.7995 0.4336
0.8534 -2.7361 0.4327
0.6422 -2.6123 0.4303
0.3707 -2.4588 0.4273
-0.5608 -2.0492 0.4184
-0.4704 -2.0005 0.4182
0.1372 -2.1709 0.4229
-0.1501 -1.9783 0.4194
-0.3561 -1.8114 0.4165
-0.1616 -1.6854 0.4159
-0.3652 -1.5054 0.4129
0.0230 -1.6492 0.4163
-0.1560 -1.4803 0.4135
-0.2022 -1.3846 0.4122
1.5884 -5.5931 0.4131
1.3283 -5.6756 0.4057
1.3278 -5.5970 0.4052
1.4491 -5.3915 0.4077
1.3771 -5.3922 0.4055
1.7181 -4.9867 0.4135
1.7237 -4.9217 0.4132
1.6701 -4.9109 0.4115
1.5376 -4.9647 0.4078
1.4185 -4.9986 0.4044
1.4621 -4.8968 0.4051
2.0408 -4.3542 0.4195
1.9807 -4.3519 0.4177
1.5839 -4.2828 0.4051
1.4884 -4.2716 0.4021
1.5154 -4.2040 0.4026
1.4860 -4.1606 0.4014
1.2294 -4.1965 0.3938
1.2040 -4.1427 0.3927
1.0822 -4.1164 0.3888
0.4412 -3.0750 0.3629
0.9789 -2.9281 0.3785
0.9520 -2.8671 0.3773
0.9394 -2.8095 0.3766
0.9268 -2.7519 0.3759
0.8082 -2.6595 0.3717
0.8109 -2.6049 0.3714
-0.0281 -2.0916 0.3427
-0.5613 -1.7862 0.3246
-0.7790 -1.6041 0.3168
-0.4914 -1.6568 0.3259
1.4494 -5.8630 0.3482
1.2763 -6.0026 0.3383
1.4182 -5.5117 0.3463
1.4521 -5.4008 0.3482
1.7104 -4.9432 0.3629
1.7793 -4.8213 0.3668
1.5705 -4.9452 0.3549
1.4207 -5.0058 0.3464
2.0344 -4.3637 0.3813
1.9195 -4.3514 0.3747
1.8977 -4.3183 0.3735
1.8886 -4.2769 0.3729
1.8545 -4.2492 0.3710
1.7856 -4.2378 0.3671
1.6867 -4.2370 0.3614
1.6018 -4.2241 0.3566
1.5273 -4.2021 0.3523
1.4377 -4.1819 0.3472
1.4464 -4.1220 0.3477
1.2178 -4.1404 0.3346
1.0235 -4.1356 0.3235
0.3682 -3.0594 0.2859
0.5675 -3.0207 0.2973
0.8061 -3.0001 0.3109
0.8578 -2.9515 0.3138
0.9354 -2.9123 0.3183
0.9072 -2.8496 0.3166
0.9098 -2.7949 0.3168
0.9827 -2.7627 0.3209
0.8225 -2.6571 0.3118
0.6263 -2.4728 0.3005
0.5564 -2.3862 0.2965
