ply
format ascii 1.0
element vertex 2104
property float x
property float y
property float z
end_header
4.0695 -2.1196 -0.5106
4.0489 -2.0902 -0.5194
4.0794 -2.0244 -0.5094
4.1165 -1.9558 -0.4969
4.1248 -1.9075 -0.4951
4.1061 -1.8758 -0.5032
4.1939 -1.7818 -0.4717
4.1561 -1.7612 -0.4870
4.1030 -1.7463 -0.5080
4.0979 -1.7049 -0.5111
4.9173 -1.2232 -0.2067
5.2205 -0.9915 -0.0956
5.2284 -0.9791 -0.0929
5.2354 -0.9671 -0.0905
5.2377 -0.9555 -0.0899
5.2447 -0.9442 -0.0876
5.2636 -0.9124 -0.0811
5.2677 -0.9022 -0.0798
5.2737 -0.8925 -0.0777
5.2778 -0.8828 -0.0764
5.2819 -0.8733 -0.0751
4.1925 -2.1181 -0.5075
4.1873 -2.0814 -0.5108
4.1887 -2.0393 -0.5114
4.1835 -2.0020 -0.5147
4.1849 -1.9597 -0.5153
4.1806 -1.9212 -0.5183
4.2012 -1.8666 -0.5112
4.2207 -1.8136 -0.5045
4.2098 -1.7794 -0.5101
4.2112 -1.7376 -0.5107
4.2183 -1.6929 -0.5090
4.9093 -1.2495 -0.2317
4.9176 -1.2254 -0.2289
4.9127 -1.2064 -0.2316
4.5539 -1.2988 -0.3796
4.5135 -1.2788 -0.3971
4.5033 -1.2486 -0.4022
4.4970 -1.2168 -0.4058
5.2257 -0.9796 -0.1067
5.2289 -0.9676 -0.1057
5.2640 -0.9233 -0.0923
5.2663 -0.9127 -0.0916
5.2740 -0.9030 -0.0886
5.2850 -0.8841 -0.0846
5.2862 -0.8740 -0.0843
5.2912 -0.8650 -0.0825
5.2971 -0.8566 -0.0803
5.3011 -0.8479 -0.0788
5.3042 -0.8391 -0.0778
5.3055 -0.8297 -0.0775
5.3058 -0.8200 -0.0777
5.3098 -0.8119 -0.0762
5.3111 -0.8028 -0.0760
4.3418 -2.0057 -0.4887
4.3127 -1.9918 -0.5023
4.3035 -1.9610 -0.5074
4.2716 -1.9462 -0.5223
4.3062 -1.8829 -0.5085
4.3123 -1.8407 -0.5070
4.5650 -1.5789 -0.4006
4.3794 -1.6145 -0.4835
4.9208 -1.2266 -0.2502
4.9122 -1.2088 -0.2546
4.3794 -1.2093 -0.4957
4.3807 -1.1717 -0.4962
4.3959 -1.1323 -0.4905
5.2048 -0.9429 -0.1302
5.2856 -0.8839 -0.0955
5.2924 -0.8752 -0.0926
5.2983 -0.8666 -0.0903
5.3013 -0.8574 -0.0891
5.3044 -0.8485 -0.0880
5.3075 -0.8397 -0.0869
5.3115 -0.8314 -0.0853
5.3146 -0.8230 -0.0842
5.3158 -0.8139 -0.0839
5.3189 -0.8057 -0.0828
5.3210 -0.7973 -0.0820
5.3223 -0.7884 -0.0818
5.3244 -0.7801 -0.0810
5.3305 -0.7370 -0.0796
5.3308 -0.7279 -0.0797
5.3354 -0.7036 -0.0784
5.3339 -0.6929 -0.0794
5.3351 -0.6846 -0.0791
5.3336 -0.6738 -0.0801
5.3348 -0.6656 -0.0798
5.3333 -0.6546 -0.0808
5.3336 -0.6454 -0.0809
4.4169 -1.9872 -0.4940
4.3756 -1.9863 -0.5141
4.3721 -1.9530 -0.5168
4.3885 -1.9042 -0.5104
4.4425 -1.7254 -0.4898
4.4846 -1.5979 -0.4733
4.4045 -1.5708 -0.5130
4.4236 -1.5258 -0.5052
4.9278 -1.2264 -0.2698
4.9145 -1.2103 -0.2767
4.8920 -1.1963 -0.2881
4.4477 -1.1981 -0.5037
4.4360 -1.1646 -0.5105
4.4280 -1.1298 -0.5154
4.4431 -1.0919 -0.5093
4.4489 -1.0555 -0.5076
4.4363 -1.0204 -0.5148
5.3071 -0.8389 -0.0977
5.3084 -0.8294 -0.0974
5.3133 -0.8216 -0.0953
5.3190 -0.8145 -0.0927
5.3230 -0.8069 -0.0910
5.3224 -0.7970 -0.0916
5.3245 -0.7886 -0.0908
5.3266 -0.7803 -0.0901
5.3279 -0.7716 -0.0897
5.3300 -0.7635 -0.0890
5.3330 -0.7562 -0.0877
5.3333 -0.7471 -0.0879
5.3336 -0.7379 -0.0880
5.3348 -0.7295 -0.0877
5.3360 -0.7211 -0.0874
5.3372 -0.7128 -0.0870
5.3358 -0.7022 -0.0881
5.3370 -0.6939 -0.0878
5.3382 -0.6857 -0.0874
5.3385 -0.6766 -0.0876
5.3370 -0.6658 -0.0886
5.3391 -0.6585 -0.0878
5.3394 -0.6495 -0.0880
4.4811 -1.9404 -0.5015
4.5508 -1.8495 -0.4683
4.5623 -1.8091 -0.4636
4.5043 -1.8227 -0.4933
4.5251 -1.7746 -0.4841
4.5178 -1.7476 -0.4887
4.5115 -1.7194 -0.4929
4.5126 -1.6860 -0.4934
4.5026 -1.6595 -0.4995
4.5075 -1.6235 -0.4981
4.8908 -1.3089 -0.3094
4.8999 -1.2829 -0.3055
4.9117 -1.2563 -0.3002
4.9301 -1.2279 -0.2916
4.9336 -1.2058 -0.2905
4.9158 -1.1908 -0.3002
4.9036 -1.1730 -0.3071
4.8887 -1.1552 -0.3154
4.5152 -1.0516 -0.5126
4.5246 -1.0171 -0.5088
4.5258 -0.9833 -0.5093
4.5270 -0.9495 -0.5098
4.5281 -0.9157 -0.5103
4.5329 -0.8821 -0.5089
4.5304 -0.8481 -0.5113
4.5498 -0.8167 -0.5023
4.5509 -0.7834 -0.5028
5.3244 -0.7778 -0.1015
5.3238 -0.7678 -0.1021
5.3295 -0.7619 -0.0994
5.3325 -0.7545 -0.0981
5.3337 -0.7460 -0.0977
5.3349 -0.7375 -0.0974
5.3361 -0.7290 -0.0970
5.3373 -0.7206 -0.0967
5.3385 -0.7123 -0.0963
5.3397 -0.7040 -0.0959
5.3391 -0.6941 -0.0966
5.3401 -0.6669 -0.0970
5.3404 -0.6578 -0.0971
5.3381 -0.6458 -0.0987
4.5876 -1.7955 -0.4852
4.5571 -1.7888 -0.5024
4.5433 -1.7677 -0.5107
4.5593 -1.7244 -0.5033
4.5715 -1.6845 -0.4979
4.8312 -1.4589 -0.3618
4.8422 -1.4287 -0.3568
4.8615 -1.3944 -0.3472
4.8715 -1.3663 -0.3426
4.8760 -1.3414 -0.3410
4.8878 -1.3133 -0.3354
4.9438 -1.2661 -0.3060
4.9445 -1.2453 -0.3063
4.9407 -1.2262 -0.3091
4.9506 -1.2020 -0.3044
4.9366 -1.1862 -0.3127
4.9108 -1.1730 -0.3274
4.8812 -1.1365 -0.3450
4.8784 -1.1144 -0.3473
4.8810 -1.0911 -0.3467
4.8571 -1.0481 -0.3613
4.6000 -0.8551 -0.5100
4.5903 -0.8218 -0.5165
4.5986 -0.7907 -0.5129
4.5997 -0.7587 -0.5134
4.6008 -0.7267 -0.5138
4.8550 -0.7117 -0.3737
5.1676 -0.7397 -0.1999
5.1690 -0.7258 -0.1996
4.6228 -1.8034 -0.4991
4.6239 -1.7730 -0.4996
4.6092 -1.7548 -0.5088
4.8049 -1.5287 -0.4017
4.8205 -1.4939 -0.3937
4.8461 -1.4304 -0.3809
4.8616 -1.3981 -0.3729
4.8715 -1.3698 -0.3680
4.8815 -1.3420 -0.3632
4.9582 -1.2825 -0.3202
4.9450 -1.2477 -0.3291
4.9475 -1.2260 -0.3284
4.9683 -1.1979 -0.3172
4.9635 -1.1794 -0.3206
4.8996 -1.1562 -0.3590
4.8849 -1.1374 -0.3683
4.8730 -1.1172 -0.3759
4.8738 -1.0938 -0.3763
4.8710 -1.0710 -0.3787
4.8664 -1.0482 -0.3822
4.8275 -1.0032 -0.4067
4.8283 -0.9783 -0.4070
4.8247 -0.9534 -0.4100
4.8193 -0.9282 -0.4141
4.6794 -0.8632 -0.4985
4.6804 -0.8335 -0.4990
4.6635 -0.8009 -0.5100
4.6735 -0.7725 -0.5051
4.6781 -0.7434 -0.5035
4.8938 -0.7229 -0.3775
4.8732 -0.6922 -0.3906
5.1498 -0.7298 -0.2268
5.1495 -0.7142 -0.2275
4.6914 -0.3557 -0.5091
4.6951 -0.3277 -0.5079
4.6724 -0.2811 -0.5229
4.6429 -0.1955 -0.5431
4.6930 -0.2038 -0.5134
4.7544 -0.2248 -0.4767
4.7798 -0.2183 -0.4620
4.8104 -0.2181 -0.4440
4.8391 -0.2182 -0.4271
4.8548 -0.2073 -0.4183
4.8687 -0.1956 -0.4105
4.8773 -0.1793 -0.4060
4.8842 -0.1617 -0.4026
4.9093 -0.1646 -0.3877
4.9257 -0.1593 -0.3783
4.6577 -1.7807 -0.5123
4.6532 -1.7556 -0.5160
4.6570 -1.7237 -0.5148
4.6699 -1.6850 -0.5081
4.7881 -1.5703 -0.4387
4.7735 -1.5555 -0.4483
4.6931 -1.5837 -0.4974
4.6822 -1.5626 -0.5049
4.6923 -1.5280 -0.4999
4.9767 -1.2763 -0.3318
4.9666 -1.2612 -0.3387
4.9526 -1.2265 -0.3487
4.9659 -1.2010 -0.3413
4.9973 -1.1702 -0.3228
4.7277 -1.1217 -0.4925
4.7152 -1.0956 -0.5012
4.7252 -1.0379 -0.4970
4.7181 -1.0101 -0.5024
4.7281 -0.9532 -0.4982
4.7763 -0.9268 -0.4692
4.7257 -0.8679 -0.5028
4.7213 -0.8388 -0.5066
4.7223 -0.8102 -0.5070
4.7286 -0.7826 -0.5041
4.7623 -0.7618 -0.4838
4.7987 -0.7437 -0.4618
5.1609 -0.7488 -0.2361
5.1526 -0.7297 -0.2420
5.1584 -0.7173 -0.2388
4.7285 -0.3168 -0.5209
4.7295 -0.2879 -0.5213
4.7053 -0.2392 -0.5381
4.7150 -0.2165 -0.5329
4.7351 -0.2033 -0.5208
4.7491 -0.1860 -0.5128
4.8418 -0.1892 -0.4549
4.8616 -0.1830 -0.4428
4.8720 -0.1681 -0.4369
4.8900 -0.1622 -0.4259
4.9338 -0.1863 -0.3977
4.7205 -1.7337 -0.5061
4.7169 -1.7096 -0.5094
4.7015 -1.6947 -0.5201
4.7998 -1.5420 -0.4611
4.7417 -1.5562 -0.4988
4.7399 -1.5306 -0.5009
5.0064 -1.3024 -0.3340
4.9895 -1.2533 -0.3470
4.9668 -1.2436 -0.3623
4.9289 -1.2384 -0.3874
4.9628 -1.2044 -0.3663
5.0110 -1.1676 -0.3360
5.0126 -1.1481 -0.3357
4.7450 -1.1754 -0.5108
4.7611 -1.1445 -0.5013
4.7737 -1.1152 -0.4942
4.7550 -1.0913 -0.5073
4.7613 -1.0632 -0.5043
4.7622 -1.0359 -0.5046
4.7534 -1.0091 -0.5115
4.7738 -0.9811 -0.4990
4.7650 -0.9540 -0.5058
4.7907 -0.9011 -0.4909
4.7749 -0.8729 -0.5024
4.7511 -0.8425 -0.5191
4.7636 -0.7889 -0.5129
4.8067 -0.7711 -0.4852
4.8331 -0.7517 -0.4686
4.8366 -0.7271 -0.4672
5.1627 -0.7483 -0.2517
5.1658 -0.7347 -0.2502
5.1655 -0.7194 -0.2510
4.9482 -0.4937 -0.4024
4.7815 -0.2661 -0.5205
4.7799 -0.2364 -0.5227
4.7731 -0.2019 -0.5285
4.7861 -0.1852 -0.5205
4.7973 -0.1676 -0.5138
4.8120 -0.1540 -0.5047
4.8694 -0.1853 -0.4657
4.8984 -0.1904 -0.4464
4.9061 -0.1740 -0.4420
4.9256 -0.1715 -0.4292
4.7617 -1.7306 -0.5094
4.7653 -1.7015 -0.5080
4.7807 -1.6373 -0.4998
4.8168 -1.5839 -0.4768
4.8240 -1.5541 -0.4729
4.7969 -1.5490 -0.4919
4.7753 -1.5384 -0.5074
5.0247 -1.3136 -0.3428
5.0263 -1.2943 -0.3425
5.0153 -1.2817 -0.3506
5.0025 -1.2692 -0.3599
5.0130 -1.1690 -0.3565
5.0385 -1.1419 -0.3398
5.0383 -1.1236 -0.3407
4.7907 -1.1401 -0.5119
4.7784 -1.1161 -0.5214
4.7987 -1.0601 -0.5094
4.8014 -1.0336 -0.5086
4.8067 -1.0071 -0.5059
4.7918 -0.9814 -0.5173
4.8085 -0.9549 -0.5067
4.8129 -0.9028 -0.5056
4.8182 -0.8773 -0.5029
4.8103 -0.8502 -0.5094
4.8226 -0.8000 -0.5029
4.8279 -0.7752 -0.5002
4.8348 -0.7511 -0.4962
4.8296 -0.7238 -0.5009
5.0207 -0.7411 -0.3676
5.1329 -0.7494 -0.2894
5.1611 -0.7463 -0.2699
5.1651 -0.7329 -0.2676
5.1673 -0.7189 -0.2666
4.9184 -0.4935 -0.4481
4.9055 -0.4608 -0.4584
4.9404 -0.4160 -0.4358
4.8779 -0.3411 -0.4821
4.8318 -0.2761 -0.5166
4.8242 -0.2423 -0.5232
4.8140 -0.2056 -0.5317
4.8234 -0.1871 -0.5258
4.8269 -0.1631 -0.5243
4.8736 -0.1841 -0.4911
4.9008 -0.1873 -0.4721
4.9169 -0.1801 -0.4612
4.9329 -0.1739 -0.4503
4.9421 -0.1608 -0.4444
4.8204 -1.7328 -0.4971
4.8023 -1.7005 -0.5116
4.8032 -1.6748 -0.5120
4.8149 -1.6400 -0.5049
4.8202 -1.6111 -0.5021
4.8318 -1.5775 -0.4949
4.8327 -1.5526 -0.4953
4.8139 -1.5418 -0.5095
5.0482 -1.3206 -0.3469
5.0399 -1.3077 -0.3535
5.0326 -1.2937 -0.3594
4.8235 -1.3367 -0.5106
4.8350 -1.3066 -0.5033
4.8438 -1.2783 -0.4980
5.0465 -1.1412 -0.3553
5.0569 -1.1201 -0.3486
4.8384 -1.1317 -0.5078
4.8419 -1.1061 -0.5063
4.8401 -1.0814 -0.5085
4.8392 -1.0565 -0.5102
4.8401 -1.0312 -0.5105
4.8427 -1.0059 -0.5096
4.8462 -0.9807 -0.5081
4.8532 -0.9557 -0.5040
4.8453 -0.9305 -0.5107
4.8566 -0.9061 -0.5034
4.8592 -0.8814 -0.5025
4.8644 -0.8573 -0.4997
4.8470 -0.8296 -0.5135
5.1164 -0.8082 -0.3174
5.1290 -0.7957 -0.3087
5.1330 -0.7808 -0.3063
5.1405 -0.7675 -0.3014
5.1531 -0.7568 -0.2927
5.1613 -0.7450 -0.2871
5.1687 -0.7332 -0.2822
5.1649 -0.7160 -0.2856
5.1518 -0.6932 -0.2961
4.8661 -0.2229 -0.5236
4.8687 -0.1994 -0.5227
4.8830 -0.1882 -0.5126
4.9007 -0.1815 -0.5000
4.9242 -0.1825 -0.4827
4.9418 -0.1783 -0.4701
4.8594 -1.6548 -0.4993
4.8549 -1.6354 -0.5036
4.8477 -1.6180 -0.5099
4.8485 -1.5935 -0.5102
4.8556 -1.5641 -0.5060
4.8547 -1.5411 -0.5076
5.0706 -1.3269 -0.3505
5.0579 -1.3176 -0.3606
5.0479 -1.3060 -0.3688
5.0406 -1.2921 -0.3750
4.8561 -1.3729 -0.5134
4.8666 -1.3435 -0.5065
4.8560 -1.3247 -0.5155
4.8604 -1.2986 -0.5132
4.8674 -1.2716 -0.5089
5.0735 -1.1170 -0.3569
5.0697 -1.1004 -0.3605
4.8767 -1.1012 -0.5087
4.8819 -1.0764 -0.5058
4.8765 -1.0048 -0.5128
4.8739 -0.9807 -0.5158
5.1092 -0.8564 -0.3401
5.1167 -0.8411 -0.3350
5.1241 -0.8263 -0.3299
5.1307 -0.8117 -0.3255
5.1355 -0.7969 -0.3223
5.1403 -0.7824 -0.3192
5.1511 -0.7706 -0.3114
5.1602 -0.7587 -0.3050
5.1743 -0.7497 -0.2944
5.1740 -0.7344 -0.2953
5.1728 -0.7186 -0.2969
5.1716 -0.7027 -0.2985
5.1148 -0.6186 -0.3456
5.1052 -0.5945 -0.3539
5.0966 -0.5704 -0.3616
5.0870 -0.5450 -0.3699
5.0767 -0.5182 -0.3789
5.0664 -0.4907 -0.3880
5.0561 -0.4625 -0.3970
5.0440 -0.4118 -0.4084
4.9057 -0.2062 -0.5231
4.9140 -0.1902 -0.5174
4.9299 -0.1830 -0.5055
4.9490 -0.1807 -0.4909
4.8850 -1.7052 -0.5047
4.8858 -1.6819 -0.5050
4.8830 -1.6618 -0.5081
4.8838 -1.6383 -0.5084
4.8882 -1.6117 -0.5061
4.8819 -1.5944 -0.5118
4.8827 -1.5708 -0.5122
4.8765 -1.5527 -0.5180
5.0704 -1.3302 -0.3710
5.0614 -1.3186 -0.3788
4.8980 -1.3769 -0.5081
4.9005 -1.3526 -0.5071
4.8926 -1.3338 -0.5143
4.9039 -1.3052 -0.5064
4.9029 -1.2828 -0.5081
4.9037 -1.2595 -0.5084
4.9132 -1.2329 -0.5019
4.9105 -1.2112 -0.5050
5.0913 -1.0963 -0.3641
4.9093 -1.0966 -0.5108
5.0334 -1.0347 -0.4134
5.0478 -1.0141 -0.4026
5.0691 -0.9940 -0.3863
5.0757 -0.9757 -0.3817
5.0849 -0.9578 -0.3751
5.0907 -0.9403 -0.3712
5.0956 -0.9231 -0.3680
5.1047 -0.9066 -0.3613
5.1104 -0.8902 -0.3574
5.1144 -0.8739 -0.3548
5.1176 -0.8576 -0.3530
5.1215 -0.8417 -0.3505
5.1306 -0.8274 -0.3437
5.1346 -0.8121 -0.3412
5.1377 -0.7967 -0.3393
5.1416 -0.7818 -0.3368
5.1540 -0.7706 -0.3273
5.1757 -0.7642 -0.3101
5.1830 -0.7524 -0.3047
5.1835 -0.7377 -0.3049
5.1845 -0.7083 -0.3053
5.1774 -0.6891 -0.3118
5.0374 -0.4424 -0.4352
5.0372 -0.4218 -0.4362
5.0329 -0.3972 -0.4407
4.9487 -0.1984 -0.5170
4.9652 -0.1937 -0.5039
4.9186 -1.6338 -0.5069
4.9254 -1.5624 -0.5043
4.9244 -1.5415 -0.5060
4.9254 -1.3869 -0.5119
4.9279 -1.3633 -0.5108
4.9365 -1.3365 -0.5047
4.9295 -1.3183 -0.5115
4.9302 -1.2957 -0.5118
4.9293 -1.2740 -0.5135
4.9361 -1.2488 -0.5089
4.9369 -1.2264 -0.5092
4.9377 -1.2040 -0.5095
5.1101 -1.0930 -0.3687
5.0585 -1.0325 -0.4149
5.0677 -1.0131 -0.4080
5.0843 -0.9760 -0.3956
5.0807 -0.9582 -0.3994
5.0949 -0.9407 -0.3882
5.0947 -0.9231 -0.3891
5.1012 -0.9062 -0.3844
5.1043 -0.8892 -0.3824
5.1126 -0.8733 -0.3762
5.1182 -0.8573 -0.3721
5.1256 -0.8421 -0.3666
5.1287 -0.8261 -0.3647
5.1334 -0.8109 -0.3613
5.1391 -0.7962 -0.3572
5.1447 -0.7819 -0.3531
5.1561 -0.7702 -0.3439
5.1953 -0.7715 -0.3108
5.1983 -0.7583 -0.3088
5.1842 -0.7216 -0.3223
5.1847 -0.7068 -0.3225
5.1936 -0.6970 -0.3155
5.0166 -0.4414 -0.4760
5.0248 -0.4274 -0.4698
5.0305 -0.4116 -0.4657
4.9927 -0.2201 -0.5059
4.9927 -0.1974 -0.5069
4.9495 -1.6308 -0.5064
4.9608 -1.5990 -0.4979
4.9484 -1.5898 -0.5092
4.9614 -1.5571 -0.4993
4.9456 -1.5501 -0.5135
5.1075 -1.3607 -0.3789
5.1029 -1.3478 -0.3836
4.9631 -1.4097 -0.5044
4.9595 -1.3910 -0.5084
4.9524 -1.3742 -0.5154
4.9644 -1.3457 -0.5061
4.9591 -1.3275 -0.5116
4.9642 -1.3036 -0.5082
4.9692 -1.2799 -0.5048
4.9622 -1.2620 -0.5118
4.9681 -1.2381 -0.5076
4.9714 -1.2156 -0.5057
4.9747 -1.1932 -0.5038
4.9729 -1.1727 -0.5063
5.1258 -1.0740 -0.3756
5.0556 -1.0526 -0.4386
4.9806 -1.0223 -0.5063
4.9813 -1.0010 -0.5066
4.9837 -0.9796 -0.5054
4.9887 -0.9583 -0.5020
4.9835 -0.9369 -0.5075
4.9918 -0.9161 -0.5011
4.9850 -0.8942 -0.5082
4.9891 -0.8733 -0.5055
4.9948 -0.8529 -0.5013
4.9955 -0.8105 -0.5027
4.9886 -0.7874 -0.5097
5.2012 -0.7729 -0.3225
5.2067 -0.7610 -0.3182
5.1906 -0.7384 -0.3334
5.1886 -0.7223 -0.3359
5.1891 -0.7076 -0.3361
5.1987 -0.6984 -0.3281
5.2124 -0.6925 -0.3162
4.9914 -0.4605 -0.5220
5.0037 -0.4483 -0.5117
5.0233 -0.4433 -0.4946
5.0412 -0.4381 -0.4790
5.0443 -0.4204 -0.4770
5.0426 -0.3981 -0.4796
5.0179 -0.3527 -0.5034
5.0007 -0.3133 -0.5204
5.0355 -0.3072 -0.4898
5.0208 -0.2692 -0.5046
5.0036 -0.2273 -0.5216
5.0044 -0.2058 -0.5219
4.9850 -1.5810 -0.5019
5.1268 -1.3807 -0.3802
5.1179 -1.3722 -0.3888
5.1099 -1.3624 -0.3967
4.9888 -1.3961 -0.5069
4.9817 -1.3598 -0.5152
4.9876 -1.3356 -0.5109
4.9846 -1.2753 -0.5164
5.0004 -1.2067 -0.5050
5.0025 -1.1447 -0.5059
5.1405 -1.0559 -0.3826
5.0692 -1.0331 -0.4495
5.0311 -1.0184 -0.4853
5.0082 -0.9794 -0.5083
5.0072 -0.9588 -0.5102
5.0171 -0.9384 -0.5019
5.0120 -0.9176 -0.5077
5.0093 -0.8966 -0.5111
5.0117 -0.8762 -0.5098
5.0099 -0.8551 -0.5125
5.0106 -0.8343 -0.5128
5.0188 -0.8154 -0.5061
5.0162 -0.7940 -0.5095
5.0153 -0.7729 -0.5113
5.1974 -0.7404 -0.3446
5.1922 -0.7227 -0.3503
5.1910 -0.7069 -0.3521
5.1956 -0.6946 -0.3484
5.2101 -0.6890 -0.3353
5.2229 -0.6833 -0.3238
5.2242 -0.6701 -0.3232
5.0283 -0.4651 -0.5135
5.0339 -0.4487 -0.5091
5.0436 -0.4364 -0.5007
5.0443 -0.4163 -0.5010
5.0450 -0.3962 -0.5013
5.0311 -0.3614 -0.5158
5.0350 -0.3442 -0.5129
5.0478 -0.3368 -0.5014
5.0461 -0.3140 -0.5041
5.0323 -0.2771 -0.5186
6.4213 -1.5491 -0.4973
6.4205 -1.5272 -0.4961
6.4189 -1.5047 -0.4941
6.4189 -1.4837 -0.4936
6.4180 -1.4622 -0.4924
6.4188 -1.4420 -0.4926
6.4195 -1.4219 -0.4929
6.4315 -1.3677 -0.5029
6.4282 -1.3239 -0.4989
6.4257 -1.3018 -0.4961
6.4249 -1.2807 -0.4949
6.4297 -1.2625 -0.4990
6.4304 -1.2422 -0.4993
6.4271 -1.2203 -0.4957
6.4295 -1.2007 -0.4976
6.4303 -1.1805 -0.4978
6.4286 -1.1595 -0.4958
6.4326 -1.1403 -0.4992
6.4334 -1.1200 -0.4995
6.4309 -1.0991 -0.4967
6.4292 -1.0786 -0.4947
6.4283 -1.0583 -0.4934
6.4381 -1.0392 -0.5021
6.4397 -1.0190 -0.5032
6.4330 -0.9984 -0.4965
6.4387 -0.9783 -0.5014
6.4345 -0.9583 -0.4971
6.4353 -0.9382 -0.4974
6.4311 -0.9186 -0.4930
6.4393 -0.8977 -0.5003
6.4417 -0.8772 -0.5021
6.4400 -0.8575 -0.5001
6.4383 -0.8380 -0.4980
6.4399 -0.8177 -0.4991
6.4423 -0.7971 -0.5009
6.4430 -0.7770 -0.5012
6.4438 -0.7569 -0.5015
6.4436 -0.7173 -0.5005
6.4461 -0.6965 -0.5023
6.4426 -0.6784 -0.4987
6.4451 -0.6575 -0.5005
6.4458 -0.6375 -0.5008
6.4466 -0.6174 -0.5011
6.4473 -0.5974 -0.5014
6.4413 -0.5818 -0.4954
6.3765 -0.4879 -0.4328
6.3544 -0.4595 -0.4117
6.4573 -1.6680 -0.5072
6.4613 -1.6499 -0.5104
6.4565 -1.6223 -0.5056
6.4549 -1.5985 -0.5037
6.4565 -1.5778 -0.5047
6.4565 -1.5557 -0.5043
6.4581 -1.5350 -0.5053
6.4565 -1.5115 -0.5034
6.4501 -1.4842 -0.4971
6.4605 -1.4488 -0.5058
6.4597 -1.4262 -0.5046
6.4605 -1.4049 -0.5049
6.4630 -1.3846 -0.5067
6.4638 -1.3632 -0.5070
6.4572 -1.3376 -0.5007
6.4556 -1.3151 -0.4988
6.4564 -1.2940 -0.4991
6.4670 -1.2777 -0.5082
6.4563 -1.2512 -0.4982
6.4571 -1.2302 -0.4985
6.4563 -1.2086 -0.4973
6.4645 -1.1902 -0.5042
6.4636 -1.1685 -0.5030
6.4644 -1.1473 -0.5033
6.4594 -1.1037 -0.4980
6.4627 -1.0832 -0.5005
6.4635 -1.0622 -0.5008
6.4601 -1.0408 -0.4974
6.4692 -1.0205 -0.5051
6.4649 -0.9574 -0.5001
6.4682 -0.9363 -0.5026
6.4673 -0.9154 -0.5014
6.4757 -0.8935 -0.5084
6.4681 -0.8737 -0.5012
6.4647 -0.8536 -0.4978
6.4679 -0.8116 -0.4999
6.4711 -0.7488 -0.5015
6.4667 -0.6894 -0.4964
6.4667 -0.6692 -0.4959
6.4581 -0.6535 -0.4880
6.4521 -0.6370 -0.4823
6.4452 -0.6214 -0.4758
6.4408 -0.6047 -0.4716
6.4217 -0.5611 -0.4536
6.4087 -0.5524 -0.4418
6.4728 -1.6105 -0.4937
6.4752 -1.5903 -0.4954
6.4809 -1.5502 -0.4995
6.4818 -1.5282 -0.4998
6.4818 -1.5055 -0.4994
6.4826 -1.4835 -0.4998
6.4867 -1.3737 -0.5013
6.4826 -1.3489 -0.4973
6.4794 -1.3248 -0.4941
6.4843 -1.3052 -0.4980
6.4851 -1.2834 -0.4983
6.4859 -1.2616 -0.4986
6.4884 -1.2405 -0.5003
6.4859 -1.2174 -0.4977
6.4884 -1.1962 -0.4995
6.4909 -1.1749 -0.5012
6.4909 -1.1308 -0.5004
6.4859 -1.1078 -0.4957
6.4908 -1.0869 -0.4996
6.4917 -1.0652 -0.4999
6.4900 -1.0432 -0.4980
6.4908 -1.0215 -0.4983
6.4899 -0.9998 -0.4972
6.4866 -0.9782 -0.4939
6.4949 -0.9565 -0.5007
6.4966 -0.9347 -0.5017
6.4915 -0.9135 -0.4970
6.4923 -0.8920 -0.4973
6.4923 -0.8706 -0.4969
6.4931 -0.8490 -0.4972
6.4981 -0.8265 -0.5011
6.4990 -0.8049 -0.5014
6.4964 -0.7842 -0.4988
6.4972 -0.7627 -0.4991
6.4980 -0.7411 -0.4994
6.4988 -0.7196 -0.4997
6.4954 -0.6998 -0.4964
6.4834 -0.6843 -0.4859
6.4722 -0.6691 -0.4761
6.4636 -0.6534 -0.4684
6.4592 -0.6359 -0.4643
6.4582 -0.6168 -0.4632
6.4555 -0.5988 -0.4606
6.4486 -0.5839 -0.4543
6.3934 -0.5327 -0.4063
6.3889 -0.5192 -0.4022
6.3680 -0.4711 -0.3836
6.5144 -1.7177 -0.5036
6.5136 -1.6929 -0.5025
6.5178 -1.6732 -0.5056
6.5203 -1.6516 -0.5072
6.5113 -1.6190 -0.4994
6.5155 -1.5991 -0.5025
6.5163 -1.5761 -0.5028
6.5106 -1.5476 -0.4977
6.5164 -1.5288 -0.5021
6.5189 -1.5071 -0.5038
6.5280 -1.4903 -0.5109
6.5207 -1.4611 -0.5044
6.5199 -1.4370 -0.5034
6.5224 -1.4151 -0.5050
6.5216 -1.3911 -0.5040
6.5241 -1.3691 -0.5057
6.5217 -1.3443 -0.5033
6.5226 -1.3215 -0.5036
6.5234 -1.2986 -0.5039
6.5210 -1.2742 -0.5015
6.5193 -1.2505 -0.4998
6.5227 -1.2287 -0.5021
6.5235 -1.2059 -0.5025
6.5227 -1.1826 -0.5014
6.5236 -1.1599 -0.5017
6.5312 -1.0926 -0.5068
6.5262 -1.0689 -0.5023
6.5236 -1.0459 -0.4999
6.5262 -1.0234 -0.5016
6.5330 -1.0009 -0.5067
6.5321 -0.9781 -0.5056
6.5287 -0.9555 -0.5025
6.5296 -0.9328 -0.5028
6.5322 -0.9100 -0.5045
6.5313 -0.8876 -0.5035
6.5322 -0.8649 -0.5038
6.5347 -0.8419 -0.5055
6.5219 -0.8224 -0.4947
6.5262 -0.7992 -0.4978
6.5279 -0.7545 -0.4984
6.5193 -0.7355 -0.4911
6.5063 -0.7188 -0.4803
6.5003 -0.7001 -0.4751
6.4916 -0.6830 -0.4677
6.4699 -0.6529 -0.4495
6.4655 -0.6354 -0.4456
6.4636 -0.6167 -0.4438
6.4514 -0.6046 -0.4337
6.4303 -0.5805 -0.4161
6.4249 -0.5658 -0.4114
6.4143 -0.5554 -0.4026
6.3965 -0.5340 -0.3878
6.3936 -0.5191 -0.3852
6.3882 -0.5067 -0.3806
6.5322 -1.6814 -0.4897
6.5331 -1.6580 -0.4901
6.5427 -1.4481 -0.4943
6.5461 -1.4262 -0.4966
6.5445 -1.4011 -0.4950
6.5514 -1.3327 -0.4993
6.5447 -1.3055 -0.4937
6.5439 -1.2814 -0.4927
6.5465 -1.2587 -0.4943
6.5457 -1.2347 -0.4933
6.5482 -1.2119 -0.4950
6.5508 -1.1891 -0.4966
6.5559 -1.1667 -0.5003
6.5526 -1.1422 -0.4973
6.5517 -1.1184 -0.4963
6.5509 -1.0947 -0.4953
6.5535 -1.0716 -0.4970
6.5544 -1.0482 -0.4973
6.5519 -1.0246 -0.4950
6.5545 -1.0014 -0.4966
6.5570 -0.9780 -0.4983
6.5596 -0.9546 -0.4999
6.5468 -0.9320 -0.4896
6.5563 -0.9082 -0.4966
6.5606 -0.8845 -0.4996
6.5615 -0.8611 -0.4999
6.5503 -0.8400 -0.4909
6.5546 -0.8163 -0.4939
6.5425 -0.7965 -0.4842
6.5244 -0.7575 -0.4695
6.4965 -0.7040 -0.4471
6.4789 -0.6711 -0.4330
6.4630 -0.6396 -0.4202
6.4629 -0.6202 -0.4198
6.4408 -0.5955 -0.4022
6.4256 -0.5688 -0.3900
6.4004 -0.5346 -0.3700
6.4010 -0.5169 -0.3702
6.5832 -1.7523 -0.5011
6.5858 -1.7289 -0.5027
6.5893 -1.7063 -0.5049
6.5877 -1.6789 -0.5034
6.5870 -1.6523 -0.5025
6.5921 -1.6310 -0.5060
6.5872 -1.6010 -0.5020
6.5915 -1.5787 -0.5048
6.5908 -1.5524 -0.5039
6.5875 -1.5244 -0.5011
6.5927 -1.5025 -0.5046
6.5978 -1.4803 -0.5081
6.5962 -1.4536 -0.5066
6.5938 -1.4265 -0.5044
6.5829 -1.3950 -0.4959
6.5932 -1.3754 -0.5032
6.5907 -1.3489 -0.5010
6.5933 -1.3249 -0.5027
6.5960 -1.3008 -0.5043
6.5876 -1.2723 -0.4977
6.5927 -1.2493 -0.5012
6.5920 -1.1992 -0.5000
6.5989 -1.1762 -0.5047
6.5965 -1.1506 -0.5025
6.5948 -1.1255 -0.5010
6.5829 -1.0988 -0.4918
6.5992 -1.0766 -0.5036
6.6019 -1.0521 -0.5052
6.5934 -1.0268 -0.4986
6.5943 -1.0024 -0.4989
6.5926 -0.9779 -0.4973
6.5935 -0.9536 -0.4977
6.5910 -0.9295 -0.4955
6.5885 -0.9056 -0.4933
6.5816 -0.8825 -0.4879
6.5199 -0.7822 -0.4409
6.5153 -0.7197 -0.4367
6.5039 -0.7032 -0.4281
6.4649 -0.6414 -0.3984
6.4612 -0.6241 -0.3955
6.4306 -0.5688 -0.3721
6.6197 -1.5164 -0.4950
6.6249 -1.4936 -0.4983
6.6276 -1.4688 -0.4999
6.6278 -1.4162 -0.4994
6.6205 -1.3342 -0.4932
6.6172 -1.3069 -0.4906
6.6224 -1.2833 -0.4940
6.6251 -1.2584 -0.4955
6.6175 -1.2301 -0.4898
6.6150 -1.2039 -0.4878
6.6272 -1.1560 -0.4957
6.6256 -1.1301 -0.4943
6.6354 -1.0546 -0.5002
6.6320 -1.0287 -0.4975
6.6304 -1.0032 -0.4961
6.6296 -0.9778 -0.4952
6.6158 -0.9530 -0.4852
6.6193 -0.9280 -0.4874
6.6176 -0.9033 -0.4859
6.5767 -0.8372 -0.4564
6.5301 -0.7593 -0.4227
6.5247 -0.7396 -0.4188
6.5150 -0.7219 -0.4117
6.4865 -0.6926 -0.3914
6.4767 -0.6772 -0.3843
6.4721 -0.6598 -0.3809
6.4457 -0.5987 -0.3617
6.4072 -0.5366 -0.3339
6.3823 -0.5070 -0.3160
6.6773 -1.7772 -0.5067
6.6783 -1.7496 -0.5071
6.6810 -1.7236 -0.5087
6.6821 -1.6959 -0.5090
6.6814 -1.6669 -0.5083
6.6799 -1.6373 -0.5070
6.6758 -1.6060 -0.5039
6.6845 -1.5842 -0.5094
6.6805 -1.5531 -0.5064
6.6815 -1.5257 -0.5068
6.6774 -1.4952 -0.5037
6.6861 -1.4724 -0.5093
6.6820 -1.4421 -0.5062
6.6830 -1.4148 -0.5066
6.6815 -1.3862 -0.5052
6.6825 -1.3590 -0.5056
6.6792 -1.3300 -0.5031
6.6828 -1.3039 -0.5052
6.6856 -1.2773 -0.5068
6.6823 -1.2487 -0.5043
6.6833 -1.2216 -0.5046
6.6869 -1.1952 -0.5067
6.6949 -1.1695 -0.5118
6.6907 -1.1411 -0.5087
6.6944 -1.1143 -0.5108
6.6832 -1.0854 -0.5030
6.6728 -1.0574 -0.4959
6.5786 -0.8611 -0.4311
6.5759 -0.8385 -0.4291
6.4883 -0.6742 -0.3691
6.4548 -0.6335 -0.3464
6.7233 -1.7838 -0.5045
6.7092 -1.5964 -0.4938
6.7051 -1.5647 -0.4909
6.7113 -1.5401 -0.4946
6.7238 -1.4899 -0.5020
6.7171 -1.4572 -0.4974
6.7155 -1.4276 -0.4962
6.7072 -1.3667 -0.4904
6.7083 -1.3389 -0.4908
6.7024 -1.3084 -0.4867
6.7034 -1.2809 -0.4871
6.7018 -1.2525 -0.4859
6.7109 -1.1993 -0.4910
6.7146 -1.1722 -0.4931
6.7103 -1.1434 -0.4902
6.6991 -1.1138 -0.4828
6.6957 -1.0860 -0.4804
6.6914 -1.0584 -0.4775
6.6854 -1.0311 -0.4734
6.5374 -0.7820 -0.3781
6.5311 -0.7625 -0.3739
6.7782 -1.8577 -0.5053
6.7794 -1.8273 -0.5057
6.7770 -1.7940 -0.5041
6.7782 -1.7637 -0.5045
6.7793 -1.7335 -0.5049
6.7744 -1.6986 -0.5017
6.7755 -1.6685 -0.5021
6.7827 -1.6428 -0.5062
6.7752 -1.6067 -0.5014
6.7763 -1.5767 -0.5018
6.7775 -1.5468 -0.5023
6.7760 -1.5153 -0.5011
6.7797 -1.4868 -0.5031
6.7835 -1.4582 -0.5051
6.7820 -1.4269 -0.5039
6.7831 -1.3970 -0.5044
6.7842 -1.3670 -0.5048
6.7854 -1.3370 -0.5052
6.7777 -1.3040 -0.5004
6.7815 -1.2752 -0.5024
6.7685 -1.2414 -0.4944
6.7607 -1.2098 -0.4895
6.4558 -0.6201 -0.3039
6.4120 -0.5267 -0.2772
6.8428 -1.9100 -0.5079
6.8371 -1.8716 -0.5044
6.8357 -1.8374 -0.5034
6.8369 -1.8056 -0.5039
6.8407 -1.7758 -0.5058
6.8454 -1.7465 -0.5082
6.8417 -1.6782 -0.5057
6.8455 -1.6481 -0.5076
6.8189 -1.5667 -0.4922
6.8042 -1.5267 -0.4837
6.8127 -1.4688 -0.4880
6.8089 -1.4046 -0.4854
6.8073 -1.3730 -0.4843
6.8085 -1.3426 -0.4848
6.6407 -0.9527 -0.3884
6.5547 -0.8238 -0.3395
6.5483 -0.8036 -0.3358
6.3712 -0.4699 -0.2347
6.9037 -1.9930 -0.5047
6.9014 -1.9559 -0.5033
6.9062 -1.9253 -0.5057
6.9040 -1.8884 -0.5043
6.9017 -1.8518 -0.5029
6.9030 -1.8181 -0.5034
6.9043 -1.7845 -0.5038
6.9055 -1.7508 -0.5043
6.9068 -1.7172 -0.5048
6.9081 -1.6836 -0.5052
6.9014 -1.6449 -0.5015
6.8991 -1.6094 -0.5001
6.8932 -1.5721 -0.4968
6.8945 -1.5391 -0.4973
6.9180 -1.5172 -0.5095
6.9077 -1.4780 -0.5039
6.8875 -1.4353 -0.4931
6.3808 -0.4957 -0.2223
6.9207 -2.0004 -0.4760
6.9220 -1.9663 -0.4765
6.9189 -1.9283 -0.4748
6.9361 -1.9078 -0.4831
6.9454 -1.8798 -0.4875
6.9547 -1.8514 -0.4920
6.9764 -1.8317 -0.5025
6.9867 -1.8025 -0.5074
6.9558 -1.6020 -0.4914
6.9491 -1.5631 -0.4879
6.9504 -1.5286 -0.4884
6.4674 -0.6402 -0.2478
6.4358 -0.6051 -0.2322
6.4081 -0.5403 -0.2183
6.4069 -0.5250 -0.2176
6.3971 -0.5168 -0.2128
6.3842 -0.4965 -0.2064
6.3763 -0.4882 -0.2025
6.3788 -0.4706 -0.2036
6.3765 -0.4576 -0.2024
6.9147 -1.9861 -0.4362
6.9231 -1.9589 -0.4399
6.9396 -1.9383 -0.4474
6.9570 -1.9174 -0.4552
7.0093 -1.9238 -0.4791
7.0518 -1.9194 -0.4986
7.0532 -1.8817 -0.4991
7.0645 -1.8510 -0.5042
7.0714 -1.8167 -0.5072
7.0728 -1.7785 -0.5077
7.0643 -1.7342 -0.5037
7.0324 -1.6768 -0.4889
7.0157 -1.6299 -0.4811
6.5149 -0.7359 -0.2494
6.4687 -0.6422 -0.2280
6.4453 -0.6021 -0.2172
6.4243 -0.5984 -0.2076
6.4275 -0.5625 -0.2089
6.4136 -0.5396 -0.2025
6.4123 -0.5242 -0.2019
6.4016 -0.5168 -0.1969
6.3898 -0.5108 -0.1915
6.3866 -0.4981 -0.1900
6.3824 -0.4864 -0.1881
6.3773 -0.4759 -0.1857
6.9206 -1.9483 -0.4023
6.9569 -1.9452 -0.4177
7.0177 -1.9601 -0.4435
7.0759 -1.9692 -0.4682
7.0972 -1.9464 -0.4772
7.1031 -1.9109 -0.4797
7.1046 -1.8720 -0.4802
7.0762 -1.8129 -0.4680
7.0776 -1.7749 -0.4686
6.9383 -1.4793 -0.4089
6.9139 -1.4349 -0.3984
6.4818 -0.6749 -0.2135
6.4617 -0.6664 -0.2050
6.4500 -0.6547 -0.2000
6.4384 -0.6436 -0.1951
6.4305 -0.6311 -0.1917
6.4194 -0.6044 -0.1869
6.4153 -0.5907 -0.1852
6.4204 -0.5543 -0.1872
6.4210 -0.5373 -0.1875
6.4092 -0.5302 -0.1825
6.3899 -0.4989 -0.1742
6.3857 -0.4872 -0.1724
6.3757 -0.4812 -0.1682
6.3744 -0.4676 -0.1676
6.9426 -1.9248 -0.3751
6.9839 -1.9240 -0.3913
7.0288 -1.9236 -0.4089
7.0675 -1.9156 -0.4241
7.0792 -1.7306 -0.4285
7.0522 -1.6765 -0.4179
6.5222 -0.7568 -0.2092
6.4963 -0.7461 -0.1991
6.4999 -0.7258 -0.2005
6.4930 -0.7095 -0.1978
6.4766 -0.6979 -0.1913
6.4542 -0.6726 -0.1825
6.4482 -0.6581 -0.1801
6.4450 -0.6425 -0.1789
6.4323 -0.6327 -0.1739
6.4310 -0.6166 -0.1734
6.4169 -0.5926 -0.1678
6.4262 -0.5698 -0.1714
6.4220 -0.5563 -0.1698
6.4169 -0.5438 -0.1678
6.4059 -0.5362 -0.1635
6.3998 -0.5253 -0.1610
6.3975 -0.5116 -0.1601
6.3874 -0.5047 -0.1562
6.3900 -0.4872 -0.1572
6.3809 -0.4803 -0.1536
6.3766 -0.4694 -0.1519
6.9325 -1.9083 -0.3355
6.9567 -1.8938 -0.3442
7.0121 -1.9025 -0.3642
7.0685 -1.9086 -0.3846
6.5367 -0.8142 -0.1932
6.5346 -0.7945 -0.1924
6.5153 -0.7801 -0.1855
6.4910 -0.7497 -0.1767
6.4831 -0.7341 -0.1739
6.4771 -0.7181 -0.1717
6.4682 -0.7038 -0.1685
6.4583 -0.6904 -0.1650
6.4551 -0.6744 -0.1638
6.4462 -0.6616 -0.1606
6.4420 -0.6467 -0.1591
6.4340 -0.6343 -0.1562
6.4198 -0.6098 -0.1511
6.4127 -0.5983 -0.1485
6.4230 -0.5751 -0.1523
6.4246 -0.5576 -0.1529
6.4146 -0.5488 -0.1492
6.4132 -0.5338 -0.1488
6.4032 -0.5260 -0.1451
6.3969 -0.5155 -0.1429
6.3858 -0.5097 -0.1389
6.3815 -0.4984 -0.1373
6.3802 -0.4847 -0.1368
6.3798 -0.4702 -0.1367
6.9452 -1.9113 -0.3047
6.9501 -1.8810 -0.3063
7.0170 -1.8988 -0.3284
7.0729 -1.9043 -0.3468
7.0994 -1.8852 -0.3555
7.1156 -1.8575 -0.3609
7.1069 -1.8125 -0.3581
7.1241 -1.7844 -0.3638
6.6131 -0.9771 -0.1967
6.6064 -0.9546 -0.1945
6.5929 -0.9331 -0.1901
6.5851 -0.9119 -0.1875
6.5783 -0.8910 -0.1853
6.5724 -0.8705 -0.1834
6.5569 -0.8520 -0.1783
6.5366 -0.8355 -0.1717
6.5307 -0.8168 -0.1697
6.5228 -0.7990 -0.1672
6.5060 -0.7653 -0.1617
6.4951 -0.7500 -0.1581
6.4881 -0.7340 -0.1558
6.4612 -0.6913 -0.1470
6.4551 -0.6767 -0.1450
6.4480 -0.6630 -0.1427
6.4409 -0.6498 -0.1404
6.4376 -0.6348 -0.1393
6.4227 -0.6271 -0.1344
6.4224 -0.6110 -0.1343
6.4152 -0.5995 -0.1320
6.4256 -0.5764 -0.1355
6.4213 -0.5632 -0.1341
6.4180 -0.5495 -0.1330
6.4108 -0.5391 -0.1307
6.4075 -0.5259 -0.1296
6.3963 -0.5195 -0.1259
6.3900 -0.5096 -0.1239
6.3867 -0.4975 -0.1228
6.3814 -0.4873 -0.1210
6.3780 -0.4757 -0.1199
6.9662 -1.9214 -0.2761
6.9591 -1.8808 -0.2741
6.9967 -1.8755 -0.2853
7.0465 -1.8771 -0.3002
7.0843 -1.8670 -0.3115
7.1156 -1.8504 -0.3209
7.1068 -1.8056 -0.3184
7.1049 -1.7274 -0.3181
7.1181 -1.6578 -0.3222
7.0659 -1.5930 -0.3068
6.6721 -1.0740 -0.1904
6.6500 -1.0241 -0.1839
6.6289 -0.9999 -0.1777
6.6173 -0.9770 -0.1743
6.6105 -0.9546 -0.1723
6.5471 -0.8546 -0.1536
6.5421 -0.8354 -0.1522
6.5399 -0.8158 -0.1516
6.5233 -0.8002 -0.1466
6.5024 -0.7680 -0.1405
6.5002 -0.7500 -0.1399
6.4941 -0.7336 -0.1381
6.4851 -0.7187 -0.1354
6.4761 -0.7045 -0.1328
6.4641 -0.6921 -0.1292
6.4550 -0.6790 -0.1265
6.4478 -0.6655 -0.1244
6.4373 -0.6376 -0.1214
6.4301 -0.6253 -0.1192
6.4239 -0.6128 -0.1174
6.4176 -0.6007 -0.1156
6.4182 -0.5844 -0.1158
6.4258 -0.5631 -0.1181
6.4215 -0.5502 -0.1169
6.4122 -0.5413 -0.1141
6.4118 -0.5259 -0.1140
6.3976 -0.5219 -0.1098
6.3952 -0.5087 -0.1091
6.3845 -0.4882 -0.1060
6.9594 -1.9080 -0.2393
6.9644 -1.8777 -0.2408
6.9619 -1.8415 -0.2402
7.0421 -1.8665 -0.2617
7.1000 -1.8709 -0.2773
7.1212 -1.8470 -0.2831
7.0924 -1.7896 -0.2755
6.7592 -1.2445 -0.1880
6.7497 -1.2150 -0.1856
6.7507 -1.1885 -0.1859
6.7450 -1.1607 -0.1845
6.6757 -1.0493 -0.1663
6.6602 -1.0242 -0.1622
6.6409 -1.0000 -0.1571
6.6272 -0.9769 -0.1535
6.5795 -0.9344 -0.1409
6.5774 -0.9134 -0.1404
6.5714 -0.8930 -0.1389
6.5545 -0.8542 -0.1345
6.5436 -0.8361 -0.1316
6.5393 -0.7974 -0.1306
6.5146 -0.7847 -0.1240
6.5075 -0.7679 -0.1221
6.4975 -0.7526 -0.1195
6.4803 -0.7226 -0.1150
6.4751 -0.7069 -0.1136
6.4688 -0.6920 -0.1120
6.4587 -0.6794 -0.1093
6.4442 -0.6529 -0.1056
6.4340 -0.6420 -0.1028
6.4337 -0.6258 -0.1028
6.4264 -0.6140 -0.1009
6.4210 -0.6013 -0.0995
6.4187 -0.5870 -0.0989
6.4342 -0.5603 -0.1032
6.4239 -0.5516 -0.1005
6.4165 -0.5412 -0.0985
6.4072 -0.5329 -0.0961
6.4008 -0.5227 -0.0944
6.3924 -0.5145 -0.0922
6.3910 -0.5008 -0.0918
6.3856 -0.4908 -0.0904
6.3832 -0.4784 -0.0898
6.9646 -1.9048 -0.2063
6.9734 -1.8776 -0.2086
6.9784 -1.8471 -0.2099
7.0758 -1.8468 -0.2333
7.1114 -1.8335 -0.2418
7.1128 -1.7962 -0.2424
7.1204 -1.7244 -0.2445
7.0970 -1.6733 -0.2392
6.8593 -1.3908 -0.1837
6.7943 -1.2804 -0.1687
6.7741 -1.2467 -0.1640
6.7751 -1.2197 -0.1644
6.7230 -1.1548 -0.1523
6.7008 -1.1254 -0.1471
6.6930 -1.0994 -0.1453
6.6589 -1.0473 -0.1374
6.6482 -1.0231 -0.1350
6.6354 -0.9996 -0.1320
6.6197 -0.9768 -0.1284
6.6098 -0.9549 -0.1261
6.5941 -0.9338 -0.1225
6.5792 -0.9137 -0.1190
6.5742 -0.8933 -0.1179
6.5720 -0.8728 -0.1175
6.5471 -0.8364 -0.1117
6.5419 -0.8177 -0.1106
6.5299 -0.8011 -0.1078
6.5008 -0.7715 -0.1010
6.4897 -0.7569 -0.0984
6.4769 -0.7081 -0.0956
6.4677 -0.6947 -0.0934
6.4555 -0.6832 -0.0905
6.4429 -0.6560 -0.0877
6.4345 -0.6442 -0.0857
6.4322 -0.6293 -0.0852
6.4288 -0.6152 -0.0845
6.4224 -0.6032 -0.0830
6.4191 -0.5896 -0.0823
6.4257 -0.5693 -0.0840
6.4243 -0.5544 -0.0837
6.4209 -0.5412 -0.0830
6.4135 -0.5313 -0.0812
6.4060 -0.5218 -0.0795
6.9684 -1.9346 -0.1731
6.9735 -1.9047 -0.1744
6.9709 -1.8685 -0.1740
6.9722 -1.8355 -0.1745
7.0259 -1.8406 -0.1858
7.0770 -1.8407 -0.1965
7.1157 -1.8295 -0.2047
7.0883 -1.7741 -0.1993
7.0715 -1.7267 -0.1960
7.0200 -1.6605 -0.1856
6.9847 -1.6062 -0.1785
6.9667 -1.5630 -0.1750
6.9564 -1.5248 -0.1731
6.9248 -1.4774 -0.1667
6.8922 -1.4315 -0.1601
6.8730 -1.3930 -0.1564
6.8163 -1.2848 -0.1451
6.7921 -1.2496 -0.1402
6.7824 -1.2196 -0.1384
6.7046 -1.1497 -0.1224
6.6987 -1.1238 -0.1213
6.6928 -1.0983 -0.1203
6.6692 -1.0712 -0.1155
6.6563 -1.0232 -0.1131
6.5990 -0.9553 -0.1014
6.6008 -0.9337 -0.1019
6.5849 -0.9136 -0.0987
6.5596 -0.8551 -0.0937
6.5426 -0.8383 -0.0903
6.5354 -0.8203 -0.0889
6.5006 -0.7548 -0.0819
6.4781 -0.7272 -0.0774
6.4708 -0.7127 -0.0759
6.4645 -0.6982 -0.0747
6.4601 -0.6831 -0.0739
6.4578 -0.6673 -0.0735
6.4454 -0.6570 -0.0709
6.4410 -0.6430 -0.0701
6.4336 -0.6310 -0.0686
6.4262 -0.6194 -0.0671
6.4248 -0.6044 -0.0669
6.4133 -0.5963 -0.0646
6.4250 -0.5727 -0.0672
6.4236 -0.5580 -0.0670
6.4212 -0.5441 -0.0665
6.4147 -0.5335 -0.0652
6.4092 -0.5226 -0.0642
6.3997 -0.5153 -0.0622
6.3962 -0.5033 -0.0615
6.3877 -0.4961 -0.0598
6.3852 -0.4838 -0.0593
7.0176 -1.9683 -0.1483
6.9939 -1.9139 -0.1444
6.9952 -1.8804 -0.1449
7.0089 -1.8563 -0.1476
7.0314 -1.8377 -0.1518
7.0722 -1.8305 -0.1592
7.1160 -1.8230 -0.1672
7.0932 -1.7709 -0.1635
7.0714 -1.7208 -0.1599
7.0127 -1.6509 -0.1497
7.0053 -1.6124 -0.1486
6.9146 -1.5001 -0.1330
6.8953 -1.4600 -0.1298
6.8741 -1.4202 -0.1262
6.8684 -1.3879 -0.1254
6.8568 -1.3538 -0.1235
6.8374 -1.3178 -0.1203
6.8209 -1.2838 -0.1175
6.8024 -1.2504 -0.1144
6.7328 -1.1794 -0.1023
6.7201 -1.1514 -0.1002
6.6795 -1.0716 -0.0934
6.6348 -0.9991 -0.0858
6.5947 -0.9343 -0.0790
6.5876 -0.9138 -0.0778
6.5721 -0.8539 -0.0754
6.5264 -0.8045 -0.0675
6.5182 -0.7879 -0.0661
6.4912 -0.7417 -0.0616
6.4859 -0.7259 -0.0607
6.4755 -0.7126 -0.0589
6.4527 -0.6888 -0.0550
6.4523 -0.6723 -0.0550
6.4479 -0.6580 -0.0543
6.4354 -0.6485 -0.0521
6.4310 -0.6350 -0.0514
6.4245 -0.6230 -0.0503
6.4211 -0.6095 -0.0498
6.4146 -0.5982 -0.0487
6.4273 -0.5740 -0.0512
6.4239 -0.5608 -0.0507
6.4098 -0.5405 -0.0483
6.4043 -0.5298 -0.0473
6.4008 -0.5177 -0.0468
6.3973 -0.5059 -0.0462
6.3856 -0.5014 -0.0441
6.9901 -1.9376 -0.1100
6.9836 -1.8982 -0.1093
7.0003 -1.8773 -0.1120
7.0054 -1.8468 -0.1131
7.0232 -1.8251 -0.1160
7.0682 -1.8211 -0.1229
7.1415 -1.8331 -0.1340
7.0991 -1.7684 -0.1280
7.0634 -1.7102 -0.1231
7.0052 -1.6414 -0.1147
7.0143 -1.6123 -0.1163
6.9579 -1.5493 -0.1082
6.9268 -1.5019 -0.1038
6.8763 -1.3878 -0.0971
6.7910 -1.2450 -0.0852
6.7515 -1.1820 -0.0796
6.7317 -1.1522 -0.0768
6.6591 -1.0686 -0.0664
6.6339 -0.9988 -0.0631
6.6178 -0.9767 -0.0608
6.6056 -0.9553 -0.0592
6.6004 -0.9343 -0.0585
6.5872 -0.9142 -0.0567
6.5800 -0.8943 -0.0557
6.5555 -0.8575 -0.0523
6.5542 -0.8380 -0.0523
6.5419 -0.8211 -0.0505
6.5286 -0.8052 -0.0486
6.5233 -0.7878 -0.0479
6.4847 -0.7282 -0.0425
6.4732 -0.7155 -0.0408
6.4688 -0.7003 -0.0403
6.4599 -0.6707 -0.0392
6.4494 -0.6596 -0.0377
6.4358 -0.6507 -0.0356
6.4333 -0.6361 -0.0354
6.4248 -0.6254 -0.0342
6.4203 -0.6127 -0.0336
6.4188 -0.5982 -0.0335
6.4225 -0.5803 -0.0342
6.4231 -0.5644 -0.0344
6.4196 -0.5515 -0.0340
6.4140 -0.5405 -0.0332
6.4074 -0.5305 -0.0323
6.3931 -0.5127 -0.0303
6.3844 -0.5058 -0.0290
7.0259 -1.9948 -0.0808
7.0155 -1.9512 -0.0799
7.0119 -1.9137 -0.0798
7.0298 -1.8929 -0.0823
7.0311 -1.8589 -0.0827
7.0372 -1.8284 -0.0838
7.0777 -1.8210 -0.0889
7.1162 -1.8100 -0.0939
7.0754 -1.7475 -0.0893
7.0463 -1.6943 -0.0862
7.0102 -1.6390 -0.0822
6.7256 -1.1746 -0.0508
6.7155 -1.1477 -0.0498
6.7005 -1.1206 -0.0482
6.6793 -1.0700 -0.0460
6.6742 -1.0461 -0.0456
6.6560 -1.0219 -0.0435
6.6194 -0.9550 -0.0395
6.6001 -0.9345 -0.0373
6.5477 -0.8596 -0.0315
6.5391 -0.8228 -0.0307
6.5317 -0.8056 -0.0299
6.5253 -0.7886 -0.0293
6.5138 -0.7734 -0.0280
6.5023 -0.7590 -0.0267
6.4928 -0.7445 -0.0256
6.4854 -0.7297 -0.0248
6.4809 -0.7142 -0.0244
6.4604 -0.6727 -0.0222
6.4539 -0.6595 -0.0215
6.4291 -0.6254 -0.0188
6.4255 -0.6120 -0.0184
6.4241 -0.5974 -0.0184
6.4195 -0.5851 -0.0179
6.4212 -0.5687 -0.0183
6.4207 -0.5538 -0.0184
6.4161 -0.5420 -0.0179
6.4126 -0.5297 -0.0176
6.4070 -0.5193 -0.0170
6.4003 -0.5101 -0.0162
6.3905 -0.5039 -0.0151
6.3889 -0.4910 -0.0150
7.0426 -2.0364 -0.0484
7.0400 -1.9989 -0.0485
7.0285 -1.9543 -0.0479
7.0425 -1.9307 -0.0495
7.0438 -1.8966 -0.0499
7.0490 -1.8653 -0.0508
7.1059 -1.8335 -0.0567
7.1122 -1.8010 -0.0576
7.0849 -1.7474 -0.0555
7.0595 -1.6965 -0.0535
6.9589 -1.5731 -0.0450
6.9285 -1.4947 -0.0428
6.7403 -1.2016 -0.0274
6.7342 -1.1750 -0.0271
6.7241 -1.1480 -0.0264
6.6958 -1.0948 -0.0242
6.6816 -1.0695 -0.0230
6.6613 -1.0445 -0.0213
6.6541 -1.0214 -0.0209
6.6458 -0.9987 -0.0203
6.6285 -0.9765 -0.0188
6.6151 -0.9552 -0.0177
6.5685 -0.8768 -0.0140
6.5361 -0.8246 -0.0113
6.5286 -0.8076 -0.0108
6.5222 -0.7907 -0.0103
6.5096 -0.7762 -0.0093
6.4990 -0.7616 -0.0084
6.4935 -0.7459 -0.0080
6.4870 -0.7308 -0.0075
6.4795 -0.7166 -0.0069
6.4750 -0.7015 -0.0066
6.4705 -0.6867 -0.0063
6.4588 -0.6757 -0.0053
6.4532 -0.6621 -0.0049
6.4466 -0.6495 -0.0044
6.4303 -0.6272 -0.0030
6.4205 -0.6177 -0.0022
6.4190 -0.6034 -0.0022
6.4165 -0.5899 -0.0021
6.4243 -0.5694 -0.0030
6.4249 -0.5537 -0.0033
6.4203 -0.5419 -0.0029
6.4126 -0.5329 -0.0023
6.4048 -0.5243 -0.0016
6.3981 -0.5152 -0.0010
6.3913 -0.5066 -0.0005
6.3877 -0.4956 -0.0002
7.0824 -2.0630 -0.0173
7.1239 -1.9873 -0.0211
7.1114 -1.9407 -0.0207
7.1267 -1.9150 -0.0221
7.1479 -1.8927 -0.0238
7.1493 -1.8560 -0.0243
7.0930 -1.7823 -0.0212
7.0853 -1.7418 -0.0211
7.0149 -1.6650 -0.0170
7.0041 -1.6255 -0.0167
6.9784 -1.5788 -0.0154
6.9536 -1.5341 -0.0141
6.9337 -1.4931 -0.0132
6.9048 -1.4494 -0.0116
6.8648 -1.4028 -0.0093
6.7572 -1.2040 -0.0040
6.7510 -1.1771 -0.0039
6.7267 -1.1472 -0.0025
6.7114 -1.1201 -0.0017
6.6960 -1.0703 -0.0012
6.6654 -1.0443 0.0007
6.6282 -0.9765 0.0026
6.6229 -0.9551 0.0027
6.5657 -0.8779 0.0059
6.5590 -0.8400 0.0059
6.5391 -0.8250 0.0071
6.5275 -0.8090 0.0078
6.5262 -0.7910 0.0077
6.5176 -0.7752 0.0081
6.4938 -0.7300 0.0093
6.4841 -0.7166 0.0098
6.4817 -0.7006 0.0098
6.4616 -0.6928 0.0111
6.4550 -0.6796 0.0115
6.4514 -0.6653 0.0115
6.4350 -0.6424 0.0124
6.4262 -0.6320 0.0129
6.4237 -0.6183 0.0130
6.4211 -0.6047 0.0130
6.4165 -0.5927 0.0132
6.4286 -0.5693 0.0121
6.4229 -0.5582 0.0123
6.4140 -0.5497 0.0129
6.4114 -0.5369 0.0129
6.4057 -0.5267 0.0132
6.4000 -0.5169 0.0135
6.3953 -0.5065 0.0137
7.2847 -2.1465 0.0091
7.2683 -2.0921 0.0091
7.2019 -2.0013 0.0110
7.2143 -1.9712 0.0100
7.1578 -1.8926 0.0116
7.1591 -1.8559 0.0110
7.1315 -1.8007 0.0116
7.0816 -1.7337 0.0130
7.0116 -1.6579 0.0151
6.9318 -1.4883 0.0165
6.8926 -1.4404 0.0177
6.8300 -1.3299 0.0191
6.7650 -1.2297 0.0207
6.7568 -1.2021 0.0207
6.6932 -1.0926 0.0222
6.6839 -1.0683 0.0223
6.6735 -1.0444 0.0224
6.6340 -0.9764 0.0233
6.6163 -0.9554 0.0239
6.5870 -0.9158 0.0247
6.5723 -0.8973 0.0251
6.5638 -0.8788 0.0252
6.5305 -0.8095 0.0258
6.5087 -0.7615 0.0262
6.5062 -0.7447 0.0261
6.4996 -0.7296 0.0262
6.4671 -0.6923 0.0272
6.4542 -0.6821 0.0276
6.4470 -0.6538 0.0276
6.4372 -0.6436 0.0279
6.4367 -0.6283 0.0277
6.4247 -0.6202 0.0282
6.4211 -0.6073 0.0282
6.4206 -0.5926 0.0280
6.4307 -0.5707 0.0273
6.4228 -0.5611 0.0275
6.4213 -0.5473 0.0274
6.4113 -0.5401 0.0278
6.4055 -0.5300 0.0279
6.3987 -0.5212 0.0281
7.3091 -2.1153 0.0474
7.2343 -2.0176 0.0474
7.2085 -1.9595 0.0471
7.1777 -1.8994 0.0469
7.1690 -1.8558 0.0464
7.0778 -1.7257 0.0463
7.0244 -1.6601 0.0464
6.6892 -1.0912 0.0448
6.6547 -1.0203 0.0444
6.6379 -0.9978 0.0444
6.6346 -0.9763 0.0442
6.6020 -0.9354 0.0442
6.5924 -0.9158 0.0441
6.5776 -0.8973 0.0442
6.5476 -0.8440 0.0440
6.5431 -0.8262 0.0438
6.5257 -0.7937 0.0437
6.5103 -0.7624 0.0436
6.4748 -0.6908 0.0432
6.4575 -0.6826 0.0434
6.4508 -0.6699 0.0434
6.4482 -0.6555 0.0432
6.4467 -0.6406 0.0431
6.4441 -0.6264 0.0429
6.4189 -0.6113 0.0432
6.4131 -0.6003 0.0431
6.4248 -0.5626 0.0424
6.4201 -0.5512 0.0424
6.4153 -0.5400 0.0423
6.4074 -0.5316 0.0423
6.4026 -0.5211 0.0423
6.3978 -0.5109 0.0422
6.3909 -0.5028 0.0422
7.3201 -2.1152 0.0867
7.2025 -1.9478 0.0833
7.1572 -1.8785 0.0820
7.1121 -1.7762 0.0801
7.0696 -1.7152 0.0789
7.0250 -1.6553 0.0777
6.7838 -1.2309 0.0697
6.7776 -1.2037 0.0692
6.6966 -1.1144 0.0673
6.6921 -1.0677 0.0666
6.6512 -1.0197 0.0656
6.6364 -0.9976 0.0651
6.6151 -0.9556 0.0643
6.5950 -0.9360 0.0639
6.5895 -0.9164 0.0636
6.5798 -0.8975 0.0632
6.5635 -0.8610 0.0626
6.5495 -0.8445 0.0622
6.5418 -0.8275 0.0619
6.5415 -0.8091 0.0617
6.5254 -0.7950 0.0613
6.5166 -0.7796 0.0610
6.5025 -0.7664 0.0607
6.4947 -0.7518 0.0605
6.4869 -0.7377 0.0602
6.4812 -0.7231 0.0599
6.4776 -0.7080 0.0597
6.4645 -0.6974 0.0594
6.4598 -0.6835 0.0592
6.4540 -0.6704 0.0590
6.4493 -0.6571 0.0587
6.4436 -0.6446 0.0585
6.4356 -0.6337 0.0583
6.4118 -0.6037 0.0577
6.4177 -0.5852 0.0574
6.4204 -0.5686 0.0572
6.4188 -0.5550 0.0570
6.4097 -0.5472 0.0568
6.4044 -0.5228 0.0564
6.3964 -0.5153 0.0563
6.3883 -0.5083 0.0561
7.4264 -2.3668 0.1330
7.4138 -2.3113 0.1317
7.2709 -2.0692 0.1232
7.2013 -1.9398 0.1189
7.0948 -1.7595 0.1126
7.0828 -1.7175 0.1115
7.0101 -1.6418 0.1079
6.9570 -1.5499 0.1047
6.8912 -1.4295 0.1007
6.8675 -1.3912 0.0993
6.8012 -1.2859 0.0954
6.7710 -1.2256 0.0935
6.7541 -1.1717 0.0921
6.7300 -1.1426 0.0909
6.7132 -1.1160 0.0899
6.7016 -1.0910 0.0891
6.6826 -1.0660 0.0881
6.6625 -1.0419 0.0870
6.6518 -1.0194 0.0863
6.6547 -0.9978 0.0861
6.6091 -0.9559 0.0839
6.6004 -0.9360 0.0833
6.5980 -0.9161 0.0830
6.5893 -0.8970 0.0824
6.5588 -0.8437 0.0805
6.5426 -0.8283 0.0797
6.5327 -0.8123 0.0792
6.5271 -0.7958 0.0787
6.5256 -0.7783 0.0784
6.5093 -0.7657 0.0777
6.4983 -0.7521 0.0771
6.4915 -0.7376 0.0766
6.4783 -0.7260 0.0760
6.4779 -0.7098 0.0758
6.4710 -0.6964 0.0753
6.4620 -0.6845 0.0748
6.4584 -0.6703 0.0745
6.4419 -0.6632 0.0738
6.4425 -0.6475 0.0736
6.4377 -0.6349 0.0733
6.4286 -0.6252 0.0728
6.4185 -0.6166 0.0723
6.4179 -0.6023 0.0721
6.4164 -0.5887 0.0718
6.4277 -0.5663 0.0719
6.4218 -0.5558 0.0715
6.4137 -0.5472 0.0711
6.4121 -0.5341 0.0709
6.4073 -0.5236 0.0705
6.4003 -0.5153 0.0702
7.2263 -1.9888 0.1564
7.2113 -1.9397 0.1547
7.0813 -1.7454 0.1439
7.0216 -1.6759 0.1392
6.9959 -1.6289 0.1370
6.8864 -1.4241 0.1272
6.8573 -1.3840 0.1248
6.7945 -1.2557 0.1191
6.7798 -1.2261 0.1177
6.7228 -1.1400 0.1130
6.6823 -1.0652 0.1094
6.6663 -1.0416 0.1080
6.6492 -1.0189 0.1067
6.6437 -0.9973 0.1060
6.5995 -0.9363 0.1024
6.5907 -0.9170 0.1016
6.5809 -0.8984 0.1007
6.5667 -0.8810 0.0996
6.5664 -0.8621 0.0993
6.5554 -0.8452 0.0983
6.5497 -0.8278 0.0977
6.5266 -0.7971 0.0959
6.5198 -0.7814 0.0952
6.5130 -0.7660 0.0946
6.5051 -0.7513 0.0939
6.4967 -0.7205 0.0929
6.4909 -0.7061 0.0923
6.4851 -0.6921 0.0917
6.4584 -0.6724 0.0898
6.4493 -0.6614 0.0891
6.4370 -0.6527 0.0882
6.4343 -0.6392 0.0879
6.4295 -0.6270 0.0874
6.4236 -0.6159 0.0869
6.4166 -0.6057 0.0863
6.4139 -0.5930 0.0859
6.4264 -0.5700 0.0863
6.4258 -0.5557 0.0860
6.4188 -0.5463 0.0854
6.4139 -0.5357 0.0850
6.4090 -0.5253 0.0845
6.3987 -0.5197 0.0838
6.3959 -0.5082 0.0835
7.0570 -1.7249 0.1730
6.8562 -1.3806 0.1503
6.8373 -1.3463 0.1482
6.7929 -1.2532 0.1428
6.7441 -1.1667 0.1373
6.7312 -1.1403 0.1358
6.5576 -0.8642 0.1165
6.5540 -0.8463 0.1159
6.5472 -0.8293 0.1150
6.5286 -0.8155 0.1132
6.5271 -0.7982 0.1128
6.5213 -0.7822 0.1120
6.5123 -0.7676 0.1110
6.4990 -0.7549 0.1097
6.4975 -0.7387 0.1093
6.4851 -0.7267 0.1081
6.4691 -0.7011 0.1063
6.4675 -0.6859 0.1059
6.4595 -0.6740 0.1050
6.4525 -0.6620 0.1042
6.4395 -0.6385 0.1027
6.4303 -0.6289 0.1018
6.4265 -0.6165 0.1013
6.4216 -0.6050 0.1007
6.4146 -0.5952 0.0999
6.4195 -0.5775 0.1000
6.4200 -0.5627 0.0998
6.4173 -0.5503 0.0994
6.4135 -0.5390 0.0989
6.4075 -0.5296 0.0982
6.3981 -0.5232 0.0973
7.0868 -1.7375 0.2070
7.0041 -1.6556 0.1966
6.6238 -0.9761 0.1431
6.6117 -0.9561 0.1415
6.6060 -0.9364 0.1405
6.5881 -0.8987 0.1379
6.5770 -0.8808 0.1364
6.5648 -0.8638 0.1347
6.5493 -0.8480 0.1328
6.5392 -0.8320 0.1314
6.5334 -0.8154 0.1305
6.5211 -0.8009 0.1289
6.5218 -0.7834 0.1286
6.5062 -0.7709 0.1267
6.4970 -0.7571 0.1255
6.4977 -0.7402 0.1252
6.4907 -0.7263 0.1242
6.4772 -0.7154 0.1226
6.4636 -0.7053 0.1209
6.4686 -0.6873 0.1211
6.4583 -0.6766 0.1198
6.4556 -0.6625 0.1193
6.4442 -0.6532 0.1179
6.4393 -0.6409 0.1171
6.4278 -0.6327 0.1157
6.4306 -0.6164 0.1157
6.4202 -0.6084 0.1145
6.4163 -0.5966 0.1138
6.4180 -0.5812 0.1137
6.4229 -0.5634 0.1140
6.4213 -0.5503 0.1135
6.4141 -0.5415 0.1126
6.4080 -0.5321 0.1118
6.4031 -0.5223 0.1111
6.3992 -0.5118 0.1105
7.2031 -1.9502 0.2572
7.0661 -1.7196 0.2347
7.0009 -1.6488 0.2247
6.5926 -0.9180 0.1568
6.5879 -0.8992 0.1559
6.5778 -0.8813 0.1542
6.5590 -0.8654 0.1514
6.5382 -0.8154 0.1477
6.5258 -0.8009 0.1458
6.5254 -0.7837 0.1454
6.5064 -0.7722 0.1427
6.5027 -0.7567 0.1419
6.4745 -0.7024 0.1371
6.4608 -0.6928 0.1351
6.4592 -0.6781 0.1346
6.4521 -0.6663 0.1335
6.4472 -0.6538 0.1326
6.4346 -0.6458 0.1308
6.4296 -0.6340 0.1299
6.4258 -0.6217 0.1291
6.4219 -0.6098 0.1284
6.4180 -0.5980 0.1277
6.4186 -0.5834 0.1275
6.4214 -0.5673 0.1275
6.4175 -0.5559 0.1268
6.4102 -0.5473 0.1257
6.4074 -0.5356 0.1251
6.4046 -0.5240 0.1245
7.2872 -2.0811 0.3062
7.2273 -1.9979 0.2952
7.1506 -1.8707 0.2807
7.1328 -1.8237 0.2770
7.1076 -1.7731 0.2721
7.0833 -1.7245 0.2673
6.6163 -0.9760 0.1796
6.5891 -0.9186 0.1742
6.5778 -0.9007 0.1721
6.5676 -0.8833 0.1701
6.5596 -0.8661 0.1685
6.5445 -0.8327 0.1655
6.5375 -0.8166 0.1641
6.5261 -0.8020 0.1620
6.4962 -0.7602 0.1565
6.4979 -0.7432 0.1565
6.4853 -0.7316 0.1543
6.4804 -0.7176 0.1532
6.4766 -0.7033 0.1523
6.4684 -0.6912 0.1508
6.4624 -0.6786 0.1496
6.4530 -0.6680 0.1479
6.4436 -0.6578 0.1463
6.4364 -0.6470 0.1449
6.4242 -0.6251 0.1426
6.4214 -0.6125 0.1419
6.4197 -0.5994 0.1414
6.4192 -0.5856 0.1410
6.4264 -0.5665 0.1418
6.4191 -0.5575 0.1405
6.4152 -0.5464 0.1396
6.4124 -0.5346 0.1390
6.4062 -0.5258 0.1378
6.4034 -0.5144 0.1372
7.3296 -2.1857 0.3510
7.3013 -2.1233 0.3446
7.2793 -2.0673 0.3395
7.1238 -1.8118 0.3063
7.0994 -1.7624 0.3009
6.6147 -0.9562 0.1971
6.6019 -0.9179 0.1940
6.5906 -0.8998 0.1916
6.5858 -0.8815 0.1904
6.5711 -0.8650 0.1874
6.5575 -0.8490 0.1846
6.5494 -0.8327 0.1828
6.5346 -0.8183 0.1798
6.5297 -0.8022 0.1786
6.5304 -0.7848 0.1784
6.5062 -0.7584 0.1735
6.4969 -0.7451 0.1716
6.4886 -0.7320 0.1698
6.4815 -0.7188 0.1682
6.4710 -0.7075 0.1661
6.4649 -0.6947 0.1648
6.4621 -0.6807 0.1640
6.4560 -0.6685 0.1626
6.4443 -0.6595 0.1603
6.4427 -0.6457 0.1598
6.4354 -0.6351 0.1582
6.4304 -0.6237 0.1571
6.4220 -0.6146 0.1554
6.4203 -0.6015 0.1548
6.4174 -0.5894 0.1541
6.4270 -0.5688 0.1553
6.4253 -0.5558 0.1548
6.4157 -0.5489 0.1529
6.4128 -0.5372 0.1522
6.4089 -0.5266 0.1512
7.2827 -2.1007 0.3752
7.2456 -2.0342 0.3662
7.1595 -1.8640 0.3451
7.1070 -1.7951 0.3330
7.0910 -1.7516 0.3288
6.6791 -1.0823 0.2308
6.6361 -0.9960 0.2202
6.6270 -0.9759 0.2179
6.6299 -0.9559 0.2181
6.6108 -0.9370 0.2138
6.5906 -0.9192 0.2093
6.5869 -0.9007 0.2082
6.5590 -0.8496 0.2014
6.5442 -0.8347 0.1981
6.5426 -0.8175 0.1974
6.5079 -0.7757 0.1895
6.5007 -0.7616 0.1877
6.4924 -0.7482 0.1857
6.4863 -0.7345 0.1842
6.4836 -0.7197 0.1833
6.4763 -0.7070 0.1816
6.4691 -0.6947 0.1798
6.4596 -0.6838 0.1777
6.4512 -0.6729 0.1758
6.4506 -0.6583 0.1753
6.4422 -0.6481 0.1734
6.4338 -0.6383 0.1715
6.4236 -0.6159 0.1689
6.4106 -0.6102 0.1662
6.4134 -0.5946 0.1664
6.4162 -0.5789 0.1666
6.4235 -0.5598 0.1677
6.4184 -0.5497 0.1664
6.4155 -0.5380 0.1656
6.4138 -0.5257 0.1650
7.1363 -1.8422 0.3703
7.1202 -1.7977 0.3657
7.0998 -1.7515 0.3600
7.0045 -1.6319 0.3358
6.6937 -1.0834 0.2534
6.6779 -1.0602 0.2493
6.6541 -1.0167 0.2430
6.6305 -0.9957 0.2372
6.6279 -0.9758 0.2361
6.5912 -0.9195 0.2266
6.5362 -0.8200 0.2119
6.5346 -0.8032 0.2112
6.5241 -0.7890 0.2085
6.5112 -0.7760 0.2053
6.5006 -0.7630 0.2026
6.4979 -0.7478 0.2017
6.4918 -0.7340 0.2000
6.4822 -0.7219 0.1976
6.4806 -0.7069 0.1969
6.4744 -0.6941 0.1952
6.4649 -0.6832 0.1928
6.4541 -0.6734 0.1901
6.4502 -0.6606 0.1890
6.4417 -0.6505 0.1868
6.4355 -0.6396 0.1852
6.4173 -0.6221 0.1807
6.4161 -0.5953 0.1798
6.4211 -0.5781 0.1806
6.4285 -0.5590 0.1818
6.4199 -0.5513 0.1797
6.4170 -0.5397 0.1788
6.4062 -0.5346 0.1762
6.4090 -0.5189 0.1765
6.5425 -5.7562 1.1182
5.5368 -5.2803 1.0197
5.4187 -5.4585 1.0648
6.5159 -5.5723 0.9737
5.6523 -4.8660 0.8328
5.5665 -4.7269 0.8037
4.7323 -4.2364 0.7095
4.7374 -4.0066 0.6591
4.5663 -4.2550 0.7161
8.5725 -4.9935 0.7287
6.5525 -5.7529 0.9067
5.9430 -3.7173 0.5183
5.6546 -4.7743 0.7289
5.5649 -4.7370 0.7230
4.7727 -4.0999 0.6103
4.7602 -3.9275 0.5768
4.6136 -4.1165 0.6159
1.8973 -5.7383 0.9726
2.0109 -5.4687 0.9182
1.9428 -5.4148 0.9087
1.6894 -5.5615 0.9411
6.5825 -5.8928 0.8230
6.3423 -5.8833 0.8247
6.2110 -5.7657 0.8064
5.9385 -3.6363 0.4451
5.8784 -3.6826 0.4539
5.7546 -2.8540 0.3136
5.5924 -4.2313 0.5519
5.5518 -3.7713 0.4736
5.2960 -5.5189 0.7767
4.7243 -4.2220 0.5623
4.7458 -3.9493 0.5153
4.5570 -4.2402 0.5677
1.9210 -5.8293 0.8765
2.3645 -5.1658 0.7567
2.3703 -5.0363 0.7344
2.1925 -5.1147 0.7503
6.5630 -5.7504 0.6903
5.9434 -3.6854 0.3941
