ply
format ascii 1.0
element vertex 2197
property float x
property float y
property float z
end_header
5.3788 2.5391 -0.0043
5.3839 2.5391 -0.0166
5.3924 2.5447 -0.0296
5.3983 2.5453 -0.0428
5.4047 2.5467 -0.0564
5.4138 2.5426 -0.0839
5.4176 2.5391 -0.0977
5.4248 2.5408 -0.1129
5.4333 2.5440 -0.1290
5.4441 2.5503 -0.1466
5.4463 2.5436 -0.1608
5.4538 2.5445 -0.1778
5.4584 2.5410 -0.1935
5.4649 2.5398 -0.2106
5.4702 2.5369 -0.2272
5.4797 2.5394 -0.2469
5.4924 2.5454 -0.2693
5.4960 2.5397 -0.2858
5.4997 2.5339 -0.3024
5.5219 2.5501 -0.3342
5.5288 2.5475 -0.3544
5.5383 2.5475 -0.3771
5.5609 2.5394 -0.4425
5.5707 2.5385 -0.4672
5.5786 2.5354 -0.4904
5.5964 2.5418 -0.5246
5.6045 2.5382 -0.5490
5.5962 2.5189 -0.5551
5.5779 2.4909 -0.5486
5.5706 2.4738 -0.5542
5.5572 2.4518 -0.5515
5.5483 2.4344 -0.5536
5.5359 2.4145 -0.5505
5.5281 2.3991 -0.5526
5.5202 2.3839 -0.5539
5.5115 2.3686 -0.5535
5.5006 2.3521 -0.5494
5.4944 2.3396 -0.5513
5.4888 2.3279 -0.5537
5.4731 2.3023 -0.5503
5.4651 2.2901 -0.5475
5.4620 2.2812 -0.5520
5.2952 2.5468 0.1760
5.2972 2.5432 0.1663
5.3019 2.5466 0.1589
5.3054 2.5464 0.1500
5.3079 2.5438 0.1402
5.3105 2.5411 0.1303
5.3144 2.5418 0.1212
5.3180 2.5412 0.1116
5.3220 2.5416 0.1021
5.3266 2.5430 0.0925
5.3322 2.5464 0.0830
5.3359 2.5454 0.0724
5.3396 2.5443 0.0616
5.3429 2.5420 0.0505
5.3496 2.5469 0.0399
5.3525 2.5434 0.0282
5.3584 2.5459 0.0168
5.3618 2.5432 0.0047
5.3647 2.5395 -0.0074
5.3717 2.5434 -0.0199
5.3778 2.5453 -0.0327
5.3819 2.5431 -0.0457
5.3865 2.5418 -0.0590
5.3933 2.5441 -0.0730
5.3980 2.5425 -0.0869
5.4050 2.5444 -0.1017
5.4114 2.5452 -0.1168
5.4179 2.5458 -0.1323
5.4206 2.5402 -0.1464
5.4278 2.5413 -0.1628
5.4311 2.5364 -0.1775
5.4406 2.5405 -0.1960
5.4485 2.5419 -0.2140
5.4577 2.5446 -0.2333
5.4652 2.5447 -0.2520
5.4816 2.5458 -0.2916
5.4870 2.5422 -0.3098
5.4984 2.5459 -0.3333
5.5057 2.5442 -0.3538
5.5154 2.5451 -0.3770
5.5228 2.5429 -0.3984
5.5303 2.5406 -0.4203
5.5486 2.5386 -0.4685
5.5594 2.5390 -0.4950
5.5709 2.5396 -0.5230
5.5763 2.5336 -0.5443
5.5684 2.5144 -0.5499
5.5642 2.4992 -0.5594
5.5529 2.4778 -0.5594
5.5376 2.4533 -0.5533
5.5298 2.4364 -0.5561
5.5180 2.4165 -0.5527
5.5040 2.3954 -0.5456
5.4997 2.3830 -0.5512
5.4908 2.3672 -0.5495
5.4876 2.3564 -0.5559
5.4804 2.3428 -0.5558
5.4718 2.3285 -0.5530
5.4650 2.3160 -0.5525
5.4582 2.3039 -0.5514
5.4519 2.2925 -0.5507
5.4490 2.2836 -0.5551
5.2811 2.5487 0.1817
5.2831 2.5452 0.1721
5.2863 2.5452 0.1637
5.2887 2.5428 0.1542
5.2929 2.5450 0.1462
5.2954 2.5424 0.1365
5.2996 2.5443 0.1279
5.3052 2.5495 0.1200
5.3078 2.5466 0.1097
5.3108 2.5449 0.0995
5.3139 2.5430 0.0892
5.3169 2.5411 0.0788
5.3210 2.5412 0.0685
5.3264 2.5444 0.0584
5.3296 2.5422 0.0473
5.3347 2.5440 0.0364
5.3393 2.5447 0.0251
5.3440 2.5452 0.0135
5.3488 2.5456 0.0016
5.3531 2.5448 -0.0105
5.3585 2.5459 -0.0231
5.3619 2.5429 -0.0357
5.3663 2.5418 -0.0486
5.3688 2.5369 -0.0614
5.3768 2.5420 -0.0757
5.3829 2.5433 -0.0899
5.3885 2.5434 -0.1044
5.3932 2.5416 -0.1188
5.4016 2.5459 -0.1351
5.4058 2.5429 -0.1499
5.4133 2.5449 -0.1667
5.4192 2.5442 -0.1830
5.4246 2.5425 -0.1993
5.4290 2.5391 -0.2152
5.4395 2.5443 -0.2356
5.4473 2.5453 -0.2547
5.4557 2.5468 -0.2747
5.4598 2.5419 -0.2915
5.4639 2.5370 -0.3085
5.4793 2.5468 -0.3359
5.4938 2.5547 -0.3634
5.4964 2.5469 -0.3802
5.5001 2.5405 -0.3981
5.5050 2.5355 -0.4173
5.5182 2.5400 -0.4457
5.5315 2.5441 -0.4750
5.5372 2.5391 -0.4962
5.5465 2.5380 -0.5220
5.5481 2.5282 -0.5387
5.5437 2.5122 -0.5477
5.5379 2.4953 -0.5545
5.5260 2.4727 -0.5524
5.5144 2.4512 -0.5499
5.5082 2.4354 -0.5541
5.5007 2.4189 -0.5558
5.4887 2.3988 -0.5503
5.4834 2.3853 -0.5540
5.4768 2.3710 -0.5551
5.4688 2.3560 -0.5536
5.4639 2.3439 -0.5563
5.4563 2.3301 -0.5543
5.4518 2.3190 -0.5569
5.4387 2.2949 -0.5538
5.4334 2.2842 -0.5536
5.2727 2.5484 0.1699
5.2754 2.5472 0.1610
5.2774 2.5436 0.1512
5.2814 2.5458 0.1432
5.2830 2.5410 0.1328
5.2854 2.5384 0.1230
5.2899 2.5414 0.1146
5.2945 2.5443 0.1058
5.2987 2.5459 0.0965
5.3021 2.5452 0.0864
5.3055 2.5443 0.0761
5.3107 2.5477 0.0662
5.3129 2.5435 0.0550
5.3155 2.5403 0.0439
5.3213 2.5442 0.0333
5.3263 2.5460 0.0220
5.3294 2.5435 0.0103
5.3336 2.5429 -0.0015
5.3373 2.5413 -0.0136
5.3424 2.5425 -0.0260
5.3490 2.5463 -0.0389
5.3528 2.5443 -0.0519
5.3572 2.5431 -0.0651
5.3625 2.5436 -0.0789
5.3689 2.5458 -0.0933
5.3714 2.5406 -0.1067
5.3788 2.5443 -0.1223
5.3839 2.5433 -0.1372
5.3895 2.5430 -0.1527
5.3937 2.5400 -0.1677
5.4014 2.5428 -0.1851
5.4051 2.5387 -0.2003
5.4135 2.5419 -0.2190
5.4209 2.5432 -0.2375
5.4300 2.5467 -0.2577
5.4355 2.5443 -0.2755
5.4432 2.5450 -0.2955
5.4588 2.5455 -0.3370
5.4673 2.5461 -0.3590
5.4752 2.5458 -0.3810
5.4811 2.5424 -0.4012
5.4881 2.5402 -0.4229
5.4986 2.5420 -0.4488
5.5091 2.5435 -0.4755
5.5209 2.5460 -0.5043
5.5271 2.5415 -0.5266
5.5351 2.5388 -0.5515
5.5264 2.5176 -0.5545
5.5146 2.4937 -0.5526
5.5027 2.4705 -0.5493
5.4970 2.4543 -0.5541
5.4871 2.4344 -0.5521
5.4806 2.4185 -0.5544
5.4727 2.4018 -0.5541
5.4573 2.3700 -0.5520
5.4457 2.3435 -0.5536
5.4324 2.3171 -0.5506
5.4280 2.3064 -0.5523
5.4224 2.2949 -0.5514
5.4179 2.2847 -0.5521
5.2571 2.5441 0.1734
5.2608 2.5467 0.1660
5.2638 2.5468 0.1576
5.2661 2.5444 0.1482
5.2696 2.5455 0.1398
5.2723 2.5442 0.1305
5.2762 2.5462 0.1219
5.2786 2.5435 0.1119
5.2822 2.5442 0.1026
5.2866 2.5469 0.0935
5.2895 2.5451 0.0832
5.2936 2.5465 0.0732
5.2954 2.5413 0.0621
5.3008 2.5457 0.0521
5.3038 2.5435 0.0411
5.3076 2.5434 0.0300
5.3107 2.5411 0.0186
5.3155 2.5428 0.0072
5.3243 2.5436 -0.0167
5.3267 2.5390 -0.0289
5.3338 2.5449 -0.0419
5.3389 2.5458 -0.0550
5.3417 2.5418 -0.0679
5.3487 2.5462 -0.0822
5.3521 2.5429 -0.0956
5.3564 2.5414 -0.1096
5.3626 2.5433 -0.1248
5.3661 2.5397 -0.1389
5.3715 2.5396 -0.1543
5.3769 2.5393 -0.1700
5.3858 2.5447 -0.1884
5.3899 2.5415 -0.2039
5.3975 2.5439 -0.2223
5.4032 2.5428 -0.2396
5.4109 2.5448 -0.2590
5.4202 2.5489 -0.2803
5.4241 2.5441 -0.2971
5.4311 2.5438 -0.3170
5.4381 2.5433 -0.3374
5.4473 2.5456 -0.3604
5.4550 2.5454 -0.3824
5.4622 2.5442 -0.4043
5.4669 2.5393 -0.4234
5.4759 2.5398 -0.4480
5.4839 2.5387 -0.4719
5.4920 2.5374 -0.4963
5.5066 2.5437 -0.5298
5.5078 2.5333 -0.5457
5.5001 2.5128 -0.5490
5.4945 2.4952 -0.5546
5.4855 2.4743 -0.5544
5.4796 2.4575 -0.5583
5.4686 2.4357 -0.5535
5.4630 2.4203 -0.5565
5.4545 2.4024 -0.5542
5.4493 2.3883 -0.5567
5.4387 2.3695 -0.5497
5.4362 2.3588 -0.5557
5.4283 2.3435 -0.5519
5.4251 2.3327 -0.5558
5.4193 2.3201 -0.5549
5.4135 2.3079 -0.5533
5.4069 2.2954 -0.5500
5.2480 2.5414 0.1609
5.2523 2.5464 0.1542
5.2545 2.5440 0.1449
5.2582 2.5463 0.1368
5.2605 2.5439 0.1272
5.2642 2.5459 0.1186
5.2669 2.5444 0.1089
5.2700 2.5440 0.0993
5.2750 2.5490 0.0907
5.2778 2.5473 0.0803
5.2799 2.5432 0.0695
5.2875 2.5447 0.0489
5.2912 2.5447 0.0381
5.2953 2.5457 0.0271
5.2999 2.5475 0.0159
5.3025 2.5440 0.0042
5.3047 2.5396 -0.0076
5.3106 2.5440 -0.0197
5.3166 2.5482 -0.0323
5.3210 2.5483 -0.0451
5.3246 2.5463 -0.0580
5.3286 2.5452 -0.0712
5.3323 2.5431 -0.0846
5.3364 2.5417 -0.0982
5.3402 2.5394 -0.1120
5.3470 2.5432 -0.1275
5.3522 2.5432 -0.1426
5.3565 2.5413 -0.1575
5.3631 2.5437 -0.1742
5.3675 2.5415 -0.1897
5.3720 2.5392 -0.2054
5.3797 2.5426 -0.2241
5.3847 2.5408 -0.2410
5.3935 2.5453 -0.2616
5.3991 2.5439 -0.2797
5.4067 2.5455 -0.3001
5.4144 2.5469 -0.3210
5.4192 2.5434 -0.3393
5.4266 2.5435 -0.3607
5.4320 2.5405 -0.3802
5.4390 2.5395 -0.4018
5.4470 2.5397 -0.4252
5.4541 2.5382 -0.4478
5.4669 2.5441 -0.4784
5.4711 2.5381 -0.4979
5.4857 2.5453 -0.5323
5.4901 2.5388 -0.5526
5.4824 2.5175 -0.5551
5.4778 2.5005 -0.5614
5.4661 2.4757 -0.5562
5.4596 2.4576 -0.5581
5.4507 2.4376 -0.5557
5.4434 2.4198 -0.5550
5.4370 2.4036 -0.5552
5.4283 2.3855 -0.5508
5.4233 2.3717 -0.5523
5.4210 2.3609 -0.5582
5.4130 2.3450 -0.5533
5.4071 2.3317 -0.5517
5.4045 2.3216 -0.5560
5.3985 2.3088 -0.5532
5.3929 2.2968 -0.5508
5.3912 2.2884 -0.5559
5.3872 2.2783 -0.5560
5.2369 2.5409 0.1576
5.2409 2.5460 0.1509
5.2434 2.5448 0.1419
5.2495 2.5459 0.1245
5.2524 2.5457 0.1153
5.2553 2.5454 0.1059
5.2576 2.5427 0.0959
5.2610 2.5433 0.0863
5.2651 2.5461 0.0770
5.2685 2.5465 0.0669
5.2716 2.5457 0.0564
5.2740 2.5426 0.0455
5.2787 2.5459 0.0351
5.2804 2.5406 0.0237
5.2848 2.5425 0.0126
5.2899 2.5463 0.0011
5.2929 2.5439 -0.0107
5.2962 2.5424 -0.0227
5.3015 2.5457 -0.0352
5.3061 2.5468 -0.0480
5.3076 2.5401 -0.0602
5.3135 2.5439 -0.0739
5.3167 2.5408 -0.0870
5.3214 2.5415 -0.1010
5.3316 2.5431 -0.1302
5.3361 2.5423 -0.1450
5.3424 2.5449 -0.1613
5.3513 2.5416 -0.1922
5.3573 2.5428 -0.2094
5.3705 2.5461 -0.2459
5.3848 2.5501 -0.2854
5.3894 2.5469 -0.3030
5.3959 2.5468 -0.3230
5.4010 2.5441 -0.3418
5.4081 2.5444 -0.3631
5.4138 2.5421 -0.3832
5.4269 2.5393 -0.4263
5.4347 2.5394 -0.4501
5.4450 2.5427 -0.4780
5.4540 2.5435 -0.5045
5.4621 2.5427 -0.5302
5.4688 2.5397 -0.5542
5.4538 2.4968 -0.5568
5.4454 2.4752 -0.5554
5.4377 2.4553 -0.5545
5.4305 2.4364 -0.5535
5.4262 2.4216 -0.5571
5.4197 2.4047 -0.5562
5.4136 2.3888 -0.5554
5.4057 2.3716 -0.5509
5.4010 2.3582 -0.5515
5.3993 2.3482 -0.5577
5.3954 2.3362 -0.5593
5.3882 2.3216 -0.5538
5.3841 2.3102 -0.5541
5.3789 2.2982 -0.5516
5.3769 2.2893 -0.5554
5.3753 2.2810 -0.5601
5.2251 2.5487 0.1653
5.2269 2.5453 0.1559
5.2299 2.5467 0.1479
5.2323 2.5456 0.1390
5.2347 2.5445 0.1299
5.2372 2.5432 0.1206
5.2412 2.5477 0.1127
5.2441 2.5474 0.1032
5.2466 2.5459 0.0934
5.2502 2.5477 0.0840
5.2525 2.5449 0.0736
5.2551 2.5431 0.0633
5.2584 2.5435 0.0530
5.2628 2.5469 0.0429
5.2638 2.5396 0.0315
5.2690 2.5449 0.0209
5.2735 2.5479 0.0097
5.2756 2.5435 -0.0019
5.2795 2.5442 -0.0137
5.2831 2.5437 -0.0257
5.2860 2.5411 -0.0378
5.2911 2.5443 -0.0507
5.2959 2.5464 -0.0639
5.3085 2.5458 -0.1047
5.3132 2.5463 -0.1191
5.3167 2.5438 -0.1331
5.3207 2.5422 -0.1477
5.3251 2.5413 -0.1627
5.3361 2.5435 -0.1955
5.3406 2.5421 -0.2116
5.3453 2.5406 -0.2280
5.3524 2.5440 -0.2472
5.3559 2.5397 -0.2630
5.3607 2.5377 -0.2804
5.3663 2.5372 -0.2990
5.3830 2.5449 -0.3441
5.3885 2.5429 -0.3637
5.3949 2.5423 -0.3849
5.4009 2.5407 -0.4059
5.4088 2.5418 -0.4299
5.4140 2.5384 -0.4504
5.4225 2.5397 -0.4761
5.4270 2.5346 -0.4960
5.4430 2.5462 -0.5348
5.4435 2.5346 -0.5488
5.4324 2.4957 -0.5554
5.4249 2.4746 -0.5545
5.4207 2.4584 -0.5586
5.4140 2.4395 -0.5575
5.4061 2.4198 -0.5536
5.4005 2.4035 -0.5533
5.3958 2.3888 -0.5542
5.3905 2.3738 -0.5535
5.3861 2.3602 -0.5540
5.3815 2.3470 -0.5538
5.3769 2.3341 -0.5530
5.3742 2.3235 -0.5559
5.3679 2.3096 -0.5505
5.3621 2.2897 -0.5538
5.2163 2.5472 0.1533
5.2181 2.5438 0.1438
5.2207 2.5440 0.1353
5.2236 2.5452 0.1269
5.2260 2.5440 0.1177
5.2295 2.5474 0.1094
5.2320 2.5460 0.0998
5.2344 2.5446 0.0900
5.2384 2.5487 0.0811
5.2418 2.5503 0.0714
5.2441 2.5475 0.0608
5.2467 2.5456 0.0502
5.2487 2.5416 0.0393
5.2507 2.5375 0.0283
5.2561 2.5450 0.0178
5.2585 2.5418 0.0065
5.2635 2.5468 -0.0049
5.2682 2.5505 -0.0168
5.2707 2.5470 -0.0288
5.2739 2.5454 -0.0411
5.2777 2.5457 -0.0537
5.2816 2.5459 -0.0667
5.2856 2.5459 -0.0799
5.2882 2.5420 -0.0928
5.2923 2.5418 -0.1066
5.2978 2.5451 -0.1215
5.3009 2.5418 -0.1353
5.3076 2.5475 -0.1519
5.3097 2.5413 -0.1653
5.3158 2.5447 -0.1822
5.3198 2.5427 -0.1976
5.3249 2.5431 -0.2144
5.3297 2.5425 -0.2312
5.3362 2.5451 -0.2500
5.3427 2.5474 -0.2694
5.3505 2.5519 -0.2908
5.3548 2.5489 -0.3084
5.3571 2.5418 -0.3236
5.3615 2.5386 -0.3415
5.3704 2.5437 -0.3661
5.3741 2.5386 -0.3836
5.3836 2.5439 -0.4100
5.3890 2.5414 -0.4308
5.3979 2.5445 -0.4574
5.4014 2.5381 -0.4756
5.4066 2.5344 -0.4968
5.4179 2.5401 -0.5288
5.4219 2.5340 -0.5486
5.4180 2.5160 -0.5542
5.4126 2.4964 -0.5564
5.4085 2.4791 -0.5604
5.3983 2.4540 -0.5521
5.3947 2.4388 -0.5560
5.3902 2.4227 -0.5574
5.3841 2.4052 -0.5551
5.3788 2.3892 -0.5540
5.3739 2.3742 -0.5530
5.3698 2.3606 -0.5533
5.3661 2.3479 -0.5540
5.3627 2.3360 -0.5552
5.3608 2.3259 -0.5591
5.3553 2.3125 -0.5548
5.3518 2.3014 -0.5543
5.3496 2.2920 -0.5568
5.3484 2.2837 -0.5613
5.2031 2.5476 0.1586
5.2053 2.5467 0.1500
5.2103 2.5471 0.1331
5.2126 2.5460 0.1240
5.2146 2.5437 0.1145
5.2167 2.5413 0.1048
5.2195 2.5423 0.0959
5.2232 2.5466 0.0873
5.2256 2.5451 0.0773
5.2321 2.5485 0.0578
5.2346 2.5467 0.0473
5.2374 2.5459 0.0366
5.2397 2.5429 0.0257
5.2426 2.5419 0.0147
5.2469 2.5461 0.0036
5.2496 2.5439 -0.0079
5.2534 2.5457 -0.0196
5.2570 2.5463 -0.0317
5.2598 2.5438 -0.0438
5.2632 2.5432 -0.0563
5.2666 2.5424 -0.0691
5.2707 2.5435 -0.0824
5.2771 2.5395 -0.1088
5.2823 2.5430 -0.1237
5.2870 2.5444 -0.1386
5.2910 2.5437 -0.1533
5.2947 2.5421 -0.1681
5.2995 2.5429 -0.1840
5.3047 2.5445 -0.2008
5.3086 2.5424 -0.2164
5.3122 2.5393 -0.2320
5.3197 2.5454 -0.2524
5.3237 2.5429 -0.2691
5.3267 2.5377 -0.2845
5.3352 2.5446 -0.3077
5.3405 2.5440 -0.3269
5.3493 2.5502 -0.3516
5.3529 2.5452 -0.3689
5.3561 2.5394 -0.3858
5.3632 2.5411 -0.4091
5.3707 2.5431 -0.4337
5.3753 2.5391 -0.4535
5.3814 2.5378 -0.4763
5.3901 2.5405 -0.5041
5.3960 2.5381 -0.5272
5.4007 2.5334 -0.5484
5.3980 2.5167 -0.5553
5.3914 2.4944 -0.5540
5.3872 2.4765 -0.5568
5.3816 2.4571 -0.5561
5.3762 2.4387 -0.5554
5.3725 2.4232 -0.5575
5.3669 2.4056 -0.5550
5.3620 2.3896 -0.5536
5.3588 2.3763 -0.5555
5.3523 2.3594 -0.5494
5.3512 2.3494 -0.5552
5.3486 2.3380 -0.5574
5.3455 2.3263 -0.5579
5.3400 2.3123 -0.5522
5.3361 2.2933 -0.5574
5.3332 2.2831 -0.5570
5.1991 2.5467 0.1298
5.2015 2.5468 0.1211
5.2035 2.5445 0.1116
5.2058 2.5433 0.1022
5.2087 2.5455 0.0934
5.2115 2.5464 0.0841
5.2136 2.5437 0.0740
5.2159 2.5422 0.0640
5.2192 2.5450 0.0543
5.2219 2.5444 0.0440
5.2243 2.5426 0.0333
5.2270 2.5418 0.0226
5.2306 2.5441 0.0118
5.2333 2.5431 0.0006
5.2398 2.5438 -0.0225
5.2430 2.5435 -0.0344
5.2505 2.5465 -0.0595
5.2536 2.5448 -0.0722
5.2569 2.5440 -0.0852
5.2611 2.5459 -0.0991
5.2660 2.5496 -0.1137
5.2674 2.5417 -0.1260
5.2721 2.5441 -0.1412
5.2793 2.5411 -0.1702
5.2841 2.5429 -0.1865
5.2878 2.5410 -0.2018
5.2928 2.5425 -0.2188
5.2982 2.5446 -0.2368
5.3007 2.5389 -0.2513
5.3142 2.5480 -0.2926
5.3182 2.5451 -0.3100
5.3226 2.5430 -0.3281
5.3264 2.5391 -0.3454
5.3337 2.5429 -0.3688
5.3400 2.5440 -0.3910
5.3453 2.5427 -0.4119
5.3507 2.5411 -0.4332
5.3555 2.5380 -0.4536
5.3614 2.5368 -0.4763
5.3692 2.5389 -0.5032
5.3749 2.5366 -0.5263
5.3802 2.5334 -0.5489
5.3786 2.5180 -0.5572
5.3710 2.4930 -0.5524
5.3676 2.4758 -0.5557
5.3625 2.4563 -0.5548
5.3584 2.4392 -0.5556
5.3530 2.4206 -0.5528
5.3499 2.4060 -0.5548
5.3462 2.3912 -0.5552
5.3434 2.3778 -0.5569
5.3391 2.3630 -0.5549
5.3356 2.3497 -0.5543
5.3296 2.3256 -0.5544
5.3249 2.3121 -0.5496
5.3232 2.3025 -0.5522
5.3214 2.2931 -0.5544
5.1834 2.5444 0.1430
5.1857 2.5447 0.1347
5.1881 2.5462 0.1266
5.1908 2.5488 0.1185
5.1927 2.5464 0.1090
5.1949 2.5452 0.0996
5.1966 2.5417 0.0896
5.1994 2.5438 0.0806
5.2017 2.5424 0.0708
5.2050 2.5465 0.0616
5.2077 2.5471 0.0516
5.2100 2.5454 0.0411
5.2124 2.5437 0.0304
5.2152 2.5440 0.0198
5.2181 2.5442 0.0089
5.2212 2.5453 -0.0023
5.2242 2.5452 -0.0137
5.2274 2.5461 -0.0255
5.2307 2.5468 -0.0375
5.2323 2.5403 -0.0492
5.2361 2.5429 -0.0619
5.2398 2.5442 -0.0749
5.2437 2.5464 -0.0884
5.2541 2.5451 -0.1295
5.2583 2.5466 -0.1445
5.2611 2.5434 -0.1583
5.2649 2.5427 -0.1733
5.2695 2.5446 -0.1896
5.2733 2.5437 -0.2052
5.2778 2.5443 -0.2220
5.2823 2.5448 -0.2391
5.2860 2.5425 -0.2553
5.2910 2.5435 -0.2737
5.2951 2.5418 -0.2910
5.2989 2.5391 -0.3081
5.3082 2.5499 -0.3347
5.3141 2.5515 -0.3561
5.3181 2.5482 -0.3745
5.3232 2.5471 -0.3951
5.3283 2.5458 -0.4160
5.3318 2.5406 -0.4340
5.3377 2.5404 -0.4570
5.3437 2.5400 -0.4806
5.3498 2.5394 -0.5046
5.3577 2.5420 -0.5330
5.3582 2.5299 -0.5454
5.3572 2.5152 -0.5542
5.3543 2.4975 -0.5582
5.3469 2.4724 -0.5511
5.3437 2.4555 -0.5533
5.3419 2.4415 -0.5585
5.3362 2.4216 -0.5537
5.3335 2.4070 -0.5555
5.3310 2.3933 -0.5578
5.3276 2.3787 -0.5573
5.3246 2.3651 -0.5572
5.3214 2.3517 -0.5565
5.3173 2.3375 -0.5529
5.3164 2.3280 -0.5576
5.3121 2.3144 -0.5527
5.3110 2.3053 -0.5564
5.3087 2.2949 -0.5562
5.3079 2.2866 -0.5604
5.1729 2.5450 0.1402
5.1749 2.5442 0.1315
5.1770 2.5445 0.1231
5.1795 2.5471 0.1150
5.1815 2.5460 0.1058
5.1840 2.5472 0.0970
5.1861 2.5460 0.0874
5.1882 2.5447 0.0778
5.1909 2.5467 0.0684
5.1929 2.5441 0.0582
5.1951 2.5425 0.0480
5.1973 2.5409 0.0377
5.2007 2.5458 0.0276
5.2032 2.5450 0.0169
5.2057 2.5442 0.0059
5.2077 2.5401 -0.0052
5.2113 2.5443 -0.0166
5.2143 2.5452 -0.0283
5.2172 2.5450 -0.0402
5.2206 2.5467 -0.0526
5.2233 2.5452 -0.0650
5.2268 2.5466 -0.0780
5.2296 2.5448 -0.0908
5.2325 2.5430 -0.1039
5.2353 2.5411 -0.1171
5.2387 2.5410 -0.1311
5.2432 2.5445 -0.1464
5.2480 2.5487 -0.1626
5.2505 2.5444 -0.1763
5.2533 2.5409 -0.1906
5.2581 2.5437 -0.2076
5.2631 2.5470 -0.2255
5.2661 2.5432 -0.2406
5.2779 2.5530 -0.2811
5.2805 2.5471 -0.2962
5.2839 2.5436 -0.3128
5.2870 2.5391 -0.3292
5.2932 2.5426 -0.3514
5.2985 2.5434 -0.3725
5.3039 2.5440 -0.3941
5.3082 2.5413 -0.4136
5.3116 2.5362 -0.4313
5.3191 2.5406 -0.4584
5.3245 2.5396 -0.4811
5.3299 2.5384 -0.5044
5.3361 2.5383 -0.5296
5.3410 2.5353 -0.5521
5.3380 2.5158 -0.5552
5.3351 2.4974 -0.5582
5.3318 2.4787 -0.5595
5.3263 2.4566 -0.5545
5.3241 2.4413 -0.5577
5.3207 2.4244 -0.5574
5.3183 2.4098 -0.5592
5.3140 2.3924 -0.5553
5.3121 2.3796 -0.5577
5.3097 2.3665 -0.5585
5.3050 2.3503 -0.5522
5.3021 2.3288 -0.5573
5.2990 2.3162 -0.5546
5.2992 2.3086 -0.5618
5.2967 2.2976 -0.5603
5.2930 2.2854 -0.5547
5.1626 2.5469 0.1377
5.1650 2.5510 0.1304
5.1665 2.5464 0.1205
5.1688 2.5491 0.1124
5.1726 2.5457 0.0936
5.1754 2.5503 0.0853
5.1770 2.5455 0.0749
5.1790 2.5442 0.0651
5.1816 2.5461 0.0555
5.1839 2.5457 0.0454
5.1858 2.5430 0.0349
5.1887 2.5457 0.0247
5.1909 2.5439 0.0139
5.1940 2.5474 0.0031
5.1966 2.5476 -0.0081
5.1993 2.5476 -0.0196
5.2016 2.5454 -0.0312
5.2044 2.5452 -0.0431
5.2079 2.5490 -0.0557
5.2108 2.5485 -0.0682
5.2136 2.5479 -0.0809
5.2155 2.5423 -0.0931
5.2195 2.5464 -0.1072
5.2253 2.5435 -0.1343
5.2284 2.5423 -0.1483
5.2317 2.5419 -0.1629
5.2349 2.5405 -0.1774
5.2422 2.5409 -0.2087
5.2467 2.5435 -0.2262
5.2496 2.5398 -0.2411
5.2532 2.5386 -0.2575
5.2576 2.5397 -0.2757
5.2637 2.5457 -0.2974
5.2672 2.5431 -0.3145
5.2779 2.5479 -0.3570
5.2822 2.5464 -0.3764
5.2862 2.5439 -0.3955
5.2911 2.5436 -0.4169
5.2973 2.5461 -0.4415
5.3027 2.5460 -0.4647
5.3058 2.5399 -0.4824
5.3107 2.5380 -0.5048
5.3210 2.5487 -0.5418
5.3216 2.5358 -0.5533
5.3183 2.5150 -0.5544
5.3159 2.4965 -0.5572
5.3130 2.4778 -0.5582
5.3087 2.4569 -0.5548
5.3059 2.4397 -0.5550
5.3052 2.4272 -0.5611
5.3022 2.4107 -0.5599
5.2986 2.3939 -0.5568
5.2953 2.3781 -0.5539
5.2936 2.3656 -0.5555
5.2908 2.3516 -0.5533
5.2896 2.3407 -0.5560
5.2869 2.3279 -0.5536
5.2855 2.3175 -0.5553
5.2837 2.3068 -0.5553
5.2818 2.2963 -0.5548
5.2810 2.2876 -0.5575
5.1547 2.5566 0.1289
5.1568 2.5581 0.1205
5.1591 2.5620 0.1125
5.1602 2.5524 0.1012
5.1619 2.5488 0.0913
5.1638 2.5476 0.0817
5.1655 2.5440 0.0717
5.1680 2.5473 0.0626
5.1703 2.5482 0.0528
5.1725 2.5478 0.0427
5.1749 2.5495 0.0325
5.1770 2.5478 0.0219
5.1789 2.5438 0.0110
5.1812 2.5431 0.0002
5.1841 2.5466 -0.0110
5.1866 2.5466 -0.0224
5.1892 2.5466 -0.0340
5.1915 2.5444 -0.0458
5.1944 2.5462 -0.0581
5.1971 2.5458 -0.0706
5.1998 2.5453 -0.0832
5.2030 2.5466 -0.0965
5.2056 2.5449 -0.1096
5.2090 2.5469 -0.1237
5.2117 2.5449 -0.1373
5.2148 2.5448 -0.1516
5.2184 2.5463 -0.1668
5.2214 2.5449 -0.1814
5.2251 2.5461 -0.1974
5.2282 2.5444 -0.2125
5.2324 2.5471 -0.2301
5.2356 2.5451 -0.2459
5.2384 2.5413 -0.2610
5.2419 2.5399 -0.2778
5.2471 2.5443 -0.2985
5.2512 2.5443 -0.3171
5.2558 2.5457 -0.3373
5.2591 2.5420 -0.3544
5.2634 2.5415 -0.3742
5.2687 2.5438 -0.3969
5.2716 2.5382 -0.4136
5.2763 2.5378 -0.4353
5.2808 2.5365 -0.4567
5.2870 2.5394 -0.4829
5.2994 2.5435 -0.5367
5.3015 2.5342 -0.5519
5.3010 2.5189 -0.5595
5.2987 2.4997 -0.5613
5.2931 2.4736 -0.5524
5.2908 2.4560 -0.5532
5.2898 2.4420 -0.5578
5.2867 2.4238 -0.5551
5.2843 2.4079 -0.5545
5.2831 2.3948 -0.5572
5.2805 2.3795 -0.5552
5.2791 2.3670 -0.5567
5.2763 2.3524 -0.5533
5.2756 2.3421 -0.5569
5.2733 2.3292 -0.5544
5.2725 2.3193 -0.5572
5.2696 2.3065 -0.5523
5.2687 2.2970 -0.5541
5.2684 2.2887 -0.5579
5.1444 2.5636 0.1277
5.1462 2.5626 0.1186
5.1481 2.5640 0.1099
5.1498 2.5604 0.0999
5.1521 2.5652 0.0915
5.1539 2.5627 0.0814
5.1559 2.5624 0.0716
5.1574 2.5552 0.0607
5.1597 2.5583 0.0510
5.1613 2.5521 0.0402
5.1629 2.5472 0.0294
5.1649 2.5455 0.0189
5.1672 2.5460 0.0082
5.1691 2.5431 -0.0027
5.1712 2.5412 -0.0137
5.1741 2.5456 -0.0252
5.1763 2.5436 -0.0366
5.1788 2.5445 -0.0486
5.1813 2.5443 -0.0607
5.1834 2.5409 -0.0726
5.1866 2.5446 -0.0858
5.1894 2.5450 -0.0989
5.1928 2.5492 -0.1131
5.1952 2.5464 -0.1262
5.1979 2.5455 -0.1399
5.2007 2.5444 -0.1539
5.2049 2.5507 -0.1707
5.2066 2.5428 -0.1830
5.2104 2.5459 -0.1996
5.2128 2.5416 -0.2136
5.2162 2.5417 -0.2298
5.2198 2.5425 -0.2467
5.2233 2.5422 -0.2636
5.2264 2.5401 -0.2799
5.2310 2.5437 -0.3001
5.2343 2.5413 -0.3170
5.2424 2.5417 -0.3558
5.2466 2.5420 -0.3762
5.2499 2.5382 -0.3938
5.2549 2.5404 -0.4169
5.2582 2.5363 -0.4351
5.2642 2.5403 -0.4614
5.2690 2.5403 -0.4848
5.2718 2.5336 -0.5017
5.2775 2.5353 -0.5282
5.2825 2.5347 -0.5529
5.2787 2.4953 -0.5558
5.2766 2.4766 -0.5564
5.2740 2.4569 -0.5542
5.2717 2.4272 -0.5598
5.2669 2.3938 -0.5546
5.2641 2.3671 -0.5557
5.2625 2.3543 -0.5554
5.2609 2.3417 -0.5545
5.2592 2.3293 -0.5529
5.2577 2.3178 -0.5520
5.2570 2.3082 -0.5540
5.2572 2.3002 -0.5594
5.2561 2.2904 -0.5595
5.1312 2.5425 0.1274
5.1329 2.5455 0.1199
5.1346 2.5448 0.1111
5.1362 2.5427 0.1020
5.1382 2.5490 0.0945
5.1404 2.5564 0.0868
5.1446 2.5657 0.0691
5.1466 2.5666 0.0592
5.1487 2.5673 0.0491
5.1505 2.5634 0.0382
5.1523 2.5605 0.0275
5.1544 2.5599 0.0167
5.1561 2.5547 0.0056
5.1585 2.5573 -0.0055
5.1604 2.5542 -0.0168
5.1624 2.5511 -0.0282
5.1642 2.5468 -0.0396
5.1666 2.5468 -0.0515
5.1688 2.5456 -0.0635
5.1713 2.5463 -0.0760
5.1739 2.5469 -0.0889
5.1760 2.5434 -0.1012
5.1787 2.5447 -0.1147
5.1809 2.5410 -0.1274
5.1842 2.5450 -0.1423
5.1868 2.5440 -0.1563
5.1898 2.5447 -0.1711
5.1930 2.5462 -0.1867
5.1959 2.5457 -0.2019
5.1984 2.5424 -0.2162
5.2017 2.5434 -0.2328
5.2046 2.5416 -0.2484
5.2084 2.5440 -0.2667
5.2111 2.5402 -0.2819
5.2144 2.5397 -0.2995
5.2184 2.5416 -0.3190
5.2221 2.5415 -0.3379
5.2261 2.5421 -0.3578
5.2297 2.5409 -0.3769
5.2332 2.5387 -0.3957
5.2377 2.5403 -0.4181
5.2405 2.5347 -0.4348
5.2460 2.5389 -0.4611
5.2503 2.5383 -0.4836
5.2543 2.5360 -0.5050
5.2630 2.5486 -0.5437
5.2651 2.5394 -0.5589
5.2636 2.5190 -0.5602
5.2622 2.4998 -0.5616
5.2595 2.4776 -0.5576
5.2568 2.4565 -0.5534
5.2562 2.4418 -0.5568
5.2560 2.4287 -0.5615
5.2534 2.4102 -0.5566
5.2522 2.3958 -0.5570
5.2512 2.3823 -0.5578
5.2493 2.3673 -0.5547
5.2481 2.3544 -0.5542
5.2462 2.3406 -0.5508
5.2464 2.3317 -0.5560
5.2447 2.3190 -0.5526
5.2445 2.3099 -0.5558
5.2437 2.2998 -0.5561
5.1210 2.5418 0.1243
5.1226 2.5424 0.1161
5.1241 2.5404 0.1072
5.1258 2.5446 0.0995
5.1273 2.5425 0.0902
5.1290 2.5427 0.0812
5.1308 2.5476 0.0729
5.1324 2.5441 0.0629
5.1342 2.5429 0.0532
5.1359 2.5428 0.0435
5.1379 2.5460 0.0338
5.1407 2.5638 0.0247
5.1426 2.5621 0.0139
5.1444 2.5591 0.0028
5.1465 2.5605 -0.0084
5.1489 2.5651 -0.0199
5.1510 2.5640 -0.0316
5.1531 2.5618 -0.0435
5.1556 2.5659 -0.0561
5.1577 2.5634 -0.0685
5.1597 2.5589 -0.0806
5.1635 2.5487 -0.1048
5.1653 2.5421 -0.1167
5.1681 2.5454 -0.1310
5.1707 2.5455 -0.1449
5.1728 2.5416 -0.1579
5.1753 2.5406 -0.1720
5.1782 2.5413 -0.1871
5.1817 2.5464 -0.2045
5.1875 2.5460 -0.2362
5.1898 2.5415 -0.2505
5.1932 2.5432 -0.2683
5.1963 2.5429 -0.2855
5.1995 2.5424 -0.3031
5.2032 2.5443 -0.3227
5.2062 2.5419 -0.3398
5.2096 2.5409 -0.3585
5.2133 2.5414 -0.3788
5.2178 2.5448 -0.4021
5.2212 2.5425 -0.4214
5.2250 2.5416 -0.4423
5.2298 2.5442 -0.4673
5.2328 2.5391 -0.4854
5.2371 2.5391 -0.5092
5.2419 2.5403 -0.5350
5.2447 2.5334 -0.5523
5.2448 2.5173 -0.5584
5.2430 2.4953 -0.5559
5.2427 2.4792 -0.5597
5.2417 2.4614 -0.5600
5.2403 2.4434 -0.5585
5.2381 2.4238 -0.5533
5.2380 2.4110 -0.5571
5.2372 2.3965 -0.5573
5.2362 2.3824 -0.5569
5.2361 2.3710 -0.5601
5.2345 2.3562 -0.5563
5.2325 2.3413 -0.5505
5.2332 2.3329 -0.5567
5.2315 2.3196 -0.5520
5.2317 2.3110 -0.5563
5.2301 2.2989 -0.5516
5.2311 2.2922 -0.5589
5.1110 2.5411 0.1212
5.1124 2.5418 0.1130
5.1139 2.5436 0.1050
5.1153 2.5428 0.0962
5.1169 2.5444 0.0877
5.1184 2.5459 0.0789
5.1200 2.5448 0.0695
5.1216 2.5437 0.0600
5.1231 2.5378 0.0498
5.1249 2.5436 0.0407
5.1266 2.5423 0.0307
5.1283 2.5420 0.0206
5.1300 2.5405 0.0102
5.1319 2.5434 -0.0003
5.1337 2.5428 -0.0110
5.1357 2.5433 -0.0221
5.1381 2.5555 -0.0340
5.1401 2.5545 -0.0457
5.1418 2.5481 -0.0571
5.1439 2.5469 -0.0691
5.1467 2.5592 -0.0834
5.1492 2.5628 -0.0970
5.1513 2.5591 -0.1096
5.1540 2.5644 -0.1245
5.1564 2.5645 -0.1386
5.1583 2.5577 -0.1510
5.1605 2.5547 -0.1646
5.1631 2.5554 -0.1797
5.1646 2.5438 -0.1904
5.1674 2.5462 -0.2066
5.1699 2.5438 -0.2213
5.1724 2.5423 -0.2365
5.1753 2.5424 -0.2530
5.1779 2.5406 -0.2688
5.1814 2.5447 -0.2885
5.1837 2.5391 -0.3029
5.1863 2.5361 -0.3190
5.1900 2.5388 -0.3394
5.1938 2.5421 -0.3610
5.1970 2.5410 -0.3800
5.2006 2.5414 -0.4007
5.2032 2.5360 -0.4170
5.2079 2.5415 -0.4434
5.2114 2.5397 -0.4640
5.2144 2.5354 -0.4826
5.2189 2.5378 -0.5085
5.2242 2.5428 -0.5384
5.2264 2.5337 -0.5531
5.2264 2.5155 -0.5565
5.2260 2.4969 -0.5581
5.2257 2.4794 -0.5599
5.2234 2.4556 -0.5516
5.2232 2.4402 -0.5535
5.2234 2.4271 -0.5578
5.2226 2.4111 -0.5565
5.2221 2.3966 -0.5566
5.2221 2.3843 -0.5591
5.2206 2.3680 -0.5536
5.2210 2.3581 -0.5583
5.2197 2.3436 -0.5536
5.2200 2.3341 -0.5574
5.2198 2.3235 -0.5585
5.2189 2.3116 -0.5555
5.2190 2.3026 -0.5582
5.2196 2.2948 -0.5630
5.1009 2.5442 0.1191
5.1022 2.5449 0.1109
5.1037 2.5417 0.1017
5.1051 2.5422 0.0932
5.1064 2.5438 0.0847
5.1079 2.5441 0.0757
5.1094 2.5420 0.0662
5.1108 2.5457 0.0574
5.1124 2.5433 0.0476
5.1139 2.5398 0.0375
5.1155 2.5408 0.0278
5.1171 2.5406 0.0177
5.1188 2.5426 0.0075
5.1204 2.5399 -0.0030
5.1221 2.5405 -0.0137
5.1239 2.5432 -0.0248
5.1257 2.5436 -0.0360
5.1274 2.5384 -0.0471
5.1293 2.5386 -0.0587
5.1313 2.5429 -0.0711
5.1334 2.5448 -0.0837
5.1355 2.5467 -0.0966
5.1378 2.5524 -0.1108
5.1396 2.5458 -0.1226
5.1450 2.5640 -0.1554
5.1474 2.5639 -0.1701
5.1498 2.5637 -0.1850
5.1520 2.5604 -0.1992
5.1543 2.5581 -0.2139
5.1573 2.5630 -0.2322
5.1596 2.5594 -0.2470
5.1608 2.5432 -0.2555
5.1639 2.5467 -0.2743
5.1664 2.5448 -0.2905
5.1687 2.5401 -0.3053
5.1717 2.5405 -0.3237
5.1751 2.5441 -0.3448
5.1816 2.5455 -0.3850
5.1843 2.5419 -0.4025
5.1879 2.5437 -0.4250
5.1910 2.5413 -0.4444
5.1944 2.5404 -0.4657
5.1981 2.5408 -0.4889
5.2018 2.5402 -0.5118
5.2063 2.5438 -0.5401
5.2079 2.5311 -0.5505
5.2084 2.5143 -0.5553
5.2086 2.4965 -0.5576
5.2084 2.4776 -0.5574
5.2078 2.4584 -0.5553
5.2077 2.4417 -0.5552
5.2077 2.4266 -0.5564
5.2081 2.4137 -0.5600
5.2071 2.3961 -0.5547
5.2073 2.3838 -0.5571
5.2070 2.3699 -0.5557
5.2063 2.3557 -0.5525
5.2070 2.3352 -0.5581
5.2058 2.3213 -0.5519
5.2060 2.3116 -0.5535
5.2063 2.3027 -0.5560
5.2065 2.2938 -0.5581
5.0911 2.5409 0.1154
5.0922 2.5442 0.1079
5.0936 2.5423 0.0990
5.0948 2.5441 0.0907
5.0961 2.5445 0.0820
5.0974 2.5436 0.0728
5.0989 2.5415 0.0633
5.1004 2.5381 0.0536
5.1015 2.5453 0.0450
5.1031 2.5418 0.0349
5.1045 2.5417 0.0251
5.1061 2.5392 0.0149
5.1091 2.5408 -0.0058
5.1107 2.5393 -0.0164
5.1123 2.5442 -0.0275
5.1140 2.5424 -0.0386
5.1157 2.5427 -0.0501
5.1174 2.5397 -0.0614
5.1192 2.5398 -0.0733
5.1210 2.5429 -0.0860
5.1228 2.5427 -0.0984
5.1247 2.5414 -0.1109
5.1267 2.5441 -0.1246
5.1286 2.5395 -0.1368
5.1306 2.5399 -0.1505
5.1327 2.5401 -0.1646
5.1350 2.5460 -0.1810
5.1371 2.5430 -0.1946
5.1421 2.5517 -0.2292
5.1446 2.5538 -0.2465
5.1467 2.5476 -0.2598
5.1501 2.5601 -0.2838
5.1527 2.5598 -0.3014
5.1554 2.5602 -0.3199
5.1579 2.5561 -0.3359
5.1610 2.5587 -0.3569
5.1637 2.5569 -0.3753
5.1661 2.5508 -0.3908
5.1683 2.5431 -0.4049
5.1713 2.5426 -0.4253
5.1750 2.5467 -0.4505
5.1780 2.5442 -0.4704
5.1808 2.5400 -0.4890
5.1844 2.5410 -0.5135
5.1882 2.5425 -0.5393
5.1902 2.5313 -0.5512
5.1910 2.5138 -0.5549
5.1915 2.4960 -0.5570
5.1925 2.4812 -0.5621
5.1919 2.4592 -0.5561
5.1920 2.4418 -0.5549
5.1925 2.4112 -0.5552
5.1929 2.3980 -0.5570
5.1931 2.3844 -0.5572
5.1935 2.3723 -0.5589
5.1937 2.3599 -0.5590
5.1939 2.3358 -0.5576
5.1938 2.3133 -0.5552
5.1951 2.2965 -0.5622
5.0812 2.5427 0.1130
5.0822 2.5448 0.1052
5.0835 2.5429 0.0962
5.0859 2.5427 0.0788
5.0872 2.5419 0.0697
5.0884 2.5422 0.0606
5.0897 2.5424 0.0514
5.0910 2.5413 0.0418
5.0923 2.5426 0.0322
5.0936 2.5425 0.0224
5.0950 2.5435 0.0123
5.0964 2.5421 0.0020
5.0979 2.5418 -0.0085
5.0994 2.5413 -0.0191
5.1008 2.5430 -0.0301
5.1023 2.5424 -0.0413
5.1039 2.5427 -0.0527
5.1056 2.5397 -0.0640
5.1071 2.5431 -0.0763
5.1088 2.5441 -0.0887
5.1105 2.5419 -0.1008
5.1122 2.5437 -0.1139
5.1141 2.5393 -0.1259
5.1159 2.5439 -0.1404
5.1177 2.5442 -0.1542
5.1197 2.5435 -0.1680
5.1216 2.5407 -0.1813
5.1236 2.5397 -0.1956
5.1278 2.5421 -0.2270
5.1299 2.5417 -0.2425
5.1322 2.5420 -0.2589
5.1344 2.5422 -0.2756
5.1368 2.5422 -0.2927
5.1390 2.5385 -0.3079
5.1413 2.5356 -0.3238
5.1448 2.5522 -0.3539
5.1477 2.5556 -0.3759
5.1504 2.5554 -0.3959
5.1538 2.5623 -0.4224
5.1586 2.5496 -0.4545
5.1618 2.5503 -0.4774
5.1639 2.5400 -0.4899
5.1674 2.5433 -0.5167
5.1711 2.5464 -0.5443
5.1730 2.5337 -0.5545
5.1747 2.5205 -0.5634
5.1753 2.4996 -0.5619
5.1751 2.4751 -0.5538
5.1759 2.4586 -0.5550
5.1772 2.4458 -0.5605
5.1774 2.4280 -0.5574
5.1780 2.4132 -0.5576
5.1787 2.3993 -0.5582
5.1788 2.3838 -0.5550
5.1795 2.3717 -0.5566
5.1796 2.3575 -0.5531
5.1802 2.3465 -0.5547
5.1806 2.3352 -0.5546
5.1813 2.3252 -0.5565
5.1814 2.3138 -0.5543
5.1819 2.3042 -0.5553
5.1827 2.2959 -0.5585
5.0725 2.5428 0.1019
5.0735 2.5435 0.0936
5.0746 2.5428 0.0848
5.0757 2.5433 0.0761
5.0767 2.5450 0.0674
5.0781 2.5417 0.0578
5.0793 2.5407 0.0484
5.0808 2.5373 0.0386
5.0815 2.5434 0.0296
5.0830 2.5398 0.0195
5.0844 2.5386 0.0094
5.0856 2.5395 -0.0007
5.0866 2.5438 -0.0112
5.0881 2.5412 -0.0218
5.0895 2.5407 -0.0327
5.0909 2.5412 -0.0438
5.0923 2.5405 -0.0551
5.0935 2.5473 -0.0675
5.0952 2.5431 -0.0789
5.0966 2.5463 -0.0916
5.0983 2.5431 -0.1035
5.0998 2.5439 -0.1164
5.1015 2.5436 -0.1294
5.1033 2.5401 -0.1417
5.1050 2.5396 -0.1551
5.1067 2.5400 -0.1691
5.1085 2.5392 -0.1830
5.1103 2.5383 -0.1972
5.1122 2.5402 -0.2129
5.1141 2.5381 -0.2272
5.1161 2.5377 -0.2426
5.1181 2.5382 -0.2588
5.1243 2.5306 -0.3046
5.1266 2.5322 -0.3232
5.1313 2.5357 -0.3624
5.1476 2.5468 -0.4978
5.1504 2.5449 -0.5191
5.1534 2.5450 -0.5434
5.1555 2.5324 -0.5533
5.1573 2.5178 -0.5603
5.1598 2.4814 -0.5623
5.1606 2.4614 -0.5587
5.1626 2.4287 -0.5579
5.1641 2.3973 -0.5541
5.1651 2.3850 -0.5560
5.1666 2.3592 -0.5550
5.1673 2.3476 -0.5554
5.1679 2.3357 -0.5540
5.1692 2.3143 -0.5534
5.1703 2.3064 -0.5581
5.1708 2.2964 -0.5574
5.0610 2.5489 0.1088
5.0622 2.5471 0.1000
5.0647 2.5421 0.0819
5.0654 2.5452 0.0736
5.0664 2.5457 0.0647
5.0678 2.5423 0.0551
5.0690 2.5402 0.0456
5.0700 2.5416 0.0363
5.0712 2.5406 0.0266
5.0721 2.5430 0.0169
5.0733 2.5417 0.0069
5.0744 2.5427 -0.0034
5.0756 2.5424 -0.0138
5.0770 2.5410 -0.0244
5.0784 2.5394 -0.0352
5.0795 2.5411 -0.0464
5.0808 2.5415 -0.0578
5.0821 2.5408 -0.0692
5.0836 2.5399 -0.0809
5.0847 2.5443 -0.0938
5.0861 2.5432 -0.1060
5.0877 2.5410 -0.1182
5.0891 2.5438 -0.1319
5.0909 2.5374 -0.1433
5.0922 2.5419 -0.1582
5.0939 2.5403 -0.1715
5.0955 2.5416 -0.1861
5.0972 2.5407 -0.2003
5.0989 2.5407 -0.2152
5.1007 2.5386 -0.2295
5.1025 2.5374 -0.2445
5.1044 2.5370 -0.2602
5.1063 2.5346 -0.2751
5.1121 2.5401 -0.3302
5.1164 2.5367 -0.3646
5.1185 2.5352 -0.3826
5.1208 2.5353 -0.4023
5.1280 2.5374 -0.4668
5.1306 2.5382 -0.4898
5.1359 2.5376 -0.5356
5.1385 2.5333 -0.5548
5.1422 2.4991 -0.5614
5.1451 2.4614 -0.5585
5.1480 2.4307 -0.5603
5.1501 2.3979 -0.5542
5.1515 2.3868 -0.5582
5.1526 2.3734 -0.5573
5.1546 2.3487 -0.5560
5.1556 2.3379 -0.5570
5.1565 2.3268 -0.5562
5.1576 2.3175 -0.5588
5.1586 2.3085 -0.5609
5.1595 2.2990 -0.5614
5.0517 2.5456 0.1052
5.0525 2.5464 0.0971
5.0536 2.5446 0.0882
5.0551 2.5402 0.0788
5.0560 2.5396 0.0700
5.0566 2.5426 0.0615
5.0575 2.5430 0.0525
5.0590 2.5385 0.0427
5.0594 2.5436 0.0338
5.0606 2.5413 0.0240
5.0616 2.5414 0.0142
5.0628 2.5402 0.0042
5.0637 2.5413 -0.0060
5.0647 2.5422 -0.0164
5.0660 2.5407 -0.0270
5.0671 2.5403 -0.0378
5.0684 2.5387 -0.0487
5.0696 2.5393 -0.0600
5.0720 2.5389 -0.0832
5.0728 2.5433 -0.0961
5.0744 2.5402 -0.1078
5.0756 2.5412 -0.1206
5.0772 2.5389 -0.1329
5.0779 2.5468 -0.1484
5.0797 2.5423 -0.1606
5.0812 2.5407 -0.1739
5.0826 2.5410 -0.1881
5.0842 2.5402 -0.2023
5.0857 2.5412 -0.2176
5.0871 2.5430 -0.2336
5.0888 2.5427 -0.2492
5.0906 2.5395 -0.2635
5.0926 2.5335 -0.2763
5.0960 2.5349 -0.3108
5.0978 2.5357 -0.3289
5.0997 2.5355 -0.3467
5.1057 2.5331 -0.4017
5.1078 2.5322 -0.4210
5.1143 2.5380 -0.4905
5.1191 2.5429 -0.5422
5.1216 2.5341 -0.5562
5.1258 2.4927 -0.5532
5.1296 2.4572 -0.5523
5.1332 2.4286 -0.5566
5.1366 2.4036 -0.5629
5.1393 2.3739 -0.5570
5.1404 2.3596 -0.5531
5.1417 2.3474 -0.5519
5.1443 2.3278 -0.5567
5.1456 2.3186 -0.5591
5.1466 2.3078 -0.5573
5.0422 2.5448 0.1023
5.0429 2.5456 0.0941
5.0441 2.5426 0.0851
5.0452 2.5408 0.0761
5.0459 2.5414 0.0675
5.0465 2.5432 0.0589
5.0474 2.5424 0.0497
5.0484 2.5416 0.0404
5.0496 2.5395 0.0308
5.0496 2.5457 0.0216
5.0510 2.5422 0.0116
5.0521 2.5410 0.0015
5.0532 2.5398 -0.0086
5.0543 2.5385 -0.0190
5.0546 2.5439 -0.0298
5.0560 2.5413 -0.0405
5.0570 2.5408 -0.0515
5.0579 2.5425 -0.0629
5.0590 2.5418 -0.0744
5.0602 2.5410 -0.0861
5.0616 2.5391 -0.0977
5.0622 2.5434 -0.1109
5.0637 2.5403 -0.1228
5.0653 2.5370 -0.1347
5.0659 2.5429 -0.1496
5.0673 2.5415 -0.1626
5.0685 2.5420 -0.1766
5.0703 2.5374 -0.1889
5.0711 2.5426 -0.2054
5.0731 2.5359 -0.2173
5.0740 2.5416 -0.2350
5.0757 2.5386 -0.2490
5.0770 2.5402 -0.2657
5.0790 2.5351 -0.2791
5.0805 2.5346 -0.2953
5.0888 2.5348 -0.3850
5.0907 2.5341 -0.4039
5.0927 2.5300 -0.4202
5.0947 2.5291 -0.4397
5.1049 2.5334 -0.5558
5.1075 2.5143 -0.5568
5.1101 2.4948 -0.5560
5.1147 2.4592 -0.5549
5.1189 2.4305 -0.5590
5.1208 2.4155 -0.5585
5.1227 2.4022 -0.5596
5.1262 2.3757 -0.5590
5.1293 2.3502 -0.5561
5.1323 2.3300 -0.5595
5.1336 2.3184 -0.5569
5.1350 2.3094 -0.5588
5.0336 2.5436 0.0909
5.0344 2.5431 0.0824
5.0352 2.5426 0.0737
5.0360 2.5420 0.0649
5.0368 2.5413 0.0559
5.0373 2.5431 0.0471
5.0382 2.5423 0.0377
5.0389 2.5426 0.0283
5.0399 2.5416 0.0187
5.0406 2.5418 0.0089
5.0416 2.5406 -0.0011
5.0425 2.5406 -0.0112
5.0432 2.5416 -0.0216
5.0441 2.5414 -0.0322
5.0447 2.5433 -0.0432
5.0455 2.5440 -0.0543
5.0465 2.5435 -0.0656
5.0475 2.5428 -0.0770
5.0485 2.5432 -0.0889
5.0497 2.5413 -0.1006
5.0510 2.5393 -0.1124
5.0517 2.5414 -0.1254
5.0528 2.5413 -0.1382
5.0543 2.5380 -0.1504
5.0553 2.5388 -0.1639
5.0560 2.5423 -0.1789
5.0570 2.5437 -0.1936
5.0586 2.5401 -0.2065
5.0600 2.5383 -0.2204
5.0613 2.5383 -0.2354
5.0622 2.5411 -0.2523
5.0635 2.5417 -0.2685
5.0655 2.5358 -0.2813
5.0670 2.5344 -0.2969
5.0683 2.5346 -0.3140
5.0701 2.5312 -0.3290
5.0710 2.5373 -0.3511
5.0723 2.5396 -0.3713
5.0739 2.5383 -0.3893
5.0754 2.5402 -0.4104
5.0773 2.5369 -0.4275
5.0790 2.5368 -0.4480
5.0824 2.5384 -0.4925
5.0845 2.5353 -0.5117
5.0864 2.5345 -0.5337
5.0887 2.5296 -0.5517
5.0917 2.5098 -0.5514
5.0945 2.4947 -0.5560
5.0971 2.4793 -0.5590
5.0998 2.4605 -0.5565
5.1024 2.4435 -0.5551
5.1046 2.4331 -0.5624
5.1069 2.4181 -0.5619
5.1092 2.4000 -0.5552
5.1112 2.3896 -0.5600
5.1132 2.3768 -0.5599
5.1169 2.3506 -0.5555
5.1203 2.3286 -0.5549
5.1235 2.3097 -0.5576
5.0231 2.5457 0.0970
5.0242 2.5428 0.0881
5.0244 2.5449 0.0800
5.0256 2.5419 0.0709
5.0259 2.5438 0.0625
5.0269 2.5419 0.0533
5.0279 2.5400 0.0441
5.0276 2.5454 0.0354
5.0280 2.5469 0.0260
5.0293 2.5435 0.0161
5.0302 2.5425 0.0063
5.0313 2.5402 -0.0037
5.0320 2.5402 -0.0138
5.0330 2.5390 -0.0241
5.0326 2.5457 -0.0350
5.0336 2.5443 -0.0458
5.0350 2.5405 -0.0565
5.0352 2.5445 -0.0682
5.0359 2.5449 -0.0798
5.0374 2.5410 -0.0909
5.0384 2.5402 -0.1028
5.0391 2.5415 -0.1153
5.0400 2.5415 -0.1278
5.0409 2.5415 -0.1406
5.0419 2.5413 -0.1536
5.0432 2.5390 -0.1662
5.0436 2.5426 -0.1812
5.0447 2.5421 -0.1951
5.0458 2.5414 -0.2092
5.0474 2.5378 -0.2222
5.0482 2.5398 -0.2381
5.0496 2.5378 -0.2525
5.0498 2.5442 -0.2718
5.0518 2.5383 -0.2846
5.0534 2.5350 -0.2991
5.0551 2.5318 -0.3138
5.0561 2.5329 -0.3317
5.0572 2.5347 -0.3507
5.0583 2.5362 -0.3701
5.0593 2.5393 -0.3914
5.0604 2.5413 -0.4126
5.0623 2.5372 -0.4289
5.0635 2.5396 -0.4517
5.0654 2.5369 -0.4702
5.0671 2.5349 -0.4897
5.0689 2.5335 -0.5104
5.0706 2.5328 -0.5324
5.0726 2.5288 -0.5511
5.0757 2.5134 -0.5562
5.0787 2.4991 -0.5617
5.0820 2.4799 -0.5598
5.0852 2.4603 -0.5560
5.0882 2.4419 -0.5524
5.0932 2.4172 -0.5598
5.0957 2.4018 -0.5574
5.0981 2.3887 -0.5576
5.1025 2.3633 -0.5563
5.1084 2.3326 -0.5615
5.1103 2.3197 -0.5561
5.1120 2.3107 -0.5578
5.1137 2.3012 -0.5578
5.0150 2.5442 0.0772
5.0157 2.5437 0.0685
5.0160 2.5444 0.0599
5.0170 2.5425 0.0507
5.0177 2.5419 0.0416
5.0182 2.5424 0.0324
5.0186 2.5427 0.0231
5.0194 2.5418 0.0135
5.0195 2.5445 0.0038
5.0198 2.5457 -0.0063
5.0212 2.5422 -0.0164
5.0223 2.5398 -0.0267
5.0227 2.5408 -0.0372
5.0230 2.5429 -0.0482
5.0235 2.5437 -0.0593
5.0250 2.5398 -0.0700
5.0245 2.5460 -0.0824
5.0258 2.5431 -0.0937
5.0264 2.5434 -0.1058
5.0273 2.5426 -0.1179
5.0279 2.5437 -0.1307
5.0289 2.5427 -0.1432
5.0301 2.5404 -0.1556
5.0309 2.5402 -0.1689
5.0311 2.5439 -0.1839
5.0324 2.5414 -0.1969
5.0336 2.5398 -0.2106
5.0348 2.5382 -0.2244
5.0358 2.5374 -0.2389
5.0368 2.5374 -0.2542
5.0369 2.5420 -0.2724
5.0381 2.5407 -0.2878
5.0398 2.5366 -0.3018
5.0408 2.5370 -0.3189
5.0418 2.5372 -0.3363
5.0429 2.5373 -0.3541
5.0445 2.5345 -0.3702
5.0450 2.5386 -0.3922
5.0461 2.5390 -0.4118
5.0473 2.5391 -0.4318
5.0483 2.5408 -0.4538
5.0498 2.5398 -0.4739
5.0514 2.5378 -0.4935
5.0531 2.5349 -0.5125
5.0552 2.5295 -0.5292
5.0573 2.5248 -0.5469
5.0602 2.5126 -0.5554
5.0638 2.4952 -0.5568
5.0670 2.4805 -0.5605
5.0733 2.4502 -0.5641
5.0768 2.4313 -0.5587
5.0799 2.4143 -0.5545
5.0900 2.3656 -0.5593
5.0947 2.3405 -0.5545
5.0989 2.3201 -0.5550
5.1008 2.3110 -0.5566
5.0136 2.5447 -0.0847
5.0154 2.5447 -0.1207
5.0163 2.5438 -0.1330
5.0167 2.5449 -0.1461
5.0180 2.5416 -0.1582
5.0183 2.5435 -0.1722
5.0193 2.5422 -0.1854
5.0199 2.5427 -0.1996
5.0204 2.5442 -0.2145
5.0218 2.5405 -0.2275
5.0224 2.5417 -0.2430
5.0241 2.5369 -0.2558
5.0247 2.5423 -0.2906
5.0261 2.5391 -0.3051
5.0269 2.5395 -0.3222
5.0276 2.5407 -0.3403
5.0283 2.5416 -0.3589
5.0301 2.5371 -0.3737
5.0309 2.5378 -0.3928
5.0320 2.5374 -0.4117
5.0331 2.5369 -0.4309
5.0341 2.5370 -0.4512
5.0349 2.5385 -0.4736
5.0363 2.5366 -0.4931
5.0375 2.5362 -0.5146
5.0393 2.5324 -0.5330
5.0409 2.5301 -0.5534
5.0444 2.5155 -0.5592
5.0518 2.4832 -0.5641
5.0665 2.4154 -0.5556
5.0722 2.3909 -0.5593
5.0775 2.3673 -0.5611
5.0828 2.3427 -0.5573
5.0873 2.3228 -0.5590
4.7722 3.4570 0.0919
4.7723 3.4612 0.0647
4.7719 3.4723 0.0081
4.7729 3.4731 -0.0212
4.7764 3.4641 -0.0509
4.7821 3.4456 -0.0803
4.7833 3.4458 -0.1109
5.0196 2.5364 -0.4517
5.0214 2.5315 -0.4674
5.0223 2.5359 -0.5149
5.0235 2.5345 -0.5360
5.0263 2.5252 -0.5481
5.0298 2.5122 -0.5554
5.0335 2.4979 -0.5603
5.0382 2.4778 -0.5568
5.0413 2.4662 -0.5636
5.0457 2.4476 -0.5596
5.0491 2.4343 -0.5622
5.0534 2.4157 -0.5555
5.0566 2.4024 -0.5558
5.0595 2.3912 -0.5590
5.0626 2.3783 -0.5582
5.0711 2.3436 -0.5577
5.0761 2.3231 -0.5579
5.0807 2.3044 -0.5591
4.7462 3.4387 0.1613
4.7459 3.4428 0.1361
4.7506 3.4312 0.0826
4.7502 3.4358 0.0560
4.7469 3.4549 0.0006
4.7427 3.4740 -0.0287
4.7460 3.4651 -0.0583
4.7444 3.4749 -0.0892
4.7490 3.4610 -0.1193
4.7509 3.4574 -0.1504
4.7583 3.4330 -0.1793
4.7591 3.4338 -0.2116
4.7589 3.4387 -0.2453
4.8874 2.9929 -0.5672
4.9982 2.5750 -0.5581
5.0043 2.5517 -0.5560
5.0101 2.5297 -0.5538
5.0150 2.5112 -0.5544
5.0195 2.4946 -0.5562
5.0291 2.4579 -0.5517
5.0325 2.4459 -0.5567
5.0359 2.4333 -0.5601
5.0435 2.4048 -0.5590
5.0471 2.3909 -0.5575
5.0502 2.3793 -0.5589
5.0619 2.3357 -0.5614
5.0647 2.3251 -0.5606
5.0673 2.3154 -0.5607
5.0694 2.3082 -0.5658
4.7270 3.4188 0.0480
4.7099 3.4846 -0.0363
4.7159 3.4660 -0.0657
4.7196 3.4574 -0.1261
4.7186 3.4633 -0.1581
4.7250 3.4434 -0.1876
4.7342 3.4375 -0.5415
4.7923 3.2371 -0.5679
4.9134 2.8153 -0.5693
4.9347 2.7404 -0.5649
4.9679 2.6245 -0.5621
4.9815 2.5772 -0.5613
4.9881 2.5539 -0.5590
4.9938 2.5342 -0.5594
5.0054 2.4935 -0.5549
5.0141 2.4634 -0.5593
5.0179 2.4506 -0.5632
5.0225 2.4344 -0.5613
5.0275 2.4164 -0.5553
5.0308 2.4051 -0.5587
5.0351 2.3898 -0.5548
5.0383 2.3789 -0.5572
5.0448 2.3564 -0.5584
5.0478 2.3461 -0.5596
5.0505 2.3366 -0.5617
5.0540 2.3242 -0.5568
5.0564 2.3162 -0.5607
4.6536 3.4482 -0.0879
4.6565 3.4388 -0.1184
4.6613 3.4249 -0.1485
4.6600 3.4244 -0.2131
4.6498 3.4403 -0.3921
4.6464 3.4466 -0.4317
4.6456 3.4464 -0.4704
4.6490 3.4358 -0.5061
4.6389 3.4586 -0.5555
4.6616 3.3996 -0.5719
4.7407 3.1990 -0.5555
4.7903 3.0727 -0.5583
4.8683 2.8736 -0.5589
4.9015 2.7895 -0.5537
4.9145 2.7563 -0.5547
4.9405 2.6903 -0.5507
4.9487 2.6689 -0.5567
4.9783 2.5936 -0.5551
4.9854 2.5753 -0.5591
4.9949 2.5514 -0.5552
5.0029 2.5310 -0.5539
5.0093 2.5146 -0.5565
5.0186 2.4913 -0.5486
5.0238 2.4778 -0.5526
5.0289 2.4645 -0.5560
5.0349 2.4494 -0.5559
5.0413 2.4332 -0.5529
5.0464 2.4201 -0.5535
5.0523 2.4052 -0.5502
5.0559 2.3958 -0.5555
5.0616 2.3815 -0.5510
5.0662 2.3700 -0.5506
5.0701 2.3599 -0.5522
5.0734 2.3512 -0.5559
5.0787 2.3380 -0.5490
5.0820 2.3296 -0.5519
5.0856 2.3203 -0.5518
5.0885 2.3128 -0.5553
4.6312 3.4451 0.1763
4.6283 3.4457 0.0954
4.6197 3.4642 0.0683
4.6205 3.4600 0.0392
4.6251 3.4463 0.0095
4.6279 3.4372 -0.0202
4.6307 3.4281 -0.0501
4.6257 3.4378 -0.0812
4.6263 3.4338 -0.1124
4.6233 3.4383 -0.1449
4.6268 3.4247 -0.2093
4.6197 3.4389 -0.2458
4.6097 3.4597 -0.2851
4.6149 3.4446 -0.3181
4.6201 3.4294 -0.3510
4.6173 3.4302 -0.4266
4.6159 3.4305 -0.4658
4.6166 3.4255 -0.5039
4.6109 3.4358 -0.5488
4.6386 3.3681 -0.5615
4.7190 3.1758 -0.5483
4.7756 3.0398 -0.5450
4.8149 2.9447 -0.5523
4.8472 2.8663 -0.5608
4.8818 2.7833 -0.5567
4.9362 2.6531 -0.5507
4.9428 2.6363 -0.5598
4.9540 2.6097 -0.5578
4.9739 2.5620 -0.5543
4.9915 2.5199 -0.5512
4.9981 2.5038 -0.5538
5.0043 2.4887 -0.5568
5.0114 2.4717 -0.5561
5.0192 2.4532 -0.5517
5.0251 2.4390 -0.5526
5.0296 2.4277 -0.5572
5.0362 2.4121 -0.5537
5.0439 2.3943 -0.5450
5.0479 2.3844 -0.5491
5.0512 2.3759 -0.5551
5.0606 2.3534 -0.5543
5.0646 2.3436 -0.5556
5.0692 2.3329 -0.5540
5.0736 2.3224 -0.5519
5.0763 2.3154 -0.5572
5.0804 2.3058 -0.5555
4.5962 3.4503 0.1327
4.5932 3.4545 0.1051
4.5938 3.4502 0.0762
4.5985 3.4365 0.0465
4.5972 3.4365 0.0171
4.5994 3.4283 -0.0129
4.6003 3.4233 -0.0432
4.5924 3.4379 -0.0750
4.5954 3.4280 -0.1062
4.5858 3.4430 -0.1737
4.5796 3.4535 -0.2095
4.5778 3.4541 -0.2450
4.5756 3.4553 -0.2813
4.5809 3.4399 -0.3148
4.5816 3.4345 -0.3508
4.5870 3.4190 -0.3846
4.5852 3.4192 -0.4232
4.5857 3.4142 -0.4610
4.5911 3.3983 -0.4954
4.5822 3.4138 -0.5425
4.6114 3.3461 -0.5552
4.6782 3.1937 -0.5617
4.7354 3.0634 -0.5640
4.7615 3.0042 -0.5632
4.7888 2.9428 -0.5575
4.8466 2.8113 -0.5575
4.8648 2.7701 -0.5542
4.8762 2.7436 -0.5607
4.9061 2.6762 -0.5557
4.9184 2.6482 -0.5554
4.9476 2.5835 -0.5397
4.9553 2.5656 -0.5446
4.9603 2.5531 -0.5547
4.9710 2.5292 -0.5503
4.9769 2.5151 -0.5566
4.9842 2.4984 -0.5586
4.9923 2.4801 -0.5571
5.0007 2.4614 -0.5537
5.0066 2.4478 -0.5565
5.0140 2.4311 -0.5535
5.0194 2.4187 -0.5561
5.0272 2.4015 -0.5495
5.0314 2.3915 -0.5543
5.0375 2.3780 -0.5518
5.0406 2.3701 -0.5592
5.0459 2.3582 -0.5581
5.0519 2.3450 -0.5527
5.0570 2.3337 -0.5504
5.0605 2.3254 -0.5539
5.0651 2.3151 -0.5518
5.0683 2.3076 -0.5559
5.0719 2.2992 -0.5570
4.5631 3.4627 0.2263
4.5552 3.4766 0.2014
4.5599 3.4630 0.1719
4.5645 3.4494 0.1423
4.5629 3.4495 0.1140
4.5655 3.4403 0.0844
4.5655 3.4367 0.0549
4.5662 3.4317 0.0249
4.5450 3.4577 -0.1361
4.5428 3.4583 -0.1707
4.5456 3.4483 -0.2045
4.5484 3.4381 -0.2386
4.5508 3.4288 -0.2731
4.5489 3.4284 -0.3099
4.5543 3.4128 -0.3438
4.5348 3.4295 -0.5515
4.5720 3.3486 -0.5597
4.6055 3.2757 -0.5674
4.6783 3.1194 -0.5651
4.7137 3.0442 -0.5587
4.7894 2.8817 -0.5553
4.8078 2.8419 -0.5581
4.8250 2.8046 -0.5603
4.8534 2.7456 -0.5425
4.8870 2.6713 -0.5606
4.9026 2.6384 -0.5555
4.9179 2.6062 -0.5488
4.9368 2.5650 -0.5547
4.9477 2.5418 -0.5525
4.9562 2.5233 -0.5544
4.9646 2.5051 -0.5556
4.9735 2.4860 -0.5540
4.9802 2.4713 -0.5574
4.9889 2.4530 -0.5542
4.9957 2.4382 -0.5551
5.0035 2.4219 -0.5523
5.0094 2.4090 -0.5540
5.0155 2.3958 -0.5540
5.0212 2.3834 -0.5545
5.0272 2.3708 -0.5534
5.0324 2.3595 -0.5540
5.0378 2.3479 -0.5528
5.0426 2.3376 -0.5536
5.0475 2.3271 -0.5526
5.0518 2.3178 -0.5537
5.0572 2.3066 -0.5492
5.0601 2.2997 -0.5546
5.0636 2.2920 -0.5571
4.5354 3.4527 0.2357
4.5311 3.4578 0.2094
4.5357 3.4442 0.1798
4.5382 3.4351 0.1507
4.5385 3.4304 0.1218
4.5340 3.4356 0.0932
4.5340 3.4316 0.0633
4.5346 3.4262 0.0330
4.5127 3.4620 -0.0297
4.5026 3.4778 -0.0633
4.5078 3.4626 -0.0964
4.5105 3.4526 -0.1299
4.5075 3.4537 -0.1650
4.5103 3.4433 -0.1993
4.5131 3.4327 -0.2339
4.5185 3.4172 -0.2677
4.5105 3.4280 -0.3075
4.4812 3.4578 -0.5214
4.4961 3.4233 -0.5518
4.5763 3.2584 -0.5635
4.7154 2.9761 -0.5587
4.7444 2.9176 -0.5546
4.7690 2.8677 -0.5529
4.7885 2.8277 -0.5554
4.8240 2.7550 -0.5588
4.8448 2.7137 -0.5526
4.8707 2.6599 -0.5595
4.9008 2.5996 -0.5522
4.9113 2.5779 -0.5548
4.9228 2.5546 -0.5539
4.9334 2.5332 -0.5536
4.9418 2.5156 -0.5567
4.9517 2.4957 -0.5554
4.9614 2.4763 -0.5532
4.9690 2.4605 -0.5547
4.9781 2.4425 -0.5517
4.9906 2.4162 -0.5572
4.9971 2.4028 -0.5581
5.0039 2.3892 -0.5573
5.0120 2.3736 -0.5515
5.0175 2.3622 -0.5526
5.0225 2.3517 -0.5545
5.0278 2.3408 -0.5547
5.0331 2.3302 -0.5544
5.0373 2.3213 -0.5572
5.0433 2.3096 -0.5522
5.0480 2.3002 -0.5517
5.0520 2.2919 -0.5533
5.0553 2.2847 -0.5572
4.4927 3.4757 0.2790
4.4997 3.4573 0.2481
4.5021 3.4481 0.2190
4.4994 3.4490 0.1912
4.4968 3.4496 0.1627
4.5016 3.4355 0.1321
4.5065 3.4214 0.1015
4.5091 3.4117 0.0712
4.4783 3.4564 -0.0220
4.4754 3.4569 -0.0554
4.4747 3.4529 -0.0892
4.4747 3.4476 -0.1236
4.4747 3.4421 -0.1584
4.4769 3.4325 -0.1932
4.4823 3.4168 -0.2273
4.4794 3.4165 -0.2645
4.4452 3.4622 -0.3945
4.4606 3.4277 -0.4260
4.4633 3.4163 -0.4645
4.4435 3.4461 -0.5189
4.4465 3.4339 -0.5591
4.5516 3.2321 -0.5552
4.6209 3.0972 -0.5641
4.6816 2.9795 -0.5676
4.7402 2.8677 -0.5606
4.8243 2.7065 -0.5556
4.8407 2.6748 -0.5556
4.8525 2.6511 -0.5612
4.8685 2.6208 -0.5583
4.8847 2.5904 -0.5532
4.8993 2.5629 -0.5489
4.9037 2.5522 -0.5629
4.9172 2.5270 -0.5581
4.9288 2.5050 -0.5554
4.9471 2.4695 -0.5569
4.9595 2.4471 -0.5483
4.9661 2.4338 -0.5521
4.9814 2.4043 -0.5519
4.9889 2.3901 -0.5507
4.9932 2.3807 -0.5574
4.9997 2.3681 -0.5572
5.0073 2.3542 -0.5530
5.0181 2.3331 -0.5553
5.0246 2.3211 -0.5515
5.0289 2.3124 -0.5545
5.0352 2.3009 -0.5495
5.0397 2.2921 -0.5503
5.0435 2.2844 -0.5533
5.0475 2.2764 -0.5546
4.4682 3.4611 0.3152
4.4753 3.4428 0.2844
4.4722 3.4439 0.2575
4.4745 3.4345 0.2282
4.4746 3.4295 0.1994
4.4694 3.4342 0.1715
4.4661 3.4353 0.1423
4.4403 3.4612 0.0192
4.4393 3.4572 -0.0140
4.4418 3.4469 -0.0477
4.4388 3.4465 -0.0821
4.4408 3.4369 -0.1165
4.4435 3.4261 -0.1512
4.4429 3.4210 -0.1869
4.4483 3.4051 -0.2214
4.4538 3.3892 -0.2560
4.4009 3.4621 -0.3936
4.3928 3.4691 -0.4391
4.3989 3.4513 -0.4777
4.4014 3.4398 -0.5185
4.4075 3.4219 -0.5572
4.5189 3.2192 -0.5536
4.5901 3.0873 -0.5644
4.6379 3.0020 -0.5523
4.6599 2.9602 -0.5623
4.6877 2.9091 -0.5636
4.7152 2.8591 -0.5623
4.7592 2.7782 -0.5653
4.7875 2.7284 -0.5546
4.8071 2.6930 -0.5531
4.8177 2.6719 -0.5630
4.8372 2.6371 -0.5578
4.8497 2.6136 -0.5618
4.8910 2.5387 -0.5587
4.9002 2.5211 -0.5632
4.9351 2.4588 -0.5550
4.9450 2.4411 -0.5532
4.9523 2.4272 -0.5563
4.9619 2.4102 -0.5529
4.9698 2.3959 -0.5526
4.9755 2.3847 -0.5568
4.9836 2.3704 -0.5542
4.9907 2.3576 -0.5530
4.9962 2.3471 -0.5555
5.0036 2.3343 -0.5520
5.0097 2.3233 -0.5512
5.0153 2.3130 -0.5511
5.0197 2.3044 -0.5541
5.0245 2.2955 -0.5555
5.0303 2.2854 -0.5527
5.0356 2.2760 -0.5507
5.0387 2.2694 -0.5560
4.4424 3.4334 0.2677
4.4417 3.4294 0.2391
4.4362 3.4338 0.2115
4.4326 3.4347 0.1826
4.4321 3.4298 0.1523
4.4173 3.4501 0.1240
4.4022 3.4707 0.0942
4.4010 3.4667 0.0614
4.4004 3.4615 0.0281
4.3993 3.4570 -0.0058
4.4082 3.4353 -0.0397
4.4101 3.4256 -0.0740
4.4155 3.4099 -0.1081
4.4056 3.4202 -0.1450
4.3953 3.4308 -0.1833
4.3841 3.4427 -0.2233
4.3727 3.4548 -0.2651
4.3785 3.4377 -0.3021
4.3690 3.4385 -0.3860
4.3718 3.4262 -0.4257
4.3778 3.4087 -0.4639
4.3839 3.3911 -0.5021
4.3567 3.4269 -0.5625
4.4195 3.3184 -0.5614
4.5126 3.1559 -0.5678
4.6032 3.0008 -0.5583
4.6269 2.9579 -0.5682
