ply
format ascii 1.0
element vertex 2101
property float x
property float y
property float z
end_header
6.0227 -3.6613 0.8508
5.9938 -3.6706 0.7893
6.1042 -3.7331 0.7507
5.9552 -3.6966 0.6690
5.5849 -3.5703 0.5658
5.3800 -3.5055 0.4944
5.3567 -3.5129 0.4449
5.4948 -3.5886 0.4036
5.0789 -3.4761 0.2055
5.0758 -3.4915 0.1587
5.1721 -3.5548 0.1006
5.1810 -3.5777 0.0475
5.1789 -3.5959 -0.0058
5.1772 -3.6146 -0.0603
5.3311 -3.7148 -0.1506
4.9876 -3.5738 -0.1797
4.9124 -3.5516 -0.2105
4.8497 -3.5353 -0.2421
4.7907 -3.5201 -0.2723
4.6371 -3.4479 -0.2599
4.5348 -3.4033 -0.2613
4.4406 -3.3614 -0.2603
4.3693 -3.3319 -0.2656
4.2911 -3.2962 -0.2625
4.2402 -3.2769 -0.2710
4.1737 -3.2458 -0.2662
4.1119 -3.2163 -0.2600
4.0589 -3.1916 -0.2561
4.0348 -3.1864 -0.2713
3.9429 -3.1415 -0.2590
3.9084 -3.1260 -0.2583
3.8794 -3.1140 -0.2606
3.8458 -3.0975 -0.2559
3.8189 -3.0856 -0.2558
3.7913 -3.0725 -0.2530
3.7708 -3.0646 -0.2564
3.7488 -3.0550 -0.2565
3.7298 -3.0474 -0.2588
3.7064 -3.0352 -0.2534
3.6878 -3.0267 -0.2528
3.6724 -3.0210 -0.2557
3.6546 -3.0123 -0.2533
3.6417 -3.0081 -0.2576
3.6268 -3.0015 -0.2575
3.6133 -2.9960 -0.2585
3.5976 -2.9873 -0.2538
3.5873 -2.9846 -0.2587
3.5753 -2.9793 -0.2589
3.5630 -2.9734 -0.2574
3.5516 -2.9680 -0.2564
3.5408 -2.9630 -0.2559
3.5299 -2.9574 -0.2537
7.9943 -4.1994 1.4146
6.4452 -3.7806 0.7858
6.1729 -3.7050 0.6810
5.9388 -3.6400 0.5911
5.7365 -3.5838 0.5133
5.4520 -3.4931 0.4380
5.6236 -3.5973 0.3392
5.8664 -3.7168 0.2809
5.1459 -3.4526 0.1906
5.1142 -3.4554 0.1446
5.1516 -3.4889 0.0914
5.1695 -3.5148 0.0377
5.3560 -3.6201 -0.0466
5.4978 -3.7309 -0.2003
5.3163 -3.6637 -0.2209
4.9218 -3.5025 -0.2223
4.8589 -3.4875 -0.2537
4.7631 -3.4536 -0.2693
4.6092 -3.3856 -0.2547
4.5374 -3.3609 -0.2685
4.4298 -3.3140 -0.2602
4.3721 -3.2943 -0.2719
4.2769 -3.2507 -0.2585
4.2276 -3.2335 -0.2671
4.1496 -3.1969 -0.2536
4.0618 -3.1634 -0.2608
4.0238 -3.1492 -0.2648
3.9780 -3.1286 -0.2596
3.9002 -3.0941 -0.2519
3.8713 -3.0829 -0.2536
3.8478 -3.0750 -0.2588
3.7938 -3.0520 -0.2561
3.7693 -3.0415 -0.2547
3.7486 -3.0334 -0.2561
3.7283 -3.0252 -0.2564
3.7067 -3.0153 -0.2532
3.6733 -3.0025 -0.2560
3.6588 -2.9976 -0.2590
3.6413 -2.9893 -0.2556
3.6259 -2.9825 -0.2542
3.6135 -2.9784 -0.2570
3.6009 -2.9737 -0.2583
3.5850 -2.9648 -0.2515
3.5749 -2.9622 -0.2557
3.5651 -2.9594 -0.2595
3.5536 -2.9543 -0.2584
3.5433 -2.9503 -0.2589
3.5332 -2.9462 -0.2590
6.5068 -3.7416 0.7053
5.6692 -3.4944 0.4918
5.4625 -3.4381 0.4247
5.7095 -3.5453 0.3834
5.2118 -3.4761 0.0204
5.6650 -3.6915 -0.1123
5.6022 -3.6861 -0.1685
5.6060 -3.7104 -0.2381
5.3809 -3.6288 -0.2493
5.2036 -3.5659 -0.2623
4.8680 -3.4397 -0.2652
4.7232 -3.3834 -0.2609
4.6002 -3.3357 -0.2574
4.5143 -3.3051 -0.2636
4.4237 -3.2704 -0.2624
4.2696 -3.2107 -0.2584
4.1628 -3.1726 -0.2657
4.0520 -3.1274 -0.2559
3.9769 -3.1005 -0.2606
3.9363 -3.0837 -0.2563
3.9003 -3.0690 -0.2533
3.8470 -3.0507 -0.2588
3.7968 -3.0321 -0.2600
3.7477 -3.0117 -0.2547
3.7094 -2.9977 -0.2564
3.6740 -2.9843 -0.2562
3.6573 -2.9776 -0.2553
3.6398 -2.9698 -0.2515
3.6260 -2.9650 -0.2528
3.6147 -2.9622 -0.2575
3.6015 -2.9572 -0.2575
3.5896 -2.9532 -0.2591
3.5780 -2.9492 -0.2601
3.5657 -2.9439 -0.2582
3.5542 -2.9391 -0.2569
3.5439 -2.9353 -0.2573
3.5347 -2.9326 -0.2596
5.6361 -3.4204 0.4739
5.5391 -3.4050 0.4151
5.2687 -3.4241 0.0548
6.0329 -3.7683 -0.1922
5.9775 -3.7703 -0.2601
5.6023 -3.6364 -0.2503
5.3011 -3.5280 -0.2394
5.2145 -3.5093 -0.2759
5.0916 -3.4728 -0.2964
4.9451 -3.4234 -0.3016
4.6740 -3.3122 -0.2484
4.6080 -3.2950 -0.2672
4.4966 -3.2542 -0.2610
4.4215 -3.2298 -0.2664
4.2789 -3.1805 -0.2680
4.1475 -3.1318 -0.2586
4.0944 -3.1126 -0.2563
4.0427 -3.0929 -0.2514
4.0181 -3.0885 -0.2646
3.9764 -3.0732 -0.2620
3.9271 -3.0521 -0.2496
3.9045 -3.0470 -0.2586
3.8733 -3.0358 -0.2576
3.8394 -3.0221 -0.2515
3.7900 -3.0051 -0.2523
3.7486 -2.9918 -0.2558
3.7059 -2.9754 -0.2509
3.6736 -2.9652 -0.2546
3.6438 -2.9557 -0.2571
3.6305 -2.9517 -0.2594
3.6180 -2.9482 -0.2620
3.6021 -2.9410 -0.2567
3.5913 -2.9383 -0.2603
3.5673 -2.9296 -0.2592
3.5454 -2.9216 -0.2580
5.5472 -3.3321 0.4527
6.0665 -3.5250 0.3619
6.0817 -3.6803 -0.1384
6.1680 -3.7362 -0.2330
6.0371 -3.7110 -0.2881
5.6483 -3.5829 -0.2744
5.2996 -3.4644 -0.2500
5.1471 -3.4204 -0.2656
4.6942 -3.2754 -0.2635
4.5988 -3.2467 -0.2694
4.4077 -3.1843 -0.2644
4.2689 -3.1406 -0.2661
4.1381 -3.0956 -0.2555
4.0865 -3.0786 -0.2534
4.0514 -3.0694 -0.2604
4.0154 -3.0593 -0.2646
3.9678 -3.0416 -0.2565
3.9343 -3.0313 -0.2576
3.8739 -3.0125 -0.2592
3.8467 -3.0041 -0.2600
3.7917 -2.9849 -0.2546
3.7677 -2.9767 -0.2530
3.7495 -2.9721 -0.2568
3.7284 -2.9650 -0.2555
3.7135 -2.9619 -0.2611
3.6921 -2.9536 -0.2561
3.6749 -2.9479 -0.2556
3.6580 -2.9421 -0.2542
3.6433 -2.9377 -0.2549
3.6311 -2.9350 -0.2589
3.6154 -2.9288 -0.2552
3.5887 -2.9196 -0.2528
3.5792 -2.9181 -0.2577
3.5648 -2.9115 -0.2510
3.5567 -2.9108 -0.2574
3.5468 -2.9080 -0.2587
5.6147 -3.2915 0.4429
6.1938 -3.6359 -0.1728
6.3414 -3.7101 -0.2826
6.1724 -3.6757 -0.3334
5.6965 -3.5282 -0.2995
5.2374 -3.3791 -0.2434
4.9505 -3.3027 -0.2666
4.4924 -3.1711 -0.2701
4.4061 -3.1456 -0.2685
4.1387 -3.0654 -0.2590
4.0940 -3.0532 -0.2615
4.0548 -3.0430 -0.2654
4.0127 -3.0305 -0.2645
3.9642 -3.0138 -0.2552
3.9029 -2.9973 -0.2596
3.8730 -2.9886 -0.2593
3.8472 -2.9817 -0.2612
3.8206 -2.9737 -0.2604
3.7913 -2.9635 -0.2544
3.7732 -2.9598 -0.2598
3.7529 -2.9543 -0.2611
3.7267 -2.9443 -0.2528
3.7105 -2.9407 -0.2563
3.6916 -2.9347 -0.2546
3.6779 -2.9321 -0.2594
3.6598 -2.9259 -0.2560
3.6439 -2.9209 -0.2546
3.6328 -2.9193 -0.2604
3.6181 -2.9146 -0.2586
3.6043 -2.9101 -0.2571
3.5913 -2.9061 -0.2560
3.5812 -2.9042 -0.2598
3.5673 -2.8986 -0.2541
3.5587 -2.8975 -0.2593
3.5473 -2.8936 -0.2570
3.5400 -2.8934 -0.2638
5.6106 -3.2305 0.4282
5.6738 -3.2607 0.3779
5.6929 -3.2807 0.3228
7.6801 -3.9421 -0.2013
7.5733 -3.9424 -0.3040
6.2091 -3.5560 -0.1920
6.2237 -3.5830 -0.2767
6.0669 -3.5555 -0.3256
5.5752 -3.4153 -0.2817
5.2721 -3.3313 -0.2637
4.9509 -3.2507 -0.2752
4.6913 -3.1832 -0.2759
4.4672 -3.1213 -0.2633
4.3968 -3.1044 -0.2685
4.3221 -3.0845 -0.2671
4.2492 -3.0642 -0.2622
4.1900 -3.0485 -0.2613
4.1393 -3.0356 -0.2624
4.0858 -3.0205 -0.2583
4.0597 -3.0173 -0.2716
4.0083 -3.0016 -0.2630
3.9671 -2.9899 -0.2595
3.9371 -2.9831 -0.2632
3.9013 -2.9727 -0.2593
3.8770 -2.9677 -0.2643
3.8202 -2.9519 -0.2605
3.7935 -2.9440 -0.2573
3.7754 -2.9407 -0.2626
3.7530 -2.9345 -0.2611
3.7267 -2.9253 -0.2525
3.7093 -2.9212 -0.2541
3.6934 -2.9177 -0.2566
3.6779 -2.9142 -0.2585
3.6627 -2.9106 -0.2597
3.6462 -2.9056 -0.2572
3.6322 -2.9021 -0.2579
3.6181 -2.8981 -0.2569
3.6069 -2.8962 -0.2605
3.5928 -2.8916 -0.2571
3.5833 -2.8905 -0.2619
3.5683 -2.8843 -0.2538
3.5611 -2.8848 -0.2623
3.5487 -2.8803 -0.2576
3.5385 -2.8774 -0.2570
8.6196 -3.4973 1.8483
5.5665 -3.1614 0.4115
5.8476 -3.2379 0.3684
5.8085 -3.2598 0.2493
5.9065 -3.2995 0.1842
5.7523 -3.2779 0.1297
6.5772 -3.5280 -0.0952
6.2498 -3.4832 -0.2157
6.0700 -3.4535 -0.2620
5.8081 -3.3976 -0.2810
5.3839 -3.2895 -0.2441
5.2357 -3.2601 -0.2636
4.6457 -3.1230 -0.2634
4.4741 -3.0853 -0.2720
4.2909 -3.0380 -0.2537
4.2337 -3.0255 -0.2566
4.1899 -3.0174 -0.2646
4.1390 -3.0057 -0.2652
4.0908 -2.9944 -0.2646
4.0546 -2.9873 -0.2700
4.0023 -2.9726 -0.2601
3.9633 -2.9630 -0.2579
3.9296 -2.9551 -0.2578
3.8760 -2.9444 -0.2643
3.8184 -2.9296 -0.2590
3.7964 -2.9250 -0.2610
3.7695 -2.9173 -0.2554
3.7287 -2.9077 -0.2548
3.7118 -2.9043 -0.2571
3.6941 -2.9001 -0.2568
3.6767 -2.8958 -0.2556
3.6585 -2.8905 -0.2517
3.6478 -2.8899 -0.2587
3.6322 -2.8856 -0.2562
3.6169 -2.8812 -0.2529
3.6041 -2.8783 -0.2531
3.5938 -2.8769 -0.2571
3.5816 -2.8738 -0.2561
3.5723 -2.8728 -0.2604
3.5606 -2.8695 -0.2584
3.5491 -2.8662 -0.2557
3.5404 -2.8649 -0.2587
8.6262 -3.3560 1.9089
7.9746 -3.3990 1.1954
5.8529 -3.1590 0.4109
5.9886 -3.2002 0.3562
7.8808 -3.6568 0.0732
6.5940 -3.4406 -0.1162
6.2244 -3.3729 -0.1479
5.8637 -3.3029 -0.1629
5.9531 -3.3434 -0.2531
5.6610 -3.2854 -0.2599
5.3830 -3.2273 -0.2550
5.2239 -3.1986 -0.2703
4.6304 -3.0756 -0.2633
4.4629 -3.0434 -0.2717
4.3036 -3.0092 -0.2650
4.1742 -2.9810 -0.2578
4.0895 -2.9658 -0.2663
3.9977 -2.9450 -0.2583
3.9526 -2.9338 -0.2503
3.9279 -2.9306 -0.2577
3.8949 -2.9233 -0.2555
3.8641 -2.9165 -0.2532
3.8369 -2.9107 -0.2525
3.8151 -2.9071 -0.2558
3.7979 -2.9054 -0.2631
3.7683 -2.8970 -0.2539
3.7319 -2.8909 -0.2589
3.7150 -2.8879 -0.2611
3.6959 -2.8835 -0.2588
3.6656 -2.8781 -0.2621
3.6355 -2.8716 -0.2607
3.6212 -2.8684 -0.2594
3.6078 -2.8654 -0.2585
3.5948 -2.8624 -0.2570
3.5820 -2.8592 -0.2548
3.5721 -2.8579 -0.2577
3.5620 -2.8561 -0.2590
3.5520 -2.8543 -0.2599
3.5393 -2.8500 -0.2529
8.2773 -3.2016 1.7706
7.8016 -3.3299 0.8626
6.8609 -3.2089 0.6686
5.9729 -3.1146 0.4003
7.2063 -3.4070 0.0827
7.4817 -3.5339 -0.2515
6.9906 -3.4550 -0.2854
5.8584 -3.2292 -0.1762
5.9058 -3.2566 -0.2576
5.3173 -3.1504 -0.2482
5.0280 -3.1053 -0.2740
4.8802 -3.0792 -0.2743
4.7474 -3.0552 -0.2723
4.6104 -3.0283 -0.2609
4.5275 -3.0150 -0.2666
4.4481 -3.0016 -0.2693
4.3729 -2.9884 -0.2698
4.2868 -2.9708 -0.2595
4.2276 -2.9605 -0.2602
4.1673 -2.9489 -0.2565
4.1309 -2.9446 -0.2656
4.0834 -2.9359 -0.2643
4.0091 -2.9241 -0.2697
3.9660 -2.9150 -0.2636
3.9261 -2.9065 -0.2574
3.8894 -2.8986 -0.2513
3.8723 -2.8982 -0.2625
3.8406 -2.8913 -0.2571
3.8160 -2.8870 -0.2572
3.7960 -2.8844 -0.2611
3.7744 -2.8806 -0.2615
3.7479 -2.8742 -0.2541
3.7345 -2.8737 -0.2621
3.7117 -2.8682 -0.2559
3.6939 -2.8649 -0.2551
3.6814 -2.8641 -0.2612
3.6619 -2.8592 -0.2549
3.6500 -2.8582 -0.2598
3.6342 -2.8548 -0.2569
3.6082 -2.8503 -0.2575
3.5979 -2.8494 -0.2613
3.5850 -2.8466 -0.2590
3.5751 -2.8455 -0.2619
3.5623 -2.8421 -0.2573
3.5523 -2.8406 -0.2580
3.5440 -2.8400 -0.2620
8.2868 -3.0750 1.8271
5.6507 -2.9905 0.4251
6.1454 -3.0723 0.3901
6.6082 -3.1546 0.3309
6.9545 -3.2435 0.1636
7.2255 -3.3073 0.0587
6.8041 -3.2578 -0.0028
7.3108 -3.3657 -0.1477
7.2648 -3.3805 -0.2456
6.5579 -3.2724 -0.2353
5.7796 -3.1425 -0.1752
5.8412 -3.1700 -0.2576
5.6533 -3.1475 -0.2833
5.3043 -3.0890 -0.2551
5.0012 -3.0478 -0.2736
4.7419 -3.0097 -0.2770
4.6402 -2.9951 -0.2800
4.5292 -2.9769 -0.2729
4.4295 -2.9602 -0.2649
4.3612 -2.9507 -0.2680
4.2952 -2.9409 -0.2683
4.2224 -2.9282 -0.2605
4.1726 -2.9214 -0.2631
4.1239 -2.9142 -0.2635
4.0843 -2.9091 -0.2675
4.0265 -2.8977 -0.2550
3.9966 -2.8946 -0.2613
3.9611 -2.8893 -0.2611
3.9363 -2.8871 -0.2681
3.8941 -2.8783 -0.2570
3.8422 -2.8711 -0.2595
3.8160 -2.8668 -0.2578
3.7730 -2.8608 -0.2599
3.7532 -2.8581 -0.2608
3.7305 -2.8537 -0.2563
3.7129 -2.8512 -0.2570
3.6982 -2.8498 -0.2608
3.6806 -2.8468 -0.2591
3.6647 -2.8443 -0.2585
3.6498 -2.8420 -0.2582
3.6346 -2.8393 -0.2562
3.6203 -2.8368 -0.2544
3.6092 -2.8358 -0.2575
3.5982 -2.8347 -0.2600
3.5848 -2.8319 -0.2564
3.5755 -2.8314 -0.2603
3.5637 -2.8290 -0.2579
3.5527 -2.8270 -0.2561
3.5429 -2.8256 -0.2562
7.8421 -3.1189 0.8117
5.7009 -2.9278 0.4654
5.6904 -2.9374 0.4130
7.1293 -3.1350 0.3141
7.1656 -3.1581 0.2248
7.3770 -3.2050 0.1246
7.2025 -3.2017 0.0374
7.1590 -3.2157 -0.0552
7.0753 -3.2238 -0.1431
6.7698 -3.2167 -0.2892
5.7630 -3.0854 -0.2537
5.5706 -3.0662 -0.2748
5.2910 -3.0290 -0.2618
4.9843 -2.9943 -0.2762
4.8451 -2.9773 -0.2765
4.6998 -2.9573 -0.2667
4.5078 -2.9341 -0.2682
4.4404 -2.9273 -0.2754
4.3786 -2.9210 -0.2819
4.2790 -2.9048 -0.2628
4.2220 -2.8980 -0.2638
4.1804 -2.8945 -0.2714
4.1085 -2.8823 -0.2555
4.0343 -2.8748 -0.2633
3.9593 -2.8651 -0.2610
3.8943 -2.8565 -0.2583
3.8720 -2.8550 -0.2640
3.8408 -2.8500 -0.2587
3.7537 -2.8399 -0.2614
3.7330 -2.8369 -0.2593
3.7186 -2.8362 -0.2646
3.6993 -2.8333 -0.2617
3.6798 -2.8299 -0.2569
3.6645 -2.8280 -0.2571
3.6489 -2.8258 -0.2556
3.6367 -2.8249 -0.2585
3.6241 -2.8236 -0.2599
3.6100 -2.8214 -0.2574
3.5997 -2.8208 -0.2610
3.5868 -2.8187 -0.2584
3.5742 -2.8165 -0.2551
3.5639 -2.8154 -0.2561
3.5550 -2.8149 -0.2590
3.5442 -2.8131 -0.2565
7.8303 -2.9075 1.3101
7.5164 -2.9063 1.1615
7.9483 -2.9652 1.0742
8.0095 -2.9872 0.9924
7.5694 -2.9913 0.7545
5.5344 -2.8563 0.4400
6.0200 -2.9084 0.4134
6.7361 -2.9863 0.3694
7.1078 -3.0375 0.2916
7.6841 -3.1132 0.1899
7.1825 -3.0804 0.1102
7.5941 -3.1865 -0.2277
7.4461 -3.1896 -0.3167
6.6539 -3.1074 -0.2880
5.8301 -3.0266 -0.2822
5.4810 -2.9892 -0.2635
5.2784 -2.9705 -0.2684
4.9511 -2.9398 -0.2730
4.8108 -2.9258 -0.2709
4.6901 -2.9138 -0.2692
4.6055 -2.9071 -0.2768
4.4923 -2.8941 -0.2661
4.4108 -2.8860 -0.2650
4.3449 -2.8802 -0.2677
4.2787 -2.8735 -0.2665
4.2080 -2.8651 -0.2585
4.1556 -2.8600 -0.2581
4.1225 -2.8587 -0.2681
4.0713 -2.8528 -0.2629
4.0189 -2.8458 -0.2533
3.9874 -2.8436 -0.2574
3.9511 -2.8397 -0.2555
3.8982 -2.8361 -0.2632
3.8358 -2.8282 -0.2540
3.8167 -2.8275 -0.2595
3.7931 -2.8250 -0.2585
3.7522 -2.8212 -0.2593
3.7321 -2.8190 -0.2579
3.7144 -2.8173 -0.2583
3.6833 -2.8150 -0.2616
3.6679 -2.8135 -0.2617
3.6535 -2.8122 -0.2621
3.6238 -2.8085 -0.2578
3.6126 -2.8080 -0.2606
3.5971 -2.8052 -0.2540
3.5870 -2.8047 -0.2569
3.5744 -2.8028 -0.2534
3.5652 -2.8026 -0.2566
3.5552 -2.8017 -0.2569
3.5449 -2.8004 -0.2556
8.2156 -2.7262 1.8760
7.8874 -2.7797 1.4590
8.3235 -2.8065 1.4813
8.1616 -2.8183 1.3548
7.7623 -2.8367 1.1011
7.8657 -2.8567 1.0324
7.7710 -2.8689 0.9296
7.7758 -2.8856 0.8410
7.5883 -2.8926 0.7307
5.7227 -2.8145 0.4381
7.2813 -3.0444 -0.2117
7.2364 -3.0588 -0.3074
5.7528 -2.9483 -0.2773
5.4648 -2.9267 -0.2706
5.0877 -2.9009 -0.2752
4.8050 -2.8810 -0.2759
4.6913 -2.8730 -0.2761
4.5919 -2.8660 -0.2765
4.4991 -2.8591 -0.2746
4.3474 -2.8481 -0.2734
4.2663 -2.8405 -0.2630
4.2194 -2.8382 -0.2690
4.1184 -2.8309 -0.2679
4.0622 -2.8252 -0.2584
4.0234 -2.8225 -0.2589
3.9917 -2.8210 -0.2629
3.9537 -2.8177 -0.2593
3.9242 -2.8159 -0.2611
3.8892 -2.8124 -0.2556
3.8416 -2.8100 -0.2609
3.8181 -2.8085 -0.2615
3.7965 -2.8072 -0.2628
3.7727 -2.8049 -0.2597
3.7548 -2.8042 -0.2625
3.7181 -2.8017 -0.2630
3.6818 -2.7982 -0.2583
3.6532 -2.7966 -0.2604
3.6397 -2.7958 -0.2610
3.6264 -2.7948 -0.2611
3.6134 -2.7938 -0.2605
3.6013 -2.7929 -0.2605
3.5861 -2.7905 -0.2529
3.5762 -2.7902 -0.2552
3.5676 -2.7904 -0.2595
3.5554 -2.7887 -0.2549
7.9302 -2.7403 1.1035
7.7377 -2.7520 0.9847
7.8459 -2.7849 0.8223
5.7735 -2.7503 0.4787
7.6365 -2.9653 -0.2810
7.1288 -2.9476 -0.3117
5.7943 -2.8735 -0.2316
5.6496 -2.8727 -0.2653
5.4090 -2.8621 -0.2666
5.0971 -2.8515 -0.2871
4.7662 -2.8332 -0.2678
4.5688 -2.8250 -0.2718
4.4841 -2.8212 -0.2724
4.4118 -2.8184 -0.2748
4.2537 -2.8085 -0.2591
4.2111 -2.8080 -0.2671
4.1634 -2.8062 -0.2693
4.1058 -2.8023 -0.2617
4.0586 -2.7995 -0.2581
3.9865 -2.7966 -0.2603
3.9523 -2.7950 -0.2597
3.9166 -2.7926 -0.2553
3.8625 -2.7905 -0.2569
3.8165 -2.7889 -0.2602
3.7703 -2.7863 -0.2569
3.7330 -2.7848 -0.2584
3.7132 -2.7835 -0.2555
3.6958 -2.7825 -0.2546
3.6834 -2.7829 -0.2599
3.6673 -2.7819 -0.2586
3.6528 -2.7813 -0.2586
3.6393 -2.7807 -0.2591
3.6266 -2.7803 -0.2600
3.6107 -2.7785 -0.2537
3.5987 -2.7779 -0.2533
3.5897 -2.7784 -0.2583
3.5775 -2.7774 -0.2558
3.5689 -2.7777 -0.2600
3.5577 -2.7768 -0.2577
3.5484 -2.7765 -0.2587
7.7609 -2.6673 0.8746
7.6236 -2.6812 0.7706
6.3111 -2.6880 0.5639
6.0749 -2.6959 0.4853
5.9208 -2.7033 0.4194
6.0006 -2.7136 0.3652
6.7472 -2.7499 0.2320
6.7723 -2.7633 0.1519
7.5020 -2.7985 0.0232
7.1912 -2.8350 -0.2429
6.7436 -2.8302 -0.2690
6.1277 -2.8256 -0.3174
5.5411 -2.8031 -0.2508
5.4198 -2.8054 -0.2803
5.0330 -2.7967 -0.2746
4.7619 -2.7910 -0.2729
4.6609 -2.7895 -0.2758
4.5565 -2.7867 -0.2717
4.4643 -2.7842 -0.2677
4.4064 -2.7845 -0.2766
4.3152 -2.7806 -0.2636
4.2504 -2.7788 -0.2608
4.2026 -2.7786 -0.2650
4.1489 -2.7771 -0.2625
4.0657 -2.7759 -0.2657
3.9907 -2.7744 -0.2657
3.9572 -2.7737 -0.2655
3.9174 -2.7716 -0.2574
3.8707 -2.7721 -0.2662
3.8076 -2.7683 -0.2505
3.7743 -2.7695 -0.2618
3.7515 -2.7684 -0.2580
3.7313 -2.7676 -0.2558
3.7155 -2.7677 -0.2583
3.7007 -2.7679 -0.2612
3.6849 -2.7676 -0.2615
3.6701 -2.7674 -0.2621
3.6395 -2.7661 -0.2581
3.6274 -2.7662 -0.2600
3.6132 -2.7654 -0.2568
3.6017 -2.7653 -0.2576
3.5910 -2.7653 -0.2590
3.5782 -2.7644 -0.2552
3.5679 -2.7643 -0.2556
3.5579 -2.7641 -0.2556
3.5496 -2.7645 -0.2589
7.5875 -2.5355 1.0721
7.6786 -2.5448 1.0067
7.7284 -2.5559 0.9303
7.3045 -2.5786 0.7911
6.6793 -2.6032 0.6459
6.3773 -2.6677 0.2212
6.5799 -2.6786 0.1413
6.6302 -2.6903 0.0611
6.9117 -2.7048 -0.0451
7.0924 -2.7202 -0.1549
6.7667 -2.7289 -0.2027
6.7605 -2.7419 -0.2903
6.2932 -2.7440 -0.2890
5.8929 -2.7445 -0.2796
5.5243 -2.7430 -0.2580
5.4048 -2.7478 -0.2867
5.0596 -2.7502 -0.2919
4.7383 -2.7485 -0.2702
4.6401 -2.7494 -0.2729
4.5347 -2.7490 -0.2670
4.4461 -2.7489 -0.2636
4.3829 -2.7500 -0.2685
4.3183 -2.7504 -0.2693
4.2480 -2.7498 -0.2629
4.1931 -2.7499 -0.2621
4.1522 -2.7509 -0.2676
4.1028 -2.7507 -0.2647
4.0545 -2.7502 -0.2595
3.9869 -2.7512 -0.2642
3.9502 -2.7509 -0.2608
3.8868 -2.7505 -0.2565
3.8661 -2.7515 -0.2623
3.8390 -2.7513 -0.2600
3.8124 -2.7509 -0.2565
3.7923 -2.7513 -0.2585
3.7704 -2.7512 -0.2571
3.7384 -2.7525 -0.2652
3.6963 -2.7511 -0.2541
3.6709 -2.7524 -0.2625
3.6545 -2.7520 -0.2591
3.6384 -2.7515 -0.2549
3.6164 -2.7525 -0.2611
3.6018 -2.7518 -0.2560
3.5934 -2.7527 -0.2620
3.5811 -2.7524 -0.2593
3.5680 -2.7516 -0.2535
3.5596 -2.7522 -0.2571
3.5518 -2.7529 -0.2617
7.7391 -2.4357 1.0734
7.7902 -2.4445 0.9984
7.9439 -2.4488 0.9341
6.4604 -2.5373 0.6044
5.9534 -2.5738 0.4461
6.6139 -2.5686 0.3437
6.2513 -2.5978 0.2076
6.5674 -2.6001 0.1237
6.6172 -2.6096 0.0437
6.8269 -2.6172 -0.0564
6.9969 -2.6270 -0.1635
6.7835 -2.6415 -0.2238
6.1649 -2.6671 -0.2788
5.4666 -2.6841 -0.2544
5.1473 -2.6964 -0.2765
5.0160 -2.7015 -0.2853
4.8776 -2.7055 -0.2849
4.7212 -2.7080 -0.2698
4.6058 -2.7105 -0.2639
4.5414 -2.7140 -0.2755
4.4450 -2.7158 -0.2678
4.3817 -2.7182 -0.2722
4.2498 -2.7214 -0.2675
4.1782 -2.7219 -0.2557
4.1339 -2.7235 -0.2580
4.0889 -2.7247 -0.2572
4.0515 -2.7261 -0.2595
3.9830 -2.7285 -0.2626
3.9470 -2.7291 -0.2595
3.9244 -2.7308 -0.2665
3.7912 -2.7334 -0.2575
3.7765 -2.7348 -0.2647
3.7514 -2.7346 -0.2577
3.7353 -2.7355 -0.2606
3.7160 -2.7357 -0.2581
3.6985 -2.7360 -0.2567
3.6659 -2.7365 -0.2535
3.6527 -2.7371 -0.2550
3.6385 -2.7374 -0.2538
3.6277 -2.7382 -0.2575
3.6159 -2.7387 -0.2586
3.6031 -2.7388 -0.2567
3.5917 -2.7391 -0.2567
3.5818 -2.7397 -0.2586
3.5709 -2.7399 -0.2576
3.5608 -2.7401 -0.2574
3.5524 -2.7408 -0.2606
7.5823 -2.3632 0.9404
7.7659 -2.3606 0.8833
6.9521 -2.4265 0.7043
6.4740 -2.4667 0.5874
6.4640 -2.5091 0.2544
6.2423 -2.5289 0.1915
6.4744 -2.5266 0.1110
6.7836 -2.5226 0.0120
7.0920 -2.5207 -0.1034
6.9778 -2.5365 -0.1809
6.8002 -2.5541 -0.2449
6.6057 -2.5712 -0.2987
6.1122 -2.5955 -0.2827
5.7085 -2.6145 -0.2631
5.4907 -2.6272 -0.2715
5.3527 -2.6372 -0.2924
5.1966 -2.6466 -0.3010
4.8159 -2.6628 -0.2689
4.7057 -2.6688 -0.2699
4.6024 -2.6741 -0.2681
4.5256 -2.6788 -0.2733
4.4550 -2.6831 -0.2775
4.3694 -2.6867 -0.2699
4.3072 -2.6901 -0.2708
4.2446 -2.6931 -0.2678
4.1876 -2.6958 -0.2649
4.0961 -2.7006 -0.2649
4.0133 -2.7046 -0.2609
3.9823 -2.7066 -0.2637
3.9470 -2.7081 -0.2609
3.8603 -2.7123 -0.2580
3.8354 -2.7136 -0.2574
3.7696 -2.7170 -0.2562
3.7524 -2.7182 -0.2588
3.7355 -2.7193 -0.2607
3.7176 -2.7202 -0.2599
3.7020 -2.7212 -0.2613
3.6862 -2.7220 -0.2610
3.6687 -2.7224 -0.2569
3.6535 -2.7230 -0.2551
3.6418 -2.7240 -0.2581
3.6272 -2.7244 -0.2551
3.6165 -2.7254 -0.2582
3.6049 -2.7260 -0.2586
3.5912 -2.7261 -0.2537
3.5818 -2.7270 -0.2567
3.5619 -2.7282 -0.2577
3.5536 -2.7290 -0.2608
7.6001 -2.2705 0.9181
7.4759 -2.2913 0.8205
7.1337 -2.3311 0.7028
6.3482 -2.4082 0.5582
6.3246 -2.4544 0.1719
6.5975 -2.4432 0.0859
6.7998 -2.4384 -0.0083
6.7944 -2.4483 -0.0908
6.6284 -2.4777 -0.2357
6.3716 -2.5017 -0.2724
6.1050 -2.5249 -0.2955
5.4361 -2.5732 -0.2678
5.0632 -2.6019 -0.2671
4.9132 -2.6132 -0.2652
4.8238 -2.6217 -0.2788
4.7015 -2.6306 -0.2744
4.5998 -2.6382 -0.2726
4.4965 -2.6452 -0.2646
4.4334 -2.6509 -0.2712
4.3652 -2.6562 -0.2718
4.2884 -2.6612 -0.2636
4.1883 -2.6694 -0.2683
4.0844 -2.6763 -0.2589
4.0193 -2.6823 -0.2676
3.9372 -2.6871 -0.2536
3.8847 -2.6915 -0.2574
3.8561 -2.6934 -0.2544
3.8305 -2.6952 -0.2526
3.8159 -2.6973 -0.2616
3.7978 -2.6992 -0.2658
3.7526 -2.7019 -0.2590
3.7336 -2.7032 -0.2578
3.7157 -2.7045 -0.2567
3.7022 -2.7060 -0.2609
3.6876 -2.7073 -0.2625
3.6714 -2.7083 -0.2603
3.6529 -2.7089 -0.2531
3.6309 -2.7114 -0.2605
3.6190 -2.7125 -0.2614
3.6050 -2.7130 -0.2570
3.5936 -2.7139 -0.2567
3.5818 -2.7146 -0.2547
3.5715 -2.7153 -0.2546
3.5636 -2.7165 -0.2592
3.5558 -2.7176 -0.2636
7.6178 -2.1778 0.8958
7.1103 -2.2671 0.5266
7.0354 -2.2911 0.3671
6.2996 -2.3800 0.2232
6.2917 -2.3876 0.1569
6.5564 -2.3700 0.0708
6.6925 -2.3654 -0.0172
6.5159 -2.3894 -0.0771
6.6209 -2.3884 -0.1697
6.7358 -2.3874 -0.2708
6.3619 -2.4265 -0.2863
6.0755 -2.4571 -0.3033
5.0550 -2.5564 -0.2727
4.7925 -2.5829 -0.2735
4.6914 -2.5933 -0.2763
4.6067 -2.6023 -0.2813
4.4991 -2.6121 -0.2708
4.4209 -2.6198 -0.2693
4.3406 -2.6271 -0.2625
4.2939 -2.6326 -0.2705
4.1711 -2.6439 -0.2601
4.1161 -2.6488 -0.2538
4.0907 -2.6526 -0.2658
4.0202 -2.6601 -0.2702
3.9756 -2.6637 -0.2614
3.9419 -2.6668 -0.2592
3.9104 -2.6698 -0.2570
3.8812 -2.6725 -0.2549
3.8377 -2.6775 -0.2611
3.7981 -2.6820 -0.2664
3.7708 -2.6839 -0.2578
3.7470 -2.6856 -0.2516
3.7309 -2.6875 -0.2539
3.7206 -2.6895 -0.2633
3.6823 -2.6923 -0.2536
3.6587 -2.6955 -0.2617
3.6425 -2.6967 -0.2569
3.6328 -2.6982 -0.2626
3.6178 -2.6992 -0.2575
3.6056 -2.7003 -0.2564
3.5836 -2.7025 -0.2563
3.5743 -2.7037 -0.2587
3.5647 -2.7047 -0.2594
3.5569 -2.7060 -0.2637
7.7080 -2.0386 1.2787
6.4038 -2.2637 0.5890
6.1850 -2.2980 0.5113
6.2579 -2.2939 0.4575
6.7365 -2.2455 0.3421
6.6184 -2.2668 0.2697
6.4801 -2.2903 0.2016
6.3519 -2.3120 0.1376
6.4178 -2.3313 -0.1573
6.6905 -2.3090 -0.2808
6.4012 -2.3475 -0.3096
6.0477 -2.3913 -0.3110
5.7285 -2.4300 -0.3040
5.4325 -2.4651 -0.2876
5.0548 -2.5111 -0.2808
4.7686 -2.5456 -0.2708
4.6713 -2.5579 -0.2739
4.5741 -2.5697 -0.2720
4.4921 -2.5798 -0.2723
4.4194 -2.5889 -0.2730
4.2874 -2.6050 -0.2704
4.2280 -2.6120 -0.2676
4.1716 -2.6186 -0.2634
4.1207 -2.6246 -0.2597
4.0857 -2.6293 -0.2645
4.0445 -2.6343 -0.2627
4.0143 -2.6384 -0.2673
3.9855 -2.6424 -0.2714
3.9077 -2.6505 -0.2556
3.8600 -2.6568 -0.2600
3.8357 -2.6598 -0.2595
3.8134 -2.6625 -0.2597
3.7924 -2.6651 -0.2598
3.7643 -2.6677 -0.2498
3.7500 -2.6700 -0.2554
3.7331 -2.6722 -0.2566
3.7172 -2.6743 -0.2581
3.6871 -2.6782 -0.2601
3.6708 -2.6799 -0.2575
3.6568 -2.6817 -0.2574
3.6437 -2.6833 -0.2579
3.6309 -2.6849 -0.2577
3.6184 -2.6864 -0.2571
3.6055 -2.6877 -0.2547
3.5859 -2.6906 -0.2592
3.5663 -2.6932 -0.2609
7.9993 -1.9035 1.3170
7.0405 -2.1125 0.4805
7.0680 -2.1212 0.3262
6.8311 -2.1685 0.1723
6.9901 -2.1524 0.0850
7.2040 -2.1368 -0.1058
7.2831 -2.1336 -0.2080
6.5389 -2.2412 -0.1917
6.3160 -2.2833 -0.3080
5.9429 -2.3373 -0.3008
5.6310 -2.3821 -0.2911
4.8938 -2.4891 -0.2802
4.4697 -2.5500 -0.2662
4.3491 -2.5684 -0.2751
4.2725 -2.5788 -0.2652
4.2331 -2.5853 -0.2741
4.1333 -2.5996 -0.2711
4.0368 -2.6127 -0.2588
3.9661 -2.6229 -0.2564
3.9089 -2.6314 -0.2579
3.8532 -2.6392 -0.2538
3.8414 -2.6419 -0.2663
3.8129 -2.6456 -0.2595
3.7918 -2.6486 -0.2593
3.7718 -2.6515 -0.2592
3.7464 -2.6546 -0.2507
3.7339 -2.6569 -0.2574
3.7187 -2.6594 -0.2597
3.7010 -2.6618 -0.2573
3.6871 -2.6640 -0.2593
3.6741 -2.6661 -0.2619
3.6567 -2.6681 -0.2563
3.6469 -2.6701 -0.2622
3.6328 -2.6719 -0.2597
3.6196 -2.6737 -0.2578
3.6073 -2.6754 -0.2564
3.5964 -2.6770 -0.2570
3.5846 -2.6786 -0.2546
3.5788 -2.6802 -0.2644
3.5686 -2.6817 -0.2637
7.2319 -1.9997 0.4684
7.1937 -2.0119 0.3872
7.4688 -1.9713 0.3069
7.3852 -1.9916 0.2198
7.4699 -1.9839 0.1278
7.2252 -2.0307 0.0507
7.3857 -2.0110 -0.0516
7.3029 -2.0310 -0.1369
7.0314 -2.0810 -0.1954
6.6677 -2.1448 -0.2284
6.3392 -2.2019 -0.2517
6.2126 -2.2268 -0.3018
5.8125 -2.2931 -0.2835
5.5430 -2.3382 -0.2796
4.6481 -2.4890 -0.2757
4.3322 -2.5419 -0.2696
4.2072 -2.5624 -0.2610
4.1175 -2.5776 -0.2626
4.0375 -2.5910 -0.2614
3.9726 -2.6021 -0.2635
3.9044 -2.6130 -0.2548
3.8575 -2.6212 -0.2589
3.8146 -2.6287 -0.2618
3.7689 -2.6359 -0.2557
3.7368 -2.6417 -0.2610
3.7180 -2.6447 -0.2582
3.7030 -2.6473 -0.2597
3.6727 -2.6524 -0.2588
3.6593 -2.6547 -0.2595
3.6488 -2.6568 -0.2642
3.6327 -2.6591 -0.2582
3.6195 -2.6612 -0.2561
3.6084 -2.6631 -0.2570
3.5993 -2.6649 -0.2611
3.5892 -2.6667 -0.2624
3.5764 -2.6685 -0.2569
3.5662 -2.6702 -0.2560
3.5584 -2.6718 -0.2600
7.4425 -1.8705 0.5381
7.5693 -1.8511 0.4602
7.5725 -1.8612 0.2842
7.5752 -1.8663 0.1934
7.1682 -1.9485 0.1193
7.1293 -1.9610 0.0365
7.2026 -1.9527 -0.0565
7.3211 -1.9364 -0.1597
7.2794 -1.9498 -0.2485
7.0093 -2.0045 -0.3005
6.0972 -2.1781 -0.2918
5.7579 -2.2424 -0.2828
5.5538 -2.2819 -0.2932
4.4821 -2.4858 -0.2817
4.3189 -2.5160 -0.2659
4.2222 -2.5350 -0.2736
4.0365 -2.5697 -0.2626
3.9680 -2.5827 -0.2611
3.9113 -2.5936 -0.2625
3.8834 -2.5989 -0.2609
3.8553 -2.6040 -0.2574
3.8101 -2.6126 -0.2571
3.7912 -2.6164 -0.2591
3.7682 -2.6205 -0.2548
3.7524 -2.6237 -0.2581
3.7390 -2.6266 -0.2637
3.7086 -2.6326 -0.2674
3.6869 -2.6362 -0.2577
3.6726 -2.6389 -0.2578
3.6592 -2.6415 -0.2583
3.6448 -2.6441 -0.2561
3.6225 -2.6486 -0.2603
3.5992 -2.6530 -0.2591
3.5909 -2.6549 -0.2640
3.5780 -2.6570 -0.2584
3.5678 -2.6589 -0.2574
3.5600 -2.6606 -0.2613
7.5805 -1.7460 0.6891
7.5004 -1.7718 0.5186
7.5433 -1.7668 0.4361
7.5938 -1.7696 0.1701
7.2227 -1.8524 0.0961
7.3391 -1.8324 0.0012
7.3396 -1.8370 -0.0898
7.2187 -1.8667 -0.1682
7.2165 -1.8718 -0.2598
5.9904 -2.1338 -0.2824
5.7534 -2.1848 -0.2936
5.4729 -2.2439 -0.2822
4.2762 -2.4983 -0.2779
4.2115 -2.5116 -0.2699
4.1472 -2.5247 -0.2584
4.1222 -2.5307 -0.2709
4.0477 -2.5467 -0.2734
3.9973 -2.5567 -0.2605
3.9659 -2.5634 -0.2609
3.9050 -2.5762 -0.2576
3.8755 -2.5823 -0.2540
3.8196 -2.5949 -0.2682
3.7905 -2.6006 -0.2585
3.7523 -2.6087 -0.2579
3.7331 -2.6127 -0.2555
3.7200 -2.6157 -0.2603
3.7050 -2.6190 -0.2615
3.6861 -2.6227 -0.2557
3.6725 -2.6257 -0.2567
3.6611 -2.6283 -0.2604
3.6479 -2.6311 -0.2604
3.6343 -2.6339 -0.2586
3.6230 -2.6363 -0.2597
3.6118 -2.6387 -0.2605
3.5990 -2.6413 -0.2570
3.5802 -2.6455 -0.2612
7.6813 -1.6320 0.7571
7.5147 -1.6750 0.6599
7.5167 -1.6778 0.5791
7.6465 -1.6505 0.5029
7.5195 -1.6839 0.4126
7.4814 -1.7035 0.1513
7.5250 -1.6971 0.0587
7.4408 -1.7203 -0.0277
5.7335 -2.1315 -0.3004
5.4339 -2.2009 -0.2817
4.9371 -2.3172 -0.2787
4.5174 -2.4152 -0.2713
4.4367 -2.4340 -0.2680
4.3779 -2.4480 -0.2722
4.2334 -2.4811 -0.2554
4.1951 -2.4904 -0.2624
4.1546 -2.5000 -0.2661
3.9935 -2.5375 -0.2591
3.9296 -2.5523 -0.2561
3.8839 -2.5633 -0.2632
3.8548 -2.5700 -0.2583
3.8279 -2.5761 -0.2538
3.8086 -2.5807 -0.2562
3.7859 -2.5859 -0.2532
3.7697 -2.5898 -0.2567
3.7530 -2.5938 -0.2587
3.7214 -2.6014 -0.2617
3.7027 -2.6056 -0.2576
3.6859 -2.6094 -0.2548
3.6737 -2.6124 -0.2577
3.6575 -2.6160 -0.2535
3.6471 -2.6186 -0.2578
3.6328 -2.6218 -0.2546
3.6228 -2.6243 -0.2579
3.6123 -2.6268 -0.2597
3.5912 -2.6318 -0.2608
3.5789 -2.6345 -0.2562
3.5709 -2.6365 -0.2602
3.5631 -2.6385 -0.2640
7.6496 -1.5480 0.8893
7.5753 -1.5771 0.5600
7.5353 -1.5900 0.4748
7.4546 -1.6133 0.3886
7.4552 -1.6157 0.3042
7.4151 -1.6286 0.2189
7.2579 -1.6713 0.1383
7.5433 -1.6015 0.0357
7.6359 -1.5809 -0.0653
7.5031 -1.6174 -0.1484
7.5489 -1.6089 -0.2505
5.8703 -2.0388 -0.2812
5.6840 -2.0870 -0.2994
4.6966 -2.3387 -0.2787
4.5459 -2.3764 -0.2523
4.3670 -2.4227 -0.2704
4.2535 -2.4517 -0.2708
4.1500 -2.4780 -0.2657
4.0677 -2.4990 -0.2647
4.0251 -2.5097 -0.2595
3.9887 -2.5189 -0.2568
3.9333 -2.5332 -0.2607
3.9055 -2.5403 -0.2602
3.8750 -2.5479 -0.2552
3.8335 -2.5587 -0.2605
3.8150 -2.5635 -0.2637
3.7959 -2.5685 -0.2653
3.7673 -2.5754 -0.2538
3.7499 -2.5799 -0.2546
3.7190 -2.5879 -0.2581
3.6886 -2.5957 -0.2581
3.6776 -2.5986 -0.2632
3.6607 -2.6028 -0.2578
3.6475 -2.6061 -0.2574
3.6379 -2.6088 -0.2623
3.6225 -2.6125 -0.2561
3.6101 -2.6156 -0.2540
3.6030 -2.6176 -0.2615
3.5916 -2.6205 -0.2598
3.5804 -2.6233 -0.2576
3.5731 -2.6253 -0.2629
3.5652 -2.6275 -0.2667
7.5821 -1.4810 0.9328
7.6328 -1.4734 0.6234
7.5512 -1.4978 0.5358
7.5527 -1.4991 0.4529
7.4719 -1.5233 0.3669
7.4726 -1.5249 0.2823
7.3526 -1.5598 0.1989
7.4333 -1.5393 0.1099
7.4333 -1.5412 0.0211
7.3120 -1.5783 -0.1485
6.5728 -1.7858 -0.2949
5.8147 -1.9951 -0.2806
5.5803 -2.0600 -0.2840
5.3492 -2.1238 -0.2776
5.1569 -2.1769 -0.2721
4.9102 -2.2453 -0.2832
4.7036 -2.3026 -0.2874
4.5048 -2.3572 -0.2748
4.4227 -2.3798 -0.2695
4.2329 -2.4322 -0.2614
4.1878 -2.4447 -0.2636
4.1593 -2.4528 -0.2746
4.1138 -2.4653 -0.2722
4.0684 -2.4778 -0.2673
3.9970 -2.4975 -0.2653
3.9266 -2.5167 -0.2559
3.8859 -2.5282 -0.2670
3.8574 -2.5360 -0.2624
3.8384 -2.5414 -0.2663
3.7849 -2.5559 -0.2524
3.7695 -2.5602 -0.2566
3.7550 -2.5643 -0.2611
3.7196 -2.5741 -0.2584
3.7031 -2.5786 -0.2570
3.6732 -2.5868 -0.2553
3.6639 -2.5895 -0.2621
3.6500 -2.5933 -0.2605
3.6356 -2.5972 -0.2571
3.6242 -2.6004 -0.2578
3.6137 -2.6034 -0.2594
3.5932 -2.6091 -0.2613
3.5808 -2.6124 -0.2564
3.5716 -2.6149 -0.2576
7.2957 -1.2393 0.3085
7.3753 -1.2069 0.2218
7.3752 -1.2049 0.1331
7.2944 -1.2337 0.0476
7.1386 -1.2913 -0.0296
7.0994 -1.3043 -0.1142
7.0601 -1.3173 -0.1987
6.9847 -1.3443 -0.2776
5.5085 -1.9072 -0.2686
5.1015 -2.0626 -0.2594
4.8512 -2.1578 -0.2671
4.4707 -2.3029 -0.2642
4.1308 -2.4326 -0.2598
4.0404 -2.4673 -0.2496
4.0081 -2.4796 -0.2510
3.8955 -2.5225 -0.2530
3.8271 -2.5486 -0.2536
3.8062 -2.5565 -0.2530
3.7902 -2.5625 -0.2572
3.7693 -2.5706 -0.2540
3.7482 -2.5787 -0.2489
3.7346 -2.5838 -0.2528
3.7185 -2.5900 -0.2521
3.7061 -2.5946 -0.2560
3.6899 -2.6009 -0.2529
3.6794 -2.6048 -0.2580
3.6644 -2.6105 -0.2547
3.6368 -2.6212 -0.2485
3.6265 -2.6251 -0.2504
3.6158 -2.6292 -0.2507
3.6070 -2.6324 -0.2543
3.5950 -2.6371 -0.2499
3.5855 -2.6407 -0.2502
3.5761 -2.6443 -0.2500
6.9868 -1.3024 1.1716
7.1739 -1.2261 1.1502
7.0398 -1.2748 0.9881
6.9998 -1.2838 0.7753
7.0264 -1.2682 0.6343
7.0229 -1.2671 0.5596
7.1946 -1.1954 0.4927
7.2301 -1.1784 0.4128
7.1542 -1.2062 0.3288
7.2280 -1.1736 0.2445
7.2269 -1.1711 0.1578
7.2261 -1.1684 0.0693
6.9313 -1.2853 0.0028
7.0694 -1.2261 -0.0970
6.9938 -1.2539 -0.1777
6.8514 -1.3092 -0.2463
6.0745 -1.6226 -0.2666
5.8538 -1.7111 -0.2878
5.6035 -1.8122 -0.2909
5.1391 -2.0006 -0.2712
4.8824 -2.1041 -0.2805
4.7196 -2.1705 -0.2614
4.6245 -2.2090 -0.2628
4.4587 -2.2760 -0.2625
4.3261 -2.3296 -0.2627
4.2122 -2.3757 -0.2598
4.1211 -2.4126 -0.2599
4.0338 -2.4481 -0.2520
3.9107 -2.4979 -0.2516
3.8664 -2.5156 -0.2577
3.8410 -2.5260 -0.2551
3.8200 -2.5344 -0.2558
3.8016 -2.5418 -0.2582
3.7763 -2.5523 -0.2507
3.7594 -2.5591 -0.2523
3.7407 -2.5667 -0.2503
3.7280 -2.5717 -0.2554
3.7087 -2.5796 -0.2498
3.6958 -2.5848 -0.2527
3.6832 -2.5898 -0.2551
3.6676 -2.5962 -0.2515
3.6542 -2.6017 -0.2506
3.6423 -2.6064 -0.2513
3.6319 -2.6105 -0.2538
3.6193 -2.6157 -0.2512
3.6076 -2.6205 -0.2492
3.5984 -2.6242 -0.2516
3.5894 -2.6278 -0.2536
3.5794 -2.6318 -0.2528
3.5708 -2.6353 -0.2541
3.5622 -2.6387 -0.2550
7.0505 -1.1968 1.1538
7.0803 -1.1814 1.0938
6.8615 -1.2701 0.9827
6.9758 -1.2160 0.8689
6.9661 -1.2105 0.6534
7.0968 -1.1516 0.5896
7.2800 -1.0701 0.5218
7.1277 -1.1313 0.4323
7.2394 -1.0798 0.3517
7.0867 -1.1414 0.2663
7.0846 -1.1384 0.1815
6.9737 -1.1823 0.1007
6.8676 -1.2243 0.0230
7.0769 -1.1298 -0.0832
6.9276 -1.1905 -0.1567
6.7543 -1.2618 -0.2209
6.0646 -1.5555 -0.2588
5.8960 -1.6262 -0.2934
5.6641 -1.7250 -0.3040
5.1137 -1.9626 -0.2631
4.6282 -2.1703 -0.2676
4.4352 -2.2535 -0.2550
4.3174 -2.3037 -0.2631
4.2748 -2.3215 -0.2722
4.2025 -2.3530 -0.2599
4.1602 -2.3710 -0.2635
4.1136 -2.3910 -0.2616
4.0797 -2.4053 -0.2666
4.0341 -2.4251 -0.2602
3.9579 -2.4581 -0.2515
3.9044 -2.4809 -0.2548
3.8838 -2.4895 -0.2603
3.8629 -2.4983 -0.2641
3.8097 -2.5215 -0.2544
3.7710 -2.5380 -0.2552
3.7522 -2.5461 -0.2543
3.7331 -2.5544 -0.2516
3.7178 -2.5609 -0.2529
3.7041 -2.5667 -0.2556
3.6933 -2.5710 -0.2620
3.6750 -2.5792 -0.2551
3.6596 -2.5859 -0.2517
3.6477 -2.5909 -0.2531
3.6366 -2.5956 -0.2551
3.6257 -2.6002 -0.2567
3.6127 -2.6059 -0.2531
3.6028 -2.6101 -0.2549
3.5909 -2.6153 -0.2513
3.5809 -2.6196 -0.2510
3.5727 -2.6230 -0.2540
3.5641 -2.6266 -0.2554
3.5562 -2.6299 -0.2579
7.0929 -1.1049 1.3283
7.0270 -1.1302 1.2458
7.0239 -1.1278 1.1796
6.9585 -1.1529 1.0984
6.9243 -1.1642 1.0247
6.8598 -1.1890 0.9454
6.9482 -1.1459 0.8927
6.9452 -1.1433 0.8218
6.8780 -1.1692 0.7415
6.7823 -1.2079 0.6594
6.9334 -1.1361 0.6010
7.1754 -1.0230 0.5406
7.1734 -1.0192 0.4577
7.3729 -0.9242 0.3773
7.1704 -1.0109 0.2868
7.0183 -1.0750 0.2025
6.9791 -1.0880 0.1180
6.8702 -1.1329 0.0385
7.0838 -1.0300 -0.0689
7.0425 -1.0437 -0.1578
6.9639 -1.0746 -0.2412
6.1189 -1.4564 -0.2636
5.3387 -1.8093 -0.2751
5.0870 -1.9246 -0.2546
4.3837 -2.2425 -0.2698
4.3081 -2.2772 -0.2634
4.2574 -2.2999 -0.2677
4.1950 -2.3286 -0.2615
4.1440 -2.3518 -0.2593
4.0550 -2.3924 -0.2554
4.0192 -2.4085 -0.2562
3.8971 -2.4639 -0.2571
3.8486 -2.4857 -0.2590
3.8255 -2.4962 -0.2587
3.7605 -2.5260 -0.2533
3.7266 -2.5413 -0.2548
3.7082 -2.5498 -0.2514
3.6954 -2.5554 -0.2553
3.6784 -2.5633 -0.2514
3.6661 -2.5688 -0.2540
3.6528 -2.5748 -0.2540
3.6410 -2.5800 -0.2556
3.6282 -2.5859 -0.2544
3.6058 -2.5960 -0.2550
3.5944 -2.6013 -0.2533
3.5838 -2.6061 -0.2523
3.5750 -2.6100 -0.2546
3.5633 -2.6156 -0.2488
3.5564 -2.6184 -0.2541
3.5476 -2.6224 -0.2539
6.9382 -1.0892 1.2558
6.9043 -1.1004 1.1828
6.8120 -1.1387 1.0962
6.8966 -1.0949 1.0495
6.8621 -1.1064 0.9751
6.9208 -1.0743 0.9171
6.8853 -1.0860 0.8408
6.8187 -1.1124 0.7603
6.7835 -1.1241 0.6846
6.8719 -1.0773 0.6205
7.2235 -0.9053 0.5698
7.3018 -0.8622 0.4886
6.8911 -1.0522 0.3888
6.7578 -1.1105 0.3071
7.1380 -0.9222 0.2199
7.0212 -0.9723 0.1343
6.9808 -0.9857 0.0472
6.8000 -1.0673 -0.0269
6.9358 -0.9950 -0.1313
6.8594 -1.0260 -0.2141
6.7165 -1.0897 -0.2837
6.0648 -1.4046 -0.2465
5.7797 -1.5405 -0.2581
5.6354 -1.6074 -0.2910
5.3578 -1.7412 -0.2793
4.9874 -1.9192 -0.2738
4.7032 -2.0562 -0.2625
4.5069 -2.1504 -0.2603
4.3606 -2.2204 -0.2625
4.1358 -2.3282 -0.2609
4.0891 -2.3508 -0.2587
4.0506 -2.3692 -0.2600
4.0113 -2.3881 -0.2582
3.9744 -2.4059 -0.2558
3.9452 -2.4198 -0.2581
3.9181 -2.4326 -0.2604
3.8634 -2.4590 -0.2592
3.8323 -2.4744 -0.2515
3.8131 -2.4833 -0.2554
3.7923 -2.4933 -0.2559
3.7726 -2.5027 -0.2563
3.7337 -2.5215 -0.2535
3.7191 -2.5282 -0.2569
3.6998 -2.5379 -0.2519
3.6846 -2.5451 -0.2519
3.6722 -2.5509 -0.2553
3.6588 -2.5572 -0.2561
3.6434 -2.5649 -0.2519
3.6318 -2.5703 -0.2536
3.6176 -2.5775 -0.2491
3.6076 -2.5820 -0.2520
3.5988 -2.5859 -0.2568
3.5876 -2.5914 -0.2553
3.5767 -2.5968 -0.2532
3.5659 -2.6021 -0.2506
3.5565 -2.6067 -0.2500
3.5482 -2.6106 -0.2515
3.5410 -2.6138 -0.2554
6.8470 -1.0456 1.2009
6.8131 -1.0568 1.1279
6.8999 -1.0091 1.0816
6.8964 -1.0053 1.0124
6.8609 -1.0170 0.9361
6.7945 -1.0440 0.8547
6.8514 -1.0101 0.7922
6.8469 -1.0064 0.7184
6.8750 -0.9863 0.6464
6.8699 -0.9826 0.5691
6.9676 -0.9272 0.4961
6.9643 -0.9222 0.4136
6.8227 -0.9869 0.3280
6.9934 -0.8936 0.2430
6.8465 -0.9612 0.1600
6.8017 -0.9699 -0.0120
6.9394 -0.8916 -0.1177
6.8977 -0.9054 -0.2075
6.7162 -0.9919 -0.2738
6.1216 -1.2949 -0.2511
5.8201 -1.4467 -0.2626
5.6039 -1.5548 -0.2801
5.3914 -1.6618 -0.2875
5.0798 -1.8225 -0.2522
4.9445 -1.8904 -0.2600
4.7219 -2.0021 -0.2730
4.3585 -2.1866 -0.2668
4.2230 -2.2559 -0.2592
4.1256 -2.3051 -0.2611
3.9749 -2.3810 -0.2655
3.9139 -2.4118 -0.2665
3.8521 -2.4438 -0.2579
3.7667 -2.4868 -0.2611
3.7458 -2.4977 -0.2583
3.7278 -2.5068 -0.2581
3.6900 -2.5265 -0.2503
3.6775 -2.5326 -0.2545
3.6634 -2.5396 -0.2550
3.6368 -2.5531 -0.2552
3.6259 -2.5584 -0.2582
3.6108 -2.5665 -0.2517
3.5907 -2.5764 -0.2562
3.5776 -2.5835 -0.2500
3.5664 -2.5894 -0.2468
3.5584 -2.5932 -0.2504
3.5490 -2.5980 -0.2499
3.5408 -2.6020 -0.2515
3.5315 -2.6070 -0.2488
6.9221 -0.9416 1.4482
6.6881 -1.0540 1.3134
6.8194 -0.9757 1.2271
6.8451 -0.9564 1.1684
6.8720 -0.9363 1.1077
6.8054 -0.9640 1.0248
6.8319 -0.9438 0.9610
6.9564 -0.8726 0.9114
6.9190 -0.8850 0.8309
6.8495 -0.9141 0.7461
6.7490 -0.9597 0.6595
6.8346 -0.9001 0.5127
6.7636 -0.9301 0.4293
6.7258 -0.9426 0.3479
6.9251 -0.8282 0.2647
6.7803 -0.8978 0.1810
6.9909 -0.7758 0.0820
6.9107 -0.8104 -0.0056
6.7287 -0.9007 -0.0799
6.7570 -0.8765 -0.1755
6.8222 -0.8317 -0.2810
6.2597 -1.1335 -0.2709
5.8644 -1.3452 -0.2677
5.6695 -1.4470 -0.2937
5.4989 -1.5361 -0.3165
4.9592 -1.8294 -0.2661
4.8587 -1.8818 -0.2813
4.7280 -1.9519 -0.2785
4.4816 -2.0858 -0.2567
4.4317 -2.1110 -0.2724
4.3596 -2.1494 -0.2732
4.2722 -2.1975 -0.2602
4.2156 -2.2276 -0.2612
4.1063 -2.2867 -0.2550
3.9919 -2.3474 -0.2597
3.9599 -2.3643 -0.2616
3.9141 -2.3901 -0.2482
3.8686 -2.4134 -0.2590
3.8380 -2.4303 -0.2534
3.7961 -2.4522 -0.2585
3.7765 -2.4625 -0.2604
3.7542 -2.4748 -0.2571
3.7160 -2.4955 -0.2544
3.6819 -2.5139 -0.2517
3.6684 -2.5210 -0.2540
3.6523 -2.5299 -0.2506
3.6399 -2.5363 -0.2527
3.6278 -2.5427 -0.2541
3.6138 -2.5505 -0.2507
3.6038 -2.5555 -0.2543
3.5915 -2.5623 -0.2518
3.5809 -2.5679 -0.2521
3.5696 -2.5742 -0.2496
3.5591 -2.5800 -0.2477
3.5433 -2.5878 -0.2548
3.5361 -2.5912 -0.2592
3.5268 -2.5964 -0.2568
6.9569 -0.8374 1.4974
6.8301 -0.8977 1.3928
6.6013 -1.0126 1.2612
6.7616 -0.9204 1.2454
8.4310 -0.0075 1.5162
7.0372 -0.7500 1.1079
7.0643 -0.7104 0.8840
4.7404 -1.9721 0.4228
6.7643 -0.8331 0.4525
6.6939 -0.8637 0.3689
6.7197 -0.8403 0.2866
6.6809 -0.8531 0.2029
6.8820 -0.7292 0.1065
6.6031 -0.8789 0.0355
6.6950 -0.8165 -0.0620
6.7569 -0.7706 -0.1629
5.8309 -1.2833 -0.2552
5.7248 -1.3379 -0.3044
4.9403 -1.7854 -0.2606
4.8249 -1.8494 -0.2706
4.5976 -1.9776 -0.2720
4.4726 -2.0498 -0.2568
4.4142 -2.0814 -0.2686
4.3249 -2.1328 -0.2596
4.2529 -2.1740 -0.2550
4.2083 -2.1982 -0.2635
4.0999 -2.2599 -0.2583
3.9842 -2.3248 -0.2625
3.9419 -2.3495 -0.2550
3.9063 -2.3700 -0.2508
3.8873 -2.3796 -0.2610
3.8083 -2.4245 -0.2583
3.7275 -2.4700 -0.2594
3.7107 -2.4794 -0.2606
3.6878 -2.4934 -0.2507
3.6747 -2.5003 -0.2549
3.6591 -2.5093 -0.2535
3.6045 -2.5406 -0.2486
3.5936 -2.5466 -0.2501
3.5830 -2.5525 -0.2511
3.5745 -2.5567 -0.2562
3.5639 -2.5628 -0.2550
3.5540 -2.5685 -0.2546
3.5438 -2.5745 -0.2524
3.5361 -2.5785 -0.2559
3.5276 -2.5831 -0.2566
6.8320 -0.8092 1.4306
6.8250 -0.7455 0.8764
4.6551 -1.9820 0.4250
6.6930 -0.7646 0.3911
6.7198 -0.7384 0.3077
6.9281 -0.6033 0.2171
6.9234 -0.5946 0.1236
6.8429 -0.6315 0.0337
6.7642 -0.6675 -0.0544
6.7942 -0.6374 -0.1545
5.8165 -1.2082 -0.2469
5.6554 -1.2996 -0.2835
5.1674 -1.5906 -0.2796
4.8510 -1.7786 -0.2828
4.5895 -1.9356 -0.2724
4.4004 -2.0488 -0.2668
4.3143 -2.1010 -0.2596
4.2605 -2.1322 -0.2664
4.1579 -2.1924 -0.2733
4.0448 -2.2616 -0.2581
4.0186 -2.2758 -0.2696
3.9668 -2.3082 -0.2570
3.9034 -2.3457 -0.2587
3.8692 -2.3668 -0.2533
3.8509 -2.3765 -0.2627
3.8226 -2.3937 -0.2595
3.7950 -2.4108 -0.2547
3.7818 -2.4172 -0.2660
3.7578 -2.4320 -0.2621
3.7344 -2.4466 -0.2568
3.7175 -2.4564 -0.2590
3.7004 -2.4665 -0.2595
3.6831 -2.4770 -0.2582
3.6684 -2.4855 -0.2599
3.6508 -2.4966 -0.2549
3.6233 -2.5130 -0.2543
3.6100 -2.5211 -0.2530
3.5985 -2.5278 -0.2541
3.5864 -2.5352 -0.2526
3.5778 -2.5397 -0.2582
3.5657 -2.5473 -0.2544
3.5552 -2.5537 -0.2533
3.5468 -2.5583 -0.2566
3.5368 -2.5645 -0.2545
3.5279 -2.5698 -0.2544
6.8343 -0.7175 1.4699
7.1287 -0.5167 1.3533
6.8792 -0.6540 1.2133
6.7784 -0.7041 1.1175
6.7730 -0.6975 1.0452
6.7990 -0.6720 0.9779
6.8268 -0.6449 0.9082
6.8908 -0.5955 0.8411
4.6299 -1.9544 0.4025
6.7202 -0.6322 0.3297
6.5814 -0.7075 0.2441
6.8136 -0.5486 0.1482
6.8077 -0.5393 0.0539
6.7284 -0.5768 -0.0353
6.7582 -0.5442 -0.1361
6.6785 -0.5821 -0.2242
5.8215 -1.1176 -0.2425
5.6215 -1.2391 -0.2716
5.2810 -1.4558 -0.2502
5.1827 -1.5129 -0.2843
4.8718 -1.7068 -0.2932
4.7235 -1.8009 -0.2864
4.5820 -1.8915 -0.2732
4.3945 -2.0097 -0.2694
4.2432 -2.1056 -0.2628
4.1081 -2.1927 -0.2463
4.0393 -2.2336 -0.2629
3.8873 -2.3303 -0.2535
3.8570 -2.3495 -0.2519
3.8402 -2.3585 -0.2630
3.7903 -2.3901 -0.2618
3.7481 -2.4164 -0.2628
3.7051 -2.4445 -0.2551
3.6735 -2.4639 -0.2582
3.6419 -2.4841 -0.2553
3.6138 -2.5021 -0.2530
3.6012 -2.5100 -0.2529
3.5895 -2.5173 -0.2531
3.5775 -2.5250 -0.2517
3.5663 -2.5322 -0.2507
3.5478 -2.5432 -0.2551
3.5382 -2.5493 -0.2549
3.5292 -2.5548 -0.2554
3.5200 -2.5607 -0.2542
3.5119 -2.5658 -0.2550
6.9401 -0.5797 1.6780
6.8716 -0.6111 1.5878
6.7439 -0.6788 1.4782
6.8308 -0.6159 1.4428
6.8587 -0.5885 1.3844
6.7898 -0.6204 1.2953
6.7531 -0.6326 1.2162
6.7475 -0.6254 1.1449
6.8059 -0.5778 1.0870
6.9388 -0.4827 1.0405
6.6974 -0.6235 0.9168
6.7233 -0.5955 0.8459
4.5731 -1.9510 0.4075
6.6854 -0.5448 0.3519
6.7484 -0.4894 0.2630
6.6708 -0.5271 0.1735
6.5306 -0.6070 0.0900
6.5546 -0.5768 -0.0030
6.7216 -0.4489 -0.1173
6.7148 -0.4380 -0.2177
6.5977 -0.5027 -0.3002
5.6397 -1.1409 -0.2725
5.2365 -1.4133 -0.2361
5.0737 -1.5189 -0.2499
4.7958 -1.7002 -0.2664
4.6900 -1.7688 -0.2758
4.5461 -1.8663 -0.2610
4.3679 -1.9843 -0.2610
4.3111 -2.0203 -0.2709
4.2483 -2.0614 -0.2734
4.0570 -2.1966 -0.2178
4.0495 -2.1972 -0.2461
4.0220 -2.2135 -0.2585
3.9460 -2.2637 -0.2588
3.9205 -2.2794 -0.2668
3.8814 -2.3064 -0.2590
3.8293 -2.3403 -0.2631
3.8056 -2.3557 -0.2650
3.7808 -2.3724 -0.2634
3.7542 -2.3909 -0.2573
3.7324 -2.4056 -0.2553
3.6943 -2.4311 -0.2537
3.6051 -2.4901 -0.2537
3.5817 -2.5054 -0.2553
3.5589 -2.5207 -0.2532
3.5478 -2.5285 -0.2507
3.5385 -2.5344 -0.2522
3.5287 -2.5411 -0.2508
3.5207 -2.5459 -0.2538
3.5110 -2.5529 -0.2502
3.5034 -2.5576 -0.2523
3.4963 -2.5619 -0.2554
6.8107 -0.5529 1.6072
6.7446 -0.5839 1.5186
6.8651 -0.4959 1.4950
6.7590 -0.5409 1.3245
6.7528 -0.5331 1.2533
6.8808 -0.4375 1.2160
6.8759 -0.4280 1.1397
6.9433 -0.3704 1.0777
6.7966 -0.4543 0.9689
6.7911 -0.4445 0.8895
4.5312 -1.9395 0.4134
4.8336 -1.7276 0.4070
6.6501 -0.4554 0.3746
6.7124 -0.3968 0.2855
6.7419 -0.3603 0.1916
6.6983 -0.3747 0.0979
6.3907 -0.5773 0.0273
6.5420 -0.4533 -0.0814
6.4994 -0.4674 -0.1731
6.3004 -0.5953 -0.2367
5.7907 -0.9529 -0.2243
5.3364 -1.2748 -0.1943
5.2044 -1.3616 -0.2255
5.1302 -1.4061 -0.2676
4.9882 -1.5026 -0.2824
4.7101 -1.7045 -0.2356
4.5257 -1.8296 -0.2560
4.0394 -2.1760 -0.2130
4.0501 -2.1613 -0.2558
4.0006 -2.1966 -0.2507
3.9372 -2.2390 -0.2617
3.9088 -2.2579 -0.2670
3.8388 -2.3085 -0.2564
3.8151 -2.3245 -0.2597
3.7907 -2.3414 -0.2603
3.7687 -2.3565 -0.2619
3.7427 -2.3756 -0.2560
3.7224 -2.3898 -0.2559
3.7069 -2.3996 -0.2614
3.6708 -2.4252 -0.2595
3.5869 -2.4834 -0.2608
3.5728 -2.4942 -0.2552
3.5600 -2.5039 -0.2509
3.5513 -2.5091 -0.2557
3.5395 -2.5181 -0.2511
3.5312 -2.5232 -0.2551
3.5212 -2.5306 -0.2527
3.5129 -2.5361 -0.2546
3.5052 -2.5410 -0.2574
3.4959 -2.5481 -0.2534
3.4889 -2.5525 -0.2566
6.8818 -0.4195 1.7435
6.7498 -0.4946 1.6265
6.7138 -0.5065 1.5488
6.5902 -0.5770 1.4402
6.7025 -0.4895 1.4138
6.6351 -0.5224 1.3251
6.6897 -0.4727 1.2734
6.8145 -0.3741 1.2370
6.8795 -0.3154 1.1786
7.1859 -0.0726 1.0842
4.9598 -1.6081 0.5500
4.4786 -1.9369 0.4179
6.3055 -0.5890 0.3879
6.3826 -0.5172 0.3071
6.4032 -0.4860 0.2212
6.4248 -0.4534 0.1317
6.4049 -0.4338 -0.0512
6.4605 -0.3735 -0.1550
6.4174 -0.3878 -0.2477
5.7137 -0.9133 -0.2020
4.6559 -1.6877 -0.2170
4.6690 -1.6674 -0.2743
4.3226 -1.9267 -0.2485
4.0708 -2.1256 -0.1743
4.0695 -2.1202 -0.2082
4.0773 -2.1067 -0.2498
4.0554 -2.1190 -0.2698
3.9852 -2.1747 -0.2478
3.9629 -2.1883 -0.2628
3.8557 -2.2682 -0.2564
3.8376 -2.2793 -0.2682
3.7769 -2.3260 -0.2570
3.7553 -2.3415 -0.2588
3.7310 -2.3602 -0.2548
3.6933 -2.3876 -0.2564
3.6789 -2.3971 -0.2620
3.6604 -2.4112 -0.2591
3.6419 -2.4257 -0.2542
3.6277 -2.4359 -0.2555
3.5982 -2.4584 -0.2511
3.5869 -2.4662 -0.2540
3.5737 -2.4764 -0.2513
3.5642 -2.4824 -0.2562
3.5513 -2.4929 -0.2510
3.5423 -2.4988 -0.2548
3.5320 -2.5066 -0.2538
3.5125 -2.5214 -0.2510
3.5040 -2.5275 -0.2518
3.4964 -2.5326 -0.2546
3.4883 -2.5385 -0.2545
3.4792 -2.5463 -0.2488
6.8839 -0.3152 1.7908
6.7822 -0.3719 1.6835
7.1300 -0.1168 1.7522
7.2489 -0.0185 1.7220
6.7653 -0.3424 1.4767
6.7593 -0.3323 1.4051
6.8213 -0.2736 1.3529
7.0737 -0.0610 1.2690
6.7360 -0.2886 1.1048
6.6304 -0.3497 1.0044
4.5143 -1.8761 0.4618
4.4291 -1.9340 0.4222
5.3139 -1.2157 0.2600
5.1678 -1.3183 0.2088
5.0385 -1.4091 0.1636
5.1413 -1.2671 -0.1400
4.6548 -1.6274 -0.2191
4.6541 -1.6171 -0.2719
4.3081 -1.8989 -0.2039
4.0583 -2.0985 -0.1731
4.0871 -2.0649 -0.2287
4.0361 -2.0970 -0.2646
3.9840 -2.1388 -0.2575
3.9543 -2.1599 -0.2665
3.9210 -2.1850 -0.2698
3.8821 -2.2162 -0.2646
3.8132 -2.2717 -0.2536
3.7909 -2.2881 -0.2582
3.7647 -2.3088 -0.2559
3.7408 -2.3277 -0.2542
3.7223 -2.3412 -0.2581
3.6806 -2.3745 -0.2530
3.6475 -2.3999 -0.2543
3.6323 -2.4116 -0.2549
3.6188 -2.4215 -0.2574
3.5902 -2.4442 -0.2544
3.5653 -2.4637 -0.2531
3.5539 -2.4726 -0.2529
3.5444 -2.4792 -0.2564
3.5329 -2.4889 -0.2528
3.5224 -2.4974 -0.2507
3.5143 -2.5028 -0.2549
3.5054 -2.5097 -0.2552
3.4967 -2.5165 -0.2550
3.4870 -2.5251 -0.2493
3.4800 -2.5298 -0.2530
7.3932 0.1740 1.9852
7.4393 0.2249 1.9255
6.9087 -0.1443 1.6436
6.6620 -0.2116 1.0477
6.4340 -0.3693 0.9224
4.4627 -1.8676 0.4368
5.1597 -1.2506 0.2207
5.0698 -1.3128 0.1711
4.1033 -2.0938 0.1394
4.9582 -1.3174 -0.2131
4.7401 -1.4984 -0.1991
4.6470 -1.5700 -0.2187
4.6396 -1.5645 -0.2697
4.2634 -1.8901 -0.1860
4.0526 -2.0641 -0.1766
4.0940 -2.0155 -0.2425
4.0710 -2.0294 -0.2644
4.0148 -2.0766 -0.2579
3.9749 -2.1085 -0.2608
3.9378 -2.1383 -0.2631
3.9070 -2.1622 -0.2686
3.8740 -2.1889 -0.2694
3.8308 -2.2273 -0.2554
3.8081 -2.2443 -0.2618
3.7774 -2.2707 -0.2560
3.7596 -2.2832 -0.2647
3.7304 -2.3091 -0.2555
3.7092 -2.3265 -0.2551
3.6728 -2.3556 -0.2578
3.6564 -2.3685 -0.2597
3.6405 -2.3812 -0.2607
3.6211 -2.3989 -0.2528
3.6061 -2.4113 -0.2518
3.5937 -2.4208 -0.2546
3.5816 -2.4302 -0.2567
3.5681 -2.4417 -0.2541
3.5563 -2.4515 -0.2538
3.5244 -2.4774 -0.2541
3.5135 -2.4872 -0.2499
3.5049 -2.4938 -0.2519
3.4961 -2.5009 -0.2523
3.4879 -2.5073 -0.2533
3.4805 -2.5127 -0.2563
3.4725 -2.5195 -0.2552
6.6746 -0.1194 1.2436
4.4322 -1.8427 0.4145
4.0870 -2.0918 0.2213
4.0903 -2.0828 0.1962
4.0940 -2.0732 0.1700
4.6384 -1.5105 -0.2181
4.6239 -1.5109 -0.2672
4.2198 -1.8822 -0.1685
4.0491 -2.0256 -0.1819
4.0916 -1.9723 -0.2503
4.0551 -2.0007 -0.2626
4.0086 -2.0403 -0.2638
3.9622 -2.0808 -0.2613
3.9217 -2.1158 -0.2603
3.8915 -2.1403 -0.2661
3.8235 -2.1999 -0.2614
3.7704 -2.2452 -0.2626
3.7432 -2.2697 -0.2584
3.7207 -2.2890 -0.2582
3.6843 -2.3187 -0.2648
3.6452 -2.3537 -0.2590
3.6266 -2.3709 -0.2542
3.5838 -2.4075 -0.2546
3.5715 -2.4178 -0.2560
3.5471 -2.4390 -0.2545
3.5362 -2.4484 -0.2547
3.5262 -2.4565 -0.2564
3.5149 -2.4673 -0.2520
3.4961 -2.4837 -0.2512
3.4800 -2.4965 -0.2552
3.4727 -2.5020 -0.2583
3.4645 -2.5096 -0.2562
4.0854 -2.1355 0.5130
4.4001 -1.8262 0.4213
4.0751 -2.0811 0.2741
4.0740 -2.0759 0.2507
4.0866 -2.0577 0.2255
4.0901 -2.0477 0.1997
4.0977 -2.0336 0.1723
4.1616 -1.9569 0.1019
4.6236 -1.4688 -0.1605
4.6145 -1.4485 -0.2676
4.1850 -1.8672 -0.1555
4.0471 -1.9930 -0.1516
4.0408 -1.9900 -0.1844
4.0777 -1.9391 -0.2501
4.0464 -1.9629 -0.2667
3.9490 -2.0526 -0.2615
3.8785 -2.1151 -0.2664
3.8072 -2.1820 -0.2572
3.7583 -2.2248 -0.2629
3.7082 -2.2717 -0.2571
3.6715 -2.3034 -0.2626
3.6531 -2.3202 -0.2622
3.6326 -2.3405 -0.2556
3.6009 -2.3697 -0.2539
3.5885 -2.3798 -0.2579
3.5741 -2.3935 -0.2556
3.5503 -2.4144 -0.2580
3.5374 -2.4270 -0.2541
3.5264 -2.4372 -0.2534
3.5169 -2.4450 -0.2563
3.5065 -2.4550 -0.2543
3.4875 -2.4730 -0.2516
3.4709 -2.4878 -0.2523
3.4635 -2.4940 -0.2543
3.4557 -2.5012 -0.2534
4.0833 -2.0588 0.3478
4.0647 -2.0699 0.3248
4.0639 -2.0642 0.3025
4.0682 -2.0535 0.2796
4.0790 -2.0361 0.2553
4.0884 -2.0197 0.2296
4.0591 -2.0413 0.2073
4.0362 -2.0567 0.1852
4.0129 -2.0728 0.1640
4.1421 -1.9243 0.0766
4.6878 -1.3110 -0.2440
4.6264 -1.3599 -0.2778
4.5489 -1.4273 -0.3001
4.1413 -1.8631 -0.1375
4.0057 -1.9941 -0.1320
4.0972 -1.8778 -0.2325
4.0329 -1.9291 -0.2673
3.9407 -2.0171 -0.2669
3.8692 -2.0840 -0.2711
3.8315 -2.1216 -0.2658
3.7979 -2.1549 -0.2616
3.7373 -2.2157 -0.2511
3.7001 -2.2477 -0.2632
3.6768 -2.2711 -0.2588
3.6596 -2.2867 -0.2620
3.6219 -2.3242 -0.2564
3.5649 -2.3780 -0.2584
3.5388 -2.4044 -0.2535
3.5283 -2.4137 -0.2557
3.5076 -2.4334 -0.2561
3.4979 -2.4425 -0.2565
3.4883 -2.4521 -0.2551
3.4790 -2.4615 -0.2531
3.4710 -2.4686 -0.2550
3.4630 -2.4762 -0.2552
3.4554 -2.4831 -0.2562
3.4481 -2.4900 -0.2567
3.4405 -2.4979 -0.2543
6.5273 -0.0226 1.8106
4.1345 -2.0277 0.5300
4.1061 -2.0418 0.4836
4.1036 -2.0380 0.4633
4.0975 -2.0374 0.4420
4.0888 -2.0393 0.4199
4.0825 -2.0388 0.3981
4.0720 -2.0422 0.3756
4.0751 -2.0324 0.3542
4.0755 -2.0251 0.3319
4.0825 -2.0109 0.3090
4.0882 -1.9976 0.2849
3.9934 -2.0647 0.1947
3.9716 -2.0802 0.1742
3.9758 -2.0679 0.1486
4.6874 -1.2284 -0.2473
4.6321 -1.2720 -0.2856
4.0527 -1.9029 -0.1316
4.0272 -1.9217 -0.1535
4.0833 -1.8406 -0.2325
4.0655 -1.8490 -0.2625
4.0136 -1.9008 -0.2635
3.9817 -1.9285 -0.2778
3.9342 -1.9773 -0.2745
