ply
format ascii 1.0
element vertex 2112
property float x
property float y
property float z
end_header
2.7394 -2.1140 -0.2574
2.7597 -2.1001 -0.2637
2.7800 -2.0997 -0.2587
2.7999 -2.0993 -0.2538
2.8197 -2.0963 -0.2511
2.8399 -2.0888 -0.2521
2.8603 -2.0794 -0.2547
2.8823 -2.0624 -0.2633
2.9014 -2.0623 -0.2583
2.9212 -2.0575 -0.2571
2.9438 -2.0412 -0.2650
2.9634 -2.0374 -0.2630
2.9865 -2.0217 -0.2701
3.0042 -2.0239 -0.2636
3.0253 -2.0152 -0.2655
3.0457 -2.0084 -0.2658
3.0633 -2.0088 -0.2608
3.0857 -1.9970 -0.2649
3.1083 -1.9851 -0.2690
3.1274 -1.9815 -0.2670
3.1453 -1.9800 -0.2635
3.1699 -1.9648 -0.2699
3.1864 -1.9655 -0.2649
3.2091 -1.9545 -0.2682
3.2283 -1.9499 -0.2670
1.9507 -2.3973 -0.2505
2.0120 -2.3788 -0.2499
2.0317 -2.3723 -0.2502
2.0683 -2.3576 -0.2531
2.0836 -2.3481 -0.2572
2.1035 -2.3416 -0.2575
2.1260 -2.3368 -0.2555
2.1393 -2.3254 -0.2619
2.1633 -2.3219 -0.2584
2.1871 -2.3184 -0.2549
2.2054 -2.3106 -0.2567
2.2505 -2.3028 -0.2512
2.3082 -2.2820 -0.2536
2.3325 -2.2810 -0.2478
2.3503 -2.2725 -0.2504
2.3710 -2.2674 -0.2491
2.3869 -2.2560 -0.2548
2.4085 -2.2524 -0.2520
2.4312 -2.2511 -0.2469
2.4489 -2.2417 -0.2503
2.4700 -2.2383 -0.2475
2.4879 -2.2288 -0.2509
2.5067 -2.2209 -0.2528
2.5288 -2.2207 -0.2469
2.5464 -2.2095 -0.2518
2.5861 -2.1991 -0.2501
2.6063 -2.1959 -0.2473
2.6244 -2.1838 -0.2530
2.6443 -2.1799 -0.2510
2.6635 -2.1718 -0.2528
2.6836 -2.1705 -0.2484
2.7030 -2.1658 -0.2472
2.7218 -2.1517 -0.2545
2.7413 -2.1452 -0.2548
2.7608 -2.1388 -0.2551
2.7800 -2.1404 -0.2484
2.7996 -2.1295 -0.2525
2.8192 -2.1204 -0.2552
2.8378 -2.1213 -0.2492
2.8583 -2.1066 -0.2565
2.8783 -2.0974 -0.2592
2.9547 -2.0783 -0.2549
2.9735 -2.0739 -0.2536
2.9934 -2.0656 -0.2555
3.0167 -2.0482 -0.2644
3.0345 -2.0467 -0.2608
3.0545 -2.0392 -0.2619
3.1117 -2.0230 -0.2604
3.1348 -2.0092 -0.2662
3.1974 -1.9832 -0.2718
2.5948 -3.6987 -0.2478
2.6153 -3.6885 -0.2450
2.6339 -3.6851 -0.2476
2.7317 -3.6462 -0.2429
2.7505 -3.6444 -0.2470
2.7695 -3.6417 -0.2503
2.7893 -3.6266 -0.2430
2.8084 -3.6238 -0.2463
2.8277 -3.6166 -0.2458
2.8469 -3.6112 -0.2469
2.8857 -3.6003 -0.2490
2.9040 -3.5874 -0.2431
2.9238 -3.5853 -0.2472
2.9432 -3.5798 -0.2483
2.9606 -3.5663 -0.2416
2.9815 -3.5664 -0.2481
3.0015 -3.5625 -0.2507
3.0203 -3.5547 -0.2494
3.0383 -3.5453 -0.2466
3.0588 -3.5421 -0.2500
3.0755 -3.5306 -0.2449
3.0969 -3.5288 -0.2498
3.1149 -3.5203 -0.2477
3.1341 -3.5141 -0.2480
3.1518 -3.5057 -0.2460
3.1729 -3.5023 -0.2493
3.1931 -3.4974 -0.2512
3.2129 -3.4918 -0.2522
3.2304 -3.4835 -0.2502
3.2514 -3.4793 -0.2528
3.2719 -3.4743 -0.2546
3.2893 -3.4661 -0.2526
3.3112 -3.4623 -0.2560
3.3263 -3.4522 -0.2516
3.3477 -3.4479 -0.2542
3.3647 -3.4397 -0.2522
3.3862 -3.4353 -0.2548
3.4030 -3.4272 -0.2527
3.4172 -3.4174 -0.2483
3.4388 -3.4129 -0.2509
3.4606 -3.4084 -0.2536
3.4825 -3.4039 -0.2562
3.5018 -3.3976 -0.2565
3.5230 -3.3924 -0.2583
3.5343 -3.3818 -0.2523
3.5503 -3.3740 -0.2503
3.5714 -3.3688 -0.2521
3.5948 -3.3646 -0.2555
3.6140 -3.3584 -0.2558
3.6320 -3.3516 -0.2553
3.6524 -3.3459 -0.2564
2.4017 -3.8007 -0.2533
2.4211 -3.7961 -0.2551
2.4411 -3.7904 -0.2561
2.4616 -3.7837 -0.2564
2.4834 -3.7740 -0.2545
2.5030 -3.7694 -0.2563
2.5235 -3.7627 -0.2566
2.5454 -3.7520 -0.2540
2.5644 -3.7493 -0.2572
2.5861 -3.7387 -0.2546
2.6073 -3.7292 -0.2527
2.6271 -3.7245 -0.2544
2.6468 -3.7207 -0.2569
2.6682 -3.7094 -0.2536
2.6881 -3.7046 -0.2553
2.7090 -3.6943 -0.2527
2.7295 -3.6859 -0.2515
2.7501 -3.6748 -0.2481
2.7701 -3.6682 -0.2484
2.7900 -3.6661 -0.2524
2.8504 -3.6421 -0.2496
2.8708 -3.6398 -0.2536
2.8916 -3.6382 -0.2583
2.9110 -3.6258 -0.2534
2.9324 -3.6258 -0.2596
2.9514 -3.6126 -0.2540
2.9701 -3.6004 -0.2491
2.9919 -3.6002 -0.2553
3.0308 -3.5832 -0.2522
3.0515 -3.5782 -0.2540
3.0733 -3.5754 -0.2580
3.0899 -3.5613 -0.2509
3.1107 -3.5563 -0.2526
3.1320 -3.5519 -0.2552
3.1512 -3.5439 -0.2540
3.1923 -3.5322 -0.2560
3.2171 -3.5320 -0.2631
3.2314 -3.5177 -0.2551
3.2468 -3.5057 -0.2495
3.2697 -3.5026 -0.2535
3.3496 -3.4766 -0.2547
3.3747 -3.4745 -0.2602
3.3880 -3.4623 -0.2537
3.4520 -3.4458 -0.2584
3.4712 -3.4386 -0.2579
3.4894 -3.4309 -0.2567
3.5066 -3.4227 -0.2547
3.5294 -3.4179 -0.2573
3.5444 -3.4086 -0.2538
2.6875 -3.7259 -0.2468
2.7089 -3.7144 -0.2435
2.7300 -3.7040 -0.2410
2.7502 -3.7019 -0.2449
2.7916 -3.6857 -0.2433
2.8329 -3.6722 -0.2439
2.9373 -3.6461 -0.2519
2.9571 -3.6344 -0.2479
2.9771 -3.6252 -0.2460
2.9977 -3.6185 -0.2463
3.0207 -3.6189 -0.2531
3.0612 -3.6022 -0.2508
3.1649 -3.5683 -0.2523
3.1842 -3.5594 -0.2505
3.2054 -3.5534 -0.2515
3.2223 -3.5416 -0.2468
3.2478 -3.5413 -0.2536
3.2668 -3.5324 -0.2517
3.2893 -3.5277 -0.2542
3.3308 -3.5142 -0.2548
3.3481 -3.5041 -0.2515
3.3659 -3.4948 -0.2489
3.4100 -3.4840 -0.2524
3.4512 -3.4705 -0.2530
3.4743 -3.4656 -0.2555
3.4907 -3.4559 -0.2521
3.5130 -3.4503 -0.2539
3.5318 -3.4425 -0.2527
3.5523 -3.4358 -0.2530
3.5748 -3.4302 -0.2548
3.5934 -3.4223 -0.2536
3.6119 -3.4145 -0.2525
3.6293 -3.4062 -0.2506
3.6529 -3.4012 -0.2531
3.6757 -3.3955 -0.2548
3.6940 -3.3878 -0.2537
3.7168 -3.3821 -0.2554
2.3482 -3.8899 -0.2571
2.3715 -3.8805 -0.2560
2.3936 -3.8733 -0.2564
2.4158 -3.8661 -0.2567
2.4415 -3.8505 -0.2516
2.4634 -3.8434 -0.2519
2.4830 -3.8423 -0.2563
2.5066 -3.8311 -0.2539
2.5292 -3.8219 -0.2529
2.5499 -3.8187 -0.2559
2.5720 -3.8115 -0.2562
2.5945 -3.8024 -0.2552
2.6170 -3.7933 -0.2541
2.6385 -3.7880 -0.2558
2.6612 -3.7771 -0.2534
2.6831 -3.7699 -0.2537
2.7045 -3.7665 -0.2568
2.7265 -3.7594 -0.2571
2.7491 -3.7449 -0.2520
2.7709 -3.7359 -0.2509
2.7927 -3.7271 -0.2499
2.8144 -3.7218 -0.2515
2.8362 -3.7182 -0.2546
2.8586 -3.7198 -0.2618
2.8801 -3.7057 -0.2566
2.9463 -3.6876 -0.2603
2.9665 -3.6722 -0.2538
2.9895 -3.6700 -0.2582
3.0128 -3.6677 -0.2627
3.0311 -3.6493 -0.2533
3.0534 -3.6438 -0.2550
3.0757 -3.6383 -0.2567
3.0954 -3.6265 -0.2529
3.1402 -3.6155 -0.2563
3.1611 -3.6069 -0.2552
3.1828 -3.5998 -0.2556
3.2011 -3.5876 -0.2510
3.2216 -3.5791 -0.2500
3.2467 -3.5772 -0.2551
3.2717 -3.5744 -0.2596
3.2946 -3.5686 -0.2613
3.3177 -3.5629 -0.2630
3.3370 -3.5530 -0.2606
3.3575 -3.5446 -0.2595
3.3757 -3.5342 -0.2563
3.3995 -3.5291 -0.2587
3.4212 -3.5220 -0.2591
3.4428 -3.5150 -0.2594
3.4589 -3.5035 -0.2548
3.4845 -3.4996 -0.2586
3.5061 -3.4925 -0.2589
3.5295 -3.4867 -0.2606
3.5626 -3.4661 -0.2536
3.6074 -3.4533 -0.2556
3.6248 -3.4440 -0.2531
3.6523 -3.4404 -0.2576
3.6738 -3.4334 -0.2579
3.6974 -3.4274 -0.2597
3.7167 -3.4194 -0.2586
3.7359 -3.4113 -0.2575
2.5165 -3.8721 -0.2594
2.5415 -3.8586 -0.2558
2.7040 -3.7921 -0.2483
2.7502 -3.7635 -0.2391
2.7944 -3.7545 -0.2437
2.8167 -3.7490 -0.2453
3.0187 -3.6858 -0.2503
3.0824 -3.6551 -0.2440
3.1039 -3.6464 -0.2430
3.1513 -3.6381 -0.2489
3.1693 -3.6232 -0.2426
3.1959 -3.6235 -0.2496
3.2182 -3.6162 -0.2499
3.2364 -3.6031 -0.2449
3.2607 -3.5988 -0.2479
3.2784 -3.5858 -0.2429
3.3051 -3.5843 -0.2485
3.3507 -3.5712 -0.2505
3.3730 -3.5639 -0.2509
3.3953 -3.5567 -0.2512
3.4175 -3.5494 -0.2515
3.4413 -3.5435 -0.2532
3.4651 -3.5375 -0.2548
3.5032 -3.5179 -0.2501
3.5305 -3.5144 -0.2545
3.5510 -3.5059 -0.2535
3.5697 -3.4962 -0.2511
3.5937 -3.4901 -0.2528
3.6140 -3.4817 -0.2517
3.6361 -3.4745 -0.2521
3.6582 -3.4673 -0.2524
3.6804 -3.4601 -0.2527
3.7025 -3.4528 -0.2530
3.7269 -3.4467 -0.2547
3.7468 -3.4384 -0.2537
3.7667 -3.4301 -0.2527
3.7888 -3.4229 -0.2530
2.3393 -3.9675 -0.2548
2.3643 -3.9576 -0.2539
2.3873 -3.9519 -0.2555
2.4122 -3.9420 -0.2546
2.4362 -3.9341 -0.2550
2.4582 -3.9315 -0.2585
2.4841 -3.9185 -0.2557
2.5087 -3.9087 -0.2548
2.5320 -3.9029 -0.2564
2.5565 -3.8931 -0.2555
2.5786 -3.8922 -0.2602
2.6043 -3.8775 -0.2562
2.6278 -3.8716 -0.2578
2.6521 -3.8619 -0.2569
2.6775 -3.8445 -0.2509
2.7005 -3.8416 -0.2544
2.7243 -3.8338 -0.2548
2.7484 -3.8214 -0.2520
2.7726 -3.8017 -0.2441
2.7957 -3.8042 -0.2514
2.8193 -3.8010 -0.2549
2.8428 -3.7888 -0.2521
2.9136 -3.7657 -0.2531
2.9604 -3.7486 -0.2526
2.9853 -3.7469 -0.2574
3.0059 -3.7274 -0.2488
3.0315 -3.7273 -0.2549
3.0556 -3.7212 -0.2565
3.0765 -3.7062 -0.2511
3.0986 -3.6954 -0.2489
3.1265 -3.6981 -0.2575
3.1512 -3.6927 -0.2598
3.1758 -3.6865 -0.2614
3.1956 -3.6719 -0.2560
3.2210 -3.6672 -0.2589
3.2470 -3.6633 -0.2624
3.2718 -3.6570 -0.2641
3.3121 -3.6321 -0.2564
3.3356 -3.6244 -0.2568
3.3616 -3.6196 -0.2597
3.3864 -3.6133 -0.2613
3.4060 -3.6014 -0.2578
3.4337 -3.5978 -0.2620
3.4573 -3.5901 -0.2624
3.4764 -3.5785 -0.2589
3.4999 -3.5708 -0.2592
3.5282 -3.5670 -0.2634
3.5518 -3.5593 -0.2637
3.5703 -3.5478 -0.2602
3.5912 -3.5383 -0.2586
3.6146 -3.5307 -0.2590
3.6295 -3.5176 -0.2535
3.6990 -3.4950 -0.2545
3.7253 -3.4891 -0.2568
3.7506 -3.4827 -0.2584
3.7739 -3.4751 -0.2588
3.7972 -3.4675 -0.2591
3.8125 -3.4562 -0.2549
2.3711 -4.0009 -0.2552
2.6741 -3.8883 -0.2505
2.7977 -3.8325 -0.2420
2.8218 -3.8200 -0.2394
2.8459 -3.8122 -0.2397
2.8941 -3.7964 -0.2404
2.9663 -3.7729 -0.2415
2.9914 -3.7693 -0.2449
3.1578 -3.7077 -0.2425
3.2041 -3.6889 -0.2407
3.3008 -3.6592 -0.2434
3.3247 -3.6514 -0.2437
3.3528 -3.6486 -0.2484
3.3738 -3.6372 -0.2456
3.3998 -3.6315 -0.2478
3.4218 -3.6215 -0.2463
3.4493 -3.6171 -0.2498
3.4735 -3.6092 -0.2501
3.4976 -3.6014 -0.2505
3.5202 -3.5922 -0.2496
3.5459 -3.5856 -0.2512
3.5766 -3.5829 -0.2565
3.5941 -3.5699 -0.2519
3.6183 -3.5620 -0.2522
3.6424 -3.5541 -0.2526
3.6712 -3.5493 -0.2560
3.6887 -3.5372 -0.2521
3.7099 -3.5276 -0.2506
3.7339 -3.5197 -0.2509
3.7558 -3.5107 -0.2500
3.7797 -3.5029 -0.2504
3.8059 -3.4962 -0.2520
3.8332 -3.4900 -0.2542
3.8573 -3.4822 -0.2545
3.8779 -3.4727 -0.2530
2.3284 -4.0600 -0.2528
2.3546 -4.0515 -0.2532
2.3833 -4.0366 -0.2501
2.4069 -4.0344 -0.2540
2.4311 -4.0311 -0.2572
2.4581 -4.0205 -0.2564
2.4843 -4.0119 -0.2568
2.5114 -4.0003 -0.2555
2.5384 -3.9887 -0.2541
2.5645 -3.9802 -0.2545
2.5892 -3.9777 -0.2584
2.6160 -3.9662 -0.2570
2.6422 -3.9576 -0.2574
2.6692 -3.9433 -0.2543
2.6948 -3.9377 -0.2564
2.7217 -3.9216 -0.2522
2.7470 -3.9207 -0.2572
2.7732 -3.9094 -0.2559
2.7992 -3.8981 -0.2545
2.8252 -3.8979 -0.2601
2.8514 -3.8894 -0.2605
2.8773 -3.8782 -0.2591
2.9028 -3.8643 -0.2560
2.9770 -3.8208 -0.2450
3.0324 -3.8220 -0.2579
3.0578 -3.8119 -0.2571
3.0836 -3.8035 -0.2575
3.1068 -3.7876 -0.2526
3.1848 -3.7650 -0.2555
3.2084 -3.7526 -0.2530
3.2348 -3.7459 -0.2545
3.2619 -3.7398 -0.2566
3.2861 -3.7291 -0.2553
3.3132 -3.7230 -0.2574
3.3330 -3.7065 -0.2513
3.3646 -3.7063 -0.2582
3.3939 -3.7023 -0.2620
3.4160 -3.6895 -0.2589
3.4437 -3.6833 -0.2610
3.4695 -3.6748 -0.2614
3.4973 -3.6685 -0.2636
3.5246 -3.6614 -0.2651
3.5528 -3.6550 -0.2673
3.5726 -3.6412 -0.2629
3.6008 -3.6348 -0.2651
3.6308 -3.6296 -0.2684
3.6499 -3.6160 -0.2641
3.6686 -3.6025 -0.2597
3.6887 -3.5904 -0.2565
3.7141 -3.5821 -0.2569
3.7395 -3.5739 -0.2573
3.7599 -3.5626 -0.2547
3.7882 -3.5561 -0.2568
3.8073 -3.5444 -0.2536
3.8325 -3.5361 -0.2540
3.8500 -3.5240 -0.2502
3.8773 -3.5169 -0.2518
3.9058 -3.5104 -0.2539
3.9463 -3.5092 -0.2620
2.3878 -4.0976 -0.2564
2.4104 -4.1024 -0.2639
2.4383 -4.0933 -0.2643
2.4695 -4.0738 -0.2592
2.5272 -4.0466 -0.2551
2.5860 -4.0107 -0.2460
2.6141 -3.9959 -0.2431
3.0409 -3.8511 -0.2461
3.1728 -3.8053 -0.2464
3.1970 -3.7918 -0.2434
3.2234 -3.7832 -0.2438
3.2484 -3.7723 -0.2425
3.2724 -3.7598 -0.2401
3.3010 -3.7551 -0.2433
3.3304 -3.7511 -0.2470
3.4031 -3.7172 -0.2420
3.4292 -3.7086 -0.2424
3.4606 -3.7058 -0.2473
3.4890 -3.6994 -0.2493
3.5196 -3.6949 -0.2531
3.5441 -3.6842 -0.2518
3.5706 -3.6755 -0.2522
3.5994 -3.6689 -0.2543
3.6212 -3.6562 -0.2513
3.6526 -3.6516 -0.2550
3.6766 -3.6409 -0.2537
3.7058 -3.6342 -0.2558
3.7269 -3.6217 -0.2528
3.7534 -3.6131 -0.2532
3.7769 -3.6026 -0.2519
3.8003 -3.5922 -0.2506
3.8245 -3.5825 -0.2498
3.8507 -3.5739 -0.2502
3.8737 -3.5636 -0.2489
3.9054 -3.5579 -0.2521
3.9317 -3.5494 -0.2525
3.9557 -3.5397 -0.2518
2.3112 -4.1805 -0.2551
2.3401 -4.1711 -0.2555
2.3691 -4.1616 -0.2559
2.3980 -4.1522 -0.2564
2.4280 -4.1396 -0.2552
2.4592 -4.1228 -0.2520
2.4870 -4.1166 -0.2540
2.5138 -4.1144 -0.2580
2.5421 -4.1080 -0.2600
2.5711 -4.0985 -0.2605
2.6013 -4.0830 -0.2578
2.6302 -4.0736 -0.2582
2.6606 -4.0534 -0.2529
2.6892 -4.0441 -0.2533
2.7174 -4.0386 -0.2558
2.7457 -4.0359 -0.2599
2.7747 -4.0227 -0.2582
2.8035 -4.0068 -0.2549
2.8321 -3.9946 -0.2538
2.8604 -3.9826 -0.2526
2.8893 -3.9788 -0.2562
2.9179 -3.9695 -0.2566
2.9469 -3.9637 -0.2591
2.9750 -3.9508 -0.2575
3.0601 -3.9202 -0.2571
3.0886 -3.9109 -0.2575
3.1171 -3.9016 -0.2580
3.1447 -3.8898 -0.2568
3.2026 -3.8737 -0.2592
3.2284 -3.8588 -0.2559
3.2850 -3.8403 -0.2568
3.3180 -3.8389 -0.2625
3.3417 -3.8218 -0.2576
3.3684 -3.8103 -0.2564
3.3983 -3.8033 -0.2584
3.4266 -3.7941 -0.2588
3.4490 -3.7774 -0.2539
3.4858 -3.7785 -0.2618
3.5142 -3.7693 -0.2622
3.5358 -3.7528 -0.2573
3.5711 -3.7507 -0.2630
3.5966 -3.7387 -0.2613
3.6302 -3.7342 -0.2655
3.6587 -3.7249 -0.2659
3.6896 -3.7177 -0.2679
3.7157 -3.7063 -0.2667
3.7468 -3.6990 -0.2688
3.7665 -3.6832 -0.2638
3.7948 -3.6740 -0.2642
3.8203 -3.6629 -0.2630
3.8417 -3.6493 -0.2597
3.8668 -3.6383 -0.2585
3.9019 -3.6334 -0.2626
3.9196 -3.6183 -0.2577
3.9643 -3.5943 -0.2531
4.0127 -3.5729 -0.2506
2.2876 -4.2516 -0.2542
2.3164 -4.2460 -0.2566
2.3437 -4.2446 -0.2610
2.3761 -4.2303 -0.2595
2.4082 -4.2161 -0.2580
2.4362 -4.2145 -0.2624
2.4682 -4.2003 -0.2608
2.5000 -4.1861 -0.2593
2.5315 -4.1720 -0.2578
2.5644 -4.1509 -0.2528
3.3565 -3.8481 -0.2410
3.3839 -3.8363 -0.2399
3.4144 -3.8292 -0.2419
3.4451 -3.8220 -0.2438
3.4783 -3.8178 -0.2478
3.5076 -3.8083 -0.2482
3.5348 -3.7965 -0.2471
3.5660 -3.7892 -0.2490
3.5931 -3.7775 -0.2479
3.6222 -3.7680 -0.2484
3.6567 -3.7634 -0.2524
3.6829 -3.7511 -0.2508
3.7154 -3.7442 -0.2532
3.7413 -3.7320 -0.2516
3.7679 -3.7205 -0.2505
3.7998 -3.7129 -0.2525
3.8225 -3.6989 -0.2493
3.8582 -3.6939 -0.2533
3.8874 -3.6843 -0.2538
3.9166 -3.6748 -0.2542
3.9428 -3.6634 -0.2531
3.9677 -3.6515 -0.2514
3.9967 -3.6420 -0.2519
4.0191 -3.6291 -0.2492
4.0480 -3.6196 -0.2496
4.0838 -3.6136 -0.2531
2.2309 -4.3373 -0.2512
2.2571 -4.3411 -0.2577
2.2861 -4.3393 -0.2618
2.3240 -4.3145 -0.2563
2.3544 -4.3094 -0.2591
2.3914 -4.2849 -0.2535
2.4248 -4.2702 -0.2521
2.4568 -4.2598 -0.2526
2.4877 -4.2535 -0.2549
2.5199 -4.2430 -0.2554
2.5520 -4.2326 -0.2559
2.5848 -4.2180 -0.2544
2.6176 -4.2025 -0.2526
2.6495 -4.1922 -0.2530
2.6808 -4.1867 -0.2559
2.7132 -4.1714 -0.2540
2.7771 -4.1467 -0.2530
2.8407 -4.1298 -0.2558
2.8724 -4.1156 -0.2544
2.9045 -4.1090 -0.2568
2.9694 -4.0964 -0.2620
3.0001 -4.0778 -0.2582
3.0305 -4.0602 -0.2549
3.0630 -4.0534 -0.2572
3.0969 -4.0510 -0.2619
3.1255 -4.0293 -0.2562
3.1548 -4.0121 -0.2529
3.1900 -4.0120 -0.2591
3.2177 -3.9915 -0.2538
3.2536 -3.9913 -0.2600
3.3171 -3.9705 -0.2609
3.3489 -3.9602 -0.2614
3.3768 -3.9434 -0.2580
3.4124 -3.9395 -0.2623
3.4420 -3.9260 -0.2609
3.4759 -3.9187 -0.2633
3.5007 -3.8992 -0.2580
3.5346 -3.8920 -0.2604
3.5687 -3.8847 -0.2627
3.5951 -3.8684 -0.2594
3.6347 -3.8669 -0.2656
3.6608 -3.8508 -0.2622
3.6894 -3.8376 -0.2607
3.7270 -3.8330 -0.2651
3.7618 -3.8255 -0.2674
3.7870 -3.8096 -0.2640
3.8152 -3.7966 -0.2626
3.8536 -3.7917 -0.2669
3.8817 -3.7787 -0.2654
3.9095 -3.7658 -0.2640
3.9562 -3.7659 -0.2722
3.9880 -3.7555 -0.2726
4.0329 -3.7532 -0.2794
4.0610 -3.7402 -0.2779
4.0794 -3.7218 -0.2721
4.1075 -3.6822 -0.2574
4.1384 -3.6721 -0.2579
4.1832 -3.6689 -0.2642
2.2252 -4.4361 -0.2589
2.2533 -4.4414 -0.2659
2.4006 -4.3702 -0.2574
2.4364 -4.3538 -0.2557
2.5399 -4.3152 -0.2550
2.5748 -4.2990 -0.2533
2.6739 -4.2897 -0.2654
3.4287 -3.9686 -0.2419
3.4611 -3.9580 -0.2424
3.4908 -3.9435 -0.2406
3.5231 -3.9330 -0.2410
3.5992 -3.9254 -0.2501
3.6287 -3.9110 -0.2484
3.6496 -3.8878 -0.2411
3.6911 -3.8868 -0.2475
3.7267 -3.8790 -0.2498
3.7593 -3.8684 -0.2503
3.7856 -3.8521 -0.2471
3.8140 -3.8381 -0.2453
3.8505 -3.8309 -0.2481
3.8943 -3.8291 -0.2545
3.9226 -3.8151 -0.2527
3.9516 -3.8018 -0.2513
3.9880 -3.7938 -0.2536
4.0167 -3.7806 -0.2523
4.0583 -3.7756 -0.2569
4.1751 -3.7251 -0.2528
4.2018 -3.7115 -0.2510
4.2341 -3.7010 -0.2514
2.1618 -4.5329 -0.2513
2.1932 -4.5333 -0.2563
2.2324 -4.5148 -0.2544
2.2688 -4.5029 -0.2549
2.3417 -4.4791 -0.2560
2.3782 -4.4672 -0.2565
2.4161 -4.4500 -0.2550
2.4540 -4.4318 -0.2530
2.4875 -4.4315 -0.2581
2.5250 -4.4144 -0.2566
2.5614 -4.4026 -0.2571
2.5994 -4.3795 -0.2531
2.6348 -4.3728 -0.2557
2.6715 -4.3560 -0.2541
2.7797 -4.3149 -0.2532
2.8156 -4.3090 -0.2562
2.8516 -4.2972 -0.2568
2.8879 -4.2902 -0.2594
2.9237 -4.2737 -0.2578
2.9585 -4.2517 -0.2538
2.9949 -4.2447 -0.2564
3.0308 -4.2330 -0.2569
3.0678 -4.2267 -0.2599
3.1015 -4.2051 -0.2558
3.1372 -4.1934 -0.2564
3.1743 -4.1862 -0.2590
3.2119 -4.1797 -0.2621
3.2495 -4.1723 -0.2647
3.3140 -4.1309 -0.2569
3.3412 -4.1017 -0.2485
3.3805 -4.0985 -0.2533
3.4208 -4.0960 -0.2584
3.4564 -4.0844 -0.2590
3.4895 -4.0688 -0.2574
3.5250 -4.0572 -0.2579
3.5605 -4.0456 -0.2584
3.5959 -4.0341 -0.2589
3.6314 -4.0225 -0.2594
3.6701 -4.0147 -0.2621
3.7023 -3.9993 -0.2605
3.7268 -3.9759 -0.2542
3.7547 -3.9571 -0.2504
3.7894 -3.9457 -0.2509
3.8396 -3.9487 -0.2600
3.8670 -3.9301 -0.2562
3.9152 -3.9299 -0.2636
3.9507 -3.9183 -0.2641
3.9905 -3.9102 -0.2668
4.0261 -3.8986 -0.2673
4.0617 -3.8869 -0.2678
4.0973 -3.8753 -0.2683
4.1329 -3.8637 -0.2689
4.1685 -3.8521 -0.2694
4.2041 -3.8405 -0.2699
4.2397 -3.8289 -0.2704
4.2699 -3.8142 -0.2688
4.3110 -3.8056 -0.2715
4.3466 -3.7940 -0.2720
4.3880 -3.7853 -0.2747
2.1861 -4.6569 -0.2631
2.2356 -4.6163 -0.2541
2.3094 -4.6040 -0.2599
2.3486 -4.5912 -0.2604
2.3859 -4.5858 -0.2637
2.4219 -4.5868 -0.2693
2.4648 -4.5601 -0.2649
2.5069 -4.5337 -0.2604
2.5505 -4.4950 -0.2513
2.6274 -4.4699 -0.2524
3.6577 -4.0606 -0.2383
3.7012 -4.0571 -0.2432
3.7346 -4.0414 -0.2417
3.7712 -4.0294 -0.2423
3.7999 -4.0093 -0.2384
3.8482 -4.0092 -0.2453
3.8811 -3.9936 -0.2439
3.9265 -3.9895 -0.2488
3.9634 -3.9775 -0.2494
4.0096 -3.9731 -0.2543
4.0416 -3.9568 -0.2525
4.0786 -3.9448 -0.2530
4.1110 -3.9293 -0.2515
4.1527 -3.9206 -0.2541
4.1897 -3.9085 -0.2546
4.2217 -3.8932 -0.2531
4.2586 -3.8811 -0.2537
4.2838 -3.8622 -0.2498
4.3204 -3.8502 -0.2503
4.3447 -3.8316 -0.2464
4.3936 -3.8264 -0.2514
4.4232 -3.8108 -0.2495
4.4597 -3.7989 -0.2500
2.1297 -4.7333 -0.2392
2.1764 -4.7043 -0.2348
2.2087 -4.7144 -0.2429
2.2341 -4.7485 -0.2589
2.2813 -4.7183 -0.2541
2.3231 -4.7047 -0.2547
2.3668 -4.6835 -0.2528
2.4084 -4.6699 -0.2534
2.4516 -4.6490 -0.2515
2.4959 -4.6207 -0.2471
2.5430 -4.5719 -0.2354
2.5822 -4.5650 -0.2382
2.6225 -4.5519 -0.2388
2.6594 -4.5743 -0.2520
2.7021 -4.5397 -0.2450
2.7834 -4.5132 -0.2462
2.8242 -4.5068 -0.2493
2.8655 -4.5071 -0.2550
2.9067 -4.4936 -0.2556
2.9479 -4.4802 -0.2562
2.9883 -4.4601 -0.2543
3.0294 -4.4467 -0.2549
3.0716 -4.4398 -0.2581
3.1115 -4.4199 -0.2561
3.1525 -4.4065 -0.2567
3.1918 -4.3868 -0.2547
3.2346 -4.3798 -0.2579
3.2777 -4.3726 -0.2611
3.3189 -4.3591 -0.2617
3.3577 -4.3396 -0.2597
3.3987 -4.3262 -0.2603
3.4747 -4.2876 -0.2563
3.5122 -4.2685 -0.2543
3.5561 -4.2611 -0.2575
3.6039 -4.2593 -0.2633
3.6487 -4.2515 -0.2665
3.6781 -4.2213 -0.2593
3.7311 -4.2246 -0.2677
3.7723 -4.2112 -0.2683
3.8046 -4.1869 -0.2637
3.8407 -4.1682 -0.2617
3.8863 -4.1602 -0.2649
3.9119 -4.1312 -0.2576
3.9522 -4.1181 -0.2582
3.9778 -4.0910 -0.2517
4.0328 -4.0918 -0.2594
4.0847 -4.0886 -0.2653
4.1373 -4.0852 -0.2711
4.1537 -4.0523 -0.2612
4.2067 -4.0488 -0.2670
4.2474 -4.0355 -0.2676
4.2948 -4.0270 -0.2709
4.3356 -4.0136 -0.2715
4.3694 -3.9957 -0.2694
4.3955 -3.9735 -0.2647
4.4219 -3.9520 -0.2604
4.5220 -3.9735 -0.2818
4.5096 -3.9303 -0.2642
4.5647 -3.9251 -0.2697
4.5594 -3.8885 -0.2555
4.5833 -3.8679 -0.2511
2.1849 -4.8058 -0.2251
2.1737 -4.9583 -0.2754
2.2296 -4.9133 -0.2671
2.2891 -4.8512 -0.2535
2.3364 -4.8278 -0.2515
2.3749 -4.8401 -0.2605
2.4163 -4.8445 -0.2672
2.4760 -4.7575 -0.2452
2.5323 -4.6707 -0.2228
2.5832 -4.5975 -0.2044
2.6240 -4.5842 -0.2050
2.6629 -4.5924 -0.2126
2.7013 -4.6225 -0.2276
3.3598 -4.4692 -0.2581
3.4040 -4.4548 -0.2588
3.6020 -4.3435 -0.2458
3.6373 -4.3171 -0.2413
3.6798 -4.3032 -0.2419
4.0149 -4.1870 -0.2445
4.0573 -4.1732 -0.2451
4.1117 -4.1703 -0.2510
4.1603 -4.1614 -0.2540
4.1972 -4.1424 -0.2522
4.2329 -4.1228 -0.2500
4.2691 -4.1041 -0.2482
4.3049 -4.0854 -0.2464
4.3326 -4.0615 -0.2417
4.3813 -4.0526 -0.2448
4.4965 -4.0447 -0.2566
4.5307 -4.0256 -0.2544
4.5262 -3.9845 -0.2399
4.5597 -3.9666 -0.2380
4.6251 -3.9661 -0.2460
4.6751 -3.9567 -0.2491
4.7351 -3.9520 -0.2550
2.0369 -5.1329 -0.2616
2.0946 -5.0941 -0.2563
2.1512 -5.0556 -0.2509
2.2001 -5.0397 -0.2517
2.2552 -5.0017 -0.2463
2.3008 -4.9968 -0.2500
2.3520 -4.9701 -0.2477
2.3958 -4.9758 -0.2545
2.4653 -4.8501 -0.2237
2.5174 -4.7991 -0.2139
2.5746 -4.6995 -0.1897
2.6195 -4.6698 -0.1857
2.6630 -4.6476 -0.1839
2.7050 -4.6419 -0.1870
2.7439 -4.7252 -0.2172
2.7877 -4.8190 -0.2513
2.8368 -4.8829 -0.2768
2.8840 -4.7875 -0.2527
2.9322 -4.7718 -0.2534
2.9794 -4.7464 -0.2510
3.0296 -4.7491 -0.2576
3.0780 -4.7333 -0.2583
3.1264 -4.7175 -0.2590
3.1730 -4.6933 -0.2569
3.2189 -4.6683 -0.2545
3.2623 -4.6361 -0.2496
3.3097 -4.6207 -0.2503
3.3626 -4.6214 -0.2566
3.4075 -4.5977 -0.2545
3.4552 -4.5822 -0.2552
3.5101 -4.5833 -0.2619
3.5542 -4.5589 -0.2594
3.5942 -4.5278 -0.2544
3.6458 -4.5200 -0.2580
3.6935 -4.5045 -0.2587
3.7458 -4.4964 -0.2622
3.7888 -4.4734 -0.2601
3.8524 -4.4806 -0.2697
3.8954 -4.4576 -0.2675
3.9436 -4.4419 -0.2682
3.9853 -4.4183 -0.2657
4.0271 -4.3956 -0.2636
4.0747 -4.3801 -0.2643
4.1158 -4.3577 -0.2621
4.1557 -4.3346 -0.2596
4.2029 -4.3193 -0.2603
4.2581 -4.3112 -0.2642
4.3055 -4.2958 -0.2649
4.3607 -4.2868 -0.2684
4.3676 -4.2385 -0.2543
4.3592 -4.1813 -0.2356
4.5106 -4.1489 -0.2431
4.6466 -4.1935 -0.2726
4.7142 -4.1905 -0.2795
4.7119 -4.1442 -0.2649
4.7204 -4.1064 -0.2542
4.7754 -4.0965 -0.2575
4.7917 -4.0652 -0.2497
4.8372 -4.0503 -0.2504
4.9248 -4.0567 -0.2625
2.1031 -5.2360 -0.2427
2.1521 -5.2322 -0.2468
2.2052 -5.2148 -0.2476
2.2551 -5.2106 -0.2517
2.3086 -5.1932 -0.2525
2.6631 -4.7077 -0.1540
2.7043 -4.7345 -0.1659
2.7918 -4.9015 -0.2220
2.8418 -4.8852 -0.2227
2.8926 -4.8898 -0.2294
3.0593 -4.9604 -0.2669
3.1167 -4.9658 -0.2745
3.2587 -4.8248 -0.2500
3.4217 -4.7948 -0.2589
3.8704 -4.6030 -0.2527
4.1563 -4.4775 -0.2479
4.2733 -4.4605 -0.2555
4.3079 -4.4280 -0.2501
4.3415 -4.3959 -0.2447
4.4006 -4.3877 -0.2486
4.6941 -4.3907 -0.2806
4.7551 -4.3255 -0.2688
4.8154 -4.1718 -0.2321
4.8207 -4.1317 -0.2215
4.8678 -4.1164 -0.2221
4.9705 -4.1302 -0.2369
1.9728 -5.5157 -0.2428
2.0414 -5.4649 -0.2367
2.0993 -5.4460 -0.2375
2.1488 -5.4583 -0.2454
2.2299 -5.3485 -0.2256
2.2696 -5.4047 -0.2436
2.4786 -5.1293 -0.1945
2.5424 -5.0302 -0.1758
2.5969 -4.9800 -0.1684
2.6647 -4.7527 -0.1178
2.7108 -4.7122 -0.1121
2.7539 -4.7235 -0.1191
2.7957 -5.0502 -0.2053
2.9670 -5.1487 -0.2467
3.0259 -5.1437 -0.2511
3.2547 -5.0548 -0.2509
3.2828 -4.9157 -0.2186
3.3769 -5.0434 -0.2598
3.4352 -5.0244 -0.2607
3.4935 -5.0054 -0.2615
3.5424 -4.9610 -0.2551
3.5999 -4.9422 -0.2559
3.6629 -4.9359 -0.2604
3.7150 -4.9047 -0.2576
3.7725 -4.8859 -0.2585
3.8743 -4.8253 -0.2530
3.9524 -4.8414 -0.2647
3.9956 -4.7999 -0.2584
4.0528 -4.7813 -0.2592
4.0859 -4.7298 -0.2495
4.1672 -4.7439 -0.2609
4.2244 -4.7253 -0.2617
4.2904 -4.7169 -0.2660
4.3197 -4.6668 -0.2562
4.4157 -4.6903 -0.2714
4.4129 -4.6099 -0.2510
4.4388 -4.5629 -0.2416
4.4546 -4.5090 -0.2296
4.5182 -4.5004 -0.2336
4.6918 -4.5189 -0.2550
4.8083 -4.5480 -0.2736
4.8790 -4.5391 -0.2782
4.9233 -4.5105 -0.2753
4.9410 -4.4641 -0.2653
4.9708 -4.4279 -0.2591
4.9740 -4.3761 -0.2464
5.1244 -4.4174 -0.2713
5.1967 -4.4081 -0.2760
4.9826 -4.2341 -0.2115
4.9166 -4.1531 -0.1847
4.9197 -4.1134 -0.1751
1.8181 -5.8426 -0.2389
1.8273 -5.9922 -0.2731
1.9102 -5.9252 -0.2654
2.0141 -5.7787 -0.2418
2.0795 -5.7573 -0.2428
2.1679 -5.6415 -0.2246
2.2390 -5.5845 -0.2181
2.5415 -5.0897 -0.1340
2.7129 -4.7666 -0.0768
2.7576 -4.7612 -0.0796
2.8620 -5.4150 -0.2348
2.9081 -5.0294 -0.1527
2.9748 -5.1919 -0.1948
3.0513 -5.3533 -0.2375
3.1124 -5.3170 -0.2348
3.2634 -5.0835 -0.1958
3.4429 -5.2767 -0.2547
3.4836 -5.1785 -0.2363
3.5459 -5.1582 -0.2372
3.6193 -5.1680 -0.2459
3.7199 -5.2406 -0.2709
3.7650 -5.1716 -0.2594
3.7948 -5.0769 -0.2409
3.9348 -5.0651 -0.2505
4.0227 -5.0875 -0.2632
4.0437 -4.9957 -0.2445
4.1422 -5.0311 -0.2611
4.2062 -5.0103 -0.2620
4.2599 -4.9753 -0.2589
4.3235 -4.9546 -0.2598
4.3660 -4.9080 -0.2531
4.5008 -4.7084 -0.2203
4.5824 -4.7115 -0.2282
4.7029 -4.7489 -0.2471
4.7256 -4.6944 -0.2369
4.8813 -4.7562 -0.2643
4.9892 -4.7722 -0.2773
4.9771 -4.6912 -0.2582
4.9806 -4.6266 -0.2441
4.9701 -4.5553 -0.2272
5.0577 -4.5564 -0.2351
5.0874 -4.5170 -0.2289
5.0733 -4.4510 -0.2129
5.2511 -4.5076 -0.2412
5.2954 -4.4789 -0.2386
5.3644 -4.4123 -0.2298
5.4393 -4.4022 -0.2341
1.6136 -6.2805 -0.2384
1.6880 -6.2562 -0.2395
1.7710 -6.2054 -0.2361
1.8964 -6.2357 -0.2519
1.9788 -6.1851 -0.2484
2.1115 -5.9200 -0.2070
2.2542 -5.8539 -0.2052
2.3337 -5.7691 -0.1949
2.4629 -5.3340 -0.1199
2.8070 -4.9205 -0.0660
2.9171 -5.1177 -0.1132
2.9797 -5.1932 -0.1329
3.0405 -5.2023 -0.1395
3.1106 -5.2712 -0.1584
3.2441 -5.2927 -0.1731
3.3431 -5.4398 -0.2097
3.4059 -5.3998 -0.2068
3.4926 -5.4499 -0.2234
3.6893 -5.5796 -0.2642
3.7262 -5.4562 -0.2429
3.7678 -5.3601 -0.2274
3.8602 -5.3918 -0.2409
3.9567 -5.4243 -0.2548
3.9827 -5.3096 -0.2344
4.0430 -5.2703 -0.2314
4.4626 -5.0364 -0.2186
4.9160 -5.0474 -0.2563
4.9864 -5.0244 -0.2573
5.0061 -4.9561 -0.2455
5.1089 -4.9628 -0.2549
5.2730 -5.0176 -0.2785
5.3253 -4.9778 -0.2748
5.1749 -4.7855 -0.2254
5.3501 -4.8438 -0.2506
5.5413 -4.9073 -0.2780
5.5073 -4.8122 -0.2567
5.4382 -4.6996 -0.2292
5.5235 -4.6903 -0.2341
5.5948 -4.6113 -0.2243
5.6004 -4.5569 -0.2141
5.4963 -4.4454 -0.1841
5.4698 -4.3808 -0.1694
1.5915 -6.3826 -0.1749
1.4786 -6.9132 -0.2563
1.5912 -6.8099 -0.2468
1.7198 -6.6433 -0.2277
1.7553 -6.7896 -0.2548
2.1971 -5.8722 -0.1311
2.4927 -5.1843 -0.0359
2.6244 -4.8950 0.0036
2.6789 -4.7796 0.0193
2.7250 -4.7312 0.0242
2.9813 -5.1538 -0.0647
3.0310 -5.0711 -0.0543
3.1032 -5.1847 -0.0784
3.1705 -5.2220 -0.0894
3.2504 -5.3092 -0.1096
3.4597 -5.6079 -0.1744
3.5738 -5.7359 -0.2039
3.6364 -5.6667 -0.1966
3.7418 -5.7320 -0.2149
3.7265 -5.4564 -0.1675
3.7747 -5.3783 -0.1577
3.8836 -5.4478 -0.1770
3.9826 -5.4830 -0.1898
4.0863 -5.5198 -0.2032
4.1837 -5.5369 -0.2128
4.6581 -5.6846 -0.2707
4.8635 -5.6789 -0.2840
5.1376 -5.2767 -0.2354
5.3210 -5.3509 -0.2606
5.2511 -5.1887 -0.2285
5.4894 -5.0382 -0.2197
5.5197 -4.9815 -0.2123
5.6150 -4.9733 -0.2175
5.9634 -4.9813 -0.2431
5.7222 -4.7627 -0.1895
5.4088 -4.4616 -0.1171
5.5024 -4.4612 -0.1235
1.8574 -7.1124 -0.2137
2.5071 -5.1358 0.0263
2.5774 -4.9631 0.0465
2.6262 -4.9377 0.0471
2.6788 -4.8546 0.0556
2.8169 -4.8849 0.0430
3.0653 -5.3548 -0.0386
3.1072 -5.1861 -0.0173
3.5946 -5.8031 -0.1341
3.6372 -5.6646 -0.1171
3.7042 -5.6186 -0.1147
3.7479 -5.5133 -0.1024
3.8041 -5.4520 -0.0972
3.8744 -5.4291 -0.0982
3.9359 -5.3870 -0.0960
4.5966 -5.9224 -0.2119
4.7038 -5.9220 -0.2183
4.7555 -5.8370 -0.2094
4.7506 -5.6794 -0.1869
4.8721 -5.7016 -0.1974
5.3071 -6.1105 -0.2816
5.4065 -6.0781 -0.2831
5.4486 -5.9806 -0.2719
5.4619 -5.8579 -0.2553
5.3960 -5.6616 -0.2236
5.6008 -5.6293 -0.2314
5.5308 -5.4553 -0.2026
5.8142 -5.3021 -0.1981
5.5939 -5.0503 -0.1492
5.3380 -4.7903 -0.0969
5.4613 -4.8077 -0.1068
5.7233 -4.9138 -0.1377
5.7492 -4.8604 -0.1317
5.5832 -4.6914 -0.0978
5.5315 -4.6004 -0.0818
5.4323 -4.4872 -0.0597
5.4571 -4.4488 -0.0558
1.1181 -8.1009 -0.1876
1.3998 -7.8443 -0.1728
2.5222 -5.0787 0.0863
2.6860 -4.8290 0.1064
2.8213 -4.7944 0.1034
3.0567 -5.2346 0.0405
3.6520 -6.0016 -0.0786
3.7780 -6.1156 -0.0982
3.8263 -5.7242 -0.0558
3.8980 -5.4856 -0.0321
3.9344 -5.3872 -0.0227
4.0037 -5.3646 -0.0237
4.1991 -5.5773 -0.0583
4.5911 -5.7564 -0.0994
4.6921 -5.7541 -0.1043
4.7234 -5.6521 -0.0943
4.7367 -5.5338 -0.0814
5.1404 -5.9149 -0.1462
5.5664 -6.2835 -0.2107
5.5456 -6.1056 -0.1892
5.5856 -6.0070 -0.1800
5.6840 -5.9750 -0.1814
5.8144 -5.9746 -0.1881
5.9081 -5.4872 -0.1370
6.2616 -5.6641 -0.1758
6.4711 -5.7182 -0.1929
6.5291 -5.6570 -0.1889
5.5561 -4.8169 -0.0417
5.6244 -4.7947 -0.0427
5.5379 -4.6171 -0.0178
5.5624 -4.5743 -0.0142
5.6066 -4.5441 -0.0130
0.9453 -8.3698 -0.0849
2.5287 -5.0808 0.1379
2.5871 -4.9884 0.1435
2.6421 -4.8939 0.1495
2.6952 -4.7714 0.1581
2.7413 -4.6925 0.1630
2.8256 -4.7713 0.1524
2.8801 -5.0693 0.1236
2.9344 -5.0877 0.1196
3.0476 -5.1146 0.1123
3.9349 -6.6174 -0.0597
3.9257 -6.2653 -0.0281
3.8605 -5.8157 0.0146
3.9692 -5.8642 0.0056
3.9878 -5.6944 0.0198
3.9591 -5.4433 0.0434
4.0198 -5.4012 0.0445
4.0800 -5.3603 0.0455
4.1595 -5.3556 0.0424
4.3465 -5.5264 0.0191
4.5213 -5.6564 -0.0000
4.7733 -5.8836 -0.0312
4.9014 -5.9109 -0.0392
5.2736 -6.0956 -0.0718
5.3988 -6.0973 -0.0774
5.4683 -6.0321 -0.0746
5.6255 -6.0658 -0.0845
5.6696 -5.8463 -0.0669
6.5432 -5.9014 -0.1099
6.5206 -5.7738 -0.0976
6.6201 -5.7414 -0.0990
6.3022 -5.4188 -0.0566
5.8116 -4.8602 0.0144
5.5323 -4.5697 0.0523
5.4522 -4.4704 0.0646
2.4767 -5.1576 0.1862
2.5467 -4.9966 0.1939
2.5987 -4.9400 0.1956
2.6990 -4.7916 0.2015
2.7455 -4.7036 0.2054
2.7866 -4.7373 0.2018
2.9859 -5.0021 0.1781
3.0423 -5.0319 0.1743
3.0977 -5.0374 0.1720
3.4075 -5.6656 0.1215
3.7009 -6.1600 0.0801
3.7267 -5.9396 0.0930
3.7621 -5.5500 0.1163
3.8330 -5.5268 0.1153
3.8958 -5.4849 0.1157
4.0366 -5.4390 0.1136
4.1070 -5.4160 0.1126
4.1876 -5.4111 0.1101
4.2699 -5.4068 0.1075
4.4569 -5.5642 0.0910
4.5338 -5.5392 0.0899
4.6107 -5.5141 0.0887
5.0676 -5.8480 0.0516
5.4088 -6.1233 0.0223
5.4781 -6.0578 0.0240
5.5469 -5.9947 0.0255
5.6432 -5.9633 0.0241
5.7701 -5.9626 0.0197
6.7610 -6.2155 -0.0311
6.7290 -6.0663 -0.0206
6.7000 -5.9280 -0.0108
6.4715 -5.6524 0.0146
6.0014 -5.2253 0.0580
5.9166 -5.0120 0.0744
5.6483 -4.7097 0.1029
5.5021 -4.5646 0.1171
1.6525 -5.9238 0.2318
2.4960 -5.0779 0.2409
2.5569 -4.9674 0.2434
2.6096 -4.8941 0.2447
2.6591 -4.8262 0.2459
2.7080 -4.7283 0.2483
2.7512 -4.6764 0.2491
2.7911 -4.7324 0.2459
3.0410 -4.9886 0.2296
3.0785 -4.8771 0.2327
3.3340 -5.3234 0.2091
3.4557 -5.5426 0.1976
3.5743 -5.7014 0.1884
3.9641 -5.4609 0.1870
4.0724 -5.5151 0.1820
4.1552 -5.5119 0.1799
4.2165 -5.4681 0.1799
4.4014 -5.6322 0.1688
4.6340 -5.5563 0.1654
4.7952 -5.6429 0.1578
4.9328 -5.6886 0.1524
5.4755 -6.2182 0.1179
5.6074 -6.2216 0.1142
5.7451 -6.0860 0.1156
6.6500 -6.0238 0.0936
6.5814 -5.8574 0.1017
5.7971 -5.1769 0.1483
5.6044 -4.8222 0.1669
5.6920 -4.8131 0.1648
5.6342 -4.7143 0.1701
5.4977 -4.5204 0.1811
2.5026 -5.0794 0.2903
2.5691 -4.9208 0.2910
2.6704 -4.7529 0.2912
2.7136 -4.7161 0.2909
2.7550 -4.6949 0.2904
2.7957 -4.7197 0.2893
3.0448 -4.9905 0.2812
3.0908 -4.9418 0.2810
3.3298 -5.2931 0.2721
3.5696 -5.6778 0.2628
4.1002 -5.5753 0.2541
4.2069 -5.6144 0.2516
4.4587 -5.5833 0.2473
4.4931 -5.4960 0.2477
4.5675 -5.4718 0.2466
4.7864 -5.6416 0.2404
4.9609 -5.7357 0.2360
5.3737 -6.1085 0.2235
5.5563 -6.1772 0.2192
5.6868 -6.1792 0.2168
5.2891 -5.5058 0.2327
5.8826 -5.2546 0.2247
5.6424 -5.0016 0.2324
5.5042 -4.8347 0.2371
5.5507 -4.8000 0.2367
5.5962 -4.7656 0.2362
5.5634 -4.6839 0.2379
5.5332 -4.6079 0.2394
5.5037 -4.5361 0.2409
1.1356 -7.7880 0.3865
2.5025 -5.1267 0.3398
2.5794 -4.8859 0.3361
2.6312 -4.7946 0.3344
2.6765 -4.7404 0.3333
2.7177 -4.7270 0.3327
2.7589 -4.7135 0.3321
2.7999 -4.7308 0.3318
3.0388 -4.9090 0.3314
3.3082 -5.4932 0.3356
3.3501 -5.3722 0.3337
3.5220 -5.7857 0.3368
3.6210 -5.8530 0.3366
3.6616 -5.7161 0.3345
3.7198 -5.6501 0.3331
3.8760 -5.4458 0.3289
3.9694 -5.4789 0.3283
4.0481 -5.4751 0.3275
4.3014 -5.6310 0.3266
4.4394 -5.5608 0.3243
4.5144 -5.5364 0.3232
4.5894 -5.5119 0.3221
4.7769 -5.6390 0.3216
5.0300 -5.8356 0.3213
5.3835 -6.1340 0.3211
5.4798 -6.1026 0.3197
5.6050 -6.1033 0.3184
5.6724 -6.0397 0.3169
5.8647 -6.1062 0.3156
5.9737 -5.3372 0.3052
5.4344 -4.7995 0.3045
5.6181 -4.8578 0.3032
5.4784 -4.6440 0.3021
5.4340 -4.5610 0.3016
5.4588 -4.5223 0.3009
1.5116 -6.7577 0.4512
2.6347 -4.8137 0.3774
2.6807 -4.7513 0.3750
2.7227 -4.7222 0.3738
2.7638 -4.7010 0.3730
2.8497 -4.9134 0.3805
3.1338 -6.4137 0.4342
3.0591 -5.0512 0.3849
3.0875 -4.8766 0.3785
3.1917 -5.1909 0.3896
3.2698 -5.2845 0.3928
3.4763 -5.5964 0.4036
3.5723 -5.6742 0.4061
3.6689 -5.7353 0.4081
3.7565 -5.7553 0.4086
3.7616 -5.5463 0.4009
3.8457 -5.5619 0.4013
3.9071 -5.5198 0.3996
3.9506 -5.4417 0.3966
4.3473 -5.7190 0.4056
4.4205 -5.5386 0.3988
4.5081 -5.5354 0.3985
4.6418 -5.5954 0.4003
4.7186 -5.5703 0.3992
4.9581 -5.7546 0.4052
5.3932 -6.1595 0.4187
5.5469 -6.1953 0.4196
5.6758 -6.1974 0.4193
5.7753 -6.1649 0.4178
5.9432 -6.2027 0.4188
5.7805 -5.9096 0.4085
5.9060 -5.9095 0.4082
5.9819 -5.3588 0.3880
5.5915 -4.9923 0.3757
5.6613 -4.9696 0.3747
5.4865 -4.7829 0.3684
5.5131 -4.7379 0.3667
5.5576 -4.7057 0.3654
5.5266 -4.6287 0.3627
5.4816 -4.5475 0.3598
5.4891 -4.4999 0.3581
2.5443 -4.9235 0.4258
2.6444 -4.7676 0.4169
2.6877 -4.7224 0.4144
2.7276 -4.7172 0.4143
2.7681 -4.7040 0.4137
3.0908 -4.8785 0.4258
3.7829 -5.6032 0.4730
3.8854 -5.6619 0.4771
3.8514 -5.3931 0.4607
4.8867 -6.1135 0.5094
4.7470 -5.7550 0.4871
4.9215 -5.8557 0.4940
5.0268 -5.8546 0.4945
5.4585 -6.2534 0.5207
5.5864 -6.2561 0.5215
5.6859 -6.2237 0.5201
5.7853 -6.1912 0.5186
5.8521 -6.1250 0.5149
5.8846 -6.0278 0.5092
5.9156 -5.9344 0.5038
5.4408 -5.3854 0.4683
5.8800 -5.2976 0.4652
5.7095 -5.0912 0.4519
5.8059 -5.0842 0.4519
5.8070 -5.0116 0.4476
5.8319 -4.9580 0.4445
5.7662 -4.8495 0.4376
5.6310 -4.6471 0.4247
5.7520 -4.6609 0.4261
2.5027 -4.7299 0.4526
2.5061 -4.9413 0.4703
2.5488 -4.9352 0.4704
2.6018 -4.8418 0.4632
2.6493 -4.7704 0.4578
2.6918 -4.7331 0.4552
2.7317 -4.7279 0.4553
2.7720 -4.7226 0.4554
3.4183 -5.3526 0.5165
3.7977 -5.6426 0.5456
3.8217 -5.5039 0.5343
3.8017 -5.2801 0.5153
3.8851 -5.3065 0.5186
4.4757 -6.3517 0.6138
4.5335 -6.2557 0.6065
4.5932 -5.8292 0.5715
5.2717 -6.3437 0.6233
5.2152 -6.1105 0.6030
5.4685 -6.2795 0.6204
5.5372 -6.2123 0.6156
5.6652 -6.2153 0.6175
5.7319 -6.1488 0.6128
6.0588 -6.0869 0.6117
5.4807 -5.3406 0.5418
5.7372 -5.2044 0.5336
5.6935 -5.0934 0.5237
5.7655 -5.0699 0.5227
2.4036 -4.5880 0.4734
2.5232 -4.8710 0.5062
2.5639 -4.8667 0.5066
2.6080 -4.8355 0.5041
2.6541 -4.7731 0.4984
2.6953 -4.7518 0.4969
2.7358 -4.7386 0.4963
2.7765 -4.7174 0.4949
2.8168 -4.7122 0.4951
3.7788 -5.8138 0.6328
3.7750 -5.5808 0.6077
3.7993 -5.4490 0.5941
3.8144 -5.3112 0.5796
4.5087 -6.2153 0.6907
5.6551 -6.6960 0.7655
5.4497 -6.2698 0.7157
5.5768 -6.2734 0.7186
5.6151 -6.1731 0.7087
5.7736 -6.2092 0.7158
5.9049 -6.2114 0.7187
6.0004 -6.0474 0.7030
6.0290 -5.9536 0.6935
5.9922 -5.8068 0.6771
5.5876 -5.3555 0.6204
5.7242 -5.1296 0.5990
5.8461 -4.9952 0.5871
5.8231 -4.9127 0.5778
5.8913 -4.8904 0.5768
5.4890 -4.5352 0.5305
2.3310 -4.6446 0.5123
2.3693 -4.6207 0.5103
2.3977 -4.6341 0.5128
2.5051 -4.7817 0.5350
2.5350 -4.8320 0.5424
2.5769 -4.8104 0.5407
2.6185 -4.7889 0.5391
2.6597 -4.7675 0.5375
2.7009 -4.7393 0.5349
2.7405 -4.7343 0.5354
2.7804 -4.7361 0.5367
2.8210 -4.7467 0.5392
4.1568 -7.2728 0.9052
3.7943 -5.8568 0.7108
3.7894 -5.6191 0.6797
3.8688 -5.2769 0.6374
4.4771 -5.9776 0.7456
4.6261 -5.8984 0.7394
4.6420 -5.7719 0.7234
5.5172 -6.3675 0.8252
5.5867 -6.2994 0.8183
5.6851 -6.2673 0.8169
5.9138 -6.1043 0.8020
6.0787 -6.1389 0.8111
6.2505 -6.1747 0.8206
6.3128 -6.1079 0.8136
6.1246 -5.8291 0.7721
5.7984 -5.4547 0.7143
5.6197 -5.0662 0.6587
5.8041 -5.1251 0.6715
5.7594 -5.0207 0.6567
5.8532 -5.0139 0.6584
5.9236 -4.9909 0.6574
6.0682 -5.0140 0.6644
0.9109 -7.9958 1.0082
1.0126 -7.9626 1.0067
2.3694 -4.6424 0.5472
2.4028 -4.6372 0.5476
2.4379 -4.6258 0.5470
2.4621 -4.6658 0.5540
2.5091 -4.7921 0.5750
2.5475 -4.7864 0.5755
2.5860 -4.7818 0.5761
2.6267 -4.7606 0.5743
2.6656 -4.7559 0.5749
2.7063 -4.7278 0.5721
2.7443 -4.7519 0.5771
2.7847 -4.7319 0.5755
2.8249 -4.7188 0.5749
4.1376 -7.6168 1.0639
4.1208 -7.1518 0.9923
3.8267 -5.7188 0.7630
3.7914 -5.4311 0.7178
3.8481 -5.3932 0.7140
3.9597 -5.4767 0.7307
4.7881 -6.5436 0.9229
4.8425 -6.4390 0.9088
5.9903 -6.1970 0.9122
6.1239 -6.1991 0.9173
6.2234 -6.1667 0.9158
6.2480 -6.0673 0.9015
6.4617 -6.1357 0.9195
6.5622 -6.1029 0.9180
6.0572 -5.5860 0.8212
5.9374 -5.3156 0.7757
5.9074 -5.0639 0.7362
5.8826 -4.9784 0.7222
6.1823 -5.0999 0.7513
1.0028 -8.0455 1.1187
1.0462 -8.1865 1.1453
2.3746 -4.6453 0.5815
2.4064 -4.6465 0.5831
2.4400 -4.6413 0.5836
2.4602 -4.7025 0.5952
2.4780 -4.7921 0.6116
2.5244 -4.7345 0.6035
2.5592 -4.7438 0.6066
2.6330 -4.7485 0.6106
2.6721 -4.7357 0.6100
2.7108 -4.7300 0.6106
2.7495 -4.7323 0.6127
2.7891 -4.7194 0.6121
4.1900 -7.0056 1.0720
3.7979 -5.4480 0.7826
3.8845 -5.4796 0.7918
4.0659 -5.7101 0.8399
4.2637 -5.9422 0.8889
6.1605 -6.1248 1.0015
6.2579 -6.0930 1.0001
6.3938 -6.0947 1.0062
6.4525 -6.0295 0.9972
6.5112 -5.9667 0.9887
6.4176 -5.7880 0.9535
6.2673 -5.5772 0.9101
5.8667 -5.1226 0.8135
5.7537 -4.9744 0.7828
5.9379 -5.0281 0.8000
0.9719 -8.1892 1.2438
2.2784 -5.0355 0.6869
2.3495 -4.9047 0.6647
2.4449 -4.6443 0.6181
2.4825 -4.6205 0.6152
2.5162 -4.6153 0.6159
2.5427 -4.6553 0.6251
2.5760 -4.6629 0.6282
2.6109 -4.6643 0.6302
2.8330 -4.7400 0.6562
3.9090 -5.9390 0.9461
3.9649 -5.6684 0.8955
4.0255 -5.6255 0.8900
6.1963 -6.0541 1.0824
6.3283 -6.0550 1.0891
6.4624 -6.0553 1.0959
6.6173 -5.9607 1.0849
6.6728 -5.8986 1.0754
6.1081 -5.3061 0.9305
5.7824 -5.0072 0.8554
5.8743 -5.0004 0.8586
6.5975 -5.3930 0.9720
1.0434 -8.0433 1.3158
2.2828 -5.0468 0.7302
2.3388 -4.9773 0.7182
2.4885 -4.6172 0.6479
2.5242 -4.5998 0.6461
2.5576 -4.5947 0.6469
2.5860 -4.6274 0.6556
2.6200 -4.6280 0.6577
2.6539 -4.6356 0.6613
2.6881 -4.6500 0.6664
2.7973 -4.7251 0.6890
2.8371 -4.7576 0.6984
2.8807 -4.8343 0.7177
6.8072 -6.0183 1.1998
7.0491 -5.9860 1.2064
5.9273 -5.0490 0.9376
0.7750 -5.8941 0.8968
1.7428 -4.1602 0.5543
1.7339 -4.1327 0.5545
1.5933 -4.0633 0.5825
-0.0574 -5.1480 1.0402
-0.1749 -5.0463 1.0607
-0.5564 -3.9597 1.0761
-0.9698 -3.2635 1.1253
0.8212 -2.9681 0.6883
0.8306 -2.9293 0.6835
0.8829 -2.8942 0.6689
0.9373 -2.8622 0.6541
0.9579 -2.8294 0.6471
0.9585 -2.7953 0.6447
0.9592 -2.7618 0.6422
0.9662 -2.7299 0.6385
-1.8268 -1.9883 1.2387
-0.4635 -1.8520 0.9120
-0.4235 -1.8148 0.9002
-0.4228 -1.7633 0.8966
-0.3667 -1.7365 0.8817
0.7408 -5.9695 0.8483
0.9064 -5.6112 0.7918
0.8660 -5.5861 0.7988
0.8797 -5.4793 0.7895
1.6145 -4.1704 0.5555
1.5392 -4.1724 0.5715
1.5473 -4.1194 0.5666
1.5609 -4.0622 0.5603
0.0459 -5.0719 0.9406
-0.3823 -5.2094 1.0391
-0.7707 -4.1185 1.0551
-1.0482 -3.2633 1.0619
0.8160 -2.9643 0.6510
0.8555 -2.9265 0.6403
0.8993 -2.8914 0.6290
0.9534 -2.8596 0.6157
0.9727 -2.8269 0.6096
0.9492 -2.7898 0.6123
0.9557 -2.7569 0.6090
0.9065 -2.7150 0.6168
0.9389 -2.6874 0.6083
0.9151 -2.6496 0.6110
-1.7154 -2.0008 1.1263
0.1359 -2.2934 0.7538
0.1591 -2.2549 0.7465
0.2853 -2.1690 0.7147
-0.1752 -1.9515 0.7987
-0.3333 -1.8398 0.8252
-0.3709 -1.7737 0.8292
1.5472 -4.1695 0.5385
1.7954 -3.7861 0.4713
0.7348 -3.0008 0.6294
0.8915 -2.9623 0.5978
0.9277 -2.9260 0.5891
0.9284 -2.8894 0.5870
0.9364 -2.8541 0.5836
0.9375 -2.8188 0.5815
0.9388 -2.7841 0.5794
0.9524 -2.7519 0.5752
0.9408 -2.7163 0.5755
0.9354 -2.6819 0.5746
0.8981 -2.6408 0.5795
0.4148 -2.4088 0.6582
0.3899 -2.3603 0.6603
0.3967 -2.3214 0.6570
0.5182 -2.2839 0.6321
-0.2097 -1.9776 0.7529
-0.0229 -1.9547 0.7165
1.6167 -4.1812 0.4959
1.5519 -4.1705 0.5061
1.7137 -3.8047 0.4626
1.3814 -4.0264 0.5278
1.3788 -3.9835 0.5263
1.1678 -4.0051 0.5622
0.6136 -3.0426 0.6100
0.9751 -2.9246 0.5447
0.9946 -2.8902 0.5399
0.9583 -2.8520 0.5441
0.9654 -2.8178 0.5414
0.9668 -2.7835 0.5396
0.9480 -2.7467 0.5410
0.8992 -2.6698 0.5456
0.9326 -2.6433 0.5388
0.9273 -2.6093 0.5382
0.9282 -2.5772 0.5365
0.8719 -2.5296 0.5437
0.8049 -2.4770 0.5524
0.5882 -2.3378 0.5819
0.0268 -2.1019 0.6641
-0.1621 -1.9851 0.6901
0.8861 -2.2584 0.5289
1.7659 -4.2393 0.4463
1.7376 -4.1972 0.4488
1.7307 -4.1654 0.4485
1.6249 -4.2219 0.4658
1.6179 -4.1865 0.4654
1.5739 -4.1514 0.4704
1.1466 -4.0239 0.5265
0.7694 -3.1673 0.5475
0.6299 -3.0850 0.5642
0.5644 -3.0397 0.5718
0.9657 -2.9204 0.5100
0.9271 -2.8814 0.5140
0.9731 -2.8494 0.5062
0.9743 -2.8146 0.5047
0.9626 -2.7786 0.5050
0.9449 -2.7416 0.5061
0.8936 -2.6982 0.5118
0.9009 -2.6651 0.5094
0.9024 -2.6315 0.5079
0.9237 -2.6032 0.5038
0.9245 -2.5709 0.5025
0.8691 -2.4904 0.5073
0.8158 -2.4410 0.5130
0.7303 -2.3791 0.5228
0.6706 -2.3237 0.5292
0.8171 -2.3128 0.5079
0.9115 -2.2631 0.4925
1.5748 -4.2480 0.4416
1.5383 -4.2462 0.4459
1.5387 -4.1990 0.4444
1.1314 -4.0387 0.4881
0.7034 -3.1240 0.5111
0.6224 -3.0817 0.5194
0.6073 -3.0350 0.5198
1.0536 -2.9214 0.4630
1.0008 -2.8830 0.4681
0.9890 -2.8469 0.4684
0.9516 -2.8076 0.4717
0.9397 -2.7709 0.4720
0.8946 -2.7287 0.4760
0.8981 -2.6253 0.4725
0.8996 -2.5920 0.4712
0.8817 -2.5540 0.4722
1.6280 -4.2329 0.4033
1.6239 -4.1930 0.4028
1.5615 -4.1790 0.4085
1.1219 -4.0494 0.4476
0.7233 -3.1195 0.4643
0.5724 -3.0800 0.4779
0.6188 -3.0309 0.4723
0.5936 -2.9841 0.4736
0.9657 -2.8404 0.4346
0.9219 -2.7637 0.4370
0.8615 -2.7183 0.4418
0.7660 -2.6642 0.4497
0.7529 -2.6239 0.4500
0.8096 -2.5996 0.4440
0.7971 -2.5609 0.4443
0.5310 -2.4135 0.4664
0.7305 -2.4005 0.4470
0.7103 -2.3588 0.4480
0.8143 -2.2983 0.4366
0.7883 -2.2560 0.4381
1.6319 -4.2352 0.3712
1.6153 -4.2112 0.3721
1.5914 -4.1955 0.3736
1.5872 -4.1552 0.3732
1.5629 -4.1384 0.3747
1.1118 -4.0607 0.4060
0.7541 -4.1278 0.4328
0.7072 -3.1172 0.4206
0.5525 -3.0769 0.4311
0.5995 -3.0272 0.4270
0.5841 -2.9797 0.4274
0.9743 -2.8730 0.3976
0.9359 -2.8331 0.3998
0.9236 -2.7953 0.4001
0.5447 -2.6164 0.4246
0.5597 -2.5772 0.4229
0.5152 -2.5254 0.4253
0.4908 -2.4774 0.4263
0.5269 -2.4456 0.4233
0.4917 -2.3949 0.4250
0.4869 -2.3529 0.4247
0.5703 -2.3406 0.4185
0.5664 -2.3013 0.4182
0.5891 -2.2723 0.4161
0.7595 -2.2691 0.4038
0.7614 -2.2375 0.4032
0.8074 -2.2259 0.3997
0.8490 -2.2142 0.3965
1.6498 -4.2191 0.3381
1.6232 -4.2083 0.3393
1.5414 -4.1694 0.3429
0.5755 -3.0722 0.3808
0.6112 -3.0230 0.3787
0.6068 -2.9757 0.3786
1.0332 -2.8739 0.3574
0.9179 -2.8269 0.3626
0.8630 -2.7829 0.3649
0.4293 -2.5878 0.3841
0.4312 -2.4989 0.3834
0.4385 -2.4571 0.3827
0.3061 -2.3775 0.3884
0.2133 -2.3050 0.3923
0.3070 -2.2448 0.3874
0.4279 -2.2447 0.3816
0.4018 -2.1947 0.3825
0.4712 -2.1819 0.3791
0.5063 -2.1580 0.3772
0.5766 -2.1510 0.3738
0.5722 -2.1136 0.3737
0.5316 -2.0597 0.3752
1.2955 -5.1864 0.3139
1.2523 -5.1843 0.3149
0.8415 -5.6744 0.3242
1.6112 -4.2313 0.3069
1.3843 -4.4675 0.3121
1.5267 -4.1930 0.3089
1.4873 -4.1894 0.3098
0.5754 -4.6930 0.3308
1.1200 -4.1172 0.3184
1.0696 -4.0998 0.3196
0.5925 -3.1172 0.3311
0.6188 -3.0669 0.3305
0.6130 -3.0189 0.3307
0.6184 -2.9716 0.3305
1.0656 -2.8728 0.3202
0.9998 -2.8314 0.3217
0.9012 -2.7832 0.3240
0.8518 -2.7388 0.3252
0.4098 -2.4867 0.3356
0.4502 -2.4529 0.3347
-0.4497 -2.0380 0.3558
0.1804 -2.1934 0.3411
0.3156 -2.1963 0.3379
-0.4274 -1.8174 0.3554
0.1802 -2.0145 0.3411
1.3185 -5.0892 0.2656
1.1886 -5.1502 0.2649
1.1874 -5.0763 0.2655
1.6164 -4.2797 0.2730
1.5911 -4.2651 0.2731
1.4891 -4.3452 0.2722
1.5153 -4.2621 0.2730
1.4186 -4.3249 0.2723
0.9651 -4.4980 0.2701
0.6494 -4.7147 0.2677
1.1447 -4.1025 0.2737
1.1306 -4.0590 0.2741
1.0504 -2.9028 0.2838
1.0509 -2.8676 0.2841
0.9773 -2.8246 0.2843
0.9516 -2.7853 0.2846
0.9324 -2.7464 0.2849
0.9535 -2.7144 0.2852
0.9148 -2.6719 0.2855
0.8312 -2.6183 0.2858
0.5983 -2.5254 0.2862
0.4499 -2.4456 0.2867
-0.5922 -1.9808 0.2890
0.0955 -2.1554 0.2886
0.2907 -2.1787 0.2887
-0.4963 -1.7215 0.2913
-0.4327 -1.6936 0.2916
-0.3145 -1.6936 0.2918
1.5926 -4.2711 0.2382
1.4852 -4.3583 0.2339
1.5241 -4.2590 0.2366
1.4132 -4.3388 0.2323
1.1760 -4.5505 0.2224
1.1133 -4.1315 0.2277
1.0918 -4.0918 0.2278
-1.0815 -3.2954 0.1828
0.8408 -3.0526 0.2384
1.0230 -2.8971 0.2458
1.0542 -2.8639 0.2472
0.9922 -2.8220 0.2463
0.9744 -2.7838 0.2464
0.9679 -2.7473 0.2469
0.8770 -2.6229 0.2465
0.8047 -2.5696 0.2455
0.7764 -2.5255 0.2454
-0.3341 -2.0536 0.2235
0.2180 -2.1886 0.2361
-0.4813 -1.8289 0.2233
-0.5027 -1.7631 0.2239
-0.4591 -1.7248 0.2257
-0.3770 -1.7058 0.2282
-0.2617 -1.7057 0.2313
1.6262 -4.2829 0.2044
1.5936 -4.2779 0.2028
1.5635 -4.2675 0.2015
1.5482 -4.2372 0.2015
1.5089 -4.2346 0.1995
1.4304 -4.1212 0.1982
1.1031 -4.1443 0.1805
1.0737 -4.1097 0.1798
-0.7704 -4.5352 0.0727
-0.6660 -4.3821 0.0819
-0.9867 -3.2815 0.0926
0.8981 -3.0476 0.1971
0.8845 -3.0058 0.1975
0.9011 -2.9647 0.1993
0.9867 -2.9283 0.2047
1.0256 -2.8934 0.2076
1.0863 -2.8629 0.2116
1.0080 -2.8195 0.2086
0.9837 -2.7805 0.2083
0.9647 -2.7419 0.2082
0.8703 -2.6522 0.2055
0.8576 -2.6129 0.2058
0.8379 -2.5719 0.2058
0.8169 -2.5302 0.2058
0.7166 -2.4652 0.2022
-0.2404 -2.0738 0.1618
0.1643 -2.1607 0.1808
-0.4012 -1.9047 0.1576
-0.7516 -1.7115 0.1441
-0.6705 -1.6220 0.1506
-0.4641 -1.6546 0.1606
1.5798 -4.3044 0.1651
1.5646 -4.2740 0.1649
1.5455 -4.2480 0.1643
1.5217 -4.2269 0.1631
1.5061 -4.1953 0.1629
1.4724 -4.1830 0.1607
1.4095 -4.1989 0.1553
1.1996 -4.2396 0.1375
1.1372 -4.2371 0.1327
1.0620 -4.2412 0.1267
1.0390 -4.1995 0.1263
-0.4357 -5.0144 -0.0163
-0.6435 -4.3740 -0.0112
-0.6731 -4.2826 -0.0105
-0.7028 -4.1911 -0.0097
-0.6999 -4.0887 -0.0061
-0.8260 -3.9260 -0.0105
-0.8560 -3.8335 -0.0098
0.8125 -3.0463 0.1470
0.9883 -3.0021 0.1622
0.9680 -2.9625 0.1620
1.0027 -2.9253 0.1659
0.9967 -2.8873 0.1667
1.0600 -2.8564 0.1727
1.0360 -2.8185 0.1721
0.9985 -2.7780 0.1705
0.8374 -2.6025 0.1638
0.8244 -2.5626 0.1641
0.7963 -2.5184 0.1633
0.7680 -2.4736 0.1626
-0.4504 -1.9928 0.0833
-0.9555 -1.6179 0.0563
-0.9216 -1.5653 0.0607
-0.6534 -1.6159 0.0800
1.6180 -4.3113 0.1319
1.5693 -4.3269 0.1262
1.5576 -4.2910 0.1264
1.5505 -4.2495 0.1274
1.5389 -4.2138 0.1277
1.5065 -4.2017 0.1248
1.4643 -4.1984 0.1206
-0.5306 -4.5336 -0.1019
-0.6233 -4.4723 -0.1091
-0.6533 -4.3799 -0.1083
-0.6506 -4.2745 -0.1036
-0.7100 -4.0915 -0.1022
-0.7396 -4.0001 -0.1014
-0.7364 -3.8996 -0.0969
0.8681 -2.9560 0.1103
0.8780 -2.9149 0.1130
1.0265 -2.8489 0.1313
1.0264 -2.8129 0.1328
0.7696 -2.5807 0.1157
0.7721 -2.5431 0.1176
0.8213 -2.5191 0.1237
0.7698 -2.4676 0.1205
-0.6709 -1.9065 -0.0066
-0.6944 -1.8339 -0.0060
-0.6652 -1.7190 0.0019
-0.6138 -1.6791 0.0089
-0.3906 -1.7168 0.0306
1.2549 -4.4965 0.0385
1.1335 -4.5678 0.0190
1.2872 -4.2829 0.0535
-0.3907 -5.1110 -0.2083
-0.3913 -4.5697 -0.1811
-0.4488 -4.4961 -0.1849
-0.6334 -4.4793 -0.2082
-0.7308 -4.4147 -0.2177
-0.6280 -4.2664 -0.1968
-0.5949 -4.1521 -0.1867
-0.6874 -4.0835 -0.1953
-0.8192 -4.0228 -0.2095
-0.8151 -3.9191 -0.2038
-0.9060 -3.6390 -0.2015
-0.9004 -3.5400 -0.1958
-0.8610 -3.4388 -0.1855
0.8488 -2.9091 0.0654
0.8748 -2.8694 0.0708
0.9842 -2.8031 0.0885
0.9717 -2.7647 0.0889
0.9249 -2.7203 0.0849
0.8305 -2.6652 0.0754
0.6052 -2.5780 0.0502
0.6584 -2.5480 0.0587
0.7663 -2.5353 0.0735
0.8312 -2.5155 0.0830
0.7555 -2.4566 0.0761
-0.7862 -1.8544 -0.0957
-0.8392 -1.7685 -0.0983
-0.7802 -1.7243 -0.0883
-0.6983 -1.6925 -0.0760
-0.6962 -1.6311 -0.0726
-0.7451 -1.5484 -0.0748
-0.6183 -1.5451 -0.0580
-0.4808 -1.5525 -0.0404
1.0830 -5.1626 -0.0765
1.0830 -5.0022 -0.0670
1.0470 -4.9715 -0.0709
0.9818 -4.9756 -0.0814
0.9116 -4.9807 -0.0928
1.1313 -4.6476 -0.0384
1.1901 -4.5145 -0.0212
1.2691 -4.3670 0.0001
1.2853 -4.2918 0.0071
0.6874 -4.5718 -0.1041
-0.0690 -5.0974 -0.2548
-0.2803 -5.1517 -0.2914
-0.3097 -5.0611 -0.2907
-0.3680 -4.9902 -0.2958
-0.3400 -4.8618 -0.2837
-0.3691 -4.7721 -0.2830
-0.4571 -4.7158 -0.2936
-0.2880 -4.5186 -0.2551
-0.3158 -4.4330 -0.2545
-0.3164 -4.3350 -0.2487
-0.3439 -4.2503 -0.2481
-0.4838 -4.2101 -0.2678
-0.4547 -4.1012 -0.2568
-0.3991 -3.9870 -0.2412
-0.4263 -3.9031 -0.2405
-0.2958 -3.7764 -0.2124
-0.2965 -3.6908 -0.2074
-0.3474 -3.6173 -0.2111
-0.4253 -3.5472 -0.2193
-0.3733 -3.4542 -0.2055
-0.4246 -2.9818 -0.1857
0.7793 -2.8572 0.0121
0.2868 -2.7084 -0.0570
0.3092 -2.6588 -0.0505
0.5010 -2.6408 -0.0191
0.5927 -2.6124 -0.0029
0.5023 -2.5487 -0.0134
0.5723 -2.5206 -0.0007
0.7459 -2.4849 0.0289
0.7657 -2.4530 0.0339
-0.9410 -1.7876 -0.1965
-1.1275 -1.6491 -0.2178
-0.9274 -1.5859 -0.1824
-0.8063 -1.5069 -0.1586
-0.6491 -1.5170 -0.1343
-0.5990 -1.4821 -0.1243
0.8602 -5.8040 -0.2213
1.0689 -5.3710 -0.1530
0.9139 -5.5206 -0.1920
0.9269 -5.4077 -0.1819
0.6759 -5.6722 -0.2465
0.8521 -5.3300 -0.1905
0.8431 -5.2513 -0.1868
0.8696 -5.1292 -0.1735
1.0338 -4.8457 -0.1237
1.1512 -4.6345 -0.0876
1.1502 -4.5676 -0.0832
1.2547 -4.3901 -0.0517
1.3084 -4.2753 -0.0339
0.6254 -4.6313 -0.1849
0.3251 -4.7915 -0.2515
0.2269 -4.7755 -0.2686
0.3307 -4.6083 -0.2380
0.3424 -4.5137 -0.2294
0.2847 -4.4664 -0.2368
0.2435 -4.4065 -0.2404
0.2570 -4.3141 -0.2316
0.2341 -4.2438 -0.2311
0.2291 -4.1645 -0.2266
0.2064 -4.0947 -0.2260
0.2019 -4.0171 -0.2216
0.1794 -3.9478 -0.2210
0.1006 -3.8990 -0.2323
0.0776 -3.8281 -0.2318
0.0743 -3.7512 -0.2271
0.0705 -3.6757 -0.2227
0.0478 -3.6059 -0.2221
-0.0145 -3.5444 -0.2295
-0.0580 -3.4772 -0.2330
