ply
format ascii 1.0
element vertex 2113
property float x
property float y
property float z
end_header
4.5706 -4.1903 -0.2634
4.6654 -4.2064 -0.2793
4.7136 -4.1907 -0.2800
4.7318 -4.1567 -0.2716
4.7583 -4.1291 -0.2662
4.7557 -4.0859 -0.2525
4.8314 -4.0872 -0.2617
4.8991 -4.0832 -0.2683
4.9460 -4.0679 -0.2690
1.9411 -5.4256 -0.2787
1.9975 -5.4072 -0.2795
2.0722 -5.3314 -0.2662
2.1395 -5.2722 -0.2568
2.2009 -5.2280 -0.2509
2.2544 -5.2105 -0.2517
2.5077 -4.8961 -0.1905
2.5680 -4.7868 -0.1662
2.6687 -4.6360 -0.1347
2.7130 -4.5863 -0.1255
2.7510 -4.6545 -0.1486
2.7934 -4.7052 -0.1673
2.8916 -4.8798 -0.2267
2.9404 -4.8427 -0.2215
2.9802 -4.7229 -0.1921
3.0450 -4.8509 -0.2349
3.0942 -4.8238 -0.2325
3.3131 -4.8189 -0.2544
3.3685 -4.8119 -0.2584
3.4140 -4.7739 -0.2525
3.4517 -4.7183 -0.2410
3.4950 -4.6830 -0.2357
3.5534 -4.6851 -0.2425
4.3324 -4.4523 -0.2600
4.3579 -4.4117 -0.2513
4.4084 -4.3952 -0.2521
4.7048 -4.3993 -0.2847
4.7464 -4.3737 -0.2819
4.7655 -4.3332 -0.2726
4.8297 -4.3243 -0.2770
4.8348 -4.2773 -0.2643
4.8038 -4.1655 -0.2297
4.8416 -4.1441 -0.2277
4.9111 -4.1406 -0.2341
4.9817 -4.1367 -0.2405
1.9828 -5.4836 -0.2358
2.0407 -5.4648 -0.2367
2.0986 -5.4459 -0.2375
2.1481 -5.4582 -0.2454
2.2328 -5.3341 -0.2224
2.2723 -5.3892 -0.2401
2.3563 -5.2420 -0.2112
2.5095 -4.9279 -0.1470
2.5626 -4.8730 -0.1383
2.6711 -4.6701 -0.0978
2.7158 -4.6189 -0.0892
2.7582 -4.5838 -0.0845
2.7990 -4.5918 -0.0905
2.8957 -4.8721 -0.1704
2.9470 -4.8767 -0.1765
3.0732 -5.0468 -0.2315
3.1389 -5.0924 -0.2494
3.1965 -5.0736 -0.2502
3.2540 -5.0549 -0.2511
3.3212 -5.0756 -0.2628
3.3727 -5.0304 -0.2564
3.4266 -4.9986 -0.2537
3.4758 -4.9551 -0.2475
3.5374 -4.9493 -0.2520
3.5993 -4.9423 -0.2562
3.6622 -4.9360 -0.2607
3.6977 -4.8695 -0.2475
3.7428 -4.8284 -0.2415
3.8233 -4.8560 -0.2562
3.8805 -4.8373 -0.2571
3.9377 -4.8187 -0.2579
3.9873 -4.7883 -0.2551
4.0143 -4.7267 -0.2422
4.0775 -4.7193 -0.2465
4.1835 -4.7660 -0.2685
4.2505 -4.7583 -0.2731
4.2993 -4.7282 -0.2702
4.3381 -4.6881 -0.2639
4.3953 -4.6695 -0.2647
4.3834 -4.5809 -0.2413
4.3816 -4.5084 -0.2229
4.4540 -4.5092 -0.2301
4.5276 -4.5095 -0.2373
4.7957 -4.5389 -0.2707
4.8397 -4.5103 -0.2678
4.9101 -4.5016 -0.2724
4.9803 -4.4919 -0.2768
5.0102 -4.4547 -0.2703
5.0260 -4.4100 -0.2606
5.1238 -4.4177 -0.2720
5.1100 -4.3572 -0.2554
4.7911 -4.0844 -0.1559
4.8766 -4.0910 -0.1658
1.8100 -5.8632 -0.2429
1.9224 -5.8829 -0.2571
1.9897 -5.8610 -0.2581
2.0734 -5.7774 -0.2468
2.2882 -5.3593 -0.1722
2.4541 -4.7934 -0.0603
2.5347 -4.8081 -0.0706
2.5735 -4.8384 -0.0808
2.6203 -4.8140 -0.0795
2.6754 -4.6813 -0.0547
2.7213 -4.6080 -0.0423
2.7637 -4.5522 -0.0336
2.8036 -4.5464 -0.0357
2.8450 -4.5963 -0.0505
3.0257 -5.1055 -0.1802
3.0907 -5.1539 -0.1967
3.1671 -5.2498 -0.2248
3.2459 -5.3234 -0.2482
3.3279 -5.3867 -0.2695
3.3901 -5.3480 -0.2663
3.4466 -5.2927 -0.2589
3.4924 -5.2092 -0.2443
3.5555 -5.1886 -0.2452
3.6297 -5.1982 -0.2539
3.6999 -5.1927 -0.2588
3.7319 -5.0973 -0.2403
3.8359 -5.0163 -0.2313
3.9040 -5.0095 -0.2358
4.0189 -4.9566 -0.2341
4.1053 -4.9756 -0.2459
4.1773 -4.9695 -0.2508
4.2297 -4.9350 -0.2477
4.2920 -4.9147 -0.2486
4.3758 -4.9211 -0.2574
4.3953 -4.8493 -0.2431
4.4907 -4.8673 -0.2555
4.5071 -4.7974 -0.2413
4.5002 -4.7086 -0.2209
4.7154 -4.7613 -0.2515
4.8740 -4.8272 -0.2802
4.9389 -4.8061 -0.2811
5.0037 -4.7849 -0.2821
5.1184 -4.8028 -0.2961
5.1506 -4.7555 -0.2884
5.1166 -4.5373 -0.2366
5.1307 -4.4886 -0.2270
5.2667 -4.5180 -0.2455
5.1720 -4.4056 -0.2121
5.3214 -4.4408 -0.2331
5.3476 -4.4036 -0.2270
5.4221 -4.3936 -0.2313
1.6321 -6.2276 -0.2295
1.7478 -6.0806 -0.2099
2.4544 -4.6382 0.0168
2.4837 -4.6760 0.0071
2.5095 -4.7481 -0.0090
2.6170 -4.9028 -0.0478
2.7262 -4.6042 0.0021
2.7675 -4.5701 0.0055
2.8077 -4.5498 0.0063
2.8478 -4.5439 0.0043
2.8967 -4.7116 -0.0323
2.9951 -5.4066 -0.1761
3.0790 -5.5845 -0.2175
3.1529 -5.6007 -0.2265
3.2291 -5.6181 -0.2359
3.3753 -5.5921 -0.2423
3.4184 -5.4533 -0.2185
3.6085 -5.5831 -0.2589
3.6747 -5.5388 -0.2555
3.7327 -5.4756 -0.2476
3.8119 -5.4714 -0.2531
3.8839 -5.4479 -0.2541
3.9383 -5.3868 -0.2465
3.9820 -5.3097 -0.2348
4.0423 -5.2704 -0.2318
4.0916 -5.2141 -0.2247
4.1399 -5.1602 -0.2180
4.5834 -4.8887 -0.1997
4.8450 -5.0705 -0.2559
4.9818 -5.1126 -0.2749
4.9858 -5.0246 -0.2580
5.0215 -4.9707 -0.2502
5.1440 -4.9937 -0.2644
5.2526 -5.0016 -0.2745
5.2858 -4.9474 -0.2665
5.2085 -4.8117 -0.2338
5.4482 -4.9161 -0.2731
5.6761 -5.0027 -0.3080
5.4756 -4.7246 -0.2378
5.5825 -4.7279 -0.2469
5.5893 -4.6690 -0.2359
5.4636 -4.5356 -0.1999
5.5429 -4.5253 -0.2041
5.5314 -4.4650 -0.1914
1.5261 -6.5615 -0.2004
2.3830 -4.5349 0.0810
2.4108 -4.5539 0.0759
2.4428 -4.5611 0.0724
2.4715 -4.5871 0.0660
2.4961 -4.6435 0.0548
2.5205 -4.7197 0.0403
2.5850 -4.8442 0.0148
2.6103 -5.0314 -0.0185
3.2921 -5.9856 -0.2267
3.4640 -5.9856 -0.2387
3.4540 -5.5877 -0.1710
3.5926 -5.8065 -0.2175
3.6708 -5.7810 -0.2186
3.7652 -5.8032 -0.2290
3.7186 -5.4370 -0.1641
3.7740 -5.3784 -0.1581
3.8666 -5.4105 -0.1699
3.9370 -5.3876 -0.1710
4.0258 -5.4012 -0.1795
4.0973 -5.3779 -0.1805
4.1482 -5.3187 -0.1741
4.2747 -5.3876 -0.1945
4.5456 -5.5217 -0.2360
4.7822 -5.4445 -0.2395
4.8790 -5.4400 -0.2455
4.8864 -5.3326 -0.2280
5.5783 -5.1070 -0.2382
5.5857 -5.0308 -0.2259
5.7321 -5.0568 -0.2405
5.7387 -4.9102 -0.2163
5.7880 -4.8713 -0.2132
5.6160 -4.6987 -0.1721
5.4956 -4.5114 -0.1322
5.4172 -4.4153 -0.1106
2.2970 -4.6249 0.1113
2.3850 -4.5501 0.1165
2.4192 -4.5453 0.1151
2.4539 -4.5392 0.1138
2.4822 -4.5645 0.1085
2.5081 -4.6115 0.1003
2.5110 -4.8138 0.0715
2.5509 -4.8248 0.0675
2.5700 -5.5161 -0.0314
2.7154 -5.0225 0.0295
3.5621 -5.6889 -0.1164
3.6570 -5.7313 -0.1281
3.6824 -5.5565 -0.1050
3.7545 -5.5330 -0.1060
3.7955 -5.4327 -0.0943
3.8738 -5.4292 -0.0986
3.9352 -5.3871 -0.0964
4.0236 -5.4012 -0.1038
5.2279 -6.0128 -0.2637
5.2980 -5.9502 -0.2591
5.4478 -5.9809 -0.2726
5.5169 -5.9186 -0.2680
5.3953 -5.6619 -0.2243
5.6561 -5.6826 -0.2431
5.6074 -5.5257 -0.2180
5.5707 -5.0339 -0.1462
5.3556 -4.8035 -0.1005
5.4607 -4.8080 -0.1075
5.6548 -4.8693 -0.1280
5.7714 -4.8753 -0.1360
5.8200 -4.8374 -0.1336
5.5018 -4.5275 -0.0704
2.3799 -4.5920 0.1496
2.4165 -4.5801 0.1490
2.4531 -4.5681 0.1485
2.4820 -4.5935 0.1440
2.5095 -4.6352 0.1378
2.5402 -4.6727 0.1319
2.5694 -4.7359 0.1231
2.6537 -4.7011 0.1227
2.6943 -4.7026 0.1204
2.7369 -4.6739 0.1215
2.8196 -4.5341 0.1332
2.9397 -4.5424 0.1260
3.8172 -5.7017 -0.0532
4.6564 -5.5599 -0.0808
4.7360 -5.5340 -0.0820
5.5039 -6.2100 -0.1998
5.4865 -6.0395 -0.1793
5.5550 -5.9749 -0.1755
5.9530 -6.2556 -0.2285
6.1390 -6.2983 -0.2432
5.9997 -5.5619 -0.1513
6.3337 -5.7210 -0.1870
6.3936 -5.6613 -0.1833
6.3767 -5.5487 -0.1695
5.7301 -4.9334 -0.0650
5.7111 -4.8510 -0.0545
5.6551 -4.6877 -0.0328
5.5817 -4.5861 -0.0173
5.4290 -4.4460 0.0068
2.3855 -4.5947 0.1872
2.4233 -4.5770 0.1871
2.4555 -4.5835 0.1851
2.4830 -4.6171 0.1809
2.5043 -4.6963 0.1730
2.5369 -4.7292 0.1686
2.5779 -4.7158 0.1680
2.6172 -4.7179 0.1661
2.6593 -4.6967 0.1661
2.7015 -4.6681 0.1668
2.7436 -4.6257 0.1687
2.8592 -4.4349 0.1806
2.9915 -4.6107 0.1592
4.0123 -6.8705 -0.0861
4.0205 -6.5468 -0.0577
3.8510 -5.7921 0.0167
3.9587 -5.8399 0.0078
3.9872 -5.6945 0.0194
4.0192 -5.4013 0.0440
4.0890 -5.3785 0.0430
4.2013 -5.4302 0.0335
4.3716 -5.5692 0.0137
4.7961 -5.6242 -0.0098
5.2729 -6.0959 -0.0725
5.3702 -6.0641 -0.0740
5.3859 -5.9389 -0.0635
5.5649 -6.0006 -0.0769
5.6689 -5.8466 -0.0677
6.0089 -5.5859 -0.0595
6.4598 -5.8374 -0.1016
6.4804 -5.7446 -0.0942
6.6193 -5.7418 -0.1001
6.2683 -5.3960 -0.0540
5.9319 -4.9359 0.0016
5.4098 -4.4992 0.0632
5.4684 -4.4801 0.0623
2.4770 -4.6764 0.2165
2.5083 -4.7069 0.2134
2.5460 -4.7085 0.2120
2.5852 -4.7032 0.2109
2.6223 -4.7211 0.2085
2.6648 -4.6922 0.2088
2.7062 -4.6712 0.2087
2.7477 -4.6363 0.2094
2.8268 -4.4852 0.2161
2.8629 -4.4445 0.2174
2.9006 -4.4558 0.2154
3.7917 -6.4869 0.0559
3.7564 -5.7669 0.1025
3.7763 -5.5902 0.1129
3.8404 -5.5468 0.1134
3.9204 -5.5432 0.1108
4.0020 -5.5401 0.1081
4.0263 -5.4198 0.1148
4.0961 -5.3970 0.1137
4.1659 -5.3742 0.1127
4.2358 -5.3515 0.1117
4.6255 -5.5360 0.0862
5.0454 -5.8210 0.0534
5.4360 -6.1573 0.0184
5.4223 -5.9947 0.0291
5.5747 -6.0264 0.0217
5.7032 -6.0273 0.0171
5.8338 -6.0276 0.0125
6.5529 -5.9291 -0.0068
6.7894 -5.9965 -0.0194
6.4708 -5.6528 0.0136
6.1802 -5.3513 0.0428
5.9413 -5.0287 0.0716
5.7059 -4.8089 0.0938
5.7317 -4.7608 0.0959
5.5380 -4.5863 0.1138
5.4744 -4.4956 0.1217
2.4468 -4.6773 0.2572
2.4753 -4.7155 0.2550
2.5098 -4.7323 0.2534
2.5501 -4.7191 0.2528
2.5912 -4.6992 0.2525
2.6329 -4.6716 0.2524
2.6722 -4.6653 0.2515
2.7121 -4.6523 0.2509
2.7531 -4.6109 0.2514
2.7929 -4.5580 0.2523
2.8309 -4.5197 0.2527
2.8674 -4.4776 0.2533
2.9518 -4.5741 0.2474
3.6117 -5.8368 0.1820
3.9727 -5.4807 0.1856
4.0431 -5.4577 0.1845
4.1233 -5.4532 0.1825
4.6029 -5.5136 0.1672
4.7777 -5.6206 0.1585
4.9322 -5.6888 0.1517
5.4460 -6.1836 0.1192
5.5164 -6.1175 0.1197
5.6450 -6.1188 0.1162
6.0240 -6.3814 0.0960
6.6938 -6.0594 0.0900
6.5400 -5.8269 0.1029
5.7965 -5.1772 0.1475
5.8490 -4.9131 0.1560
5.8041 -4.8187 0.1608
5.7410 -4.7185 0.1663
5.4803 -4.5112 0.1812
2.4445 -4.7167 0.2959
2.4793 -4.7259 0.2951
2.5176 -4.7211 0.2944
2.5574 -4.7081 0.2939
2.5963 -4.7019 0.2932
2.6354 -4.6968 0.2925
2.6767 -4.6692 0.2921
2.7170 -4.6484 0.2916
2.7563 -4.6432 0.2909
2.7961 -4.6302 0.2903
3.5690 -5.6779 0.2624
4.1728 -5.5516 0.2526
4.4787 -5.4757 0.2477
5.0003 -5.7870 0.2339
5.4280 -6.1757 0.2209
5.5855 -6.2123 0.2174
5.6861 -6.1795 0.2159
5.6918 -6.0462 0.2175
5.8820 -5.2550 0.2239
5.7100 -5.0503 0.2297
5.6306 -4.8534 0.2337
5.6566 -4.8047 0.2338
5.6818 -4.7574 0.2340
5.6071 -4.6524 0.2367
5.5382 -4.5565 0.2392
5.5276 -4.4980 0.2402
1.0764 -7.9546 0.3894
2.4745 -4.7831 0.3359
2.5216 -4.7316 0.3348
2.5647 -4.6957 0.3339
2.6040 -4.6828 0.3333
2.6418 -4.6848 0.3329
2.6796 -4.6943 0.3326
2.7198 -4.6812 0.3320
2.7599 -4.6681 0.3314
2.8000 -4.6616 0.3309
2.8404 -4.6561 0.3304
3.6271 -5.8772 0.3365
3.6983 -5.5891 0.3322
4.0051 -5.5569 0.3285
4.1070 -5.5948 0.3278
4.3811 -5.9498 0.3291
4.3785 -5.7690 0.3269
4.4940 -5.6481 0.3242
4.5277 -5.5572 0.3228
4.5888 -5.5121 0.3215
5.0293 -5.8358 0.3206
5.5256 -6.3088 0.3209
5.5957 -6.2389 0.3193
5.6043 -6.1037 0.3176
5.6419 -6.0082 0.3160
5.7990 -6.0402 0.3147
5.9731 -5.3376 0.3043
5.6711 -5.0366 0.3040
5.5104 -4.8526 0.3035
5.4679 -4.5819 0.3007
5.4414 -4.5128 0.3002
5.5162 -4.5037 0.2993
1.4877 -6.8247 0.4539
2.4874 -4.7469 0.3754
2.5281 -4.7270 0.3745
2.5676 -4.7141 0.3739
2.6070 -4.7013 0.3733
2.6450 -4.7032 0.3733
2.6848 -4.6902 0.3727
2.7235 -4.6986 0.3729
2.7642 -4.6710 0.3718
2.8041 -4.6723 0.3717
3.8561 -7.5968 0.4748
3.5231 -5.7828 0.4099
3.7752 -5.5848 0.4019
3.8862 -5.6644 0.4045
3.9149 -5.5392 0.3998
4.0123 -5.5758 0.4009
4.0094 -5.4026 0.3946
4.3467 -5.7192 0.4051
4.4937 -5.5148 0.3972
4.6261 -5.5741 0.3990
4.7345 -5.5928 0.3993
4.9773 -5.7804 0.4054
5.4763 -6.2626 0.4214
5.5463 -6.1956 0.4188
5.7064 -6.2327 0.4196
5.8070 -6.1999 0.4181
5.9426 -6.2031 0.4179
5.7799 -5.9100 0.4077
6.0389 -5.4022 0.3885
5.7505 -5.0322 0.3759
5.6653 -4.9034 0.3715
5.5571 -4.7060 0.3646
5.4229 -4.5668 0.3600
5.4472 -4.5280 0.3585
5.5048 -4.5093 0.3576
2.4469 -4.7941 0.4175
2.6540 -4.6622 0.4105
2.6915 -4.6644 0.4108
2.7294 -4.6731 0.4115
2.7680 -4.6894 0.4127
3.5480 -5.8706 0.4877
3.7606 -5.5448 0.4690
3.8604 -5.6011 0.4729
3.9220 -5.5577 0.4706
4.0196 -5.5947 0.4733
4.0072 -5.4022 0.4616
4.7515 -5.9112 0.4959
4.7129 -5.7073 0.4834
4.8636 -5.7780 0.4884
5.0057 -5.8283 0.4921
5.5156 -6.3249 0.5245
5.6161 -6.2921 0.5230
5.7166 -6.2593 0.5215
5.8172 -6.2265 0.5200
5.8842 -6.1592 0.5163
5.9836 -6.1267 0.5148
5.8827 -5.9043 0.5009
5.3747 -5.3260 0.4636
5.8279 -5.2593 0.4617
5.6679 -4.9884 0.4446
5.7155 -4.9506 0.4426
5.7632 -4.9140 0.4406
5.8088 -4.8769 0.4386
5.7463 -4.7752 0.4322
5.7691 -4.7289 0.4295
5.7304 -4.6493 0.4245
2.5124 -4.6729 0.4479
2.5540 -4.6347 0.4452
2.5926 -4.6098 0.4436
2.6271 -4.6164 0.4446
2.6965 -4.6598 0.4491
2.7334 -4.6836 0.4515
2.7723 -4.6921 0.4527
3.5804 -5.9873 0.5715
3.9551 -6.6434 0.6312
3.7605 -5.5439 0.5365
3.8513 -5.5792 0.5406
3.9126 -5.5380 0.5379
4.0084 -5.5738 0.5421
4.4514 -6.1014 0.5919
5.1453 -6.1725 0.6066
5.1671 -6.0491 0.5965
5.6263 -6.3187 0.6248
5.6646 -6.2156 0.6167
5.7312 -6.1492 0.6119
5.8286 -6.1174 0.6105
5.9259 -6.0857 0.6090
6.0582 -6.0873 0.6108
5.8316 -5.7575 0.5803
5.9422 -5.3603 0.5484
5.5501 -4.9190 0.5065
5.5768 -4.8700 0.5027
5.5326 -4.7156 0.4892
5.5574 -4.6728 0.4859
2.4040 -4.4716 0.4609
2.4221 -4.5141 0.4659
2.4445 -4.5474 0.4699
2.4667 -4.5897 0.4749
2.4759 -4.7094 0.4879
2.5172 -4.6768 0.4852
2.5588 -4.6374 0.4818
2.5963 -4.6195 0.4807
2.6301 -4.6333 0.4828
2.7004 -4.6700 0.4882
2.7371 -4.7008 0.4922
2.7765 -4.6959 0.4925
4.0497 -7.3323 0.8006
3.7863 -5.8372 0.6351
3.8043 -5.6613 0.6166
3.8427 -5.5587 0.6064
3.9195 -5.5562 0.6076
3.9883 -5.5337 0.6066
4.0121 -5.4201 0.5949
4.3580 -5.9300 0.6565
5.6206 -6.6523 0.7593
5.9381 -6.2469 0.7222
6.0038 -6.1793 0.7163
6.0331 -6.0797 0.7062
6.1666 -6.0812 0.7090
6.1571 -5.9537 0.6952
6.6585 -5.9208 0.7017
5.7049 -5.0415 0.5883
5.7084 -4.9728 0.5810
5.5318 -4.7883 0.5577
5.4239 -4.6028 0.5357
5.7406 -4.7382 0.5566
2.5235 -4.6723 0.5212
2.5625 -4.6471 0.5190
2.6010 -4.6221 0.5168
2.6346 -4.6360 0.5196
2.6693 -4.6508 0.5225
2.7420 -4.6895 0.5295
2.7802 -4.7212 0.5347
2.8205 -4.7387 0.5381
4.0764 -7.4158 0.9211
4.1562 -7.2730 0.9047
3.8441 -6.0038 0.7309
3.8430 -5.7649 0.6998
3.8348 -5.5396 0.6703
3.9265 -5.5744 0.6773
3.9279 -5.4061 0.6555
3.9446 -5.2872 0.6405
4.0760 -5.3986 0.6586
4.5231 -6.0613 0.7572
4.5281 -5.8987 0.7361
4.6255 -5.8986 0.7388
5.9456 -6.1372 0.8063
6.0781 -6.1393 0.8102
6.1059 -6.0418 0.7983
6.2022 -6.0104 0.7968
6.1576 -5.8583 0.7758
5.9063 -5.5445 0.7280
5.6247 -4.9979 0.6491
5.6304 -4.9325 0.6408
5.6766 -4.8971 0.6375
5.6797 -4.8348 0.6294
2.4215 -4.8570 0.5818
2.4766 -4.7660 0.5698
2.5622 -4.6844 0.5603
2.5988 -4.6782 0.5607
2.6355 -4.6730 0.5612
2.6720 -4.6748 0.5627
2.7078 -4.6974 0.5674
2.7448 -4.7299 0.5737
2.7841 -4.7468 0.5776
2.8246 -4.7415 0.5782
4.0762 -7.0122 0.9689
4.1790 -6.9786 0.9674
3.8186 -5.6985 0.7592
3.8647 -5.6150 0.7481
3.8851 -5.4804 0.7282
3.9189 -5.3895 0.7155
4.0168 -5.4375 0.7263
4.4173 -6.0548 0.8346
4.8305 -6.6212 0.9355
4.8211 -6.4038 0.9020
6.0881 -6.1654 0.9099
6.2228 -6.1671 0.9148
6.2475 -6.0677 0.9005
6.4218 -6.1022 0.9119
6.5617 -6.1034 0.9170
6.3519 -5.8224 0.8667
6.6936 -5.8788 0.8873
5.8590 -5.1040 0.7397
5.7743 -4.7844 0.6879
1.0221 -7.9893 1.1099
2.4305 -4.8442 0.6187
2.5286 -4.7065 0.5987
2.5700 -4.6665 0.5935
2.6051 -4.6677 0.5952
2.6414 -4.6628 0.5959
2.6764 -4.6778 0.6000
2.7121 -4.7006 0.6055
2.7485 -4.7474 0.6152
2.7885 -4.7344 0.6146
2.8284 -4.7213 0.6140
2.9083 -4.6953 0.6128
4.1463 -7.2291 1.1088
3.9128 -5.7359 0.8375
3.8762 -5.4616 0.7879
4.0180 -5.6073 0.8194
4.0683 -5.5461 0.8108
6.2574 -6.0935 0.9991
6.3933 -6.0951 1.0052
6.4520 -6.0300 0.9962
6.5107 -5.9672 0.9877
6.6071 -5.9357 0.9863
6.4723 -5.7314 0.9448
5.6653 -4.9828 0.7796
5.7751 -4.9895 0.7854
5.8669 -4.9825 0.7881
5.8888 -4.9306 0.7799
5.7599 -4.7886 0.7496
0.9712 -8.1889 1.2440
0.8511 -8.8243 1.3633
2.4788 -4.8172 0.6538
2.5242 -4.7665 0.6461
2.5627 -4.7539 0.6455
2.6002 -4.7486 0.6463
2.6395 -4.7289 0.6443
2.6780 -4.7163 0.6438
2.7148 -4.7333 0.6489
2.7528 -4.7510 0.6543
2.7925 -4.7449 0.6551
2.8322 -4.7019 0.6486
2.9059 -4.5945 0.6310
2.9488 -4.6500 0.6441
4.2539 -6.8684 1.1459
3.7838 -5.4149 0.8361
6.3278 -6.0555 1.0882
6.4619 -6.0557 1.0948
6.6566 -5.9923 1.0919
6.6327 -5.8692 1.0665
6.6094 -5.7530 1.0424
6.4803 -5.5682 0.9996
5.9710 -5.1358 0.8892
5.6016 -4.8221 0.8091
5.7860 -4.8789 0.8294
5.8083 -4.8311 0.8211
5.9167 -4.8363 0.8275
1.0229 -8.0997 1.3272
2.3251 -5.0328 0.7296
2.4007 -4.8695 0.6981
2.4403 -4.8566 0.6975
2.4841 -4.8201 0.6920
2.5244 -4.8000 0.6899
2.5633 -4.7873 0.6893
2.5987 -4.8049 0.6952
2.6398 -4.7763 0.6913
2.6791 -4.7635 0.6907
2.7183 -4.7507 0.6901
2.7573 -4.7462 0.6913
2.7968 -4.7333 0.6907
2.9125 -4.6513 0.6793
2.9552 -4.6887 0.6899
4.0219 -6.0098 1.0393
6.8498 -6.0514 1.2082
6.6573 -5.8054 1.1435
5.6900 -4.8306 0.8755
5.6938 -4.7734 0.8632
5.5350 -4.6212 0.8209
0.7624 -5.9134 0.9013
1.6743 -4.1713 0.5711
-0.0262 -5.4162 1.0515
-0.0738 -5.3587 1.0588
-0.0765 -5.2611 1.0528
-0.2227 -5.0814 1.0748
-0.5039 -3.9431 1.0634
0.6343 -3.1914 0.7474
0.7903 -3.0907 0.7042
0.8319 -3.0478 0.6916
-1.7379 -2.0083 1.2205
-1.5232 -1.9781 1.1684
-2.0859 -1.3170 1.2549
-0.5873 -1.6945 0.9311
-0.3666 -1.7361 0.8824
0.7275 -5.9900 0.8526
0.9059 -5.6109 0.7921
0.8656 -5.5858 0.7991
0.8574 -5.5111 0.7963
1.6638 -4.1922 0.5466
1.6043 -4.1824 0.5585
1.5388 -4.1722 0.5717
-0.4382 -5.2506 1.0540
-0.7097 -4.0975 1.0417
0.8351 -3.1691 0.6597
0.8971 -3.1224 0.6438
0.8243 -3.0859 0.6569
0.7791 -3.0458 0.6641
0.8288 -3.0042 0.6511
0.8459 -2.9647 0.6451
-1.2893 -2.4132 1.0623
-1.8038 -1.9795 1.1447
0.1752 -2.3046 0.7467
0.2230 -2.2745 0.7348
0.5363 -2.2972 0.6701
-0.4680 -1.7325 0.8480
0.7301 -6.0063 0.7903
1.5510 -4.1646 0.5376
0.8191 -3.2114 0.6251
0.8142 -3.1684 0.6237
0.8844 -3.1205 0.6079
0.8715 -3.0806 0.6083
0.8438 -3.0409 0.6114
0.8536 -3.0006 0.6074
0.8556 -2.9612 0.6049
0.8045 -2.9200 0.6124
0.7435 -2.8764 0.6215
-1.2768 -2.4856 0.9819
-1.3780 -2.3886 0.9958
-1.3323 -2.3146 0.9833
0.2200 -2.4002 0.6950
0.3607 -2.3936 0.6681
0.3966 -2.3211 0.6575
0.4807 -2.2704 0.6389
1.7171 -4.2185 0.4811
1.6163 -4.1810 0.4961
1.5548 -4.1665 0.5056
1.7160 -3.8020 0.4622
1.3766 -4.0300 0.5290
1.1794 -3.9962 0.5601
0.9060 -3.1986 0.5690
0.9165 -3.1155 0.5635
0.9317 -3.0748 0.5591
0.9191 -3.0360 0.5594
0.8781 -2.9972 0.5644
0.9215 -2.9592 0.5555
0.8145 -2.9164 0.5713
0.7537 -2.8727 0.5794
-1.7834 -2.4056 0.9790
-1.6797 -2.3297 0.9584
-1.5813 -2.2585 0.9388
0.3914 -2.4802 0.6216
0.3873 -2.4361 0.6202
0.4047 -2.3986 0.6156
0.5422 -2.3220 0.5893
-0.2138 -1.9654 0.6985
0.8727 -2.2522 0.5313
1.7373 -4.1971 0.4489
1.7303 -4.1652 0.4487
1.6468 -4.1929 0.4617
1.6240 -4.1783 0.4644
1.5735 -4.1513 0.4706
1.5903 -4.0466 0.4642
1.7172 -3.8047 0.4368
1.4161 -3.9129 0.4840
1.1463 -4.0237 0.5268
0.8672 -3.2883 0.5385
0.8050 -3.2531 0.5461
0.8866 -3.1985 0.5323
0.9028 -3.1548 0.5283
0.9472 -3.1106 0.5203
0.9546 -3.0708 0.5177
0.9287 -3.0326 0.5199
0.9014 -2.9938 0.5224
0.8227 -2.9528 0.5320
0.8542 -2.9144 0.5261
0.8032 -2.8720 0.5317
0.7831 -2.8308 0.5330
0.6948 -2.7813 0.5437
-0.3601 -2.5930 0.6874
0.2039 -2.5232 0.6041
0.3841 -2.5153 0.5780
0.3919 -2.4733 0.5753
0.4099 -2.4350 0.5712
0.3725 -2.3822 0.5746
0.4536 -2.3644 0.5623
0.5298 -2.3487 0.5508
0.5894 -2.3308 0.5416
1.5919 -4.2257 0.4390
1.5532 -4.2274 0.4437
1.5529 -4.1817 0.4423
1.1374 -4.0339 0.4875
0.8875 -3.2391 0.4930
0.8967 -3.1949 0.4905
0.8910 -3.1532 0.4899
0.9425 -3.1081 0.4824
0.9508 -3.0680 0.4802
0.8958 -3.0299 0.4856
0.8829 -2.9901 0.4859
0.8168 -2.9487 0.4925
0.7955 -2.9073 0.4938
0.7822 -2.8660 0.4941
0.7526 -2.8232 0.4964
0.7309 -2.7806 0.4976
0.1720 -2.6610 0.5609
0.3695 -2.5958 0.5352
0.3776 -2.5518 0.5329
0.3377 -2.4979 0.5360
0.4571 -2.4824 0.5212
1.6276 -4.2327 0.4035
1.6235 -4.1928 0.4030
1.5646 -4.2206 0.4093
1.5828 -4.1532 0.4060
1.1215 -4.0492 0.4479
0.8977 -3.2354 0.4506
0.8531 -3.1974 0.4541
0.9010 -3.1496 0.4483
0.9380 -3.1055 0.4438
0.9251 -3.0659 0.4441
0.9123 -3.0263 0.4444
0.8626 -2.9863 0.4483
0.8652 -2.9464 0.4471
0.8295 -2.9050 0.4496
0.7763 -2.8611 0.4537
0.7214 -2.8153 0.4579
0.6716 -2.7683 0.4616
0.5544 -2.5407 0.4676
0.5097 -2.4887 0.4707
0.5364 -2.3753 0.4655
0.6319 -2.3678 0.4562
0.7165 -2.2922 0.4463
0.7347 -2.2660 0.4439
0.7224 -2.2280 0.4442
1.6315 -4.2350 0.3714
1.6180 -4.2070 0.3720
1.5973 -4.1875 0.3732
1.5868 -4.1551 0.3734
1.5658 -4.1346 0.3746
1.0909 -4.0755 0.4080
0.8008 -4.1600 0.4303
0.7942 -4.1023 0.4299
0.9079 -3.2318 0.4083
0.8870 -3.1910 0.4092
0.8573 -3.1507 0.4107
0.8360 -3.1089 0.4116
0.9065 -3.0635 0.4058
0.8791 -3.0233 0.4072
0.8948 -2.9830 0.4054
0.8672 -2.9425 0.4068
0.8542 -2.9022 0.4071
0.7457 -2.8541 0.4142
0.5945 -2.7973 0.4243
0.4527 -2.7355 0.4336
0.1987 -2.6514 0.4506
-0.0682 -2.5549 0.4684
0.3936 -2.5872 0.4356
0.4787 -2.5597 0.4290
0.4839 -2.5178 0.4280
0.4484 -2.4664 0.4297
0.4855 -2.4340 0.4266
0.5013 -2.3974 0.4249
0.5175 -2.3622 0.4232
0.5888 -2.3465 0.4178
0.5838 -2.3072 0.4175
0.6450 -2.2573 0.4123
0.6485 -2.2237 0.4116
0.6856 -2.2050 0.4086
0.7853 -2.2158 0.4016
0.8229 -2.2020 0.3986
1.6463 -4.2230 0.3384
1.6158 -4.2171 0.3399
1.5410 -4.1692 0.3431
1.5024 -4.1656 0.3449
1.1221 -4.0567 0.3624
0.9108 -3.2291 0.3663
0.8814 -3.1891 0.3674
0.8987 -3.1443 0.3663
0.9079 -3.1015 0.3655
0.8718 -3.0615 0.3669
0.9110 -3.0195 0.3647
0.7975 -2.9780 0.3699
0.8627 -2.9385 0.3664
0.8641 -2.8987 0.3661
0.8284 -2.8565 0.3675
-0.0861 -2.6015 0.4095
0.4084 -2.4932 0.3849
0.4384 -2.4567 0.3832
0.3422 -2.3871 0.3873
0.3883 -2.2718 0.3842
0.3843 -2.2289 0.3841
0.4229 -2.2023 0.3821
0.4195 -2.1613 0.3819
0.4961 -2.1535 0.3782
0.5305 -2.1309 0.3763
0.5258 -2.0926 0.3763
0.5030 -2.0462 0.3770
1.3216 -5.1403 0.3135
1.2659 -5.1604 0.3148
0.8292 -5.6921 0.3248
1.6138 -4.2272 0.3070
1.4142 -4.4295 0.3116
1.4935 -4.2801 0.3098
1.5143 -4.2065 0.3094
1.4700 -4.2078 0.3104
0.5202 -4.7392 0.3325
1.1057 -4.1277 0.3190
1.1054 -4.0729 0.3191
0.9138 -3.2264 0.3239
0.8770 -3.1870 0.3248
0.8632 -3.1445 0.3252
0.8730 -3.1006 0.3250
0.8745 -3.0581 0.3249
0.8610 -3.0165 0.3253
0.9387 -2.8992 0.3235
0.8834 -2.8568 0.3248
0.5200 -2.7326 0.3334
-0.0366 -2.6015 0.3466
0.3741 -2.4779 0.3370
0.4273 -2.4467 0.3357
-0.6607 -2.0335 0.3615
-0.6581 -1.9708 0.3615
0.1925 -2.1972 0.3414
0.2907 -2.1871 0.3391
-0.1632 -1.9218 0.3499
0.1397 -1.9974 0.3427
1.3242 -5.0784 0.2660
1.2032 -5.1263 0.2654
1.1941 -5.0650 0.2659
1.6228 -4.2703 0.2732
1.5945 -4.2600 0.2733
1.4887 -4.3450 0.2724
1.5188 -4.2572 0.2732
1.4181 -4.3247 0.2725
0.6615 -4.7031 0.2682
0.5766 -4.6988 0.2682
0.9149 -4.3444 0.2716
1.1504 -4.0976 0.2741
1.1363 -4.0542 0.2744
0.9241 -3.2227 0.2812
0.8875 -3.1833 0.2815
0.8998 -3.0540 0.2826
0.8694 -2.7363 0.2853
0.7904 -2.6467 0.2859
0.4284 -2.4397 0.2872
-0.6433 -2.0273 0.2893
-0.7959 -1.9143 0.2900
-0.3521 -1.7815 0.2918
-0.4530 -1.6843 0.2924
1.6272 -4.2725 0.2393
1.5960 -4.2659 0.2386
1.4802 -4.3638 0.2339
1.5314 -4.2494 0.2372
1.4034 -4.3495 0.2321
1.1756 -4.5502 0.2227
0.9070 -4.4228 0.2177
0.9453 -4.3252 0.2203
1.0992 -4.1420 0.2275
1.0845 -4.0967 0.2278
0.8980 -3.1795 0.2382
0.8304 -2.6492 0.2452
0.8326 -2.6127 0.2459
-0.7012 -1.9978 0.2154
-0.6741 -1.9418 0.2171
0.1339 -2.1121 0.2357
-0.2598 -1.8609 0.2294
-0.3968 -1.7507 0.2276
-0.4173 -1.6876 0.2281
-0.3378 -1.6704 0.2305
1.6287 -4.2787 0.2048
1.5931 -4.2777 0.2030
1.5516 -4.2818 0.2008
1.5440 -4.2416 0.2014
1.0736 -4.1667 0.1787
1.0732 -4.1094 0.1801
0.8929 -3.1774 0.1940
0.9176 -3.1314 0.1964
1.0567 -2.8250 0.2114
1.0574 -2.7907 0.2122
1.0740 -2.7596 0.2139
1.0342 -2.7192 0.2128
0.9194 -2.6621 0.2083
0.8643 -2.6142 0.2066
0.7434 -2.5480 0.2019
0.1219 -2.1455 0.1796
-0.1691 -1.9903 0.1683
-0.2620 -1.9019 0.1657
-0.4434 -1.7745 0.1594
-0.6470 -1.6316 0.1524
-0.5743 -1.6052 0.1568
1.6127 -4.3091 0.1677
1.5867 -4.2944 0.1662
1.5716 -4.2643 0.1660
1.5527 -4.2385 0.1654
1.5297 -4.2168 0.1643
1.5010 -4.2004 0.1626
1.4499 -4.2066 0.1584
1.3685 -4.2408 0.1509
1.3347 -4.2216 0.1489
1.3045 -4.1971 0.1474
1.2558 -4.1879 0.1439
1.1915 -4.1894 0.1388
1.1001 -4.2091 0.1311
1.0140 -4.2185 0.1240
-0.4066 -4.9940 -0.0127
-0.7066 -4.2951 -0.0128
-0.8011 -4.1218 -0.0143
-0.7965 -4.0179 -0.0105
0.9703 -3.1667 0.1557
0.9714 -3.1244 0.1572
1.0063 -3.0811 0.1614
1.0601 -2.8211 0.1743
1.0483 -2.7850 0.1746
1.0602 -2.7527 0.1766
1.0600 -2.7193 0.1777
1.0189 -2.6777 0.1758
0.8670 -2.6092 0.1663
0.6761 -2.5247 0.1542
-0.5423 -2.0238 0.0759
-0.3850 -2.0143 0.0885
0.2564 -2.1838 0.1328
-0.7864 -1.6840 0.0682
-0.9217 -1.5648 0.0616
1.6248 -4.3010 0.1333
1.5769 -4.3159 0.1277
1.5534 -4.2956 0.1261
1.5380 -4.2642 0.1258
1.5339 -4.2190 0.1272
1.5061 -4.2015 0.1251
1.4545 -4.2084 0.1194
1.3886 -4.2265 0.1118
1.3495 -4.2132 0.1082
1.3090 -4.1989 0.1046
-0.5064 -5.0683 -0.1211
-0.6539 -4.3794 -0.1076
-0.6838 -4.2870 -0.1069
-0.7478 -4.2069 -0.1102
-0.7781 -4.1135 -0.1094
-0.7738 -4.0097 -0.1046
-0.7368 -3.8991 -0.0961
-0.7995 -3.8166 -0.0992
0.9733 -3.1638 0.1130
0.9887 -3.1202 0.1164
1.0233 -3.0773 0.1218
0.9969 -3.0381 0.1207
0.9443 -2.9181 0.1202
0.9453 -2.8790 0.1220
1.0518 -2.7129 0.1401
1.0096 -2.6706 0.1374
0.8699 -2.6041 0.1256
-0.6228 -1.9865 -0.0041
-0.2110 -2.0070 0.0380
-0.0880 -1.9994 0.0511
-0.3904 -1.8279 0.0268
-0.5908 -1.6883 0.0117
1.0486 -2.2606 0.1587
1.2483 -4.5032 0.0376
1.1175 -4.5845 0.0164
-0.5150 -5.0814 -0.2224
-0.4500 -4.6001 -0.1896
-0.6037 -4.5722 -0.2083
-0.7005 -4.5095 -0.2178
-0.8371 -4.4596 -0.2331
-0.8690 -4.3612 -0.2323
-0.8279 -4.2362 -0.2206
-0.8591 -4.1399 -0.2199
-0.8197 -4.0223 -0.2088
-0.7473 -3.9000 -0.1931
-0.8109 -3.8167 -0.1972
-0.8409 -3.7243 -0.1965
-1.0538 -3.6655 -0.2214
0.9990 -3.0754 0.0771
0.8689 -2.9943 0.0642
0.8381 -2.9508 0.0624
0.7909 -2.9056 0.0585
0.9746 -2.6579 0.0950
0.7796 -2.5767 0.0736
-0.7373 -2.0052 -0.0961
-0.5559 -1.9960 -0.0719
-0.9007 -1.8147 -0.1078
-0.8641 -1.6917 -0.0968
-0.8323 -1.6382 -0.0899
-0.5739 -1.6822 -0.0583
-0.6683 -1.5817 -0.0656
1.0358 -5.2304 -0.0876
0.9871 -5.2150 -0.0944
0.9996 -5.0321 -0.0816
0.9404 -5.0261 -0.0906
0.8788 -5.0190 -0.0999
1.1459 -4.6299 -0.0347
1.1681 -4.5379 -0.0257
1.2624 -4.3734 -0.0010
1.2707 -4.2482 0.0077
0.7665 -4.5798 -0.0916
0.6615 -4.5927 -0.1089
-0.1991 -5.0893 -0.2742
-0.3390 -5.0812 -0.2959
-0.3116 -4.9510 -0.2838
-0.2847 -4.8254 -0.2721
-0.3132 -4.7375 -0.2714
-0.3417 -4.6495 -0.2707
-0.2620 -4.5040 -0.2495
-0.1632 -4.3564 -0.2251
-0.0953 -4.2319 -0.2070
-0.1910 -4.1839 -0.2193
-0.3461 -3.9688 -0.2310
-0.4828 -3.9195 -0.2497
-0.3211 -3.7827 -0.2161
-0.4257 -3.5468 -0.2186
0.7636 -2.9442 0.0049
0.2371 -2.8126 -0.0704
0.2625 -2.7594 -0.0632
1.0085 -2.6600 0.0604
0.8746 -2.5936 0.0432
0.4703 -2.4505 -0.0121
-0.6922 -2.0066 -0.1693
-0.9717 -1.7765 -0.1998
-1.2670 -1.5974 -0.2358
-1.1213 -1.5783 -0.2117
-0.9276 -1.5854 -0.1815
-0.6281 -1.6459 -0.1378
-0.6023 -1.5971 -0.1309
-0.6493 -1.5165 -0.1335
-0.6473 -1.4585 -0.1298
0.8722 -5.7826 -0.2171
1.0395 -5.4161 -0.1612
0.9132 -5.5203 -0.1917
0.9038 -5.4403 -0.1880
0.6305 -5.7350 -0.2587
0.8392 -5.3463 -0.1935
0.8424 -5.2510 -0.1864
0.8909 -5.1012 -0.1672
1.1581 -4.6255 -0.0853
1.1268 -4.5926 -0.0889
1.2665 -4.3768 -0.0483
1.3079 -4.2751 -0.0337
0.6248 -4.6309 -0.1845
0.4262 -4.7097 -0.2266
0.2072 -4.7896 -0.2727
0.2405 -4.6724 -0.2585
0.3071 -4.5370 -0.2369
0.3192 -4.4435 -0.2283
0.3302 -4.3533 -0.2201
0.3079 -4.2845 -0.2196
0.2688 -4.2246 -0.2227
0.2463 -4.1553 -0.2222
0.1879 -4.1027 -0.2294
0.1833 -4.0245 -0.2249
0.1606 -3.9547 -0.2244
0.1001 -3.8986 -0.2318
0.0771 -3.8277 -0.2312
0.0343 -3.7627 -0.2347
0.0510 -3.6804 -0.2260
0.0282 -3.6101 -0.2254
-0.0149 -3.5440 -0.2289
-0.0584 -3.4767 -0.2324
0.7813 -2.9857 -0.0433
0.7664 -2.9399 -0.0430
1.1062 -2.7421 0.0335
1.0837 -2.7046 0.0319
1.0777 -2.6702 0.0331
0.9473 -2.6055 0.0133
-0.6473 -2.0082 -0.2414
-0.8079 -1.8887 -0.2630
-0.4063 -1.6713 -0.1738
1.2685 -5.2272 -0.1618
1.2994 -5.0190 -0.1392
1.2099 -4.7114 -0.1345
1.1939 -4.6619 -0.1341
1.2143 -4.5700 -0.1226
1.3049 -4.4034 -0.0905
1.3545 -4.2907 -0.0712
1.3524 -4.2367 -0.0675
1.3498 -4.1843 -0.0640
1.2536 -4.2199 -0.0872
1.1931 -4.2167 -0.0999
1.1710 -4.1771 -0.1015
1.2423 -4.0618 -0.0774
0.5213 -4.4762 -0.2630
0.5001 -4.4108 -0.2625
0.4339 -4.3744 -0.2738
0.5455 -4.0797 -0.2273
0.2440 -3.3524 -0.2354
0.6300 -3.1857 -0.1403
0.7266 -3.1263 -0.1151
0.7402 -3.0765 -0.1084
0.7982 -3.0275 -0.0923
0.8687 -2.9825 -0.0738
0.8296 -2.9378 -0.0786
0.8644 -2.8965 -0.0680
0.8663 -2.8547 -0.0644
1.0507 -2.7623 -0.0180
1.0986 -2.7361 -0.0058
1.0980 -2.7026 -0.0033
1.1031 -2.6709 0.0002
1.0337 -2.6214 -0.0107
0.1380 -1.9977 -0.1534
1.2419 -5.2079 -0.2233
1.1055 -5.0918 -0.2462
1.1557 -4.9419 -0.2211
1.2089 -4.7952 -0.1956
1.2509 -4.6703 -0.1747
1.2761 -4.5720 -0.1602
1.4343 -4.3220 -0.1004
1.4159 -4.2872 -0.1019
1.3974 -4.2521 -0.1033
1.3627 -4.2330 -0.1100
1.3654 -4.1753 -0.1044
1.3887 -4.0997 -0.0923
0.9563 -4.3649 -0.2194
0.9486 -4.3035 -0.2160
0.9314 -4.2503 -0.2156
0.9331 -4.1834 -0.2094
0.9619 -4.0994 -0.1952
0.7980 -4.1436 -0.2385
0.7578 -4.1013 -0.2446
0.7283 -4.0512 -0.2474
0.7437 -3.9762 -0.2372
0.7142 -3.9262 -0.2400
0.6606 -3.8865 -0.2495
0.6662 -3.8189 -0.2423
0.6596 -3.7578 -0.2386
0.6533 -3.6973 -0.2349
0.6232 -3.6455 -0.2377
0.5930 -3.5930 -0.2405
0.5494 -3.5434 -0.2467
0.5440 -3.4830 -0.2428
0.5380 -3.4236 -0.2391
0.5929 -3.3541 -0.2199
0.6325 -3.2910 -0.2049
0.5086 -3.2511 -0.2313
0.4648 -3.1977 -0.2373
0.4335 -3.1421 -0.2400
0.5750 -3.0791 -0.2004
0.8856 -3.0226 -0.1206
0.8038 -2.9776 -0.1365
0.7890 -2.9319 -0.1361
0.8667 -2.8922 -0.1139
0.8852 -2.8517 -0.1060
0.9740 -2.8209 -0.0819
1.0543 -2.7231 -0.0541
1.1012 -2.6983 -0.0406
1.0952 -2.6640 -0.0391
1.0427 -2.6181 -0.0479
0.1109 -2.2761 -0.2431
0.1228 -2.2280 -0.2361
0.1042 -2.1708 -0.2356
0.0857 -2.1136 -0.2351
0.0671 -2.0564 -0.2347
0.0486 -1.9992 -0.2342
0.0300 -1.9420 -0.2338
0.0436 -1.8989 -0.2268
0.1723 -1.9097 -0.1966
1.4119 -4.5365 -0.1714
1.4300 -4.4519 -0.1585
1.4720 -4.3413 -0.1366
1.2365 -4.4975 -0.2150
1.2143 -4.4571 -0.2171
1.2790 -4.3263 -0.1872
1.2705 -4.2752 -0.1846
1.4013 -4.0422 -0.1271
1.0321 -4.3068 -0.2519
1.0242 -4.2482 -0.2485
1.0416 -4.1710 -0.2364
1.0505 -4.0425 -0.2217
0.8087 -3.5837 -0.2431
0.7820 -3.5356 -0.2457
0.7589 -3.4303 -0.2419
0.7623 -3.3751 -0.2357
0.7659 -3.3209 -0.2295
0.7497 -3.2709 -0.2291
0.7238 -3.2221 -0.2314
0.6220 -3.1796 -0.2548
0.6050 -3.1271 -0.2544
0.7190 -3.0204 -0.2135
0.7226 -2.9721 -0.2079
0.7172 -2.9243 -0.2048
0.6913 -2.8757 -0.2071
0.7612 -2.8355 -0.1844
0.9846 -2.7793 -0.1188
1.0451 -2.7164 -0.0964
1.0930 -2.6583 -0.0780
1.0086 -2.6039 -0.0955
0.3234 -2.3306 -0.2543
0.2802 -2.2690 -0.2600
0.2070 -2.1961 -0.2728
0.2316 -2.1564 -0.2624
0.2140 -2.1023 -0.2620
0.1674 -2.0364 -0.2682
0.1648 -1.9881 -0.2643
0.1613 -1.9399 -0.2606
0.1438 -1.8858 -0.2602
0.1406 -1.8385 -0.2566
0.1787 -1.8124 -0.2438
1.5303 -4.3880 -0.1682
1.5083 -4.3606 -0.1719
1.4718 -4.3502 -0.1817
1.3398 -4.4507 -0.2317
1.2622 -4.4775 -0.2577
1.2394 -4.4384 -0.2604
1.2105 -4.4050 -0.2655
1.2231 -4.3292 -0.2538
1.2079 -4.2823 -0.2534
1.3982 -3.9993 -0.1669
1.1694 -4.1357 -0.2496
1.1398 -4.1002 -0.2547
1.1091 -4.0643 -0.2601
1.0857 -3.9642 -0.2566
1.0786 -3.9116 -0.2532
1.0634 -3.8645 -0.2528
1.0481 -3.8173 -0.2524
1.0561 -3.7584 -0.2438
1.0480 -3.7088 -0.2410
1.0260 -3.6656 -0.2431
0.9869 -3.6287 -0.2509
0.9626 -3.5848 -0.2535
0.9730 -3.4777 -0.2391
0.9272 -3.3890 -0.2435
0.9036 -3.3440 -0.2459
0.8884 -3.2971 -0.2455
0.8646 -3.2515 -0.2478
0.8580 -3.2033 -0.2447
0.8340 -3.1572 -0.2471
0.9958 -3.0991 -0.1926
0.8302 -3.0619 -0.2382
0.7781 -3.0158 -0.2489
0.7728 -2.9686 -0.2455
0.7575 -2.9214 -0.2452
0.7422 -2.8742 -0.2448
0.7363 -2.8280 -0.2417
0.7670 -2.7866 -0.2282
0.8385 -2.7533 -0.2033
1.0091 -2.7409 -0.1510
1.0029 -2.7032 -0.1489
1.0355 -2.6394 -0.1325
1.0420 -2.6069 -0.1271
0.9593 -2.5500 -0.1459
0.5782 -2.3993 -0.2439
0.5740 -2.3556 -0.2406
0.5587 -2.3084 -0.2402
0.5434 -2.2613 -0.2398
0.5385 -2.2181 -0.2368
0.5129 -2.1670 -0.2391
0.4859 -2.1148 -0.2416
0.4600 -2.0627 -0.2439
0.4339 -2.0101 -0.2462
0.4291 -1.9674 -0.2431
0.4364 -1.9312 -0.2372
0.4429 -1.8954 -0.2315
1.7997 -4.2577 -0.1084
1.4818 -4.3466 -0.2230
1.4543 -4.3233 -0.2293
1.3159 -4.3634 -0.2793
1.3198 -4.2989 -0.2706
1.3348 -4.2252 -0.2573
1.3611 -4.1435 -0.2393
1.3413 -4.1071 -0.2416
1.3876 -4.0133 -0.2157
1.3368 -4.0041 -0.2313
1.1978 -3.6400 -0.2352
1.1964 -3.5927 -0.2303
1.1379 -3.5690 -0.2468
1.1499 -3.5167 -0.2369
1.1497 -3.4700 -0.2316
1.1425 -3.4263 -0.2289
1.1014 -3.1305 -0.2085
1.0884 -3.0904 -0.2082
0.9290 -2.9248 -0.2416
0.8790 -2.7950 -0.2431
0.9037 -2.7575 -0.2307
0.9776 -2.7304 -0.2034
0.9987 -2.6971 -0.1926
1.0695 -2.6421 -0.1631
1.1099 -2.6192 -0.1472
1.0633 -2.5736 -0.1573
0.6916 -2.3863 -0.2578
0.6808 -2.3038 -0.2519
0.7201 -2.2806 -0.2363
0.6705 -2.2230 -0.2460
0.6737 -2.1867 -0.2408
0.6597 -2.1434 -0.2405
1.8175 -4.1914 -0.1287
1.6223 -4.2820 -0.2099
1.5278 -4.3536 -0.2526
1.4876 -4.3484 -0.2664
1.4929 -4.2855 -0.2566
1.4943 -4.2290 -0.2491
1.4670 -4.2056 -0.2560
1.4592 -4.1602 -0.2531
1.4560 -4.1107 -0.2481
1.4334 -4.0806 -0.2525
1.4250 -4.0367 -0.2500
1.4122 -3.9970 -0.2497
1.4048 -3.9529 -0.2469
1.3865 -3.9178 -0.2491
1.3633 -3.8858 -0.2534
1.3455 -3.8492 -0.2552
1.3268 -3.8129 -0.2574
1.3137 -3.7726 -0.2571
1.2840 -3.7419 -0.2639
1.2816 -3.6951 -0.2590
1.2614 -3.6113 -0.2558
1.2544 -3.5684 -0.2530
1.2239 -3.5352 -0.2598
1.2270 -3.4442 -0.2474
1.2012 -3.3646 -0.2467
1.1883 -3.3248 -0.2464
1.1503 -3.2902 -0.2557
1.1316 -3.2506 -0.2575
1.1373 -3.2073 -0.2501
1.1238 -3.1259 -0.2448
1.1109 -3.0862 -0.2445
1.0058 -2.8842 -0.2570
1.0263 -2.8468 -0.2450
1.0072 -2.8060 -0.2468
0.9948 -2.7282 -0.2416
1.0347 -2.6989 -0.2236
1.1022 -2.6782 -0.1969
1.1301 -2.6515 -0.1836
1.1132 -2.6146 -0.1851
1.1235 -2.5853 -0.1777
0.9533 -2.4660 -0.2239
0.8692 -2.4020 -0.2460
0.8483 -2.3587 -0.2482
0.8578 -2.3272 -0.2408
0.8380 -2.2844 -0.2426
0.8250 -2.2443 -0.2423
0.8189 -2.2073 -0.2398
0.7826 -2.1563 -0.2465
0.7695 -2.1158 -0.2462
0.8180 -2.1070 -0.2277
1.6884 -4.5215 -0.2573
1.6078 -4.2577 -0.2533
1.5840 -4.2358 -0.2596
1.5803 -4.1882 -0.2546
1.5762 -4.1421 -0.2501
1.5563 -4.1141 -0.2540
1.5443 -4.0771 -0.2537
1.5404 -4.0318 -0.2492
1.5285 -3.9951 -0.2489
1.5332 -3.9431 -0.2401
1.5215 -3.9069 -0.2398
1.5175 -3.8644 -0.2356
1.4894 -3.8414 -0.2434
1.4863 -3.7985 -0.2389
1.4786 -3.7595 -0.2367
1.4880 -3.7096 -0.2264
1.4512 -3.6900 -0.2380
1.4477 -3.6491 -0.2339
1.4494 -3.6059 -0.2274
1.3991 -3.5478 -0.2392
1.3618 -3.3993 -0.2338
1.3546 -3.3619 -0.2316
1.3339 -3.3284 -0.2351
1.3049 -3.2572 -0.2368
1.2987 -3.2200 -0.2342
1.2847 -3.1466 -0.2298
1.2530 -3.1124 -0.2376
1.2566 -3.0751 -0.2311
1.2557 -3.0388 -0.2267
1.2284 -3.0030 -0.2325
1.2057 -2.9666 -0.2364
1.1989 -2.9304 -0.2342
1.2143 -2.8962 -0.2236
1.1530 -2.8554 -0.2420
1.1410 -2.8185 -0.2417
1.1353 -2.7826 -0.2391
1.1400 -2.7488 -0.2327
1.1451 -2.7159 -0.2263
1.1334 -2.6800 -0.2261
1.1549 -2.6524 -0.2140
1.1543 -2.6202 -0.2099
1.2005 -2.6023 -0.1896
1.1645 -2.5610 -0.1980
1.1259 -2.5177 -0.2072
1.0025 -2.4427 -0.2451
0.9971 -2.4079 -0.2425
0.9850 -2.3707 -0.2422
0.9536 -2.3254 -0.2484
0.9223 -2.2469 -0.2500
1.7061 -4.3374 -0.2654
1.7177 -4.2678 -0.2505
1.7796 -4.1283 -0.2045
1.6618 -4.2458 -0.2708
1.6707 -4.1831 -0.2580
1.6525 -4.1571 -0.2619
1.6446 -4.1178 -0.2595
1.6333 -4.0828 -0.2593
1.6184 -4.0519 -0.2610
1.6070 -4.0168 -0.2608
1.6028 -3.9288 -0.2498
1.5842 -3.9013 -0.2537
1.5653 -3.8732 -0.2576
1.5463 -3.8447 -0.2614
1.5310 -3.8125 -0.2632
1.5274 -3.7714 -0.2588
1.5161 -3.7363 -0.2585
1.5087 -3.6986 -0.2561
1.4811 -3.6737 -0.2641
1.4778 -3.6335 -0.2597
1.4581 -3.6028 -0.2635
1.4216 -3.5382 -0.2696
1.3891 -3.3900 -0.2618
1.4176 -3.3426 -0.2431
1.3682 -3.2804 -0.2548
1.3362 -3.2119 -0.2583
1.3557 -3.1365 -0.2394
1.3191 -3.0690 -0.2449
1.2741 -3.0354 -0.2590
1.3016 -3.0000 -0.2423
1.2708 -2.9650 -0.2502
1.2545 -2.9298 -0.2520
1.2581 -2.8959 -0.2456
1.2267 -2.8591 -0.2535
1.2153 -2.8239 -0.2532
1.2080 -2.7563 -0.2465
1.1967 -2.7215 -0.2462
1.1538 -2.6795 -0.2581
1.1582 -2.6479 -0.2517
1.1789 -2.6216 -0.2393
1.2131 -2.6007 -0.2220
1.2599 -2.5858 -0.2002
1.2255 -2.5457 -0.2089
1.1906 -2.5044 -0.2175
1.1554 -2.4620 -0.2261
1.1008 -2.4106 -0.2417
1.0726 -2.3687 -0.2474
1.0612 -2.3337 -0.2472
1.0441 -2.2959 -0.2489
1.2612 -2.3466 -0.1652
1.2598 -2.3212 -0.1621
1.8283 -4.3504 -0.2526
1.8179 -4.3181 -0.2523
1.8018 -4.2955 -0.2561
1.7862 -4.2713 -0.2593
1.7808 -4.2306 -0.2555
1.8157 -4.1294 -0.2242
1.8005 -4.1065 -0.2275
1.7272 -4.1161 -0.2620
1.7281 -4.0683 -0.2542
1.7294 -4.0214 -0.2464
1.7106 -3.9993 -0.2515
1.7058 -3.9606 -0.2477
1.6860 -3.9385 -0.2532
1.6791 -3.9023 -0.2507
1.6775 -3.8614 -0.2451
1.6612 -3.8349 -0.2484
1.6439 -3.8086 -0.2521
1.6532 -3.7597 -0.2404
1.6098 -3.7541 -0.2591
1.6225 -3.7037 -0.2456
1.5987 -3.6810 -0.2528
1.6049 -3.5988 -0.2374
1.5743 -3.5791 -0.2481
1.5671 -3.5450 -0.2461
1.5534 -3.5144 -0.2476
1.5639 -3.4722 -0.2363
1.5570 -3.4391 -0.2343
1.5399 -3.4103 -0.2376
1.5071 -3.3867 -0.2487
1.5125 -3.3139 -0.2351
1.4987 -3.2832 -0.2366
1.4731 -3.2550 -0.2437
1.4590 -3.2235 -0.2452
1.4595 -3.1893 -0.2397
1.4612 -3.1556 -0.2338
1.4435 -3.1248 -0.2370
1.4331 -3.0929 -0.2368
1.3961 -3.0296 -0.2437
1.3808 -2.9972 -0.2456
1.3791 -2.9651 -0.2414
1.3765 -2.9333 -0.2376
1.3216 -2.8655 -0.2519
1.3176 -2.8025 -0.2440
1.2937 -2.7676 -0.2494
1.2696 -2.7319 -0.2548
1.2913 -2.7064 -0.2410
1.2808 -2.6740 -0.2408
1.2608 -2.6390 -0.2444
1.2684 -2.6120 -0.2368
1.2580 -2.5799 -0.2365
1.2432 -2.5462 -0.2380
1.2328 -2.5140 -0.2377
1.2179 -2.4801 -0.2392
1.1874 -2.4395 -0.2467
1.1666 -2.4024 -0.2503
1.1514 -2.3673 -0.2518
1.2924 -2.4055 -0.1942
1.3069 -2.3878 -0.1849
1.2767 -2.3481 -0.1924
1.2064 -2.2865 -0.2146
1.1388 -2.2241 -0.2354
1.8584 -4.3064 -0.2679
1.8580 -4.2578 -0.2601
1.8382 -4.2439 -0.2674
1.8306 -4.2086 -0.2653
1.8306 -4.1614 -0.2575
1.8258 -4.1228 -0.2535
1.8107 -4.1000 -0.2570
1.8060 -4.0619 -0.2530
1.7908 -4.0386 -0.2565
1.7808 -4.0079 -0.2563
1.7626 -3.9873 -0.2617
1.7609 -3.9465 -0.2558
1.7325 -3.8943 -0.2609
1.7224 -3.8632 -0.2607
1.7182 -3.8265 -0.2567
1.7082 -3.7957 -0.2564
1.6514 -3.6088 -0.2530
1.5518 -3.3018 -0.2506
1.4346 -2.9638 -0.2515
1.4145 -2.9020 -0.2510
1.3766 -2.8679 -0.2637
1.3864 -2.8391 -0.2542
1.3804 -2.8086 -0.2521
1.3621 -2.7761 -0.2556
1.3520 -2.7448 -0.2553
1.3460 -2.7146 -0.2532
1.3485 -2.6867 -0.2474
1.3301 -2.6535 -0.2509
1.3286 -2.6251 -0.2469
1.3143 -2.5929 -0.2485
1.2826 -2.5544 -0.2575
1.2855 -2.5278 -0.2517
1.2798 -2.4984 -0.2496
1.2697 -2.4674 -0.2494
1.2507 -2.4325 -0.2528
1.2361 -2.3992 -0.2544
1.3156 -2.4105 -0.2179
1.3027 -2.3795 -0.2191
1.2724 -2.3396 -0.2271
1.2407 -2.2980 -0.2355
1.1993 -2.2503 -0.2476
1.9088 -4.2238 -0.2638
1.9035 -4.1869 -0.2601
1.9002 -4.1472 -0.2549
1.8951 -4.1111 -0.2512
1.8858 -4.0824 -0.2509
1.8702 -4.0635 -0.2557
1.8672 -4.0251 -0.2505
1.8619 -3.9909 -0.2472
1.8506 -3.9650 -0.2485
1.8434 -3.9338 -0.2468
1.8368 -3.9019 -0.2446
1.8228 -3.8793 -0.2478
1.8045 -3.8609 -0.2540
1.7923 -3.8350 -0.2558
1.8000 -3.7883 -0.2437
1.7980 -3.7528 -0.2385
1.7837 -3.7294 -0.2417
1.7746 -3.7011 -0.2415
1.7631 -3.6747 -0.2427
1.7388 -3.6583 -0.2524
1.7263 -3.6317 -0.2541
1.7146 -3.6043 -0.2554
1.7130 -3.5699 -0.2502
1.7060 -3.5396 -0.2485
1.7022 -3.5075 -0.2448
1.6825 -3.4847 -0.2510
1.6812 -3.4516 -0.2458
1.6686 -3.4245 -0.2476
1.6710 -3.3906 -0.2404
1.6643 -3.3612 -0.2387
1.6492 -3.3350 -0.2419
1.6348 -3.3082 -0.2447
1.6255 -3.2795 -0.2444
1.5951 -3.2564 -0.2560
1.6006 -3.2236 -0.2474
1.6002 -3.1930 -0.2423
1.6027 -3.1624 -0.2357
1.5790 -3.1362 -0.2433
1.5697 -3.1075 -0.2430
1.5473 -3.0798 -0.2497
1.5417 -3.0506 -0.2475
1.5541 -3.0212 -0.2360
1.5229 -2.9927 -0.2470
1.5193 -2.9640 -0.2438
1.5002 -2.9346 -0.2485
1.4947 -2.9059 -0.2463
1.4883 -2.8773 -0.2446
1.4790 -2.8484 -0.2444
1.4767 -2.8207 -0.2407
1.4775 -2.7940 -0.2356
1.4581 -2.7634 -0.2403
1.4488 -2.7347 -0.2400
1.4322 -2.7041 -0.2432
1.4260 -2.6761 -0.2415
1.4029 -2.6431 -0.2476
1.3891 -2.6125 -0.2493
1.3840 -2.5848 -0.2472
1.3886 -2.5610 -0.2406
1.3793 -2.5322 -0.2404
1.3667 -2.5021 -0.2416
1.3606 -2.4747 -0.2399
1.3591 -2.4495 -0.2363
1.3352 -2.4139 -0.2423
1.3440 -2.3940 -0.2343
1.3313 -2.3637 -0.2356
1.3140 -2.3308 -0.2387
1.3046 -2.3020 -0.2385
1.9436 -4.1691 -0.2690
1.9363 -4.1378 -0.2672
1.9290 -4.1067 -0.2653
1.9199 -4.0788 -0.2651
1.9134 -4.0469 -0.2628
1.9081 -4.0132 -0.2594
1.9011 -3.9828 -0.2576
1.8980 -3.9469 -0.2527
1.8783 -3.8949 -0.2538
1.8605 -3.8401 -0.2534
1.7804 -3.6281 -0.2579
1.6499 -3.1820 -0.2465
1.6241 -3.1285 -0.2507
1.5945 -3.0460 -0.2516
1.5227 -2.8249 -0.2498
1.4976 -2.7941 -0.2578
1.4916 -2.7667 -0.2561
1.4989 -2.7427 -0.2476
1.4807 -2.7127 -0.2520
1.4644 -2.6827 -0.2554
1.4658 -2.6581 -0.2500
1.4536 -2.6293 -0.2513
1.4404 -2.5999 -0.2532
1.4389 -2.5749 -0.2494
1.4223 -2.5441 -0.2527
1.4099 -2.5148 -0.2540
1.4119 -2.4918 -0.2487
1.3951 -2.4604 -0.2520
1.3861 -2.4325 -0.2518
1.3815 -2.4069 -0.2495
1.3725 -2.3791 -0.2493
1.3589 -2.3488 -0.2511
1.9790 -4.0696 -0.2619
1.9753 -4.0348 -0.2573
1.9638 -4.0138 -0.2598
1.9565 -3.9855 -0.2585
1.9536 -3.9506 -0.2533
1.9432 -3.9274 -0.2548
1.9386 -3.8958 -0.2513
1.9283 -3.8726 -0.2527
1.9199 -3.8466 -0.2525
1.9114 -3.8206 -0.2523
1.8969 -3.8020 -0.2570
1.8905 -3.7734 -0.2552
1.8917 -3.7366 -0.2473
1.8833 -3.7108 -0.2471
1.8714 -3.6886 -0.2496
1.8609 -3.6647 -0.2510
1.8524 -3.6387 -0.2508
1.8499 -3.6078 -0.2462
1.8378 -3.5850 -0.2488
1.8272 -3.5608 -0.2502
1.8187 -3.5348 -0.2500
1.8141 -3.5062 -0.2470
1.7974 -3.4545 -0.2466
1.7850 -3.4309 -0.2491
1.7722 -3.3770 -0.2460
1.7638 -3.3511 -0.2458
1.7463 -3.3289 -0.2516
1.7412 -3.2727 -0.2435
1.7209 -3.2505 -0.2510
1.7150 -3.2236 -0.2491
1.7013 -3.1988 -0.2522
1.7034 -3.1705 -0.2454
1.6950 -3.1446 -0.2452
1.6785 -3.1197 -0.2499
1.6800 -3.0926 -0.2437
1.6716 -3.0667 -0.2435
1.6688 -3.0406 -0.2400
1.6549 -3.0150 -0.2431
1.6446 -2.9891 -0.2439
1.6333 -2.9631 -0.2454
1.6249 -2.9371 -0.2452
1.6213 -2.9116 -0.2422
1.5914 -2.8831 -0.2540
1.5888 -2.8575 -0.2505
1.5713 -2.8297 -0.2552
1.5597 -2.8026 -0.2566
1.5480 -2.7753 -0.2580
1.5741 -2.7572 -0.2394
1.5431 -2.7253 -0.2511
1.5491 -2.7032 -0.2433
1.5438 -2.6783 -0.2414
1.5227 -2.6480 -0.2477
1.5206 -2.6241 -0.2443
1.5121 -2.5981 -0.2441
1.4972 -2.5694 -0.2471
1.5039 -2.5497 -0.2393
1.4934 -2.5228 -0.2402
1.4783 -2.4938 -0.2432
1.4766 -2.4710 -0.2398
1.4704 -2.4462 -0.2385
1.4620 -2.4204 -0.2383
1.4479 -2.3914 -0.2407
1.9781 -3.9583 -0.2707
1.9717 -3.9299 -0.2688
1.9665 -3.8997 -0.2657
1.9501 -3.8862 -0.2730
1.9552 -3.8419 -0.2607
1.9451 -3.8193 -0.2622
1.9475 -3.7807 -0.2527
1.8469 -3.4560 -0.2473
1.8309 -3.4067 -0.2469
1.8069 -3.3328 -0.2463
1.8071 -3.3048 -0.2403
1.7829 -3.2588 -0.2457
1.7395 -3.1624 -0.2523
1.7473 -3.1348 -0.2418
1.7235 -3.0612 -0.2412
1.7155 -3.0367 -0.2410
1.7094 -3.0122 -0.2397
1.6936 -2.9632 -0.2393
1.6790 -2.9383 -0.2431
1.6630 -2.8890 -0.2427
1.6550 -2.8643 -0.2425
1.6440 -2.8391 -0.2440
1.6340 -2.8140 -0.2449
1.6280 -2.7897 -0.2436
1.6017 -2.7374 -0.2489
1.5967 -2.7133 -0.2470
1.5907 -2.6891 -0.2456
1.5826 -2.6642 -0.2454
1.5449 -2.5624 -0.2475
1.5232 -2.5098 -0.2499
1.5151 -2.4846 -0.2497
1.5069 -2.4595 -0.2495
1.5022 -2.4362 -0.2476
2.0572 -3.9813 -0.2551
2.0507 -3.9555 -0.2537
2.0259 -3.9245 -0.2630
2.0235 -3.8915 -0.2574
2.0084 -3.8793 -0.2644
2.0080 -3.8438 -0.2570
2.0003 -3.8200 -0.2568
1.9926 -3.7962 -0.2566
1.9894 -3.7663 -0.2522
1.9863 -3.7369 -0.2477
1.9727 -3.7207 -0.2530
1.9556 -3.7079 -0.2613
1.9573 -3.6733 -0.2526
1.9428 -3.6569 -0.2585
1.9433 -3.6245 -0.2510
1.9322 -3.6042 -0.2538
1.9280 -3.5772 -0.2506
1.9305 -3.5449 -0.2420
1.9076 -3.5341 -0.2545
1.9087 -3.5034 -0.2470
1.8973 -3.4826 -0.2499
1.8859 -3.4615 -0.2527
1.8858 -3.4329 -0.2465
1.8635 -3.4181 -0.2577
1.8542 -3.3950 -0.2587
1.8606 -3.3636 -0.2477
1.8417 -3.3453 -0.2559
1.8453 -3.3164 -0.2473
1.8360 -3.2935 -0.2483
1.8184 -3.2734 -0.2554
1.8148 -3.2481 -0.2522
1.8130 -3.2225 -0.2478
1.8011 -3.2000 -0.2506
1.7959 -3.1757 -0.2486
1.7902 -3.1267 -0.2416
1.7809 -3.1035 -0.2426
1.7607 -3.0813 -0.2508
1.7449 -3.0580 -0.2560
1.7517 -3.0334 -0.2462
1.7486 -3.0097 -0.2431
1.7382 -2.9862 -0.2447
1.7390 -2.9630 -0.2391
1.7191 -2.9387 -0.2467
1.7238 -2.9163 -0.2387
1.7163 -2.8929 -0.2385
1.7048 -2.8690 -0.2407
1.6697 -2.8405 -0.2572
1.6757 -2.8192 -0.2487
1.6820 -2.7986 -0.2402
1.6693 -2.7738 -0.2429
1.6404 -2.7443 -0.2553
1.6632 -2.7295 -0.2372
1.6391 -2.7007 -0.2465
1.6387 -2.6795 -0.2422
1.6342 -2.6571 -0.2402
1.6213 -2.6315 -0.2430
1.6062 -2.6047 -0.2470
1.6006 -2.5818 -0.2456
1.5810 -2.5526 -0.2519
1.5699 -2.5269 -0.2535
1.5698 -2.5066 -0.2492
1.5731 -2.4885 -0.2430
1.5576 -2.4605 -0.2470
1.5600 -2.4423 -0.2415
2.0776 -3.9138 -0.2543
2.0124 -3.7411 -0.2592
2.0087 -3.6816 -0.2480
1.9987 -3.6622 -0.2504
1.9995 -3.6306 -0.2426
1.9868 -3.6141 -0.2475
1.9781 -3.5931 -0.2486
1.9708 -3.5705 -0.2484
1.9591 -3.5230 -0.2455
1.8891 -3.3498 -0.2535
1.8848 -3.2995 -0.2450
1.8742 -3.2784 -0.2473
1.8629 -3.2321 -0.2444
1.8464 -3.2124 -0.2511
1.8407 -3.1892 -0.2497
1.8317 -3.1668 -0.2508
1.8300 -3.1192 -0.2410
1.8262 -3.0964 -0.2383
1.8332 -3.0728 -0.2281
1.8082 -3.0295 -0.2353
1.7763 -2.9848 -0.2468
1.7755 -2.9625 -0.2422
1.7542 -2.9168 -0.2462
1.7431 -2.8937 -0.2486
1.7502 -2.8732 -0.2390
1.7175 -2.8035 -0.2453
1.7132 -2.7817 -0.2433
1.7058 -2.7591 -0.2431
1.6881 -2.7129 -0.2446
1.6787 -2.6895 -0.2457
1.6672 -2.6652 -0.2480
1.6713 -2.6470 -0.2409
1.6450 -2.5968 -0.2474
1.6249 -2.5294 -0.2456
1.5979 -2.4772 -0.2521
2.1017 -3.8765 -0.2556
2.0969 -3.8506 -0.2527
2.0852 -3.8370 -0.2578
2.0817 -3.8092 -0.2537
2.0710 -3.7932 -0.2575
2.0639 -3.7714 -0.2573
2.0556 -3.7513 -0.2585
2.0497 -3.7276 -0.2570
2.0401 -3.7091 -0.2594
2.0304 -3.6904 -0.2619
2.0259 -3.6651 -0.2591
2.0227 -3.6385 -0.2549
2.0209 -3.6107 -0.2495
2.0085 -3.5948 -0.2546
2.0014 -3.5730 -0.2544
1.9985 -3.5471 -0.2503
1.9901 -3.5268 -0.2514
1.9731 -3.4857 -0.2537
1.9602 -3.4683 -0.2588
1.9634 -3.4388 -0.2494
1.9489 -3.4222 -0.2558
1.9388 -3.4022 -0.2582
1.9377 -3.3765 -0.2528
1.9368 -3.3512 -0.2474
1.9282 -3.3304 -0.2485
1.9117 -3.3133 -0.2562
1.9197 -3.2846 -0.2436
1.8975 -3.2693 -0.2559
1.8985 -3.2443 -0.2491
1.8898 -3.2231 -0.2503
1.8827 -3.2013 -0.2501
1.8754 -3.1563 -0.2445
1.8640 -3.1127 -0.2422
1.8474 -3.0925 -0.2492
1.8483 -3.0699 -0.2432
1.8368 -3.0487 -0.2463
1.8244 -3.0272 -0.2500
1.8192 -3.0053 -0.2485
1.8084 -2.9835 -0.2509
1.8013 -2.9616 -0.2508
1.7815 -2.9172 -0.2543
1.7943 -2.8979 -0.2405
1.7787 -2.8750 -0.2462
1.7717 -2.8532 -0.2460
1.7627 -2.8311 -0.2471
1.7536 -2.8089 -0.2482
1.7545 -2.7891 -0.2429
1.7435 -2.7663 -0.2453
1.7263 -2.7415 -0.2516
1.7294 -2.7229 -0.2449
1.7162 -2.6989 -0.2486
1.7111 -2.6779 -0.2472
1.7041 -2.6560 -0.2470
1.7012 -2.6360 -0.2442
1.6963 -2.6152 -0.2428
1.6914 -2.5945 -0.2413
1.6779 -2.5698 -0.2450
1.6665 -2.5457 -0.2474
1.6572 -2.5227 -0.2485
1.6589 -2.5056 -0.2432
1.6430 -2.4788 -0.2482
2.1062 -3.7747 -0.2531
2.0977 -3.7568 -0.2550
2.0748 -3.6975 -0.2573
2.0557 -3.6328 -0.2554
2.0454 -3.5871 -0.2516
2.0433 -3.5612 -0.2466
2.0366 -3.5405 -0.2465
2.0278 -3.5219 -0.2484
2.0232 -3.4992 -0.2461
2.0144 -3.4804 -0.2480
2.0098 -3.4579 -0.2458
2.0023 -3.4378 -0.2463
2.0044 -3.4107 -0.2380
1.9978 -3.3903 -0.2378
1.9845 -3.3743 -0.2438
1.9755 -3.3551 -0.2457
1.9688 -3.3344 -0.2455
1.9590 -3.3153 -0.2481
1.9577 -3.2919 -0.2431
1.9526 -3.2706 -0.2416
1.9336 -3.2315 -0.2460
1.9212 -3.2126 -0.2506
1.9160 -3.1686 -0.2435
1.9067 -3.1486 -0.2454
1.9060 -3.1267 -0.2404
1.9019 -3.1057 -0.2382
1.8831 -3.0868 -0.2476
1.8746 -3.0661 -0.2488
1.8713 -3.0450 -0.2459
1.8548 -3.0245 -0.2532
1.8511 -2.9826 -0.2454
1.8526 -2.9622 -0.2391
1.8441 -2.9415 -0.2403
1.8262 -2.9197 -0.2483
1.8279 -2.8999 -0.2420
1.8241 -2.8797 -0.2398
1.8020 -2.8561 -0.2505
1.8078 -2.8379 -0.2415
1.8079 -2.8188 -0.2366
1.7924 -2.7960 -0.2425
1.7797 -2.7735 -0.2464
1.7719 -2.7522 -0.2469
1.7682 -2.7324 -0.2447
1.7502 -2.7074 -0.2520
1.7495 -2.6887 -0.2478
1.7479 -2.6698 -0.2442
1.7244 -2.6058 -0.2457
1.7176 -2.5848 -0.2456
1.7108 -2.5639 -0.2454
1.6973 -2.5220 -0.2450
1.6883 -2.4998 -0.2462
2.1470 -3.8056 -0.2548
2.1382 -3.7897 -0.2575
2.1251 -3.7493 -0.2572
2.1215 -3.7243 -0.2535
2.1150 -3.7042 -0.2533
2.1001 -3.6667 -0.2551
2.0948 -3.6448 -0.2535
2.0921 -3.6198 -0.2491
2.0805 -3.6062 -0.2546
2.0695 -3.5915 -0.2595
2.0622 -3.5443 -0.2527
2.0524 -3.5277 -0.2561
2.0492 -3.5041 -0.2524
2.0447 -3.4821 -0.2501
2.0318 -3.4420 -0.2498
2.0209 -3.4004 -0.2473
2.0101 -3.3835 -0.2514
2.0058 -3.3620 -0.2491
1.9896 -3.3478 -0.2582
1.9772 -3.2601 -0.2448
1.9627 -3.2209 -0.2459
1.9417 -3.2058 -0.2585
1.9449 -3.1825 -0.2498
1.9244 -3.1660 -0.2617
1.9302 -3.1426 -0.2509
1.9296 -3.1214 -0.2458
1.9132 -3.0819 -0.2483
1.9067 -3.0618 -0.2481
1.8975 -3.0419 -0.2501
1.8972 -3.0215 -0.2450
1.8734 -2.9813 -0.2531
1.8777 -2.9616 -0.2445
1.8621 -2.9409 -0.2514
1.8555 -2.9206 -0.2512
1.8536 -2.9011 -0.2475
1.8511 -2.8629 -0.2394
1.8293 -2.8397 -0.2506
1.8256 -2.8202 -0.2483
1.8220 -2.8008 -0.2460
1.8106 -2.7793 -0.2494
1.8060 -2.7597 -0.2478
1.8045 -2.7413 -0.2441
1.7899 -2.7183 -0.2496
1.7782 -2.6960 -0.2529
1.7768 -2.6778 -0.2493
