ply
format ascii 1.0
element vertex 2133
property float x
property float y
property float z
end_header
5.9718 -1.3785 -0.4781
5.9580 -1.3924 -0.4809
5.9273 -1.4241 -0.4769
5.9174 -1.4338 -0.4830
5.9057 -1.4456 -0.4847
5.8943 -1.4572 -0.4858
5.8717 -1.4804 -0.4849
5.8593 -1.4935 -0.4797
5.8511 -1.5016 -0.4836
5.8426 -1.5101 -0.4859
5.8326 -1.5206 -0.4831
5.8237 -1.5298 -0.4821
5.8145 -1.5393 -0.4793
5.8076 -1.5462 -0.4820
5.8004 -1.5535 -0.4832
5.7926 -1.5616 -0.4813
5.7853 -1.5691 -0.4803
5.7803 -1.5737 -0.4868
6.5675 -0.8050 0.4191
6.5583 -0.8125 0.3945
6.5537 -0.8151 0.3715
6.5500 -0.8169 0.3486
6.5434 -0.8216 0.3245
6.5577 -0.8045 0.3058
6.5426 -0.8180 0.2790
6.5491 -0.8089 0.2569
6.5488 -0.8046 0.2082
6.5388 -0.8126 0.1817
6.5374 -0.8117 0.1562
6.5350 -0.8118 0.1301
6.5482 -0.7951 0.1041
6.5378 -0.8036 0.0765
6.5217 -0.8181 0.0490
6.5395 -0.7963 0.0202
6.5408 -0.7921 -0.0091
6.5363 -0.7940 -0.0386
6.5285 -0.7995 -0.0679
6.5413 -0.7825 -0.1013
6.5301 -0.7916 -0.1311
6.5346 -0.7836 -0.1649
6.5328 -0.7823 -0.1980
6.5476 -0.7520 -0.3483
6.5490 -0.7466 -0.3880
6.5297 -0.7644 -0.4177
6.5153 -0.7726 -0.4906
6.3930 -0.9036 -0.4865
6.3046 -0.9977 -0.4907
6.2267 -1.0808 -0.4904
6.1240 -1.1916 -0.4801
6.1001 -1.2168 -0.4826
6.0556 -1.2641 -0.4855
6.0141 -1.3085 -0.4846
5.9776 -1.3476 -0.4835
5.9633 -1.3626 -0.4868
5.9492 -1.3774 -0.4892
5.9192 -1.4097 -0.4861
5.9043 -1.4261 -0.4822
5.8893 -1.4426 -0.4763
5.8696 -1.4630 -0.4829
5.8598 -1.4733 -0.4848
5.8503 -1.4833 -0.4862
5.8381 -1.4970 -0.4793
5.8287 -1.5072 -0.4783
5.8206 -1.5156 -0.4801
5.8127 -1.5239 -0.4815
5.8039 -1.5336 -0.4788
5.7978 -1.5396 -0.4841
5.7890 -1.5495 -0.4791
5.7815 -1.5577 -0.4773
5.7751 -1.5643 -0.4790
5.7695 -1.5699 -0.4829
6.5540 -0.7806 0.4082
6.5324 -0.7988 0.3571
6.5533 -0.7710 0.3180
6.5356 -0.7875 0.2899
6.5371 -0.7832 0.2665
6.5308 -0.7844 0.2162
6.5316 -0.7806 0.1911
6.5298 -0.7797 0.1650
6.5195 -0.7880 0.1377
6.5117 -0.7936 0.1106
6.5181 -0.7833 0.0836
6.5108 -0.7883 0.0557
6.5244 -0.7664 -0.0029
6.5248 -0.7624 -0.0333
6.5325 -0.7501 -0.0655
6.5271 -0.7525 -0.0967
6.5216 -0.7551 -0.1283
6.5137 -0.7603 -0.1597
6.5079 -0.7631 -0.1921
6.5263 -0.7203 -0.3851
6.5202 -0.7229 -0.4224
6.5054 -0.7307 -0.4975
6.4441 -0.7990 -0.4981
6.2102 -1.0607 -0.4922
6.0860 -1.2002 -0.4854
6.0616 -1.2274 -0.4849
6.0399 -1.2515 -0.4857
5.9991 -1.2972 -0.4847
5.9511 -1.3502 -0.4902
5.9350 -1.3683 -0.4887
5.9180 -1.3879 -0.4834
5.9050 -1.4023 -0.4842
5.8919 -1.4171 -0.4833
5.8816 -1.4280 -0.4873
5.8683 -1.4435 -0.4829
5.8573 -1.4557 -0.4825
5.8466 -1.4678 -0.4815
5.8369 -1.4785 -0.4819
5.8298 -1.4858 -0.4882
5.8198 -1.4973 -0.4853
5.8034 -1.5154 -0.4868
5.7938 -1.5268 -0.4807
5.7868 -1.5344 -0.4825
5.7780 -1.5449 -0.4764
5.7723 -1.5508 -0.4810
5.7655 -1.5585 -0.4802
5.7597 -1.5646 -0.4829
6.5383 -0.7626 0.4396
6.5450 -0.7522 0.4208
6.5354 -0.7600 0.3953
6.5363 -0.7560 0.3733
6.5291 -0.7610 0.3483
6.5232 -0.7614 0.3000
6.5208 -0.7609 0.2755
6.5191 -0.7596 0.2506
6.4959 -0.7828 0.2214
6.4965 -0.7787 0.1966
6.5112 -0.7548 0.1463
6.5093 -0.7533 0.1190
6.5073 -0.7520 0.0911
6.5050 -0.7509 0.0626
6.4972 -0.7561 0.0338
6.4975 -0.7517 0.0042
6.5012 -0.7433 -0.0265
6.5053 -0.7342 -0.0584
6.4939 -0.7435 -0.0886
6.5002 -0.7315 -0.1226
6.4921 -0.7368 -0.1544
6.4956 -0.7279 -0.1899
6.3108 -0.9031 -0.4917
6.2257 -1.0027 -0.4903
6.1903 -1.0439 -0.4909
6.0961 -1.1544 -0.4872
6.0466 -1.2123 -0.4867
6.0019 -1.2648 -0.4833
5.9652 -1.3077 -0.4834
5.9485 -1.3273 -0.4832
5.9339 -1.3440 -0.4852
5.8924 -1.3924 -0.4859
5.8788 -1.4086 -0.4833
5.8676 -1.4215 -0.4847
5.8539 -1.4383 -0.4784
5.8433 -1.4507 -0.4781
5.8356 -1.4589 -0.4844
5.8273 -1.4681 -0.4882
5.8163 -1.4816 -0.4829
5.8070 -1.4927 -0.4811
5.7993 -1.5014 -0.4832
5.7905 -1.5121 -0.4803
5.7832 -1.5205 -0.4814
5.7748 -1.5308 -0.4772
5.7688 -1.5373 -0.4811
5.7620 -1.5453 -0.4808
5.7554 -1.5531 -0.4801
6.5116 -0.7508 0.4240
6.5150 -0.7435 0.4037
6.5206 -0.7334 0.3835
6.5167 -0.7345 0.3593
6.5176 -0.7298 0.3363
6.5100 -0.7350 0.3103
6.5162 -0.7239 0.2877
6.5028 -0.7361 0.2597
6.4822 -0.7567 0.2305
6.4965 -0.7357 0.2077
6.4918 -0.7331 0.1542
6.4865 -0.7353 0.1264
6.4930 -0.7230 0.0988
6.5109 -0.6966 0.0700
6.5026 -0.7022 0.0400
6.4978 -0.7033 0.0096
6.4864 -0.7125 -0.0206
6.4723 -0.7253 -0.0504
6.4692 -0.7241 -0.0820
6.4666 -0.7222 -0.1143
6.4671 -0.7163 -0.1482
6.4825 -0.6914 -0.1875
6.4873 -0.6678 -0.3020
6.4494 -0.6852 -0.4890
6.1353 -1.0695 -0.4873
6.0775 -1.1403 -0.4860
6.0286 -1.2004 -0.4850
5.9854 -1.2536 -0.4823
5.9511 -1.2951 -0.4852
5.9207 -1.3319 -0.4877
5.8926 -1.3662 -0.4879
5.8799 -1.3817 -0.4884
5.8663 -1.3988 -0.4852
5.8437 -1.4265 -0.4847
5.8326 -1.4404 -0.4828
5.8236 -1.4510 -0.4852
5.8141 -1.4626 -0.4849
5.8042 -1.4752 -0.4818
5.7956 -1.4859 -0.4813
5.7868 -1.4969 -0.4791
5.7804 -1.5039 -0.4843
5.7727 -1.5135 -0.4832
5.7658 -1.5219 -0.4841
5.7587 -1.5306 -0.4832
5.7455 -1.5472 -0.4813
6.5240 -0.6987 0.4686
6.5014 -0.7220 0.4369
6.5235 -0.6913 0.4240
6.5110 -0.7025 0.3963
6.4877 -0.7228 0.3419
6.4834 -0.7195 0.2930
6.4756 -0.7248 0.2665
6.4684 -0.7293 0.2400
6.4818 -0.7081 0.2170
6.4772 -0.7091 0.1898
6.4799 -0.7009 0.1631
6.4808 -0.6948 0.1354
6.4778 -0.6936 0.1067
6.4725 -0.6952 0.0774
6.4761 -0.6853 0.0475
6.4703 -0.6873 0.0170
6.4589 -0.6965 -0.0133
6.4474 -0.7002 -0.0759
6.4779 -0.6476 -0.1512
6.4624 -0.6619 -0.1831
6.4536 -0.6155 -0.5078
6.3714 -0.7236 -0.4926
6.2694 -0.8545 -0.4921
6.1842 -0.9644 -0.4885
6.0644 -1.1175 -0.4923
6.0126 -1.1849 -0.4866
5.9345 -1.2857 -0.4830
5.9090 -1.3164 -0.4942
5.8755 -1.3616 -0.4813
5.8640 -1.3759 -0.4836
5.8524 -1.3907 -0.4842
5.8298 -1.4201 -0.4821
5.8202 -1.4323 -0.4833
5.8114 -1.4431 -0.4859
5.8019 -1.4555 -0.4848
5.7926 -1.4676 -0.4829
5.7845 -1.4779 -0.4837
5.7761 -1.4891 -0.4816
5.7690 -1.4978 -0.4835
5.7613 -1.5081 -0.4815
5.7548 -1.5161 -0.4836
5.7482 -1.5244 -0.4841
5.7416 -1.5331 -0.4829
5.7351 -1.5417 -0.4811
6.5011 -0.6837 0.4767
6.4992 -0.6772 0.4317
6.4811 -0.6956 0.4017
6.4766 -0.6966 0.3772
6.4822 -0.6848 0.3558
6.4851 -0.6762 0.3327
6.4670 -0.6945 0.3029
6.4726 -0.6824 0.2795
6.4678 -0.6727 0.1999
6.4820 -0.6484 0.1743
6.4595 -0.6725 0.1434
6.4624 -0.6628 0.1149
6.4539 -0.6683 0.0851
6.4541 -0.6618 0.0549
6.4487 -0.6630 0.0242
6.4484 -0.6570 -0.0075
6.4516 -0.6460 -0.0405
6.4512 -0.6397 -0.0741
6.4574 -0.6241 -0.1101
6.4612 -0.6115 -0.1472
6.4419 -0.6312 -0.1786
6.3662 -0.6670 -0.5064
6.1395 -0.9736 -0.5000
6.0394 -1.1118 -0.4835
6.0208 -1.1353 -0.4913
5.9953 -1.1706 -0.4867
5.9564 -1.2226 -0.4885
5.9205 -1.2715 -0.4862
5.9067 -1.2892 -0.4901
5.8914 -1.3100 -0.4890
5.8762 -1.3311 -0.4860
5.8629 -1.3492 -0.4851
5.8398 -1.3800 -0.4869
5.8282 -1.3960 -0.4851
5.8072 -1.4247 -0.4828
5.7981 -1.4368 -0.4835
5.7886 -1.4500 -0.4814
5.7809 -1.4599 -0.4840
5.7722 -1.4721 -0.4816
5.7651 -1.4811 -0.4842
5.7574 -1.4917 -0.4828
5.7507 -1.5005 -0.4844
5.7435 -1.5107 -0.4819
5.7371 -1.5192 -0.4825
5.7305 -1.5286 -0.4801
5.7251 -1.5351 -0.4835
6.4777 -0.6642 0.4630
6.4747 -0.6631 0.4395
6.4646 -0.6713 0.4126
6.4474 -0.6836 0.3599
6.4499 -0.6748 0.3372
6.4499 -0.6693 0.3129
6.4548 -0.6570 0.2893
6.4715 -0.6284 0.2676
6.4526 -0.6480 0.2367
6.4361 -0.6646 0.2067
6.4412 -0.6514 0.1802
6.4437 -0.6414 0.1522
6.4439 -0.6345 0.1232
6.4464 -0.6241 0.0933
6.4296 -0.6410 0.0625
6.4406 -0.6182 0.0309
6.4262 -0.6314 -0.0004
6.4200 -0.6329 -0.0325
6.4283 -0.6130 -0.0676
6.4276 -0.6061 -0.1025
6.4277 -0.5977 -0.1388
6.4368 -0.5756 -0.1789
6.3933 -0.5641 -0.4993
6.1162 -0.9573 -0.4971
6.0786 -1.0123 -0.4892
6.0536 -1.0469 -0.4933
6.0054 -1.1145 -0.4960
5.9585 -1.1827 -0.4887
5.9204 -1.2373 -0.4855
5.8890 -1.2819 -0.4857
5.8627 -1.3182 -0.4893
5.8475 -1.3412 -0.4828
5.8360 -1.3573 -0.4838
5.8242 -1.3744 -0.4822
5.8152 -1.3861 -0.4870
5.7935 -1.4183 -0.4803
5.7864 -1.4269 -0.4872
5.7762 -1.4427 -0.4812
5.7605 -1.4645 -0.4828
5.7462 -1.4844 -0.4843
5.7323 -1.5048 -0.4814
5.7262 -1.5134 -0.4821
5.7198 -1.5229 -0.4798
5.7146 -1.5295 -0.4833
5.7098 -1.5350 -0.4891
6.4533 -0.6501 0.4709
6.4455 -0.6551 0.4452
6.4452 -0.6498 0.4227
6.4535 -0.6324 0.4032
6.4347 -0.6463 0.3484
6.4533 -0.6005 0.2778
6.4311 -0.6253 0.2457
6.4363 -0.6108 0.2195
6.4477 -0.5871 0.1932
6.4565 -0.5667 0.1649
6.4446 -0.5763 0.1334
6.4245 -0.5982 0.1015
6.4184 -0.5993 0.0703
6.4325 -0.5699 0.0380
6.4288 -0.5669 0.0048
6.4164 -0.5769 -0.0280
6.4253 -0.5544 -0.0643
6.4219 -0.5503 -0.1001
6.4279 -0.5313 -0.1391
6.4242 -0.5270 -0.1770
6.4043 -0.5483 -0.2100
6.3651 -0.5331 -0.4971
6.3014 -0.6292 -0.4933
6.2625 -0.6842 -0.5051
6.1646 -0.8329 -0.4957
6.0963 -0.9339 -0.4989
6.0686 -0.9744 -0.5027
6.0396 -1.0180 -0.5016
6.0058 -1.0714 -0.4897
5.9865 -1.0986 -0.4960
5.9417 -1.1670 -0.4903
5.9205 -1.2000 -0.4850
5.9057 -1.2210 -0.4895
5.8882 -1.2480 -0.4861
5.8732 -1.2704 -0.4859
5.8613 -1.2869 -0.4909
5.8463 -1.3106 -0.4860
5.8230 -1.3448 -0.4878
5.8003 -1.3799 -0.4833
5.7816 -1.4075 -0.4846
5.7633 -1.4360 -0.4800
5.7562 -1.4456 -0.4838
5.7474 -1.4605 -0.4775
5.7413 -1.4679 -0.4835
5.7352 -1.4759 -0.4881
5.7277 -1.4883 -0.4831
5.7212 -1.4983 -0.4820
5.7153 -1.5070 -0.4828
5.7095 -1.5155 -0.4832
5.7041 -1.5233 -0.4843
5.6989 -1.5305 -0.4864
6.4362 -0.6252 0.4826
6.4415 -0.6113 0.4632
6.4383 -0.6093 0.4390
6.4651 -0.5637 0.4274
6.4683 -0.5520 0.4040
6.4543 -0.5422 0.2938
6.4460 -0.5467 0.2638
6.4227 -0.5739 0.2304
6.4368 -0.5441 0.2043
6.4426 -0.5265 0.1752
6.4305 -0.5364 0.1430
6.4214 -0.5414 0.1109
6.4152 -0.5418 0.0787
6.4172 -0.5293 0.0457
6.4228 -0.5105 0.0112
6.4163 -0.5107 -0.0235
6.4006 -0.5258 -0.0573
6.3938 -0.5262 -0.0928
6.3888 -0.5124 -0.1681
6.3907 -0.4975 -0.2091
6.3332 -0.5066 -0.4924
6.2286 -0.6702 -0.4966
6.1943 -0.7210 -0.5083
6.1091 -0.8574 -0.5007
6.0113 -1.0147 -0.4903
5.9650 -1.0870 -0.4922
5.9419 -1.1245 -0.4884
5.9244 -1.1510 -0.4919
5.8890 -1.2072 -0.4904
5.8323 -1.2967 -0.4900
5.8189 -1.3191 -0.4858
5.8082 -1.3356 -0.4874
5.7972 -1.3532 -0.4863
5.7864 -1.3711 -0.4833
5.7684 -1.3990 -0.4850
5.7583 -1.4168 -0.4783
5.7506 -1.4286 -0.4797
5.7441 -1.4370 -0.4858
5.7364 -1.4497 -0.4840
5.7223 -1.4726 -0.4816
5.7159 -1.4828 -0.4812
5.7092 -1.4947 -0.4767
5.7035 -1.5034 -0.4775
5.6987 -1.5092 -0.4840
5.6931 -1.5182 -0.4828
5.6880 -1.5260 -0.4837
6.4631 -0.5409 0.5417
6.4638 -0.5325 0.5194
6.4557 -0.5371 0.4919
6.4283 -0.5633 0.4312
6.4220 -0.5571 0.3796
6.4215 -0.5497 0.3540
6.4077 -0.5629 0.3232
6.4209 -0.5335 0.3008
6.3985 -0.5600 0.2672
6.4059 -0.5394 0.2412
6.4134 -0.5083 0.1837
6.4185 -0.4900 0.1533
6.4060 -0.5001 0.1202
6.3993 -0.5006 0.0873
6.3959 -0.4956 0.0538
6.3949 -0.4861 0.0193
6.3908 -0.4816 -0.0159
6.3842 -0.4811 -0.0516
6.3858 -0.4661 -0.0896
6.3880 -0.4496 -0.1294
6.3840 -0.4436 -0.1689
6.3761 -0.4441 -0.2080
6.3071 -0.4673 -0.4929
6.1653 -0.7002 -0.5040
6.0845 -0.8366 -0.4988
6.0527 -0.8893 -0.4997
5.9252 -1.1042 -0.4926
5.9047 -1.1394 -0.4893
5.8841 -1.1762 -0.4820
5.8675 -1.2043 -0.4805
5.8386 -1.2527 -0.4800
5.8038 -1.3088 -0.4859
5.7927 -1.3276 -0.4851
5.7629 -1.3782 -0.4822
5.7545 -1.3918 -0.4834
5.7386 -1.4179 -0.4845
5.7314 -1.4297 -0.4856
5.7245 -1.4406 -0.4871
5.7166 -1.4563 -0.4794
5.7112 -1.4626 -0.4875
5.7049 -1.4736 -0.4862
5.6987 -1.4845 -0.4843
5.6873 -1.5045 -0.4812
5.6823 -1.5125 -0.4825
6.4480 -0.5000 0.5343
6.4130 -0.5382 0.4687
6.4227 -0.5142 0.4498
6.4200 -0.5096 0.4240
6.4087 -0.5188 0.3938
6.4050 -0.5156 0.3667
6.3992 -0.5156 0.3383
6.3926 -0.5168 0.3093
6.3920 -0.5079 0.2816
6.4103 -0.4561 0.2278
6.3978 -0.4662 0.1947
6.3854 -0.4763 0.1616
6.3757 -0.4816 0.1288
6.3693 -0.4811 0.0958
6.3814 -0.4349 0.0269
6.3739 -0.4352 -0.0090
6.3666 -0.4348 -0.0455
6.3683 -0.4179 -0.0844
6.3763 -0.3885 -0.1267
6.3470 -0.4284 -0.1596
6.3545 -0.3989 -0.2046
6.3528 -0.3862 -0.2482
6.2653 -0.4572 -0.4807
6.2267 -0.5197 -0.4965
6.1799 -0.6013 -0.4996
5.9026 -1.0967 -0.4858
5.8887 -1.1178 -0.4952
5.8686 -1.1559 -0.4879
5.8407 -1.2030 -0.4942
5.8006 -1.2755 -0.4895
5.7881 -1.2992 -0.4851
5.7773 -1.3189 -0.4836
5.7674 -1.3362 -0.4838
5.7593 -1.3485 -0.4894
5.7501 -1.3654 -0.4879
5.7409 -1.3833 -0.4836
5.7329 -1.3975 -0.4832
5.7182 -1.4235 -0.4833
5.7119 -1.4333 -0.4871
5.7055 -1.4442 -0.4882
5.6984 -1.4593 -0.4810
5.6925 -1.4699 -0.4809
5.6868 -1.4796 -0.4814
5.6815 -1.4886 -0.4825
5.6764 -1.4975 -0.4832
5.6714 -1.5062 -0.4835
6.4242 -0.4876 0.5677
6.4238 -0.4790 0.5450
6.4180 -0.4794 0.5184
6.3949 -0.4887 0.4340
6.3966 -0.4758 0.4096
6.3960 -0.4664 0.3833
6.3881 -0.4469 0.2979
6.3701 -0.4670 0.2639
6.3800 -0.4374 0.2367
6.3847 -0.4165 0.2068
6.3752 -0.4210 0.1732
6.3800 -0.3989 0.1409
6.3495 -0.4418 0.1049
6.3537 -0.4202 0.0709
6.3430 -0.4261 0.0358
6.3383 -0.4206 -0.0001
6.3225 -0.4361 -0.0353
6.3436 -0.3793 -0.0777
6.3512 -0.3478 -0.1206
6.3276 -0.3780 -0.1560
6.3192 -0.3777 -0.1961
6.3140 -0.3702 -0.2385
6.3115 -0.3568 -0.2835
6.2346 -0.4231 -0.4783
6.0301 -0.8027 -0.4899
5.9755 -0.9031 -0.4951
5.9546 -0.9394 -0.5027
5.8831 -1.0806 -0.4859
5.8505 -1.1406 -0.4889
5.8204 -1.1981 -0.4865
5.7962 -1.2419 -0.4905
5.7731 -1.2866 -0.4876
5.7623 -1.3080 -0.4847
5.7527 -1.3263 -0.4843
5.7360 -1.3558 -0.4888
5.7194 -1.3891 -0.4836
5.7124 -1.4013 -0.4857
5.7054 -1.4147 -0.4851
5.6927 -1.4383 -0.4861
5.6807 -1.4624 -0.4824
5.6753 -1.4722 -0.4830
5.6700 -1.4826 -0.4820
5.6652 -1.4904 -0.4852
5.6603 -1.5004 -0.4831
6.3785 -0.4626 0.4732
6.3828 -0.4440 0.4509
6.3741 -0.4482 0.4213
6.3752 -0.4344 0.3959
6.3610 -0.4483 0.3632
6.3729 -0.4142 0.3405
6.3863 -0.3766 0.3163
6.3620 -0.4085 0.2791
6.3667 -0.3860 0.2501
6.3480 -0.4076 0.2147
6.3327 -0.4229 0.1804
6.3281 -0.4173 0.1477
6.3208 -0.4168 0.1139
6.3157 -0.4117 0.0796
6.3219 -0.3834 0.0442
6.3197 -0.3711 0.0074
6.3204 -0.3526 -0.0311
6.3064 -0.3639 -0.0683
6.2981 -0.3631 -0.1071
6.2983 -0.3437 -0.1493
6.2898 -0.3424 -0.1900
6.1756 -0.4310 -0.5026
5.9286 -0.9286 -0.4961
5.9030 -0.9832 -0.4890
5.8644 -1.0604 -0.4890
5.8293 -1.1337 -0.4824
5.8032 -1.1833 -0.4882
5.7910 -1.2072 -0.4896
5.7798 -1.2285 -0.4922
5.7677 -1.2547 -0.4880
5.7564 -1.2789 -0.4842
5.7378 -1.3155 -0.4856
5.7297 -1.3302 -0.4889
5.7202 -1.3530 -0.4804
5.7059 -1.3798 -0.4849
5.6990 -1.3929 -0.4862
5.6924 -1.4065 -0.4858
5.6860 -1.4192 -0.4857
5.6686 -1.4554 -0.4827
5.6585 -1.4753 -0.4837
5.6491 -1.4945 -0.4828
5.6448 -1.5004 -0.4891
6.3598 -0.4160 0.4632
6.3611 -0.4009 0.4386
6.3541 -0.4010 0.4090
6.3580 -0.3801 0.3838
6.3510 -0.3796 0.3530
6.3412 -0.3845 0.3208
6.3422 -0.3677 0.2918
6.3382 -0.3606 0.2602
6.3222 -0.3772 0.2251
6.3256 -0.3542 0.1939
6.3236 -0.3418 0.1603
6.2968 -0.3807 0.1234
6.3107 -0.3339 0.0894
6.2970 -0.3450 0.0530
6.3003 -0.3190 0.0152
6.3186 -0.2588 -0.0266
6.3192 -0.2362 -0.0689
6.2949 -0.2695 -0.1067
6.2828 -0.2749 -0.1473
6.2739 -0.2730 -0.1895
6.0561 -0.5832 -0.5012
5.9292 -0.8577 -0.4960
5.9059 -0.9072 -0.4966
5.8104 -1.1189 -0.4825
5.7987 -1.1400 -0.4902
5.7856 -1.1684 -0.4898
5.7735 -1.1942 -0.4901
5.7607 -1.2248 -0.4838
5.7403 -1.2682 -0.4840
5.7315 -1.2858 -0.4867
5.7234 -1.3010 -0.4911
5.7061 -1.3419 -0.4831
5.6993 -1.3542 -0.4879
5.6920 -1.3712 -0.4852
5.6852 -1.3865 -0.4837
5.6789 -1.3995 -0.4844
5.6730 -1.4110 -0.4866
5.6673 -1.4237 -0.4860
5.6617 -1.4361 -0.4848
5.6515 -1.4573 -0.4862
5.6468 -1.4673 -0.4866
5.6422 -1.4784 -0.4842
6.3739 -0.3133 0.4978
6.3340 -0.3779 0.4493
6.3487 -0.3338 0.4308
6.3387 -0.3386 0.3986
6.3204 -0.3606 0.3625
6.3241 -0.3370 0.3355
6.3082 -0.3537 0.3003
6.2930 -0.3693 0.2656
6.2879 -0.3631 0.2337
6.2985 -0.3223 0.2043
6.2965 -0.2885 0.1359
6.2853 -0.2938 0.0991
6.2821 -0.2802 0.0620
6.2823 -0.2582 0.0233
6.2793 -0.2426 -0.0168
6.2589 -0.2682 -0.0549
6.2359 -0.3003 -0.0917
6.2488 -0.2442 -0.1392
6.2449 -0.2280 -0.1840
5.8840 -0.8805 -0.5001
5.8601 -0.9398 -0.4923
5.8433 -0.9753 -0.4978
5.8084 -1.0583 -0.4927
5.7938 -1.0920 -0.4925
5.7787 -1.1300 -0.4865
5.7664 -1.1580 -0.4870
5.7565 -1.1763 -0.4949
5.7458 -1.2005 -0.4959
5.7243 -1.2553 -0.4862
5.7159 -1.2723 -0.4901
5.6994 -1.3108 -0.4891
5.6915 -1.3314 -0.4848
5.6843 -1.3488 -0.4832
5.6779 -1.3625 -0.4855
5.6714 -1.3780 -0.4842
5.6655 -1.3905 -0.4861
5.6597 -1.4055 -0.4832
5.6545 -1.4130 -0.4913
5.6492 -1.4243 -0.4925
5.6394 -1.4484 -0.4900
5.6348 -1.4624 -0.4836
5.6305 -1.4704 -0.4872
5.6263 -1.4802 -0.4868
6.3221 -0.3218 0.4693
6.3096 -0.3319 0.4361
6.3052 -0.3071 0.3794
6.2899 -0.3229 0.3441
6.2770 -0.3333 0.3099
6.2716 -0.3269 0.2783
6.2740 -0.3020 0.2481
6.2874 -0.2507 0.2190
6.2787 -0.2497 0.1830
6.2757 -0.2345 0.1472
6.2727 -0.2188 0.1101
6.2696 -0.2024 0.0716
6.2464 -0.2353 0.0328
6.2319 -0.2472 -0.0059
6.2120 -0.2727 -0.0436
6.2156 -0.2367 -0.0868
6.2111 -0.2208 -0.1300
6.2067 -0.2035 -0.1749
6.0385 -0.4133 -0.5043
5.8577 -0.8669 -0.4950
5.7879 -1.0410 -0.4934
5.7621 -1.1017 -0.4983
5.7474 -1.1460 -0.4856
5.7369 -1.1707 -0.4879
5.6999 -1.2594 -0.4925
5.6911 -1.2861 -0.4847
5.6838 -1.3021 -0.4877
5.6764 -1.3237 -0.4828
5.6699 -1.3377 -0.4860
5.6636 -1.3529 -0.4866
5.6576 -1.3672 -0.4875
5.6463 -1.3979 -0.4830
5.6412 -1.4068 -0.4890
5.6363 -1.4210 -0.4860
5.6316 -1.4322 -0.4867
5.6271 -1.4452 -0.4835
5.6228 -1.4548 -0.4853
5.6185 -1.4630 -0.4890
5.6147 -1.4742 -0.4864
5.6108 -1.4821 -0.4893
6.3087 -0.2990 0.5404
6.3094 -0.2801 0.5163
6.2943 -0.2959 0.4811
6.2967 -0.2720 0.4565
6.2995 -0.2465 0.4309
6.2737 -0.2865 0.3894
6.2557 -0.3088 0.3527
6.2429 -0.3192 0.3185
6.2445 -0.2946 0.2897
6.2587 -0.2379 0.2634
6.2718 -0.1822 0.2339
6.2603 -0.1866 0.1963
6.2458 -0.1983 0.1579
6.2368 -0.1957 0.1200
6.2383 -0.1649 0.0817
6.2233 -0.1771 0.0419
6.2007 -0.2102 0.0030
6.1958 -0.1944 -0.0382
6.2050 -0.1036 -0.1319
6.2060 -0.0654 -0.1823
5.9343 -0.5694 -0.5010
5.8326 -0.8473 -0.4935
5.8164 -0.8852 -0.5015
5.7656 -1.0301 -0.4890
5.7413 -1.0914 -0.4944
5.7176 -1.1628 -0.4831
5.7077 -1.1906 -0.4813
5.6992 -1.2102 -0.4859
5.6910 -1.2303 -0.4888
5.6830 -1.2509 -0.4899
5.6681 -1.2933 -0.4864
5.6614 -1.3114 -0.4862
5.6550 -1.3286 -0.4859
5.6434 -1.3599 -0.4859
5.6380 -1.3742 -0.4862
5.6328 -1.3868 -0.4878
5.6280 -1.4013 -0.4857
5.6233 -1.4136 -0.4860
5.6188 -1.4243 -0.4880
5.6147 -1.4382 -0.4838
5.6107 -1.4492 -0.4834
5.6069 -1.4601 -0.4825
5.6030 -1.4682 -0.4859
5.5993 -1.4768 -0.4877
6.2858 -0.2426 0.5320
6.2805 -0.2351 0.5029
6.2624 -0.2579 0.4651
6.2644 -0.2320 0.4397
6.2565 -0.2296 0.4075
6.2479 -0.2284 0.3745
6.2421 -0.2199 0.3423
6.2359 -0.2116 0.3092
6.2427 -0.1686 0.2799
6.2469 -0.1305 0.2475
6.2272 -0.1561 0.2072
6.2231 -0.1387 0.1704
6.2160 -0.1291 0.1318
6.1909 -0.1700 0.0914
6.1963 -0.1230 0.0516
6.1967 -0.0880 0.0092
6.2029 -0.0336 -0.0367
6.1979 -0.0111 -0.0834
6.1898 0.0029 -0.1310
6.1811 0.0165 -0.1800
6.1667 0.0122 -0.2275
6.0491 -0.1251 -0.4869
5.9033 -0.5410 -0.4991
5.8508 -0.6948 -0.4982
5.7728 -0.9281 -0.4907
5.7595 -0.9618 -0.4973
5.7095 -1.1142 -0.4888
5.6998 -1.1413 -0.4904
5.6900 -1.1742 -0.4849
5.6819 -1.1933 -0.4906
5.6660 -1.2423 -0.4872
5.6590 -1.2620 -0.4883
5.6522 -1.2822 -0.4876
5.6460 -1.2991 -0.4894
5.6400 -1.3187 -0.4868
5.6344 -1.3379 -0.4831
5.6290 -1.3490 -0.4891
5.6240 -1.3684 -0.4827
5.6192 -1.3812 -0.4844
5.6145 -1.3924 -0.4876
5.6103 -1.4075 -0.4838
5.6060 -1.4184 -0.4859
5.6021 -1.4304 -0.4852
5.5984 -1.4422 -0.4838
5.5945 -1.4506 -0.4878
5.5915 -1.4640 -0.4818
5.5876 -1.4702 -0.4885
6.2416 -0.1852 0.4565
6.2331 -0.1829 0.4237
6.2345 -0.1534 0.3958
6.2281 -0.1440 0.3626
6.2190 -0.1414 0.3273
6.2123 -0.1315 0.2924
6.2005 -0.1357 0.2548
6.2035 -0.0956 0.2211
6.1861 -0.1151 0.1808
6.1688 -0.1345 0.1408
6.1735 -0.0855 0.1027
6.1706 -0.0579 0.0617
6.1757 -0.0023 0.0179
6.1870 0.0775 -0.0306
6.1697 0.0635 -0.0766
6.1471 0.0305 -0.1206
6.1149 -0.0378 -0.1589
6.1078 -0.0159 -0.2086
6.0161 -0.0534 -0.4931
5.9088 -0.3775 -0.5138
5.8009 -0.7390 -0.4951
5.7361 -0.9450 -0.4959
5.7110 -1.0283 -0.4926
5.6895 -1.1026 -0.4864
5.6801 -1.1332 -0.4855
5.6721 -1.1512 -0.4941
5.6561 -1.2087 -0.4870
5.6490 -1.2306 -0.4878
5.6423 -1.2552 -0.4841
5.6361 -1.2748 -0.4844
5.6302 -1.2911 -0.4872
5.6246 -1.3086 -0.4875
5.6195 -1.3274 -0.4850
5.6143 -1.3408 -0.4883
5.6098 -1.3583 -0.4851
5.6052 -1.3720 -0.4860
5.6011 -1.3876 -0.4832
5.5970 -1.3994 -0.4848
5.5931 -1.4117 -0.4849
5.5893 -1.4225 -0.4865
5.5860 -1.4359 -0.4831
5.5823 -1.4443 -0.4871
5.5794 -1.4566 -0.4836
5.5753 -1.4615 -0.4929
6.2221 -0.2482 0.5982
6.2189 -0.2340 0.5733
6.2389 -0.1571 0.5669
6.2302 -0.1554 0.5352
6.2291 -0.1324 0.5087
6.2278 -0.1087 0.4810
6.2096 -0.1026 0.4125
6.2028 -0.0922 0.3788
6.1909 -0.0962 0.3416
6.1788 -0.1004 0.3042
6.1811 -0.0595 0.2718
6.1737 -0.0471 0.2342
6.1559 -0.0680 0.1930
6.1454 -0.0645 0.1535
6.1419 -0.0361 0.1139
6.1346 0.0250 0.0286
6.1181 0.0116 -0.0152
6.1064 0.0165 -0.0604
6.0967 0.0301 -0.1073
6.0916 0.0644 -0.1582
6.0542 -0.0330 -0.1920
6.0376 -0.0465 -0.2360
5.9754 -0.0059 -0.4905
5.8725 -0.3488 -0.5095
5.8155 -0.5611 -0.4984
5.7738 -0.7091 -0.4973
5.7387 -0.8421 -0.4881
5.7125 -0.9272 -0.4950
5.6891 -1.0132 -0.4914
5.6696 -1.0834 -0.4901
5.6529 -1.1392 -0.4929
5.6383 -1.1958 -0.4880
5.6317 -1.2203 -0.4867
5.6256 -1.2444 -0.4841
5.6143 -1.2815 -0.4868
5.6045 -1.3198 -0.4832
5.5954 -1.3495 -0.4855
5.5913 -1.3648 -0.4846
5.5871 -1.3770 -0.4870
5.5837 -1.3925 -0.4837
5.5801 -1.4050 -0.4838
5.5767 -1.4173 -0.4834
5.5731 -1.4267 -0.4868
5.5703 -1.4393 -0.4841
5.5671 -1.4491 -0.4854
5.5633 -1.4554 -0.4924
6.1895 -0.2085 0.5856
6.1901 -0.1533 0.5404
6.1949 -0.1105 0.5197
6.1976 -0.0718 0.4958
6.2010 -0.0293 0.4707
6.1838 -0.0490 0.4301
6.1717 -0.0530 0.3929
6.1641 -0.0417 0.3579
6.1515 -0.0461 0.3195
6.1458 -0.0267 0.2839
6.1353 -0.0228 0.2452
6.1247 -0.0181 0.2058
6.1228 0.0194 0.1675
6.1212 0.0603 0.1270
6.1121 0.0753 0.0836
6.0954 0.0618 0.0393
6.0928 0.1061 -0.0072
6.0732 0.0819 -0.0523
6.0432 0.0734 -0.1454
6.0323 0.0894 -0.1956
5.9035 -0.0474 -0.5101
5.8382 -0.3001 -0.5126
5.7860 -0.5133 -0.5055
5.7442 -0.6932 -0.4917
5.6885 -0.9075 -0.4951
5.6671 -0.9920 -0.4945
5.6577 -1.0312 -0.4927
5.6489 -1.0715 -0.4876
5.6335 -1.1271 -0.4917
5.6203 -1.1876 -0.4843
5.6085 -1.2311 -0.4865
5.6030 -1.2497 -0.4890
5.5982 -1.2726 -0.4855
5.5934 -1.2898 -0.4870
5.5886 -1.3045 -0.4905
5.5848 -1.3250 -0.4858
5.5803 -1.3369 -0.4907
5.5768 -1.3547 -0.4871
5.5738 -1.3729 -0.4816
5.5666 -1.3962 -0.4860
5.5635 -1.4086 -0.4857
5.5604 -1.4202 -0.4860
5.5576 -1.4316 -0.4857
5.5546 -1.4415 -0.4872
5.5515 -1.4499 -0.4906
6.2202 -0.1148 0.7449
6.1596 -0.1829 0.5980
6.1658 -0.1349 0.5825
6.1791 -0.0622 0.5721
6.1767 -0.0013 0.5194
6.1549 -0.0371 0.4748
6.1590 0.0144 0.4501
6.1346 -0.0302 0.4039
6.1246 -0.0255 0.3678
6.1140 -0.0220 0.3307
6.1078 -0.0012 0.2951
6.1101 0.0540 0.2618
6.1011 0.0681 0.2220
6.1011 0.1206 0.1833
6.0913 0.1359 0.1402
6.0837 0.1624 0.0958
6.0619 0.1284 0.0500
6.0448 0.1146 0.0046
6.0277 0.1007 -0.0409
6.0012 0.1928 -0.1951
5.7528 -0.4843 -0.5035
5.6877 -0.7771 -0.4994
5.6539 -0.9267 -0.4990
5.6444 -0.9783 -0.4918
5.6358 -1.0153 -0.4923
5.6279 -1.0527 -0.4904
5.6206 -1.0836 -0.4915
5.6138 -1.1132 -0.4918
5.6076 -1.1449 -0.4885
5.6020 -1.1752 -0.4844
5.5963 -1.1970 -0.4867
5.5910 -1.2177 -0.4888
5.5862 -1.2397 -0.4883
5.5818 -1.2621 -0.4858
5.5775 -1.2811 -0.4858
5.5731 -1.2959 -0.4895
5.5692 -1.3128 -0.4896
5.5658 -1.3310 -0.4871
5.5619 -1.3437 -0.4906
5.5587 -1.3591 -0.4894
5.5563 -1.3766 -0.4844
5.5529 -1.3879 -0.4870
5.5501 -1.4005 -0.4869
5.5479 -1.4144 -0.4840
5.5453 -1.4259 -0.4838
5.5427 -1.4366 -0.4842
5.5393 -1.4437 -0.4901
6.1768 -0.1273 0.7425
6.1355 0.0067 0.5270
6.1124 -0.0361 0.4809
6.1127 0.0069 0.4548
6.1151 0.0606 0.4286
6.0997 0.0481 0.3878
6.0908 0.0613 0.3511
6.0838 0.0842 0.3145
6.0831 0.1363 0.2797
6.0757 0.1623 0.2396
6.0589 0.1487 0.1951
6.0463 0.1545 0.1515
6.0377 0.1814 0.1073
6.0309 0.2205 0.0613
6.0132 0.2061 0.0141
5.9866 0.3226 -0.1436
5.9712 0.3316 -0.1978
5.6727 -0.6849 -0.5028
5.6296 -0.9096 -0.4976
5.6133 -0.9923 -0.4969
5.6067 -1.0405 -0.4877
5.6000 -1.0709 -0.4898
5.5881 -1.1295 -0.4904
5.5835 -1.1636 -0.4836
5.5781 -1.1840 -0.4878
5.5686 -1.2255 -0.4916
5.5649 -1.2491 -0.4887
5.5613 -1.2707 -0.4863
5.5578 -1.2896 -0.4856
5.5543 -1.3067 -0.4859
5.5505 -1.3204 -0.4892
5.5485 -1.3416 -0.4821
5.5412 -1.3636 -0.4914
5.5363 -1.3916 -0.4892
5.5348 -1.4071 -0.4842
5.5319 -1.4166 -0.4876
5.5269 -1.4367 -0.4907
6.1399 -0.0908 0.7301
6.1311 -0.0868 0.7009
6.1199 0.0673 0.5848
6.0943 0.0594 0.5098
6.0733 0.1273 0.4094
6.0618 0.1336 0.3703
6.0581 0.1776 0.3357
6.0458 0.1842 0.2942
6.0311 0.1807 0.2508
6.0203 0.1977 0.2085
6.0051 0.1937 0.1638
5.9917 0.2004 0.1189
5.9818 0.2292 0.0731
5.9759 0.3876 -0.0291
5.9603 0.3971 -0.0823
5.9444 0.4073 -0.1367
5.9195 0.3529 -0.1848
5.8046 0.2829 -0.5021
5.6053 -0.9023 -0.4897
5.5907 -0.9804 -0.4932
5.5790 -1.0572 -0.4887
5.5683 -1.1148 -0.4914
5.5596 -1.1716 -0.4880
5.5545 -1.1887 -0.4947
5.5507 -1.2120 -0.4940
5.5444 -1.2577 -0.4894
5.5394 -1.3005 -0.4822
5.5350 -1.3105 -0.4904
5.5328 -1.3289 -0.4874
5.5298 -1.3424 -0.4896
5.5276 -1.3580 -0.4880
5.5255 -1.3726 -0.4868
5.5226 -1.3833 -0.4903
5.5214 -1.3990 -0.4855
5.5193 -1.4108 -0.4856
5.5165 -1.4196 -0.4898
5.5156 -1.4333 -0.4854
6.1088 -0.0993 0.7596
6.1270 0.0022 0.7702
6.1236 0.0290 0.7483
6.0817 -0.0050 0.6370
6.0751 0.0135 0.6090
6.0628 0.0103 0.5737
6.0713 0.0962 0.5618
6.0588 0.1518 0.5000
6.0574 0.2059 0.4720
6.0432 0.2030 0.4308
6.0348 0.2296 0.3939
6.0240 0.2465 0.3539
6.0091 0.2440 0.3103
6.0075 0.3171 0.2738
5.9916 0.3137 0.2274
5.9775 0.3223 0.1812
5.9576 0.2956 0.1329
5.9333 0.3493 0.0363
5.9261 0.4216 -0.0167
5.9149 0.4726 -0.0726
5.8964 0.4700 -0.1271
5.8762 0.4536 -0.1807
5.7544 0.3424 -0.4991
5.7040 0.0328 -0.5160
5.6644 -0.2603 -0.5074
5.5944 -0.7641 -0.4990
5.5670 -0.9569 -0.4975
5.5568 -1.0347 -0.4943
5.5479 -1.0991 -0.4931
5.5444 -1.1315 -0.4894
5.5400 -1.1541 -0.4927
5.5366 -1.1797 -0.4919
5.5335 -1.2042 -0.4906
5.5276 -1.2471 -0.4898
5.5252 -1.2681 -0.4878
5.5222 -1.2848 -0.4895
5.5211 -1.3076 -0.4829
5.5184 -1.3222 -0.4848
5.5147 -1.3328 -0.4911
5.5136 -1.3509 -0.4867
5.5118 -1.3657 -0.4856
5.5091 -1.3765 -0.4892
5.5049 -1.4161 -0.4845
5.5018 -1.4234 -0.4907
6.0751 -0.0013 0.7401
6.0799 0.0636 0.7316
6.0392 0.0375 0.6211
6.0267 0.0342 0.5856
6.0296 0.1044 0.5696
6.0265 0.2170 0.5215
6.0141 0.2238 0.4829
6.0033 0.2406 0.4454
5.9923 0.2582 0.4067
5.9826 0.2867 0.3684
5.9689 0.2944 0.3257
5.9551 0.3028 0.2821
5.9458 0.3445 0.2402
5.9397 0.4152 0.1977
5.9310 0.4771 0.1510
5.9133 0.4746 0.0997
5.8953 0.4718 0.0479
5.8847 0.5389 -0.0067
5.8673 0.5524 -0.0624
5.8428 0.4921 -0.1136
5.8226 0.4758 -0.1672
5.7038 0.4602 -0.5105
5.6576 0.0420 -0.5013
5.6116 -0.3279 -0.5081
5.5897 -0.5139 -0.5080
5.5664 -0.7463 -0.4957
5.5400 -0.9910 -0.4884
5.5352 -1.0225 -0.4917
5.5304 -1.0500 -0.4962
5.5238 -1.1134 -0.4936
5.5210 -1.1423 -0.4920
5.5190 -1.1724 -0.4874
5.5159 -1.1946 -0.4887
5.5130 -1.2156 -0.4899
5.5084 -1.2568 -0.4893
5.5057 -1.2737 -0.4912
5.5042 -1.2936 -0.4886
5.5031 -1.3132 -0.4851
5.5012 -1.3286 -0.4856
5.4984 -1.3406 -0.4894
5.4977 -1.3579 -0.4854
5.4957 -1.3703 -0.4870
5.4937 -1.3819 -0.4891
5.4921 -1.3940 -0.4896
5.4904 -1.4052 -0.4906
6.0524 -0.0222 0.7972
6.0474 0.0022 0.7763
6.0423 0.0285 0.7549
6.0441 0.0878 0.7443
6.0369 0.1093 0.7179
5.9946 0.1472 0.5868
5.9777 0.2826 0.5025
5.9661 0.3006 0.4645
5.9493 0.2870 0.4197
5.9436 0.3503 0.3866
5.9357 0.4058 0.3493
5.9192 0.4037 0.3026
5.9040 0.4126 0.2565
5.8884 0.4223 0.2093
5.8796 0.4984 0.1639
5.8684 0.5654 0.1141
5.8484 0.5492 0.0608
5.8356 0.6210 0.0053
5.9052 2.8462 -0.3820
5.8457 2.4406 -0.4460
5.6279 0.3065 -0.5080
5.5961 -0.0268 -0.5112
5.5550 -0.4752 -0.5109
5.5416 -0.6372 -0.5065
5.5328 -0.7844 -0.4929
5.5240 -0.8869 -0.4911
5.5169 -0.9739 -0.4886
5.5095 -1.0397 -0.4925
5.5082 -1.0804 -0.4854
5.5038 -1.1012 -0.4925
5.5009 -1.1269 -0.4942
5.4995 -1.1574 -0.4901
5.4959 -1.2071 -0.4874
5.4910 -1.2445 -0.4916
5.4891 -1.2867 -0.4859
5.4872 -1.3024 -0.4873
5.4855 -1.3180 -0.4880
5.4847 -1.3349 -0.4859
5.4835 -1.3500 -0.4852
5.4818 -1.3626 -0.4869
5.4793 -1.3727 -0.4913
5.4779 -1.3850 -0.4920
5.4768 -1.3971 -0.4921
5.4748 -1.4068 -0.4952
6.0122 0.0749 0.7762
6.0044 0.0947 0.7506
6.0082 0.1772 0.7458
5.9983 0.1922 0.7151
5.9570 0.2654 0.5857
5.9534 0.3357 0.5627
5.9414 0.3552 0.5253
5.9228 0.3297 0.4778
5.9131 0.3720 0.4427
5.9013 0.4043 0.4037
5.8862 0.4130 0.3596
5.8576 0.4577 0.2710
5.8487 0.5488 0.2291
5.8327 0.5746 0.1794
5.8196 0.6476 0.1291
5.7050 2.3094 -0.5014
5.5726 0.4473 -0.5271
5.5497 0.0377 -0.5151
5.5043 -0.7584 -0.4947
5.4974 -0.8612 -0.4949
5.4931 -0.8981 -0.5001
5.4938 -0.9593 -0.4869
5.4885 -1.0294 -0.4886
5.4832 -1.0871 -0.4928
5.4794 -1.1414 -0.4934
5.4785 -1.1976 -0.4857
5.4764 -1.2171 -0.4879
5.4741 -1.2346 -0.4911
5.4717 -1.2731 -0.4905
5.4706 -1.2907 -0.4903
5.4701 -1.3089 -0.4883
5.4679 -1.3390 -0.4890
5.4667 -1.3682 -0.4870
5.4653 -1.3798 -0.4888
5.9682 0.1190 0.7633
5.9656 0.1761 0.7496
5.9536 0.1815 0.7161
5.9132 0.3877 0.5819
5.8923 0.4763 0.5147
5.8758 0.4747 0.4693
5.8601 0.4847 0.4253
5.8442 0.4954 0.3803
5.8395 0.6445 0.3506
5.8219 0.6583 0.3008
5.7871 2.4033 0.0095
5.6068 2.4929 -0.4960
5.5780 1.9075 -0.5095
5.5156 0.5122 -0.5243
5.5016 0.0950 -0.5158
5.4851 -0.4266 -0.5028
5.4759 -0.7377 -0.4932
5.4699 -0.8911 -0.4924
5.4683 -0.9344 -0.4918
5.4665 -0.9725 -0.4925
5.4654 -1.0100 -0.4915
5.4623 -1.0728 -0.4930
5.4585 -1.1803 -0.4913
5.4592 -1.2078 -0.4864
5.4569 -1.2246 -0.4906
5.4548 -1.2619 -0.4923
5.4553 -1.2830 -0.4885
5.4518 -1.3106 -0.4950
5.4519 -1.3278 -0.4928
5.4530 -1.3462 -0.4876
5.4527 -1.3605 -0.4870
5.4515 -1.3722 -0.4889
5.4513 -1.3854 -0.4882
5.4493 -1.3945 -0.4925
5.9317 0.1435 0.7761
5.9237 0.1747 0.7532
5.9254 0.3821 0.7489
5.9077 0.3589 0.7023
5.8602 0.4865 0.5690
5.8505 0.5606 0.5398
5.8277 0.4945 0.4814
5.8198 0.6122 0.4550
5.8268 2.3766 0.3984
5.7583 2.3211 0.2165
5.6910 2.3518 0.0340
5.6570 2.5558 -0.0660
5.4650 1.2006 -0.5247
5.4563 0.5810 -0.5219
5.4531 0.3547 -0.5208
5.4510 -0.0213 -0.5103
5.4470 -0.2715 -0.5103
5.4545 -0.5346 -0.4790
5.4483 -0.5795 -0.4937
5.4433 -0.7597 -0.4995
5.4581 -0.9360 -0.4523
5.4497 -0.9428 -0.4745
5.4429 -0.9561 -0.4922
5.4394 -1.0187 -0.4989
5.4408 -1.0895 -0.4921
5.4394 -1.1416 -0.4937
5.4373 -1.1854 -0.4974
5.4395 -1.2357 -0.4892
5.4395 -1.2744 -0.4877
5.4389 -1.3237 -0.4873
5.4375 -1.3359 -0.4906
5.4376 -1.3646 -0.4890
5.4362 -1.3879 -0.4917
5.8857 0.1984 0.7656
5.8799 0.2608 0.7518
5.8734 0.3261 0.7361
5.8749 0.4777 0.7437
5.8148 0.5303 0.5863
5.8082 0.6786 0.5724
5.8595 2.9437 0.7597
5.8217 2.9130 0.6593
5.7368 2.4583 0.4249
5.6679 2.4468 0.2430
5.6329 2.5106 0.1520
5.5971 2.4816 0.0571
5.5614 2.4527 -0.0378
5.5149 2.8271 -0.1519
5.4631 3.1517 -0.2811
5.3944 2.7875 -0.4706
5.3960 2.0955 -0.4822
5.3942 1.2298 -0.5070
5.3955 0.4283 -0.5218
5.4055 0.0140 -0.5051
5.4065 -0.1230 -0.5057
5.4085 -0.2500 -0.5032
5.4306 -0.5656 -0.4521
5.4192 -0.5749 -0.4824
5.4170 -0.6313 -0.4895
5.4113 -0.7236 -0.5067
5.4374 -0.9335 -0.4426
5.4182 -1.0083 -0.4951
5.4203 -1.0772 -0.4910
5.4233 -1.1863 -0.4857
5.4231 -1.2070 -0.4868
5.4218 -1.2240 -0.4906
5.4236 -1.2658 -0.4867
5.4228 -1.2812 -0.4891
5.4234 -1.2989 -0.4879
5.4232 -1.3139 -0.4889
5.4224 -1.3271 -0.4913
5.4238 -1.3441 -0.4879
5.4239 -1.3577 -0.4880
5.4229 -1.3688 -0.4908
5.8422 0.3068 0.7719
5.8341 0.3751 0.7569
5.8245 0.4387 0.7375
5.8151 0.5188 0.7200
5.8178 2.6364 0.9074
5.7773 2.4305 0.7850
5.7604 3.0401 0.7932
5.7212 2.9545 0.6845
5.6808 2.6657 0.5555
5.6448 2.4962 0.4480
5.6097 2.5600 0.3624
5.5743 2.5314 0.2685
5.5411 2.4120 0.1723
5.5036 2.4741 0.0808
5.4625 2.5881 -0.0158
5.4135 2.8149 -0.1235
5.3508 3.1980 -0.2529
5.3086 3.1637 -0.3651
5.2932 2.7748 -0.4379
5.2838 2.3929 -0.4948
5.3200 1.0318 -0.5171
5.3350 0.5061 -0.5231
5.3502 0.1079 -0.5179
5.3926 -0.5137 -0.4611
5.3835 -0.5363 -0.4865
5.3812 -0.5885 -0.4970
5.4203 -0.9041 -0.4228
5.4141 -0.9196 -0.4400
5.4076 -0.9331 -0.4579
5.3994 -0.9398 -0.4799
5.3970 -0.9662 -0.4881
5.3980 -1.0016 -0.4886
5.3987 -1.0338 -0.4895
5.3990 -1.0628 -0.4913
5.4000 -1.1170 -0.4933
5.4010 -1.1653 -0.4947
5.4029 -1.1907 -0.4922
5.4022 -1.2088 -0.4954
5.4067 -1.2378 -0.4862
5.4060 -1.2537 -0.4895
5.4066 -1.2718 -0.4893
5.4060 -1.2864 -0.4922
5.4081 -1.3057 -0.4885
5.4084 -1.3207 -0.4890
5.4098 -1.3371 -0.4867
5.4079 -1.3468 -0.4923
5.4108 -1.3644 -0.4866
5.7928 0.4144 0.7746
5.7773 0.4126 0.7350
5.7696 0.5504 0.7352
5.8360 2.9076 1.2437
5.7543 2.4777 0.9742
5.7222 2.4938 0.8953
5.6907 2.6002 0.8305
5.6571 2.7134 0.7615
5.6206 2.9959 0.7097
5.5858 2.7048 0.5793
5.5520 2.5802 0.4754
5.5157 2.5988 0.3859
5.4768 2.6669 0.2971
5.4450 2.5415 0.1982
5.4097 2.5128 0.1043
5.3714 2.5310 0.0098
5.3181 2.7507 -0.0939
5.2535 3.0560 -0.2139
5.2379 2.7408 -0.2990
5.1557 2.7318 -0.5090
5.2389 1.1704 -0.5230
5.3012 0.1466 -0.5125
5.3017 0.0367 -0.5269
5.3691 -0.8690 -0.4864
5.3669 -0.8972 -0.4961
5.3685 -0.9355 -0.4976
5.3760 -1.0447 -0.4944
5.3790 -1.1022 -0.4949
5.3844 -1.1794 -0.4923
5.3869 -1.2219 -0.4922
5.3888 -1.2431 -0.4904
5.3890 -1.2598 -0.4923
5.3890 -1.2753 -0.4945
5.3928 -1.2975 -0.4880
5.3921 -1.3101 -0.4917
5.3938 -1.3267 -0.4897
5.3935 -1.3389 -0.4923
5.3929 -1.3502 -0.4955
5.7692 0.5023 0.8483
5.7555 0.5478 0.8233
5.7440 0.6616 0.8174
5.7445 3.1073 1.3084
5.7083 3.1334 1.2235
5.6691 2.8381 1.0666
5.6339 2.7122 0.9535
5.6012 2.4604 0.8216
5.5631 2.7521 0.7850
5.5228 2.9275 0.7195
5.4924 2.6948 0.5972
5.4609 2.5720 0.4941
5.4307 2.4540 0.3952
5.3917 2.5159 0.3103
5.3541 2.5335 0.2201
5.3122 2.5992 0.1285
5.2953 2.3441 0.0353
5.2224 2.7394 -0.0672
5.1455 3.1005 -0.1868
5.1241 2.8924 -0.2817
5.1775 1.1529 -0.4969
5.1841 0.9415 -0.5229
5.2289 0.4115 -0.5172
5.2599 0.0462 -0.5132
5.3350 -0.8261 -0.5005
5.3448 -0.9216 -0.4953
5.3467 -0.9570 -0.4975
5.3521 -0.9994 -0.4927
5.3527 -1.0272 -0.4966
5.3631 -1.1222 -0.4897
5.3686 -1.1744 -0.4864
5.3682 -1.2092 -0.4946
5.3718 -1.2333 -0.4902
5.3741 -1.2536 -0.4885
5.3750 -1.2702 -0.4898
5.3765 -1.2874 -0.4894
5.3800 -1.3203 -0.4874
5.3800 -1.3449 -0.4923
5.6807 2.9119 1.3578
5.6458 2.8836 1.2649
5.6105 2.9055 1.1841
5.5745 2.9280 1.1015
5.5429 2.7030 0.9670
5.5087 2.6753 0.8761
5.4762 2.6009 0.7776
5.4246 2.9680 0.7442
5.3847 2.9925 0.6527
5.3661 2.6568 0.5220
5.3244 2.7252 0.4371
5.2807 2.7972 0.3484
5.2442 2.7675 0.2514
5.2218 2.5903 0.1514
5.1664 2.3977 -0.0331
5.1157 2.5043 -0.1302
5.0345 2.8247 -0.2480
5.1664 0.4856 -0.5180
5.1988 0.1407 -0.5261
5.3090 -0.8112 -0.4974
5.3226 -0.9125 -0.4898
5.3264 -0.9510 -0.4902
5.3313 -0.9900 -0.4882
5.3369 -1.0523 -0.4902
5.3400 -1.1029 -0.4954
5.3434 -1.1304 -0.4941
5.3473 -1.1575 -0.4914
5.3509 -1.2000 -0.4932
5.3569 -1.2431 -0.4895
5.3609 -1.2790 -0.4889
5.3601 -1.2910 -0.4939
5.3620 -1.3072 -0.4934
5.3655 -1.3371 -0.4923
4.6867 -1.8189 0.1983
4.6949 -1.8121 0.1982
4.7330 -1.7765 0.1985
4.5646 -1.8873 0.1962
4.9371 -1.5677 0.1932
4.9972 -1.5040 0.1949
5.0071 -1.5002 0.1940
5.0168 -1.4964 0.1931
5.0289 -1.5105 0.1885
5.0381 -1.5072 0.1876
5.0535 -1.4733 0.1913
5.0623 -1.4646 0.1914
5.0712 -1.4559 0.1916
5.0800 -1.4457 0.1919
5.0889 -1.4327 0.1928
5.0979 -1.4154 0.1945
5.1267 -1.3648 0.1990
4.5253 -1.8484 0.1980
4.8041 -1.6005 0.1971
4.9780 -1.4615 0.1939
4.9898 -1.4616 0.1921
5.0550 -1.4741 0.1803
5.0811 -1.4329 0.1832
5.0903 -1.4211 0.1837
5.0996 -1.4050 0.1850
5.1092 -1.3845 0.1869
4.4862 -1.8019 0.1982
4.4904 -1.7901 0.1994
4.8286 -1.5087 0.1949
4.8489 -1.4850 0.1957
4.9308 -1.4245 0.1935
5.0209 -1.5058 0.1695
5.0312 -1.5085 0.1678
5.0394 -1.4962 0.1685
5.0472 -1.4785 0.1700
5.0557 -1.4645 0.1709
5.0645 -1.4530 0.1714
5.0733 -1.4374 0.1725
5.0826 -1.4270 0.1727
5.1013 -1.3948 0.1749
5.1111 -1.3741 0.1766
4.0190 -1.8041 0.2400
4.3999 -1.7590 0.2004
4.6039 -1.6258 0.1931
4.6308 -1.6274 0.1897
4.6371 -1.6124 0.1908
5.0323 -1.5069 0.1573
5.0395 -1.4856 0.1591
5.0481 -1.4730 0.1597
5.0566 -1.4577 0.1606
5.0659 -1.4500 0.1605
5.0746 -1.4303 0.1620
5.0840 -1.4184 0.1624
5.0934 -1.4051 0.1629
5.1031 -1.3860 0.1642
5.1132 -1.3610 0.1662
5.1239 -1.3327 0.1685
4.0222 -1.8083 0.2183
4.0193 -1.7900 0.2206
4.0051 -1.7684 0.2244
4.0050 -1.7491 0.2265
4.0092 -1.7097 0.2303
4.3168 -1.7483 0.1944
4.3218 -1.7331 0.1955
4.3146 -1.7128 0.1984
4.3616 -1.6574 0.1996
4.6280 -1.6262 0.1754
4.6378 -1.6140 0.1757
4.6357 -1.5908 0.1785
4.6290 -1.5617 0.1823
4.7290 -1.3618 0.1936
4.7908 -1.3593 0.1874
4.8096 -1.3576 0.1857
4.8186 -1.3337 0.1873
4.8268 -1.3061 0.1895
4.8438 -1.2451 0.1943
4.8613 -1.2390 0.1932
4.8925 -1.2160 0.1924
5.0238 -1.5077 0.1473
5.0319 -1.4941 0.1480
5.0397 -1.4752 0.1492
5.0486 -1.4638 0.1495
5.0577 -1.4522 0.1498
5.0666 -1.4365 0.1506
5.0761 -1.4273 0.1506
5.1050 -1.3690 0.1539
5.1263 -1.3210 0.1569
3.9839 -1.7477 0.2061
3.9492 -1.7185 0.2117
3.9514 -1.6974 0.2134
4.2174 -1.5663 0.2017
4.6396 -1.5953 0.1622
4.6120 -1.4944 0.1736
4.6132 -1.4673 0.1759
4.6227 -1.4484 0.1767
4.6226 -1.4169 0.1796
4.6287 -1.3912 0.1813
4.6429 -1.3755 0.1815
4.7389 -1.4146 0.1696
4.7427 -1.3454 0.1754
4.7506 -1.3183 0.1771
4.7889 -1.2593 0.1790
4.7989 -1.2305 0.1807
4.8141 -1.2138 0.1808
4.8344 -1.2122 0.1792
4.8540 -1.2098 0.1777
4.8709 -1.2000 0.1771
5.0249 -1.5063 0.1364
5.0318 -1.4827 0.1379
5.0407 -1.4712 0.1381
5.0496 -1.4584 0.1385
5.0586 -1.4441 0.1390
5.0679 -1.4310 0.1393
5.0868 -1.3962 0.1408
5.0967 -1.3784 0.1415
5.1069 -1.3562 0.1426
4.3278 -1.8722 0.1497
4.3029 -1.8544 0.1527
4.3015 -1.8406 0.1538
3.9744 -1.7288 0.1850
3.9675 -1.7057 0.1871
4.1105 -1.3599 0.2009
4.6103 -1.4933 0.1558
4.6138 -1.4686 0.1573
4.5962 -1.4175 0.1621
4.5958 -1.3837 0.1645
4.6055 -1.3607 0.1654
4.6323 -1.3605 0.1635
4.6948 -1.2994 0.1633
4.6998 -1.2639 0.1654
4.7555 -1.2304 0.1637
4.7746 -1.2214 0.1630
4.7923 -1.2096 0.1625
4.8171 -1.2178 0.1602
4.8381 -1.2183 0.1587
4.8754 -1.2095 0.1566
4.8915 -1.1976 0.1563
5.0080 -1.5210 0.1255
5.0161 -1.5076 0.1258
5.0260 -1.5048 0.1253
5.0416 -1.4660 0.1269
5.0502 -1.4480 0.1275
5.0787 -1.4095 0.1281
5.0885 -1.3946 0.1285
5.0984 -1.3646 0.1299
5.1090 -1.3381 0.1309
5.1201 -1.3140 0.1318
4.3247 -1.8742 0.1344
4.2947 -1.8555 0.1370
4.3000 -1.8430 0.1374
4.2941 -1.8275 0.1385
4.2964 -1.8134 0.1390
3.9426 -1.7029 0.1641
4.1534 -1.3569 0.1697
4.5795 -1.4309 0.1424
4.5741 -1.3919 0.1447
4.6189 -1.2599 0.1488
5.0077 -1.5127 0.1146
5.0172 -1.5062 0.1144
5.0272 -1.5034 0.1140
5.0340 -1.4774 0.1149
5.0421 -1.4572 0.1155
5.0516 -1.4466 0.1155
5.0608 -1.4296 0.1158
5.0703 -1.4149 0.1160
5.0800 -1.3961 0.1165
5.0899 -1.3730 0.1171
5.1003 -1.3604 0.1171
5.1112 -1.3256 0.1182
4.3270 -1.8773 0.1187
4.3355 -1.8662 0.1187
4.3064 -1.8471 0.1204
3.9686 -1.7138 0.1376
3.9642 -1.6905 0.1384
4.5712 -1.3889 0.1238
4.5734 -1.1375 0.1313
4.5912 -1.0567 0.1330
4.6029 -1.0174 0.1337
4.6151 -0.9764 0.1345
4.6248 -0.9265 0.1356
4.6321 -0.8665 0.1371
5.0076 -1.5056 0.1033
5.0189 -1.5085 0.1028
5.0276 -1.4973 0.1028
5.0353 -1.4761 0.1031
5.0432 -1.4521 0.1035
5.0521 -1.4339 0.1037
5.0618 -1.4205 0.1037
5.0713 -1.4005 0.1040
5.0815 -1.3868 0.1040
5.0916 -1.3623 0.1043
5.1023 -1.3414 0.1045
5.1135 -1.3065 0.1051
4.3471 -1.8711 0.1027
4.3036 -1.8492 0.1038
4.2225 -1.8169 0.1060
4.1721 -1.7886 0.1074
3.9748 -1.7193 0.1125
3.9582 -1.6927 0.1131
3.9394 -1.6640 0.1138
3.9455 -0.8574 0.1216
4.5688 -1.3508 0.1028
4.3708 -0.2203 0.1183
4.4166 -0.2067 0.1174
4.4551 -0.1751 0.1169
4.4808 -0.1043 0.1170
5.0194 -1.5037 0.0912
5.0285 -1.4935 0.0911
5.0351 -1.4626 0.0913
5.0442 -1.4471 0.0912
5.0530 -1.4251 0.0912
5.0631 -1.4141 0.0911
5.0728 -1.3940 0.0911
5.0829 -1.3737 0.0911
5.0934 -1.3503 0.0911
5.1043 -1.3306 0.0910
5.1477 -1.0951 0.0923
4.3402 -1.8724 0.0871
4.3203 -1.8554 0.0870
4.2685 -1.8302 0.0870
4.1538 -1.7875 0.0872
3.9575 -1.7188 0.0876
3.9584 -1.6967 0.0873
3.9635 -1.6752 0.0871
3.9389 -1.6435 0.0869
4.5772 -1.3616 0.0803
4.5775 -1.3240 0.0799
4.2649 -0.2178 0.0699
4.3733 -0.3402 0.0706
4.4035 -0.2927 0.0700
4.4202 -0.2070 0.0690
4.4589 -0.1752 0.0684
4.4676 -0.0508 0.0670
5.0105 -1.5068 0.0794
5.0198 -1.4977 0.0793
5.0448 -1.4372 0.0785
5.0644 -1.4078 0.0781
5.0747 -1.3953 0.0779
5.0846 -1.3672 0.0775
5.0953 -1.3437 0.0772
5.1064 -1.3213 0.0769
4.3499 -1.8892 0.0718
4.3490 -1.8767 0.0713
3.9673 -1.7253 0.0622
3.9525 -1.6991 0.0613
3.9413 -1.6726 0.0603
3.9360 -1.6466 0.0594
3.9088 -1.6121 0.0580
3.7500 -1.2758 0.0457
2.7598 -0.3275 0.0047
1.3468 0.8414 -0.0480
1.9692 0.7878 -0.0392
3.2220 -0.2393 0.0073
3.9421 -0.8582 0.0348
4.0550 -0.9121 0.0378
4.5664 -1.3484 0.0573
3.6147 0.1847 -0.0015
2.9148 1.6313 -0.0548
4.1763 -0.1493 0.0154
4.2772 -0.2382 0.0193
4.3801 -0.3493 0.0239
4.4469 -0.3923 0.0260
4.4234 -0.0622 0.0155
5.0114 -1.5045 0.0673
5.0210 -1.4966 0.0672
5.0366 -1.4493 0.0659
5.0459 -1.4312 0.0654
5.0556 -1.4152 0.0650
5.0654 -1.3952 0.0645
5.0864 -1.3633 0.0637
5.0972 -1.3359 0.0630
5.1085 -1.3147 0.0625
5.1383 -1.1221 0.0568
4.3482 -1.8915 0.0562
4.3356 -1.8769 0.0551
4.2662 -1.8355 0.0509
3.9552 -1.7262 0.0363
3.9239 -1.6954 0.0338
3.9252 -1.6720 0.0326
3.9365 -1.6509 0.0318
3.9198 -1.6200 0.0297
3.7219 -1.2650 0.0055
3.3097 -0.9249 -0.0241
3.0043 -0.6663 -0.0464
2.6318 -0.3369 -0.0742
3.1308 -0.1573 -0.0693
3.9897 -0.9078 -0.0055
4.5672 -1.3497 0.0342
3.6666 -0.0118 -0.0615
3.6467 0.1388 -0.0700
3.7998 0.0309 -0.0599
3.8244 0.1182 -0.0638
3.9214 0.2204 -0.0663
4.1214 -0.0329 -0.0474
4.3018 -0.2852 -0.0290
4.4112 -0.4147 -0.0191
4.4653 -0.4306 -0.0167
4.4611 -0.2973 -0.0238
4.4420 -0.1041 -0.0345
4.4653 -0.0165 -0.0384
5.0020 -1.5069 0.0549
5.0118 -1.4988 0.0547
5.0207 -1.4849 0.0543
5.0283 -1.4602 0.0532
5.0374 -1.4422 0.0525
5.0471 -1.4264 0.0520
5.0571 -1.4116 0.0515
5.0777 -1.3801 0.0504
5.0883 -1.3570 0.0495
5.0993 -1.3400 0.0489
5.1107 -1.3095 0.0477
4.3406 -1.8805 0.0392
4.3122 -1.8621 0.0365
4.2688 -1.8390 0.0328
4.0405 -1.7515 0.0159
3.9075 -1.6952 0.0056
3.9222 -1.6753 0.0048
3.9198 -1.6498 0.0028
3.9126 -1.6218 0.0004
3.9100 -1.5939 -0.0017
3.7757 -1.2566 -0.0327
2.6441 -0.2583 -0.1583
4.5680 -1.3510 0.0108
3.6127 0.0640 -0.1372
3.7289 0.0186 -0.1285
3.7624 0.0920 -0.1324
3.9393 0.1920 -0.1315
4.2375 -0.2624 -0.0844
4.3531 -0.3905 -0.0696
4.4211 -0.4312 -0.0635
4.4536 -0.3940 -0.0647
4.4449 -0.2444 -0.0761
4.9921 -1.5084 0.0420
5.0029 -1.5048 0.0422
5.0128 -1.4966 0.0421
5.0293 -1.4556 0.0398
5.0385 -1.4376 0.0389
5.0484 -1.4229 0.0383
5.0587 -1.4092 0.0378
5.0689 -1.3917 0.0369
5.0795 -1.3764 0.0363
5.0903 -1.3610 0.0357
5.1130 -1.3005 0.0323
5.2546 0.4590 -0.0904
4.3286 -1.8811 0.0221
4.3172 -1.8658 0.0199
4.2401 -1.8204 0.0107
3.9158 -1.6528 -0.0259
3.9067 -1.6240 -0.0293
3.9032 -1.5958 -0.0322
3.8921 -1.5634 -0.0360
3.6409 -1.2306 -0.0836
3.8186 -1.2853 -0.0671
3.8176 -1.2421 -0.0712
3.7813 -1.0215 -0.0945
4.5664 -1.3493 -0.0132
3.5895 0.0970 -0.2129
3.6671 0.1116 -0.2094
3.4368 0.6070 -0.2711
4.2982 -0.3805 -0.1223
4.3561 -0.3912 -0.1176
4.4108 -0.4006 -0.1132
4.4540 -0.3871 -0.1117
4.9930 -1.5065 0.0290
5.0039 -1.5027 0.0293
5.0399 -1.4354 0.0252
5.0503 -1.4243 0.0248
5.0604 -1.4082 0.0239
5.0708 -1.3918 0.0231
5.0814 -1.3766 0.0223
5.0921 -1.3509 0.0205
5.1034 -1.3247 0.0188
5.1151 -1.3073 0.0179
4.3005 -1.8655 0.0012
4.2941 -1.8502 -0.0012
4.2909 -1.8348 -0.0032
4.2967 -1.8210 -0.0043
4.2732 -1.7992 -0.0088
3.9031 -1.6271 -0.0592
3.9042 -1.6004 -0.0622
3.8598 -1.5558 -0.0711
3.7870 -1.2717 -0.1102
3.8178 -1.2463 -0.1106
3.8380 -1.2142 -0.1127
3.8535 -1.1783 -0.1157
3.8361 -1.1178 -0.1241
3.8106 -0.9919 -0.1409
3.0891 -0.2329 -0.2886
4.5617 -1.3438 -0.0384
4.9815 -1.5032 0.0146
4.9946 -1.5078 0.0162
5.0040 -1.4962 0.0156
5.0128 -1.4800 0.0144
5.0423 -1.4415 0.0124
5.0518 -1.4220 0.0109
5.0620 -1.4047 0.0097
5.0728 -1.3945 0.0094
5.0833 -1.3755 0.0080
5.0943 -1.3587 0.0070
5.1055 -1.3353 0.0051
5.1173 -1.3102 0.0032
5.2034 -0.7946 -0.0500
4.2649 -1.8619 -0.0208
4.3181 -1.8437 -0.0180
4.3151 -1.8283 -0.0205
4.2984 -1.8087 -0.0248
4.2690 -1.7843 -0.0312
3.8849 -1.6257 -0.0916
3.8691 -1.5927 -0.0978
3.8558 -1.5588 -0.1038
3.7977 -1.5055 -0.1170
3.7812 -1.4653 -0.1242
3.6280 -1.0859 -0.1923
3.8215 -1.1608 -0.1625
3.8195 -1.1099 -0.1698
3.8129 -1.0526 -0.1784
3.0281 -0.0783 -0.3921
4.5689 -1.3530 -0.0611
4.6598 -1.3971 -0.0458
4.7182 -1.4092 -0.0383
4.7390 -1.4049 -0.0368
4.7608 -1.4036 -0.0348
4.9720 -1.5100 0.0011
4.9839 -1.5078 0.0020
4.9953 -1.5048 0.0027
5.0539 -1.4259 -0.0024
5.0746 -1.3947 -0.0047
5.0854 -1.3782 -0.0059
5.0963 -1.3602 -0.0073
5.1076 -1.3420 -0.0087
5.1195 -1.3078 -0.0123
5.1322 -1.2769 -0.0153
5.1799 -0.9252 -0.0593
4.3043 -1.8580 -0.0357
4.3243 -1.8479 -0.0349
4.3273 -1.8340 -0.0368
3.8347 -1.5556 -0.1400
3.8478 -1.5296 -0.1427
3.8151 -1.4840 -0.1539
3.7990 -1.4426 -0.1625
3.7178 -1.3683 -0.1841
2.8044 -0.8046 -0.3832
3.1379 -0.9177 -0.3254
3.2427 -0.9141 -0.3136
3.4384 -0.9716 -0.2811
3.6121 -1.0257 -0.2518
3.4967 -0.7520 -0.3096
3.4310 -0.6242 -0.3380
3.3679 -0.4880 -0.3674
3.2546 -0.2940 -0.4121
4.5511 -1.3700 -0.0851
4.5723 -1.3576 -0.0846
4.6744 -1.4172 -0.0629
4.7060 -1.4267 -0.0576
4.7243 -1.4180 -0.0568
4.7500 -1.4223 -0.0531
4.7704 -1.4195 -0.0511
4.7968 -1.4295 -0.0464
4.8187 -1.4331 -0.0432
4.8393 -1.4365 -0.0402
4.8557 -1.4319 -0.0390
4.8706 -1.4246 -0.0384
4.9728 -1.5083 -0.0128
4.9853 -1.5082 -0.0114
4.9965 -1.5041 -0.0107
5.0556 -1.4249 -0.0165
5.0767 -1.3986 -0.0182
5.0875 -1.3834 -0.0194
5.0984 -1.3655 -0.0210
5.1345 -1.2773 -0.0309
5.1797 -0.9756 -0.0742
4.2447 -1.7838 -0.0760
4.2348 -1.7629 -0.0812
4.2170 -1.7384 -0.0881
3.7989 -1.5473 -0.1806
3.8442 -1.5327 -0.1771
3.8386 -1.4982 -0.1842
3.8333 -1.4622 -0.1915
3.7882 -1.4059 -0.2081
2.9441 -0.8167 -0.4322
3.3565 -0.9873 -0.3443
3.4992 -1.0150 -0.3196
3.6037 -1.0248 -0.3035
3.6793 -1.0194 -0.2941
3.7165 -0.9887 -0.2946
3.4504 -0.6447 -0.3944
4.5678 -1.3523 -0.1110
4.7663 -1.4489 -0.0660
4.7880 -1.4500 -0.0628
4.8054 -1.4445 -0.0615
4.8256 -1.4456 -0.0585
4.8456 -1.4481 -0.0553
4.8605 -1.4408 -0.0546
4.8772 -1.4384 -0.0527
4.9005 -1.4559 -0.0463
4.9143 -1.4495 -0.0456
4.9729 -1.5036 -0.0276
4.9853 -1.5022 -0.0262
4.9962 -1.4958 -0.0259
5.1671 -0.9774 -0.0978
5.1825 -0.9837 -0.0945
5.1984 -0.9769 -0.0936
3.8657 -1.5455 -0.2060
3.8618 -1.5122 -0.2135
3.8293 -1.4650 -0.2283
3.7876 -1.4103 -0.2462
3.5423 -1.1019 -0.3483
3.5803 -1.0706 -0.3488
3.6787 -1.0234 -0.3432
3.7234 -0.9979 -0.3415
3.7740 -0.9776 -0.3378
3.7706 -0.9139 -0.3516
3.9827 -0.9160 -0.3180
4.0224 -0.8921 -0.3168
4.5658 -1.3502 -0.1372
3.8077 -0.2047 -0.4925
4.8542 -1.4651 -0.0684
4.8728 -1.4674 -0.0650
4.8874 -1.4616 -0.0639
4.9208 -1.4654 -0.0579
4.9617 -1.5057 -0.0432
4.9746 -1.5051 -0.0413
4.9869 -1.5038 -0.0396
4.9972 -1.4940 -0.0400
5.0101 -1.4245 -0.0524
5.0215 -1.4138 -0.0528
5.0326 -1.3997 -0.0540
5.0440 -1.3878 -0.0547
5.0548 -1.3663 -0.0575
5.0663 -1.3481 -0.0595
5.0781 -1.3296 -0.0614
5.0901 -1.3084 -0.0640
5.1025 -1.2907 -0.0657
5.1395 -0.9166 -0.1373
5.1552 -0.9563 -0.1266
5.1727 -0.9444 -0.1264
3.8626 -1.7388 -0.1968
2.7865 -1.3583 -0.4730
3.8310 -1.5369 -0.2488
3.8667 -1.5187 -0.2467
3.8842 -1.4931 -0.2496
3.3282 -1.0990 -0.4378
3.3297 -1.0430 -0.4504
3.6481 -1.0634 -0.3899
3.5863 -0.9637 -0.4237
3.5416 -0.8684 -0.4534
3.6501 -0.8849 -0.4306
3.9302 -0.9919 -0.3569
4.0087 -0.8798 -0.3689
4.5693 -1.3549 -0.1613
4.0809 -0.3956 -0.4677
4.8591 -1.4737 -0.0831
4.8963 -1.4817 -0.0748
4.9140 -1.4870 -0.0704
4.9304 -1.4909 -0.0667
4.9478 -1.5003 -0.0615
4.9634 -1.5074 -0.0571
4.9761 -1.5057 -0.0553
4.9870 -1.4979 -0.0551
4.9966 -1.4838 -0.0567
5.0045 -1.4586 -0.0611
5.0148 -1.4439 -0.0627
5.0250 -1.4268 -0.0649
5.0361 -1.4151 -0.0656
5.0469 -1.3988 -0.0675
5.0579 -1.3822 -0.0693
5.0689 -1.3594 -0.0726
5.1497 -0.7361 -0.2020
3.8359 -1.7376 -0.2330
3.8277 -1.7110 -0.2413
2.9258 -1.4060 -0.4944
3.0153 -1.3855 -0.4822
3.0102 -1.3365 -0.4956
3.8756 -1.5268 -0.2788
3.4128 -1.2499 -0.4392
3.3237 -1.1575 -0.4800
3.3358 -1.1092 -0.4899
3.7194 -1.2150 -0.3883
3.6022 -1.0382 -0.4560
3.6173 -0.9899 -0.4654
3.6170 -0.9283 -0.4811
3.6661 -0.9015 -0.4783
3.7500 -0.9041 -0.4613
3.7891 -0.8719 -0.4619
4.5657 -1.3506 -0.1891
4.2865 -0.8000 -0.3832
4.4058 -0.8353 -0.3510
4.8229 -1.4344 -0.1177
4.8445 -1.4389 -0.1124
4.8721 -1.4607 -0.1014
4.9010 -1.4913 -0.0880
4.9172 -1.4928 -0.0845
4.9351 -1.5016 -0.0788
4.9621 -1.4979 -0.0745
4.9770 -1.5042 -0.0700
4.9864 -1.4890 -0.0720
5.0469 -0.1218 -0.4073
5.0811 -0.1109 -0.4034
5.1338 -0.6848 -0.2475
5.1545 -0.7222 -0.2339
3.1374 -1.5138 -0.4767
3.1145 -1.4663 -0.4948
3.2123 -1.4521 -0.4777
3.2015 -1.4058 -0.4930
3.2399 -1.3741 -0.4935
3.3154 -1.3561 -0.4823
3.3440 -1.3215 -0.4858
3.4411 -1.3153 -0.4667
3.3937 -1.2474 -0.4957
3.4406 -1.2199 -0.4933
3.4623 -1.1799 -0.4998
3.6521 -1.2300 -0.4451
3.7134 -1.2163 -0.4358
