ply
format ascii 1.0
element vertex 2094
property float x
property float y
property float z
end_header
2.3421 -1.1570 0.5524
2.5756 -0.8922 0.5734
2.7166 -0.9313 0.5598
2.7609 -0.9944 0.5489
2.8014 -1.0610 0.5377
2.9722 -1.2286 0.5054
3.5219 -0.2445 0.6024
3.5529 -0.2995 0.5933
3.6361 -0.1923 0.6025
3.6585 -0.2648 0.5916
3.4519 -1.0235 0.5039
3.4798 -1.0324 0.5011
1.5107 -2.0041 0.4623
1.4921 -1.9644 0.4675
0.3912 -0.4563 0.6879
2.3429 -1.1601 0.5105
2.3900 -1.1681 0.5072
2.5369 -0.9565 0.5225
2.5813 -0.9318 0.5229
2.6257 -0.8982 0.5242
2.6726 -0.9018 0.5214
2.7172 -0.8379 0.5260
2.9413 -1.2315 0.4718
2.9796 -1.2010 0.4731
3.4167 -0.2936 0.5487
3.4668 -0.2905 0.5464
3.5208 -0.2728 0.5455
3.5656 -0.2837 0.5420
3.5945 -0.3380 0.5347
3.6463 -0.3209 0.5338
3.4461 -1.0531 0.4649
3.4934 -1.0140 0.4667
1.4922 -1.8778 0.4453
1.5022 -1.8512 0.4472
1.4750 -1.7946 0.4531
1.4607 -1.7449 0.4580
0.3960 -0.4746 0.6121
2.3475 -1.1776 0.4668
2.5364 -0.9399 0.4786
2.5788 -0.8860 0.4813
2.6252 -0.8607 0.4814
3.4661 -0.3185 0.4902
3.4362 -0.5739 0.4699
3.5326 -0.4089 0.4796
3.4826 -0.6852 0.4585
3.5058 -0.7298 0.4537
3.4930 -0.8629 0.4430
3.4377 -1.0888 0.4264
3.4758 -1.0707 0.4262
3.5204 -1.0382 0.4270
1.2260 -1.4663 0.4478
1.4175 -1.5335 0.4368
0.5112 -0.6001 0.5258
0.5819 -0.5768 0.5246
0.7958 1.4062 0.6365
1.0448 1.1427 0.6116
1.2265 0.9983 0.5964
2.2341 -1.2570 0.4241
2.3888 -1.1598 0.4244
2.5240 -0.8228 0.4398
2.5709 1.5401 0.5806
3.1171 -1.2214 0.3944
3.4696 -0.3318 0.4353
3.5232 -0.3141 0.4344
3.5818 -0.2816 0.4343
3.6796 -0.1380 0.4394
3.7069 -0.1996 0.4347
3.4508 -1.0708 0.3914
3.4921 -1.0461 0.3914
1.2758 -1.6568 0.3950
-0.0382 -0.2976 0.4805
0.4251 -0.5300 0.4592
1.0518 1.1159 0.5006
1.4030 0.5550 0.4707
2.2391 -1.2741 0.3817
2.3173 -1.2341 0.3810
2.4518 -1.0023 0.3855
2.4716 1.4790 0.4738
2.5666 1.7789 0.4819
3.0908 -1.2109 0.3602
3.1169 -1.2407 0.3584
3.1561 -1.2113 0.3583
3.5085 -0.2237 0.3838
3.5649 -0.2051 0.3829
3.4696 -1.0391 0.3557
1.3598 -1.7672 0.3521
0.4527 -1.0438 0.3780
0.4484 -0.5660 0.3834
0.4281 -0.4485 0.3851
0.9514 1.3338 0.3944
2.2323 -1.2568 0.3404
2.2805 -1.2638 0.3394
2.3216 -1.2502 0.3387
2.3481 -1.1794 0.3389
2.4547 -1.0136 0.3387
2.4763 -0.8311 0.3402
2.3976 1.1441 0.3636
2.4456 1.9486 0.3715
3.1246 -1.2256 0.3230
3.1629 -1.2021 0.3225
3.5310 -0.1736 0.3266
3.5685 -0.2190 0.3253
3.4864 -1.0129 0.3182
3.5273 -1.0648 0.3168
3.5567 -1.0671 0.3162
1.3838 -1.7917 0.3150
0.5033 -1.0274 0.3145
2.2326 -1.2602 0.2977
2.2745 -1.2464 0.2970
2.2974 -1.1664 0.2957
2.3411 -1.1520 0.2949
2.4118 -1.0400 0.2925
2.4591 -1.0331 0.2919
2.4152 0.9967 0.2638
2.6921 1.8757 0.2482
3.0917 -1.2459 0.2876
3.1225 -1.2531 0.2873
3.1622 -1.2227 0.2864
3.5158 -0.2514 0.2687
3.6257 -0.0649 0.2648
3.4459 -1.0482 0.2807
3.4774 -1.0497 0.2804
3.5148 -1.1067 0.2807
0.4921 -0.9605 0.2482
0.4379 -0.4859 0.2297
0.2412 -0.1787 0.2181
2.2377 -1.2773 0.2552
2.2658 -1.2207 0.2529
2.3002 -1.1771 0.2510
2.3399 -1.1469 0.2497
2.3803 -1.1164 0.2484
2.4112 -1.0331 0.2450
2.4560 -1.0087 0.2439
2.4859 -0.8774 0.2386
2.2503 1.5843 0.1420
2.3477 1.7916 0.1335
2.8645 -1.0485 0.2441
2.9061 -1.0423 0.2438
3.0990 -1.2314 0.2506
3.1320 -1.2313 0.2505
3.5385 -0.2021 0.2085
4.3838 1.9736 0.1198
3.4987 -1.0881 0.2437
3.5285 -1.0901 0.2437
3.5553 -1.0974 0.2439
2.3366 -1.1341 0.2031
2.3737 -1.0856 0.2001
2.4142 -1.0446 0.1976
2.4512 -0.9747 0.1933
2.8351 -0.8067 0.1843
2.8764 -0.9117 0.1914
3.0442 -1.1822 0.2100
3.1329 -1.2459 0.2146
3.1652 -1.2459 0.2148
3.5071 -1.0832 0.2060
-0.4833 0.0061 0.0129
2.4272 -1.1068 0.1551
2.4589 -1.0136 0.1470
2.8806 -0.9035 0.1428
2.9212 -0.9538 0.1480
2.9563 -1.0249 0.1549
2.9936 -1.0509 0.1578
3.0326 -1.0539 0.1587
3.0617 -1.1080 0.1640
3.1162 -1.1930 0.1725
3.1439 -1.2188 0.1753
3.1752 -1.2255 0.1763
3.2130 -1.2067 0.1751
3.2588 -1.1630 0.1718
3.3224 -1.0689 0.1641
3.1375 -1.8532 0.2332
3.1504 -1.8638 0.2344
3.1687 -1.8609 0.2344
1.3906 -1.8950 0.1773
1.3731 -1.8492 0.1715
1.3715 -1.8118 0.1671
-0.5393 -0.0784 -0.0806
0.2375 -0.5360 -0.0091
2.3043 -1.1940 0.1153
2.3402 -1.1474 0.1106
2.3871 -1.1415 0.1109
2.9607 2.0206 -0.2491
2.9984 -1.0457 0.1135
3.0353 -1.0641 0.1165
3.0782 -1.0415 0.1148
3.1605 -1.1704 0.1318
3.3024 -1.0394 0.1196
3.1137 -1.8770 0.2141
3.1273 -1.8862 0.2155
3.1338 -1.9104 0.2185
3.1451 -1.9214 0.2201
3.1586 -1.9265 0.2210
3.1721 -1.9304 0.2218
1.3596 -1.8473 0.1335
1.3789 -1.8242 0.1307
-0.1103 -0.4464 -0.1157
0.5286 -0.8085 -0.0431
-0.1290 0.5751 -0.2642
0.0781 0.4926 -0.2457
0.1227 0.6067 -0.2608
0.3925 0.7991 -0.2802
0.5575 0.7497 -0.2679
0.9922 0.8928 -0.2749
2.3238 -1.0832 0.0531
2.3880 -1.1437 0.0639
2.8345 1.2154 -0.2637
2.9321 1.1607 -0.2527
3.0344 1.2372 -0.2606
3.1338 -0.1061 -0.0629
3.0929 -0.9871 0.0634
3.1127 -1.8879 0.1945
3.1216 -1.9080 0.1977
3.1277 -1.9321 0.2013
3.1353 -1.9506 0.2043
3.1476 -1.9570 0.2056
3.1605 -1.9611 0.2066
0.1037 -0.7216 -0.1490
0.3582 -0.8415 -0.1181
0.4462 -0.8334 -0.1159
0.5159 -0.8104 -0.1171
0.6497 -0.8464 -0.1055
0.3624 -0.4837 -0.1795
0.3365 -0.3519 -0.2032
0.3540 -0.2557 -0.2190
0.4175 -0.2036 -0.2254
0.3679 -0.0183 -0.2593
0.4121 0.0690 -0.2726
0.4826 0.1286 -0.2800
0.5767 0.1595 -0.2815
0.6916 0.1609 -0.2771
0.8244 0.1319 -0.2667
0.9157 0.1619 -0.2682
0.9531 0.2834 -0.2876
1.0472 0.3143 -0.2891
1.1069 0.4119 -0.3035
1.2194 0.4095 -0.2985
1.4631 0.1093 -0.2370
2.1805 -1.2667 0.0287
2.3155 -1.0507 -0.0030
2.3594 -1.0155 -0.0073
2.4344 -1.1322 0.0158
2.4837 -1.1419 0.0195
2.5271 -1.1193 0.0174
2.5621 -1.0174 0.0012
2.7418 0.7275 -0.2917
2.8352 0.9027 -0.3181
2.9149 0.6182 -0.2659
3.0010 0.6465 -0.2673
3.1408 -0.1026 -0.1328
3.4276 0.0874 -0.1539
3.5183 0.1983 -0.1693
3.3297 -0.8635 0.0058
3.1035 -1.8744 0.1705
3.1116 -1.8988 0.1751
3.1188 -1.9224 0.1794
3.1262 -1.9428 0.1832
3.1370 -1.9538 0.1856
3.1470 -1.9651 0.1879
3.1586 -1.9716 0.1895
-0.2943 -0.6105 -0.2719
-0.0354 -0.7143 -0.2384
0.2738 -0.8675 -0.1925
0.2260 -0.7490 -0.2185
0.3002 -0.7246 -0.2197
0.4131 -0.7339 -0.2123
0.6998 -0.9048 -0.1640
0.5052 -0.6344 -0.2276
0.4866 -0.5167 -0.2520
0.5834 -0.5106 -0.2484
0.7623 -0.5963 -0.2225
0.7717 -0.4982 -0.2416
0.7987 -0.4140 -0.2571
0.8439 -0.3465 -0.2683
0.9233 -0.3203 -0.2696
1.0026 -0.2942 -0.2709
1.1249 -0.3324 -0.2572
1.1888 -0.2856 -0.2634
1.2408 -0.2159 -0.2747
1.3328 -0.2124 -0.2709
1.4563 -0.2729 -0.2527
1.5324 -0.2479 -0.2539
1.6364 -0.2849 -0.2414
1.7517 -0.3594 -0.2208
2.2220 -1.2482 -0.0201
2.2616 -1.2187 -0.0240
2.2703 -1.0785 -0.0516
2.3426 -0.9392 -0.0758
2.3855 -0.8796 -0.0856
2.4537 -0.9563 -0.0669
2.5118 -0.9991 -0.0555
2.5547 -0.9344 -0.0663
2.5915 -0.7644 -0.0984
2.6143 -0.1984 -0.2102
2.6763 0.0335 -0.2535
2.7494 0.2021 -0.2835
2.9053 0.2792 -0.2912
2.9674 0.0850 -0.2493
3.0421 0.1312 -0.2549
3.0793 -0.1404 -0.1988
3.1422 -0.1383 -0.1961
3.1023 -0.7428 -0.0774
3.1169 -0.9114 -0.0430
3.4220 0.0281 -0.2155
3.3068 -0.8221 -0.0515
3.3326 -0.8745 -0.0397
3.1246 -1.9163 0.1580
3.1274 -1.9474 0.1643
3.1376 -1.9595 0.1672
3.1464 -1.9731 0.1704
0.1850 -1.0355 -0.2360
0.4883 -1.1797 -0.1854
0.3020 -0.9776 -0.2423
0.3345 -0.9279 -0.2517
0.4037 -0.9051 -0.2528
0.4013 -0.8229 -0.2717
0.5077 -0.8299 -0.2638
0.6427 -0.8655 -0.2478
0.7413 -0.8719 -0.2406
0.8329 -0.7834 -0.2553
0.8588 -0.7144 -0.2695
0.9569 -0.7231 -0.2618
1.0388 -0.7156 -0.2587
1.0952 -0.6776 -0.2640
1.1761 -0.6705 -0.2609
1.2335 -0.6321 -0.2663
1.2802 -0.5757 -0.2764
1.3611 -0.5696 -0.2730
1.4206 -0.5295 -0.2786
1.4812 -0.4891 -0.2843
1.5611 -0.4833 -0.2809
1.6399 -0.4779 -0.2775
1.7015 -0.4371 -0.2832
1.7793 -0.4320 -0.2798
2.1672 -1.0946 -0.1062
2.2573 -1.0342 -0.1146
2.2893 -0.9479 -0.1324
2.3435 -0.9413 -0.1307
2.3823 -0.8588 -0.1472
2.4394 -0.8636 -0.1428
2.4924 -0.3511 -0.2563
2.5475 -0.1997 -0.2876
2.6166 -0.1769 -0.2887
2.6858 -0.1542 -0.2898
2.7549 -0.1109 -0.2956
2.8256 -0.0467 -0.3061
2.9992 -0.8414 -0.1150
3.0304 -0.9428 -0.0901
3.0729 -0.9462 -0.0868
3.1128 -0.9587 -0.0816
3.1593 -0.9353 -0.0842
3.2107 -0.8927 -0.0909
3.2794 -0.7881 -0.1107
3.3126 -0.8233 -0.1007
3.3500 -0.8377 -0.0952
3.3770 -0.8800 -0.0840
3.1545 -1.9629 0.1494
3.1652 -1.9717 0.1521
0.5941 -1.2661 -0.2228
0.5535 -1.1746 -0.2490
0.6438 -1.1765 -0.2423
0.6761 -1.1343 -0.2509
0.7647 -1.1367 -0.2443
0.7721 -1.0711 -0.2606
0.8210 -1.0388 -0.2655
0.8963 -1.0303 -0.2626
0.9708 -1.0220 -0.2596
1.0669 -1.0372 -0.2492
1.1375 -1.0283 -0.2467
1.1975 -1.0085 -0.2477
1.2483 -0.9776 -0.2521
1.3087 -0.9577 -0.2531
1.3870 -0.9614 -0.2468
1.4296 -0.9179 -0.2551
1.4901 -0.8980 -0.2561
1.6993 -0.8882 -0.2443
1.7582 -0.8688 -0.2453
1.7726 -0.7582 -0.2726
1.8403 -0.7512 -0.2698
1.9240 -0.7847 -0.2555
1.9938 -0.7913 -0.2491
2.2194 -1.0906 -0.1571
2.2317 -0.9461 -0.1933
2.2705 -0.8743 -0.2090
2.3323 -0.8896 -0.2009
2.3791 -0.8385 -0.2108
2.4255 -0.7724 -0.2246
2.4650 -0.6362 -0.2567
2.5191 -0.5736 -0.2691
2.5792 -0.5538 -0.2701
2.6409 -0.5641 -0.2632
2.7009 -0.5728 -0.2569
2.7594 -0.5098 -0.2691
2.8141 -0.6821 -0.2212
2.8743 -0.5575 -0.2490
2.9265 -0.6075 -0.2327
2.9449 -0.9567 -0.1420
2.9844 -0.9956 -0.1294
3.0319 -0.9637 -0.1343
3.0744 -0.9660 -0.1308
3.1123 -0.9871 -0.1229
3.1417 -1.0395 -0.1074
3.1922 -0.9924 -0.1161
3.2446 -0.9436 -0.1250
3.2887 -0.9291 -0.1257
3.3356 -0.9055 -0.1286
3.3892 -0.8624 -0.1360
3.4242 -0.8763 -0.1300
3.4685 -0.8618 -0.1307
3.1604 -1.9576 0.1289
0.6346 -1.3635 -0.2561
0.6906 -1.3450 -0.2570
0.7591 -1.3356 -0.2544
0.8147 -1.3173 -0.2553
0.8822 -1.3082 -0.2526
0.9261 -1.2807 -0.2571
0.9817 -1.2623 -0.2580
1.0267 -1.2344 -0.2624
1.0827 -1.2160 -0.2634
1.1286 -1.1877 -0.2678
1.1850 -1.1692 -0.2688
1.2507 -1.1607 -0.2661
1.3067 -1.1423 -0.2670
1.3541 -1.1135 -0.2715
1.4354 -1.1262 -0.2616
1.5054 -1.1274 -0.2558
1.5460 -1.0898 -0.2634
1.6013 -1.0716 -0.2643
1.6428 -1.0317 -0.2724
1.6988 -1.0132 -0.2733
1.7486 -0.9837 -0.2779
1.8050 -0.9652 -0.2788
1.8669 -0.9580 -0.2761
1.9332 -0.9624 -0.2697
1.9886 -0.9442 -0.2706
2.0522 -0.9475 -0.2647
2.1439 -1.0346 -0.2328
2.2171 -1.0853 -0.2127
2.2611 -1.0496 -0.2194
2.2652 -0.8532 -0.2750
2.3256 -0.8575 -0.2691
2.3871 -0.8747 -0.2595
2.4389 -0.8455 -0.2637
2.4896 -0.8036 -0.2718
2.5404 -0.7495 -0.2832
2.5980 -0.7558 -0.2770
2.6530 -0.7377 -0.2779
2.7074 -0.6945 -0.2859
2.7629 -0.7510 -0.2655
2.8177 -0.6956 -0.2771
3.0081 -0.8442 -0.2200
3.0687 -0.7525 -0.2414
3.0903 -0.9031 -0.1969
3.1390 -0.8779 -0.2003
3.1606 -1.1437 -0.1229
3.2046 -1.1151 -0.1276
3.3022 -0.9031 -0.1804
3.3412 -0.9074 -0.1762
3.3651 -0.9551 -0.1607
3.3876 -0.9993 -0.1464
3.2138 -1.7327 0.0490
3.2269 -1.7486 0.0545
0.9093 -1.4546 -0.2654
0.9404 -1.4223 -0.2728
0.9925 -1.4052 -0.2737
1.0640 -1.4037 -0.2679
1.1250 -1.3947 -0.2654
1.1853 -1.3859 -0.2629
1.2611 -1.3921 -0.2544
1.3112 -1.3756 -0.2552
1.3539 -1.3515 -0.2591
1.3965 -1.3264 -0.2632
1.4686 -1.3338 -0.2546
1.5258 -1.3260 -0.2521
1.6003 -1.3407 -0.2410
1.6250 -1.2934 -0.2537
1.6624 -1.2600 -0.2609
1.7460 -1.2927 -0.2434
1.7839 -1.2602 -0.2503
1.8234 -1.2281 -0.2569
1.9226 -1.1954 -0.2585
1.9803 -1.1955 -0.2535
2.0413 -1.2056 -0.2450
2.0785 -1.1632 -0.2550
2.1310 -1.1560 -0.2527
2.1922 -1.1750 -0.2415
2.2258 -1.1148 -0.2574
2.2749 -1.0986 -0.2582
2.3311 -1.1102 -0.2497
2.3691 -1.0485 -0.2657
2.4293 -1.0869 -0.2484
2.4760 -1.0625 -0.2520
2.5279 -1.0736 -0.2441
2.5745 -1.0492 -0.2476
2.6251 -1.0687 -0.2371
2.6710 -1.0355 -0.2435
2.7181 -1.0110 -0.2471
2.7656 -0.9953 -0.2479
2.8137 -0.9604 -0.2547
2.8525 -1.1123 -0.2036
2.9098 -0.9288 -0.2562
2.9579 -0.9130 -0.2570
3.0059 -0.8972 -0.2578
3.0555 -0.8718 -0.2614
3.1002 -0.8762 -0.2562
3.1521 -0.8401 -0.2630
3.1982 -0.8339 -0.2609
3.2173 -0.9350 -0.2275
3.2013 -1.1470 -0.1623
3.4245 -0.7966 -0.2529
3.4606 -0.8118 -0.2450
1.2986 -1.7837 -0.1720
1.2101 -1.6793 -0.2164
1.2097 -1.6327 -0.2325
1.2894 -1.6453 -0.2205
1.2778 -1.5335 -0.2600
1.3244 -1.5182 -0.2607
1.3710 -1.5028 -0.2615
1.4176 -1.4875 -0.2623
1.4775 -1.4857 -0.2571
1.5172 -1.4637 -0.2608
1.5635 -1.4484 -0.2615
1.6158 -1.4402 -0.2593
1.6448 -1.4038 -0.2690
1.7026 -1.4027 -0.2638
1.7952 -1.3722 -0.2653
1.8601 -1.3857 -0.2544
1.9010 -1.3633 -0.2581
1.9466 -1.3483 -0.2588
1.9999 -1.3477 -0.2539
2.0451 -1.3328 -0.2546
2.1230 -1.2733 -0.2675
2.1691 -1.2582 -0.2683
2.2095 -1.2269 -0.2751
2.2662 -1.2431 -0.2640
2.3118 -1.2281 -0.2648
2.3556 -1.2057 -0.2682
2.4015 -1.1907 -0.2690
2.4457 -1.1671 -0.2728
2.4958 -1.1765 -0.2647
2.5379 -1.1368 -0.2743
2.5857 -1.1380 -0.2692
2.6327 -1.1395 -0.2641
2.6779 -1.1246 -0.2649
2.7225 -1.0850 -0.2742
2.7685 -1.0520 -0.2811
2.8114 -1.1444 -0.2451
2.8506 -1.2053 -0.2204
2.9053 -1.0328 -0.2744
2.9518 -1.0096 -0.2779
3.0002 -0.9757 -0.2848
3.0407 -0.9972 -0.2735
3.0911 -0.9547 -0.2832
3.1353 -0.9492 -0.2809
3.1811 -0.9341 -0.2816
3.2248 -0.9277 -0.2796
3.2139 -1.2442 -0.1719
3.4429 -0.8808 -0.2745
3.4736 -0.9036 -0.2637
3.5522 -0.8030 -0.2907
3.6070 -0.7670 -0.2977
3.6536 -0.7517 -0.2985
3.6856 -0.7681 -0.2898
3.5735 -1.1478 -0.1702
3.5965 -1.1621 -0.1630
1.1717 -1.7481 -0.2433
1.2207 -1.7389 -0.2416
1.2759 -1.7346 -0.2373
1.3044 -1.7113 -0.2429
1.4188 -1.7083 -0.2318
1.4055 -1.6494 -0.2553
1.4416 -1.6296 -0.2588
1.4964 -1.6264 -0.2542
1.5450 -1.6183 -0.2520
1.6238 -1.5845 -0.2562
1.6862 -1.5926 -0.2465
1.7186 -1.5681 -0.2522
1.7696 -1.5652 -0.2479
1.8204 -1.5633 -0.2431
1.8530 -1.5377 -0.2492
1.8908 -1.5184 -0.2524
1.9400 -1.5160 -0.2480
1.9635 -1.4727 -0.2617
2.0231 -1.4887 -0.2494
2.0614 -1.4691 -0.2526
2.1149 -1.4792 -0.2431
2.1559 -1.4658 -0.2438
2.1994 -1.4584 -0.2419
2.2282 -1.4143 -0.2553
2.2586 -1.3686 -0.2691
2.3136 -1.3931 -0.2541
2.3624 -1.4047 -0.2445
2.4032 -1.3913 -0.2452
2.4382 -1.3521 -0.2561
2.4872 -1.3775 -0.2414
2.5255 -1.3511 -0.2472
2.5662 -1.3377 -0.2478
2.6063 -1.3176 -0.2511
2.6467 -1.2973 -0.2543
2.6872 -1.2702 -0.2601
2.7289 -1.2644 -0.2579
2.7703 -1.2359 -0.2641
2.8101 -1.2772 -0.2444
2.8507 -1.2579 -0.2473
2.8906 -1.2507 -0.2457
2.9386 -1.1666 -0.2720
2.9797 -1.1600 -0.2701
3.0228 -1.1390 -0.2733
3.0662 -1.1177 -0.2766
3.1054 -1.1187 -0.2721
3.1455 -1.1124 -0.2702
3.1796 -1.1289 -0.2604
3.2289 -1.0850 -0.2715
3.2683 -1.0789 -0.2696
3.3593 -1.0282 -0.2788
3.4014 -1.0144 -0.2795
3.4435 -1.0005 -0.2802
3.4888 -0.9787 -0.2835
3.5383 -0.9475 -0.2898
3.5810 -0.9335 -0.2905
3.6004 -0.9697 -0.2749
3.5392 -1.1689 -0.2071
3.5657 -1.1769 -0.2012
1.2509 -1.8079 -0.2574
1.2910 -1.7947 -0.2581
1.3434 -1.7902 -0.2537
1.3710 -1.7684 -0.2593
1.4174 -1.7600 -0.2573
1.4791 -1.7643 -0.2484
1.5132 -1.7471 -0.2513
1.5419 -1.7249 -0.2570
1.5768 -1.7075 -0.2599
1.6113 -1.6893 -0.2632
1.6565 -1.6813 -0.2612
1.6964 -1.6682 -0.2618
1.7403 -1.6596 -0.2602
1.7761 -1.6420 -0.2631
1.8071 -1.6180 -0.2692
1.8515 -1.6103 -0.2671
1.8956 -1.6026 -0.2651
1.9277 -1.5783 -0.2711
1.9753 -1.5764 -0.2664
2.0117 -1.5576 -0.2697
2.1427 -1.5400 -0.2615
2.1746 -1.5108 -0.2696
2.2214 -1.5141 -0.2628
2.2584 -1.4951 -0.2662
2.3394 -1.4753 -0.2647
2.3819 -1.4731 -0.2607
2.4209 -1.4602 -0.2613
2.4587 -1.4419 -0.2643
2.4968 -1.4235 -0.2673
2.5351 -1.4040 -0.2707
2.5722 -1.3731 -0.2788
2.6141 -1.3780 -0.2720
2.6546 -1.3774 -0.2675
2.6924 -1.3336 -0.2808
2.7724 -1.3141 -0.2793
2.8113 -1.3259 -0.2700
2.8502 -1.3190 -0.2682
2.8892 -1.3061 -0.2689
2.9304 -1.2739 -0.2771
2.9708 -1.2547 -0.2801
3.0115 -1.2354 -0.2832
3.0541 -1.2077 -0.2894
3.0912 -1.2092 -0.2845
3.1310 -1.1961 -0.2851
3.1692 -1.1894 -0.2833
3.2032 -1.1969 -0.2763
3.2328 -1.3217 -0.2224
3.2825 -1.2690 -0.2379
3.3624 -1.1386 -0.2813
3.4017 -1.1257 -0.2819
3.4471 -1.0980 -0.2878
3.4868 -1.0849 -0.2885
3.5167 -1.0938 -0.2814
3.5016 -1.1969 -0.2415
3.5170 -1.2282 -0.2271
1.3520 -1.8809 -0.2583
1.4119 -1.8836 -0.2496
1.4430 -1.8675 -0.2526
1.4957 -1.8668 -0.2462
1.5124 -1.8398 -0.2558
1.5539 -1.8310 -0.2544
1.6002 -1.8265 -0.2505
1.6237 -1.8032 -0.2577
1.6735 -1.8024 -0.2517
1.7186 -1.7983 -0.2477
1.7631 -1.7944 -0.2438
1.7757 -1.7581 -0.2580
1.8202 -1.7541 -0.2540
1.8424 -1.7254 -0.2637
1.8935 -1.7300 -0.2552
1.9405 -1.7311 -0.2488
1.9767 -1.7192 -0.2494
2.0157 -1.7113 -0.2479
2.0460 -1.6906 -0.2530
2.0824 -1.6786 -0.2536
2.1315 -1.6888 -0.2430
2.1671 -1.6770 -0.2436
2.2028 -1.6653 -0.2441
2.2303 -1.6358 -0.2535
2.2643 -1.6187 -0.2566
2.3081 -1.6258 -0.2480
2.3389 -1.6000 -0.2552
2.3780 -1.5969 -0.2516
2.4167 -1.5949 -0.2476
2.4524 -1.5832 -0.2482
2.4881 -1.5714 -0.2488
2.5255 -1.5689 -0.2451
2.5562 -1.5285 -0.2588
2.5950 -1.5362 -0.2505
2.6307 -1.5245 -0.2511
2.6645 -1.4870 -0.2631
2.7018 -1.4962 -0.2543
2.7375 -1.4786 -0.2575
2.7734 -1.4727 -0.2555
2.8090 -1.4658 -0.2540
2.8450 -1.4491 -0.2567
2.8813 -1.4313 -0.2598
2.9173 -1.4195 -0.2604
2.9562 -1.3862 -0.2699
2.9946 -1.3628 -0.2752
3.0251 -1.3840 -0.2621
3.0671 -1.3438 -0.2743
3.1010 -1.3434 -0.2701
3.1313 -1.3549 -0.2613
3.1656 -1.3485 -0.2597
3.2049 -1.3248 -0.2650
3.2351 -1.3305 -0.2587
3.2787 -1.2956 -0.2684
3.3238 -1.2593 -0.2784
3.3579 -1.2540 -0.2764
3.3944 -1.2420 -0.2770
3.4285 -1.2356 -0.2754
3.4617 -1.2305 -0.2734
3.4811 -1.2544 -0.2606
3.5108 -1.2544 -0.2568
3.5578 -1.2194 -0.2661
1.3651 -1.9650 -0.2602
1.4169 -1.9635 -0.2538
1.4407 -1.9450 -0.2591
1.4660 -1.9270 -0.2641
1.5166 -1.9258 -0.2577
1.5562 -1.9176 -0.2561
1.5991 -1.9122 -0.2527
1.6258 -1.8947 -0.2572
1.6472 -1.8722 -0.2647
1.7335 -1.8631 -0.2571
1.7614 -1.8453 -0.2616
1.8000 -1.8374 -0.2600
1.8348 -1.8259 -0.2606
1.8826 -1.8286 -0.2528
1.9045 -1.8030 -0.2617
1.9886 -1.7985 -0.2522
2.0515 -1.7682 -0.2578
2.0833 -1.7528 -0.2605
2.2528 -1.6884 -0.2673
2.5712 -1.6156 -0.2576
2.6040 -1.5960 -0.2622
2.6400 -1.6026 -0.2542
2.6728 -1.5783 -0.2611
2.7058 -1.5432 -0.2729
2.7406 -1.5366 -0.2712
2.7752 -1.5203 -0.2740
2.8099 -1.5089 -0.2746
2.8428 -1.5262 -0.2620
2.8767 -1.5150 -0.2626
2.9467 -1.4784 -0.2700
2.9818 -1.4620 -0.2728
3.0163 -1.4507 -0.2734
3.0530 -1.4289 -0.2785
3.0887 -1.4133 -0.2809
3.1250 -1.3965 -0.2837
3.1572 -1.3946 -0.2802
3.1919 -1.3832 -0.2808
3.2248 -1.3772 -0.2790
3.2614 -1.3604 -0.2819
3.2940 -1.3545 -0.2802
3.3348 -1.3275 -0.2871
3.3655 -1.3261 -0.2836
3.4047 -1.3045 -0.2883
3.4350 -1.3032 -0.2847
3.4670 -1.2975 -0.2830
3.5016 -1.2862 -0.2835
3.5362 -1.2748 -0.2841
1.5035 -2.0528 -0.2367
1.5096 -2.0268 -0.2487
1.5370 -2.0130 -0.2516
1.5784 -2.0080 -0.2479
1.6070 -1.9947 -0.2503
1.6469 -1.9893 -0.2471
1.6756 -1.9760 -0.2495
1.6932 -1.9539 -0.2579
1.7218 -1.9397 -0.2608
1.7588 -1.9323 -0.2590
1.7846 -1.9152 -0.2637
1.8275 -1.9135 -0.2582
1.8603 -1.9028 -0.2587
1.9114 -1.9109 -0.2471
1.9407 -1.8974 -0.2495
1.9695 -1.8831 -0.2523
2.0018 -1.8725 -0.2529
2.0395 -1.8688 -0.2492
2.0830 -1.8737 -0.2403
2.1123 -1.8602 -0.2427
2.1439 -1.8498 -0.2432
2.1676 -1.8266 -0.2512
2.2052 -1.8258 -0.2461
2.2334 -1.8088 -0.2504
2.2703 -1.8082 -0.2453
2.2957 -1.7845 -0.2533
2.3367 -1.7950 -0.2420
2.3597 -1.7634 -0.2544
2.3918 -1.7528 -0.2549
2.4260 -1.7493 -0.2516
2.4558 -1.7318 -0.2559
2.4897 -1.7283 -0.2526
2.5215 -1.7178 -0.2532
2.5519 -1.7001 -0.2575
2.5851 -1.6969 -0.2542
2.6179 -1.6938 -0.2509
2.6498 -1.6871 -0.2495
2.6817 -1.6815 -0.2476
2.7117 -1.6389 -0.2644
2.7441 -1.6407 -0.2587
2.7759 -1.6418 -0.2534
2.8076 -1.6275 -0.2559
2.8391 -1.6210 -0.2545
2.8718 -1.5987 -0.2607
2.9032 -1.5922 -0.2593
2.9362 -1.5737 -0.2637
2.9705 -1.5499 -0.2705
2.9979 -1.5649 -0.2590
3.0352 -1.5286 -0.2715
3.0666 -1.5221 -0.2701
3.1000 -1.5073 -0.2726
3.1311 -1.5009 -0.2712
3.1704 -1.4678 -0.2819
3.2065 -1.4473 -0.2868
3.2710 -1.4299 -0.2859
3.3486 -1.4457 -0.2666
3.3867 -1.4216 -0.2729
3.4122 -1.4247 -0.2676
3.4509 -1.4005 -0.2740
3.4885 -1.3795 -0.2789
3.5077 -1.3933 -0.2691
1.5806 -2.1304 -0.2203
1.5561 -2.0898 -0.2457
1.5589 -2.0631 -0.2594
1.6011 -2.0597 -0.2545
1.6214 -2.0426 -0.2604
1.6630 -2.0393 -0.2555
1.6876 -2.0246 -0.2595
1.7214 -2.0163 -0.2585
1.7525 -2.0061 -0.2590
1.7810 -1.9939 -0.2610
1.8016 -1.9747 -0.2679
1.8456 -1.9754 -0.2605
1.8615 -1.9511 -0.2709
1.9078 -1.9550 -0.2615
1.9367 -1.9426 -0.2635
1.9699 -1.9346 -0.2625
2.0036 -1.9273 -0.2610
2.0395 -1.9231 -0.2576
2.0703 -1.9130 -0.2581
2.0987 -1.8998 -0.2606
2.1296 -1.8896 -0.2611
2.1604 -1.8795 -0.2616
2.1859 -1.8606 -0.2675
2.2240 -1.8624 -0.2606
2.2530 -1.8490 -0.2631
2.2888 -1.8487 -0.2576
2.3737 -1.8017 -0.2691
2.4775 -1.8076 -0.2495
2.6559 -1.7355 -0.2595
2.7467 -1.6942 -0.2670
2.7773 -1.6841 -0.2675
2.8083 -1.6663 -0.2721
2.8394 -1.6522 -0.2746
2.8693 -1.6539 -0.2690
2.9004 -1.6398 -0.2715
2.9311 -1.6297 -0.2720
2.9633 -1.6115 -0.2766
2.9957 -1.5942 -0.2807
3.0261 -1.5870 -0.2796
3.0562 -1.5809 -0.2781
3.0891 -1.5634 -0.2822
3.1144 -1.5732 -0.2730
3.1386 -1.5834 -0.2637
3.1432 -1.7182 -0.1915
3.1612 -1.7314 -0.1816
3.1825 -1.7339 -0.1769
3.2005 -1.7432 -0.1691
3.2142 -1.7606 -0.1577
3.2340 -1.7627 -0.1535
3.2565 -1.7581 -0.1523
3.2767 -1.7582 -0.1491
1.6001 -2.1213 -0.2562
1.6193 -2.1056 -0.2619
1.6450 -2.0933 -0.2644
1.6962 -2.0973 -0.2535
1.7349 -2.0940 -0.2488
1.7703 -2.0890 -0.2457
1.7956 -2.0769 -0.2482
1.8340 -2.0747 -0.2430
1.8626 -2.0653 -0.2434
1.8774 -2.0443 -0.2527
1.9112 -2.0389 -0.2501
1.9401 -2.0293 -0.2505
1.9792 -2.0297 -0.2437
2.0098 -2.0225 -0.2426
2.0383 -2.0131 -0.2431
2.0583 -1.9942 -0.2503
2.0846 -1.9818 -0.2529
2.1159 -1.9753 -0.2513
2.1424 -1.9628 -0.2538
2.1789 -1.9640 -0.2470
2.2110 -1.9601 -0.2437
2.2394 -1.9507 -0.2442
2.2691 -1.9438 -0.2431
2.2974 -1.9345 -0.2435
2.3269 -1.9276 -0.2424
2.3501 -1.9077 -0.2497
2.3750 -1.8900 -0.2555
2.4104 -1.8973 -0.2454
2.4387 -1.8880 -0.2458
2.4603 -1.8582 -0.2590
2.4919 -1.8582 -0.2536
2.5206 -1.8487 -0.2541
2.5511 -1.8481 -0.2493
2.5771 -1.8264 -0.2571
2.6078 -1.8295 -0.2502
2.6353 -1.8138 -0.2543
2.6645 -1.8108 -0.2511
2.6928 -1.8015 -0.2515
2.7209 -1.7856 -0.2557
2.7495 -1.7791 -0.2546
2.7780 -1.7669 -0.2567
2.8066 -1.7546 -0.2587
2.8355 -1.7413 -0.2613
2.8638 -1.7358 -0.2597
2.8917 -1.7323 -0.2569
2.9227 -1.7060 -0.2665
2.9491 -1.7106 -0.2594
2.9783 -1.6981 -0.2615
3.0062 -1.6918 -0.2604
3.0365 -1.6752 -0.2646
3.0709 -1.6449 -0.2758
3.0927 -1.6605 -0.2634
3.1193 -1.6574 -0.2606
3.1437 -1.7279 -0.2167
3.1641 -1.7345 -0.2096
3.1842 -1.7402 -0.2030
3.2007 -1.7527 -0.1931
3.2183 -1.7611 -0.1854
3.2329 -1.7743 -0.1755
3.2493 -1.7821 -0.1683
3.2701 -1.7800 -0.1660
3.2870 -1.7849 -0.1604
1.6419 -2.1512 -0.2657
1.7157 -2.1428 -0.2573
1.7369 -2.1293 -0.2616
1.7594 -2.1162 -0.2653
1.7878 -2.1069 -0.2658
1.8241 -2.1034 -0.2613
1.8634 -2.1027 -0.2547
1.8937 -2.0955 -0.2535
1.9141 -2.0804 -0.2589
1.9396 -2.0692 -0.2610
1.9646 -2.0572 -0.2636
2.0000 -2.0549 -0.2586
2.0278 -2.0458 -0.2590
2.0489 -2.0294 -0.2650
2.0816 -2.0253 -0.2616
2.1169 -2.0249 -0.2554
2.1505 -2.0233 -0.2504
2.3210 -1.9812 -0.2447
2.3491 -1.9748 -0.2435
2.4529 -1.9294 -0.2519
2.4864 -1.9400 -0.2396
2.5065 -1.9089 -0.2545
2.5902 -1.8926 -0.2491
2.6705 -1.8606 -0.2538
2.6988 -1.8701 -0.2430
2.7791 -1.8108 -0.2639
2.8063 -1.8075 -0.2610
2.8327 -1.8100 -0.2547
2.8600 -1.7982 -0.2568
2.8886 -1.7775 -0.2640
2.9185 -1.7527 -0.2735
2.9435 -1.7595 -0.2649
2.9729 -1.7404 -0.2710
2.9999 -1.7344 -0.2698
3.0264 -1.7294 -0.2679
3.0827 -1.7071 -0.2711
3.1079 -1.7054 -0.2676
3.1298 -1.7123 -0.2595
3.1399 -1.7493 -0.2356
3.1658 -1.7408 -0.2360
3.1965 -1.7204 -0.2427
3.2421 -1.6669 -0.2664
3.2758 -1.6436 -0.2742
3.3122 -1.6635 -0.2558
3.3342 -1.6638 -0.2516
1.7538 -2.1965 -0.2495
1.7692 -2.1812 -0.2562
1.7978 -2.1737 -0.2555
1.8224 -2.1637 -0.2571
1.8435 -2.1511 -0.2610
1.8774 -2.1475 -0.2568
1.9117 -2.1446 -0.2521
1.9355 -2.1339 -0.2542
1.9554 -2.1199 -0.2592
1.9883 -2.1166 -0.2551
2.0215 -2.1140 -0.2503
2.0491 -2.1068 -0.2496
2.0773 -2.1003 -0.2483
2.0979 -2.0861 -0.2533
2.1241 -2.0775 -0.2537
2.1535 -2.0725 -0.2513
2.1831 -2.0683 -0.2482
2.2108 -2.0620 -0.2469
2.2594 -2.0404 -0.2512
2.2883 -2.0365 -0.2482
2.3128 -2.0256 -0.2503
2.3387 -2.0171 -0.2508
2.3647 -2.0086 -0.2512
2.3906 -2.0000 -0.2516
2.4194 -1.9980 -0.2474
2.4435 -1.9854 -0.2507
2.4708 -1.9811 -0.2482
2.4944 -1.9659 -0.2533
2.5456 -1.9462 -0.2559
2.5727 -1.9429 -0.2528
2.5999 -1.9414 -0.2485
2.6236 -1.9205 -0.2571
2.6496 -1.9120 -0.2576
2.6757 -1.9034 -0.2580
2.7022 -1.9031 -0.2531
2.7278 -1.8891 -0.2571
2.7537 -1.8805 -0.2575
2.8055 -1.8663 -0.2566
2.8315 -1.8549 -0.2587
2.8569 -1.8522 -0.2556
2.8826 -1.8437 -0.2561
2.9081 -1.8372 -0.2553
2.9353 -1.8208 -0.2604
2.9612 -1.8123 -0.2609
2.9886 -1.7977 -0.2648
3.0160 -1.7840 -0.2682
3.0407 -1.7805 -0.2657
3.0659 -1.7750 -0.2643
3.0967 -1.7518 -0.2730
3.1157 -1.7642 -0.2616
3.1372 -1.7674 -0.2555
3.1662 -1.7504 -0.2606
3.1946 -1.7354 -0.2646
3.2258 -1.7149 -0.2716
3.2450 -1.7217 -0.2637
3.2740 -1.7065 -0.2677
3.2984 -1.7013 -0.2663
3.3261 -1.6894 -0.2685
3.3454 -1.6933 -0.2624
3.3692 -1.6883 -0.2610
1.7892 -2.2224 -0.2566
1.8116 -2.2123 -0.2588
1.8323 -2.2008 -0.2623
1.8683 -2.1992 -0.2561
1.8955 -2.1921 -0.2553
1.9278 -2.1888 -0.2509
1.9486 -2.1774 -0.2543
1.9738 -2.1691 -0.2547
1.9950 -2.1575 -0.2581
2.0157 -2.1451 -0.2622
2.0472 -2.1422 -0.2577
2.0964 -2.1241 -0.2598
2.1251 -2.1193 -0.2572
2.1471 -2.1074 -0.2606
2.1787 -2.1063 -0.2550
2.2008 -2.0944 -0.2584
2.2215 -2.0802 -0.2636
2.2739 -2.0657 -0.2627
2.3002 -2.0589 -0.2618
2.3886 -2.0585 -0.2442
2.4112 -2.0464 -0.2477
2.5582 -1.9953 -0.2519
2.5828 -1.9872 -0.2523
2.6326 -1.9736 -0.2512
2.6572 -1.9655 -0.2516
2.6818 -1.9574 -0.2520
2.9073 -1.8591 -0.2717
2.9329 -1.8489 -0.2733
2.9583 -1.8405 -0.2737
2.9836 -1.8322 -0.2742
3.0071 -1.8309 -0.2702
3.0361 -1.8094 -0.2787
3.0581 -1.8123 -0.2723
3.0799 -1.8144 -0.2665
3.1115 -1.7873 -0.2781
3.1357 -1.7821 -0.2766
3.1833 -1.7729 -0.2731
3.2306 -1.7629 -0.2702
3.2545 -1.7569 -0.2693
3.2750 -1.7576 -0.2647
3.3056 -1.7383 -0.2714
3.3324 -1.7266 -0.2737
3.3626 -1.7093 -0.2791
1.8176 -2.2658 -0.2509
1.8488 -2.2619 -0.2470
1.8727 -2.2541 -0.2473
1.8995 -2.2480 -0.2458
1.9055 -2.2286 -0.2581
1.9299 -2.2206 -0.2585
1.9684 -2.2226 -0.2489
1.9863 -2.2103 -0.2537
2.0087 -2.2011 -0.2553
2.0385 -2.1977 -0.2513
2.0640 -2.1911 -0.2504
2.0931 -2.1880 -0.2464
2.1118 -2.1754 -0.2512
2.1392 -2.1710 -0.2484
2.1616 -2.1618 -0.2501
2.1900 -2.1589 -0.2461
2.2117 -2.1489 -0.2483
2.2313 -2.1361 -0.2532
2.2541 -2.1267 -0.2548
2.2818 -2.1240 -0.2508
2.3056 -2.1162 -0.2511
2.3284 -2.1069 -0.2528
2.3554 -2.1044 -0.2487
2.3799 -2.0982 -0.2479
2.4035 -2.0904 -0.2482
2.4279 -2.0842 -0.2473
2.4482 -2.0693 -0.2535
2.4727 -2.0631 -0.2526
2.4979 -2.0594 -0.2498
2.5214 -2.0516 -0.2501
2.5477 -2.0531 -0.2435
2.5686 -2.0361 -0.2509
2.5922 -2.0283 -0.2513
2.6155 -2.0188 -0.2530
2.6391 -2.0111 -0.2533
2.6624 -2.0006 -0.2556
2.6871 -2.0035 -0.2483
2.7104 -1.9931 -0.2506
2.7336 -1.9772 -0.2568
2.7573 -1.9722 -0.2553
2.7812 -1.9533 -0.2633
2.8051 -1.9473 -0.2625
2.8284 -1.9460 -0.2583
2.8519 -1.9411 -0.2568
2.8768 -1.9237 -0.2636
2.9007 -1.9158 -0.2640
2.9263 -1.8991 -0.2702
2.9485 -1.9001 -0.2648
2.9696 -1.9042 -0.2574
2.9955 -1.8873 -0.2636
3.0202 -1.8765 -0.2659
3.0432 -1.8717 -0.2644
3.0681 -1.8607 -0.2667
3.0946 -1.8456 -0.2716
3.1167 -1.8429 -0.2688
3.1385 -1.8403 -0.2659
3.1605 -1.8367 -0.2637
3.1818 -1.8343 -0.2609
3.2054 -1.8265 -0.2612
3.2338 -1.8089 -0.2675
3.2576 -1.8011 -0.2679
3.2739 -1.8077 -0.2598
3.3041 -1.7877 -0.2673
3.3266 -1.7821 -0.2664
1.8325 -2.2992 -0.2523
1.8505 -2.2887 -0.2560
1.8758 -2.2822 -0.2550
1.9040 -2.2775 -0.2522
1.9223 -2.2669 -0.2558
1.9455 -2.2593 -0.2562
1.9633 -2.2480 -0.2605
1.9902 -2.2428 -0.2582
2.0152 -2.2363 -0.2573
2.0409 -2.2306 -0.2557
2.0513 -2.2126 -0.2666
2.0803 -2.2095 -0.2624
2.1179 -2.2144 -0.2503
2.2043 -2.1787 -0.2570
2.2552 -2.1692 -0.2525
2.3037 -2.1578 -0.2499
2.3492 -2.1428 -0.2507
2.3738 -2.1384 -0.2484
2.4239 -2.1328 -0.2412
2.5345 -2.0928 -0.2456
2.5560 -2.0821 -0.2487
2.5768 -2.0679 -0.2544
2.6461 -2.0524 -0.2501
2.6693 -2.0502 -0.2465
2.6919 -2.0446 -0.2455
2.7815 -2.0042 -0.2550
2.8493 -1.9838 -0.2548
2.8716 -1.9782 -0.2538
2.8951 -1.9650 -0.2582
2.9182 -1.9556 -0.2599
2.9441 -1.9334 -0.2704
2.9689 -1.9189 -0.2754
3.0107 -1.9206 -0.2647
3.0554 -1.9086 -0.2635
3.0775 -1.9032 -0.2625
3.0986 -1.8999 -0.2601
3.1221 -1.8903 -0.2619
3.1466 -1.8786 -0.2649
3.1695 -1.8711 -0.2653
3.1913 -1.8657 -0.2643
3.2177 -1.8507 -0.2694
3.2452 -1.8343 -0.2752
3.2672 -1.8289 -0.2743
3.2890 -1.8236 -0.2733
3.3134 -1.8137 -0.2750
1.8535 -2.3337 -0.2491
1.8799 -2.3286 -0.2468
1.8998 -2.3203 -0.2485
1.9199 -2.3119 -0.2502
1.9499 -2.3092 -0.2451
1.9699 -2.3009 -0.2468
1.9881 -2.2912 -0.2499
2.0120 -2.2852 -0.2489
2.0375 -2.2804 -0.2465
2.0474 -2.2645 -0.2565
2.0714 -2.2584 -0.2555
2.0936 -2.2511 -0.2558
2.1205 -2.2477 -0.2521
2.1395 -2.2378 -0.2552
2.1689 -2.2372 -0.2487
2.1936 -2.2327 -0.2463
2.2114 -2.2214 -0.2508
2.2321 -2.2128 -0.2525
2.2578 -2.2097 -0.2487
2.2808 -2.2040 -0.2477
2.2981 -2.1910 -0.2536
2.3190 -2.1823 -0.2553
2.3462 -2.1824 -0.2488
2.3670 -2.1738 -0.2505
2.3925 -2.1726 -0.2453
2.4090 -2.1564 -0.2540
2.4342 -2.1553 -0.2488
2.4776 -2.1410 -0.2495
2.4955 -2.1243 -0.2582
2.5182 -2.1186 -0.2571
2.5429 -2.1195 -0.2506
2.5646 -2.1124 -0.2509
2.5855 -2.1019 -0.2540
2.6081 -2.0981 -0.2516
2.6282 -2.0824 -0.2589
2.6513 -2.0820 -0.2537
2.6733 -2.0766 -0.2527
2.6949 -2.0677 -0.2544
2.7168 -2.0623 -0.2534
2.7384 -2.0516 -0.2565
2.7603 -2.0480 -0.2541
2.7821 -2.0372 -0.2572
2.8039 -2.0318 -0.2562
2.8262 -2.0191 -0.2607
2.8481 -2.0119 -0.2611
2.8685 -2.0160 -0.2530
2.8924 -1.9955 -0.2632
2.9136 -1.9921 -0.2607
2.9364 -1.9810 -0.2639
2.9831 -1.9566 -0.2716
3.0036 -1.9553 -0.2678
3.0276 -1.9419 -0.2724
3.0457 -1.9468 -0.2643
3.0669 -1.9417 -0.2632
3.0888 -1.9344 -0.2636
3.1116 -1.9252 -0.2654
3.1372 -1.9095 -0.2713
3.1574 -1.9065 -0.2689
3.1765 -1.9056 -0.2650
3.1962 -1.9027 -0.2625
3.2169 -1.8977 -0.2615
3.2457 -1.8774 -0.2703
3.2641 -1.8768 -0.2664
3.2847 -1.8718 -0.2654
1.9293 -2.3407 -0.2519
1.9507 -2.3337 -0.2523
2.0119 -2.3108 -0.2555
2.0261 -2.2990 -0.2615
2.0565 -2.2979 -0.2547
2.0779 -2.2909 -0.2551
2.0926 -2.2789 -0.2611
2.1190 -2.2756 -0.2572
2.1373 -2.2660 -0.2604
2.1656 -2.2647 -0.2543
2.1897 -2.2604 -0.2518
2.2047 -2.2474 -0.2586
2.2308 -2.2451 -0.2539
2.2933 -2.2227 -0.2564
2.4491 -2.1867 -0.2466
2.4703 -2.1806 -0.2462
2.5324 -2.1593 -0.2480
2.5522 -2.1492 -0.2512
2.5727 -2.1406 -0.2530
2.5932 -2.1321 -0.2547
2.6147 -2.1268 -0.2536
2.6353 -2.1182 -0.2554
2.6584 -2.1241 -0.2449
2.6784 -2.1121 -0.2496
2.6990 -2.1027 -0.2521
2.7197 -2.0940 -0.2539
2.7405 -2.0809 -0.2593
2.7616 -2.0820 -0.2531
2.7829 -2.0634 -0.2629
2.8037 -2.0628 -0.2582
2.8249 -2.0550 -0.2592
2.8887 -2.0304 -0.2632
2.9740 -2.0005 -0.2660
2.9958 -1.9915 -0.2678
3.0152 -1.9905 -0.2638
3.0608 -1.9675 -0.2710
3.1023 -1.9565 -0.2695
3.1226 -1.9516 -0.2684
3.1429 -1.9467 -0.2673
3.2544 -1.9020 -0.2756
1.9240 -2.3775 -0.2488
1.9445 -2.3708 -0.2492
1.9712 -2.3673 -0.2451
1.9915 -2.3606 -0.2454
2.0108 -2.3534 -0.2465
2.0311 -2.3467 -0.2468
2.0477 -2.3377 -0.2501
2.0718 -2.3333 -0.2475
2.0877 -2.3236 -0.2515
2.1065 -2.3157 -0.2533
2.1286 -2.3102 -0.2522
2.1443 -2.2997 -0.2569
2.1703 -2.2973 -0.2521
2.1937 -2.2932 -0.2495
2.2140 -2.2865 -0.2498
2.2364 -2.2818 -0.2479
2.2534 -2.2718 -0.2519
2.2718 -2.2630 -0.2545
2.2941 -2.2584 -0.2526
2.3163 -2.2537 -0.2507
2.3360 -2.2464 -0.2518
2.3516 -2.2332 -0.2588
2.3747 -2.2301 -0.2554
2.3994 -2.2300 -0.2490
2.4187 -2.2218 -0.2509
2.4381 -2.2137 -0.2527
2.4580 -2.2062 -0.2537
2.4813 -2.2057 -0.2481
2.4997 -2.1952 -0.2522
2.5199 -2.1885 -0.2525
2.5407 -2.1834 -0.2513
2.5596 -2.1728 -0.2554
2.5811 -2.1702 -0.2520
2.6013 -2.1635 -0.2523
2.6221 -2.1594 -0.2504
2.6429 -2.1569 -0.2470
2.6821 -2.1369 -0.2536
2.7024 -2.1320 -0.2524
2.7222 -2.1193 -0.2580
2.7427 -2.1188 -0.2531
2.7629 -2.1023 -0.2617
2.7831 -2.1037 -0.2553
2.8034 -2.0952 -0.2571
2.8236 -2.0886 -0.2574
2.8434 -2.0856 -0.2547
2.8630 -2.0827 -0.2520
2.8835 -2.0733 -0.2546
2.9042 -2.0638 -0.2572
2.9244 -2.0572 -0.2575
2.9485 -2.0350 -0.2700
2.9675 -2.0341 -0.2658
3.0075 -2.0236 -0.2642
3.0271 -2.0189 -0.2630
3.0471 -2.0133 -0.2625
3.0666 -2.0086 -0.2614
3.0890 -1.9968 -0.2655
3.1080 -1.9932 -0.2635
3.1283 -1.9865 -0.2639
3.1465 -1.9841 -0.2611
3.1716 -1.9679 -0.2683
3.1880 -1.9687 -0.2633
3.2130 -1.9533 -0.2697
3.2335 -1.9466 -0.2701
3.2520 -1.9432 -0.2681
1.9526 -2.3956 -0.2507
1.9922 -2.3826 -0.2514
2.0130 -2.3766 -0.2509
2.0357 -2.3718 -0.2490
2.0713 -2.3565 -0.2527
2.0920 -2.3506 -0.2522
2.1092 -2.3423 -0.2548
2.1316 -2.3376 -0.2529
2.1464 -2.3274 -0.2578
2.1671 -2.3215 -0.2573
2.1908 -2.3181 -0.2538
2.2361 -2.3103 -0.2483
2.2536 -2.3019 -0.2509
2.3137 -2.2838 -0.2504
2.3545 -2.2731 -0.2487
2.3724 -2.2645 -0.2513
2.3910 -2.2566 -0.2532
2.4130 -2.2538 -0.2496
2.4325 -2.2474 -0.2499
2.4508 -2.2387 -0.2526
2.4755 -2.2421 -0.2429
2.4921 -2.2304 -0.2486
2.5105 -2.2217 -0.2512
2.5338 -2.2246 -0.2422
2.5489 -2.2073 -0.2534
2.5716 -2.2104 -0.2444
2.5906 -2.2033 -0.2455
2.6101 -2.1978 -0.2450
2.6272 -2.1816 -0.2547
2.6479 -2.1818 -0.2488
2.6669 -2.1729 -0.2514
2.6863 -2.1665 -0.2517
2.7252 -2.1546 -0.2516
2.7640 -2.1365 -0.2569
2.7831 -2.1435 -0.2455
2.8025 -2.1336 -0.2489
2.8229 -2.1145 -0.2602
2.8410 -2.1209 -0.2496
2.8614 -2.1072 -0.2561
2.8810 -2.0998 -0.2572
2.9218 -2.0793 -0.2641
2.9420 -2.0709 -0.2660
2.9587 -2.0751 -0.2577
2.9785 -2.0677 -0.2588
2.9977 -2.0623 -0.2583
3.0186 -2.0519 -0.2618
3.0370 -2.0485 -0.2597
3.0565 -2.0421 -0.2601
3.0756 -2.0367 -0.2596
3.0936 -2.0334 -0.2575
3.1150 -2.0228 -0.2610
3.1989 -1.9864 -0.2702
3.2143 -1.9875 -0.2650
2.4769 -3.7431 -0.2502
2.4965 -3.7367 -0.2505
2.5365 -3.7220 -0.2496
2.5571 -3.7127 -0.2476
2.5782 -3.7015 -0.2441
2.5969 -3.6971 -0.2459
2.6348 -3.6883 -0.2496
2.7125 -3.6647 -0.2523
2.7327 -3.6529 -0.2481
2.7523 -3.6448 -0.2468
2.7715 -3.6412 -0.2494
2.7911 -3.6287 -0.2444
2.8103 -3.6251 -0.2470
2.8296 -3.6171 -0.2458
2.8489 -3.6108 -0.2461
2.8683 -3.6062 -0.2479
2.8874 -3.5983 -0.2467
2.9059 -3.5871 -0.2424
2.9255 -3.5833 -0.2450
2.9450 -3.5787 -0.2468
2.9835 -3.5661 -0.2474
3.0035 -3.5622 -0.2500
3.0206 -3.5498 -0.2441
3.0397 -3.5435 -0.2444
3.0608 -3.5419 -0.2494
3.0779 -3.5311 -0.2450
3.0978 -3.5264 -0.2469
3.1157 -3.5180 -0.2449
3.1352 -3.5125 -0.2459
3.1552 -3.5077 -0.2478
3.1744 -3.5015 -0.2481
3.1936 -3.4952 -0.2484
3.2133 -3.4897 -0.2495
3.2307 -3.4814 -0.2474
3.2516 -3.4772 -0.2501
3.2740 -3.4743 -0.2542
3.2920 -3.4667 -0.2530
3.3133 -3.4623 -0.2556
3.3298 -3.4535 -0.2528
3.3498 -3.4479 -0.2539
3.3690 -3.4416 -0.2542
3.3899 -3.4366 -0.2560
3.4051 -3.4273 -0.2525
3.4243 -3.4210 -0.2528
3.4409 -3.4130 -0.2507
3.4618 -3.4080 -0.2526
3.4846 -3.4040 -0.2560
3.5039 -3.3977 -0.2563
3.5261 -3.3931 -0.2589
3.5334 -3.3803 -0.2499
3.5514 -3.3736 -0.2494
3.5715 -3.3679 -0.2505
3.5959 -3.3643 -0.2547
3.6150 -3.3581 -0.2550
3.6319 -3.3509 -0.2537
3.6534 -3.3456 -0.2556
2.3819 -3.8086 -0.2532
2.4224 -3.7964 -0.2546
2.4410 -3.7938 -0.2578
2.4648 -3.7799 -0.2530
2.4843 -3.7753 -0.2548
2.5036 -3.7717 -0.2573
2.5242 -3.7650 -0.2576
2.5475 -3.7504 -0.2521
2.5685 -3.7418 -0.2509
2.5882 -3.7372 -0.2527
2.6091 -3.7286 -0.2516
2.6277 -3.7287 -0.2570
2.6482 -3.7220 -0.2574
2.6700 -3.7088 -0.2525
2.6910 -3.6985 -0.2499
2.7106 -3.6956 -0.2532
2.7319 -3.6808 -0.2468
2.7512 -3.6824 -0.2538
2.7722 -3.6651 -0.2453
2.7921 -3.6603 -0.2470
2.8323 -3.6499 -0.2499
2.8526 -3.6477 -0.2539
2.8729 -3.6411 -0.2542
2.9133 -3.6279 -0.2549
2.9344 -3.6254 -0.2589
2.9546 -3.6180 -0.2585
2.9726 -3.6025 -0.2506
2.9955 -3.6055 -0.2598
3.0128 -3.5894 -0.2512
3.0535 -3.5779 -0.2534
3.0777 -3.5806 -0.2626
3.0926 -3.5626 -0.2517
3.1138 -3.5583 -0.2543
3.1352 -3.5540 -0.2568
3.1541 -3.5452 -0.2549
3.1728 -3.5365 -0.2530
3.1958 -3.5343 -0.2578
3.2160 -3.5277 -0.2581
3.2345 -3.5190 -0.2562
3.2488 -3.5056 -0.2490
3.2930 -3.4974 -0.2549
3.3296 -3.4811 -0.2518
3.3538 -3.4785 -0.2566
3.3768 -3.4745 -0.2599
3.3901 -3.4623 -0.2534
3.4132 -3.4583 -0.2568
3.4557 -3.4471 -0.2596
3.4741 -3.4394 -0.2584
3.4933 -3.4322 -0.2580
3.5362 -3.4209 -0.2609
3.5534 -3.4127 -0.2589
3.5664 -3.4023 -0.2540
3.5934 -3.3997 -0.2596
3.6679 -3.3711 -0.2570
2.6901 -3.7206 -0.2422
2.7108 -3.7139 -0.2425
2.7520 -3.7014 -0.2439
2.7728 -3.6937 -0.2435
2.7935 -3.6870 -0.2438
2.8348 -3.6744 -0.2452
2.9163 -3.6391 -0.2393
2.9795 -3.6265 -0.2467
3.0013 -3.6238 -0.2506
3.0221 -3.6170 -0.2510
3.1046 -3.5884 -0.2508
3.1234 -3.5779 -0.2476
3.1423 -3.5682 -0.2450
3.1660 -3.5667 -0.2504
3.1867 -3.5600 -0.2507
3.2058 -3.5511 -0.2489
3.2244 -3.5416 -0.2463
3.2471 -3.5377 -0.2495
3.2625 -3.5247 -0.2433
3.2883 -3.5243 -0.2501
3.3102 -3.5189 -0.2519
3.3309 -3.5122 -0.2522
3.3515 -3.5055 -0.2526
3.3708 -3.4974 -0.2514
3.3914 -3.4907 -0.2518
3.4350 -3.4792 -0.2546
3.4516 -3.4694 -0.2513
3.4755 -3.4651 -0.2545
3.4884 -3.4530 -0.2483
3.5133 -3.4493 -0.2522
3.5320 -3.4415 -0.2511
3.5544 -3.4359 -0.2529
3.5769 -3.4304 -0.2547
3.5935 -3.4215 -0.2521
3.6202 -3.4181 -0.2568
3.6367 -3.4092 -0.2542
3.6551 -3.4014 -0.2530
3.6800 -3.3968 -0.2563
3.7029 -3.3912 -0.2580
3.7166 -3.3814 -0.2540
2.3499 -3.8890 -0.2557
2.3732 -3.8797 -0.2546
2.3963 -3.8704 -0.2536
2.4194 -3.8611 -0.2526
2.4442 -3.8477 -0.2489
2.4626 -3.8488 -0.2547
2.4832 -3.8457 -0.2577
2.5296 -3.8252 -0.2544
2.5504 -3.8220 -0.2574
2.5743 -3.8089 -0.2537
2.5947 -3.8076 -0.2581
2.6183 -3.7946 -0.2544
2.6403 -3.7875 -0.2547
2.6630 -3.7765 -0.2523
2.6852 -3.7675 -0.2513
2.7065 -3.7641 -0.2544
2.7287 -3.7552 -0.2534
2.7511 -3.7425 -0.2496
2.7726 -3.7391 -0.2527
2.7944 -3.7338 -0.2544
2.8162 -3.7320 -0.2588
2.8380 -3.7160 -0.2523
2.8604 -3.7194 -0.2609
2.8821 -3.7070 -0.2571
2.9034 -3.6948 -0.2533
2.9237 -3.6784 -0.2461
2.9455 -3.6731 -0.2478
2.9663 -3.6627 -0.2454
2.9909 -3.6681 -0.2561
3.0147 -3.6675 -0.2619
3.0346 -3.6539 -0.2568
3.0564 -3.6468 -0.2571
3.0802 -3.6444 -0.2616
3.0987 -3.6294 -0.2550
3.1164 -3.6139 -0.2478
3.1406 -3.6123 -0.2529
3.1648 -3.6097 -0.2574
3.1847 -3.5997 -0.2550
3.2012 -3.5845 -0.2477
3.2246 -3.5805 -0.2508
3.2508 -3.5800 -0.2574
3.2737 -3.5743 -0.2591
3.2954 -3.5672 -0.2595
3.3148 -3.5574 -0.2570
3.3352 -3.5490 -0.2560
3.3634 -3.5487 -0.2633
3.3798 -3.5362 -0.2581
3.4058 -3.5331 -0.2626
3.4291 -3.5273 -0.2643
3.4525 -3.5215 -0.2660
3.4697 -3.5105 -0.2622
3.4915 -3.5034 -0.2625
3.5056 -3.4908 -0.2566
3.5316 -3.4869 -0.2604
3.5469 -3.4756 -0.2559
3.5684 -3.4686 -0.2562
3.6329 -3.4477 -0.2572
3.6637 -3.4457 -0.2639
3.6801 -3.4359 -0.2607
3.7050 -3.4304 -0.2631
3.7244 -3.4223 -0.2621
3.7381 -3.4117 -0.2575
2.4720 -3.8864 -0.2574
2.4933 -3.8840 -0.2610
2.5182 -3.8714 -0.2581
2.5454 -3.8509 -0.2500
2.6356 -3.8251 -0.2540
2.6592 -3.8139 -0.2518
2.7520 -3.7630 -0.2381
2.7963 -3.7504 -0.2401
2.9521 -3.7016 -0.2439
3.0188 -3.6798 -0.2449
3.0406 -3.6710 -0.2439
3.0639 -3.6669 -0.2469
3.0850 -3.6565 -0.2446
3.1079 -3.6509 -0.2463
3.1286 -3.6405 -0.2440
3.1516 -3.6348 -0.2457
3.1721 -3.6246 -0.2433
3.1969 -3.6219 -0.2477
3.2211 -3.6176 -0.2507
3.2394 -3.6045 -0.2457
3.2626 -3.5987 -0.2474
3.2815 -3.5872 -0.2437
3.3070 -3.5843 -0.2481
3.3360 -3.5847 -0.2558
3.3553 -3.5740 -0.2528
3.3776 -3.5667 -0.2531
3.4000 -3.5594 -0.2535
3.4209 -3.5508 -0.2525
3.4432 -3.5436 -0.2528
3.4656 -3.5363 -0.2532
3.5069 -3.5193 -0.2512
3.5308 -3.5133 -0.2529
3.5478 -3.5024 -0.2492
3.5753 -3.4988 -0.2536
3.5939 -3.4892 -0.2513
3.6122 -3.4796 -0.2489
3.6342 -3.4725 -0.2493
3.6603 -3.4676 -0.2523
3.6804 -3.4592 -0.2513
3.7089 -3.4554 -0.2557
3.7289 -3.4470 -0.2547
3.7512 -3.4398 -0.2550
3.7734 -3.4326 -0.2554
3.8002 -3.4274 -0.2584
2.3890 -3.9511 -0.2541
2.4117 -3.9464 -0.2564
2.4387 -3.9313 -0.2524
2.4610 -3.9277 -0.2553
2.4858 -3.9178 -0.2544
2.5104 -3.9080 -0.2535
2.5330 -3.9042 -0.2564
2.5582 -3.8924 -0.2542
2.5821 -3.8847 -0.2546
2.6055 -3.8788 -0.2562
2.6295 -3.8710 -0.2566
2.6543 -3.8584 -0.2539
2.6795 -3.8421 -0.2486
2.7016 -3.8458 -0.2565
2.7260 -3.8333 -0.2537
2.7494 -3.8302 -0.2572
2.7741 -3.8077 -0.2475
2.7974 -3.8083 -0.2536
2.8211 -3.8006 -0.2539
2.8448 -3.7929 -0.2543
2.8680 -3.7772 -0.2490
2.9144 -3.7575 -0.2466
2.9392 -3.7594 -0.2539
2.9626 -3.7500 -0.2530
2.9861 -3.7423 -0.2534
3.0073 -3.7255 -0.2468
3.0316 -3.7212 -0.2497
3.0545 -3.7120 -0.2487
3.0805 -3.7117 -0.2548
3.1028 -3.7008 -0.2527
3.1276 -3.6963 -0.2556
3.1546 -3.6957 -0.2617
3.1813 -3.6934 -0.2665
3.1975 -3.6718 -0.2554
3.2465 -3.6595 -0.2587
3.2727 -3.6555 -0.2623
3.3666 -3.6231 -0.2625
3.3883 -3.6133 -0.2609
3.4080 -3.6015 -0.2574
3.4315 -3.5939 -0.2578
3.4578 -3.5889 -0.2607
3.4814 -3.5812 -0.2611
3.5019 -3.5709 -0.2589
3.5326 -3.5691 -0.2651
3.5538 -3.5595 -0.2635
3.5723 -3.5480 -0.2600
3.5932 -3.5385 -0.2584
3.6166 -3.5309 -0.2588
3.6344 -3.5197 -0.2553
3.6509 -3.5080 -0.2511
3.6720 -3.4993 -0.2502
3.7010 -3.4953 -0.2544
3.7242 -3.4878 -0.2548
3.7452 -3.4791 -0.2539
3.7683 -3.4716 -0.2542
3.7937 -3.4652 -0.2559
3.8123 -3.4555 -0.2537
3.8435 -3.4517 -0.2586
2.3964 -3.9951 -0.2559
2.4737 -3.9654 -0.2541
2.7506 -3.8524 -0.2433
2.7752 -3.8399 -0.2406
2.8236 -3.8241 -0.2414
2.8963 -3.8005 -0.2425
2.9208 -3.7944 -0.2441
2.9443 -3.7821 -0.2415
2.9690 -3.7769 -0.2437
3.0943 -3.7489 -0.2541
3.1563 -3.7004 -0.2363
3.1857 -3.7036 -0.2452
3.2331 -3.6864 -0.2448
3.3080 -3.6666 -0.2490
3.3518 -3.6450 -0.2448
3.4049 -3.6350 -0.2505
3.4291 -3.6272 -0.2509
3.4513 -3.6172 -0.2494
3.5018 -3.6035 -0.2520
3.5221 -3.5923 -0.2493
3.5543 -3.5910 -0.2558
3.5803 -3.5844 -0.2575
3.5961 -3.5701 -0.2517
3.6158 -3.5591 -0.2489
3.6489 -3.5575 -0.2555
3.6667 -3.5453 -0.2516
3.6927 -3.5387 -0.2532
3.7099 -3.5267 -0.2492
3.7338 -3.5189 -0.2496
3.7578 -3.5111 -0.2500
3.7796 -3.5022 -0.2491
3.8079 -3.4966 -0.2520
3.8319 -3.4888 -0.2523
3.8559 -3.4810 -0.2527
3.8858 -3.4759 -0.2562
2.3285 -4.0624 -0.2530
2.3538 -4.0560 -0.2545
2.3823 -4.0421 -0.2521
2.4064 -4.0389 -0.2553
2.4315 -4.0335 -0.2575
2.4589 -4.0218 -0.2562
2.4842 -4.0164 -0.2583
2.5131 -3.9996 -0.2541
2.5384 -3.9941 -0.2563
2.5669 -3.9766 -0.2515
2.5904 -3.9791 -0.2582
2.6183 -3.9626 -0.2540
2.6430 -3.9620 -0.2590
2.6695 -3.9515 -0.2583
2.6961 -3.9400 -0.2570
2.7233 -3.9211 -0.2511
2.7486 -3.9202 -0.2561
2.7746 -3.9145 -0.2582
2.8009 -3.8977 -0.2534
2.8269 -3.8975 -0.2590
2.8529 -3.8863 -0.2577
2.9552 -3.8401 -0.2512
2.9796 -3.8248 -0.2470
3.0072 -3.8259 -0.2538
3.0330 -3.8176 -0.2542
3.0600 -3.8134 -0.2575
3.0807 -3.7891 -0.2468
3.1061 -3.7809 -0.2472
3.1342 -3.7791 -0.2523
3.1609 -3.7732 -0.2544
3.1854 -3.7625 -0.2531
3.2017 -3.7360 -0.2401
3.2367 -3.7458 -0.2539
3.2651 -3.7421 -0.2578
3.2879 -3.7291 -0.2547
3.3151 -3.7230 -0.2568
3.3408 -3.7147 -0.2572
3.3648 -3.7041 -0.2559
3.3904 -3.6958 -0.2563
3.4198 -3.6917 -0.2602
3.4456 -3.6834 -0.2606
3.4734 -3.6771 -0.2628
3.5006 -3.6701 -0.2644
3.5287 -3.6637 -0.2665
3.5570 -3.6572 -0.2687
3.5721 -3.6394 -0.2609
3.6003 -3.6330 -0.2630
3.6285 -3.6266 -0.2652
3.6449 -3.6111 -0.2591
3.6749 -3.6060 -0.2625
3.7034 -3.5995 -0.2646
3.7292 -3.5911 -0.2650
3.7521 -3.5809 -0.2637
3.7728 -3.5695 -0.2611
3.7923 -3.5577 -0.2580
3.8177 -3.5494 -0.2583
3.8409 -3.5400 -0.2576
3.8520 -3.5244 -0.2502
3.8827 -3.5190 -0.2536
3.9044 -3.5092 -0.2522
2.3840 -4.1107 -0.2619
2.4042 -4.1227 -0.2732
2.4352 -4.1061 -0.2699
2.4697 -4.0772 -0.2599
2.5296 -4.0429 -0.2521
2.7766 -3.9374 -0.2411
3.0132 -3.8474 -0.2371
3.0413 -3.8458 -0.2419
3.0677 -3.8372 -0.2423
3.0919 -3.8218 -0.2383
3.1154 -3.8058 -0.2337
3.1404 -3.7949 -0.2324
3.1646 -3.7824 -0.2301
3.1903 -3.7740 -0.2305
3.2116 -3.7569 -0.2247
3.3018 -3.7536 -0.2416
3.3353 -3.7557 -0.2498
3.3570 -3.7403 -0.2452
3.3771 -3.7235 -0.2394
3.4050 -3.7172 -0.2415
3.4311 -3.7087 -0.2419
3.4573 -3.7002 -0.2423
3.4929 -3.7016 -0.2506
3.5503 -3.6885 -0.2548
3.5770 -3.6798 -0.2552
3.6037 -3.6712 -0.2556
3.6304 -3.6625 -0.2561
3.6786 -3.6412 -0.2535
3.7078 -3.6345 -0.2556
3.7316 -3.6240 -0.2543
3.7610 -3.6172 -0.2565
3.7818 -3.6049 -0.2535
3.8082 -3.5963 -0.2539
3.8347 -3.5877 -0.2543
3.8496 -3.5726 -0.2485
3.8811 -3.5670 -0.2517
3.9052 -3.5573 -0.2510
3.9280 -3.5471 -0.2497
3.9473 -3.5352 -0.2467
3.9898 -3.5344 -0.2551
2.3112 -4.1829 -0.2550
2.3416 -4.1702 -0.2539
2.3705 -4.1608 -0.2543
2.3995 -4.1514 -0.2548
2.4285 -4.1420 -0.2552
2.4574 -4.1325 -0.2557
2.4885 -4.1159 -0.2525
2.5162 -4.1106 -0.2550
2.5451 -4.1012 -0.2555
2.5748 -4.0878 -0.2539
2.6036 -4.0784 -0.2543
2.6317 -4.0730 -0.2568
2.6602 -4.0666 -0.2589
2.6895 -4.0542 -0.2577
2.7761 -4.0261 -0.2591
2.8051 -4.0101 -0.2559
2.8337 -3.9970 -0.2542
2.8914 -3.9848 -0.2588
2.9195 -3.9691 -0.2556
2.9486 -3.9634 -0.2581
3.0053 -3.9412 -0.2569
3.0266 -3.9005 -0.2384
3.0522 -3.8838 -0.2341
3.0750 -3.8595 -0.2250
3.1002 -3.8457 -0.2223
3.1215 -3.8219 -0.2132
3.1451 -3.8067 -0.2094
3.1701 -3.7958 -0.2082
3.1930 -3.7808 -0.2043
3.2316 -3.7973 -0.2212
3.2868 -3.8403 -0.2561
3.3077 -3.8185 -0.2480
3.3454 -3.8249 -0.2591
3.3791 -3.8234 -0.2649
3.4039 -3.8087 -0.2616
3.4193 -3.7822 -0.2498
3.4490 -3.7753 -0.2518
3.4851 -3.7758 -0.2592
3.5134 -3.7665 -0.2596
3.5397 -3.7552 -0.2585
3.5750 -3.7531 -0.2643
3.6035 -3.7438 -0.2647
3.6343 -3.7366 -0.2668
3.6605 -3.7252 -0.2656
3.6866 -3.7139 -0.2644
3.7092 -3.7000 -0.2611
3.7435 -3.6954 -0.2653
3.7719 -3.6862 -0.2658
3.8031 -3.6789 -0.2678
3.8316 -3.6696 -0.2683
3.8572 -3.6584 -0.2671
3.8757 -3.6431 -0.2622
3.8905 -3.6260 -0.2556
3.9387 -3.6038 -0.2527
3.9773 -3.6006 -0.2585
4.0018 -3.5898 -0.2573
2.3143 -4.2538 -0.2588
2.3468 -4.2395 -0.2574
2.4054 -4.2280 -0.2623
2.4363 -4.2179 -0.2627
2.5014 -4.1854 -0.2578
2.8079 -4.0300 -0.2333
3.0425 -3.9640 -0.2424
3.0580 -3.9023 -0.2128
3.0995 -3.8425 -0.1891
3.1251 -3.8314 -0.1881
3.1514 -3.8228 -0.1885
3.1811 -3.8216 -0.1934
3.2959 -3.8589 -0.2344
3.3652 -3.8591 -0.2474
3.4178 -3.8316 -0.2428
3.4532 -3.8304 -0.2488
3.4741 -3.8104 -0.2422
3.5118 -3.8114 -0.2497
3.5386 -3.7989 -0.2482
3.5678 -3.7894 -0.2486
3.5878 -3.7706 -0.2425
3.6211 -3.7654 -0.2460
3.6501 -3.7560 -0.2464
3.6792 -3.7465 -0.2469
3.7139 -3.7418 -0.2509
3.7465 -3.7350 -0.2534
3.7793 -3.7281 -0.2559
3.8016 -3.7133 -0.2523
3.8244 -3.6993 -0.2492
3.8601 -3.6943 -0.2532
3.8893 -3.6848 -0.2537
3.9519 -3.6682 -0.2566
3.9696 -3.6520 -0.2514
3.9954 -3.6408 -0.2503
4.0166 -3.6273 -0.2472
4.0500 -3.6202 -0.2497
4.0939 -3.6182 -0.2569
2.2625 -4.3303 -0.2517
2.2930 -4.3242 -0.2540
2.3322 -4.2953 -0.2466
2.3641 -4.2849 -0.2471
2.3914 -4.2884 -0.2537
2.4249 -4.2737 -0.2523
2.4547 -4.2716 -0.2566
2.4870 -4.2611 -0.2571
2.5213 -4.2423 -0.2538
2.5542 -4.2278 -0.2525
2.5863 -4.2174 -0.2530
2.6183 -4.2070 -0.2535
2.6497 -4.2006 -0.2558
2.6828 -4.1812 -0.2521
2.7151 -4.1669 -0.2508
2.7781 -4.1626 -0.2597
2.8103 -4.1445 -0.2565
2.8421 -4.1218 -0.2509
2.8741 -4.1190 -0.2551
2.9060 -4.1086 -0.2556
2.9388 -4.1065 -0.2604
2.9709 -4.0961 -0.2609
3.0004 -4.0703 -0.2533
3.0306 -4.0528 -0.2500
3.0523 -4.0010 -0.2283
3.0645 -3.9237 -0.1923
3.1048 -3.8572 -0.1666
3.1296 -3.8434 -0.1642
3.1694 -3.8676 -0.1831
3.3120 -3.9575 -0.2526
3.3545 -3.9675 -0.2650
3.3865 -3.9571 -0.2655
3.4160 -3.9427 -0.2636
3.4374 -3.9167 -0.2545
3.4776 -3.9189 -0.2627
3.5070 -3.9055 -0.2613
3.5339 -3.8891 -0.2579
3.5704 -3.8849 -0.2622
3.5994 -3.8716 -0.2608
3.6426 -3.8738 -0.2695
3.6568 -3.8453 -0.2580
3.6911 -3.8380 -0.2604
3.7256 -3.8305 -0.2628
3.7604 -3.8231 -0.2652
3.7855 -3.8073 -0.2618
3.8170 -3.7970 -0.2623
3.8554 -3.7922 -0.2667
3.8870 -3.7819 -0.2672
3.9187 -3.7716 -0.2677
3.9466 -3.7587 -0.2662
3.9859 -3.7535 -0.2706
4.0347 -3.7538 -0.2794
4.0587 -3.7384 -0.2760
4.0770 -3.7200 -0.2702
4.1226 -3.6900 -0.2634
4.1539 -3.6798 -0.2638
4.1944 -3.6742 -0.2682
2.1919 -4.4464 -0.2564
2.2648 -4.4141 -0.2536
2.3178 -4.3517 -0.2336
2.4377 -4.3530 -0.2541
2.4732 -4.3367 -0.2524
2.6077 -4.3025 -0.2589
2.7158 -4.2049 -0.2318
2.7484 -4.1943 -0.2323
3.0577 -4.0188 -0.2026
3.0745 -3.9576 -0.1772
3.0964 -3.9246 -0.1656
3.1614 -3.9293 -0.1785
3.2540 -3.9895 -0.2216
3.3220 -3.9789 -0.2280
3.3936 -3.9720 -0.2367
3.4952 -3.9475 -0.2422
3.5626 -3.9295 -0.2451
3.6008 -3.9257 -0.2496
3.6337 -3.9150 -0.2502
3.6513 -3.8881 -0.2407
3.6900 -3.8842 -0.2453
3.7417 -3.8923 -0.2576
3.7580 -3.8659 -0.2481
3.7905 -3.8553 -0.2486
3.8198 -3.8419 -0.2473
3.8557 -3.8341 -0.2496
3.8804 -3.8174 -0.2460
3.9289 -3.8189 -0.2548
3.9571 -3.8050 -0.2530
3.9945 -3.7976 -0.2558
4.0185 -3.7811 -0.2522
4.0551 -3.7731 -0.2545
4.2094 -3.7152 -0.2534
4.2465 -3.7070 -0.2557
2.1606 -4.5376 -0.2513
2.1971 -4.5257 -0.2518
2.2429 -4.4895 -0.2434
2.3105 -4.3900 -0.2112
2.3561 -4.3442 -0.1986
2.3391 -4.4901 -0.2586
2.3759 -4.4782 -0.2592
2.4141 -4.4609 -0.2577
2.4536 -4.4374 -0.2538
2.4914 -4.4193 -0.2519
2.5299 -4.3961 -0.2479
2.5637 -4.3958 -0.2530
2.6375 -4.3611 -0.2496
2.6739 -4.3444 -0.2481
2.7174 -4.2354 -0.2080
2.7515 -4.2068 -0.2010
2.7814 -4.2998 -0.2456
2.8169 -4.3134 -0.2570
2.8530 -4.2968 -0.2554
2.8890 -4.2851 -0.2560
2.9242 -4.2630 -0.2520
2.9582 -4.2365 -0.2458
2.9957 -4.2398 -0.2531
3.0332 -4.2382 -0.2583
