ply
format ascii 1.0
element vertex 2120
property float x
property float y
property float z
end_header
4.1770 -2.3068 -0.2586
4.1400 -2.3241 -0.2661
4.0787 -2.3544 -0.2534
4.0474 -2.3689 -0.2600
4.0097 -2.3871 -0.2596
3.9698 -2.4066 -0.2546
3.9187 -2.4304 -0.2642
3.8595 -2.4592 -0.2586
3.8079 -2.4844 -0.2530
3.7899 -2.4928 -0.2569
3.7695 -2.5026 -0.2564
3.7333 -2.5199 -0.2574
3.7154 -2.5286 -0.2561
3.6980 -2.5371 -0.2540
3.6840 -2.5437 -0.2560
3.6698 -2.5505 -0.2565
3.6558 -2.5572 -0.2562
3.6433 -2.5632 -0.2575
3.6293 -2.5700 -0.2549
3.6146 -2.5775 -0.2493
3.6046 -2.5821 -0.2521
3.5958 -2.5860 -0.2570
3.5825 -2.5928 -0.2506
3.5736 -2.5969 -0.2534
3.5634 -2.6019 -0.2520
3.5549 -2.6058 -0.2540
3.5456 -2.6103 -0.2530
3.5380 -2.6139 -0.2556
4.1861 -2.3315 0.4636
6.9031 -0.9682 0.6501
6.8019 -1.0127 0.5645
4.3858 -2.2152 0.2789
5.3249 -1.6940 -0.2694
5.0670 -1.8265 -0.2492
4.9328 -1.8939 -0.2571
4.8159 -1.9526 -0.2642
4.7060 -2.0081 -0.2678
4.2783 -2.2342 -0.1560
4.3376 -2.1989 -0.2203
4.3443 -2.1922 -0.2608
4.2980 -2.2148 -0.2713
4.2198 -2.2555 -0.2592
4.1895 -2.2696 -0.2741
4.1295 -2.3007 -0.2663
4.0299 -2.3522 -0.2545
3.9627 -2.3861 -0.2575
3.9072 -2.4138 -0.2630
3.8441 -2.4467 -0.2526
3.7597 -2.4892 -0.2560
3.7247 -2.5068 -0.2583
3.6906 -2.5242 -0.2563
3.6580 -2.5412 -0.2511
3.6332 -2.5535 -0.2543
3.6105 -2.5648 -0.2575
3.5984 -2.5710 -0.2561
3.5876 -2.5765 -0.2564
3.5751 -2.5832 -0.2514
3.5649 -2.5885 -0.2506
3.5553 -2.5933 -0.2505
3.5470 -2.5974 -0.2526
3.5388 -2.6014 -0.2543
3.5289 -2.6067 -0.2503
4.3661 -2.2252 0.5866
4.1924 -2.3042 0.4383
4.1870 -2.3054 0.4199
4.2466 -2.2648 0.3291
4.2167 -2.2747 0.2648
4.1898 -2.2852 0.2224
4.1848 -2.2857 0.2006
4.9557 -1.8286 -0.2660
4.8781 -1.8679 -0.2899
4.2867 -2.1966 -0.1637
4.3489 -2.1534 -0.2690
4.2632 -2.2004 -0.2569
4.2155 -2.2253 -0.2633
4.1031 -2.2864 -0.2550
4.0298 -2.3249 -0.2631
3.9902 -2.3463 -0.2610
3.9567 -2.3642 -0.2617
3.9139 -2.3881 -0.2511
3.8919 -2.3992 -0.2581
3.8676 -2.4119 -0.2613
3.8342 -2.4306 -0.2527
3.7944 -2.4513 -0.2602
3.7683 -2.4659 -0.2538
3.6782 -2.5144 -0.2508
3.6641 -2.5218 -0.2522
3.6503 -2.5291 -0.2528
3.6374 -2.5360 -0.2538
3.6231 -2.5439 -0.2511
3.6113 -2.5501 -0.2519
3.6029 -2.5540 -0.2589
3.5895 -2.5616 -0.2542
3.5794 -2.5669 -0.2558
3.5681 -2.5732 -0.2533
3.5570 -2.5794 -0.2503
3.5407 -2.5875 -0.2562
3.5331 -2.5913 -0.2594
3.5242 -2.5962 -0.2583
4.3340 -2.2173 0.5874
4.3440 -2.2099 0.5718
4.3317 -2.2145 0.5496
4.3263 -2.2153 0.5292
4.3140 -2.2199 0.5071
4.3084 -2.2208 0.4865
4.2917 -2.2277 0.4636
4.2061 -2.2725 0.4300
4.1860 -2.2815 0.4088
4.1652 -2.2911 0.3879
4.1679 -2.2875 0.3697
4.1683 -2.2853 0.3509
4.1962 -2.2653 0.3125
4.1946 -2.2640 0.2916
4.1808 -2.2695 0.2706
4.1927 -2.2580 0.2262
4.2360 -2.2251 0.1489
4.2735 -2.2003 0.1159
4.3006 -2.1814 0.0823
4.3148 -2.1698 0.0495
5.1715 -1.6495 -0.2820
4.9454 -1.7793 -0.2636
4.8671 -1.8209 -0.2879
4.2623 -2.1772 -0.1555
4.3079 -2.1409 -0.2518
4.2615 -2.1661 -0.2623
4.1995 -2.2013 -0.2600
4.0929 -2.2621 -0.2556
4.0545 -2.2834 -0.2595
4.0265 -2.2981 -0.2695
3.9402 -2.3484 -0.2564
3.9031 -2.3699 -0.2509
3.8828 -2.3804 -0.2597
3.8561 -2.3955 -0.2603
3.8078 -2.4226 -0.2615
3.7202 -2.4731 -0.2534
3.6859 -2.4925 -0.2527
3.6728 -2.4995 -0.2569
3.6588 -2.5072 -0.2586
3.6435 -2.5160 -0.2565
3.6177 -2.5305 -0.2574
3.6009 -2.5411 -0.2477
3.5896 -2.5475 -0.2480
3.5795 -2.5530 -0.2501
3.5701 -2.5580 -0.2528
3.5613 -2.5625 -0.2564
3.5505 -2.5690 -0.2535
3.5403 -2.5750 -0.2513
3.5330 -2.5786 -0.2561
3.5246 -2.5833 -0.2567
4.2991 -2.2138 0.6046
4.3012 -2.2105 0.5876
4.2961 -2.2111 0.5682
4.2887 -2.2131 0.5479
4.2812 -2.2150 0.5275
4.2737 -2.2170 0.5071
4.2826 -2.2095 0.4900
4.2629 -2.2185 0.4667
4.2606 -2.2174 0.4467
4.2549 -2.2182 0.4259
4.2512 -2.2179 0.4052
4.2412 -2.2212 0.3836
4.2291 -2.2257 0.3617
4.2190 -2.2291 0.3401
4.2110 -2.2312 0.3186
4.2208 -2.2227 0.2970
4.1469 -2.2535 0.1891
4.1351 -2.2580 0.1679
4.1771 -2.2290 0.1365
4.3125 -2.1416 0.0817
4.3062 -2.1418 0.0531
5.1420 -1.6034 -0.2726
4.9434 -1.7229 -0.2640
4.8474 -1.7778 -0.2827
4.2315 -2.1621 -0.1441
4.3365 -2.0884 -0.2345
4.2937 -2.1121 -0.2497
4.2703 -2.1230 -0.2745
4.2167 -2.1544 -0.2787
4.1344 -2.2059 -0.2592
4.0205 -2.2760 -0.2415
4.0132 -2.2771 -0.2679
3.9685 -2.3045 -0.2614
3.9264 -2.3306 -0.2538
3.9030 -2.3436 -0.2614
3.8707 -2.3633 -0.2583
3.8477 -2.3764 -0.2628
3.8207 -2.3927 -0.2611
3.7950 -2.4083 -0.2587
3.7743 -2.4205 -0.2605
3.7571 -2.4301 -0.2655
3.7150 -2.4559 -0.2600
3.6973 -2.4665 -0.2597
3.6783 -2.4783 -0.2556
3.6648 -2.4860 -0.2590
3.6488 -2.4957 -0.2570
3.6349 -2.5040 -0.2571
3.6207 -2.5126 -0.2555
3.6080 -2.5203 -0.2552
3.5935 -2.5296 -0.2500
3.5843 -2.5345 -0.2549
3.5761 -2.5385 -0.2618
3.5626 -2.5474 -0.2545
3.5531 -2.5530 -0.2558
3.5455 -2.5568 -0.2615
3.5333 -2.5650 -0.2534
3.5248 -2.5699 -0.2546
3.5154 -2.5760 -0.2515
4.2803 -2.1976 0.5913
4.2730 -2.1994 0.5713
4.2656 -2.2013 0.5512
4.2603 -2.2019 0.5316
4.2506 -2.2051 0.5107
4.2539 -2.2006 0.4927
4.2377 -2.2077 0.4703
4.2321 -2.2084 0.4500
4.2338 -2.2046 0.4306
4.2260 -2.2067 0.4095
4.2119 -2.2125 0.3876
4.2141 -2.2083 0.3673
4.2151 -2.2048 0.3463
4.2157 -2.2014 0.3248
4.2220 -2.1944 0.3027
4.2202 -2.1925 0.2800
4.1163 -2.2462 0.1962
4.0919 -2.2589 0.1773
4.3248 -2.0992 0.0811
4.2761 -2.1272 0.0620
5.1442 -1.5352 -0.2732
4.8681 -1.7060 -0.2931
4.2295 -2.1277 -0.1471
4.3329 -2.0502 -0.2380
4.2368 -2.1074 -0.2609
4.0115 -2.2602 -0.1800
3.9871 -2.2738 -0.1926
3.9767 -2.2772 -0.2152
3.9725 -2.2760 -0.2430
3.9496 -2.2888 -0.2546
3.9272 -2.3014 -0.2653
3.8854 -2.3291 -0.2550
3.8358 -2.3594 -0.2616
3.7853 -2.3915 -0.2596
3.7420 -2.4188 -0.2588
3.7025 -2.4440 -0.2561
3.6715 -2.4629 -0.2602
3.6544 -2.4741 -0.2573
3.6393 -2.4837 -0.2564
3.6112 -2.5017 -0.2542
3.5982 -2.5100 -0.2530
3.5840 -2.5196 -0.2479
3.5754 -2.5242 -0.2540
3.5655 -2.5301 -0.2565
3.5541 -2.5376 -0.2538
3.5451 -2.5429 -0.2564
3.5351 -2.5494 -0.2551
3.5261 -2.5550 -0.2556
3.5166 -2.5613 -0.2531
3.5089 -2.5659 -0.2552
4.2624 -2.1858 0.6132
4.2641 -2.1821 0.5965
4.2501 -2.1880 0.5744
4.2471 -2.1871 0.5558
4.2570 -2.1782 0.5403
4.2321 -2.1908 0.5154
4.2373 -2.1847 0.4980
4.2296 -2.1866 0.4772
4.2249 -2.1866 0.4570
4.2150 -2.1899 0.4356
4.2112 -2.1893 0.4151
4.2052 -2.1900 0.3941
4.1912 -2.1959 0.3721
4.1939 -2.1909 0.3515
4.1896 -2.1905 0.3299
4.1947 -2.1838 0.3082
4.1909 -2.1828 0.2857
4.1720 -2.1919 0.2635
4.1745 -2.1867 0.2403
4.0871 -2.2389 0.2030
4.0686 -2.2482 0.1835
4.0643 -2.2477 0.1620
5.1245 -1.4792 -0.2669
4.2267 -2.0975 -0.1147
4.2158 -2.1002 -0.1443
3.9590 -2.2604 -0.2096
3.9499 -2.2628 -0.2332
3.9348 -2.2700 -0.2515
3.9127 -2.2830 -0.2624
3.8795 -2.3053 -0.2605
3.8218 -2.3439 -0.2582
3.8013 -2.3566 -0.2636
3.7782 -2.3718 -0.2643
3.7534 -2.3888 -0.2605
3.7293 -2.4056 -0.2554
3.6917 -2.4306 -0.2547
3.6607 -2.4506 -0.2582
3.6444 -2.4617 -0.2565
3.6025 -2.4897 -0.2549
3.5786 -2.5054 -0.2554
3.5660 -2.5143 -0.2520
3.5567 -2.5199 -0.2556
3.5455 -2.5277 -0.2531
3.5363 -2.5336 -0.2547
3.5249 -2.5421 -0.2486
3.5165 -2.5474 -0.2503
3.5080 -2.5530 -0.2504
3.5011 -2.5569 -0.2550
3.4936 -2.5616 -0.2569
4.2664 -2.1577 0.6255
4.2435 -2.1694 0.6001
4.2296 -2.1754 0.5781
4.2201 -2.1785 0.5577
4.1923 -2.1843 0.4780
4.2051 -2.1726 0.4617
4.1971 -2.1678 0.4006
4.1850 -2.1725 0.3786
4.1826 -2.1706 0.3574
4.1771 -2.1707 0.3356
4.1584 -2.1800 0.3133
4.1501 -2.1821 0.2914
4.1499 -2.1784 0.2692
4.1504 -2.1741 0.2463
4.1275 -2.1865 0.2249
4.0743 -2.2208 0.2078
4.0542 -2.2315 0.1884
4.0446 -2.2347 0.1678
4.7206 -1.6930 -0.2410
4.2188 -2.0650 -0.1143
4.1912 -2.0806 -0.1361
4.1463 -2.1101 -0.1471
4.0973 -2.1433 -0.1529
4.0574 -2.1697 -0.1613
4.1023 -2.1213 -0.2617
4.0576 -2.1520 -0.2643
3.9847 -2.2071 -0.2401
3.9314 -2.2410 -0.2593
3.8986 -2.2638 -0.2601
3.8692 -2.2841 -0.2618
3.8149 -2.3217 -0.2633
3.7875 -2.3413 -0.2604
3.7667 -2.3554 -0.2635
3.7384 -2.3766 -0.2546
3.7215 -2.3877 -0.2593
3.7022 -2.4012 -0.2590
3.6682 -2.4247 -0.2605
3.6513 -2.4367 -0.2590
3.6324 -2.4511 -0.2519
3.6056 -2.4695 -0.2537
3.5928 -2.4785 -0.2535
3.5833 -2.4840 -0.2599
3.5706 -2.4933 -0.2575
3.5569 -2.5040 -0.2510
3.5482 -2.5092 -0.2559
3.5369 -2.5177 -0.2524
3.5274 -2.5243 -0.2529
3.5185 -2.5303 -0.2541
3.5095 -2.5366 -0.2536
3.5014 -2.5420 -0.2550
3.4925 -2.5487 -0.2523
3.4858 -2.5526 -0.2568
4.2347 -2.1523 0.6250
4.2360 -2.1482 0.6083
4.2178 -2.1572 0.5847
4.2103 -2.1589 0.5647
4.2008 -2.1621 0.5441
4.1804 -2.1622 0.4653
4.1755 -2.1584 0.4255
4.1780 -2.1528 0.4058
4.1679 -2.1562 0.3840
4.1634 -2.1555 0.3627
4.1532 -2.1589 0.3407
4.1312 -2.1709 0.3184
4.1229 -2.1729 0.2968
4.1147 -2.1749 0.2751
4.1169 -2.1691 0.2528
4.1084 -2.1712 0.2306
4.0578 -2.2051 0.2130
4.0363 -2.2173 0.1938
4.0301 -2.2180 0.1726
4.1688 -2.0593 -0.1290
4.1499 -2.0685 -0.1543
4.1318 -2.0770 -0.1795
4.1840 -2.0254 -0.2499
4.1473 -2.0496 -0.2647
4.0880 -2.0941 -0.2603
4.0454 -2.1246 -0.2646
3.9987 -2.1594 -0.2622
3.9634 -2.1846 -0.2663
3.9321 -2.2067 -0.2716
3.8936 -2.2359 -0.2671
3.8579 -2.2630 -0.2624
3.8332 -2.2803 -0.2670
3.7765 -2.3232 -0.2607
3.7555 -2.3382 -0.2634
3.7306 -2.3574 -0.2587
3.6906 -2.3871 -0.2573
3.6742 -2.3987 -0.2596
3.6548 -2.4139 -0.2548
3.6422 -2.4221 -0.2606
3.6227 -2.4380 -0.2519
3.5947 -2.4590 -0.2502
3.5834 -2.4668 -0.2532
3.5715 -2.4754 -0.2535
3.5607 -2.4830 -0.2553
3.5490 -2.4920 -0.2533
3.5392 -2.4989 -0.2550
3.5293 -2.5062 -0.2551
3.5094 -2.5215 -0.2512
3.5009 -2.5276 -0.2519
3.4923 -2.5341 -0.2510
3.4852 -2.5387 -0.2546
3.4758 -2.5469 -0.2477
4.2154 -2.1356 0.6119
4.2121 -2.1344 0.5934
4.2045 -2.1361 0.5733
4.1770 -2.1483 0.5292
4.1763 -2.1334 0.4538
4.1605 -2.1409 0.4312
4.1303 -2.1552 0.3869
4.1094 -2.1668 0.3647
4.1242 -2.1514 0.3454
4.1106 -2.1575 0.3237
4.0989 -2.1622 0.3021
4.0924 -2.1628 0.2806
4.0953 -2.1559 0.2585
4.0894 -2.1560 0.2362
4.0414 -2.1894 0.2182
4.0168 -2.2046 0.1993
4.0016 -2.2124 0.1799
4.0091 -2.2017 0.1561
4.1510 -2.0614 0.0090
4.1729 -2.0292 -0.0650
4.1813 -2.0147 -0.1037
4.1628 -2.0235 -0.1304
4.1542 -2.0237 -0.1621
4.2311 -1.9467 -0.2465
4.1844 -1.9805 -0.2583
4.1433 -2.0097 -0.2709
4.0263 -2.1027 -0.2595
3.9788 -2.1404 -0.2559
3.9491 -2.1615 -0.2648
3.9226 -2.1801 -0.2746
3.8818 -2.2131 -0.2677
3.8134 -2.2682 -0.2577
3.7849 -2.2909 -0.2548
3.7642 -2.3059 -0.2596
3.7382 -2.3271 -0.2550
3.7155 -2.3451 -0.2528
3.6785 -2.3734 -0.2548
3.6467 -2.3972 -0.2588
3.6300 -2.4105 -0.2568
3.6156 -2.4215 -0.2575
3.6012 -2.4330 -0.2564
3.5880 -2.4432 -0.2565
3.5642 -2.4612 -0.2584
3.5512 -2.4721 -0.2541
3.5406 -2.4804 -0.2544
3.5294 -2.4895 -0.2519
3.5197 -2.4970 -0.2520
3.5116 -2.5025 -0.2562
3.5023 -2.5098 -0.2553
3.4936 -2.5166 -0.2551
3.4842 -2.5248 -0.2507
3.4769 -2.5299 -0.2532
3.4704 -2.5341 -0.2578
4.2117 -2.1110 0.6218
4.1917 -2.1218 0.5971
4.1922 -2.1174 0.5798
4.1724 -2.1282 0.5557
4.1588 -2.1343 0.5338
4.1551 -2.1331 0.5148
4.1392 -2.1238 0.4159
4.0966 -2.1483 0.3703
4.0762 -2.1601 0.3484
4.0824 -2.1505 0.3285
4.0820 -2.1461 0.3075
4.0755 -2.1466 0.2860
4.0688 -2.1471 0.2643
4.0604 -2.1491 0.2425
3.9968 -2.1927 0.2050
3.9945 -2.1897 0.1834
3.9818 -2.1955 0.1635
4.1504 -1.9921 -0.1285
4.1475 -1.9864 -0.1642
4.1863 -1.9407 -0.2265
4.1656 -1.9513 -0.2544
4.1253 -1.9813 -0.2675
4.0795 -2.0173 -0.2737
4.0245 -2.0634 -0.2687
3.9734 -2.1065 -0.2624
3.9399 -2.1326 -0.2682
3.9008 -2.1651 -0.2657
3.8690 -2.1906 -0.2676
3.8314 -2.2230 -0.2600
3.8070 -2.2419 -0.2645
3.7741 -2.2707 -0.2561
3.7538 -2.2861 -0.2612
3.7323 -2.3032 -0.2630
3.7075 -2.3247 -0.2575
3.6863 -2.3426 -0.2551
3.6677 -2.3579 -0.2547
3.6537 -2.3679 -0.2607
3.6365 -2.3824 -0.2591
3.6188 -2.3978 -0.2547
3.6034 -2.4108 -0.2528
3.5897 -2.4220 -0.2528
3.5780 -2.4309 -0.2558
3.5650 -2.4418 -0.2543
3.5536 -2.4510 -0.2550
3.5420 -2.4607 -0.2540
3.5224 -2.4759 -0.2575
3.5097 -2.4884 -0.2479
3.5018 -2.4940 -0.2521
3.4849 -2.5075 -0.2534
3.4778 -2.5123 -0.2577
3.4688 -2.5207 -0.2529
3.4613 -2.5269 -0.2525
4.2132 -2.0857 0.6514
4.2014 -2.0906 0.6294
4.1895 -2.0954 0.6075
4.1857 -2.0940 0.5886
4.1700 -2.1019 0.5654
4.1621 -2.1036 0.5449
4.1523 -2.1068 0.5238
4.1425 -2.1101 0.5026
4.1323 -2.1042 0.4429
4.1304 -2.1009 0.4226
4.1050 -2.1168 0.3986
4.0713 -2.1399 0.3745
4.0686 -2.1372 0.3543
4.0640 -2.1361 0.3336
4.0559 -2.1379 0.3125
4.0519 -2.1362 0.2914
4.0453 -2.1366 0.2699
4.0418 -2.1342 0.2480
4.0270 -2.1418 0.2268
3.9808 -2.1774 0.2100
3.9737 -2.1784 0.1893
3.9634 -2.1823 0.1690
3.9703 -2.1460 0.0456
4.1467 -1.9508 -0.1315
4.1136 -1.9746 -0.1506
4.1523 -1.9159 -0.2543
4.1038 -1.9558 -0.2617
4.0663 -1.9850 -0.2741
4.0070 -2.0382 -0.2654
3.9571 -2.0825 -0.2597
3.8848 -2.1440 -0.2627
3.8537 -2.1702 -0.2649
3.8224 -2.1973 -0.2640
3.7904 -2.2260 -0.2593
3.7646 -2.2482 -0.2593
3.7389 -2.2709 -0.2570
3.7224 -2.2829 -0.2656
3.6961 -2.3075 -0.2575
3.6429 -2.3525 -0.2607
3.6217 -2.3732 -0.2508
3.5806 -2.4076 -0.2548
3.5687 -2.4173 -0.2571
3.5556 -2.4291 -0.2547
3.5440 -2.4391 -0.2546
3.5331 -2.4485 -0.2548
3.5235 -2.4561 -0.2575
3.5124 -2.4664 -0.2543
3.5011 -2.4776 -0.2482
3.4933 -2.4833 -0.2525
3.4767 -2.4972 -0.2541
3.4694 -2.5027 -0.2573
3.4620 -2.5087 -0.2588
4.1679 -2.0743 0.5756
4.1675 -2.0697 0.5572
4.1555 -2.0746 0.5349
4.1501 -2.0741 0.5146
4.1336 -2.0829 0.4912
4.1607 -2.0547 0.4780
4.1610 -2.0490 0.4575
4.1097 -2.0875 0.4274
4.0900 -2.0992 0.4042
4.0722 -2.1093 0.3818
4.0666 -2.1088 0.3609
4.0475 -2.1203 0.3389
4.0376 -2.1235 0.3178
4.0262 -2.1283 0.2966
4.0232 -2.1195 0.2535
3.9648 -2.1621 0.2151
3.9509 -2.1696 0.1955
3.9497 -2.1648 0.1737
3.9906 -2.1191 0.1413
4.0458 -2.0583 0.1011
4.0479 -2.0488 0.0724
4.1090 -1.9329 -0.1542
4.0675 -1.9672 -0.1668
4.1075 -1.9133 -0.2327
4.0743 -1.9388 -0.2500
4.0430 -1.9627 -0.2667
3.9915 -2.0101 -0.2639
3.9399 -2.0589 -0.2563
3.8659 -2.1259 -0.2567
3.8355 -2.1528 -0.2591
3.8076 -2.1774 -0.2616
3.7520 -2.2285 -0.2589
3.7031 -2.2742 -0.2543
3.6683 -2.3034 -0.2627
3.6490 -2.3215 -0.2607
3.6298 -2.3400 -0.2566
3.6009 -2.3649 -0.2611
3.5861 -2.3787 -0.2598
3.5683 -2.3977 -0.2492
3.5457 -2.4169 -0.2542
3.5343 -2.4272 -0.2542
3.5226 -2.4385 -0.2515
3.5129 -2.4469 -0.2532
3.5037 -2.4546 -0.2555
3.4852 -2.4714 -0.2551
3.4765 -2.4794 -0.2546
3.4678 -2.4879 -0.2524
3.4599 -2.4952 -0.2520
3.4527 -2.5013 -0.2535
4.1653 -2.0461 0.5860
4.1654 -2.0406 0.5676
4.1634 -2.0369 0.5481
4.1531 -2.0403 0.5258
4.1445 -2.0422 0.5039
4.1226 -2.0558 0.4788
4.1281 -2.0451 0.4601
4.1021 -2.0626 0.4346
4.0614 -2.0879 0.3878
4.0498 -2.0928 0.3662
4.0227 -2.1121 0.3435
4.0178 -2.1107 0.3229
4.0128 -2.1094 0.3019
4.0061 -2.1097 0.2807
4.0163 -2.0935 0.2583
3.9586 -2.1373 0.2190
3.9409 -2.1486 0.1996
3.9321 -2.1510 0.1791
3.9625 -2.1133 0.1493
4.0262 -2.0322 0.0793
4.0193 -1.9637 -0.1802
4.0504 -1.9160 -0.2425
4.0294 -1.9288 -0.2673
3.9717 -1.9863 -0.2589
3.9411 -2.0122 -0.2705
3.8633 -2.0872 -0.2683
3.7936 -2.1561 -0.2604
3.7349 -2.2144 -0.2525
3.7175 -2.2286 -0.2612
3.6977 -2.2464 -0.2647
3.6736 -2.2712 -0.2589
3.6576 -2.2848 -0.2644
3.6183 -2.3249 -0.2557
3.5858 -2.3574 -0.2510
3.5614 -2.3787 -0.2576
3.5353 -2.4051 -0.2526
3.5255 -2.4133 -0.2568
3.5153 -2.4225 -0.2584
3.5044 -2.4335 -0.2563
3.4960 -2.4403 -0.2609
3.4855 -2.4516 -0.2563
3.4754 -2.4628 -0.2510
3.4676 -2.4693 -0.2540
3.4589 -2.4786 -0.2507
3.4519 -2.4844 -0.2540
3.4450 -2.4901 -0.2569
3.4377 -2.4975 -0.2557
4.1842 -1.9976 0.6049
4.1645 -2.0093 0.5789
4.1567 -2.0103 0.5572
4.1525 -2.0081 0.5364
4.1375 -2.0157 0.5124
4.1374 -2.0095 0.4923
4.1267 -2.0130 0.4693
4.0941 -2.0373 0.4420
4.0745 -2.0495 0.4181
4.0512 -2.0655 0.3941
3.9999 -2.1027 0.3482
3.9982 -2.0981 0.3279
3.9931 -2.0967 0.3071
3.9917 -2.0914 0.2859
3.9923 -2.0840 0.2641
3.9955 -2.0736 0.2413
3.9554 -2.1081 0.2226
3.9249 -2.1333 0.2047
3.9189 -2.1327 0.1836
4.0067 -2.0135 0.0855
4.2023 -1.7194 -0.2241
3.9722 -1.9727 -0.1554
4.0124 -1.9107 -0.2239
4.0173 -1.8915 -0.2695
3.9718 -1.9366 -0.2719
3.9175 -1.9945 -0.2616
3.8863 -2.0235 -0.2696
3.8493 -2.0611 -0.2683
3.8120 -2.1003 -0.2629
3.7875 -2.1230 -0.2695
3.7547 -2.1582 -0.2626
3.7289 -2.1843 -0.2620
3.7026 -2.2122 -0.2576
3.6837 -2.2298 -0.2620
3.6662 -2.2460 -0.2668
3.6454 -2.2679 -0.2637
3.6265 -2.2876 -0.2615
3.5958 -2.3175 -0.2650
3.5803 -2.3334 -0.2635
3.5622 -2.3550 -0.2530
3.5500 -2.3668 -0.2547
3.5170 -2.3979 -0.2613
3.5061 -2.4093 -0.2601
3.4941 -2.4236 -0.2530
3.4852 -2.4317 -0.2555
3.4766 -2.4398 -0.2576
3.4685 -2.4471 -0.2602
3.4599 -2.4562 -0.2590
3.4513 -2.4657 -0.2560
3.4435 -2.4740 -0.2547
3.4361 -2.4816 -0.2541
4.1836 -1.9644 0.6172
4.1799 -1.9613 0.5965
4.1575 -1.9758 0.5691
4.1581 -1.9686 0.5495
4.1472 -1.9722 0.5260
4.1609 -1.9519 0.5091
4.1496 -1.9556 0.4848
4.1227 -1.9749 0.4573
4.0735 -2.0167 0.4265
4.0430 -2.0404 0.4009
4.0178 -2.0591 0.3771
3.9910 -2.0728 0.3337
3.9691 -2.0888 0.3121
3.9750 -2.0754 0.2912
3.9775 -2.0654 0.2694
3.9767 -2.0586 0.2470
3.9417 -2.0892 0.2276
3.9042 -2.1157 0.1885
3.8973 -2.1158 0.1673
4.5661 -1.2600 -0.2626
4.4652 -1.3635 -0.2734
4.3761 -1.4549 -0.2826
4.2839 -1.5528 -0.2826
3.9537 -1.9354 -0.1885
3.9842 -1.8807 -0.2541
3.9410 -1.9255 -0.2574
3.8982 -1.9712 -0.2569
3.8735 -1.9924 -0.2715
3.8267 -2.0464 -0.2587
3.7980 -2.0755 -0.2628
3.7469 -2.1272 -0.2704
3.6924 -2.1882 -0.2614
3.6708 -2.2111 -0.2614
3.6524 -2.2297 -0.2642
3.6149 -2.2703 -0.2618
3.6000 -2.2850 -0.2651
3.5819 -2.3062 -0.2591
3.5673 -2.3219 -0.2586
3.5524 -2.3388 -0.2554
3.5268 -2.3669 -0.2530
3.5155 -2.3787 -0.2533
3.5054 -2.3886 -0.2558
3.4950 -2.3996 -0.2557
3.4848 -2.4112 -0.2538
3.4768 -2.4176 -0.2597
3.4679 -2.4271 -0.2598
3.4497 -2.4489 -0.2525
3.4422 -2.4562 -0.2542
3.4350 -2.4635 -0.2554
3.4278 -2.4714 -0.2549
3.4206 -2.4797 -0.2527
4.2327 -1.8814 0.6502
4.2786 -1.7758 0.5024
4.0422 -2.0066 0.4091
3.9925 -2.0520 0.3812
3.9630 -2.0766 0.3580
3.9594 -2.0732 0.3379
3.9571 -2.0683 0.3175
3.9561 -2.0618 0.2965
3.9618 -2.0474 0.2748
3.9671 -2.0332 0.2520
3.9354 -2.0613 0.2318
3.9030 -2.0908 0.2134
3.8894 -2.0987 0.1933
3.8785 -2.1035 0.1730
4.5807 -1.1977 -0.1525
4.5791 -1.1778 -0.2119
4.5844 -1.1482 -0.2766
4.4342 -1.3207 -0.2647
4.3570 -1.4015 -0.2804
4.1968 -1.5779 -0.2886
3.9222 -1.9276 -0.1739
3.9164 -1.9215 -0.2079
3.9014 -1.9288 -0.2341
3.8850 -1.9382 -0.2586
3.8525 -1.9723 -0.2648
3.8127 -2.0190 -0.2591
3.7782 -2.0589 -0.2556
3.7353 -2.1004 -0.2736
3.7030 -2.1407 -0.2626
3.6779 -2.1700 -0.2590
3.6362 -2.2174 -0.2573
3.6170 -2.2397 -0.2553
3.6041 -2.2508 -0.2644
3.5719 -2.2876 -0.2624
3.5411 -2.3251 -0.2541
3.5314 -2.3328 -0.2626
3.5179 -2.3498 -0.2577
3.4957 -2.3748 -0.2572
3.4858 -2.3855 -0.2583
3.4750 -2.3993 -0.2536
3.4661 -2.4091 -0.2544
3.4587 -2.4149 -0.2610
3.4491 -2.4278 -0.2551
3.4410 -2.4373 -0.2540
3.4331 -2.4467 -0.2524
3.4262 -2.4535 -0.2548
3.4195 -2.4603 -0.2569
3.4123 -2.4695 -0.2536
4.3044 -1.7010 0.5212
4.0154 -1.9999 0.4130
3.9461 -2.0544 0.3433
3.9307 -2.0642 0.3222
3.9323 -2.0542 0.3017
3.9447 -2.0311 0.2802
3.9434 -2.0238 0.2579
3.9331 -2.0272 0.2357
3.8894 -2.0720 0.2182
3.8745 -2.0817 0.1982
3.8662 -2.0832 0.1773
4.5980 -1.0597 -0.2235
4.5890 -1.0460 -0.2849
3.8821 -1.9194 -0.1898
3.8746 -1.9154 -0.2224
3.8735 -1.9009 -0.2625
3.8393 -1.9396 -0.2670
3.7982 -1.9912 -0.2594
3.7685 -2.0254 -0.2616
3.7415 -2.0563 -0.2642
3.7182 -2.0818 -0.2692
3.6618 -2.1546 -0.2539
3.6234 -2.1988 -0.2569
3.5909 -2.2351 -0.2622
3.5743 -2.2554 -0.2604
3.5617 -2.2679 -0.2664
3.5294 -2.3119 -0.2519
3.5187 -2.3226 -0.2569
3.5064 -2.3379 -0.2549
3.4953 -2.3511 -0.2547
3.4856 -2.3615 -0.2576
3.4757 -2.3731 -0.2579
3.4665 -2.3832 -0.2595
3.4571 -2.3953 -0.2574
3.4485 -2.4052 -0.2577
3.4406 -2.4138 -0.2597
3.4319 -2.4262 -0.2544
3.4247 -2.4339 -0.2563
3.4175 -2.4428 -0.2554
3.4106 -2.4511 -0.2552
3.4042 -2.4579 -0.2569
3.9255 -2.0439 0.3481
3.9200 -2.0420 0.3277
3.9227 -2.0299 0.3071
3.9262 -2.0164 0.2857
3.9187 -2.0164 0.2638
3.9157 -2.0106 0.2412
3.8573 -2.0578 0.1808
4.5612 -0.9834 -0.2784
4.4379 -1.1358 -0.2822
4.3225 -1.2812 -0.2791
4.0084 -1.6770 -0.2705
3.9602 -1.7351 -0.2752
3.9068 -1.8042 -0.2696
3.8616 -1.8620 -0.2667
3.8149 -1.9245 -0.2566
3.7900 -1.9507 -0.2681
3.7575 -1.9918 -0.2668
3.7230 -2.0386 -0.2583
3.6764 -2.0943 -0.2640
3.6515 -2.1273 -0.2594
3.6276 -2.1600 -0.2528
3.6104 -2.1800 -0.2564
3.5951 -2.1968 -0.2617
3.5767 -2.2215 -0.2577
3.5637 -2.2351 -0.2640
3.5468 -2.2586 -0.2581
3.5332 -2.2755 -0.2583
3.5198 -2.2930 -0.2567
3.5087 -2.3053 -0.2602
3.4964 -2.3218 -0.2575
3.4855 -2.3353 -0.2576
3.4748 -2.3494 -0.2560
3.4648 -2.3626 -0.2544
3.4563 -2.3716 -0.2582
3.4467 -2.3854 -0.2541
3.4391 -2.3928 -0.2588
3.4303 -2.4056 -0.2543
3.4235 -2.4116 -0.2603
3.4156 -2.4235 -0.2556
3.4088 -2.4314 -0.2572
3.4018 -2.4411 -0.2547
3.3954 -2.4488 -0.2553
6.3865 0.5378 1.8851
6.3453 0.5241 1.7962
3.9134 -2.0231 0.3537
3.9037 -2.0263 0.3328
3.9033 -2.0174 0.3123
3.9059 -2.0044 0.2911
3.9099 -1.9888 0.2689
3.9147 -1.9718 0.2454
3.9238 -1.9481 0.2201
3.8965 -1.9746 0.1992
4.4959 -0.9757 -0.2542
4.4300 -1.0479 -0.2866
3.9915 -1.6336 -0.2708
3.9323 -1.7145 -0.2649
3.8924 -1.7638 -0.2720
3.8504 -1.8190 -0.2725
3.8008 -1.8909 -0.2585
3.7730 -1.9240 -0.2663
3.7438 -1.9614 -0.2689
3.7083 -2.0132 -0.2582
3.6642 -2.0671 -0.2674
3.6417 -2.0971 -0.2667
3.6186 -2.1299 -0.2615
3.5828 -2.1766 -0.2629
3.5631 -2.2064 -0.2547
3.5474 -2.2277 -0.2533
3.5354 -2.2407 -0.2595
3.5207 -2.2617 -0.2559
3.5090 -2.2759 -0.2587
3.4964 -2.2936 -0.2563
3.4866 -2.3040 -0.2620
3.4757 -2.3185 -0.2615
3.4655 -2.3322 -0.2610
3.4540 -2.3515 -0.2519
3.4463 -2.3586 -0.2588
3.4373 -2.3712 -0.2570
3.4284 -2.3851 -0.2524
3.4210 -2.3934 -0.2555
3.4136 -2.4029 -0.2561
3.4066 -2.4117 -0.2571
3.4000 -2.4191 -0.2600
3.3930 -2.4304 -0.2554
3.3871 -2.4362 -0.2598
6.3686 0.6967 1.8668
6.0925 0.4141 1.6590
3.8930 -2.0129 0.3584
3.8848 -2.0143 0.3378
3.8968 -1.9661 0.2742
3.9053 -1.9425 0.2504
3.9148 -1.9165 0.2248
3.9130 -1.9064 0.1992
4.5037 -0.9184 -0.1322
4.4606 -0.9233 -0.2442
4.4081 -0.9769 -0.2840
4.2645 -1.1867 -0.2649
4.1917 -1.2819 -0.2777
4.0273 -1.5173 -0.2656
3.9222 -1.6608 -0.2721
3.8444 -1.7630 -0.2851
3.7836 -1.8615 -0.2572
3.7588 -1.8905 -0.2686
3.6924 -1.9890 -0.2569
3.6679 -2.0225 -0.2581
3.6443 -2.0558 -0.2575
3.6026 -2.1146 -0.2564
3.5689 -2.1592 -0.2610
3.5358 -2.2084 -0.2551
3.5229 -2.2248 -0.2584
3.5094 -2.2440 -0.2575
3.4981 -2.2578 -0.2615
3.4843 -2.2811 -0.2533
3.4745 -2.2924 -0.2581
3.4630 -2.3110 -0.2531
3.4541 -2.3213 -0.2574
3.4447 -2.3345 -0.2573
3.4358 -2.3468 -0.2574
3.4276 -2.3576 -0.2588
3.4192 -2.3704 -0.2565
3.4119 -2.3789 -0.2599
3.4044 -2.3901 -0.2585
3.3968 -2.4040 -0.2518
3.3906 -2.4101 -0.2571
3.3842 -2.4189 -0.2573
3.3783 -2.4255 -0.2606
6.0798 0.5419 1.7077
3.8755 -1.9992 0.3633
3.8710 -1.9951 0.3432
3.8701 -1.9857 0.3229
3.8694 -1.9755 0.3019
3.8780 -1.9511 0.2798
3.8871 -1.9251 0.2562
3.8838 -1.9171 0.2321
3.8859 -1.9005 0.2066
4.9226 -0.1522 -0.2013
4.4672 -0.7964 -0.2548
4.4055 -0.8677 -0.2924
4.1785 -1.2087 -0.2816
4.1282 -1.2706 -0.3050
4.0157 -1.4547 -0.2713
3.9514 -1.5518 -0.2671
3.9046 -1.6181 -0.2725
3.8603 -1.6822 -0.2751
3.8203 -1.7400 -0.2774
3.7672 -1.8292 -0.2572
3.7398 -1.8654 -0.2651
3.6831 -1.9482 -0.2669
3.6554 -1.9915 -0.2625
3.6320 -2.0264 -0.2619
3.5924 -2.0834 -0.2647
3.5539 -2.1448 -0.2562
3.5241 -2.1881 -0.2576
3.4985 -2.2237 -0.2616
3.4861 -2.2424 -0.2608
3.4736 -2.2633 -0.2564
3.4640 -2.2748 -0.2615
3.4541 -2.2886 -0.2632
3.4433 -2.3074 -0.2576
3.4353 -2.3156 -0.2645
3.4254 -2.3342 -0.2569
3.4174 -2.3452 -0.2585
3.4094 -2.3576 -0.2575
3.4022 -2.3663 -0.2610
3.3880 -2.3891 -0.2578
3.3815 -2.3982 -0.2587
3.3752 -2.4072 -0.2590
3.3692 -2.4169 -0.2577
6.0667 0.6751 1.7586
5.8953 0.4957 1.6035
5.9850 0.6480 1.5826
5.9441 0.6344 1.4946
3.8651 -1.9862 0.3884
3.8568 -1.9875 0.3681
3.8473 -1.9906 0.3476
3.8577 -1.9634 0.3284
3.8537 -1.9575 0.3072
3.8634 -1.9298 0.2853
3.8621 -1.9187 0.2623
3.8627 -1.8896 0.2132
3.8617 -1.8762 0.1873
5.1092 0.3323 -0.2596
4.3740 -0.8807 -0.1510
4.4224 -0.7536 -0.2406
4.3755 -0.8009 -0.2862
4.3179 -0.8705 -0.3222
4.1774 -1.1060 -0.2948
4.0714 -1.2825 -0.2765
4.0028 -1.3896 -0.2769
3.9382 -1.4932 -0.2725
3.8841 -1.5789 -0.2706
3.8403 -1.6461 -0.2732
3.8029 -1.7018 -0.2781
3.7505 -1.7956 -0.2575
3.7224 -1.8359 -0.2640
3.6983 -1.8684 -0.2730
3.6453 -1.9516 -0.2725
3.6173 -2.0013 -0.2624
3.5771 -2.0644 -0.2622
3.5601 -2.0895 -0.2646
3.5418 -2.1208 -0.2600
3.5265 -2.1446 -0.2603
3.5113 -2.1698 -0.2577
3.4860 -2.2078 -0.2606
3.4740 -2.2269 -0.2601
3.4630 -2.2436 -0.2611
3.4526 -2.2593 -0.2621
3.4418 -2.2787 -0.2576
3.4326 -2.2926 -0.2587
3.4237 -2.3064 -0.2589
3.4149 -2.3215 -0.2565
3.4070 -2.3328 -0.2582
3.3994 -2.3447 -0.2583
3.3923 -2.3542 -0.2610
3.3852 -2.3667 -0.2588
3.3787 -2.3754 -0.2614
3.3720 -2.3891 -0.2557
3.3661 -2.3961 -0.2596
3.3603 -2.4031 -0.2632
5.9306 0.6927 1.6784
5.9425 0.7496 1.6180
6.2280 1.1810 1.6872
3.8648 -1.9581 0.4154
3.8565 -1.9594 0.3950
3.8444 -1.9664 0.3738
3.8384 -1.9639 0.3536
3.8369 -1.9539 0.3334
3.8408 -1.9347 0.3128
3.8458 -1.9129 0.2909
3.8392 -1.9099 0.2683
3.8325 -1.9069 0.2453
3.8345 -1.8883 0.2206
3.8329 -1.8754 0.1953
3.8399 -1.8462 0.1668
4.3509 -0.8048 -0.1460
4.3187 -0.7848 -0.2649
4.2417 -0.8992 -0.2868
4.1359 -1.0791 -0.2799
4.0702 -1.1808 -0.2920
3.9804 -1.3405 -0.2748
3.9139 -1.4551 -0.2679
3.8589 -1.5487 -0.2641
3.8183 -1.6130 -0.2694
3.7785 -1.6784 -0.2704
3.7359 -1.7545 -0.2615
3.6787 -1.8451 -0.2686
3.6287 -1.9267 -0.2712
3.5843 -2.0019 -0.2688
3.5621 -2.0436 -0.2609
3.5441 -2.0742 -0.2596
3.5286 -2.0987 -0.2616
3.5139 -2.1223 -0.2630
3.4990 -2.1489 -0.2601
3.4869 -2.1663 -0.2643
3.4620 -2.2097 -0.2610
3.4513 -2.2267 -0.2622
3.4404 -2.2467 -0.2591
3.4216 -2.2776 -0.2597
3.4133 -2.2893 -0.2630
3.4046 -2.3056 -0.2599
3.3967 -2.3194 -0.2589
3.3893 -2.3308 -0.2602
3.3822 -2.3429 -0.2599
3.3753 -2.3549 -0.2589
3.3689 -2.3645 -0.2606
3.3627 -2.3762 -0.2583
3.3568 -2.3849 -0.2601
3.3511 -2.3935 -0.2614
6.0966 1.0380 1.9005
3.8522 -1.9367 0.4215
3.8426 -1.9399 0.4007
3.8293 -1.9490 0.3792
3.8232 -1.9464 0.3589
3.8214 -1.9362 0.3388
3.8237 -1.9184 0.3182
3.8228 -1.9056 0.2965
3.8151 -1.9043 0.2742
3.8047 -1.9077 0.2518
3.8075 -1.8867 0.2276
3.8052 -1.8743 0.2030
3.7982 -1.8705 0.1786
3.7896 -1.8695 0.1542
3.7997 -1.8306 0.1225
3.7881 -1.8345 0.0976
3.8848 -1.4272 -0.2587
3.7668 -1.6547 -0.2294
3.7329 -1.7115 -0.2338
3.7154 -1.7266 -0.2576
3.6868 -1.7739 -0.2623
3.6579 -1.8252 -0.2619
3.6381 -1.8518 -0.2742
3.6125 -1.8989 -0.2714
3.5667 -1.9851 -0.2632
3.5311 -2.0479 -0.2633
3.5127 -2.0856 -0.2552
3.4989 -2.1080 -0.2582
3.4721 -2.1562 -0.2568
3.4612 -2.1722 -0.2617
3.4493 -2.1946 -0.2593
3.4390 -2.2120 -0.2607
3.4286 -2.2316 -0.2587
3.4195 -2.2462 -0.2609
3.4107 -2.2607 -0.2624
3.4019 -2.2775 -0.2603
3.3931 -2.2990 -0.2515
3.3863 -2.3051 -0.2605
3.3790 -2.3184 -0.2599
3.3721 -2.3299 -0.2608
3.3654 -2.3429 -0.2589
3.3592 -2.3527 -0.2608
3.3531 -2.3640 -0.2598
3.3474 -2.3751 -0.2583
3.3419 -2.3839 -0.2597
3.8347 -1.9231 0.4264
3.8192 -1.9362 0.4042
3.8131 -1.9334 0.3843
3.8112 -1.9229 0.3648
3.8075 -1.9153 0.3444
3.8146 -1.8875 0.3242
3.8116 -1.8773 0.3021
3.7738 -1.9170 0.2585
3.7812 -1.8858 0.2345
3.7778 -1.8749 0.2105
3.7751 -1.8623 0.1856
3.7701 -1.8536 0.1604
3.7670 -1.8403 0.1337
3.7617 -1.8308 0.1069
3.7504 -1.8346 0.0824
3.7467 -1.8207 0.0533
3.7398 -1.8134 0.0251
3.7421 -1.7831 -0.0110
3.7333 -1.7789 -0.0401
3.7303 -1.7591 -0.0755
3.7288 -1.7341 -0.1143
3.7398 -1.6730 -0.1706
3.7183 -1.6993 -0.1903
3.7039 -1.7065 -0.2180
3.6925 -1.7047 -0.2504
3.6711 -1.7333 -0.2663
3.6441 -1.7821 -0.2688
3.6154 -1.8403 -0.2629
3.5916 -1.8857 -0.2619
3.5706 -1.9245 -0.2626
3.5503 -1.9640 -0.2607
3.5320 -1.9987 -0.2600
3.5156 -2.0289 -0.2608
3.4859 -2.0842 -0.2614
3.4723 -2.1102 -0.2606
3.4605 -2.1301 -0.2639
3.4374 -2.1745 -0.2625
3.4269 -2.1947 -0.2618
3.4163 -2.2189 -0.2556
3.4076 -2.2322 -0.2598
3.3993 -2.2453 -0.2633
3.3908 -2.2633 -0.2605
3.3756 -2.2915 -0.2610
3.3684 -2.3066 -0.2586
3.3616 -2.3224 -0.2544
3.3554 -2.3309 -0.2589
3.3434 -2.3531 -0.2590
4.5303 -0.8048 0.8450
4.5342 -0.7689 0.8089
3.8042 -1.9187 0.4096
3.7946 -1.9219 0.3890
3.7904 -1.9151 0.3693
3.7949 -1.8914 0.3502
3.7962 -1.8728 0.3296
3.7929 -1.8624 0.3077
3.7654 -1.8831 0.2633
3.7602 -1.8757 0.2405
3.7498 -1.8792 0.2181
3.7532 -1.8525 0.1923
3.7489 -1.8416 0.1671
3.7514 -1.8145 0.1384
3.7425 -1.8125 0.1130
3.7300 -1.8191 0.0891
3.7155 -1.8305 0.0666
3.7211 -1.7916 0.0306
3.7190 -1.7701 -0.0025
3.7125 -1.7590 -0.0335
3.7026 -1.7566 -0.0623
3.7023 -1.7262 -0.1023
3.7030 -1.6906 -0.1465
3.6897 -1.6950 -0.1752
3.6811 -1.6847 -0.2108
3.6729 -1.6718 -0.2487
3.6560 -1.6873 -0.2723
3.6263 -1.7490 -0.2692
3.5981 -1.8102 -0.2629
3.5737 -1.8619 -0.2591
3.5355 -1.9346 -0.2637
3.5176 -1.9710 -0.2629
3.5026 -1.9974 -0.2676
3.4863 -2.0332 -0.2634
3.4712 -2.0670 -0.2587
3.4589 -2.0892 -0.2619
3.4462 -2.1165 -0.2594
3.4358 -2.1322 -0.2657
3.4256 -2.1496 -0.2697
3.4135 -2.1857 -0.2543
3.4045 -2.2011 -0.2577
3.3955 -2.2197 -0.2568
3.3795 -2.2489 -0.2606
3.3720 -2.2621 -0.2629
3.3646 -2.2810 -0.2575
3.3578 -2.2956 -0.2562
3.3513 -2.3109 -0.2532
3.3452 -2.3187 -0.2589
3.3393 -2.3321 -0.2567
3.3337 -2.3414 -0.2593
3.3283 -2.3531 -0.2580
4.4812 -0.9022 0.9854
4.4610 -0.9089 0.9418
4.4813 -0.8479 0.9207
4.4964 -0.7936 0.8944
3.7954 -1.9042 0.4347
3.7891 -1.9012 0.4151
3.7753 -1.9126 0.3934
3.7802 -1.8872 0.3757
3.7770 -1.8772 0.3554
3.7709 -1.8725 0.3343
3.7676 -1.8617 0.3129
3.7635 -1.8520 0.2908
3.7471 -1.8685 0.2688
3.7458 -1.8519 0.2457
3.7353 -1.8554 0.2231
3.7312 -1.8441 0.1990
3.7263 -1.8338 0.1743
3.7219 -1.8217 0.1485
3.7264 -1.7863 0.1176
3.7078 -1.8086 0.0968
3.7086 -1.7803 0.0650
3.7022 -1.7697 0.0361
3.7010 -1.7438 0.0020
3.6970 -1.7239 -0.0318
3.6859 -1.7242 -0.0600
3.6816 -1.7027 -0.0966
3.6752 -1.6862 -0.1326
3.6672 -1.6735 -0.1681
3.6602 -1.6564 -0.2066
3.6552 -1.6300 -0.2509
3.6030 -1.7347 -0.2588
3.5835 -1.7666 -0.2703
3.5592 -1.8222 -0.2658
3.5378 -1.8700 -0.2631
3.5204 -1.9038 -0.2671
3.5029 -1.9418 -0.2663
3.4717 -2.0099 -0.2645
3.4569 -2.0462 -0.2588
3.4447 -2.0706 -0.2608
3.4326 -2.0975 -0.2594
3.4223 -2.1154 -0.2644
3.4015 -2.1638 -0.2594
3.3921 -2.1864 -0.2563
3.3835 -2.2054 -0.2556
3.3756 -2.2191 -0.2594
3.3537 -2.2671 -0.2580
3.3471 -2.2811 -0.2579
3.3409 -2.2984 -0.2530
3.3350 -2.3106 -0.2536
3.3293 -2.3210 -0.2557
3.3238 -2.3296 -0.2595
3.3188 -2.3440 -0.2550
4.5163 -0.8614 1.1617
4.4734 -0.9054 1.1022
4.4762 -0.8747 1.0755
4.4620 -0.8716 1.0363
4.4528 -0.8598 0.9999
3.7921 -1.8636 0.4441
3.7739 -1.8836 0.4205
3.7663 -1.8826 0.4003
3.7557 -1.8879 0.3793
3.7548 -1.8725 0.3599
3.7563 -1.8510 0.3400
3.7512 -1.8431 0.3185
3.7491 -1.8281 0.2964
3.7324 -1.8458 0.2742
3.7264 -1.8391 0.2515
3.7255 -1.8193 0.2274
3.7132 -1.8269 0.2047
3.7010 -1.8099 0.1553
3.7041 -1.7757 0.1252
3.6955 -1.7716 0.0991
3.6920 -1.7526 0.0692
3.6913 -1.7240 0.0358
3.7029 -1.6555 -0.0106
3.6847 -1.6764 -0.0335
3.6531 -1.6650 -0.1255
3.6437 -1.6559 -0.1593
3.6345 -1.6450 -0.1947
3.6275 -1.6237 -0.2358
3.6092 -1.6473 -0.2559
3.5646 -1.7372 -0.2689
3.5215 -1.8389 -0.2652
3.5025 -1.8845 -0.2626
3.4887 -1.9057 -0.2740
3.4564 -1.9889 -0.2634
3.4308 -2.0472 -0.2634
3.4082 -2.1019 -0.2600
3.3989 -2.1164 -0.2674
3.3886 -2.1486 -0.2577
3.3800 -2.1663 -0.2600
3.3716 -2.1866 -0.2587
3.3564 -2.2179 -0.2625
3.3493 -2.2359 -0.2604
3.3426 -2.2478 -0.2643
3.3303 -2.2824 -0.2569
3.3192 -2.3088 -0.2557
3.3089 -2.3306 -0.2576
3.3040 -2.3401 -0.2595
3.7642 -1.8713 0.4453
3.7597 -1.8638 0.4263
3.7529 -1.8607 0.4063
3.7413 -1.8681 0.3849
3.7381 -1.8566 0.3652
3.7339 -1.8265 0.3240
3.7245 -1.8278 0.3019
3.7163 -1.8261 0.2796
3.7104 -1.8181 0.2569
3.7126 -1.7886 0.2322
3.7125 -1.7635 0.2063
3.7202 -1.7150 0.1763
3.7074 -1.7220 0.1514
3.7173 -1.6630 0.1158
3.7061 -1.6631 0.0882
3.7001 -1.6471 0.0569
3.6908 -1.6403 0.0268
3.6945 -1.5896 -0.0157
3.6891 -1.5662 -0.0530
3.6298 -1.6002 -0.1660
3.6134 -1.6165 -0.1904
3.6034 -1.6054 -0.2266
3.5914 -1.6022 -0.2599
3.5677 -1.6550 -0.2649
3.5427 -1.7209 -0.2601
3.5036 -1.8130 -0.2637
3.4877 -1.8452 -0.2705
3.4701 -1.8933 -0.2652
3.4404 -1.9715 -0.2596
3.4153 -2.0374 -0.2550
3.3944 -2.0848 -0.2586
3.3849 -2.1059 -0.2607
3.3763 -2.1196 -0.2683
3.3676 -2.1404 -0.2686
3.3594 -2.1639 -0.2653
3.3517 -2.1871 -0.2607
3.3445 -2.2048 -0.2606
3.3377 -2.2205 -0.2615
3.3312 -2.2344 -0.2636
3.3253 -2.2543 -0.2581
3.3140 -2.2823 -0.2576
3.3087 -2.2940 -0.2590
3.3040 -2.3099 -0.2544
3.2989 -2.3179 -0.2591
3.2943 -2.3293 -0.2588
3.7414 -1.8525 0.4308
3.7393 -1.8385 0.4124
3.7336 -1.8320 0.3923
3.7281 -1.8246 0.3719
3.7198 -1.8236 0.3505
3.7174 -1.8078 0.3296
3.7120 -1.7985 0.3076
3.7024 -1.7998 0.2851
3.7051 -1.7675 0.2614
3.6999 -1.7554 0.2372
3.6965 -1.7371 0.2116
3.6873 -1.7346 0.1867
3.6876 -1.7030 0.1577
3.6837 -1.6821 0.1286
3.6837 -1.6470 0.0956
3.6764 -1.6337 0.0652
3.6711 -1.6123 0.0320
3.6652 -1.5912 -0.0024
3.6007 -1.6051 -0.1482
3.5965 -1.5668 -0.1947
3.5786 -1.5912 -0.2158
3.5688 -1.5760 -0.2543
3.5072 -1.7175 -0.2733
3.4851 -1.7887 -0.2609
3.4683 -1.8322 -0.2616
3.4398 -1.8980 -0.2701
3.4243 -1.9540 -0.2557
3.4125 -1.9811 -0.2593
3.4011 -2.0117 -0.2588
3.3909 -2.0326 -0.2642
3.3807 -2.0638 -0.2602
3.3715 -2.0844 -0.2634
3.3628 -2.1067 -0.2640
3.3545 -2.1326 -0.2602
3.3395 -2.1754 -0.2569
3.3200 -2.2254 -0.2581
3.3144 -2.2448 -0.2536
3.3086 -2.2550 -0.2584
3.3033 -2.2688 -0.2585
3.2984 -2.2834 -0.2568
3.2937 -2.2970 -0.2556
3.2886 -2.3042 -0.2616
3.2844 -2.3176 -0.2592
3.6693 -1.6427 0.1321
3.6638 -1.6227 0.1016
3.6562 -1.6090 0.0712
3.7401 -0.9636 -0.2805
3.6598 -1.1755 -0.2938
3.5623 -1.5319 -0.2244
3.5476 -1.5405 -0.2529
3.5284 -1.5783 -0.2671
3.5093 -1.6207 -0.2772
3.4904 -1.6678 -0.2827
3.4685 -1.7473 -0.2676
3.4523 -1.7907 -0.2696
3.4224 -1.8814 -0.2646
3.3979 -1.9475 -0.2673
3.3761 -2.0165 -0.2609
3.3576 -2.0739 -0.2567
3.3493 -2.0938 -0.2598
3.3414 -2.1154 -0.2603
3.3341 -2.1397 -0.2572
3.3271 -2.1562 -0.2601
3.3204 -2.1727 -0.2622
3.3144 -2.1947 -0.2579
3.3085 -2.2109 -0.2584
3.3031 -2.2297 -0.2551
3.2974 -2.2402 -0.2600
3.2925 -2.2561 -0.2583
3.2877 -2.2691 -0.2589
3.2828 -2.2802 -0.2612
3.2786 -2.2939 -0.2596
3.2740 -2.3031 -0.2630
4.2762 -0.3230 0.6284
3.9153 -1.1042 0.3734
3.8417 -1.2340 0.2981
3.8089 -1.2917 0.2643
3.7661 -1.2425 0.1221
3.6392 -1.5704 0.0746
3.6228 -1.5895 0.0499
3.6144 -1.5748 0.0180
3.6985 -0.9673 -0.2583
3.6691 -1.0249 -0.2841
3.6319 -1.1319 -0.2894
3.5392 -1.5051 -0.2186
3.5226 -1.5272 -0.2413
3.4710 -1.6291 -0.2853
3.4339 -1.7644 -0.2682
3.4047 -1.8687 -0.2565
3.3929 -1.9000 -0.2604
3.3815 -1.9359 -0.2594
3.3711 -1.9667 -0.2603
3.3614 -1.9924 -0.2635
3.3436 -2.0480 -0.2624
3.3280 -2.0903 -0.2669
3.3208 -2.1122 -0.2669
3.3023 -2.1788 -0.2589
3.2970 -2.1991 -0.2557
3.2911 -2.2089 -0.2624
3.2868 -2.2317 -0.2546
3.2817 -2.2432 -0.2580
3.2720 -2.2659 -0.2634
3.2678 -2.2790 -0.2631
4.4584 0.0028 0.9752
4.4175 0.0223 0.8633
3.8430 -1.2515 0.4065
3.8329 -1.2398 0.3740
3.8172 -1.2450 0.3401
3.7998 -1.2558 0.3063
3.7911 -1.2377 0.2723
3.7498 -1.2293 0.1676
3.7320 -1.2413 0.1336
3.6005 -1.5722 0.0574
3.5925 -1.5538 0.0249
3.6364 -0.9937 -0.2737
3.6034 -1.0877 -0.2848
3.5659 -1.2263 -0.2748
3.5384 -1.3105 -0.2797
3.5119 -1.4014 -0.2778
3.4863 -1.5000 -0.2680
3.4476 -1.6269 -0.2691
3.4143 -1.7511 -0.2592
3.3884 -1.8288 -0.2653
3.3761 -1.8819 -0.2563
3.3656 -1.9104 -0.2610
3.3555 -1.9468 -0.2589
3.3462 -1.9829 -0.2551
3.3293 -2.0266 -0.2641
3.3222 -2.0670 -0.2520
3.3150 -2.0854 -0.2561
3.3016 -2.1219 -0.2618
3.2958 -2.1448 -0.2590
3.2899 -2.1608 -0.2616
3.2848 -2.1805 -0.2597
3.2804 -2.2030 -0.2540
3.2751 -2.2147 -0.2581
3.2702 -2.2274 -0.2608
3.2660 -2.2428 -0.2597
3.2615 -2.2543 -0.2623
3.2586 -2.2733 -0.2555
4.5416 0.2531 1.1642
4.4240 0.0180 1.0395
4.4043 0.0289 0.9854
4.3627 -0.0178 0.9174
4.3418 -0.0093 0.8623
4.3214 0.0014 0.8070
3.8436 -1.1857 0.4519
3.6978 -1.2454 0.1452
3.5712 -1.5296 0.0312
3.5590 -1.5296 0.0021
3.5744 -1.0430 -0.2800
3.5381 -1.1926 -0.2680
3.5140 -1.2612 -0.2802
3.4880 -1.3622 -0.2759
3.4647 -1.4551 -0.2702
3.4438 -1.5411 -0.2633
3.4260 -1.6096 -0.2608
3.4115 -1.6452 -0.2718
3.3493 -1.8907 -0.2585
3.3397 -1.9175 -0.2636
3.3311 -1.9614 -0.2553
3.3228 -1.9888 -0.2569
3.3150 -2.0119 -0.2603
3.3079 -2.0399 -0.2588
3.3009 -2.0607 -0.2617
3.2942 -2.0784 -0.2662
3.2836 -2.1322 -0.2561
3.2776 -2.1454 -0.2615
3.2731 -2.1685 -0.2570
3.2678 -2.1815 -0.2611
3.2642 -2.2043 -0.2547
3.2558 -2.2338 -0.2554
3.2511 -2.2436 -0.2601
3.2472 -2.2561 -0.2611
3.2519 -0.1718 0.8535
3.3018 -0.1853 0.8460
3.3263 -0.3042 0.8172
3.3793 -0.2867 0.8164
3.3848 -0.4464 0.7801
3.4235 -0.4671 0.7720
3.4358 -0.5692 0.7481
3.5458 -0.3575 0.7856
3.3617 -0.3835 0.7470
3.3849 -0.4698 0.7277
3.4060 -0.5500 0.7098
3.4677 -0.4873 0.7174
1.5213 -1.9977 0.5454
1.5033 -1.9581 0.5539
1.4952 -1.9231 0.5607
1.5053 -1.8993 0.5642
1.5143 -1.8735 0.5682
3.3790 -0.3413 0.7033
3.4393 -0.2952 0.7071
3.4557 -0.4026 0.6867
3.5022 -0.3987 0.6839
1.5032 -1.9919 0.5201
1.5166 -1.9727 0.5222
1.4693 -1.8468 0.5450
2.7969 -0.9368 0.5981
3.4009 -0.2824 0.6597
3.4507 -0.2796 0.6568
3.5044 -0.2619 0.6559
1.5168 -2.0063 0.4894
1.4918 -1.9020 0.5047
1.4756 -1.8578 0.5115
1.5035 -1.8441 0.5117
3.4162 -0.2502 0.6098
3.4712 -0.2320 0.6090
3.5169 -0.2451 0.6045
1.5033 -2.0037 0.4624
1.5004 -1.8481 0.4795
0.4614 -0.5327 0.6764
3.0083 -1.2089 0.4717
3.4237 -0.2490 0.5550
3.4706 -0.2603 0.5514
3.5899 -0.0287 0.5705
1.4968 -1.8857 0.4443
1.4619 -1.7894 0.4540
0.4108 -0.4963 0.6100
3.0087 -1.2293 0.4344
3.1003 -1.2591 0.4278
3.4075 -0.3368 0.4930
3.5054 -0.1646 0.5034
3.5112 -0.4604 0.4780
3.4676 -0.7158 0.4581
3.5012 -0.7303 0.4554
3.4885 -0.8634 0.4446
3.4522 -1.0420 0.4310
0.3773 -0.4773 0.5384
0.5936 -0.5959 0.5235
0.7898 1.4038 0.6386
0.9971 1.2360 0.6210
1.1476 1.1763 0.6120
1.3562 0.9460 0.5905
2.1793 1.9890 0.6248
2.3168 1.8456 0.6112
2.4403 1.7682 0.6021
2.5713 1.3931 0.5745
3.0475 -1.2205 0.3980
3.0818 -1.2147 0.3971
3.1036 -1.2627 0.3934
3.4715 -1.0089 0.3958
3.4737 -1.0799 0.3914
-0.4513 0.0618 0.5053
0.4570 -0.4710 0.4608
1.2275 0.9708 0.4923
1.4362 0.7259 0.4776
1.4499 0.9959 0.4871
2.2703 1.2664 0.4745
2.4551 1.6322 0.4827
2.5474 2.0783 0.4965
2.6698 1.9926 0.4900
3.0520 -1.2175 0.3620
3.0866 -1.2116 0.3613
3.1137 -1.2366 0.3596
3.4733 -1.0950 0.3549
3.5172 -1.0641 0.3548
1.4493 -1.9659 0.3478
1.3497 -1.7645 0.3521
0.4484 -1.0463 0.3780
0.4479 -0.9778 0.3789
0.3431 -0.3706 0.3881
0.8982 1.4392 0.3987
1.1806 1.0769 0.3889
1.3847 0.8555 0.3824
1.3953 1.1477 0.3856
2.3072 0.9875 0.3661
2.3878 1.1863 0.3669
2.5578 1.9865 0.3730
2.8920 -1.0772 0.3304
3.0852 -1.2379 0.3247
3.1204 -1.2263 0.3242
3.4338 -1.0532 0.3202
1.3799 -1.7935 0.3149
0.4031 -0.9552 0.3146
0.4674 -0.9340 0.3136
0.1825 -0.1101 0.3058
1.0245 1.4492 0.2757
1.4485 0.9883 0.2771
2.1243 1.5738 0.2618
2.2991 1.0858 0.2664
2.4269 0.8065 0.2687
2.6841 1.9965 0.2500
2.9004 -1.0160 0.2877
2.9419 -1.0110 0.2872
3.0887 -1.2408 0.2886
3.1183 -1.2537 0.2885
3.1625 -1.2056 0.2873
3.5349 -0.1714 0.2694
3.6207 -0.0651 0.2671
3.4362 -1.0623 0.2824
3.4757 -1.0439 0.2817
0.4223 -0.9102 0.2465
0.4192 -0.7499 0.2403
0.4359 -0.6788 0.2375
0.4533 -0.6042 0.2345
0.4520 -0.5068 0.2308
0.2821 -0.2284 0.2204
1.0097 1.4750 0.1525
1.2846 1.1055 0.1661
1.4251 1.0496 0.1678
1.6354 0.7555 0.1787
1.6627 1.0312 0.1679
1.6810 1.3975 0.1537
1.8053 1.3836 0.1539
1.9650 1.1782 0.1614
2.0776 1.1680 0.1615
2.2003 1.0709 0.1649
2.2797 1.2820 0.1565
2.3666 1.5150 0.1473
2.4586 1.8292 0.1349
2.8275 -0.7955 0.2356
2.8627 -1.0075 0.2437
2.9038 -1.0187 0.2440
2.9482 -0.9879 0.2427
3.0780 -1.1473 0.2485
3.1145 -1.1417 0.2482
3.1278 -1.2319 0.2517
3.1682 -1.2014 0.2504
3.4250 -0.4027 0.2187
3.5193 -0.2501 0.2126
3.5660 -0.2627 0.2129
3.6273 -0.2285 0.2114
3.4711 -0.9005 0.2379
3.4642 -1.0070 0.2421
1.4163 1.0686 0.0564
1.7381 1.6832 0.0186
2.0983 1.8020 0.0130
2.8311 -0.7966 0.1850
2.8750 -0.8633 0.1895
3.0791 -1.1635 0.2101
3.1139 -1.1648 0.2104
3.1405 -1.1977 0.2127
3.1687 -1.2172 0.2141
3.3788 -0.8649 0.1926
3.4579 -0.8548 0.1924
3.4770 -0.9019 0.1955
3.5503 -0.8084 0.1899
3.5089 -1.0698 0.2065
1.3786 -1.8500 0.2082
-0.1482 -0.2888 0.0446
1.1866 1.3472 -0.0844
1.6688 1.4468 -0.0865
1.7964 1.4316 -0.0833
2.1228 1.6560 -0.0989
2.8868 -0.7383 0.1292
2.9234 -0.8790 0.1425
2.9596 -0.9573 0.1501
2.9924 -1.0282 0.1570
3.0777 -1.1921 0.1731
3.1092 -1.2061 0.1748
3.1415 -1.2124 0.1759
3.1745 -1.2132 0.1764
3.2088 -1.2072 0.1763
3.2647 -1.1304 0.1702
3.3158 -1.0764 0.1660
3.3999 -0.9320 0.1542
3.4510 -0.8918 0.1512
3.4825 -0.9047 0.1529
3.5382 -0.8556 0.1492
3.5729 -0.8590 0.1500
3.5739 -1.0104 0.1638
3.6117 -0.9979 0.1632
1.3485 -1.9051 0.1772
1.3664 -1.8834 0.1751
1.3693 -1.8508 0.1713
1.3677 -1.8134 0.1669
-0.1701 -0.2865 -0.0476
1.0270 1.0916 -0.1813
1.1592 1.0814 -0.1771
1.6318 1.1329 -0.1722
1.8382 1.2526 -0.1814
1.9482 1.2889 -0.1831
2.3695 1.6470 -0.2153
2.9532 0.2091 -0.0333
3.0032 -0.9800 0.1071
3.0362 -1.0324 0.1140
3.0723 -1.0510 0.1171
3.1106 -1.0521 0.1181
3.1281 -1.1423 0.1290
3.1532 -1.1835 0.1345
3.1905 -1.1712 0.1339
3.2355 -1.1321 0.1303
3.2934 -1.0551 0.1227
3.3672 -0.9380 0.1107
3.4147 -0.9076 0.1082
3.4506 -0.9105 0.1094
3.4824 -0.9221 0.1115
3.5130 -0.9342 0.1136
3.5468 -0.9367 0.1147
3.5550 -0.9951 0.1217
3.5867 -0.9973 0.1227
1.3391 -1.8378 0.1311
1.3752 -1.8259 0.1306
-0.2238 -0.3601 -0.1317
0.2036 -0.6201 -0.0806
0.5071 -0.7953 -0.0456
0.0301 0.3821 -0.2304
-0.0579 0.6503 -0.2719
0.4157 0.7542 -0.2717
0.6037 0.6654 -0.2529
1.5377 0.7023 -0.2283
1.5992 0.8535 -0.2481
1.6897 0.9294 -0.2561
1.8643 0.6876 -0.2157
1.9520 0.7563 -0.2228
2.0094 0.9887 -0.2544
2.4375 0.9164 -0.2303
2.5195 1.2030 -0.2689
2.6185 1.3791 -0.2911
2.7263 1.3654 -0.2857
2.8307 1.3056 -0.2738
2.9701 0.3697 -0.1345
3.0414 0.3158 -0.1245
3.0453 -0.2880 -0.0374
3.0825 -0.4411 -0.0142
3.1169 -0.5616 0.0043
3.0855 -1.0043 0.0670
3.2937 -0.9514 0.0661
3.3334 -0.9456 0.0665
3.3841 -0.9059 0.0624
3.4175 -0.9179 0.0652
3.4595 -0.9040 0.0646
3.4950 -0.9070 0.0661
3.5367 -0.8932 0.0655
3.5705 -0.8978 0.0672
3.5968 -0.9174 0.0709
3.6182 -0.9448 0.0755
3.6500 -0.9480 0.0770
-0.5167 -0.3458 -0.2389
0.4079 -0.8872 -0.1083
0.4419 -0.8354 -0.1158
0.5116 -0.8124 -0.1168
0.6296 -0.8338 -0.1083
0.5323 -0.6528 -0.1433
0.5341 -0.5565 -0.1597
0.5740 -0.4935 -0.1689
0.3904 -0.1808 -0.2300
0.2105 0.1560 -0.2950
0.3076 0.1880 -0.2965
0.4293 0.1887 -0.2916
0.5936 0.1285 -0.2746
0.6868 0.1592 -0.2760
0.7799 0.1899 -0.2775
0.8925 0.1896 -0.2728
1.0021 0.1904 -0.2684
1.1100 0.1906 -0.2640
1.2003 0.2204 -0.2654
1.2760 0.2807 -0.2727
1.3811 0.2800 -0.2682
1.4714 0.3099 -0.2696
1.5735 0.3092 -0.2653
1.6522 0.3695 -0.2724
1.7426 0.3993 -0.2738
1.9149 0.4915 -0.2825
2.0137 0.4887 -0.2780
2.0909 0.5848 -0.2913
2.1771 0.6507 -0.2991
2.2753 0.6456 -0.2942
2.3675 0.6760 -0.2956
2.4655 0.6377 -0.2850
2.5539 0.7022 -0.2924
2.6429 0.8043 -0.3063
2.7358 0.8713 -0.3139
2.8284 0.8281 -0.3027
2.9611 0.1482 -0.1809
3.0159 -0.0271 -0.1486
3.0638 -0.1808 -0.1204
3.1129 -0.2664 -0.1037
3.1116 -0.8907 0.0031
3.3996 -0.2499 -0.0948
3.3282 -0.8546 0.0058
3.3527 -0.9037 0.0153
3.3809 -0.9339 0.0216
3.4202 -0.9282 0.0222
3.4654 -0.9060 0.0203
3.5043 -0.9005 0.0209
3.5499 -0.8782 0.0190
-0.2718 -0.6320 -0.2668
0.1583 -0.8629 -0.1993
0.3071 -0.8985 -0.1848
0.2217 -0.7511 -0.2184
0.3358 -0.7599 -0.2109
0.3899 -0.7194 -0.2163
0.6341 -0.8505 -0.1780
0.4630 -0.6003 -0.2363
0.4822 -0.5186 -0.2516
0.6324 -0.5681 -0.2342
0.7891 -0.6321 -0.2136
0.7833 -0.5184 -0.2365
0.8884 -0.4104 -0.2527
0.9027 -0.3004 -0.2739
1.0135 -0.3175 -0.2649
1.0922 -0.2916 -0.2661
1.1429 -0.2212 -0.2776
1.4518 -0.2742 -0.2516
1.5071 -0.2064 -0.2623
1.5845 -0.1809 -0.2635
1.6709 -0.1772 -0.2599
1.7641 -0.1950 -0.2517
1.8002 -0.0581 -0.2771
1.9081 -0.1237 -0.2586
2.0208 -0.2259 -0.2327
2.0932 -0.2020 -0.2338
2.1413 -0.0706 -0.2575
2.2077 -0.0001 -0.2682
2.2764 0.0731 -0.2793
2.3644 0.0268 -0.2657
2.4324 0.1246 -0.2817
2.5061 0.2015 -0.2933
2.5855 0.2277 -0.2946
2.6649 0.2539 -0.2958
2.7442 0.2801 -0.2970
2.8224 0.2532 -0.2878
2.8934 0.1300 -0.2597
2.9626 0.0847 -0.2472
3.0072 -0.1815 -0.1921
3.0724 -0.1600 -0.1931
3.0888 -0.7978 -0.0655
3.1257 -0.8435 -0.0546
3.3762 -0.1465 -0.1806
3.3951 -0.2972 -0.1497
3.3311 -0.8656 -0.0399
3.3956 -0.9094 -0.0279
3.4357 -0.9034 -0.0271
3.4785 -0.8892 -0.0278
3.5247 -0.8668 -0.0299
3.5718 -0.8430 -0.0323
4.3553 0.7081 -0.3014
0.1809 -1.0376 -0.2361
0.5437 -1.2235 -0.1724
0.3162 -0.9930 -0.2382
0.2929 -0.9012 -0.2604
0.3258 -0.8483 -0.2704
0.3785 -0.8094 -0.2761
0.4684 -0.8013 -0.2726
0.6543 -0.8815 -0.2434
0.7600 -0.8077 -0.2539
0.7536 -0.7073 -0.2770
0.7938 -0.6499 -0.2877
0.9248 -0.6929 -0.2702
0.9950 -0.6697 -0.2712
1.0781 -0.6628 -0.2679
1.1601 -0.6563 -0.2645
1.2292 -0.6335 -0.2656
1.2984 -0.6107 -0.2666
1.3777 -0.6040 -0.2634
1.4463 -0.5814 -0.2645
1.5058 -0.5423 -0.2698
1.5749 -0.5195 -0.2709
1.6355 -0.4790 -0.2765
1.7132 -0.4739 -0.2731
1.7823 -0.4511 -0.2741
1.8515 -0.4283 -0.2752
1.9268 -0.4229 -0.2719
2.0010 -0.4179 -0.2687
2.0640 -0.3777 -0.2741
2.1280 -0.3371 -0.2795
2.2013 -0.3324 -0.2762
2.2735 -0.3280 -0.2729
2.3386 -0.2871 -0.2783
2.4072 -0.2645 -0.2794
2.4716 -0.2033 -0.2894
2.5412 -0.1803 -0.2905
2.6109 -0.1573 -0.2916
2.6800 -0.1140 -0.2973
2.7502 -0.0704 -0.3030
2.8214 -0.0253 -0.3090
2.9936 -0.8524 -0.1112
3.0289 -0.9249 -0.0927
3.0702 -0.9379 -0.0873
3.1122 -0.9405 -0.0843
3.1610 -0.9080 -0.0887
3.3026 -0.8438 -0.0949
3.3371 -0.8663 -0.0877
3.3821 -0.8515 -0.0884
3.4235 -0.8471 -0.0870
3.4546 -0.8696 -0.0800
3.5577 -0.8028 -0.0890
4.0988 0.0104 -0.2414
4.0799 -0.1302 -0.2106
0.4423 -1.2271 -0.2434
0.4576 -1.1752 -0.2556
0.6148 -1.0908 -0.2664
0.6778 -1.0700 -0.2674
0.7407 -1.0493 -0.2683
0.7904 -1.0166 -0.2733
0.9171 -1.0552 -0.2547
1.0133 -1.0694 -0.2445
1.0397 -1.0148 -0.2566
1.1233 -1.0188 -0.2498
1.1935 -1.0099 -0.2473
1.2134 -0.9423 -0.2632
1.2847 -0.9340 -0.2604
1.3921 -0.9750 -0.2426
1.4425 -0.9431 -0.2472
1.4938 -0.9109 -0.2519
1.6139 -0.8713 -0.2538
1.7153 -0.9254 -0.2330
1.7540 -0.8699 -0.2445
1.8662 -0.8186 -0.2499
2.0087 -0.8419 -0.2342
2.0574 -0.7983 -0.2419
2.1156 -0.7792 -0.2428
2.1737 -0.7600 -0.2437
2.2383 -0.7662 -0.2377
2.2930 -0.7349 -0.2419
2.3481 -0.7025 -0.2464
2.4017 -0.6563 -0.2545
2.4625 -0.6505 -0.2518
2.5116 -0.5447 -0.2755
2.5748 -0.5544 -0.2686
2.6373 -0.5786 -0.2582
2.6950 -0.5148 -0.2705
2.7550 -0.4339 -0.2870
2.8111 -0.6312 -0.2328
2.8671 -0.6128 -0.2337
2.9192 -0.6465 -0.2215
2.9824 -0.9790 -0.1323
3.0292 -0.9544 -0.1354
3.0685 -0.9761 -0.1272
3.1098 -0.9787 -0.1236
3.1429 -1.0157 -0.1119
3.1902 -0.9838 -0.1168
3.2474 -0.9170 -0.1299
3.2951 -0.8922 -0.1330
3.3487 -0.8490 -0.1403
3.4108 -0.7838 -0.1527
3.4400 -0.8189 -0.1417
3.4575 -0.8804 -0.1249
3.5050 -0.8566 -0.1277
3.5452 -0.8514 -0.1262
3.6726 -0.8929 -0.1069
0.6044 -1.3476 -0.2633
0.6739 -1.3379 -0.2607
0.7053 -1.3012 -0.2686
0.7987 -1.3098 -0.2589
0.8429 -1.2821 -0.2633
0.9336 -1.2916 -0.2535
0.9778 -1.2639 -0.2579
1.0227 -1.2360 -0.2623
1.0683 -1.2078 -0.2668
1.1347 -1.1990 -0.2641
1.1907 -1.1806 -0.2649
1.2374 -1.1520 -0.2694
1.3118 -1.1538 -0.2631
1.3674 -1.1354 -0.2639
1.4314 -1.1275 -0.2612
1.4787 -1.0987 -0.2656
1.5344 -1.0804 -0.2665
1.5827 -1.0513 -0.2710
1.6387 -1.0328 -0.2718
1.7013 -1.0253 -0.2691
1.7570 -1.0070 -0.2699
1.8068 -0.9774 -0.2744
1.8738 -0.9816 -0.2680
1.9291 -0.9633 -0.2689
1.9796 -0.9336 -0.2734
2.0353 -0.9152 -0.2743
2.0989 -0.9195 -0.2681
2.1539 -0.9014 -0.2689
2.2057 -0.8721 -0.2732
2.2610 -0.8539 -0.2740
2.3188 -0.8470 -0.2715
2.3761 -0.8402 -0.2689
2.4838 -0.7926 -0.2740
2.5375 -0.7627 -0.2783
2.5938 -0.7563 -0.2757
2.6494 -0.7501 -0.2731
2.7034 -0.7080 -0.2809
2.7587 -0.7272 -0.2711
2.8130 -0.7093 -0.2719
2.8939 -1.0284 -0.1750
2.9372 -1.0313 -0.1708
3.0150 -0.7579 -0.2423
3.0698 -0.7176 -0.2495
3.0912 -0.8744 -0.2033
3.1348 -0.8782 -0.1988
3.1619 -1.1220 -0.1275
3.3115 -0.8563 -0.1912
3.3670 -0.8107 -0.1998
3.4138 -0.7953 -0.2006
3.4498 -0.8107 -0.1934
3.4779 -0.8439 -0.1817
3.6487 -0.8048 -0.1795
3.6713 -0.8367 -0.1687
3.7012 -0.8501 -0.1625
0.9987 -1.4145 -0.2704
1.0699 -1.4131 -0.2646
1.1305 -1.4041 -0.2621
1.1897 -1.3946 -0.2598
1.2492 -1.3861 -0.2573
1.3236 -1.3927 -0.2487
1.3806 -1.3839 -0.2465
1.4364 -1.3745 -0.2445
1.4723 -1.3436 -0.2510
1.5080 -1.3108 -0.2582
1.5581 -1.2942 -0.2589
1.5826 -1.2440 -0.2725
1.6643 -1.2693 -0.2574
1.7365 -1.2856 -0.2460
1.8195 -1.2291 -0.2564
1.8638 -1.2035 -0.2605
1.9092 -1.1784 -0.2644
1.9683 -1.1801 -0.2587
2.0334 -1.1977 -0.2474
2.0782 -1.1729 -0.2513
2.1305 -1.1657 -0.2489
2.1759 -1.1407 -0.2528
2.2276 -1.1337 -0.2504
2.2788 -1.1269 -0.2481
