ply
format ascii 1.0
element vertex 2192
property float x
property float y
property float z
end_header
3.6443 -0.8680 0.3569
4.2817 -1.1061 0.0592
3.5380 -0.5603 -0.3760
2.2108 0.1285 -0.3197
2.1113 0.1921 -0.3505
1.5580 0.4605 -0.2723
1.5443 0.4803 -0.3088
1.2508 0.6213 -0.2633
1.3094 0.6110 -0.3246
1.2822 0.6331 -0.3467
1.2363 0.6612 -0.3573
1.1805 0.6918 -0.3598
1.1210 0.7225 -0.3567
1.0511 0.7553 -0.3435
1.0157 0.7761 -0.3490
0.9789 0.7965 -0.3516
0.9426 0.8162 -0.3522
0.9016 0.8362 -0.3470
0.8726 0.8524 -0.3490
0.8431 0.8680 -0.3487
0.8147 0.8828 -0.3476
0.7572 0.9106 -0.3393
0.7369 0.9220 -0.3407
0.7199 0.9322 -0.3443
0.7016 0.9424 -0.3454
0.6600 0.9622 -0.3385
0.6477 0.9703 -0.3429
0.6325 0.9785 -0.3430
0.6212 0.9859 -0.3471
0.6047 0.9935 -0.3437
0.5929 1.0004 -0.3455
0.5774 1.0073 -0.3415
0.5659 1.0136 -0.3420
0.5537 1.0197 -0.3407
0.5424 1.0254 -0.3400
0.5342 1.0309 -0.3432
0.5231 1.0362 -0.3413
0.5157 1.0413 -0.3448
3.8890 -0.7160 -0.0968
3.7300 -0.5739 -0.2764
3.4598 -0.4202 -0.3299
3.2838 -0.3122 -0.3874
2.1728 0.2279 -0.3440
2.0551 0.2943 -0.3658
1.6029 0.4865 -0.2689
1.7527 0.4455 -0.3659
1.3800 0.6223 -0.3387
1.3326 0.6508 -0.3528
1.2849 0.6786 -0.3641
1.2139 0.7127 -0.3601
1.1071 0.7663 -0.3610
1.0425 0.7946 -0.3494
0.9974 0.8164 -0.3472
0.9536 0.8369 -0.3433
0.9254 0.8528 -0.3484
0.8883 0.8701 -0.3449
0.8658 0.8835 -0.3511
0.8268 0.8998 -0.3419
0.8057 0.9118 -0.3461
0.7749 0.9251 -0.3400
0.7599 0.9351 -0.3473
0.7361 0.9461 -0.3449
0.7142 0.9564 -0.3429
0.6965 0.9656 -0.3440
0.6775 0.9746 -0.3425
0.6430 0.9910 -0.3402
0.6323 0.9982 -0.3454
0.6139 1.0056 -0.3402
0.6027 1.0122 -0.3431
0.5908 1.0186 -0.3444
0.5791 1.0247 -0.3451
0.5659 1.0305 -0.3430
0.5514 1.0361 -0.3380
0.5452 1.0415 -0.3447
0.5324 1.0464 -0.3406
0.5272 1.0516 -0.3478
4.0303 -0.8070 0.3203
3.7117 -0.5907 0.1304
3.4852 -0.4563 0.0496
3.6045 -0.4780 -0.0459
3.9783 -0.6070 -0.1744
3.7928 -0.4926 -0.2524
3.5525 -0.3589 -0.3129
3.5352 -0.3192 -0.4019
1.4224 0.6452 -0.3389
1.3823 0.6706 -0.3577
1.3058 0.7057 -0.3561
1.2408 0.7362 -0.3563
1.1188 0.7910 -0.3504
1.0220 0.8350 -0.3469
0.9505 0.8696 -0.3504
0.8972 0.8893 -0.3356
0.8812 0.9009 -0.3472
0.8267 0.9268 -0.3485
0.7734 0.9502 -0.3443
0.7542 0.9601 -0.3469
0.7376 0.9693 -0.3511
0.6911 0.9878 -0.3421
0.6783 0.9955 -0.3470
0.6560 1.0035 -0.3402
0.6320 1.0173 -0.3474
0.6005 1.0301 -0.3420
0.5878 1.0360 -0.3417
0.5752 1.0415 -0.3408
0.5634 1.0468 -0.3404
0.5503 1.0518 -0.3370
0.5434 1.0569 -0.3422
0.5350 1.0617 -0.3448
4.6408 -1.0468 0.5840
4.1143 -0.7668 0.4433
3.8455 -0.6111 0.3365
3.7895 -0.5534 0.2443
3.5584 -0.4212 0.1567
3.6450 -0.4265 0.0671
3.7973 -0.3538 -0.3174
3.7026 -0.2834 -0.3980
1.5721 0.5808 -0.2231
1.3140 0.6877 -0.2079
1.4610 0.6703 -0.3369
1.4183 0.6956 -0.3555
1.3432 0.7286 -0.3561
1.2570 0.7627 -0.3469
1.1609 0.8085 -0.3577
1.1054 0.8315 -0.3546
1.0506 0.8533 -0.3487
1.0148 0.8702 -0.3526
0.8983 0.9181 -0.3446
0.8412 0.9431 -0.3451
0.7955 0.9644 -0.3490
0.7716 0.9745 -0.3481
0.7489 0.9839 -0.3468
0.7115 1.0008 -0.3485
0.6935 1.0086 -0.3485
0.6733 1.0161 -0.3447
0.6557 1.0230 -0.3428
0.6423 1.0296 -0.3447
0.6274 1.0358 -0.3441
0.6103 1.0417 -0.3396
0.5965 1.0472 -0.3384
0.5860 1.0526 -0.3408
0.5788 1.0581 -0.3471
0.5677 1.0630 -0.3474
0.5521 1.0672 -0.3403
0.5451 1.0721 -0.3453
4.1350 -0.6638 0.4652
4.0291 -0.5840 0.3647
3.5980 -0.3723 0.2633
3.2784 -0.2129 0.1813
3.4995 -0.2711 0.0963
3.5155 -0.2464 0.0114
3.5322 -0.2213 -0.0752
3.9184 -0.3301 -0.2043
3.8198 -0.2594 -0.2882
3.4188 -0.0860 -0.3186
3.3723 -0.0388 -0.3958
1.4329 0.6739 -0.1998
1.3894 0.6988 -0.2197
1.5750 0.6625 -0.3253
1.5443 0.6850 -0.3528
1.4661 0.7186 -0.3580
1.3831 0.7517 -0.3567
1.3045 0.7822 -0.3532
1.1254 0.8533 -0.3496
1.0877 0.8707 -0.3555
1.0333 0.8901 -0.3483
0.9973 0.9056 -0.3506
0.9518 0.9216 -0.3442
0.9245 0.9343 -0.3487
0.8558 0.9595 -0.3416
0.8381 0.9694 -0.3492
0.7859 0.9894 -0.3460
0.7670 0.9981 -0.3490
0.7441 1.0066 -0.3469
0.7014 1.0220 -0.3418
0.6875 1.0290 -0.3455
0.6712 1.0357 -0.3456
0.6575 1.0420 -0.3479
0.6358 1.0477 -0.3396
0.6208 1.0533 -0.3382
0.6101 1.0588 -0.3413
0.5994 1.0641 -0.3439
0.5913 1.0694 -0.3493
0.5776 1.0739 -0.3465
0.5672 1.0785 -0.3476
3.5388 -0.0355 -0.3076
3.5891 -0.0183 -0.4042
2.9607 0.2024 -0.3644
1.4532 0.7157 -0.2261
1.6507 0.6823 -0.3347
1.6049 0.7081 -0.3580
1.5167 0.7423 -0.3610
1.4274 0.7750 -0.3588
1.3578 0.8020 -0.3614
1.2795 0.8293 -0.3558
1.2206 0.8516 -0.3564
1.1576 0.8734 -0.3515
1.1017 0.8928 -0.3474
1.0610 0.9089 -0.3498
0.9799 0.9387 -0.3481
0.9129 0.9638 -0.3481
0.8839 0.9749 -0.3487
0.8596 0.9851 -0.3517
0.8276 0.9952 -0.3466
0.8011 1.0044 -0.3447
0.7534 1.0209 -0.3410
0.7151 1.0354 -0.3414
0.6827 1.0484 -0.3437
0.6722 1.0547 -0.3500
0.6543 1.0603 -0.3469
0.6348 1.0653 -0.3409
0.6197 1.0703 -0.3390
0.6130 1.0758 -0.3470
0.5998 1.0804 -0.3461
0.5834 1.0843 -0.3400
0.5729 1.0886 -0.3411
0.5681 1.0936 -0.3498
5.1614 -1.3359 1.9072
1.9531 0.3514 0.3826
1.9534 0.3669 0.3414
1.4664 0.6195 0.1193
1.4285 0.6434 0.0909
3.4656 0.0746 -0.2674
3.7537 0.0254 -0.4006
3.2878 0.1869 -0.4015
1.4619 0.7339 -0.1785
1.6625 0.7182 -0.3201
1.6297 0.7403 -0.3485
1.5401 0.7726 -0.3520
1.4494 0.8034 -0.3504
1.3143 0.8522 -0.3559
1.2430 0.8751 -0.3513
1.1969 0.8932 -0.3569
1.1296 0.9129 -0.3476
1.0873 0.9285 -0.3500
1.0621 0.9415 -0.3613
1.0158 0.9558 -0.3569
0.8714 1.0017 -0.3461
0.8219 1.0195 -0.3479
0.7732 1.0352 -0.3451
0.7351 1.0492 -0.3471
0.6952 1.0614 -0.3428
0.6819 1.0673 -0.3463
0.6620 1.0723 -0.3413
0.6328 1.0822 -0.3408
0.6091 1.0915 -0.3439
0.5967 1.0957 -0.3435
0.5859 1.0999 -0.3448
4.9503 -1.2609 2.2263
5.1087 -1.2990 2.1943
5.1496 -1.2796 2.1102
1.3214 0.6951 0.1376
1.3568 0.6958 0.1066
3.7756 0.1111 -0.3721
3.4274 0.2318 -0.3983
2.8448 0.4014 -0.3576
1.5313 0.7384 -0.1485
1.5036 0.7578 -0.1761
1.5022 0.7716 -0.2109
1.4957 0.7865 -0.2442
1.5367 0.7930 -0.2952
1.5744 0.8012 -0.3474
1.4968 0.8279 -0.3529
1.4132 0.8540 -0.3517
1.3429 0.8767 -0.3526
1.2752 0.8977 -0.3511
1.2149 0.9164 -0.3500
1.1082 0.9490 -0.3467
1.0808 0.9617 -0.3570
0.9113 0.9915 -0.2945
0.9047 1.0004 -0.3121
0.8990 1.0092 -0.3303
0.8869 1.0181 -0.3434
0.8411 1.0350 -0.3496
0.8158 1.0427 -0.3487
0.7493 1.0631 -0.3466
0.7320 1.0692 -0.3483
0.6943 1.0801 -0.3454
0.6168 1.1024 -0.3395
0.6067 1.1068 -0.3425
0.5975 1.1111 -0.3462
0.5892 1.1155 -0.3505
2.5595 0.2195 0.5159
2.5940 0.2288 0.4664
1.3329 0.6887 0.2264
1.3244 0.7016 0.1995
1.3192 0.7135 0.1727
1.3001 0.7292 0.1467
1.3088 0.7375 0.1191
1.5818 0.7479 -0.1112
1.5218 0.7734 -0.1319
1.5205 0.7872 -0.1663
1.5141 0.8019 -0.1993
1.6996 0.8016 -0.3367
1.6281 0.8275 -0.3500
1.5631 0.8512 -0.3625
1.4630 0.8779 -0.3563
1.3797 0.9008 -0.3528
1.2368 0.9393 -0.3452
1.1468 0.9687 -0.3534
0.9157 1.0086 -0.2838
0.9139 1.0173 -0.3045
0.9148 1.0259 -0.3275
0.9128 1.0347 -0.3485
0.8885 1.0431 -0.3519
0.8550 1.0507 -0.3465
0.8358 1.0582 -0.3513
0.7895 1.0715 -0.3509
0.7626 1.0770 -0.3451
0.7432 1.0827 -0.3452
0.6932 1.0982 -0.3477
0.6753 1.1025 -0.3453
0.6594 1.1066 -0.3441
0.6445 1.1106 -0.3432
0.6332 1.1149 -0.3459
0.6168 1.1180 -0.3415
0.5999 1.1266 -0.3509
4.8093 -0.9628 2.1614
1.9034 0.5000 0.3997
1.3402 0.7357 0.1794
1.3298 0.7597 0.1257
1.3471 0.7666 0.0966
1.4491 0.7677 0.0255
1.4983 0.7703 -0.0138
1.5364 0.7760 -0.0538
1.5553 0.7860 -0.0918
1.5760 0.7962 -0.1314
1.5123 0.8202 -0.1498
1.4626 0.8411 -0.1693
1.4338 0.8581 -0.1933
1.4238 0.8723 -0.2226
1.5579 0.8842 -0.3423
1.4796 0.9063 -0.3459
1.4080 0.9263 -0.3487
1.3330 0.9451 -0.3462
1.2617 0.9622 -0.3419
1.2198 0.9763 -0.3496
1.1723 0.9899 -0.3521
0.9148 1.0169 -0.2485
0.9344 1.0252 -0.2826
0.9287 1.0340 -0.3009
0.9249 1.0427 -0.3204
0.9125 1.0512 -0.3336
0.8973 1.0593 -0.3441
0.8495 1.0736 -0.3484
0.7997 1.0857 -0.3458
0.7761 1.0911 -0.3436
0.7601 1.0969 -0.3474
0.7220 1.1065 -0.3464
0.6801 1.1138 -0.3368
0.6694 1.1185 -0.3417
0.6569 1.1228 -0.3440
0.6410 1.1260 -0.3415
0.6314 1.1302 -0.3459
0.6210 1.1341 -0.3487
0.6124 1.1382 -0.3534
1.3056 0.6534 0.4809
1.3043 0.6631 0.4572
1.2927 0.6762 0.4314
1.3249 0.7982 0.1072
1.3480 0.8046 0.0775
1.3729 0.8111 0.0463
1.5526 0.8592 -0.1811
1.4866 0.8807 -0.1955
1.4170 0.9014 -0.2057
1.3780 0.9179 -0.2237
1.3888 0.9295 -0.2593
1.4857 0.9352 -0.3313
1.4560 0.9510 -0.3530
1.2923 0.9731 -0.3108
1.2728 0.9860 -0.3314
1.2575 0.9984 -0.3534
0.9867 1.0613 -0.3493
0.9148 1.0759 -0.3429
0.8623 1.0891 -0.3446
0.7572 1.1160 -0.3493
0.7356 1.1199 -0.3463
0.6976 1.1273 -0.3421
0.6649 1.1341 -0.3396
0.6444 1.1424 -0.3480
0.6276 1.1445 -0.3433
0.6207 1.1489 -0.3503
1.2663 0.6916 0.4735
1.2829 0.6955 0.4550
1.2854 0.7133 0.4099
1.2886 0.7504 0.3164
1.2882 0.7700 0.2681
1.2642 0.8249 0.1452
1.2727 0.8335 0.1196
1.2965 0.8397 0.0917
1.2981 0.8500 0.0653
3.2280 0.5975 -0.3276
3.1656 0.6355 -0.3886
2.9722 0.6886 -0.4178
1.9882 0.8269 -0.2413
1.5733 0.9016 -0.2072
1.3121 0.9607 -0.2156
1.2963 0.9734 -0.2386
1.3191 0.9843 -0.2776
1.2817 0.9976 -0.2907
1.2734 1.0096 -0.3161
1.2651 1.0216 -0.3414
1.0084 1.0796 -0.3494
0.9392 1.0933 -0.3467
0.8732 1.1043 -0.3393
0.8373 1.1165 -0.3504
0.8110 1.1208 -0.3473
0.7877 1.1251 -0.3455
0.7656 1.1290 -0.3436
0.7466 1.1330 -0.3434
0.7154 1.1412 -0.3473
0.6968 1.1441 -0.3447
0.6812 1.1473 -0.3444
0.6712 1.1516 -0.3496
0.6377 1.1558 -0.3423
1.2489 0.7122 0.4926
1.2481 0.7212 0.4711
1.2664 0.7248 0.4538
1.2703 0.7328 0.4325
1.2756 0.7685 0.3428
1.2732 0.8173 0.2249
1.2901 0.8240 0.2006
1.2989 0.8326 0.1756
1.2941 0.8437 0.1507
1.2687 0.8682 0.1025
1.2818 0.8767 0.0758
1.3068 0.8839 0.0466
3.1875 0.6978 -0.3663
2.5944 0.7870 -0.3106
2.0621 0.8592 -0.2414
1.6405 0.9267 -0.2119
1.6060 0.9437 -0.2373
1.7577 0.9506 -0.3243
1.3320 1.0203 -0.2982
1.3455 1.0327 -0.3347
1.3036 1.0448 -0.3448
1.2807 1.0565 -0.3629
1.0670 1.0910 -0.3487
0.9850 1.1039 -0.3424
0.9631 1.1111 -0.3497
0.9000 1.1216 -0.3462
0.8438 1.1305 -0.3420
0.8210 1.1348 -0.3422
0.7836 1.1438 -0.3468
0.7652 1.1477 -0.3478
0.7440 1.1506 -0.3452
0.7250 1.1535 -0.3436
0.7061 1.1561 -0.3412
0.6791 1.1628 -0.3451
0.6517 1.1682 -0.3457
1.2589 0.7327 0.4970
1.2485 0.7443 0.4732
1.2442 0.7542 0.4510
1.2459 0.7626 0.4301
1.2415 0.7726 0.4078
1.2396 0.7820 0.3859
1.2412 0.7906 0.3644
1.2713 0.8025 0.3235
1.2975 0.8876 0.1076
1.3051 0.8972 0.0814
1.3306 0.9051 0.0522
1.3681 0.9124 0.0196
3.3336 0.7480 -0.3671
2.0722 0.8979 -0.2261
1.9823 0.9220 -0.2485
1.6216 0.9726 -0.2269
1.7356 0.9839 -0.2996
1.7621 0.9993 -0.3475
1.6839 1.0164 -0.3576
1.5796 1.0320 -0.3536
1.4118 1.0579 -0.3492
1.3396 1.0687 -0.3466
1.3058 1.0798 -0.3599
0.9314 1.0881 -0.2306
1.0485 1.1168 -0.3467
1.0117 1.1227 -0.3461
0.9721 1.1274 -0.3418
0.9440 1.1329 -0.3438
0.8945 1.1432 -0.3489
0.8701 1.1476 -0.3498
0.8409 1.1506 -0.3456
0.7950 1.1574 -0.3437
0.7773 1.1612 -0.3458
0.7597 1.1647 -0.3471
0.7231 1.1701 -0.3455
0.6937 1.1759 -0.3480
0.6759 1.1775 -0.3445
0.6630 1.1801 -0.3457
1.4564 3.1575 0.7053
1.5054 3.1445 0.7147
1.6208 3.1972 0.7460
1.9517 3.3712 0.8385
1.9533 3.2928 0.8300
1.9664 3.2262 0.8254
2.0415 3.2111 0.8402
2.1767 3.2387 0.8730
2.2489 3.2115 0.8859
2.4609 3.2787 0.9401
3.0412 3.4715 1.0896
3.1051 3.4066 1.0963
4.5982 3.5618 1.4425
1.0345 1.7868 0.4579
0.7728 1.6565 0.3856
0.9482 1.6104 0.4190
1.7535 1.4383 0.5768
1.7118 3.2245 0.7183
1.7831 3.2197 0.7320
1.8066 3.1675 0.7313
1.9650 3.2313 0.7693
2.0278 3.2058 0.7791
4.1981 3.7828 1.2695
4.4102 3.7538 1.3086
0.7346 1.7478 0.3721
0.7404 1.7322 0.3716
0.7362 1.7151 0.3690
0.7419 1.6999 0.3685
0.7543 1.6854 0.3695
0.7635 1.6704 0.3698
0.7668 1.6549 0.3689
0.7748 1.6398 0.3689
0.7828 1.6246 0.3689
0.7956 1.6093 0.3699
0.8038 1.5939 0.3699
0.8143 1.5784 0.3704
0.8250 1.5626 0.3709
0.8514 1.5302 0.3728
0.8712 1.5128 0.3749
0.8758 1.4971 0.3742
0.8894 1.4801 0.3752
1.3003 1.2446 0.4325
1.3244 1.2175 0.4345
2.1915 3.2617 0.7551
0.7619 1.8860 0.3741
0.7392 1.8573 0.3675
0.7416 1.8388 0.3662
0.7355 1.8181 0.3631
0.7364 1.8001 0.3616
0.7352 1.7819 0.3597
0.7498 1.7678 0.3610
0.7364 1.7475 0.3567
0.7335 1.7302 0.3546
0.7381 1.7146 0.3540
0.7371 1.6983 0.3523
0.7450 1.6834 0.3523
0.7632 1.6693 0.3542
0.7643 1.6536 0.3529
0.7712 1.6384 0.3527
0.7768 1.6231 0.3523
0.7908 1.6079 0.3533
0.7989 1.5925 0.3533
0.8058 1.5772 0.3531
0.8065 1.5622 0.3518
0.8319 1.5453 0.3547
0.8576 1.5277 0.3576
0.8635 1.5118 0.3572
0.8720 1.4957 0.3572
0.8804 1.4794 0.3572
0.8889 1.4632 0.3571
0.9118 1.4439 0.3594
0.9411 1.4077 0.3612
0.9593 1.3884 0.3626
0.9776 1.3686 0.3640
0.9894 1.3503 0.3644
1.0149 1.3278 0.3668
0.7824 1.9159 0.3620
0.7221 1.8508 0.3473
0.7294 1.8345 0.3471
0.7254 1.8146 0.3448
0.7347 1.7992 0.3449
0.7387 1.7823 0.3441
0.7417 1.7653 0.3432
0.7287 1.7286 0.3381
0.7256 1.7118 0.3362
0.7268 1.6961 0.3351
0.7425 1.6821 0.3364
0.7629 1.6681 0.3384
0.7699 1.6527 0.3381
0.7698 1.6370 0.3368
0.7778 1.6218 0.3368
0.7871 1.6065 0.3370
0.7975 1.5910 0.3373
0.8057 1.5755 0.3373
0.8041 1.5607 0.3358
0.8208 1.5445 0.3370
0.8426 1.5274 0.3389
0.8622 1.5100 0.3405
0.8719 1.4936 0.3407
0.8855 1.4764 0.3413
0.8889 1.4609 0.3406
0.9014 1.4437 0.3411
0.9257 1.4237 0.3431
0.9371 1.4062 0.3434
0.9539 1.3871 0.3445
0.9614 1.3703 0.3442
0.9988 1.3448 0.3479
1.0271 1.3211 0.3503
1.0475 1.2993 0.3516
0.8018 1.9706 0.3499
0.7800 1.9150 0.3429
0.7222 1.8508 0.3305
0.7184 1.8306 0.3286
0.7277 1.8151 0.3286
0.7350 1.7989 0.3284
0.7370 1.7813 0.3274
0.7389 1.7641 0.3264
0.7304 1.7281 0.3226
0.7165 1.7096 0.3194
0.7210 1.6944 0.3189
0.7581 1.6666 0.3218
0.7730 1.6516 0.3227
0.7696 1.6357 0.3210
0.7683 1.6203 0.3197
0.7846 1.6050 0.3208
0.7915 1.5897 0.3205
0.8044 1.5740 0.3211
0.8089 1.5587 0.3206
0.8122 1.5436 0.3199
0.8339 1.5265 0.3215
0.8608 1.5082 0.3237
0.8706 1.4917 0.3238
0.8778 1.4756 0.3236
0.8927 1.4580 0.3243
0.8962 1.4425 0.3236
0.9204 1.4225 0.3253
0.9331 1.4046 0.3257
0.9458 1.3866 0.3261
0.9681 1.3658 0.3275
0.7971 1.9688 0.3292
0.8029 1.9482 0.3286
0.7765 1.9137 0.3235
0.7132 1.8474 0.3124
0.7165 1.8298 0.3116
0.7320 1.8161 0.3125
0.7352 1.7985 0.3117
0.7456 1.7831 0.3119
0.7435 1.7645 0.3105
0.7348 1.7451 0.3083
0.7332 1.7279 0.3070
0.7206 1.7093 0.3045
0.7153 1.6927 0.3028
0.7264 1.6784 0.3031
0.7600 1.6656 0.3060
0.7727 1.6504 0.3064
0.7751 1.6346 0.3057
0.7693 1.6189 0.3041
0.7844 1.6036 0.3048
0.7925 1.5881 0.3047
0.7947 1.5729 0.3040
0.7955 1.5580 0.3031
0.8048 1.5425 0.3032
0.8215 1.5261 0.3039
0.8470 1.5080 0.3056
0.8692 1.4898 0.3069
0.8815 1.4728 0.3072
0.8863 1.4570 0.3067
0.9013 1.4391 0.3072
0.9151 1.4212 0.3076
0.9265 1.4037 0.3077
0.9418 1.3850 0.3082
0.9512 3.4154 0.3990
0.8010 1.9713 0.3096
0.7973 1.9459 0.3079
0.7123 1.8470 0.2953
0.7156 1.8293 0.2947
0.7270 1.8143 0.2949
0.7374 1.7988 0.2950
0.7396 1.7810 0.2942
0.7417 1.7635 0.2935
0.7363 1.7447 0.2920
0.7305 1.7266 0.2906
0.7191 1.7083 0.2886
0.7117 1.6913 0.2871
0.7250 1.6772 0.2875
0.7675 1.6650 0.2905
0.7757 1.6493 0.2904
0.7702 1.6331 0.2890
0.7668 1.6175 0.2879
0.7818 1.6021 0.2884
0.7888 1.5866 0.2882
0.7922 1.5714 0.2877
0.8015 1.5558 0.2877
0.7987 1.5413 0.2867
0.8202 1.5243 0.2876
0.8519 1.5054 0.2894
0.8616 1.4889 0.2893
0.8776 1.4712 0.2898
0.8887 1.4542 0.2899
0.8960 1.4378 0.2896
0.9073 1.4206 0.2897
0.9264 1.4012 0.2903
1.4429 1.1802 0.3234
0.9783 3.4134 0.3616
0.7991 1.9709 0.2890
0.7889 1.9424 0.2871
0.6995 1.8422 0.2772
0.7068 1.8261 0.2770
0.7211 1.8121 0.2773
0.7253 1.7949 0.2768
0.7347 1.7792 0.2768
0.7326 1.7608 0.2758
0.7314 1.7431 0.2750
0.7295 1.7089 0.2734
0.7114 1.6904 0.2715
0.7126 1.6750 0.2709
0.7692 1.6639 0.2741
0.7775 1.6481 0.2739
0.7735 1.6161 0.2723
0.7781 1.6007 0.2719
0.7815 1.5853 0.2715
0.7920 1.5697 0.2715
0.7989 1.5543 0.2713
0.8035 1.5390 0.2709
0.8165 1.5229 0.2711
0.8345 1.5058 0.2715
0.8527 1.4882 0.2719
0.8724 1.4699 0.2724
0.8810 1.4534 0.2722
0.8896 1.4369 0.2721
0.8995 1.4199 0.2720
1.4714 1.2130 0.2995
1.4968 1.1819 0.2997
1.4863 1.1619 0.2982
0.9692 3.4098 0.3210
0.7897 1.9667 0.2678
0.7956 1.9459 0.2674
0.6913 1.8580 0.2604
0.7044 1.8440 0.2605
0.7128 1.8279 0.2603
0.7201 1.8115 0.2601
0.7305 1.7960 0.2600
0.7318 1.7780 0.2595
0.7381 1.7614 0.2592
0.7349 1.7430 0.2585
0.7358 1.7259 0.2579
0.7279 1.7078 0.2571
0.7132 1.6897 0.2559
0.7134 1.6740 0.2554
0.7698 1.6628 0.2573
0.7870 1.6473 0.2575
0.7785 1.6306 0.2566
0.7754 1.6147 0.2560
0.7778 1.5992 0.2556
0.7860 1.5836 0.2554
0.7895 1.5682 0.2551
0.7952 1.5528 0.2548
0.8022 1.5373 0.2546
0.8164 1.5210 0.2546
0.8356 1.5036 0.2548
0.8477 1.4869 0.2548
0.8660 1.4689 0.2550
0.8783 1.4517 0.2549
0.8907 1.4342 0.2548
0.9006 1.4172 0.2547
1.8378 1.1324 0.2830
1.8966 1.0852 0.2839
1.8345 1.0737 0.2810
1.8845 1.0285 0.2816
1.9068 0.9915 0.2813
0.9394 3.4370 0.2807
0.9677 3.4220 0.2808
0.9928 3.3989 0.2807
1.0361 3.4086 0.2816
0.7936 1.9937 0.2477
0.7841 1.9644 0.2470
0.7910 1.9441 0.2466
0.6845 1.8553 0.2430
0.6859 1.8370 0.2427
0.6980 1.8227 0.2426
0.7082 1.8075 0.2424
0.7225 1.7933 0.2423
0.7279 1.7765 0.2421
0.7331 1.7597 0.2418
0.7467 1.7446 0.2417
0.7372 1.7253 0.2411
0.7220 1.7061 0.2405
0.7021 1.6873 0.2398
0.7088 1.6725 0.2396
0.7605 1.6609 0.2401
0.7776 1.6455 0.2401
0.7792 1.6293 0.2398
0.7773 1.6133 0.2394
0.7787 1.5976 0.2391
0.7799 1.5822 0.2388
0.7846 1.5668 0.2385
0.7892 1.5516 0.2383
0.7973 1.5360 0.2381
0.8174 1.5189 0.2380
0.8281 1.5027 0.2379
0.8475 1.4848 0.2378
0.8621 1.4674 0.2377
0.8744 1.4501 0.2375
0.8880 1.4324 0.2374
1.7805 1.1725 0.2462
1.8437 1.1253 0.2462
1.8761 1.0252 0.2446
0.9303 3.4335 0.2402
0.9702 3.4425 0.2400
1.0038 3.4354 0.2396
1.0179 3.3888 0.2390
1.0760 3.4226 0.2389
1.1185 3.4233 0.2386
0.7861 1.9904 0.2264
0.7969 1.9714 0.2261
0.7844 1.9414 0.2259
0.6930 1.8588 0.2258
0.6821 1.8355 0.2256
0.7654 1.6600 0.2232
0.7826 1.6444 0.2229
0.7854 1.6280 0.2227
0.7769 1.6118 0.2226
0.7806 1.5960 0.2224
0.7796 1.5806 0.2222
0.7797 1.5655 0.2221
0.7878 1.5499 0.2218
0.7995 1.5339 0.2216
0.8113 1.5178 0.2213
0.8304 1.5003 0.2210
0.8363 1.4846 0.2208
0.8656 1.4645 0.2203
0.8754 1.4476 0.2201
1.8039 1.1919 0.2100
1.8069 1.1299 0.2093
1.9160 1.0678 0.2078
1.9322 1.0316 0.2073
1.9181 1.0054 0.2071
0.8829 3.4203 0.2010
0.9172 3.4213 0.1999
0.9608 3.4389 0.1985
1.0042 3.3771 0.1971
1.0477 3.3850 0.1957
1.1636 3.4385 0.1919
0.7884 1.9677 0.2050
0.7166 1.8683 0.2074
1.7160 2.1685 0.1747
1.9261 2.1844 0.1679
0.7604 1.6585 0.2061
0.7819 1.6430 0.2054
0.7860 1.6266 0.2052
0.7821 1.6103 0.2054
0.7893 1.5942 0.2052
0.7782 1.5790 0.2055
0.7829 1.5636 0.2054
0.7887 1.5481 0.2052
0.7922 1.5329 0.2051
0.8015 1.5171 0.2048
0.8181 1.5001 0.2043
0.8373 1.4822 0.2037
0.8727 1.4608 0.2025
0.8826 1.4437 0.2022
1.8726 1.0443 0.1703
1.8805 1.0118 0.1701
0.9187 3.4411 0.1587
0.9554 3.4436 0.1566
0.9771 3.4127 0.1557
1.0422 3.3891 0.1523
1.1481 3.4258 0.1458
1.2068 3.4462 0.1422
0.7797 1.9399 0.1843
0.7317 1.8957 0.1876
2.3937 2.2598 0.0882
0.7853 1.6251 0.1877
0.7894 1.6087 0.1876
0.7865 1.5927 0.1880
0.7938 1.5766 0.1878
0.7895 1.5614 0.1882
0.7862 1.5465 0.1885
0.7873 1.5316 0.1887
0.7978 1.5156 0.1882
0.8143 1.4986 0.1875
0.8395 1.4797 0.1863
0.8736 1.4584 0.1846
0.9381 3.4232 0.1159
0.9636 3.4009 0.1144
1.0060 3.4099 0.1107
1.0881 3.4115 0.1039
1.1589 3.4582 0.0970
1.2189 3.4796 0.0915
1.2518 3.4531 0.0894
0.7834 1.9662 0.1622
0.7542 1.9057 0.1660
0.7910 1.6072 0.1698
0.7872 1.5911 0.1705
0.7888 1.5752 0.1707
0.7948 1.5592 0.1706
0.7916 1.5442 0.1712
0.7964 1.5286 0.1712
0.8609 1.4737 0.1671
1.0092 3.4313 0.0656
1.0364 3.4073 0.0634
1.0974 3.4426 0.0557
1.1705 3.4924 0.0461
1.1965 3.4566 0.0445
1.2169 3.4112 0.0439
1.2746 3.4222 0.0373
1.3355 3.4332 0.0303
2.5698 3.3350 -0.0992
0.7948 1.9478 0.1397
0.9439 1.6450 0.1340
0.9400 1.6243 0.1352
0.9249 1.6044 0.1375
0.8052 1.5726 0.1515
0.7887 1.5579 0.1537
0.7959 1.5419 0.1535
0.8123 1.5248 0.1523
0.8255 1.5078 0.1515
0.8494 1.4888 0.1496
0.8652 1.4707 0.1485
0.9646 3.4344 0.0264
1.0121 3.4526 0.0192
1.0442 3.4369 0.0157
1.0775 3.4211 0.0120
1.1217 3.4222 0.0060
1.2295 3.4444 -0.0094
1.2264 3.3615 -0.0052
1.2777 3.3613 -0.0120
1.3322 3.3615 -0.0193
1.4348 3.4219 -0.0358
0.7841 1.9930 0.1167
0.7906 1.9710 0.1169
0.7908 1.9463 0.1180
3.6713 2.9424 -0.3122
0.9510 1.6649 0.1095
0.8559 1.4856 0.1305
0.8588 1.4695 0.1308
0.8567 1.4547 0.1318
0.8496 1.4413 0.1334
0.8386 1.4294 0.1354
0.8322 1.4171 0.1368
0.8330 1.4032 0.1373
0.8223 1.3929 0.1392
0.8126 1.3829 0.1410
0.7794 1.3695 0.1460
1.0336 3.5114 -0.0335
1.0481 3.4597 -0.0328
1.0767 3.4346 -0.0359
1.1951 3.4027 -0.0529
1.9658 3.5225 -0.1828
2.0381 3.4991 -0.1930
2.9774 3.7501 -0.3573
3.0497 3.6807 -0.3649
0.7878 1.9958 0.0932
0.8166 1.9848 0.0892
0.7931 1.9478 0.0951
3.1850 2.8632 -0.3393
3.2871 2.7997 -0.3519
3.3269 2.7112 -0.3532
3.4343 2.6434 -0.3664
3.4411 2.5437 -0.3617
3.5154 2.4627 -0.3689
3.5560 2.3723 -0.3702
3.5617 2.2753 -0.3655
3.5312 2.1743 -0.3548
3.4041 2.0640 -0.3281
3.4416 1.9805 -0.3293
2.6763 1.7643 -0.1947
2.4805 1.6936 -0.1594
2.3996 1.6349 -0.1431
0.8287 1.4728 0.1168
0.8241 1.4590 0.1183
0.8216 1.4452 0.1195
0.8153 1.4327 0.1213
0.8174 1.4185 0.1217
0.8268 1.4024 0.1212
0.8262 1.3892 0.1220
0.8053 1.3827 0.1257
0.7838 1.3774 0.1295
0.7735 1.3691 0.1316
1.3077 3.4302 -0.1265
2.0078 3.4791 -0.2601
2.0230 3.3999 -0.2575
2.4463 3.4662 -0.3408
0.7915 1.9985 0.0690
0.8062 1.9801 0.0676
0.7926 1.9480 0.0723
2.8027 2.0519 -0.3087
3.1123 1.8608 -0.3530
2.6989 1.7605 -0.2691
2.4050 1.6863 -0.2093
2.2758 1.6289 -0.1813
0.9175 1.4878 0.0811
0.8055 1.4328 0.1058
0.8051 1.4194 0.1068
0.7959 1.4087 0.1092
0.7851 1.3991 0.1119
0.7791 1.3886 0.1138
0.7715 1.3790 0.1158
0.7612 1.3710 0.1183
0.7557 1.3616 0.1200
2.0359 3.4203 -0.3355
2.0658 3.3539 -0.3364
2.1112 3.3004 -0.3417
2.1570 3.2459 -0.3470
2.1873 3.1785 -0.3479
2.2176 3.1111 -0.3489
0.7984 2.0031 0.0435
0.7976 1.9764 0.0458
2.3599 2.6085 -0.3381
2.4599 2.5715 -0.3564
2.4902 2.5041 -0.3573
2.5019 2.4304 -0.3538
2.5695 2.3750 -0.3637
2.5810 2.3018 -0.3602
2.6113 2.2343 -0.3611
2.6221 2.1627 -0.3576
2.6324 2.0920 -0.3540
2.7221 2.0352 -0.3684
2.7123 1.9619 -0.3604
2.7025 1.8907 -0.3525
2.5815 1.8127 -0.3204
2.4112 1.7397 -0.2782
2.3061 1.6785 -0.2508
2.1747 1.6235 -0.2184
1.3475 1.5303 -0.0348
0.8818 1.4581 0.0702
0.8708 1.4445 0.0737
0.7990 1.4186 0.0910
0.7886 1.4084 0.0941
0.7854 1.3966 0.0957
0.7657 1.3786 0.1014
0.7643 1.3674 0.1026
1.7197 3.3854 -0.3315
1.7802 3.3617 -0.3438
1.8709 3.2757 -0.3575
2.1161 2.5027 -0.3438
2.1971 2.3954 -0.3532
2.2387 2.3407 -0.3580
2.2806 2.2853 -0.3629
2.2775 2.2165 -0.3557
2.3349 2.1643 -0.3646
2.3620 2.1039 -0.3654
2.3275 2.0319 -0.3504
2.3093 1.9660 -0.3398
2.4114 1.9183 -0.3599
2.4382 1.8586 -0.3607
2.4178 1.7953 -0.3499
2.2957 1.7290 -0.3144
2.2270 1.6716 -0.2925
2.0714 1.6186 -0.2502
1.3491 1.5270 -0.0683
0.8502 1.4465 0.0590
0.8411 1.4336 0.0624
0.8197 1.4244 0.0684
0.8171 1.4112 0.0702
0.8168 1.3978 0.0716
0.7673 1.3756 0.0855
1.5110 3.4115 -0.3455
1.5355 3.3571 -0.3463
1.5418 3.2819 -0.3400
1.5659 3.2281 -0.3407
1.5995 3.1840 -0.3450
1.6238 3.1299 -0.3458
1.6481 3.0757 -0.3465
1.6822 3.0303 -0.3508
1.7166 2.9842 -0.3551
1.7210 2.9134 -0.3488
1.7051 2.8291 -0.3356
1.7488 2.7904 -0.3432
1.8911 2.5345 -0.3541
1.9155 2.4803 -0.3548
1.9054 2.4112 -0.3448
1.9409 2.3627 -0.3492
1.9649 2.3093 -0.3499
2.0127 2.2638 -0.3579
2.0008 2.1987 -0.3478
2.0369 2.1489 -0.3521
2.0485 2.0924 -0.3493
2.0974 2.0446 -0.3573
2.1342 1.9932 -0.3616
2.1201 1.9330 -0.3515
2.1958 1.8866 -0.3668
2.1809 1.8281 -0.3566
2.2182 1.7757 -0.3610
2.2423 1.7219 -0.3618
2.2530 1.6677 -0.3589
1.3496 1.5237 -0.1019
0.8312 1.4334 0.0463
0.8195 1.4220 0.0506
0.8119 1.3967 0.0554
1.3110 3.3236 -0.3385
1.3402 3.2842 -0.3424
1.3917 3.2721 -0.3562
1.3845 3.1857 -0.3438
1.4142 3.1451 -0.3478
1.4442 3.1040 -0.3518
1.4822 3.0706 -0.3590
1.4809 2.9965 -0.3499
1.4870 2.9318 -0.3440
1.6074 2.5680 -0.3364
1.6765 2.4864 -0.3471
1.7150 2.3284 -0.3397
1.7454 2.2841 -0.3434
1.7858 2.2429 -0.3505
1.7695 2.1813 -0.3384
1.8010 2.1367 -0.3424
1.8226 2.0888 -0.3431
1.8441 2.0409 -0.3437
1.8847 1.9970 -0.3505
1.9171 1.9506 -0.3546
1.9488 1.9034 -0.3583
1.9817 1.8558 -0.3624
2.0038 1.8065 -0.3631
2.0370 1.7581 -0.3672
2.0367 1.7075 -0.3611
2.0701 1.6588 -0.3651
1.3686 1.5488 -0.1449
1.3511 1.5203 -0.1363
2.0580 1.3803 -0.3285
2.0284 1.3413 -0.3151
1.9779 0.9780 -0.2571
1.9533 0.9534 -0.2469
1.9707 0.9147 -0.2475
1.1189 3.3594 -0.3376
1.1390 3.3144 -0.3382
1.1482 3.2525 -0.3330
1.1907 3.2411 -0.3453
1.2054 3.1876 -0.3430
1.2140 3.1267 -0.3378
1.2222 3.0668 -0.3326
1.2542 3.0373 -0.3391
1.2804 2.9996 -0.3426
1.3069 2.9616 -0.3462
1.3208 2.9097 -0.3439
1.3475 2.8712 -0.3474
1.3546 2.8136 -0.3422
1.3747 2.7688 -0.3428
1.4016 2.7298 -0.3464
1.4287 2.6904 -0.3500
1.4559 2.6504 -0.3536
1.4693 2.6000 -0.3512
1.4680 2.5403 -0.3430
1.4952 2.5004 -0.3466
1.5429 2.4150 -0.3508
1.5707 2.3740 -0.3544
1.5756 2.3214 -0.3491
1.5957 2.2767 -0.3497
1.6158 2.2320 -0.3503
1.6439 2.1902 -0.3539
1.6397 2.1370 -0.3456
1.6678 2.0952 -0.3492
1.6878 2.0507 -0.3498
1.7247 2.0103 -0.3564
1.7449 1.9653 -0.3571
1.7737 1.9220 -0.3607
1.7853 1.8754 -0.3583
1.8143 1.8316 -0.3620
1.8257 1.7855 -0.3596
1.8730 1.7425 -0.3693
1.8569 1.6951 -0.3578
1.8677 1.6502 -0.3554
1.8512 1.6058 -0.3442
1.3303 1.5476 -0.1680
1.3664 1.5158 -0.1755
2.0371 1.3772 -0.3744
2.0376 1.3343 -0.3689
2.0781 1.2858 -0.3756
2.0782 1.2439 -0.3702
2.1191 1.1945 -0.3769
2.1084 1.1559 -0.3684
2.0187 1.1378 -0.3370
2.2406 0.8823 -0.3752
2.2609 0.8371 -0.3758
2.2474 0.8045 -0.3672
2.2347 0.7728 -0.3589
1.0213 3.2081 -0.3337
1.0487 3.1814 -0.3395
1.0582 3.1257 -0.3349
1.1368 2.9669 -0.3396
1.1848 2.8968 -0.3464
1.2247 2.7552 -0.3400
1.2540 2.7243 -0.3459
1.2741 2.6266 -0.3389
1.2758 2.5722 -0.3317
1.3109 2.5446 -0.3401
1.3428 2.4070 -0.3314
1.3912 2.2348 -0.3236
1.4271 2.2033 -0.3317
1.4704 2.1734 -0.3427
1.4887 2.1327 -0.3433
1.4810 2.0831 -0.3334
1.5253 2.0511 -0.3444
1.5713 2.0178 -0.3558
1.5825 1.9744 -0.3535
1.5803 1.9287 -0.3461
1.5910 1.8865 -0.3438
1.6382 1.8504 -0.3552
1.6724 1.8110 -0.3616
1.6753 1.7677 -0.3564
1.6939 1.7263 -0.3569
1.6750 1.6833 -0.3441
1.3411 1.5438 -0.2063
1.8676 1.3924 -0.3700
1.9053 1.3085 -0.3711
1.7088 1.0560 -0.2655
1.7057 1.0284 -0.2604
1.7010 1.0021 -0.2550
0.9128 3.2433 -0.3461
0.9192 3.1833 -0.3391
0.9252 3.1243 -0.3321
0.9458 3.0922 -0.3349
0.9748 3.0732 -0.3430
0.9802 3.0156 -0.3360
1.0017 2.9837 -0.3392
1.0189 2.9453 -0.3397
1.0407 2.9129 -0.3429
1.0535 2.8684 -0.3408
1.0754 2.8356 -0.3440
1.0927 2.7970 -0.3445
1.1005 2.7477 -0.3397
1.1135 2.7050 -0.3380
1.1448 2.6811 -0.3461
1.1571 2.6377 -0.3440
1.1795 2.6038 -0.3472
1.1916 2.5607 -0.3451
1.2142 2.5265 -0.3483
1.2262 2.4838 -0.3462
1.2287 2.4348 -0.3394
1.2607 2.4069 -0.3472
1.3115 2.3396 -0.3560
1.3232 2.2975 -0.3538
1.3523 2.2647 -0.3598
1.3470 2.2147 -0.3499
1.3583 2.1736 -0.3478
1.3755 2.1353 -0.3483
1.4103 2.1035 -0.3566
1.4099 2.0588 -0.3494
1.4217 2.0188 -0.3476
1.4625 1.9872 -0.3582
1.4679 1.9455 -0.3537
1.4730 1.9045 -0.3492
1.4958 1.8674 -0.3520
1.5072 1.8282 -0.3502
1.5496 1.7932 -0.3609
1.5543 1.7532 -0.3564
1.3048 1.6328 -0.2422
1.2847 1.6022 -0.2297
1.2867 1.5726 -0.2259
1.3158 1.5420 -0.2322
1.7314 1.4044 -0.3691
1.7269 1.3687 -0.3617
1.7442 1.3302 -0.3623
1.7536 1.2933 -0.3600
1.8173 1.2452 -0.3768
1.8109 1.2114 -0.3690
1.0330 1.3359 -0.0918
1.0423 1.3152 -0.0921
1.8777 0.9599 -0.3549
1.9107 0.9162 -0.3606
0.8778 3.0518 -0.3453
0.8775 2.9867 -0.3340
0.9005 2.9626 -0.3394
0.9196 2.9314 -0.3419
0.9291 2.8853 -0.3379
0.9452 2.8495 -0.3384
0.9506 2.7990 -0.3320
0.9703 2.7687 -0.3350
0.9862 2.7332 -0.3355
1.0168 2.7150 -0.3449
1.0256 2.6705 -0.3409
1.0299 2.6223 -0.3345
1.0500 2.5912 -0.3375
1.0695 2.5591 -0.3400
1.0978 2.5346 -0.3474
1.1059 2.4916 -0.3434
1.1220 2.4558 -0.3439
1.1509 2.4299 -0.3514
1.1444 2.3311 -0.3319
1.1553 2.2931 -0.3299
1.1887 2.2688 -0.3394
1.2045 2.2334 -0.3399
1.2022 2.1887 -0.3314
1.2455 2.1671 -0.3455
1.2292 2.1173 -0.3303
1.2586 2.0882 -0.3374
1.2699 2.0515 -0.3358
1.3051 2.0231 -0.3454
1.3157 1.9860 -0.3434
1.3370 1.9521 -0.3464
1.3474 1.9153 -0.3444
1.3381 1.8747 -0.3336
1.3490 1.8392 -0.3320
1.3798 1.8070 -0.3392
1.4003 1.7726 -0.3418
1.3369 1.6961 -0.3027
1.3515 1.6635 -0.3031
1.3661 1.6309 -0.3036
1.4617 1.5634 -0.3313
1.3138 1.5388 -0.2663
1.2777 1.5127 -0.2470
1.0303 1.3515 -0.1179
1.0304 1.3333 -0.1148
1.0350 1.3140 -0.1134
1.6609 1.0606 -0.3274
1.7077 1.0154 -0.3389
1.7489 0.9712 -0.3484
0.7689 3.0507 -0.3403
0.7868 3.0222 -0.3429
0.8021 2.9882 -0.3434
0.8118 2.9441 -0.3395
0.8235 2.9044 -0.3374
0.8421 2.8766 -0.3405
0.8631 2.8522 -0.3453
0.8784 2.8182 -0.3458
0.8998 2.7931 -0.3506
0.8958 2.7322 -0.3376
0.9210 2.7121 -0.3450
0.9362 2.6782 -0.3455
0.9547 2.6483 -0.3481
0.9559 2.5984 -0.3395
0.9743 2.5686 -0.3421
0.9859 2.5315 -0.3404
1.0009 2.4980 -0.3409
1.0238 2.4718 -0.3461
1.0281 2.4286 -0.3401
1.0541 2.4043 -0.3471
1.0648 2.3671 -0.3449
1.0949 2.3000 -0.3459
1.1100 2.2664 -0.3463
1.1139 2.2262 -0.3407
1.1402 2.1992 -0.3473
1.1552 2.1656 -0.3477
1.1628 2.1285 -0.3442
1.1736 2.0933 -0.3425
1.2005 2.0649 -0.3491
1.2156 2.0313 -0.3496
1.2263 1.9963 -0.3479
1.2288 1.9591 -0.3422
1.2527 1.9284 -0.3470
1.2713 1.8959 -0.3493
1.2780 1.8607 -0.3458
1.2836 1.8259 -0.3418
1.1693 1.7427 -0.2761
1.2571 1.7204 -0.3107
1.3054 1.6916 -0.3267
1.3387 1.6603 -0.3356
1.3875 1.6283 -0.3512
1.4177 1.5947 -0.3584
1.4071 1.5619 -0.3477
1.3149 1.5355 -0.3021
1.3243 1.5054 -0.3008
1.2387 1.4596 -0.2546
1.0912 1.3920 -0.1771
1.0551 1.3799 -0.1590
1.0319 1.3664 -0.1462
1.0161 1.3521 -0.1366
1.0161 1.3341 -0.1333
1.0194 1.3154 -0.1313
1.0488 1.2882 -0.1393
1.6904 0.9875 -0.3669
0.7475 2.9564 -0.3521
0.7497 2.9001 -0.3420
0.7690 2.8773 -0.3466
0.7885 2.8540 -0.3512
0.8007 2.8178 -0.3498
0.8093 2.7762 -0.3456
0.8237 2.7443 -0.3461
0.8326 2.7043 -0.3424
0.8500 2.6768 -0.3451
0.8668 2.6483 -0.3474
0.8696 2.6018 -0.3395
0.8811 2.5672 -0.3381
0.8953 2.5357 -0.3386
0.8979 2.4919 -0.3311
0.9207 2.4701 -0.3376
0.9348 2.4387 -0.3380
0.9332 2.3931 -0.3283
0.9535 2.3680 -0.3329
0.9733 2.3418 -0.3370
0.9873 2.3106 -0.3374
1.0051 2.2821 -0.3402
1.0092 2.2440 -0.3346
1.0192 2.2105 -0.3327
1.0331 2.1797 -0.3331
1.0509 2.1510 -0.3359
1.0608 2.1180 -0.3340
1.0680 2.0839 -0.3307
1.0818 2.0533 -0.3311
1.1100 2.0285 -0.3395
1.1317 2.0002 -0.3441
1.1379 1.9663 -0.3404
1.1483 1.9341 -0.3389
1.1623 1.9031 -0.3394
1.1317 1.8616 -0.3167
1.0896 1.7900 -0.2827
1.1285 1.7661 -0.2963
1.1851 1.7427 -0.3184
1.2178 1.7147 -0.3283
1.2392 1.6849 -0.3325
1.2815 1.6555 -0.3466
1.2825 1.6242 -0.3409
1.3014 1.5932 -0.3437
1.3286 1.5617 -0.3503
1.2900 1.5338 -0.3265
1.3129 1.5030 -0.3312
1.3476 1.4704 -0.3411
1.0120 1.4061 -0.1703
1.0104 1.3874 -0.1658
1.0154 1.3674 -0.1642
1.0065 1.3515 -0.1568
1.0053 1.3339 -0.1528
0.9946 1.3199 -0.1450
0.9953 1.3027 -0.1419
1.0281 1.2743 -0.1518
0.6628 2.9117 -0.3392
0.6849 2.9001 -0.3479
0.6876 2.8474 -0.3381
0.7080 2.8309 -0.3449
0.7216 2.8007 -0.3453
0.7279 2.7577 -0.3394
0.7487 2.7402 -0.3461
0.7623 2.7100 -0.3466
0.7706 2.6716 -0.3426
0.7865 2.6451 -0.3450
0.7951 2.6081 -0.3415
0.8135 2.5848 -0.3458
0.8149 2.5395 -0.3369
0.8354 2.5184 -0.3427
0.8488 2.4885 -0.3431
0.8649 2.4615 -0.3455
0.8811 2.4342 -0.3479
0.8891 2.3987 -0.3444
0.9004 2.3669 -0.3433
0.9160 2.3389 -0.3452
0.9294 2.3090 -0.3456
0.9488 2.2837 -0.3500
0.9540 2.2475 -0.3450
0.9697 2.2193 -0.3469
0.9831 2.1894 -0.3473
0.9942 2.1580 -0.3463
1.0164 2.1331 -0.3521
1.0401 2.0713 -0.3510
1.0678 2.0475 -0.3598
1.0578 2.0075 -0.3464
1.0678 1.9765 -0.3448
1.0941 1.9512 -0.3526
1.1260 1.9268 -0.3635
1.1175 1.8902 -0.3515
1.0606 1.8437 -0.3131
1.0458 1.8102 -0.2986
1.0995 1.7903 -0.3214
1.1319 1.7649 -0.3322
1.1666 1.7386 -0.3441
1.1798 1.7092 -0.3445
1.2047 1.6804 -0.3509
1.2141 1.6506 -0.3493
1.2155 1.6209 -0.3437
1.2518 1.5911 -0.3557
0.9769 1.4887 -0.1960
0.9823 1.4678 -0.1942
0.9920 1.4462 -0.1945
0.9995 1.4251 -0.1938
0.9958 1.4066 -0.1881
1.0053 1.3854 -0.1884
1.0148 1.3642 -0.1887
1.0038 1.3489 -0.1799
0.9911 1.3349 -0.1706
0.9816 1.3206 -0.1628
0.9764 1.3057 -0.1570
0.9934 1.2831 -0.1608
1.0023 1.2634 -0.1611
1.0111 1.2437 -0.1613
0.6260 2.8424 -0.3405
0.6516 2.7854 -0.3413
0.6586 2.7456 -0.3360
0.6750 2.7245 -0.3400
0.6861 2.6932 -0.3389
0.6927 2.6544 -0.3336
0.7012 2.6199 -0.3304
0.7155 2.5947 -0.3323
0.7346 2.5765 -0.3384
0.7472 2.5483 -0.3388
0.7556 2.5143 -0.3356
0.7656 2.4831 -0.3339
0.7717 2.4474 -0.3291
0.7842 2.4198 -0.3295
0.8105 2.4073 -0.3407
0.8185 2.3742 -0.3375
0.8386 2.3536 -0.3436
0.8562 2.3298 -0.3476
0.8491 2.2840 -0.3335
0.8565 2.2521 -0.3302
0.8762 2.2302 -0.3358
0.8962 2.2078 -0.3414
0.9083 2.1432 -0.3334
0.9239 2.1174 -0.3358
0.9363 2.0897 -0.3362
0.9488 2.0619 -0.3366
0.9580 2.0326 -0.3349
0.9787 2.0086 -0.3405
0.9829 1.9773 -0.3357
1.0012 1.9518 -0.3397
1.0051 1.9211 -0.3349
1.0288 1.8970 -0.3421
1.0237 1.8643 -0.3320
1.0297 1.8355 -0.3287
1.0338 1.8066 -0.3243
1.0634 1.7826 -0.3347
1.0915 1.7574 -0.3440
1.1078 1.7299 -0.3465
1.1166 1.7016 -0.3448
1.1127 1.6727 -0.3362
0.9676 1.6169 -0.2462
0.9490 1.5944 -0.2312
0.9540 1.5723 -0.2289
0.9599 1.5504 -0.2271
0.9656 1.5287 -0.2253
0.9640 1.5081 -0.2198
0.9653 1.4876 -0.2158
0.9643 1.4678 -0.2108
0.9738 1.4466 -0.2111
0.9877 1.4245 -0.2136
1.0142 1.3610 -0.2134
0.9920 1.3489 -0.1988
0.9759 1.3362 -0.1873
0.9617 1.3237 -0.1770
0.9529 1.3103 -0.1692
0.9863 1.2822 -0.1807
0.9952 1.2625 -0.1810
1.0028 1.2433 -0.1807
1.0092 1.2247 -0.1799
0.5954 2.7856 -0.3444
0.6031 2.7486 -0.3399
0.6198 2.7311 -0.3451
0.6341 2.7080 -0.3477
0.6411 2.6707 -0.3427
0.6533 2.6436 -0.3430
0.6637 2.6137 -0.3418
0.6719 2.5802 -0.3384
0.6857 2.5561 -0.3404
0.7001 2.5327 -0.3429
0.7140 2.5083 -0.3449
0.7341 2.4919 -0.3524
0.7365 2.4518 -0.3440
0.7505 2.4271 -0.3461
0.7626 2.4000 -0.3464
0.7768 2.3751 -0.3484
0.7869 2.3459 -0.3472
0.7943 2.3141 -0.3437
0.8092 2.2898 -0.3463
0.8276 2.2684 -0.3516
0.8305 2.2335 -0.3449
0.8404 2.2049 -0.3436
0.8645 2.1513 -0.3444
0.8743 2.1230 -0.3431
0.8909 2.0991 -0.3467
0.8983 2.0696 -0.3438
0.9031 2.0391 -0.3393
0.9247 2.0173 -0.3462
0.9294 1.9872 -0.3416
0.9438 1.9616 -0.3437
0.9558 1.9350 -0.3440
0.9652 1.9075 -0.3428
0.9745 1.8801 -0.3415
0.9921 1.8256 -0.3384
1.0039 1.7993 -0.3387
1.0303 1.7755 -0.3479
1.0479 1.7496 -0.3516
1.0571 1.7224 -0.3503
1.0720 1.6958 -0.3524
0.9255 1.6370 -0.2555
0.9228 1.6146 -0.2486
0.9218 1.5929 -0.2428
0.9316 1.5711 -0.2431
1.2136 1.3739 -0.3552
1.2399 1.3438 -0.3628
0.9305 1.3307 -0.1849
0.9227 1.3175 -0.1773
0.9416 1.2951 -0.1826
0.9952 1.2588 -0.2042
0.9957 1.2425 -0.2005
0.5852 2.6697 -0.3423
0.5952 2.6408 -0.3410
0.6348 2.5722 -0.3472
0.6481 2.5491 -0.3493
0.6512 2.5096 -0.3411
0.6610 2.4813 -0.3397
0.6796 2.4660 -0.3469
0.6912 2.4401 -0.3473
0.6904 2.3983 -0.3362
0.6949 2.3645 -0.3303
0.7094 2.3432 -0.3335
0.7174 2.3144 -0.3310
0.7399 2.3011 -0.3411
0.7453 2.2696 -0.3363
0.7587 2.2463 -0.3384
0.7603 2.2123 -0.3307
0.7836 2.1973 -0.3408
0.7849 2.1640 -0.3331
0.7940 2.1373 -0.3317
0.8074 2.1139 -0.3338
0.8202 2.0898 -0.3353
0.8407 2.0702 -0.3426
0.8342 2.0348 -0.3297
0.8635 2.0194 -0.3433
0.8637 1.9886 -0.3356
0.8725 1.9624 -0.3342
0.8838 1.9374 -0.3345
0.8874 1.9097 -0.3297
0.9062 1.8875 -0.3352
0.9148 1.8617 -0.3338
0.9234 1.8361 -0.3324
0.9372 1.8119 -0.3345
0.9511 1.7875 -0.3366
0.9650 1.7630 -0.3387
0.9836 1.7390 -0.3437
0.9922 1.7134 -0.3423
0.9875 1.6869 -0.3328
0.9240 1.6351 -0.2817
1.0111 1.6126 -0.3280
1.0221 1.5881 -0.3283
1.0491 1.5628 -0.3380
1.0633 1.5377 -0.3401
1.0684 1.5133 -0.3369
1.0764 1.4888 -0.3355
1.1001 1.4622 -0.3429
1.1345 1.4332 -0.3561
1.1375 1.4092 -0.3518
1.1360 1.3866 -0.3451
1.1473 1.3615 -0.3455
1.1464 1.3395 -0.3394
1.0136 1.3358 -0.2591
0.9856 1.3263 -0.2400
0.9078 1.3195 -0.1917
0.8950 1.3090 -0.1814
0.5456 2.6447 -0.3427
0.5591 2.6253 -0.3460
0.5652 2.5903 -0.3404
0.5762 2.5658 -0.3408
0.5898 2.5461 -0.3441
0.6025 2.5244 -0.3462
0.6147 2.5015 -0.3477
0.6202 2.4678 -0.3421
0.6369 2.4520 -0.3484
0.6404 2.4163 -0.3410
0.6532 2.3943 -0.3431
0.6654 2.3714 -0.3447
0.6752 2.3453 -0.3438
0.6893 2.3245 -0.3472
0.7036 2.3035 -0.3505
0.7134 2.2773 -0.3497
0.7225 2.2506 -0.3482
0.7336 2.2260 -0.3485
0.7412 2.1983 -0.3459
0.7480 2.1703 -0.3426
0.7689 2.1538 -0.3514
0.7720 2.1232 -0.3451
0.7793 2.0962 -0.3424
0.7842 2.0680 -0.3379
0.7988 2.0463 -0.3413
0.8136 2.0242 -0.3447
0.8308 2.0031 -0.3498
0.8275 1.9717 -0.3393
0.8463 1.9512 -0.3457
0.8682 1.9025 -0.3464
0.8749 1.8767 -0.3437
0.8926 1.8546 -0.3489
0.8924 1.8272 -0.3413
0.9069 1.7776 -0.3371
0.9410 1.7576 -0.3533
0.9548 1.7335 -0.3554
0.9511 1.7072 -0.3460
0.9666 1.6834 -0.3494
0.8905 1.6545 -0.2937
0.8956 1.6324 -0.2910
0.9074 1.6105 -0.2925
1.0035 1.5862 -0.3465
1.0193 1.5618 -0.3499
1.0322 1.5373 -0.3515
1.0381 1.5135 -0.3487
1.0541 1.4886 -0.3521
1.0712 1.4633 -0.3561
1.0906 1.4374 -0.3614
1.1017 1.4127 -0.3617
1.1010 1.3905 -0.3553
1.1239 1.3633 -0.3624
1.1262 1.3408 -0.3579
0.8849 1.3244 -0.2014
0.8767 1.3126 -0.1930
1.2107 1.1463 -0.3587
1.2276 1.1193 -0.3622
0.5127 2.6296 -0.3475
0.5291 2.5717 -0.3419
0.5397 2.5482 -0.3422
0.5492 2.5227 -0.3413
0.5582 2.4963 -0.3398
0.5665 2.4692 -0.3376
0.5836 2.4569 -0.3454
0.5941 2.4333 -0.3457
0.5950 2.3950 -0.3355
0.6095 2.3778 -0.3402
0.6211 2.3561 -0.3417
0.6292 2.3296 -0.3396
0.6421 2.3093 -0.3424
0.6577 2.2919 -0.3477
0.6586 2.2576 -0.3386
0.6678 2.2330 -0.3377
0.6795 2.2112 -0.3393
0.6919 2.1900 -0.3415
0.7003 2.1649 -0.3399
0.7044 2.1364 -0.3346
0.7197 2.1174 -0.3393
0.7315 2.0953 -0.3409
0.7420 2.0721 -0.3412
0.7457 2.0446 -0.3359
0.7590 2.0234 -0.3387
0.7755 2.0038 -0.3441
0.7782 1.9765 -0.3381
0.7885 1.9535 -0.3384
0.7932 1.9280 -0.3343
0.8035 1.9052 -0.3346
0.8212 1.8850 -0.3407
0.8257 1.8600 -0.3366
0.8385 1.8379 -0.3388
0.8445 1.8138 -0.3359
0.8608 1.7924 -0.3407
0.8606 1.7673 -0.3334
0.8833 1.7467 -0.3426
0.8900 1.7231 -0.3404
0.9132 1.7015 -0.3496
0.9144 1.6775 -0.3436
0.8790 1.6301 -0.3066
0.8944 1.6085 -0.3108
0.9334 1.5859 -0.3302
0.9592 1.5626 -0.3407
0.9725 1.5394 -0.3429
0.9949 1.5152 -0.3509
0.9972 1.4930 -0.3461
1.0107 1.4695 -0.3484
1.0231 1.4459 -0.3500
1.0262 1.4242 -0.3458
1.0472 1.3989 -0.3525
1.0490 1.3777 -0.3477
1.0550 1.3558 -0.3455
1.0653 1.3328 -0.3458
1.0701 1.3115 -0.3429
1.0679 1.2927 -0.3362
0.8597 1.3158 -0.2047
0.4853 2.5759 -0.3423
0.4941 2.5501 -0.3406
0.5041 2.5277 -0.3410
0.5202 2.5174 -0.3491
0.5269 2.4877 -0.3448
0.5370 2.4651 -0.3451
0.5461 2.4406 -0.3442
0.5486 2.4052 -0.3354
0.5542 2.3759 -0.3305
0.5776 2.3747 -0.3464
0.5866 2.3504 -0.3454
0.5950 2.3254 -0.3438
0.6039 2.3014 -0.3428
0.6139 2.2790 -0.3431
0.6271 2.2602 -0.3467
0.6385 2.2391 -0.3483
0.6383 2.2055 -0.3381
0.6575 2.1926 -0.3476
0.6616 2.1643 -0.3420
0.6682 2.1389 -0.3391
0.6858 2.1232 -0.3466
0.6931 2.0985 -0.3443
0.6981 2.0724 -0.3400
0.7395 1.9845 -0.3426
0.7704 1.9453 -0.3524
0.7575 1.9125 -0.3336
0.7819 1.8965 -0.3458
0.7968 1.8760 -0.3501
0.8036 1.8524 -0.3477
0.8077 1.8283 -0.3434
0.8177 1.8061 -0.3437
0.8432 1.7875 -0.3559
0.8394 1.7621 -0.3457
0.8458 1.7392 -0.3433
0.8558 1.7171 -0.3436
0.8673 1.6722 -0.3383
0.8772 1.6503 -0.3386
0.8813 1.6283 -0.3349
0.8911 1.6065 -0.3352
0.9067 1.5846 -0.3395
0.9410 1.5612 -0.3564
0.9462 1.5391 -0.3534
0.9492 1.5174 -0.3491
0.9663 1.4942 -0.3541
0.9784 1.4715 -0.3557
0.9865 1.4494 -0.3547
1.0018 1.4259 -0.3583
1.0066 1.4045 -0.3553
1.0167 1.3821 -0.3556
1.0321 1.3583 -0.3593
1.0368 1.3373 -0.3562
1.0424 1.3162 -0.3539
1.0469 1.2957 -0.3508
0.8314 1.3235 -0.2090
0.8319 1.3096 -0.2052
0.4613 2.5290 -0.3386
0.4635 2.4904 -0.3280
0.4883 2.4604 -0.3368
0.4949 2.4331 -0.3330
0.5075 2.4176 -0.3374
0.5202 2.4019 -0.3417
0.5310 2.3821 -0.3434
0.5385 2.3570 -0.3410
0.5459 2.3320 -0.3386
0.5612 2.3190 -0.3457
0.5733 2.3006 -0.3487
0.5807 2.2757 -0.3463
0.5819 2.2434 -0.3370
0.5940 2.2251 -0.3400
0.6023 2.2022 -0.3390
0.6093 2.1782 -0.3366
0.6189 2.1569 -0.3369
0.6324 2.1395 -0.3412
0.6353 2.1120 -0.3347
0.6475 2.0932 -0.3377
0.6543 2.0697 -0.3353
0.6680 2.0518 -0.3397
0.6747 2.0285 -0.3373
0.6857 2.0082 -0.3389
0.7026 1.9915 -0.3461
0.7123 1.9700 -0.3464
0.7143 1.9445 -0.3398
0.7269 1.9248 -0.3429
0.7318 1.9013 -0.3390
0.7397 1.8795 -0.3380
0.7459 1.8572 -0.3355
0.7636 1.8389 -0.3427
0.7748 1.8181 -0.3443
0.7810 1.7958 -0.3419
0.7906 1.7746 -0.3422
0.8001 1.7534 -0.3425
0.8061 1.7315 -0.3400
0.8156 1.7104 -0.3403
0.8215 1.6889 -0.3379
0.8419 1.6687 -0.3464
0.8441 1.6470 -0.3412
0.8480 1.6257 -0.3374
0.8612 1.6047 -0.3404
0.8745 1.5835 -0.3435
0.8801 1.5625 -0.3410
0.8935 1.5411 -0.3441
0.9011 1.5201 -0.3430
0.9146 1.4985 -0.3460
0.9323 1.4759 -0.3519
0.9440 1.4541 -0.3536
0.9578 1.4317 -0.3567
0.9527 1.4135 -0.3472
0.9601 1.3928 -0.3461
0.9653 1.3728 -0.3437
0.9835 1.3491 -0.3495
0.9997 1.3258 -0.3540
0.9960 1.3088 -0.3459
1.0010 1.2892 -0.3434
0.8067 1.3300 -0.2142
0.8059 1.3170 -0.2096
0.4266 2.5425 -0.3440
0.4342 2.5172 -0.3415
0.4436 2.4964 -0.3418
0.4529 2.4756 -0.3421
0.4622 2.4548 -0.3424
0.4715 2.4341 -0.3426
0.4858 2.4232 -0.3500
0.4943 2.4002 -0.3489
0.5006 2.3736 -0.3449
0.5110 2.3546 -0.3466
0.5204 2.3337 -0.3469
0.5308 2.3145 -0.3486
0.5402 2.2936 -0.3489
0.5590 2.2517 -0.3495
0.5720 2.2354 -0.3540
0.5803 2.2128 -0.3529
0.5785 2.1791 -0.3405
0.5878 2.1585 -0.3407
0.6035 2.1445 -0.3481
0.6115 2.1224 -0.3470
0.6247 2.0762 -0.3419
0.6474 2.0382 -0.3467
0.6567 2.0175 -0.3470
0.6602 1.9929 -0.3416
0.6856 1.9302 -0.3403
0.6933 1.9090 -0.3392
0.7040 1.8893 -0.3409
0.7116 1.8682 -0.3398
0.7207 1.8478 -0.3401
0.7315 1.8279 -0.3418
0.7432 1.8082 -0.3442
0.7608 1.7899 -0.3516
0.7718 1.7695 -0.3534
0.7743 1.7473 -0.3479
0.7792 1.7260 -0.3446
0.7893 1.7056 -0.3456
0.7940 1.6846 -0.3423
0.8095 1.6647 -0.3476
0.8336 1.6236 -0.3525
0.8391 1.6030 -0.3499
0.8484 1.5823 -0.3502
0.8538 1.5620 -0.3476
0.8874 1.4996 -0.3528
0.8947 1.4792 -0.3517
0.9060 1.4582 -0.3534
0.9153 1.4375 -0.3537
0.9402 1.3946 -0.3586
0.9453 1.3749 -0.3560
0.9503 1.3555 -0.3534
0.9683 1.3321 -0.3595
0.9633 1.3161 -0.3504
0.7800 1.3374 -0.2171
0.7837 1.3231 -0.2151
0.7884 1.3084 -0.2139
0.4052 2.4961 -0.3378
0.4141 2.4762 -0.3381
0.4191 2.4465 -0.3318
0.4306 2.4333 -0.3364
0.4339 2.4010 -0.3279
0.4456 2.3876 -0.3326
0.4573 2.3739 -0.3372
0.4652 2.3521 -0.3361
0.4751 2.3342 -0.3378
0.4877 2.3208 -0.3432
0.4892 2.2885 -0.3332
0.5045 2.2791 -0.3423
0.5107 2.2550 -0.3389
0.5184 2.2336 -0.3377
0.5261 2.2123 -0.3365
0.5308 2.1873 -0.3316
0.5463 2.1758 -0.3400
0.5551 2.1560 -0.3403
0.5597 2.1315 -0.3354
0.5717 2.1151 -0.3394
0.5792 2.0941 -0.3382
0.5834 2.0702 -0.3333
0.5996 2.0570 -0.3417
0.6071 2.0361 -0.3405
0.6223 2.0211 -0.3474
0.6220 1.9946 -0.3381
0.6337 1.9768 -0.3413
0.6397 1.9553 -0.3386
0.6515 1.9373 -0.3419
0.6566 1.9156 -0.3384
0.6623 1.8945 -0.3357
0.6688 1.8739 -0.3338
0.6815 1.8561 -0.3378
0.6926 1.8374 -0.3403
0.7007 1.8175 -0.3398
0.7095 1.7978 -0.3401
0.7108 1.7763 -0.3337
0.7229 1.7576 -0.3369
0.7342 1.7386 -0.3394
0.7430 1.7191 -0.3397
0.7535 1.6997 -0.3414
0.7730 1.6812 -0.3507
0.7739 1.6607 -0.3442
0.7800 1.6408 -0.3423
0.7851 1.6212 -0.3395
0.7985 1.6016 -0.3436
0.8074 1.5819 -0.3438
0.8152 1.5623 -0.3434
0.8270 1.5424 -0.3459
0.8397 1.5223 -0.3491
0.8536 1.5018 -0.3532
0.8454 1.4847 -0.3407
0.8572 1.4646 -0.3432
0.8805 1.4420 -0.3540
0.8821 1.4237 -0.3490
0.8857 1.4053 -0.3455
0.8924 1.3863 -0.3443
0.9109 1.3638 -0.3514
0.9045 1.3489 -0.3411
0.9243 1.3257 -0.3489
0.9309 1.3068 -0.3477
0.7616 1.3292 -0.2198
0.7649 1.3155 -0.2177
0.3827 2.4885 -0.3420
0.3918 2.4704 -0.3431
0.3987 2.4466 -0.3403
0.4074 2.4273 -0.3406
0.4151 2.4060 -0.3393
0.4333 2.3696 -0.3414
0.4419 2.3504 -0.3416
0.4511 2.3321 -0.3427
0.4597 2.3128 -0.3429
0.4668 2.2908 -0.3409
0.4781 2.2760 -0.3450
0.4841 2.2525 -0.3415
0.5047 2.2189 -0.3466
0.5116 2.1972 -0.3445
0.5168 2.1734 -0.3402
0.5400 2.1134 -0.3380
0.5616 2.0798 -0.3439
0.5773 2.0140 -0.3332
0.5998 1.9803 -0.3398
0.6295 1.9019 -0.3363
0.6572 1.8463 -0.3394
0.6657 1.8274 -0.3397
0.6852 1.7902 -0.3425
0.6904 1.7704 -0.3397
0.6955 1.7507 -0.3369
0.7253 1.7152 -0.3490
0.7296 1.6954 -0.3454
0.7364 1.6762 -0.3441
0.7620 1.6192 -0.3449
0.7847 1.5623 -0.3434
0.8187 1.4866 -0.3444
0.8323 1.4667 -0.3486
0.8463 1.4293 -0.3468
0.8611 1.4087 -0.3517
0.8644 1.3911 -0.3481
0.8730 1.3721 -0.3483
0.8869 1.3513 -0.3525
0.8944 1.3325 -0.3520
0.9085 1.3114 -0.3561
0.7431 1.3340 -0.2259
0.7498 1.3191 -0.2261
-0.9107 1.8298 -0.3378
-0.8970 1.8092 -0.3342
-0.8909 1.7913 -0.3360
-0.8722 1.7534 -0.3350
-0.8670 1.7356 -0.3375
-0.8587 1.7170 -0.3378
-0.8434 1.6968 -0.3326
-0.8352 1.6783 -0.3329
-0.8279 1.6600 -0.3339
-0.8168 1.6410 -0.3319
-0.8134 1.6232 -0.3359
-0.8061 1.6047 -0.3370
-0.7969 1.5861 -0.3364
-0.7886 1.5675 -0.3367
-0.7749 1.5488 -0.3323
-0.7638 1.5118 -0.3374
-0.7460 1.4939 -0.3292
-0.7447 1.4749 -0.3356
-0.7365 1.4565 -0.3359
-0.7283 1.4380 -0.3361
-0.7151 1.4204 -0.3317
-0.7069 1.4021 -0.3320
-0.6996 1.3836 -0.3330
-0.6914 1.3652 -0.3332
-0.6825 1.3471 -0.3327
-0.6774 1.3277 -0.3360
-0.6646 1.3111 -0.3316
-0.6587 1.2918 -0.3342
-0.6528 1.2724 -0.3368
-0.6402 1.2562 -0.3324
-0.6300 1.2392 -0.3303
-0.6240 1.2197 -0.3329
-0.6193 1.1991 -0.3370
-0.6097 1.1817 -0.3357
-0.5909 1.1715 -0.3235
-0.5691 1.1649 -0.3074
-0.5504 1.1571 -0.2944
-0.4663 1.1493 -0.2251
-0.4527 1.1429 -0.2160
-0.4417 1.1343 -0.2099
-0.4332 1.1231 -0.2070
-0.4346 1.0982 -0.2181
-0.4436 1.0357 -0.2506
-0.4567 0.9283 -0.3044
-0.4578 0.8945 -0.3187
-0.4570 0.8626 -0.3307
-0.4541 0.8339 -0.3396
-0.4459 0.8155 -0.3398
-0.4378 0.7972 -0.3401
-0.4287 0.7810 -0.3387
-0.4206 0.7627 -0.3390
-0.4133 0.7422 -0.3408
-0.4055 0.7227 -0.3418
-0.3962 0.7078 -0.3397
-0.3892 0.6860 -0.3423
-0.3810 0.6677 -0.3426
-0.9688 1.8795 -0.3420
-0.9601 1.8599 -0.3422
-0.9514 1.8404 -0.3425
-0.9331 1.8175 -0.3361
-0.9340 1.8013 -0.3430
-0.9284 1.7827 -0.3455
-0.9166 1.7622 -0.3435
-0.9079 1.7426 -0.3438
-0.8972 1.7226 -0.3426
-0.8835 1.7020 -0.3391
-0.8818 1.6840 -0.3446
-0.8613 1.6624 -0.3359
-0.8586 1.6440 -0.3406
-0.8490 1.6245 -0.3402
-0.8338 1.6045 -0.3352
-0.8224 1.5851 -0.3333
-0.8148 1.5660 -0.3343
-0.8014 1.5276 -0.3377
-0.7893 1.5085 -0.3350
-0.7799 1.4895 -0.3345
-0.7637 1.4511 -0.3358
-0.7442 1.4133 -0.3341
-0.7353 1.3730 -0.3420
-0.7243 1.3544 -0.3401
-0.6971 1.3197 -0.3309
-0.6971 1.2973 -0.3393
-0.6848 1.2798 -0.3358
-0.6763 1.2607 -0.3361
-0.6700 1.2405 -0.3386
-0.6593 1.2226 -0.3366
-0.6466 1.2062 -0.3324
-0.6263 1.1708 -0.3291
-0.5930 1.1712 -0.3016
-0.5745 1.1621 -0.2898
-0.5531 1.1566 -0.2743
-0.4679 1.1500 -0.2067
-0.4426 1.1360 -0.1912
-0.4330 1.1264 -0.1869
-0.4307 1.1071 -0.1924
-0.4456 1.0370 -0.2312
-0.4558 0.9359 -0.2780
-0.4590 0.8659 -0.3072
-0.4036 0.6541 -0.3420
-0.9795 1.8461 -0.3368
-0.9706 1.8260 -0.3371
-0.9595 1.8052 -0.3360
-0.9464 1.7839 -0.3334
-0.9438 1.7657 -0.3379
-0.9328 1.7451 -0.3368
-0.9040 1.6846 -0.3361
-0.8814 1.6439 -0.3331
-0.8754 1.6244 -0.3355
-0.8723 1.6050 -0.3401
-0.8558 1.5844 -0.3346
-0.8404 1.5643 -0.3299
-0.8399 1.5447 -0.3366
-0.8265 1.5248 -0.3333
-0.8204 1.5049 -0.3357
-0.8071 1.4853 -0.3324
-0.7940 1.4660 -0.3290
-0.7896 1.4458 -0.3329
-0.7825 1.4258 -0.3346
-0.7678 1.4071 -0.3298
-0.7632 1.3865 -0.3337
-0.7544 1.3668 -0.3339
-0.7488 1.3460 -0.3371
-0.7312 1.3291 -0.3294
-0.7319 1.3060 -0.3383
-0.7192 1.2877 -0.3350
-0.7066 1.2697 -0.3317
-0.6979 1.2501 -0.3319
-0.6855 1.2324 -0.3286
-0.6819 1.2100 -0.3339
-0.6781 1.1872 -0.3392
-0.6566 1.1758 -0.3265
-0.6293 1.1698 -0.3072
-0.5484 1.1623 -0.2463
-0.5275 1.1583 -0.2313
-0.4515 1.1496 -0.1748
-0.4417 1.1399 -0.1706
-0.4332 1.1291 -0.1679
-0.4339 1.1060 -0.1768
-0.4377 1.0775 -0.1901
-0.4439 0.9910 -0.2264
-0.4323 0.9833 -0.2201
-0.4179 0.9817 -0.2093
-0.4092 0.9704 -0.2066
-0.4621 0.7201 -0.3390
-0.4555 0.6950 -0.3429
-0.4467 0.6753 -0.3432
-0.4367 0.6589 -0.3413
-0.4291 0.6358 -0.3437
-0.4191 0.6196 -0.3418
-0.4115 0.5963 -0.3443
-1.0442 1.8999 -0.3405
-1.0348 1.8789 -0.3408
-1.0233 1.8571 -0.3397
-1.0118 1.8353 -0.3386
-0.9982 1.8131 -0.3361
-0.9974 1.7948 -0.3419
-0.9964 1.7760 -0.3477
-0.9704 1.7506 -0.3370
-0.9611 1.7298 -0.3372
-0.9559 1.7098 -0.3403
-0.9396 1.6875 -0.3357
-0.9283 1.6665 -0.3346
-0.9172 1.6455 -0.3335
-0.9167 1.6258 -0.3400
-0.9055 1.6048 -0.3389
-0.9000 1.5842 -0.3419
-0.8785 1.5628 -0.3333
-0.8694 1.5422 -0.3335
-0.8639 1.5216 -0.3366
-0.8528 1.5010 -0.3355
-0.8419 1.4804 -0.3344
-0.8327 1.4598 -0.3346
-0.8221 1.4174 -0.3414
-0.8111 1.3969 -0.3403
-0.7977 1.3771 -0.3371
-0.7625 1.2939 -0.3396
-0.7557 1.2722 -0.3420
-0.7441 1.2525 -0.3402
-0.7319 1.2333 -0.3377
-0.7272 1.2103 -0.3421
-0.7040 1.1976 -0.3292
-0.6820 1.1854 -0.3169
-0.6526 1.1794 -0.2970
-0.5482 1.1641 -0.2240
