ply
format ascii 1.0
element vertex 2104
property float x
property float y
property float z
end_header
3.4019 -2.3669 -0.2598
3.3878 -2.3890 -0.2577
3.3814 -2.3967 -0.2609
3.3751 -2.4071 -0.2589
3.3690 -2.4175 -0.2564
6.0659 0.6750 1.7597
5.8700 0.4644 1.5919
6.0115 0.6829 1.5970
5.9434 0.6344 1.4957
3.9817 -1.8645 0.4957
3.9708 -1.8681 0.4723
3.9282 -1.9169 0.4408
3.9166 -1.9221 0.4184
3.9076 -1.9237 0.3965
3.9030 -1.9187 0.3752
3.9012 -1.9092 0.3537
3.9027 -1.8943 0.3318
3.9055 -1.8767 0.3090
3.9020 -1.8685 0.2850
3.8936 -1.8677 0.2607
3.8980 -1.8461 0.2348
3.9076 -1.8147 0.2065
3.8867 -1.8173 0.1538
3.8715 -1.8267 0.1286
3.8537 -1.8232 0.0739
3.8429 -1.8246 0.0469
3.8321 -1.8261 0.0198
3.8288 -1.8127 -0.0124
3.8119 -1.8255 -0.0362
3.8064 -1.8158 -0.0683
3.7996 -1.8080 -0.1005
3.7840 -1.7951 -0.1657
3.7667 -1.8088 -0.1890
3.7605 -1.7978 -0.2251
3.7513 -1.7929 -0.2587
3.7245 -1.8299 -0.2673
3.6960 -1.8733 -0.2696
3.6679 -1.9179 -0.2683
3.6457 -1.9498 -0.2735
3.6171 -2.0012 -0.2622
3.5970 -2.0316 -0.2639
3.5763 -2.0659 -0.2607
3.5607 -2.0869 -0.2665
3.5398 -2.1263 -0.2548
3.5263 -2.1445 -0.2601
3.5104 -2.1721 -0.2553
3.4977 -2.1908 -0.2576
3.4858 -2.2077 -0.2605
3.4734 -2.2284 -0.2583
3.4626 -2.2442 -0.2601
3.4522 -2.2599 -0.2610
3.4410 -2.2817 -0.2538
3.4321 -2.2940 -0.2566
3.4237 -2.3047 -0.2607
3.4148 -2.3207 -0.2573
3.4071 -2.3312 -0.2601
3.3995 -2.3423 -0.2613
3.3921 -2.3542 -0.2609
3.3850 -2.3666 -0.2587
3.3785 -2.3753 -0.2613
3.3718 -2.3883 -0.2567
3.3659 -2.3953 -0.2607
3.3602 -2.4023 -0.2642
5.9299 0.6926 1.6795
6.0529 0.8992 1.6759
6.2605 1.2264 1.7046
3.9005 -1.9037 0.4242
3.8958 -1.8985 0.4032
3.8927 -1.8906 0.3819
3.8881 -1.8846 0.3600
3.8845 -1.8768 0.3376
3.8840 -1.8636 0.3148
3.8803 -1.8551 0.2911
3.8762 -1.8467 0.2667
3.8682 -1.8449 0.2420
3.8610 -1.8413 0.2169
3.8583 -1.8295 0.1904
3.8541 -1.8197 0.1634
3.8437 -1.8209 0.1374
3.8247 -1.8384 0.1145
3.8102 -1.8477 0.0905
3.8081 -1.8327 0.0606
3.8055 -1.8179 0.0297
3.8034 -1.8014 -0.0029
3.7880 -1.8117 -0.0275
3.7810 -1.8043 -0.0583
3.7781 -1.7874 -0.0936
3.7680 -1.7855 -0.1238
3.7552 -1.7897 -0.1514
3.7388 -1.8026 -0.1747
3.7320 -1.7922 -0.2099
3.7242 -1.7836 -0.2449
3.7052 -1.8033 -0.2640
3.6785 -1.8450 -0.2683
3.6491 -1.8966 -0.2637
3.6275 -1.9291 -0.2692
3.5821 -2.0076 -0.2641
3.5608 -2.0468 -0.2581
3.5439 -2.0741 -0.2594
3.5286 -2.0978 -0.2621
3.5146 -2.1189 -0.2657
3.4994 -2.1463 -0.2622
3.4868 -2.1654 -0.2649
3.4735 -2.1900 -0.2611
3.4620 -2.2088 -0.2616
3.4511 -2.2266 -0.2621
3.4402 -2.2466 -0.2589
3.4311 -2.2593 -0.2628
3.4215 -2.2767 -0.2605
3.4133 -2.2876 -0.2648
3.4045 -2.3047 -0.2607
3.3964 -2.3201 -0.2577
3.3887 -2.3346 -0.2549
3.3821 -2.3421 -0.2608
3.3753 -2.3525 -0.2620
3.3688 -2.3636 -0.2616
3.3625 -2.3762 -0.2582
3.3566 -2.3848 -0.2600
6.0373 0.9575 1.8675
3.8917 -1.8734 0.4319
3.8800 -1.8788 0.4091
3.8749 -1.8736 0.3876
3.8713 -1.8655 0.3659
3.8747 -1.8450 0.3442
3.8681 -1.8410 0.3208
3.8641 -1.8323 0.2971
3.8513 -1.8389 0.2730
3.8458 -1.8322 0.2484
3.8416 -1.8228 0.2230
3.8287 -1.8294 0.1986
3.8225 -1.8229 0.1726
3.7992 -1.8500 0.1514
3.7907 -1.8482 0.1261
3.7919 -1.8261 0.0961
3.7867 -1.7946 0.0352
3.7795 -1.7878 0.0057
3.7712 -1.7828 -0.0238
3.7588 -1.7869 -0.0506
3.7675 -1.7408 -0.0969
3.7387 -1.7835 -0.1090
3.7286 -1.7815 -0.1389
3.7183 -1.7795 -0.1692
3.7069 -1.7802 -0.1984
3.6896 -1.7967 -0.2193
3.6801 -1.7921 -0.2516
3.6564 -1.8285 -0.2596
3.6379 -1.8517 -0.2740
3.6138 -1.8936 -0.2746
3.5659 -1.9867 -0.2617
3.5304 -2.0495 -0.2617
3.4995 -2.1045 -0.2609
3.4724 -2.1536 -0.2589
3.4604 -2.1746 -0.2592
3.4491 -2.1946 -0.2591
3.4383 -2.2144 -0.2580
3.4288 -2.2291 -0.2611
3.4194 -2.2453 -0.2617
3.4104 -2.2615 -0.2614
3.4015 -2.2791 -0.2583
3.3931 -2.2973 -0.2533
3.3861 -2.3050 -0.2603
3.3787 -2.3191 -0.2588
3.3718 -2.3314 -0.2586
3.3652 -2.3436 -0.2577
3.3590 -2.3526 -0.2606
3.3529 -2.3631 -0.2608
3.3472 -2.3743 -0.2593
3.3417 -2.3838 -0.2596
3.8781 -1.8496 0.4386
3.8636 -1.8600 0.4150
3.8503 -1.8684 0.3919
3.8627 -1.8316 0.3730
3.8676 -1.8068 0.3514
3.8342 -1.8346 0.3029
3.8299 -1.8257 0.2790
3.8203 -1.8265 0.2550
3.8140 -1.8206 0.2303
3.8041 -1.8214 0.2057
3.7965 -1.8176 0.1805
3.7878 -1.8157 0.1550
3.7838 -1.8034 0.1275
3.7773 -1.7960 0.1001
3.7729 -1.7831 0.0707
3.7646 -1.7787 0.0427
3.7677 -1.7465 0.0061
3.7567 -1.7470 -0.0221
3.8986 -1.3266 -0.2369
3.7072 -1.7610 -0.1321
3.6958 -1.7616 -0.1611
3.6797 -1.7757 -0.1836
3.6653 -1.7853 -0.2079
3.6528 -1.7894 -0.2348
3.6383 -1.7998 -0.2582
3.6159 -1.8375 -0.2643
3.5936 -1.8776 -0.2667
3.5521 -1.9560 -0.2661
3.5309 -2.0021 -0.2572
3.5154 -2.0288 -0.2606
3.5005 -2.0553 -0.2627
3.4857 -2.0841 -0.2612
3.4718 -2.1119 -0.2589
3.4602 -2.1300 -0.2637
3.4366 -2.1777 -0.2590
3.4163 -2.2172 -0.2572
3.4078 -2.2288 -0.2632
3.3991 -2.2452 -0.2632
3.3904 -2.2648 -0.2585
3.3832 -2.2728 -0.2663
3.3754 -2.2914 -0.2609
3.3682 -2.3065 -0.2585
3.3614 -2.3215 -0.2553
3.3551 -2.3324 -0.2567
3.3432 -2.3523 -0.2600
3.3377 -2.3629 -0.2598
3.3324 -2.3734 -0.2590
4.5723 -0.7644 0.9032
4.5298 -0.8048 0.8456
4.5078 -0.8121 0.7982
3.8701 -1.8153 0.4471
3.8487 -1.8381 0.4213
3.8469 -1.8255 0.4005
3.8486 -1.8060 0.3796
3.8560 -1.7747 0.3583
3.8107 -1.8268 0.3086
3.8072 -1.8156 0.2851
3.8014 -1.8085 0.2609
3.7926 -1.8073 0.2366
3.7877 -1.7973 0.2113
3.7834 -1.7856 0.1850
3.7710 -1.7914 0.1604
3.7679 -1.7759 0.1323
3.7765 -1.7319 0.0977
3.7914 -1.6702 0.0566
3.7929 -1.6384 0.0193
3.7837 -1.6316 -0.0132
3.8730 -1.2834 -0.2322
3.8499 -1.3034 -0.2662
3.6450 -1.7623 -0.2026
3.6324 -1.7665 -0.2296
3.6199 -1.7706 -0.2566
3.5956 -1.8182 -0.2578
3.5753 -1.8546 -0.2634
3.5187 -1.9647 -0.2672
3.5020 -1.9990 -0.2661
3.4854 -2.0366 -0.2604
3.4713 -2.0652 -0.2599
3.4586 -2.0891 -0.2617
3.4457 -2.1181 -0.2577
3.4354 -2.1339 -0.2640
3.4133 -2.1857 -0.2541
3.3958 -2.2145 -0.2620
3.3871 -2.2347 -0.2585
3.3792 -2.2496 -0.2595
3.3718 -2.2611 -0.2637
3.3644 -2.2801 -0.2584
3.3576 -2.2955 -0.2561
3.3511 -2.3100 -0.2541
3.3450 -2.3194 -0.2577
3.3335 -2.3422 -0.2580
3.3281 -2.3522 -0.2590
3.3228 -2.3605 -0.2619
4.4553 -0.9175 0.9394
4.4688 -0.8680 0.9146
4.4655 -0.8454 0.8791
3.8711 -1.7789 0.4790
3.8480 -1.8052 0.4517
3.8450 -1.7944 0.4308
3.8394 -1.7877 0.4087
3.8300 -1.7883 0.3855
3.8282 -1.7736 0.3632
3.8200 -1.7713 0.3394
3.8010 -1.7911 0.3148
3.7923 -1.7898 0.2910
3.7871 -1.7804 0.2667
3.7799 -1.7752 0.2419
3.7733 -1.7681 0.2165
3.7791 -1.7313 0.1875
3.7939 -1.6713 0.1534
3.7927 -1.6471 0.1215
3.7851 -1.6377 0.0908
3.7850 -1.6080 0.0551
3.7863 -1.5728 0.0163
3.7799 -1.5563 -0.0198
3.8863 -1.1213 -0.2683
3.8303 -1.2400 -0.2693
3.7723 -1.3729 -0.2582
3.7373 -1.4388 -0.2688
3.6967 -1.5287 -0.2649
3.6238 -1.7421 -0.1958
3.6105 -1.7490 -0.2214
3.5980 -1.7532 -0.2484
3.5832 -1.7665 -0.2700
3.5583 -1.8249 -0.2639
3.5388 -1.8644 -0.2664
3.5202 -1.9037 -0.2669
3.4712 -2.0116 -0.2629
3.4442 -2.0723 -0.2592
3.4221 -2.1153 -0.2642
3.4013 -2.1637 -0.2592
3.3920 -2.1855 -0.2570
3.3833 -2.2053 -0.2554
3.3755 -2.2172 -0.2611
3.3678 -2.2342 -0.2605
3.3534 -2.2678 -0.2569
3.3407 -2.2975 -0.2539
3.3347 -2.3088 -0.2556
3.3291 -2.3209 -0.2556
3.3235 -2.3278 -0.2616
3.3186 -2.3439 -0.2549
4.4843 -0.8869 1.1110
4.4817 -0.8650 1.0802
4.4667 -0.8630 1.0403
3.8375 -1.7733 0.4599
3.8308 -1.7686 0.4379
3.8210 -1.7701 0.4146
3.8205 -1.7519 0.3933
3.8107 -1.7525 0.3694
3.8019 -1.7511 0.3455
3.7860 -1.7651 0.3210
3.7919 -1.7299 0.2971
3.7817 -1.7307 0.2720
3.7909 -1.6848 0.2447
3.7920 -1.6564 0.2161
3.7895 -1.6354 0.1866
3.7820 -1.5959 0.1241
3.7785 -1.5735 0.0904
3.7708 -1.5612 0.0575
3.7510 -1.5826 0.0312
3.7499 -1.5498 -0.0079
3.8657 -1.0463 -0.2718
3.8164 -1.1510 -0.2806
3.7632 -1.2770 -0.2757
3.7188 -1.3800 -0.2736
3.6867 -1.4448 -0.2831
3.5907 -1.7231 -0.2176
3.5740 -1.7453 -0.2352
3.5670 -1.7249 -0.2755
3.5212 -1.8388 -0.2649
3.5028 -1.8816 -0.2641
3.4863 -1.9186 -0.2649
3.4553 -1.9944 -0.2591
3.4435 -2.0149 -0.2664
3.4306 -2.0471 -0.2632
3.4079 -2.1027 -0.2590
3.3884 -2.1485 -0.2575
3.3798 -2.1654 -0.2607
3.3715 -2.1830 -0.2621
3.3561 -2.2187 -0.2614
3.3490 -2.2385 -0.2574
3.3423 -2.2486 -0.2631
3.3300 -2.2806 -0.2588
3.3190 -2.3096 -0.2545
3.3087 -2.3314 -0.2564
3.3039 -2.3409 -0.2582
3.8214 -1.7318 0.4466
3.8064 -1.7439 0.4216
3.7933 -1.7087 0.3530
3.7512 -1.5265 0.0626
3.7333 -1.5433 0.0349
3.7218 -1.5399 0.0029
3.7141 -1.5235 -0.0330
3.8312 -1.0134 -0.2609
3.7903 -1.0962 -0.2785
3.7438 -1.2070 -0.2816
3.7012 -1.3110 -0.2816
3.6649 -1.3977 -0.2838
3.6336 -1.4702 -0.2879
3.5902 -1.6060 -0.2577
3.5432 -1.7169 -0.2619
3.5250 -1.7526 -0.2709
3.5061 -1.7967 -0.2731
3.4871 -1.8470 -0.2690
3.4403 -1.9696 -0.2607
3.4281 -1.9961 -0.2641
3.4155 -2.0327 -0.2584
3.3944 -2.0819 -0.2607
3.3848 -2.1040 -0.2621
3.3759 -2.1222 -0.2657
3.3675 -2.1385 -0.2701
3.3443 -2.2047 -0.2605
3.3375 -2.2213 -0.2604
3.3311 -2.2361 -0.2615
3.3191 -2.2652 -0.2616
3.3138 -2.2823 -0.2575
3.3084 -2.2930 -0.2600
3.3038 -2.3099 -0.2543
3.2988 -2.3196 -0.2567
3.2941 -2.3293 -0.2587
3.9390 -1.3162 0.4158
4.1529 -0.5479 0.2225
3.8962 -1.1621 0.1656
3.8647 -1.2085 0.1317
3.8152 -1.3128 0.1073
3.7530 -1.4629 0.0950
3.7133 -1.5084 0.0398
3.6969 -1.5213 0.0114
3.7699 -1.0133 -0.2852
3.7232 -1.1333 -0.2877
3.6808 -1.2454 -0.2872
3.6057 -1.4553 -0.2754
3.5497 -1.6080 -0.2702
3.4844 -1.7915 -0.2590
3.4684 -1.8292 -0.2631
3.4535 -1.8646 -0.2667
3.4393 -1.8999 -0.2686
3.4246 -1.9482 -0.2595
3.4124 -1.9791 -0.2605
3.4010 -2.0097 -0.2600
3.3908 -2.0306 -0.2655
3.3805 -2.0618 -0.2616
3.3712 -2.0862 -0.2617
3.3542 -2.1315 -0.2609
3.3392 -2.1726 -0.2594
3.3198 -2.2253 -0.2580
3.3143 -2.2456 -0.2525
3.3082 -2.2532 -0.2602
3.3033 -2.2714 -0.2552
3.2982 -2.2833 -0.2567
3.2936 -2.2978 -0.2544
3.2884 -2.3042 -0.2614
3.2841 -2.3167 -0.2602
4.6705 0.4266 0.7936
4.4757 0.0208 0.6676
4.0140 -0.8973 0.3322
4.0107 -0.8565 0.2890
3.8463 -1.1952 0.1796
3.8336 -1.1871 0.1416
3.8103 -1.2128 0.1070
3.6743 -1.4945 0.0180
3.6647 -1.4816 -0.0166
3.7686 -0.9196 -0.2472
3.7418 -0.9542 -0.2830
3.6979 -1.0723 -0.2883
3.6606 -1.1693 -0.2956
3.5865 -1.3944 -0.2827
3.5074 -1.6316 -0.2713
3.4884 -1.6807 -0.2754
3.4527 -1.7847 -0.2729
3.4225 -1.8764 -0.2675
3.3971 -1.9552 -0.2616
3.3858 -1.9922 -0.2573
3.3760 -2.0135 -0.2629
3.3573 -2.0738 -0.2565
3.3412 -2.1163 -0.2593
3.3339 -2.1396 -0.2571
3.3268 -2.1562 -0.2599
3.3201 -2.1726 -0.2620
3.3028 -2.2278 -0.2569
3.2972 -2.2401 -0.2599
3.2921 -2.2542 -0.2602
3.2873 -2.2681 -0.2599
3.2825 -2.2792 -0.2621
3.2788 -2.2966 -0.2561
3.2742 -2.3057 -0.2595
4.2048 -0.5075 0.6035
3.9573 -0.9818 0.3799
3.7994 -1.3201 0.2653
3.8383 -1.0427 0.1403
3.7744 -1.2113 0.1190
3.6460 -1.4353 -0.0144
3.6988 -1.0528 -0.1886
3.7072 -0.9212 -0.2720
3.6328 -1.1245 -0.2915
3.6016 -1.2080 -0.3010
3.5091 -1.5266 -0.2733
3.4687 -1.6473 -0.2756
3.4483 -1.7282 -0.2610
3.4336 -1.7643 -0.2679
3.4043 -1.8706 -0.2550
3.3928 -1.8959 -0.2627
3.3813 -1.9339 -0.2606
3.3613 -1.9834 -0.2698
3.3434 -2.0518 -0.2591
3.3277 -2.0902 -0.2667
3.3020 -2.1768 -0.2606
3.2910 -2.2107 -0.2603
3.2864 -2.2298 -0.2564
3.2812 -2.2413 -0.2599
3.2719 -2.2668 -0.2622
3.2646 -2.2965 -0.2564
4.3536 -0.0799 0.7862
3.8647 -1.1851 0.4120
3.8224 -1.2272 0.3412
3.8011 -1.2503 0.3068
3.7838 -1.2610 0.2730
3.7364 -1.2226 0.1320
3.7446 -1.1288 0.0841
3.6677 -1.1082 -0.1148
3.6639 -1.0384 -0.1741
3.6744 -0.8787 -0.2639
3.6374 -0.9851 -0.2759
3.6030 -1.0876 -0.2843
3.5702 -1.1936 -0.2865
3.5429 -1.2747 -0.2936
3.5133 -1.3867 -0.2837
3.4869 -1.4916 -0.2714
3.4652 -1.5708 -0.2662
3.4466 -1.6341 -0.2651
3.4140 -1.7510 -0.2590
3.3652 -1.9144 -0.2581
3.3554 -1.9387 -0.2642
3.3460 -1.9778 -0.2585
3.3291 -2.0285 -0.2623
3.3146 -2.0824 -0.2584
3.2956 -2.1447 -0.2589
3.2896 -2.1597 -0.2624
3.2843 -2.1775 -0.2624
3.2802 -2.2029 -0.2538
3.2749 -2.2147 -0.2580
3.2660 -2.2437 -0.2586
3.2616 -2.2561 -0.2600
4.3673 -0.1825 1.0384
4.3231 -0.2392 0.9707
4.3350 -0.1511 0.9413
4.3092 -0.1596 0.8857
4.2541 -0.2487 0.8132
4.1972 -0.3466 0.7426
4.1133 -0.5274 0.6619
3.8392 -1.1984 0.4510
3.7118 -1.2457 0.1799
3.6948 -1.2565 0.1467
3.7025 -1.0855 0.0531
3.6807 -1.1123 0.0188
3.6578 -1.1466 -0.0131
3.6513 -1.0953 -0.0620
3.6323 -1.1088 -0.0982
3.6147 -1.1146 -0.1360
3.5972 -1.0044 -0.2497
3.5730 -1.0504 -0.2770
3.5436 -1.1454 -0.2846
3.5137 -1.2610 -0.2798
3.4871 -1.3674 -0.2733
3.4643 -1.4550 -0.2699
3.4435 -1.5410 -0.2630
3.4251 -1.6169 -0.2569
3.4110 -1.6483 -0.2699
3.3964 -1.7004 -0.2703
3.3706 -1.8013 -0.2655
3.3395 -1.9174 -0.2633
3.3306 -1.9522 -0.2615
3.3148 -2.0128 -0.2593
3.3076 -2.0388 -0.2594
3.3007 -2.0606 -0.2615
3.2939 -2.0783 -0.2660
3.2831 -2.1301 -0.2577
3.2730 -2.1694 -0.2559
3.2675 -2.1805 -0.2619
3.2637 -2.2023 -0.2565
3.2552 -2.2318 -0.2573
3.2507 -2.2425 -0.2610
3.2470 -2.2561 -0.2610
3.1264 -0.2871 0.8395
3.1919 -0.2066 0.8517
3.0911 -0.1941 0.8079
3.1345 -0.2704 0.7890
3.1850 -0.2824 0.7825
3.2205 -0.3659 0.7627
1.5093 -1.9906 0.5478
1.5145 -1.9661 0.5518
1.5275 -1.9458 0.5544
1.5171 -1.9082 0.5619
1.5022 -1.8653 0.5707
3.0336 -0.2593 0.7443
3.0825 -0.3024 0.7330
3.1204 -0.4004 0.7126
3.1833 -0.3261 0.7212
1.4993 -1.9901 0.5208
1.5359 -1.9859 0.5190
1.4851 -1.8917 0.5371
1.4689 -1.8472 0.5452
3.1349 -0.3418 0.6688
3.4154 -1.0907 0.5332
3.4752 -1.0177 0.5406
3.5085 -1.0124 0.5392
1.5165 -2.0067 0.4895
1.4871 -1.8993 0.5055
1.4796 -1.8613 0.5110
1.5073 -1.8477 0.5112
2.7559 -0.6480 0.5967
2.8751 -0.2317 0.6449
3.4258 -1.0785 0.4999
1.5113 -2.0092 0.4615
1.4960 -1.9717 0.4664
1.4902 -1.8753 0.4773
1.5094 -1.8555 0.4784
0.4242 -0.4973 0.6827
2.7592 -0.6951 0.5411
2.8118 -0.5704 0.5520
3.0413 -1.0001 0.4932
3.1680 -0.9348 0.4938
3.4438 -1.0473 0.4674
1.4880 -1.8800 0.4453
0.4834 -0.5683 0.6011
2.1706 2.0181 0.7488
2.8123 -0.6909 0.4893
2.9333 -0.3677 0.5117
3.0439 -1.0100 0.4520
3.0858 -0.9884 0.4520
3.1281 -0.9667 0.4520
3.1921 -0.8500 0.4592
3.4198 -0.0838 0.5148
4.0137 1.9452 0.6623
3.5007 -0.7304 0.4560
3.4692 -0.9130 0.4417
3.4488 -1.0497 0.4309
3.4737 -1.0649 0.4286
0.4150 -0.5150 0.5352
0.5767 -0.5798 0.5255
0.7634 1.4578 0.6438
1.0175 1.1873 0.6182
1.2200 0.9958 0.5992
1.3861 0.8640 0.5852
2.1784 1.9887 0.6260
2.8137 -0.7700 0.4343
3.4460 -1.0714 0.3933
3.4733 -1.0800 0.3918
-0.1771 -0.1827 0.4893
0.7966 1.3746 0.5199
1.0036 1.2082 0.5081
1.2606 0.8872 0.4892
1.4215 0.7626 0.4802
1.4492 0.9955 0.4880
2.2466 1.4571 0.4831
2.4390 1.8551 0.4925
2.5545 1.8932 0.4907
2.6689 1.9924 0.4912
2.9289 -0.5485 0.3905
3.0532 -1.0054 0.3702
3.0926 -1.0001 0.3693
3.1284 -1.0102 0.3680
3.1760 -0.9649 0.3683
3.4843 -1.0683 0.3560
1.4490 -1.9663 0.3479
1.3556 -1.7694 0.3521
0.4007 -1.0112 0.3797
0.4152 -0.9530 0.3801
0.3426 -0.3711 0.3885
0.9673 1.2798 0.3964
1.2673 0.8623 0.3855
1.4556 0.6652 0.3795
1.3783 1.1943 0.3874
2.1389 1.4452 0.3758
2.3065 0.9873 0.3670
2.3911 1.1427 0.3672
2.4343 2.0090 0.3769
2.8221 -0.7276 0.3363
2.8726 -0.7001 0.3357
2.9344 -0.5358 0.3365
2.9895 -0.5046 0.3358
3.1410 -0.9732 0.3272
0.4360 -0.9816 0.3148
0.2749 -0.7792 0.3140
1.4753 0.6062 0.2827
1.4909 0.8636 0.2792
2.1312 1.5208 0.2635
2.2881 1.1721 0.2663
2.4052 1.0354 0.2668
2.5622 2.0192 0.2523
2.8874 -0.5126 0.2817
2.9481 -0.4233 0.2799
2.9973 -0.4763 0.2800
3.1422 -0.9904 0.2851
3.1911 -0.9439 0.2840
3.4465 -1.0350 0.2824
3.4872 -1.0151 0.2817
0.4389 -0.9244 0.2473
0.5531 -0.8673 0.2448
0.4171 -0.6627 0.2373
0.4890 -0.6390 0.2362
0.3936 -0.4500 0.2291
1.3349 0.9703 0.1720
1.4398 1.0049 0.1704
1.6347 0.7553 0.1795
1.6496 1.0741 0.1672
1.6667 1.4497 0.1527
1.7808 1.4874 0.1509
1.9455 1.2718 0.1588
2.0845 1.1230 0.1642
2.2173 0.9475 0.1706
2.2618 1.4278 0.1520
2.3611 1.5670 0.1464
2.4539 1.8891 0.1337
2.8336 -0.6095 0.2289
2.8893 -0.5535 0.2266
2.9404 -0.5743 0.2272
3.1671 -0.8985 0.2391
3.1919 -0.9624 0.2415
3.3433 -0.5263 0.2243
0.2301 -0.6004 0.1575
1.3996 1.1143 0.0542
2.0975 1.8018 0.0142
2.8913 -0.5930 0.1727
3.0844 -0.9299 0.1955
3.1265 -0.9235 0.1954
3.1620 -0.9449 0.1969
3.1926 -0.9807 0.1994
3.2520 -0.8992 0.1945
3.3191 -0.8001 0.1886
3.4160 -0.6143 0.1772
3.5533 -0.7997 0.1899
1.4057 -1.9347 0.2164
1.3783 -1.8504 0.2083
-0.1764 -0.2655 0.0425
1.1654 1.4007 -0.0886
1.4025 1.4789 -0.0923
1.6250 1.6139 -0.1012
1.8076 1.3791 -0.0774
2.0329 1.4535 -0.0808
2.1811 1.2424 -0.0596
2.2254 1.8120 -0.1104
2.7993 0.1783 0.0456
2.8499 -0.3992 0.0985
2.8973 -0.5661 0.1143
2.9452 -0.6256 0.1204
2.9924 -0.6578 0.1240
3.0376 -0.6885 0.1274
3.1630 -0.9633 0.1540
3.1973 -0.9828 0.1563
3.2433 -0.9528 0.1543
3.4633 -0.9534 0.1575
3.5487 -0.8287 0.1475
3.5646 -0.8775 0.1521
3.5907 -0.9729 0.1611
1.3482 -1.9055 0.1773
1.3480 -1.8370 0.1693
1.3674 -1.8138 0.1670
-0.5446 -0.0816 -0.0799
-0.2285 -0.2376 -0.0543
0.2541 -0.5579 -0.0056
0.9824 1.1896 -0.1929
1.1186 1.1776 -0.1884
1.6037 1.2280 -0.1830
1.7517 1.1219 -0.1672
1.8484 1.2044 -0.1746
1.9848 1.1008 -0.1593
2.0897 1.1354 -0.1609
2.1744 1.3120 -0.1795
2.2774 1.3976 -0.1872
2.7283 0.3111 -0.0497
2.8045 0.1834 -0.0330
2.8591 -0.2834 0.0228
2.9183 -0.3134 0.0277
2.9826 -0.2595 0.0229
3.0457 -0.6656 0.0718
3.1965 -0.8382 0.0955
3.2747 -0.8567 0.0995
3.4901 -0.8024 0.0982
3.4848 -0.9149 0.1112
3.5196 -0.9171 0.1122
3.5427 -0.9453 0.1161
3.5618 -0.9791 0.1205
3.5898 -0.9898 0.1224
3.6210 -0.9922 0.1234
1.3388 -1.8381 0.1312
1.3749 -1.8262 0.1307
-0.1153 -0.4492 -0.1150
0.4894 -0.7805 -0.0480
-0.1348 0.5724 -0.2625
-0.0248 0.6087 -0.2642
0.6031 0.6651 -0.2521
0.8776 0.8551 -0.2706
1.4929 0.5253 -0.2035
1.5098 0.7800 -0.2395
1.6239 0.7737 -0.2350
1.8446 0.7617 -0.2262
1.9248 0.8730 -0.2396
2.0633 0.7135 -0.2122
2.4499 0.7657 -0.2073
2.5363 0.9093 -0.2252
2.7335 0.2918 -0.1301
2.8099 0.1904 -0.1131
2.8702 -0.1352 -0.0643
2.9201 -0.3616 -0.0302
2.9948 -0.1862 -0.0530
3.0701 -0.0692 -0.0674
3.1003 -0.6612 0.0186
3.3149 0.2397 -0.1040
3.3317 -0.2719 -0.0299
3.3672 -0.3470 -0.0179
3.3467 -0.6134 0.0197
3.3421 -0.7845 0.0441
3.4080 -0.7063 0.0350
3.4209 -0.7941 0.0480
3.4556 -0.8088 0.0513
3.4930 -0.8133 0.0531
3.5262 -0.8264 0.0561
3.5467 -0.8678 0.0627
3.5632 -0.9136 0.0698
3.6041 -0.9001 0.0692
3.6369 -0.9040 0.0708
3.6696 -0.9068 0.0722
1.3330 -1.8767 0.0991
0.4248 -0.9016 -0.1049
0.5098 -0.8933 -0.1028
0.5447 -0.8423 -0.1101
0.6450 -0.8487 -0.1049
0.5319 -0.6531 -0.1429
0.5875 -0.6109 -0.1479
0.3899 -0.1811 -0.2294
0.2100 0.1556 -0.2944
0.3327 0.1566 -0.2895
0.4042 0.2197 -0.2974
0.5013 0.2518 -0.2989
0.6209 0.2517 -0.2939
0.7997 0.1589 -0.2707
0.8919 0.1893 -0.2721
0.9477 0.2815 -0.2856
1.0237 0.3451 -0.2934
1.1188 0.3765 -0.2948
1.2901 0.2500 -0.2662
1.4073 0.2201 -0.2562
1.4708 0.3097 -0.2689
1.5612 0.3395 -0.2703
1.6516 0.3693 -0.2717
1.7419 0.3991 -0.2731
1.8039 0.5277 -0.2925
1.8971 0.5584 -0.2939
2.0056 0.5214 -0.2832
2.0766 0.6540 -0.3029
2.1707 0.6851 -0.3044
2.2696 0.6813 -0.2997
2.3628 0.7121 -0.3011
2.4620 0.6720 -0.2902
2.5553 0.6674 -0.2855
2.6434 0.7672 -0.2990
2.7356 0.7976 -0.3004
2.8218 0.5277 -0.2507
2.8819 0.0110 -0.1599
2.9385 -0.1679 -0.1270
3.0768 -0.0661 -0.1387
3.2974 -0.2054 -0.1059
3.3551 -0.2020 -0.1041
3.3075 -0.7802 -0.0072
3.3451 -0.7958 -0.0030
3.3850 -0.8004 -0.0006
3.4306 -0.7853 -0.0013
3.4657 -0.7997 0.0026
3.5215 -0.8562 0.0146
3.5495 -0.8781 0.0195
3.5917 -0.8642 0.0188
3.6423 -0.8319 0.0154
3.6762 -0.8363 0.0175
-0.2990 -0.6134 -0.2716
0.2563 -0.9361 -0.1796
0.3790 -0.9545 -0.1698
0.2423 -0.7683 -0.2136
0.3539 -0.7759 -0.2065
0.3697 -0.7025 -0.2203
0.6336 -0.8509 -0.1776
0.4239 -0.5638 -0.2451
0.5199 -0.5569 -0.2417
0.6320 -0.5685 -0.2338
0.7886 -0.6324 -0.2132
0.7668 -0.5002 -0.2405
0.8879 -0.4107 -0.2522
0.9822 -0.2743 -0.2746
1.1199 -0.3342 -0.2558
1.1973 -0.3086 -0.2570
1.4513 -0.2744 -0.2510
1.5476 -0.2912 -0.2429
1.6127 -0.2449 -0.2488
1.6613 -0.1555 -0.2641
1.7470 -0.1520 -0.2605
1.8078 -0.0814 -0.2715
1.9076 -0.1238 -0.2580
2.0024 -0.1638 -0.2453
2.0653 -0.0956 -0.2557
2.1305 -0.0255 -0.2664
2.2250 -0.0904 -0.2487
2.2956 -0.0444 -0.2543
2.3573 0.0741 -0.2748
2.4233 0.2012 -0.2967
2.5098 0.1503 -0.2822
2.5934 0.0787 -0.2638
2.6666 0.1762 -0.2795
2.7438 0.2532 -0.2909
2.8167 0.0140 -0.2398
2.8865 -0.0063 -0.2322
2.9339 -0.3088 -0.1698
2.9700 -0.5622 -0.1177
3.0476 -0.7596 -0.0746
3.0937 -0.7661 -0.0710
3.2365 -0.5259 -0.1115
3.3394 -0.3009 -0.1510
3.3089 -0.6311 -0.0870
3.3134 -0.7814 -0.0569
3.3512 -0.7968 -0.0520
3.3942 -0.7919 -0.0508
3.4403 -0.7767 -0.0515
3.4720 -0.8014 -0.0450
3.6024 -0.8564 -0.0275
4.0841 -0.0986 -0.1538
0.1612 -1.0249 -0.2399
0.5285 -1.2134 -0.1754
0.2792 -0.9665 -0.2462
0.3112 -0.9159 -0.2557
0.3627 -0.8784 -0.2611
0.3967 -0.8252 -0.2712
0.4860 -0.8173 -0.2677
0.6381 -0.8676 -0.2473
0.7946 -0.9287 -0.2241
0.7743 -0.8226 -0.2493
0.7839 -0.7395 -0.2676
0.8245 -0.6840 -0.2777
0.9243 -0.6931 -0.2698
0.9945 -0.6700 -0.2708
1.0519 -0.6305 -0.2764
1.1473 -0.6401 -0.2685
1.2052 -0.6005 -0.2741
1.2754 -0.5773 -0.2751
1.3670 -0.5881 -0.2672
1.4260 -0.5481 -0.2728
1.4956 -0.5251 -0.2739
1.5831 -0.5363 -0.2661
1.6436 -0.4968 -0.2715
1.7047 -0.4562 -0.2771
1.7819 -0.4512 -0.2736
1.8510 -0.4284 -0.2747
1.9201 -0.4056 -0.2757
1.9833 -0.3642 -0.2813
2.0584 -0.3600 -0.2778
2.1227 -0.3183 -0.2835
2.2008 -0.3325 -0.2756
2.2730 -0.3281 -0.2723
2.3350 -0.2687 -0.2821
2.3987 -0.2067 -0.2923
2.4710 -0.2033 -0.2888
2.5407 -0.1803 -0.2899
2.6115 -0.1775 -0.2863
2.6829 -0.2319 -0.2698
2.7502 -0.3183 -0.2462
2.9114 -0.6836 -0.1539
2.9648 -0.6660 -0.1547
3.1008 -0.7554 -0.1263
3.1572 -0.7050 -0.1344
3.1910 -0.7667 -0.1184
3.2399 -0.7506 -0.1192
3.2721 -0.7984 -0.1064
3.3165 -0.7930 -0.1050
3.3636 -0.7774 -0.1058
3.4139 -0.7516 -0.1086
3.4541 -0.7568 -0.1051
3.4784 -0.8031 -0.0931
3.5742 -0.8536 -0.0760
4.0811 0.0859 -0.2587
4.0801 -0.0272 -0.2331
0.4573 -1.1756 -0.2554
0.5347 -1.1663 -0.2524
0.5845 -1.0674 -0.2742
0.6333 -1.0340 -0.2794
0.7403 -1.0496 -0.2680
0.8033 -1.0288 -0.2690
0.9167 -1.0555 -0.2544
0.9664 -1.0239 -0.2590
1.0393 -1.0151 -0.2563
1.0897 -0.9832 -0.2609
1.1931 -1.0102 -0.2469
1.2438 -0.9792 -0.2513
1.3732 -0.9507 -0.2497
1.4421 -0.9433 -0.2469
1.4933 -0.9111 -0.2515
1.5459 -0.8795 -0.2560
1.6211 -0.8842 -0.2496
1.6880 -0.8774 -0.2467
1.7472 -0.8579 -0.2476
1.8001 -0.8252 -0.2523
1.8770 -0.8436 -0.2424
1.9355 -0.8243 -0.2433
1.9989 -0.8176 -0.2406
2.0525 -0.7857 -0.2451
2.1110 -0.7664 -0.2459
2.1770 -0.7731 -0.2397
2.2379 -0.7663 -0.2373
2.2925 -0.7350 -0.2415
2.3450 -0.6892 -0.2495
2.3942 -0.6139 -0.2653
2.4583 -0.6233 -0.2585
2.5159 -0.5890 -0.2633
2.5707 -0.5098 -0.2797
2.6376 -0.5926 -0.2540
2.6987 -0.6682 -0.2306
2.7547 -0.7139 -0.2151
2.8117 -0.5912 -0.2424
2.8695 -0.5579 -0.2469
2.9301 -0.4961 -0.2585
2.9857 -0.5063 -0.2521
3.0231 -0.6497 -0.2129
3.0573 -0.7627 -0.1818
3.2110 -0.4595 -0.2485
3.2378 -0.5789 -0.2162
3.2590 -0.6962 -0.1849
3.2752 -0.8100 -0.1548
3.3138 -0.8247 -0.1484
3.3635 -0.7992 -0.1515
3.4137 -0.7734 -0.1546
3.4643 -0.7476 -0.1577
3.4924 -0.7841 -0.1464
3.5154 -0.8285 -0.1335
3.5409 -0.8608 -0.1236
3.5811 -0.8547 -0.1224
3.6043 -0.8857 -0.1128
3.6933 -0.8492 -0.1160
0.6172 -1.3568 -0.2596
0.6735 -1.3382 -0.2604
0.7049 -1.3015 -0.2684
0.7862 -1.3010 -0.2622
0.8544 -1.2917 -0.2595
0.9218 -1.2826 -0.2568
0.9664 -1.2547 -0.2612
1.0331 -1.2458 -0.2585
1.0888 -1.2275 -0.2593
1.1344 -1.1993 -0.2638
1.1807 -1.1709 -0.2682
1.2276 -1.1422 -0.2727
1.3114 -1.1540 -0.2628
1.3757 -1.1459 -0.2600
1.4310 -1.1277 -0.2609
1.4863 -1.1094 -0.2617
1.5264 -1.0699 -0.2698
1.5824 -1.0515 -0.2706
1.6384 -1.0330 -0.2715
1.7009 -1.0255 -0.2687
1.7566 -1.0071 -0.2696
1.8181 -1.0000 -0.2668
1.8786 -0.9922 -0.2643
1.9335 -0.9740 -0.2651
1.9840 -0.9452 -0.2693
2.0303 -0.9037 -0.2775
2.0905 -0.8970 -0.2747
2.1462 -0.8786 -0.2755
2.2018 -0.8602 -0.2764
2.2575 -0.8419 -0.2772
2.3131 -0.8235 -0.2781
2.3734 -0.8289 -0.2719
2.4362 -0.8577 -0.2588
2.4818 -0.7810 -0.2770
2.5343 -0.7374 -0.2852
2.5924 -0.7445 -0.2787
2.6470 -0.7133 -0.2832
2.7036 -0.7321 -0.2735
2.7582 -0.7515 -0.2637
2.8133 -0.6838 -0.2786
2.8683 -0.6656 -0.2794
2.9232 -0.6475 -0.2803
2.9769 -0.6419 -0.2777
3.0251 -0.6745 -0.2646
3.1233 -0.6887 -0.2529
3.2119 -0.4875 -0.3031
3.2592 -0.5113 -0.2926
3.2738 -0.6612 -0.2489
3.3036 -0.7262 -0.2282
3.3374 -0.7646 -0.2146
3.3697 -0.8005 -0.2019
3.4066 -0.8156 -0.1948
3.4566 -0.7900 -0.1981
3.5070 -0.7643 -0.2015
3.5415 -0.7802 -0.1942
3.5751 -0.7954 -0.1873
1.0880 -1.4283 -0.2581
1.1302 -1.4044 -0.2618
1.1894 -1.3949 -0.2596
1.2489 -1.3863 -0.2571
1.2993 -1.3697 -0.2578
1.3572 -1.3606 -0.2556
1.3851 -1.3203 -0.2657
1.4430 -1.3112 -0.2635
1.5076 -1.3110 -0.2579
1.5833 -1.3262 -0.2465
1.5951 -1.2610 -0.2658
1.6522 -1.2532 -0.2632
1.7417 -1.2940 -0.2426
1.7695 -1.2456 -0.2553
1.8136 -1.2201 -0.2594
1.8687 -1.2129 -0.2568
1.9183 -1.1965 -0.2576
1.9760 -1.1966 -0.2525
2.0406 -1.2144 -0.2412
2.0923 -1.2074 -0.2389
2.1335 -1.1747 -0.2455
2.1818 -1.1588 -0.2462
2.2356 -1.1601 -0.2411
2.2757 -1.1178 -0.2508
2.3174 -1.0749 -0.2606
2.3602 -1.0297 -0.2710
2.4195 -1.0603 -0.2562
2.4699 -1.0537 -0.2538
2.5223 -1.0655 -0.2455
2.5710 -1.0585 -0.2434
2.6148 -0.9959 -0.2591
2.6611 -0.9304 -0.2756
2.7122 -0.9537 -0.2638
2.7612 -0.9767 -0.2523
2.8112 -0.8909 -0.2747
2.8623 -0.8540 -0.2818
2.9110 -0.8580 -0.2762
2.9565 -0.8831 -0.2644
3.0040 -0.8775 -0.2620
3.0279 -1.0212 -0.2149
3.1011 -0.8455 -0.2635
3.1518 -0.8187 -0.2674
3.2030 -0.7917 -0.2713
3.2494 -0.7865 -0.2689
3.2923 -0.7924 -0.2632
3.3377 -0.7865 -0.2611
3.3728 -0.8120 -0.2500
3.4130 -0.8168 -0.2450
3.4741 -0.7605 -0.2572
3.5298 -0.7231 -0.2641
3.5866 -0.6853 -0.2709
3.6399 -0.6576 -0.2749
3.6836 -0.6532 -0.2724
3.7166 -0.6715 -0.2638
3.7492 -0.6878 -0.2558
3.7502 -0.7658 -0.2313
3.6613 -1.0131 -0.1618
1.2691 -1.7679 -0.1805
1.3028 -1.7499 -0.1834
1.2419 -1.6613 -0.2197
1.3956 -1.7322 -0.1804
1.2508 -1.5158 -0.2686
1.3277 -1.5263 -0.2575
1.3597 -1.4978 -0.2642
1.4135 -1.4890 -0.2619
1.4734 -1.4872 -0.2567
1.5131 -1.4651 -0.2604
1.5594 -1.4498 -0.2611
1.5998 -1.4275 -0.2648
1.6292 -1.3909 -0.2744
1.6929 -1.3968 -0.2662
1.7651 -1.4168 -0.2523
1.7810 -1.3588 -0.2706
1.8422 -1.3655 -0.2623
1.8882 -1.3503 -0.2630
1.9386 -1.3427 -0.2607
1.9764 -1.3122 -0.2675
2.1187 -1.2743 -0.2666
2.1617 -1.2511 -0.2703
2.2080 -1.2358 -0.2710
2.2492 -1.2043 -0.2778
2.3492 -1.1982 -0.2701
2.3971 -1.1914 -0.2678
2.4413 -1.1678 -0.2715
2.4888 -1.1611 -0.2692
2.5357 -1.1536 -0.2672
2.6270 -1.1235 -0.2686
2.6718 -1.0918 -0.2751
2.7175 -1.0587 -0.2819
2.7640 -1.0614 -0.2765
2.8104 -1.0371 -0.2802
2.8562 -1.0309 -0.2779
2.9038 -0.9973 -0.2847
2.9446 -1.0357 -0.2676
2.9887 -1.0291 -0.2656
3.0193 -1.1057 -0.2363
3.1347 -0.9301 -0.2852
3.1810 -0.9148 -0.2859
3.2298 -0.8897 -0.2897
3.2790 -0.8645 -0.2936
3.3229 -0.8590 -0.2912
3.3663 -0.8536 -0.2888
3.4093 -0.8484 -0.2864
3.4517 -0.8434 -0.2839
3.5015 -0.8180 -0.2878
3.5475 -0.8028 -0.2885
3.5936 -0.7876 -0.2892
3.6351 -0.7829 -0.2867
3.6718 -0.7877 -0.2815
3.6088 -1.1296 -0.1706
1.1951 -1.7259 -0.2494
1.2653 -1.7315 -0.2397
1.3135 -1.7225 -0.2379
1.4087 -1.7049 -0.2342
1.3947 -1.6452 -0.2579
1.4622 -1.6526 -0.2479
1.5043 -1.6388 -0.2486
1.5410 -1.6197 -0.2517
1.5832 -1.6058 -0.2524
1.6305 -1.5971 -0.2505
1.6677 -1.5779 -0.2537
1.7192 -1.5748 -0.2493
1.7655 -1.5664 -0.2474
1.8030 -1.5471 -0.2506
1.8367 -1.5222 -0.2562
1.8623 -1.4840 -0.2677
1.9286 -1.5057 -0.2525
1.9815 -1.5100 -0.2452
2.0190 -1.4897 -0.2487
2.1020 -1.4623 -0.2500
2.1466 -1.4555 -0.2477
2.1978 -1.4654 -0.2386
2.2312 -1.4336 -0.2468
2.2723 -1.4200 -0.2474
2.3215 -1.4315 -0.2379
2.3619 -1.4182 -0.2385
2.3943 -1.3738 -0.2515
2.4310 -1.3399 -0.2602
2.4805 -1.3652 -0.2455
2.5182 -1.3329 -0.2534
2.5602 -1.3250 -0.2518
2.6020 -1.3181 -0.2499
2.6435 -1.3114 -0.2480
2.6836 -1.2843 -0.2537
2.7249 -1.2776 -0.2518
2.7659 -1.2512 -0.2572
2.8067 -1.2506 -0.2530
2.8498 -1.2017 -0.2666
2.8910 -1.1951 -0.2647
2.9310 -1.1967 -0.2597
2.9715 -1.1893 -0.2581
3.0114 -1.1831 -0.2562
3.0537 -1.1622 -0.2594
3.1025 -1.1114 -0.2731
3.1500 -1.0740 -0.2819
3.1867 -1.0837 -0.2743
3.2332 -1.0535 -0.2806
3.2806 -1.0230 -0.2868
3.3206 -1.0177 -0.2845
3.3549 -1.0282 -0.2769
3.4030 -0.9974 -0.2832
3.4420 -0.9925 -0.2808
3.4843 -0.9785 -0.2815
3.5265 -0.9646 -0.2821
3.5688 -0.9507 -0.2828
3.5624 -1.0418 -0.2495
3.5809 -1.1377 -0.2118
1.2205 -1.8311 -0.2519
1.2400 -1.8050 -0.2602
1.2675 -1.7831 -0.2657
1.3338 -1.7878 -0.2560
1.3672 -1.7699 -0.2593
1.4306 -1.7745 -0.2500
1.4638 -1.7567 -0.2533
1.5033 -1.7437 -0.2539
1.5379 -1.7263 -0.2568
1.5673 -1.7039 -0.2624
1.6127 -1.6958 -0.2603
1.6570 -1.6871 -0.2586
1.6967 -1.6740 -0.2592
1.7137 -1.6359 -0.2726
1.7721 -1.6432 -0.2628
1.8075 -1.6246 -0.2661
1.8475 -1.6114 -0.2667
1.8678 -1.5713 -0.2805
1.9165 -1.5690 -0.2757
1.9571 -1.5556 -0.2763
2.0076 -1.5586 -0.2691
2.1599 -1.4887 -0.2794
2.2078 -1.4925 -0.2722
2.2566 -1.5020 -0.2627
2.2919 -1.4776 -0.2684
2.3316 -1.4645 -0.2690
2.3778 -1.4738 -0.2598
2.4154 -1.4555 -0.2627
2.4494 -1.4197 -0.2731
2.4880 -1.4001 -0.2765
2.5270 -1.3804 -0.2799
2.5704 -1.3916 -0.2702
2.6107 -1.3852 -0.2681
2.6509 -1.3837 -0.2640
2.6902 -1.3776 -0.2618
2.7285 -1.3394 -0.2727
2.7681 -1.3204 -0.2756
2.8071 -1.3262 -0.2687
2.8471 -1.3003 -0.2745
2.8855 -1.3004 -0.2699
2.9283 -1.2548 -0.2832
2.9674 -1.2488 -0.2811
3.0052 -1.2481 -0.2769
3.0470 -1.2225 -0.2823
3.0869 -1.2094 -0.2829
3.1285 -1.1888 -0.2863
3.1633 -1.1960 -0.2793
3.2046 -1.1764 -0.2823
3.2443 -1.1633 -0.2829
3.2861 -1.1436 -0.2860
3.3286 -1.1227 -0.2894
3.3686 -1.1095 -0.2900
3.3947 -1.1324 -0.2777
3.4427 -1.0979 -0.2860
3.4853 -1.0779 -0.2890
3.5025 -1.1155 -0.2719
3.4859 -1.2212 -0.2312
3.5127 -1.2281 -0.2253
3.6727 -1.0348 -0.2844
1.3108 -1.8948 -0.2579
1.3482 -1.8825 -0.2584
1.4022 -1.8812 -0.2521
1.4392 -1.8690 -0.2526
1.5113 -1.8823 -0.2377
1.5230 -1.8521 -0.2493
1.5457 -1.8290 -0.2564
1.5921 -1.8244 -0.2525
1.6240 -1.8080 -0.2555
1.6910 -1.8230 -0.2404
1.7315 -1.8155 -0.2385
1.7629 -1.7993 -0.2415
1.7796 -1.7674 -0.2532
1.8163 -1.7553 -0.2538
1.8424 -1.7311 -0.2609
1.9035 -1.7480 -0.2458
1.9493 -1.7485 -0.2397
1.9757 -1.7242 -0.2469
2.0057 -1.7036 -0.2520
2.0944 -1.7055 -0.2398
2.1299 -1.6938 -0.2404
2.1583 -1.6688 -0.2476
2.1942 -1.6570 -0.2481
2.2196 -1.6223 -0.2599
2.2683 -1.6384 -0.2467
2.3041 -1.6266 -0.2473
2.3380 -1.6095 -0.2503
2.3785 -1.6118 -0.2442
2.4127 -1.5956 -0.2468
2.4472 -1.5794 -0.2495
2.4818 -1.5621 -0.2525
2.5197 -1.5603 -0.2485
2.5513 -1.5236 -0.2604
2.5910 -1.5368 -0.2496
2.6271 -1.5298 -0.2480
2.6630 -1.5228 -0.2464
2.6974 -1.4909 -0.2558
2.7332 -1.4694 -0.2606
2.7693 -1.4731 -0.2544
2.8051 -1.4613 -0.2550
2.8419 -1.4335 -0.2623
2.8766 -1.4377 -0.2561
2.9131 -1.4198 -0.2592
2.9460 -1.4294 -0.2508
2.9867 -1.3857 -0.2645
3.0209 -1.3842 -0.2608
3.0654 -1.3325 -0.2776
3.0953 -1.3499 -0.2662
3.1315 -1.3380 -0.2667
3.1662 -1.3314 -0.2651
3.2059 -1.3075 -0.2704
3.2366 -1.3130 -0.2641
3.2787 -1.2835 -0.2715
3.3151 -1.2715 -0.2721
3.3466 -1.2719 -0.2679
3.3929 -1.2351 -0.2779
3.4374 -1.2048 -0.2854
3.4549 -1.2362 -0.2696
3.4795 -1.2485 -0.2611
3.5122 -1.2426 -0.2594
3.5726 -1.1817 -0.2781
1.3561 -1.9634 -0.2625
1.3915 -1.9518 -0.2631
1.4369 -1.9465 -0.2593
1.4671 -1.9316 -0.2620
1.5128 -1.9272 -0.2577
1.5561 -1.9217 -0.2543
1.5908 -1.9102 -0.2549
1.6177 -1.8926 -0.2593
1.6527 -1.8811 -0.2599
1.6786 -1.8619 -0.2652
1.7265 -1.8616 -0.2588
1.7530 -1.8422 -0.2641
1.7733 -1.8161 -0.2734
1.8232 -1.8190 -0.2652
1.8685 -1.8186 -0.2591
2.0103 -1.7766 -0.2590
2.0531 -1.7770 -0.2530
2.0690 -1.7379 -0.2690
2.1557 -1.7432 -0.2545
2.2489 -1.6892 -0.2668
2.3679 -1.6955 -0.2474
2.5050 -1.6638 -0.2432
2.6011 -1.6049 -0.2573
2.6342 -1.5853 -0.2619
2.6690 -1.5825 -0.2583
2.7367 -1.5467 -0.2657
2.7711 -1.5256 -0.2707
2.8055 -1.5191 -0.2690
2.8399 -1.5077 -0.2695
2.8735 -1.5064 -0.2655
2.9777 -1.4623 -0.2716
3.0122 -1.4509 -0.2721
3.0478 -1.4343 -0.2749
3.0823 -1.4229 -0.2755
3.1183 -1.4062 -0.2783
3.1515 -1.4001 -0.2765
3.1877 -1.3833 -0.2793
3.2225 -1.3719 -0.2799
3.2606 -1.3505 -0.2845
3.2956 -1.3390 -0.2850
3.3305 -1.3275 -0.2856
3.3613 -1.3260 -0.2820
3.3980 -1.3101 -0.2844
3.4282 -1.3088 -0.2808
3.4676 -1.2871 -0.2854
3.4945 -1.2918 -0.2795
3.5289 -1.2804 -0.2801
3.5665 -1.2632 -0.2829
1.5424 -2.0201 -0.2475
1.5913 -2.0202 -0.2402
1.6156 -2.0045 -0.2444
1.6432 -1.9906 -0.2472
1.6638 -1.9713 -0.2537
1.6851 -1.9518 -0.2602
1.7071 -1.9320 -0.2668
1.7583 -1.9363 -0.2571
1.7981 -1.9318 -0.2534
1.8238 -1.9147 -0.2581
1.8631 -1.9104 -0.2544
1.8956 -1.8997 -0.2549
1.9158 -1.8757 -0.2638
1.9572 -1.8745 -0.2582
2.0011 -1.8773 -0.2503
2.0303 -1.8629 -0.2531
2.0723 -1.8654 -0.2456
2.1019 -1.8518 -0.2480
2.1380 -1.8476 -0.2447
2.1677 -1.8339 -0.2471
2.1976 -1.8202 -0.2495
2.2313 -1.8129 -0.2481
2.2631 -1.8024 -0.2486
2.2980 -1.7986 -0.2453
2.3282 -1.7848 -0.2476
2.3612 -1.7778 -0.2462
2.3866 -1.7501 -0.2562
2.4199 -1.7430 -0.2548
2.4550 -1.7430 -0.2496
2.4857 -1.7290 -0.2520
2.5200 -1.7292 -0.2468
2.5500 -1.7116 -0.2510
2.5800 -1.6902 -0.2572
2.6139 -1.6944 -0.2501
2.6451 -1.6802 -0.2525
2.6766 -1.6660 -0.2549
2.7084 -1.6555 -0.2554
2.7401 -1.6412 -0.2578
2.7719 -1.6423 -0.2525
2.8038 -1.6240 -0.2568
2.8361 -1.6057 -0.2612
2.8678 -1.5991 -0.2597
2.9002 -1.5846 -0.2621
2.9335 -1.5649 -0.2669
2.9649 -1.5593 -0.2650
2.9946 -1.5611 -0.2598
3.0273 -1.5464 -0.2622
3.0592 -1.5359 -0.2627
3.0912 -1.5254 -0.2632
3.1218 -1.5191 -0.2617
3.1606 -1.4861 -0.2723
3.1854 -1.4981 -0.2627
3.2219 -1.4746 -0.2690
3.3484 -1.4366 -0.2690
3.3763 -1.4352 -0.2656
3.4081 -1.4247 -0.2661
3.4422 -1.4096 -0.2685
3.4741 -1.3990 -0.2690
3.5192 -1.3640 -0.2797
1.5770 -2.1318 -0.2205
1.5566 -2.0936 -0.2440
1.5593 -2.0670 -0.2576
1.5935 -2.0586 -0.2566
1.6138 -2.0414 -0.2625
1.6556 -2.0381 -0.2576
1.6977 -2.0357 -0.2522
1.7213 -2.0202 -0.2566
1.7488 -2.0073 -0.2590
1.7773 -1.9951 -0.2610
1.7979 -1.9759 -0.2678
1.8451 -1.9794 -0.2585
1.8677 -1.9614 -0.2644
1.9158 -1.9675 -0.2535
1.9351 -1.9459 -0.2619
1.9614 -1.9305 -0.2658
1.9953 -1.9232 -0.2643
2.0333 -1.9211 -0.2593
2.0973 -1.9038 -0.2583
2.1236 -1.8875 -0.2627
2.1509 -1.8718 -0.2667
2.1875 -1.8702 -0.2617
2.2221 -1.8664 -0.2582
2.2545 -1.8596 -0.2567
2.3446 -1.8260 -0.2601
2.4737 -1.8082 -0.2489
2.5070 -1.8116 -0.2419
2.5630 -1.7759 -0.2518
2.5924 -1.7624 -0.2543
2.6207 -1.7387 -0.2623
2.6513 -1.7287 -0.2627
2.6823 -1.7260 -0.2592
2.7732 -1.6960 -0.2606
2.8040 -1.6744 -0.2671
2.8358 -1.6487 -0.2757
2.8649 -1.6582 -0.2660
2.8974 -1.6322 -0.2746
2.9271 -1.6300 -0.2710
2.9605 -1.6047 -0.2791
2.9925 -1.5903 -0.2816
3.0221 -1.5872 -0.2785
3.1140 -1.5607 -0.2779
3.1423 -1.5590 -0.2743
3.1716 -1.5532 -0.2727
3.2038 -1.5387 -0.2752
3.2688 -1.5096 -0.2803
3.2979 -1.5039 -0.2787
3.3361 -1.4769 -0.2869
3.3653 -1.4711 -0.2853
3.3926 -1.4688 -0.2822
3.4166 -1.4723 -0.2765
3.4521 -1.4530 -0.2811
1.6007 -2.1251 -0.2544
1.6259 -2.1130 -0.2569
1.6484 -2.0989 -0.2610
1.6955 -2.1004 -0.2521
1.7285 -2.0934 -0.2505
1.7667 -2.0902 -0.2458
1.7955 -2.0807 -0.2462
1.8243 -2.0712 -0.2466
1.8497 -2.0590 -0.2492
1.8786 -2.0495 -0.2496
1.9075 -2.0400 -0.2501
1.9470 -2.0402 -0.2432
1.9806 -2.0357 -0.2400
1.9991 -2.0164 -0.2477
2.0326 -2.0120 -0.2445
2.0455 -1.9850 -0.2575
2.0852 -1.9880 -0.2490
2.1139 -1.9785 -0.2495
2.1409 -1.9667 -0.2515
2.1735 -1.9626 -0.2483
2.2073 -1.9609 -0.2435
2.2322 -1.9461 -0.2476
2.2621 -1.9391 -0.2464
2.2906 -1.9297 -0.2469
2.3120 -1.9065 -0.2562
2.3463 -1.9085 -0.2493
2.3748 -1.8990 -0.2498
2.4043 -1.8922 -0.2486
2.4328 -1.8828 -0.2491
2.4584 -1.8648 -0.2548
2.4864 -1.8528 -0.2568
2.5158 -1.8459 -0.2556
2.5465 -1.8452 -0.2508
2.5733 -1.8269 -0.2565
2.6025 -1.8211 -0.2548
2.6311 -1.8116 -0.2553
2.6600 -1.8049 -0.2541
2.6892 -1.8048 -0.2493
2.7175 -1.7983 -0.2481
2.7455 -1.7701 -0.2592
2.7740 -1.7740 -0.2521
2.8029 -1.7512 -0.2600
2.8316 -1.7417 -0.2605
2.8599 -1.7361 -0.2588
2.8885 -1.7267 -0.2592
2.9188 -1.7063 -0.2655
2.9470 -1.7008 -0.2638
2.9766 -1.6872 -0.2664
3.0039 -1.6849 -0.2631
3.0326 -1.6754 -0.2636
3.0613 -1.6659 -0.2640
3.0900 -1.6564 -0.2644
3.1163 -1.6544 -0.2611
3.1459 -1.6418 -0.2632
3.1788 -1.6205 -0.2695
3.2148 -1.5925 -0.2791
3.2380 -1.5982 -0.2720
3.2669 -1.5886 -0.2725
3.2944 -1.5824 -0.2713
3.3175 -1.5852 -0.2658
3.3461 -1.5757 -0.2662
3.3730 -1.5697 -0.2651
3.4058 -1.5523 -0.2693
3.4345 -1.5428 -0.2697
1.6351 -2.1507 -0.2675
1.7081 -2.1417 -0.2597
1.7401 -2.1349 -0.2580
1.7615 -2.1212 -0.2622
1.7897 -2.1119 -0.2626
1.8178 -2.1027 -0.2631
1.8546 -2.0999 -0.2580
1.8825 -2.0907 -0.2585
1.9023 -2.0748 -0.2644
1.9305 -2.0655 -0.2648
1.9640 -2.0610 -0.2614
2.0221 -2.0447 -0.2606
2.0520 -2.0376 -0.2594
2.0837 -2.0328 -0.2565
2.1114 -2.0237 -0.2569
2.1408 -2.0168 -0.2557
2.2257 -1.9925 -0.2548
2.3159 -1.9797 -0.2461
2.3499 -1.9844 -0.2371
2.3734 -1.9692 -0.2419
2.4220 -1.9390 -0.2511
2.4834 -1.9432 -0.2375
2.5864 -1.8932 -0.2486
2.6661 -1.8557 -0.2565
2.6946 -1.8660 -0.2452
2.7753 -1.8074 -0.2654
2.8022 -1.8136 -0.2569
2.8289 -1.8104 -0.2539
2.8565 -1.7957 -0.2577
2.8840 -1.7838 -0.2598
2.9126 -1.7659 -0.2653
2.9408 -1.7528 -0.2680
2.9670 -1.7508 -0.2645
2.9937 -1.7448 -0.2632
3.0225 -1.7296 -0.2670
3.0797 -1.7042 -0.2718
3.1104 -1.6856 -0.2773
3.1431 -1.6626 -0.2851
3.1690 -1.6597 -0.2821
3.1970 -1.6504 -0.2825
3.2251 -1.6411 -0.2830
3.2532 -1.6319 -0.2834
3.2793 -1.6270 -0.2816
3.3026 -1.6278 -0.2769
3.3287 -1.6220 -0.2756
3.3563 -1.6129 -0.2760
1.7442 -2.1942 -0.2532
1.7597 -2.1788 -0.2599
1.8000 -2.1786 -0.2523
1.8207 -2.1661 -0.2561
1.8738 -2.1486 -0.2569
1.9081 -2.1457 -0.2522
1.9202 -2.1258 -0.2623
1.9494 -2.1190 -0.2610
1.9847 -2.1176 -0.2551
2.0179 -2.1151 -0.2503
2.0498 -2.1120 -0.2461
2.0736 -2.1013 -0.2482
2.0963 -2.0892 -0.2515
2.1296 -2.0885 -0.2456
2.1517 -2.0756 -0.2494
2.1759 -2.0648 -0.2516
2.2088 -2.0651 -0.2450
2.2297 -2.0498 -0.2506
2.2501 -2.0329 -0.2574
2.2803 -2.0304 -0.2532
2.3041 -2.0178 -0.2565
2.3350 -2.0179 -0.2505
2.3634 -2.0141 -0.2474
2.3880 -2.0032 -0.2495
2.4128 -1.9922 -0.2517
2.4378 -1.9812 -0.2538
2.4656 -1.9776 -0.2507
2.4923 -1.9716 -0.2494
2.5438 -1.9546 -0.2502
2.5673 -1.9357 -0.2576
2.5953 -1.9376 -0.2509
2.6199 -1.9211 -0.2566
2.6462 -1.9152 -0.2552
2.6716 -1.9012 -0.2592
2.6985 -1.9054 -0.2514
2.7242 -1.8951 -0.2529
2.7499 -1.8754 -0.2604
2.7760 -1.8649 -0.2619
2.8018 -1.8639 -0.2576
2.8279 -1.8524 -0.2598
2.8539 -1.8439 -0.2602
2.8796 -1.8382 -0.2588
2.9060 -1.8267 -0.2610
2.9304 -1.8271 -0.2561
2.9557 -1.8206 -0.2553
2.9852 -1.7959 -0.2651
3.0108 -1.7893 -0.2644
3.0409 -1.7663 -0.2730
3.0674 -1.7576 -0.2734
3.0891 -1.7635 -0.2656
3.1151 -1.7549 -0.2660
3.1444 -1.7378 -0.2711
3.1720 -1.7259 -0.2733
3.1894 -1.7388 -0.2618
3.2261 -1.7052 -0.2759
3.2496 -1.7031 -0.2727
3.2775 -1.6911 -0.2749
3.2928 -1.7047 -0.2634
3.3186 -1.6961 -0.2638
3.3427 -1.6910 -0.2624
3.3684 -1.6825 -0.2628
1.7826 -2.2219 -0.2587
1.8031 -2.2105 -0.2621
1.8365 -2.2069 -0.2577
1.8619 -2.1985 -0.2580
1.8901 -2.1920 -0.2566
1.9216 -2.1880 -0.2528
1.9425 -2.1765 -0.2562
1.9661 -2.1669 -0.2578
1.9915 -2.1585 -0.2582
2.0207 -2.1535 -0.2556
2.0436 -2.1432 -0.2578
2.0675 -2.1334 -0.2593
2.0851 -2.1174 -0.2664
2.1182 -2.1167 -0.2601
2.1416 -2.1062 -0.2623
2.1732 -2.1050 -0.2567
2.2207 -2.0847 -0.2605
2.2738 -2.0718 -0.2582
2.5529 -1.9899 -0.2557
2.5787 -1.9860 -0.2531
2.6051 -1.9866 -0.2473
2.6296 -1.9785 -0.2477
2.6537 -1.9678 -0.2499
2.6782 -1.9597 -0.2503
2.7519 -1.9354 -0.2514
2.8012 -1.9145 -0.2552
2.8507 -1.8963 -0.2572
2.9027 -1.8643 -0.2678
2.9282 -1.8541 -0.2695
2.9530 -1.8477 -0.2686
2.9793 -1.8344 -0.2721
3.0025 -1.8342 -0.2675
3.0328 -1.8075 -0.2791
3.0558 -1.8073 -0.2745
3.0788 -1.8062 -0.2705
3.1076 -1.7875 -0.2771
3.1330 -1.7791 -0.2775
3.2517 -1.7547 -0.2695
3.2800 -1.7398 -0.2736
3.3063 -1.7293 -0.2753
3.3267 -1.7300 -0.2707
1.8193 -2.2698 -0.2481
1.8484 -2.2649 -0.2453
1.8692 -2.2552 -0.2476
1.8893 -2.2449 -0.2504
1.9086 -2.2340 -0.2539
1.9346 -2.2272 -0.2531
1.9693 -2.2268 -0.2459
1.9827 -2.2113 -0.2538
2.0027 -2.2002 -0.2573
2.0349 -2.1987 -0.2514
2.0628 -2.1941 -0.2486
2.0896 -2.1889 -0.2464
2.1068 -2.1750 -0.2525
2.1307 -2.1671 -0.2528
2.1534 -2.1578 -0.2545
2.1799 -2.1527 -0.2523
2.2038 -2.1448 -0.2527
2.2307 -2.1405 -0.2499
2.2505 -2.1276 -0.2547
2.2771 -2.1234 -0.2519
2.3020 -2.1170 -0.2510
2.3267 -2.1107 -0.2501
2.3527 -2.1067 -0.2473
2.3742 -2.0951 -0.2508
2.3979 -2.0872 -0.2512
2.4235 -2.0834 -0.2484
2.4463 -2.0740 -0.2500
2.4690 -2.0638 -0.2523
2.4942 -2.0600 -0.2494
2.5178 -2.0523 -0.2498
2.5423 -2.0478 -0.2476
2.5658 -2.0401 -0.2480
2.5872 -2.0229 -0.2554
2.6106 -2.0134 -0.2570
2.6354 -2.0116 -0.2529
2.6590 -2.0038 -0.2532
2.6834 -2.0040 -0.2479
2.7066 -1.9936 -0.2501
2.7297 -1.9741 -0.2588
2.7536 -1.9662 -0.2592
2.7774 -1.9583 -0.2596
2.8013 -1.9477 -0.2618
2.8238 -1.9577 -0.2500
2.8470 -1.9519 -0.2491
2.8733 -1.9221 -0.2642
2.8980 -1.9093 -0.2678
2.9212 -1.9063 -0.2650
2.9456 -1.8964 -0.2666
2.9663 -1.9024 -0.2580
2.9907 -1.8916 -0.2603
3.0164 -1.8767 -0.2651
3.0426 -1.8616 -0.2700
3.0656 -1.8568 -0.2685
3.0907 -1.8458 -0.2708
3.1148 -1.8378 -0.2711
3.1359 -1.8373 -0.2670
3.1535 -1.8443 -0.2583
3.1847 -1.8193 -0.2690
3.2051 -1.8190 -0.2648
3.2289 -1.8112 -0.2652
3.2554 -1.7978 -0.2688
3.2753 -1.7977 -0.2646
3.2971 -1.7933 -0.2630
3.3208 -1.7855 -0.2634
1.8119 -2.2914 -0.2631
1.8428 -2.2876 -0.2589
1.8753 -2.2851 -0.2533
1.8985 -2.2775 -0.2537
1.9168 -2.2669 -0.2573
1.9485 -2.2646 -0.2518
1.9885 -2.2450 -0.2571
2.0177 -2.2418 -0.2528
2.0349 -2.2297 -0.2578
2.0533 -2.2182 -0.2621
2.0837 -2.2163 -0.2565
2.1129 -2.2140 -0.2516
2.1394 -2.2098 -0.2487
2.1469 -2.1873 -0.2635
2.1790 -2.1886 -0.2553
2.1950 -2.1733 -0.2629
2.2251 -2.1733 -0.2560
2.2470 -2.1643 -0.2577
2.3001 -2.1586 -0.2498
2.3447 -2.1421 -0.2518
2.4594 -2.1061 -0.2523
2.5309 -2.0934 -0.2453
2.5533 -2.0860 -0.2457
2.6199 -2.0604 -0.2494
2.6425 -2.0530 -0.2497
2.6667 -2.0595 -0.2394
2.6887 -2.0505 -0.2411
2.7329 -2.0304 -0.2458
2.7552 -2.0139 -0.2528
2.7777 -2.0083 -0.2518
2.8005 -1.9972 -0.2548
2.8676 -1.9805 -0.2518
2.8934 -1.9528 -0.2663
2.9165 -1.9452 -0.2666
2.9414 -1.9288 -0.2730
2.9664 -1.9142 -0.2781
2.9880 -1.9134 -0.2737
3.0086 -1.9148 -0.2680
3.0509 -1.9109 -0.2613
3.0956 -1.8980 -0.2607
3.1900 -1.8605 -0.2668
3.2139 -1.8507 -0.2685
3.2380 -1.8410 -0.2702
3.2633 -1.8290 -0.2733
3.2840 -1.8258 -0.2709
1.8280 -2.3422 -0.2491
1.8588 -2.3392 -0.2440
1.8701 -2.3265 -0.2512
1.8985 -2.3225 -0.2474
1.9184 -2.3141 -0.2491
1.9425 -2.3080 -0.2481
1.9645 -2.3008 -0.2484
1.9884 -2.2947 -0.2474
2.0103 -2.2874 -0.2477
2.0323 -2.2802 -0.2481
2.0440 -2.2655 -0.2566
2.0695 -2.2607 -0.2542
2.0917 -2.2534 -0.2546
2.1170 -2.2486 -0.2522
2.1375 -2.2400 -0.2539
2.1668 -2.2394 -0.2474
2.1859 -2.2295 -0.2504
2.2012 -2.2154 -0.2576
2.2221 -2.2067 -0.2593
2.2493 -2.2050 -0.2542
2.2772 -2.2048 -0.2477
2.2912 -2.1875 -0.2576
2.3176 -2.1860 -0.2524
2.3396 -2.1788 -0.2528
2.3615 -2.1716 -0.2531
2.3862 -2.1688 -0.2493
2.4046 -2.1556 -0.2552
2.4306 -2.1560 -0.2486
2.4501 -2.1442 -0.2531
2.4713 -2.1353 -0.2548
2.4932 -2.1281 -0.2551
2.5163 -2.1241 -0.2527
2.5398 -2.1218 -0.2489
2.5600 -2.1097 -0.2534
2.5802 -2.0958 -0.2593
2.6041 -2.0970 -0.2527
2.6249 -2.0847 -0.2572
2.6477 -2.0826 -0.2533
2.6697 -2.0771 -0.2523
2.6916 -2.0717 -0.2512
2.7135 -2.0681 -0.2488
2.7349 -2.0556 -0.2533
2.7566 -2.0448 -0.2564
2.7785 -2.0358 -0.2581
2.8003 -2.0304 -0.2571
2.8225 -2.0195 -0.2602
2.8434 -2.0216 -0.2535
2.8661 -2.0069 -0.2595
2.8899 -1.9882 -0.2682
2.9114 -1.9847 -0.2657
2.9331 -1.9794 -0.2647
2.9767 -1.9668 -0.2639
2.9999 -1.9555 -0.2671
3.0213 -1.9502 -0.2660
3.0441 -1.9409 -0.2678
3.0654 -1.9357 -0.2667
3.0851 -1.9346 -0.2628
3.1070 -1.9274 -0.2631
3.1334 -1.9096 -0.2705
3.1498 -1.9151 -0.2624
3.1717 -1.9079 -0.2627
3.1935 -1.9007 -0.2631
3.2187 -1.8869 -0.2676
3.2407 -1.8797 -0.2680
3.2603 -1.8768 -0.2655
3.2796 -1.8741 -0.2630
1.9207 -2.3390 -0.2558
1.9422 -2.3319 -0.2561
1.9617 -2.3237 -0.2578
2.0317 -2.3060 -0.2546
2.0574 -2.3020 -0.2513
2.0752 -2.2925 -0.2545
2.0875 -2.2786 -0.2627
2.1179 -2.2784 -0.2552
2.1385 -2.2707 -0.2562
2.1569 -2.2611 -0.2594
2.1834 -2.2586 -0.2547
2.2239 -2.2426 -0.2575
2.3049 -2.2087 -0.2645
2.3297 -2.2059 -0.2606
2.3536 -2.2025 -0.2573
2.4003 -2.1951 -0.2515
2.4455 -2.1874 -0.2464
2.4667 -2.1813 -0.2461
2.5271 -2.1551 -0.2520
2.5486 -2.1498 -0.2509
2.5696 -2.1429 -0.2512
2.5896 -2.1327 -0.2544
2.6111 -2.1274 -0.2533
2.6316 -2.1179 -0.2558
2.6742 -2.1083 -0.2528
2.6953 -2.1032 -0.2517
2.7160 -2.0928 -0.2549
2.7369 -2.0814 -0.2589
2.7580 -2.0762 -0.2577
2.7792 -2.0656 -0.2610
2.8210 -2.0581 -0.2565
2.8854 -2.0288 -0.2640
2.9255 -2.0254 -0.2567
2.9687 -2.0067 -0.2610
2.9936 -1.9868 -0.2708
3.0150 -1.9797 -0.2711
3.0586 -1.9636 -0.2732
3.0757 -1.9678 -0.2655
3.1007 -1.9515 -0.2724
3.1212 -1.9465 -0.2713
3.1401 -1.9447 -0.2679
3.1767 -1.9425 -0.2605
3.1976 -1.9356 -0.2609
3.2475 -1.9075 -0.2710
1.9162 -2.3765 -0.2521
1.9411 -2.3719 -0.2495
1.9677 -2.3684 -0.2454
1.9820 -2.3584 -0.2501
2.0034 -2.3522 -0.2497
2.0277 -2.3477 -0.2471
2.0526 -2.3439 -0.2437
2.0683 -2.3343 -0.2477
2.0886 -2.3276 -0.2480
2.1090 -2.3209 -0.2483
2.1293 -2.3142 -0.2486
2.1384 -2.2987 -0.2593
2.1645 -2.2963 -0.2544
2.1888 -2.2928 -0.2510
2.2113 -2.2880 -0.2491
2.2343 -2.2840 -0.2465
2.2499 -2.2726 -0.2520
2.2734 -2.2693 -0.2486
2.2919 -2.2606 -0.2511
2.3122 -2.2539 -0.2514
2.3364 -2.2521 -0.2465
2.3502 -2.2369 -0.2558
2.3721 -2.2323 -0.2538
2.3935 -2.2270 -0.2527
2.4142 -2.2211 -0.2522
2.4341 -2.2136 -0.2533
2.4556 -2.2092 -0.2514
2.4785 -2.2079 -0.2465
2.4954 -2.1943 -0.2535
2.5154 -2.1868 -0.2545
2.5366 -2.1825 -0.2526
2.5560 -2.1734 -0.2552
2.5783 -2.1732 -0.2495
2.5973 -2.1624 -0.2535
2.6176 -2.1558 -0.2538
2.6381 -2.1508 -0.2527
2.6783 -2.1357 -0.2548
2.6987 -2.1308 -0.2536
2.7184 -2.1163 -0.2606
2.7388 -2.1086 -0.2617
2.7593 -2.1001 -0.2635
2.7794 -2.1041 -0.2548
2.7995 -2.0993 -0.2536
2.8191 -2.0982 -0.2494
2.8391 -2.0916 -0.2497
2.8602 -2.0775 -0.2561
2.8804 -2.0708 -0.2564
2.9023 -2.0556 -0.2635
2.9203 -2.0594 -0.2555
2.9439 -2.0392 -0.2663
2.9638 -2.0344 -0.2652
2.9849 -2.0257 -0.2670
3.0038 -2.0239 -0.2635
3.0241 -2.0172 -0.2638
3.0438 -2.0125 -0.2626
3.0641 -2.0058 -0.2629
3.0861 -1.9949 -0.2663
3.1066 -1.9882 -0.2666
3.1275 -1.9804 -0.2677
3.1449 -1.9800 -0.2634
3.1684 -1.9669 -0.2683
3.1843 -1.9688 -0.2625
3.2075 -1.9567 -0.2666
3.2260 -1.9532 -0.2647
3.2425 -1.9531 -0.2604
1.9503 -2.3972 -0.2503
1.9815 -2.3799 -0.2570
2.0045 -2.3749 -0.2550
2.0214 -2.3667 -0.2576
2.0433 -2.3612 -0.2564
2.0707 -2.3593 -0.2506
2.0877 -2.3510 -0.2532
2.1075 -2.3445 -0.2535
2.1256 -2.3367 -0.2553
2.1397 -2.3259 -0.2610
2.1629 -2.3218 -0.2582
2.1836 -2.3158 -0.2578
2.2027 -2.3086 -0.2588
2.2501 -2.3027 -0.2510
2.2711 -2.2976 -0.2498
2.3078 -2.2819 -0.2534
2.3315 -2.2803 -0.2484
2.3516 -2.2745 -0.2479
2.3695 -2.2660 -0.2505
2.3885 -2.2588 -0.2516
2.4081 -2.2524 -0.2519
2.4290 -2.2481 -0.2499
2.4485 -2.2417 -0.2502
2.4731 -2.2450 -0.2404
2.4890 -2.2318 -0.2477
2.5073 -2.2231 -0.2503
2.5284 -2.2206 -0.2467
2.5859 -2.1999 -0.2491
2.6059 -2.1959 -0.2471
2.6240 -2.1838 -0.2528
2.6436 -2.1782 -0.2524
2.6627 -2.1692 -0.2550
2.6825 -2.1653 -0.2530
2.7026 -2.1658 -0.2470
2.7215 -2.1525 -0.2536
2.7409 -2.1434 -0.2562
2.7604 -2.1370 -0.2565
2.7796 -2.1404 -0.2482
2.7992 -2.1295 -0.2524
2.8189 -2.1195 -0.2558
2.8379 -2.1167 -0.2530
2.8782 -2.0955 -0.2606
2.9543 -2.0783 -0.2548
2.9748 -2.0680 -0.2582
2.9940 -2.0626 -0.2577
3.0156 -2.0501 -0.2627
3.0333 -2.0487 -0.2591
3.0540 -2.0392 -0.2618
3.0918 -2.0294 -0.2600
3.1113 -2.0230 -0.2603
3.1334 -2.0113 -0.2645
3.1755 -1.9930 -0.2691
3.1988 -1.9800 -0.2741
3.2199 -1.9712 -0.2760
2.5558 -3.7103 -0.2467
2.5762 -3.7011 -0.2447
2.5946 -3.6977 -0.2473
2.6145 -3.6894 -0.2461
2.6341 -3.6822 -0.2456
2.6914 -3.6670 -0.2495
2.7109 -3.6597 -0.2490
2.7307 -3.6507 -0.2470
2.7501 -3.6426 -0.2458
2.7691 -3.6408 -0.2499
2.7887 -3.6300 -0.2463
2.8079 -3.6238 -0.2466
2.8272 -3.6175 -0.2469
2.8464 -3.6112 -0.2472
2.8661 -3.6091 -0.2513
2.8849 -3.5978 -0.2470
2.9031 -3.5849 -0.2411
2.9235 -3.5861 -0.2483
2.9431 -3.5814 -0.2501
2.9618 -3.5727 -0.2481
2.9817 -3.5688 -0.2507
2.9997 -3.5586 -0.2471
3.0189 -3.5523 -0.2474
3.0369 -3.5430 -0.2446
3.0573 -3.5398 -0.2480
3.0761 -3.5328 -0.2475
3.0956 -3.5273 -0.2486
3.1157 -3.5225 -0.2504
3.1313 -3.5105 -0.2445
3.1527 -3.5078 -0.2486
3.1694 -3.4981 -0.2451
3.1915 -3.4960 -0.2500
3.2118 -3.4911 -0.2518
3.2293 -3.4828 -0.2498
3.2509 -3.4793 -0.2532
3.2702 -3.4730 -0.2534
3.2894 -3.4667 -0.2537
3.3087 -3.4604 -0.2540
3.3258 -3.4522 -0.2520
3.3472 -3.4479 -0.2546
3.3657 -3.4410 -0.2541
3.4025 -3.4272 -0.2531
3.4167 -3.4174 -0.2487
3.4409 -3.4147 -0.2537
3.4601 -3.4084 -0.2539
3.4839 -3.4050 -0.2581
3.4984 -3.3959 -0.2545
3.5225 -3.3924 -0.2587
3.5358 -3.3829 -0.2543
3.5498 -3.3740 -0.2507
