ply
format ascii 1.0
element vertex 2112
property float x
property float y
property float z
end_header
2.6650 -4.5637 -0.2035
2.7067 -4.5362 -0.1994
2.8285 -4.5887 -0.2325
2.8707 -4.5601 -0.2281
2.9616 -4.5989 -0.2526
3.0559 -4.6098 -0.2681
3.5554 -4.3516 -0.2432
3.5908 -4.3252 -0.2386
3.6368 -4.3171 -0.2417
3.6793 -4.3033 -0.2423
4.1048 -4.1645 -0.2486
4.2233 -4.1645 -0.2634
4.2686 -4.1041 -0.2486
4.3044 -4.0855 -0.2468
4.3533 -4.0765 -0.2499
4.4254 -4.0827 -0.2610
4.4380 -4.0488 -0.2511
4.5117 -4.0546 -0.2623
4.5388 -4.0308 -0.2576
4.5487 -3.9979 -0.2477
4.5592 -3.9666 -0.2384
4.6418 -3.9754 -0.2517
4.6922 -3.9659 -0.2548
4.7430 -3.9563 -0.2579
2.1435 -5.0779 -0.2573
2.1996 -5.0396 -0.2520
2.2546 -5.0016 -0.2466
2.3002 -4.9967 -0.2504
2.4061 -4.9242 -0.2402
2.4462 -4.9491 -0.2525
2.5015 -4.8931 -0.2416
2.5762 -4.6837 -0.1854
2.6251 -4.6168 -0.1703
2.6692 -4.5744 -0.1623
2.7041 -4.6490 -0.1894
2.7416 -4.7688 -0.2308
2.7870 -4.8280 -0.2544
2.8348 -4.7654 -0.2406
2.8827 -4.7687 -0.2472
2.9316 -4.7718 -0.2538
2.9738 -4.6930 -0.2343
3.0235 -4.7038 -0.2433
3.0774 -4.7332 -0.2587
3.1226 -4.6995 -0.2535
3.1705 -4.6839 -0.2542
3.2206 -4.6775 -0.2580
3.2663 -4.6526 -0.2556
3.3117 -4.6288 -0.2535
3.3593 -4.6133 -0.2542
3.4040 -4.5897 -0.2520
3.4479 -4.5654 -0.2496
3.5023 -4.5666 -0.2563
3.5537 -4.5589 -0.2598
3.6059 -4.5519 -0.2637
3.6495 -4.5277 -0.2612
3.6974 -4.5120 -0.2619
3.7453 -4.4964 -0.2626
3.7932 -4.4808 -0.2633
3.8467 -4.4733 -0.2672
3.8890 -4.4495 -0.2647
3.9431 -4.4419 -0.2686
3.9912 -4.4262 -0.2693
4.0326 -4.4027 -0.2668
4.0805 -4.3870 -0.2675
4.1015 -4.3432 -0.2564
4.1552 -4.3347 -0.2600
4.2172 -4.3335 -0.2668
4.2576 -4.3113 -0.2646
4.3050 -4.2958 -0.2653
4.3524 -4.2804 -0.2660
4.3830 -4.2514 -0.2605
4.3286 -4.1581 -0.2254
4.3660 -4.1389 -0.2238
4.6074 -4.2152 -0.2753
4.6849 -4.2189 -0.2854
4.7032 -4.1839 -0.2767
4.7318 -4.1566 -0.2715
4.7584 -4.1289 -0.2661
4.7265 -4.0693 -0.2439
4.7912 -4.0653 -0.2501
4.8779 -4.0720 -0.2622
4.9798 -4.0847 -0.2780
1.9412 -5.4256 -0.2791
1.9977 -5.4072 -0.2799
2.0723 -5.3315 -0.2666
2.1515 -5.2321 -0.2471
2.2047 -5.2147 -0.2479
2.2513 -5.2237 -0.2554
2.2928 -5.2596 -0.2698
2.3536 -5.2146 -0.2637
2.4452 -4.9942 -0.2116
2.6720 -4.5997 -0.1251
2.7103 -4.6306 -0.1378
2.7499 -4.6862 -0.1576
2.9785 -4.7053 -0.1872
3.0463 -4.8606 -0.2379
3.1022 -4.8756 -0.2481
3.7514 -4.6094 -0.2424
3.8019 -4.5930 -0.2431
4.3239 -4.4439 -0.2567
4.3499 -4.4042 -0.2483
4.4001 -4.3878 -0.2491
4.6409 -4.3516 -0.2645
4.7814 -4.3984 -0.2925
4.7994 -4.3563 -0.2826
4.8298 -4.3242 -0.2769
4.8244 -4.2705 -0.2612
4.8527 -4.2401 -0.2557
4.8149 -4.1719 -0.2326
4.8202 -4.1318 -0.2219
5.0054 -4.1490 -0.2464
1.9723 -5.5156 -0.2432
2.0408 -5.4648 -0.2370
2.0801 -5.5099 -0.2522
2.2329 -5.3341 -0.2227
2.2791 -5.3597 -0.2336
2.4910 -5.0468 -0.1754
2.5677 -4.8359 -0.1297
2.6259 -4.7082 -0.1032
2.6737 -4.6398 -0.0906
2.7185 -4.5754 -0.0787
2.7592 -4.5550 -0.0775
2.7990 -4.6061 -0.0942
2.8968 -4.8931 -0.1760
2.9442 -4.8360 -0.1662
3.0782 -5.0848 -0.2418
3.1291 -5.0286 -0.2326
3.1966 -5.0736 -0.2504
3.2598 -5.0814 -0.2585
3.3312 -5.1160 -0.2742
3.3659 -5.0052 -0.2496
3.4307 -5.0115 -0.2575
3.4886 -4.9926 -0.2583
3.5418 -4.9610 -0.2555
3.5947 -4.9306 -0.2530
3.6569 -4.9235 -0.2572
3.7261 -4.9293 -0.2654
3.8235 -4.8559 -0.2563
3.8673 -4.8142 -0.2501
3.9170 -4.7848 -0.2475
3.9803 -4.7774 -0.2517
4.0442 -4.7697 -0.2560
4.0776 -4.7192 -0.2465
4.1497 -4.7221 -0.2542
4.2238 -4.7253 -0.2622
4.2994 -4.7281 -0.2702
4.3382 -4.6880 -0.2639
4.4152 -4.6903 -0.2719
4.4731 -4.6714 -0.2728
4.4383 -4.5629 -0.2421
4.4736 -4.5271 -0.2365
4.5277 -4.5094 -0.2373
4.5403 -4.4565 -0.2252
4.5736 -4.4233 -0.2200
4.7591 -4.5101 -0.2599
4.8530 -4.5201 -0.2715
4.9364 -4.5203 -0.2796
4.9804 -4.4918 -0.2767
4.9969 -4.4457 -0.2667
4.9998 -4.3930 -0.2537
5.0819 -4.3916 -0.2613
5.1233 -4.3649 -0.2586
4.9696 -4.2271 -0.2090
4.8941 -4.1410 -0.1800
1.8553 -5.9049 -0.2566
1.9419 -5.8204 -0.2453
2.0194 -5.7583 -0.2382
2.4901 -4.8227 -0.0702
2.5321 -4.8254 -0.0745
2.5759 -4.8203 -0.0772
2.6259 -4.7610 -0.0683
2.6760 -4.6740 -0.0533
2.7222 -4.5935 -0.0393
2.7635 -4.5595 -0.0354
2.8036 -4.5464 -0.0359
2.8442 -4.5537 -0.0411
2.8926 -4.7078 -0.0798
3.0926 -5.1676 -0.2002
3.1649 -5.2352 -0.2216
3.2401 -5.2915 -0.2408
3.4072 -5.4171 -0.2835
3.4423 -5.2767 -0.2552
3.4879 -5.1943 -0.2407
3.5453 -5.1582 -0.2377
3.6241 -5.1826 -0.2501
3.7128 -5.2243 -0.2672
3.7386 -5.1125 -0.2444
3.8360 -5.0162 -0.2314
3.8895 -4.9824 -0.2286
4.0028 -4.9301 -0.2268
4.0883 -4.9493 -0.2386
4.1866 -4.9827 -0.2547
4.2902 -5.0176 -0.2715
4.3443 -4.9825 -0.2684
4.3976 -4.9477 -0.2653
4.3851 -4.8371 -0.2395
4.4681 -4.8418 -0.2478
4.5182 -4.8091 -0.2449
4.5445 -4.7534 -0.2348
4.7024 -4.7490 -0.2476
4.7512 -4.7177 -0.2449
4.8521 -4.7319 -0.2569
5.0038 -4.7848 -0.2820
5.0531 -4.7513 -0.2788
5.1014 -4.7182 -0.2757
5.1488 -4.6853 -0.2725
5.1633 -4.6304 -0.2615
5.1618 -4.5674 -0.2473
5.3683 -4.5809 -0.2684
5.3779 -4.5287 -0.2575
5.3373 -4.4498 -0.2363
5.3314 -4.3944 -0.2234
1.6417 -6.2020 -0.2258
1.8097 -5.9017 -0.1802
2.4007 -4.5691 0.0343
2.4235 -4.6163 0.0233
2.4544 -4.6382 0.0166
2.4823 -4.6838 0.0055
2.5080 -4.7569 -0.0109
2.5817 -4.8226 -0.0295
2.6161 -4.9125 -0.0498
2.7271 -4.5895 0.0047
2.8484 -4.5716 -0.0013
3.1504 -5.5809 -0.2227
3.2198 -5.5583 -0.2237
3.3078 -5.6358 -0.2458
3.3844 -5.6335 -0.2514
3.4277 -5.4905 -0.2268
3.7328 -5.4755 -0.2478
3.8282 -5.5114 -0.2623
3.8596 -5.3918 -0.2414
3.9473 -5.4056 -0.2509
3.9910 -5.3273 -0.2391
4.0708 -5.3230 -0.2445
4.5320 -4.9229 -0.2024
4.7839 -5.0078 -0.2388
4.8680 -5.0010 -0.2441
4.9727 -4.9267 -0.2377
5.1441 -4.9935 -0.2643
5.2527 -5.0014 -0.2744
5.2859 -4.9473 -0.2664
5.1915 -4.7986 -0.2298
5.3877 -4.8718 -0.2596
5.6301 -4.9701 -0.2979
5.4567 -4.7121 -0.2337
5.5035 -4.6782 -0.2308
5.6093 -4.6809 -0.2396
5.5750 -4.6002 -0.2211
5.5627 -4.5362 -0.2076
5.4958 -4.4456 -0.1846
2.3779 -4.5533 0.0780
2.4173 -4.5290 0.0794
2.4415 -4.5668 0.0713
2.4630 -4.6274 0.0596
2.4907 -4.6724 0.0501
2.5219 -4.7121 0.0412
2.5828 -4.8627 0.0116
2.6081 -5.0540 -0.0224
3.1951 -5.8842 -0.2031
3.4749 -5.6714 -0.1867
3.6936 -5.8546 -0.2328
3.7821 -5.8528 -0.2387
3.7188 -5.4369 -0.1642
3.7812 -5.3958 -0.1616
3.8668 -5.4105 -0.1701
3.9372 -5.3875 -0.1711
3.9981 -5.3458 -0.1683
4.0875 -5.3593 -0.1768
4.1795 -5.3729 -0.1855
4.2864 -5.4066 -0.1986
4.3986 -5.4418 -0.2124
4.4608 -5.3976 -0.2093
4.5358 -5.3731 -0.2104
4.5676 -5.2921 -0.1989
4.8440 -5.3983 -0.2361
4.7872 -5.2204 -0.2022
4.9681 -5.2082 -0.2127
5.2991 -5.3310 -0.2564
5.5784 -5.1068 -0.2381
5.5858 -5.0306 -0.2258
5.5924 -4.9578 -0.2140
5.6201 -4.9030 -0.2067
5.8608 -4.9170 -0.2258
5.7006 -4.7500 -0.1865
5.4421 -4.4809 -0.1232
5.4006 -4.4061 -0.1077
2.2949 -4.6320 0.1101
2.3509 -4.5561 0.1175
2.3851 -4.5502 0.1162
2.4209 -4.5385 0.1157
2.4452 -4.5766 0.1088
2.4726 -4.6107 0.1023
2.5029 -4.6395 0.0964
2.5125 -4.8050 0.0724
2.5522 -4.8161 0.0684
2.5685 -5.5323 -0.0339
3.4934 -5.7354 -0.1190
3.5809 -5.7561 -0.1272
3.6862 -5.8254 -0.1434
3.7411 -5.7290 -0.1331
3.7546 -5.5330 -0.1062
3.7957 -5.4326 -0.0945
3.8739 -5.4291 -0.0988
3.9617 -5.4434 -0.1061
4.0527 -5.4588 -0.1138
4.8154 -5.6278 -0.1842
5.0189 -5.7510 -0.2140
5.1752 -5.8037 -0.2310
5.4480 -5.9807 -0.2726
5.5751 -5.9811 -0.2804
5.3708 -5.6362 -0.2192
5.6002 -5.6294 -0.2322
5.5812 -5.5016 -0.2129
5.6631 -5.1021 -0.1614
5.3748 -4.8170 -0.1035
5.4608 -4.8078 -0.1074
5.6995 -4.8986 -0.1348
5.7258 -4.8460 -0.1289
5.7744 -4.8092 -0.1267
5.4832 -4.5167 -0.0676
5.4064 -4.4213 -0.0494
2.3453 -4.5970 0.1505
2.3834 -4.5793 0.1506
2.4151 -4.5859 0.1482
2.4430 -4.6127 0.1436
2.4736 -4.6343 0.1395
2.5042 -4.6644 0.1345
2.5366 -4.6950 0.1293
2.6515 -4.7251 0.1198
2.8193 -4.4656 0.1409
3.6830 -6.1148 -0.0938
3.8257 -5.7243 -0.0564
3.9780 -5.4815 -0.0364
4.0218 -5.4018 -0.0295
4.7407 -5.6770 -0.0987
4.7361 -5.5339 -0.0820
5.1165 -5.8857 -0.1423
5.5346 -6.2463 -0.2056
5.4866 -6.0393 -0.1793
5.5552 -5.9747 -0.1754
5.5938 -5.8819 -0.1668
5.7195 -5.8810 -0.1732
6.0315 -5.5872 -0.1557
6.2255 -5.6368 -0.1716
6.3938 -5.6611 -0.1831
6.4142 -5.5753 -0.1744
5.5769 -4.8313 -0.0451
5.8028 -4.9095 -0.0659
5.7357 -4.7995 -0.0497
5.6140 -4.6630 -0.0277
5.5080 -4.5435 -0.0084
5.3967 -4.4279 0.0107
5.5383 -4.4545 0.0002
2.3787 -4.6204 0.1849
2.4123 -4.6222 0.1833
2.4453 -4.6295 0.1812
2.4747 -4.6582 0.1774
2.5055 -4.6896 0.1733
2.5430 -4.6912 0.1715
2.5822 -4.6848 0.1703
2.6225 -4.6716 0.1697
2.6621 -4.6661 0.1685
2.7035 -4.6388 0.1691
2.8229 -4.4521 0.1805
2.8586 -4.4171 0.1821
2.8945 -4.4054 0.1815
3.0682 -4.8515 0.1343
3.9854 -6.7826 -0.0773
3.9033 -6.2013 -0.0221
3.8785 -5.8660 0.0088
3.9792 -5.8906 0.0022
4.0176 -5.7643 0.0117
4.0642 -5.6694 0.0181
4.0015 -5.3656 0.0479
4.0795 -5.3604 0.0449
4.1697 -5.3745 0.0397
4.2734 -5.4066 0.0323
4.7963 -5.6241 -0.0098
5.2998 -6.1295 -0.0767
5.3704 -6.0640 -0.0740
5.4402 -6.0008 -0.0714
5.5950 -6.0332 -0.0811
5.7896 -6.1016 -0.0956
5.6691 -5.8464 -0.0677
6.1062 -5.6645 -0.0706
6.5849 -5.9346 -0.1155
6.5605 -5.8044 -0.1029
6.5384 -5.6830 -0.0911
6.2351 -5.3727 -0.0503
5.9337 -5.0086 -0.0048
5.8581 -4.8897 0.0091
5.3453 -4.4617 0.0695
2.3753 -4.6571 0.2210
2.4399 -4.6811 0.2172
2.4684 -4.7200 0.2138
2.5057 -4.7217 0.2123
2.5460 -4.7086 0.2118
2.5863 -4.6954 0.2112
2.6266 -4.6823 0.2106
2.6669 -4.6691 0.2100
2.7076 -4.6494 0.2098
2.7497 -4.5875 0.2122
2.7893 -4.5285 0.2145
2.8267 -4.4682 0.2170
2.8627 -4.4382 0.2176
2.8992 -4.4327 0.2167
3.7918 -6.4868 0.0556
3.7566 -5.7669 0.1023
3.7616 -5.5500 0.1158
3.9568 -5.6266 0.1041
4.0021 -5.5401 0.1079
4.0264 -5.4197 0.1147
4.0772 -5.3614 0.1166
4.1660 -5.3742 0.1126
4.2693 -5.4069 0.1069
4.6101 -5.5142 0.0881
5.0241 -5.7936 0.0559
5.3013 -5.9945 0.0334
5.5066 -6.0914 0.0201
5.6050 -6.0593 0.0186
5.7345 -6.0599 0.0140
5.6488 -5.8415 0.0308
6.8092 -6.2555 -0.0362
6.6388 -5.9962 -0.0139
6.6559 -5.8953 -0.0081
6.5096 -5.6807 0.0106
6.2116 -5.3731 0.0405
5.8418 -4.8940 0.0838
5.4498 -4.5346 0.1203
5.4576 -4.4860 0.1231
1.6362 -5.9634 0.2303
2.3942 -4.7496 0.2556
2.4325 -4.7436 0.2548
2.4663 -4.7616 0.2532
2.5028 -4.7724 0.2518
2.5477 -4.7351 0.2520
2.5893 -4.7140 0.2517
2.6307 -4.6929 0.2514
2.6722 -4.6654 0.2513
2.7125 -4.6457 0.2510
2.7531 -4.6109 0.2512
2.7931 -4.5450 0.2526
2.8307 -4.5079 0.2530
2.8663 -4.4478 0.2543
2.9489 -4.5406 0.2485
3.6118 -5.8368 0.1818
3.7563 -5.7638 0.1806
3.7616 -5.5495 0.1885
4.0719 -5.5152 0.1815
4.1439 -5.4917 0.1804
4.9323 -5.6887 0.1517
5.4462 -6.1835 0.1192
5.4321 -6.0198 0.1257
5.5274 -5.9887 0.1243
5.9132 -6.2642 0.1035
6.6939 -6.0592 0.0902
6.5402 -5.8267 0.1031
5.9016 -5.2539 0.1419
5.7385 -4.7785 0.1643
5.4297 -4.4822 0.1838
2.4063 -4.8955 0.2941
2.4794 -4.7260 0.2949
2.5164 -4.7281 0.2941
2.5596 -4.6933 0.2938
2.5982 -4.6873 0.2931
2.6363 -4.6890 0.2924
2.6762 -4.6759 0.2918
2.7166 -4.6563 0.2913
2.7563 -4.6433 0.2907
2.7961 -4.6303 0.2901
2.8351 -4.5622 0.2902
3.5934 -5.7644 0.2607
4.1950 -5.5932 0.2515
4.3689 -5.5865 0.2483
4.4445 -5.5618 0.2472
4.4926 -5.4962 0.2471
4.6107 -5.5337 0.2444
4.9211 -5.6857 0.2367
5.4281 -6.1755 0.2209
5.5557 -6.1774 0.2184
5.7846 -6.2885 0.2127
5.5744 -5.9214 0.2214
5.7544 -5.1607 0.2276
5.5989 -4.9712 0.2330
5.6252 -4.9181 0.2331
5.5700 -4.8133 0.2355
5.5562 -4.7406 0.2367
5.5075 -4.6500 0.2388
5.4619 -4.5660 0.2407
5.5213 -4.5466 0.2398
5.5104 -4.4883 0.2408
1.0139 -8.1339 0.3914
2.4818 -4.7447 0.3351
2.5255 -4.7085 0.3342
2.5658 -4.6888 0.3335
2.6049 -4.6761 0.3329
2.6440 -4.6633 0.3324
2.6819 -4.6652 0.3320
2.7206 -4.6668 0.3316
2.7597 -4.6748 0.3313
2.8000 -4.6617 0.3307
2.8411 -4.6943 0.3306
3.6984 -5.5891 0.3320
3.9870 -5.5179 0.3281
4.0865 -5.5534 0.3274
4.2372 -5.6782 0.3273
4.3520 -5.7218 0.3266
4.4439 -5.7192 0.3255
4.4659 -5.6036 0.3239
4.5139 -5.5365 0.3226
5.0505 -5.8628 0.3207
5.3299 -6.0694 0.3201
5.4792 -6.1028 0.3189
5.6044 -6.1035 0.3176
5.7174 -5.0695 0.3040
5.5104 -4.8525 0.3037
5.4953 -4.6549 0.3015
5.4679 -4.5817 0.3009
5.4753 -4.5323 0.3002
5.4829 -4.4849 0.2996
1.5110 -6.7577 0.4508
2.5318 -4.7050 0.3735
2.5729 -4.6772 0.3723
2.6115 -4.6646 0.3718
2.6486 -4.6668 0.3717
2.6870 -4.6609 0.3714
2.7250 -4.6695 0.3716
2.7640 -4.6788 0.3718
2.8041 -4.6724 0.3715
2.8457 -4.7282 0.3734
3.5289 -5.8052 0.4104
3.7680 -5.5651 0.4011
3.8451 -5.5620 0.4007
3.9066 -5.5199 0.3990
4.0217 -5.5959 0.4014
4.0269 -5.4377 0.3957
4.3086 -5.6512 0.4026
4.3588 -5.5841 0.4000
4.4937 -5.5147 0.3971
4.5965 -5.5319 0.3975
4.6715 -5.5074 0.3964
4.9576 -5.7548 0.4045
5.3657 -6.1266 0.4168
5.5758 -6.2300 0.4200
5.6753 -6.1976 0.4185
5.8410 -6.2361 0.4194
5.9076 -6.1670 0.4167
5.8460 -5.1761 0.3810
5.5765 -4.9113 0.3722
5.7307 -4.9470 0.3730
5.6917 -4.8539 0.3698
5.4561 -4.5867 0.3608
5.4314 -4.5187 0.3584
5.4552 -4.4812 0.3569
2.5404 -4.6860 0.4112
2.5816 -4.6525 0.4094
2.6910 -4.6713 0.4110
2.7286 -4.6879 0.4122
3.5601 -5.9178 0.4903
3.7607 -5.5448 0.4689
3.8368 -5.5422 0.4691
3.8972 -5.5003 0.4669
4.0013 -5.5552 0.4707
4.0338 -5.4558 0.4649
4.8862 -6.1137 0.5087
4.7465 -5.7551 0.4864
4.8459 -5.7538 0.4868
5.0263 -5.8548 0.4938
5.4865 -6.2888 0.5222
5.6162 -6.2920 0.5230
5.6241 -6.1550 0.5148
5.7531 -6.1574 0.5156
5.9178 -6.1936 0.5186
6.0183 -6.1608 0.5171
5.8022 -5.2398 0.4606
5.6202 -5.0271 0.4469
5.6679 -4.9882 0.4448
5.7155 -4.9505 0.4428
5.8314 -4.9582 0.4438
5.9495 -4.9652 0.4448
5.8771 -4.8545 0.4378
5.7714 -4.6725 0.4263
2.5111 -4.6801 0.4482
2.5530 -4.6407 0.4454
2.5926 -4.6099 0.4433
2.6949 -4.6816 0.4506
2.7327 -4.6984 0.4525
2.7723 -4.6922 0.4525
2.8122 -4.7485 0.4577
3.5805 -5.9874 0.5712
3.9435 -6.6059 0.6277
3.7402 -5.4891 0.5315
3.8513 -5.5792 0.5405
3.9206 -5.5566 0.5394
3.9900 -5.5340 0.5384
4.4213 -6.0441 0.5866
5.1699 -6.2058 0.6096
5.1906 -6.0794 0.5993
5.4679 -6.2797 0.6196
5.5085 -6.1792 0.6117
5.6647 -6.2155 0.6167
5.7313 -6.1491 0.6120
5.7975 -6.0850 0.6074
5.8938 -6.0536 0.6060
6.0583 -6.0871 0.6109
5.8100 -5.2601 0.5385
5.6274 -5.0457 0.5182
5.5501 -4.9189 0.5066
5.7448 -4.9840 0.5145
5.7258 -4.9029 0.5075
5.5500 -4.7265 0.4905
5.7112 -4.7668 0.4959
2.4081 -4.4569 0.4592
2.4290 -4.4872 0.4629
2.4744 -4.7168 0.4884
2.5137 -4.6972 0.4871
2.5526 -4.6778 0.4858
2.5919 -4.6525 0.4839
2.6279 -4.6532 0.4847
2.7004 -4.6701 0.4879
2.7380 -4.6792 0.4897
2.7767 -4.6880 0.4914
2.8163 -4.7201 0.4956
4.0205 -7.2293 0.7887
3.7707 -5.7917 0.6297
3.8118 -5.6814 0.6187
3.8428 -5.5587 0.6062
3.9110 -5.5364 0.6052
3.9884 -5.5337 0.6065
3.9781 -5.3513 0.5867
4.3181 -5.8541 0.6474
4.6840 -5.9836 0.6687
5.6545 -6.6963 0.7647
5.9382 -6.2468 0.7223
5.9035 -6.0791 0.7036
6.0332 -6.0796 0.7063
6.1666 -6.0811 0.7091
6.2278 -6.0161 0.7034
6.5002 -5.8000 0.6858
5.7266 -5.0568 0.5906
5.5434 -4.8599 0.5658
5.6136 -4.7795 0.5586
5.8025 -4.8361 0.5685
2.5175 -4.7072 0.5254
2.5575 -4.6806 0.5230
2.5940 -4.6755 0.5234
2.6324 -4.6561 0.5219
2.7417 -4.6965 0.5302
2.7807 -4.6985 0.5315
4.0923 -7.4708 0.9284
4.1405 -7.2226 0.8974
3.8354 -5.9783 0.7272
3.8115 -5.6800 0.6877
3.8497 -5.5768 0.6754
3.9098 -5.5356 0.6717
3.9297 -5.2570 0.6360
4.4333 -5.9001 0.7336
4.5480 -5.7742 0.7204
4.6262 -5.7487 0.7192
5.9798 -6.1713 0.8117
6.0430 -6.1053 0.8049
6.1059 -6.0417 0.7984
6.1324 -5.9481 0.7869
5.9659 -5.6939 0.7493
5.7797 -5.1083 0.6679
5.7189 -4.9251 0.6424
5.5825 -4.7723 0.6188
5.5506 -4.6931 0.6076
5.7886 -4.7799 0.6255
0.9711 -8.0753 1.0219
2.4395 -4.7713 0.5690
2.5176 -4.7390 0.5669
2.5570 -4.7193 0.5652
2.5960 -4.6997 0.5636
2.6325 -4.7015 0.5652
2.6690 -4.7102 0.5678
2.7068 -4.7127 0.5695
2.7451 -4.7219 0.5722
2.7845 -4.7170 0.5729
2.8248 -4.7735 0.5829
2.8690 -4.8527 0.5966
4.0349 -6.8807 0.9471
3.8341 -5.7403 0.7659
3.8566 -5.5948 0.7445
3.8929 -5.4985 0.7311
3.9994 -5.4021 0.7201
4.4025 -6.0265 0.8296
4.6881 -6.3650 0.8913
6.0882 -6.1653 0.9100
6.1865 -6.1332 0.9085
6.2849 -6.1011 0.9071
6.3449 -6.0358 0.8992
6.5617 -6.1033 0.9171
6.4625 -5.9107 0.8842
5.9095 -5.2153 0.7586
5.6786 -4.9788 0.7144
5.7682 -4.9713 0.7164
5.7285 -4.8792 0.7010
5.7511 -4.8307 0.6944
5.3194 -4.5091 0.6301
1.0223 -7.9895 1.1092
2.4304 -4.8444 0.6184
2.4819 -4.7689 0.6074
2.5251 -4.7272 0.6020
2.5670 -4.6871 0.5967
2.6074 -4.6486 0.5917
2.6421 -4.6557 0.5944
2.6758 -4.6850 0.6010
2.7885 -4.7345 0.6144
2.8287 -4.7524 0.6192
2.8717 -4.8119 0.6315
4.1625 -7.2803 1.1182
3.9393 -5.8020 0.8500
3.8840 -5.4797 0.7913
4.0272 -5.6273 0.8232
4.0971 -5.6046 0.8221
4.5023 -6.2232 0.9476
6.2949 -6.1271 1.0067
6.3181 -6.0299 0.9907
6.4521 -6.0299 0.9964
6.5494 -5.9981 0.9950
6.3462 -5.7333 0.9400
6.4006 -5.6776 0.9325
5.8184 -5.1638 0.8180
5.9157 -5.1574 0.8210
5.9142 -5.0831 0.8079
5.8669 -4.9824 0.7883
5.8010 -4.8752 0.7667
5.5397 -4.6005 0.7076
1.0113 -7.8335 1.1751
1.0126 -8.0727 1.2223
2.4330 -4.8623 0.6601
2.5290 -4.7372 0.6403
2.5707 -4.6970 0.6344
2.6071 -4.6921 0.6352
2.8328 -4.7632 0.6604
2.8763 -4.8312 0.6760
4.3369 -7.0914 1.1937
3.8327 -5.5368 0.8624
6.2911 -6.0234 1.0802
6.4619 -6.0556 1.0950
6.4817 -5.9612 1.0774
6.5930 -5.8392 1.0588
6.6479 -5.7808 1.0501
6.3475 -5.4748 0.9749
5.6760 -4.9355 0.8353
5.5638 -4.7973 0.8025
5.6438 -4.7886 0.8048
5.6678 -4.7449 0.7974
5.5455 -4.6157 0.7659
1.0230 -8.0999 1.3264
2.4023 -4.8621 0.6963
2.5328 -4.7472 0.6786
2.5706 -4.7349 0.6780
2.6075 -4.7299 0.6790
3.9822 -5.9109 1.0152
3.9372 -5.6074 0.9463
6.9401 -6.1198 1.2285
6.6573 -5.8053 1.1437
5.5945 -4.7696 0.8569
5.6172 -4.7260 0.8487
5.6585 -4.6951 0.8443
0.7988 -5.8547 0.8882
1.7238 -4.1459 0.5575
1.6929 -4.1469 0.5648
0.1423 -5.3546 1.0074
-0.0262 -5.4165 1.0509
-0.1429 -5.4208 1.0783
-0.1454 -5.3204 1.0721
-0.2228 -5.0818 1.0741
0.7429 -3.1810 0.7209
0.7877 -3.1335 0.7073
0.8448 -3.0882 0.6909
0.8088 -3.0486 0.6967
0.7876 -3.0080 0.6989
-1.4874 -2.3108 1.1818
-1.9647 -1.9564 1.2691
-1.6016 -1.9589 1.1847
-2.4470 -1.1867 1.3296
-1.8871 -1.3105 1.2075
-0.5448 -1.7126 0.9219
-0.3858 -1.7282 0.8859
0.7140 -6.0123 0.8562
0.9059 -5.6111 0.7915
0.8763 -5.5696 0.7953
0.8574 -5.5114 0.7957
1.6075 -4.1785 0.5573
1.5463 -4.1637 0.5693
1.5427 -4.1241 0.5677
1.5571 -4.0658 0.5611
-0.4669 -5.2724 1.0606
-0.7099 -4.0979 1.0410
0.7842 -3.2183 0.6730
0.8350 -3.1693 0.6593
0.9037 -3.1222 0.6420
0.8320 -3.0857 0.6549
0.7789 -3.0460 0.6637
0.7896 -3.0044 0.6590
0.8226 -2.9644 0.6496
0.7863 -2.9234 0.6548
-1.3259 -2.4080 1.0691
-1.6146 -2.1917 1.1169
-1.8488 -1.9694 1.1529
0.1623 -2.3011 0.7489
0.2228 -2.2748 0.7345
0.4337 -2.3008 0.6916
0.5270 -2.2943 0.6716
-0.4883 -1.7775 0.8545
-0.4483 -1.7412 0.8439
1.6184 -4.1718 0.5250
1.5543 -4.1609 0.5365
1.5581 -4.1129 0.5332
1.7933 -3.7878 0.4717
1.7011 -3.7786 0.4885
0.8354 -3.2096 0.6215
0.8141 -3.1686 0.6234
0.8921 -3.1202 0.6061
0.8646 -3.0811 0.6092
0.8130 -3.0418 0.6169
0.8454 -3.0008 0.6086
0.8843 -2.9621 0.5992
0.8125 -2.9206 0.6105
0.7913 -2.8799 0.6124
-1.2771 -2.4860 0.9813
-1.6165 -2.3519 1.0382
-1.8235 -2.2283 1.0707
0.2697 -2.4133 0.6860
0.4588 -2.3409 0.6465
0.5227 -2.3230 0.6335
0.4896 -2.2738 0.6371
-0.0788 -2.0260 0.7311
1.6260 -4.1691 0.4936
1.5548 -4.1667 0.5053
1.7312 -3.8213 0.4603
1.7133 -3.8046 0.4625
1.1977 -3.9832 0.5561
0.9059 -3.1988 0.5687
0.9019 -3.1167 0.5656
0.9170 -3.0757 0.5612
0.8975 -3.0367 0.5627
0.8996 -2.9975 0.5606
0.7912 -2.9155 0.5748
0.7536 -2.8729 0.5791
0.3333 -2.4665 0.6302
0.3524 -2.4274 0.6253
0.3932 -2.3957 0.6170
0.5140 -2.3128 0.5932
-0.1624 -1.9850 0.6904
0.8858 -2.2583 0.5291
1.7655 -4.2393 0.4462
1.7518 -4.2178 0.4473
1.7395 -4.1939 0.4482
1.7411 -4.1502 0.4463
1.6499 -4.1889 0.4608
1.6239 -4.1784 0.4641
1.5701 -4.1552 0.4709
1.7136 -3.8427 0.4384
1.7171 -3.8048 0.4365
1.1462 -4.0239 0.5264
0.8831 -3.2858 0.5358
0.8297 -3.2497 0.5420
0.8484 -3.2032 0.5376
0.8950 -3.1557 0.5291
0.9393 -3.1113 0.5211
0.9745 -3.0702 0.5145
0.9353 -3.0327 0.5187
0.9092 -2.9940 0.5209
0.8066 -2.9525 0.5340
0.7933 -2.9115 0.5343
0.7881 -2.8711 0.5335
0.7748 -2.8302 0.5339
0.6865 -2.7805 0.5446
-0.2398 -2.6102 0.6704
0.1626 -2.5151 0.6093
0.3839 -2.5156 0.5777
0.4248 -2.4816 0.5705
0.4481 -2.4039 0.5642
0.4647 -2.3681 0.5605
0.5006 -2.3397 0.5543
0.5714 -2.3250 0.5436
0.7282 -2.3108 0.5207
0.8994 -2.2577 0.4942
1.5886 -4.2299 0.4392
1.5604 -4.2188 0.4422
1.5496 -4.1856 0.4425
1.1373 -4.0341 0.4871
0.9174 -3.2351 0.4889
0.8965 -3.1951 0.4902
0.9203 -3.1507 0.4860
0.9764 -3.1061 0.4779
0.9905 -3.0665 0.4750
0.9515 -3.0292 0.4786
0.9390 -2.9907 0.4789
0.8088 -2.9487 0.4932
0.7794 -2.9066 0.4954
0.7659 -2.8650 0.4957
0.7768 -2.8258 0.4932
0.7226 -2.7799 0.4983
0.1860 -2.6632 0.5589
0.2751 -2.6269 0.5471
0.3097 -2.5850 0.5417
0.3535 -2.5471 0.5353
0.3376 -2.4982 0.5357
0.4570 -2.4827 0.5209
1.6236 -4.2380 0.4037
1.6203 -4.1969 0.4031
1.5646 -4.2207 0.4090
1.5788 -4.1581 0.4062
1.1278 -4.0448 0.4468
0.9051 -3.2346 0.4496
0.8455 -3.1985 0.4545
0.9009 -3.1498 0.4480
0.9171 -3.1071 0.4455
0.9536 -3.0650 0.4410
0.9199 -3.0264 0.4434
0.9071 -2.9870 0.4437
0.9011 -2.9477 0.4434
0.8441 -2.9060 0.4479
0.7602 -2.8601 0.4549
0.7374 -2.8172 0.4561
0.6715 -2.7686 0.4613
0.5192 -2.4913 0.4695
0.5645 -2.4626 0.4645
0.5970 -2.4326 0.4607
0.6278 -2.4039 0.4571
0.6230 -2.3652 0.4567
0.6515 -2.2674 0.4517
1.6284 -4.2392 0.3714
1.6149 -4.2111 0.3719
1.5973 -4.1877 0.3728
1.5868 -4.1552 0.3731
1.5657 -4.1347 0.3743
1.1114 -4.0606 0.4059
0.9782 -4.1001 0.4161
0.8582 -4.1224 0.4251
0.8043 -4.0962 0.4286
0.9227 -3.2299 0.4069
0.8709 -3.1930 0.4100
0.9035 -3.1468 0.4070
0.9118 -3.1045 0.4057
0.9140 -3.0634 0.4050
0.9010 -3.0233 0.4053
0.8802 -2.9831 0.4062
0.8291 -2.9414 0.4092
0.8078 -2.8997 0.4101
0.7285 -2.8530 0.4151
0.4641 -2.7372 0.4324
-0.1035 -2.5491 0.4705
0.4277 -2.5940 0.4329
0.5201 -2.5688 0.4258
0.4742 -2.5158 0.4283
0.4374 -2.4639 0.4302
0.4963 -2.4372 0.4255
0.5513 -2.4124 0.4212
0.5937 -2.3863 0.4177
0.6332 -2.3615 0.4145
0.6111 -2.3170 0.4154
0.6240 -2.2852 0.4140
0.6702 -2.2673 0.4104
0.7470 -2.2314 0.4043
0.8201 -2.2315 0.3990
0.8357 -2.2082 0.3976
1.6524 -4.2149 0.3378
1.6158 -4.2173 0.3395
1.5778 -4.1272 0.3407
0.9181 -3.2283 0.3656
0.8972 -3.1875 0.3663
0.8761 -3.1464 0.3670
0.9218 -3.1009 0.3645
0.9022 -3.0606 0.3651
0.8890 -3.0200 0.3655
0.8129 -2.9784 0.3688
0.8771 -2.9392 0.3655
0.9010 -2.9011 0.3640
0.7888 -2.8533 0.3690
-0.1036 -2.5992 0.4099
0.3424 -2.5240 0.3880
0.3976 -2.4909 0.3851
0.4382 -2.4569 0.3829
0.3662 -2.3941 0.3859
0.4732 -2.3007 0.3801
0.4375 -2.2481 0.3814
0.4440 -2.2105 0.3808
0.4508 -2.1738 0.3802
0.5060 -2.1579 0.3774
0.5303 -2.1311 0.3761
0.5256 -2.0928 0.3760
0.5223 -2.0554 0.3759
1.3146 -5.1525 0.3132
1.2659 -5.1606 0.3143
0.8525 -5.6563 0.3237
1.6069 -4.2363 0.3069
1.4189 -4.4238 0.3112
1.5342 -4.1838 0.3086
1.4780 -4.1991 0.3099
0.6143 -4.6594 0.3298
1.0986 -4.1333 0.3188
1.0983 -4.0783 0.3188
0.9137 -3.2266 0.3236
0.9296 -3.1814 0.3233
0.8546 -3.1454 0.3250
0.8729 -3.1007 0.3246
0.9046 -3.0573 0.3239
0.8914 -3.0164 0.3243
0.9319 -2.8990 0.3234
0.8900 -2.8575 0.3244
0.4538 -2.7241 0.3346
-0.1252 -2.5881 0.3482
0.3858 -2.4809 0.3364
0.4379 -2.4497 0.3352
-0.6863 -2.0262 0.3617
0.1924 -2.1975 0.3410
0.2906 -2.1873 0.3388
0.1466 -2.0900 0.3422
-0.1984 -1.9081 0.3503
0.1130 -1.9866 0.3430
-0.3105 -1.7074 0.3531
1.3180 -5.0891 0.2654
1.1953 -5.1388 0.2648
1.1869 -5.0762 0.2653
1.6499 -4.2806 0.2729
1.6423 -4.2440 0.2732
1.6051 -4.2462 0.2731
1.5303 -4.2930 0.2726
1.5343 -4.2386 0.2731
1.4370 -4.3030 0.2724
0.8998 -4.5587 0.2693
1.1504 -4.0978 0.2737
1.1503 -4.0441 0.2742
0.8874 -3.1835 0.2812
0.9222 -3.0534 0.2824
0.7497 -2.6387 0.2857
0.4389 -2.4427 0.2869
-0.6687 -2.0199 0.2889
-0.8239 -1.9056 0.2896
-0.0344 -1.9629 0.2903
-0.2570 -1.8217 0.2912
-0.3143 -1.7453 0.2918
-0.3339 -1.6847 0.2923
1.6339 -4.2635 0.2393
1.5960 -4.2661 0.2383
1.4802 -4.3640 0.2335
1.5314 -4.2496 0.2368
1.3932 -4.3615 0.2312
1.1961 -4.5274 0.2232
1.4191 -4.1758 0.2351
0.9368 -4.3324 0.2195
1.1060 -4.1368 0.2273
1.0914 -4.0917 0.2277
0.9281 -3.1765 0.2387
0.8003 -2.6433 0.2443
0.8174 -2.6094 0.2453
0.6733 -2.5372 0.2427
-0.7276 -1.9900 0.2144
-0.7779 -1.9081 0.2145
-0.2219 -1.9289 0.2290
-0.2786 -1.8537 0.2287
-0.2984 -1.7927 0.2292
-0.2993 -1.7400 0.2301
-0.3380 -1.6707 0.2302
1.6391 -4.2646 0.2054
1.6006 -4.2680 0.2033
1.5516 -4.2819 0.2004
1.5478 -4.2371 0.2013
1.5123 -4.2300 0.1997
1.3991 -4.1018 0.1970
1.1171 -4.1328 0.1814
1.0879 -4.0987 0.1808
-0.6994 -4.3959 0.0799
0.9001 -3.1768 0.1941
0.9321 -3.1304 0.1969
1.0388 -2.8230 0.2102
1.0683 -2.7588 0.2134
0.9965 -2.7124 0.2108
0.9124 -2.6609 0.2077
0.8642 -2.6144 0.2063
0.7176 -2.5418 0.2005
-0.6566 -1.9358 0.1439
0.1772 -2.1652 0.1817
-0.3209 -1.8792 0.1628
-0.4436 -1.7747 0.1590
-0.5294 -1.5696 0.1597
1.5791 -4.2548 0.1666
1.5489 -4.2433 0.1646
1.5212 -4.2268 0.1630
1.5095 -4.1908 0.1633
1.4633 -4.1923 0.1596
1.3995 -4.2087 0.1541
1.3716 -4.1850 0.1527
1.3426 -4.1610 0.1512
1.1508 -4.2248 0.1341
1.1001 -4.2092 0.1307
-0.4982 -5.0557 -0.0226
-0.3496 -4.8489 -0.0040
-0.5829 -4.4508 -0.0089
-0.6122 -4.3602 -0.0082
-0.6416 -4.2697 -0.0075
-0.6396 -4.1677 -0.0039
0.9918 -3.1646 0.1572
0.9848 -3.1235 0.1580
1.0198 -3.0806 0.1622
1.0533 -2.8205 0.1735
1.0594 -2.7867 0.1751
1.1050 -2.7604 0.1796
1.0712 -2.7216 0.1782
0.9686 -2.6673 0.1720
0.8451 -2.6043 0.1645
0.6493 -2.5182 0.1521
-0.6407 -1.9931 0.0688
-0.4722 -1.9854 0.0823
0.3427 -2.2147 0.1383
0.1453 -2.0976 0.1268
-0.9558 -1.6177 0.0568
-1.1684 -1.4633 0.0453
-1.6826 -1.1719 0.0149
1.6176 -4.3112 0.1318
1.5880 -4.3013 0.1291
1.5765 -4.2661 0.1294
1.5214 -4.2848 0.1228
1.5011 -4.2580 0.1218
1.4845 -4.2262 0.1214
-0.6838 -4.2872 -0.1075
-0.7478 -4.2072 -0.1108
-0.8828 -4.1486 -0.1225
-0.9515 -4.0637 -0.1261
-0.9094 -3.9463 -0.1167
-0.9403 -3.8510 -0.1160
0.9670 -3.1220 0.1138
1.0097 -3.0781 0.1201
0.9832 -3.0386 0.1190
0.9343 -2.9984 0.1156
0.8927 -2.9156 0.1147
0.9236 -2.8775 0.1195
0.9803 -2.8442 0.1268
1.0337 -2.7096 0.1381
1.0027 -2.6694 0.1365
0.8697 -2.6043 0.1254
0.5842 -2.4948 0.1002
-0.6476 -1.9789 -0.0068
-0.5479 -1.9481 0.0049
-0.4766 -1.7940 0.0188
1.2346 -4.5191 0.0346
1.1098 -4.5931 0.0145
1.3042 -4.2653 0.0566
-0.4840 -5.1770 -0.2239
-0.4522 -5.0393 -0.2127
-0.4512 -4.9260 -0.2069
-0.5733 -4.6658 -0.2097
-0.6695 -4.6051 -0.2192
-0.6667 -4.4942 -0.2132
-0.6642 -4.3857 -0.2074
-0.6610 -4.2791 -0.2016
-0.7585 -4.2112 -0.2109
-0.8241 -4.1285 -0.2153
-0.9275 -4.0551 -0.2252
-0.9168 -3.8426 -0.2130
-0.9477 -3.7473 -0.2122
0.9917 -3.0759 0.0759
0.9650 -3.0357 0.0744
0.8447 -2.9943 0.0607
0.8221 -2.9505 0.0600
0.7466 -2.5690 0.0694
0.5348 -2.4750 0.0464
-0.6062 -2.0451 -0.0813
-0.6812 -1.9558 -0.0866
-1.0126 -1.6352 -0.1138
-0.7770 -1.6607 -0.0842
-0.6711 -1.6416 -0.0694
-0.6941 -1.5707 -0.0688
1.0260 -5.2450 -0.0906
1.0370 -4.9837 -0.0733
0.9094 -5.0651 -0.0983
0.8677 -5.0327 -0.1030
1.1459 -4.6300 -0.0351
1.1681 -4.5381 -0.0261
1.2749 -4.3604 0.0013
1.3201 -4.2560 0.0146
1.3183 -4.2024 0.0175
0.8654 -4.4931 -0.0713
0.6746 -4.5819 -0.1067
-0.2242 -5.2203 -0.2867
-0.3986 -5.2405 -0.3154
-0.3389 -5.0814 -0.2965
-0.2833 -4.9321 -0.2789
-0.2846 -4.8256 -0.2728
-0.3984 -4.7891 -0.2886
-0.4884 -4.7330 -0.2995
-0.2362 -4.4905 -0.2452
-0.1873 -4.3687 -0.2302
-0.1649 -4.2644 -0.2205
-0.3451 -4.1547 -0.2425
-0.3993 -4.0806 -0.2466
-0.4543 -3.9111 -0.2453
-0.3469 -3.7899 -0.2211
-0.2728 -3.6848 -0.2031
-0.3225 -3.6117 -0.2067
-0.3737 -3.5375 -0.2103
-0.3489 -3.4502 -0.2012
0.7551 -2.9441 0.0033
0.1922 -2.8092 -0.0776
1.0084 -2.6602 0.0602
0.8813 -2.5954 0.0439
0.4930 -2.4567 -0.0092
-0.5641 -2.0461 -0.1518
-0.7166 -1.9319 -0.1692
-1.0680 -1.7434 -0.2135
-1.2317 -1.6107 -0.2315
-1.0882 -1.5914 -0.2077
-0.9876 -1.5613 -0.1900
-0.6536 -1.6354 -0.1416
-0.6025 -1.5974 -0.1313
-0.6017 -1.5388 -0.1277
-0.6240 -1.4700 -0.1271
0.8845 -5.7628 -0.2141
1.0396 -5.4163 -0.1617
0.9016 -5.5384 -0.1956
0.9039 -5.4405 -0.1885
0.5833 -5.8023 -0.2727
0.8271 -5.3630 -0.1975
0.8425 -5.2512 -0.1870
0.8910 -5.1014 -0.1677
1.1432 -4.6430 -0.0897
1.1572 -4.5591 -0.0814
1.2604 -4.3834 -0.0502
1.3305 -4.2523 -0.0283
1.2508 -4.2742 -0.0446
0.5900 -4.7435 -0.1991
0.5972 -4.6543 -0.1917
0.4098 -4.7230 -0.2311
0.3010 -4.7186 -0.2510
0.3302 -4.6081 -0.2380
0.3588 -4.5020 -0.2255
0.3363 -4.4327 -0.2249
0.3138 -4.3634 -0.2244
0.3079 -4.2847 -0.2201
0.2689 -4.2248 -0.2232
0.2464 -4.1555 -0.2227
0.2059 -4.0945 -0.2260
0.2014 -4.0169 -0.2216
0.1606 -3.9548 -0.2249
0.1195 -3.8917 -0.2282
0.0967 -3.8214 -0.2276
0.0739 -3.7510 -0.2270
0.0311 -3.6860 -0.2305
0.0081 -3.6151 -0.2300
-0.0759 -3.5570 -0.2416
-0.0789 -3.4806 -0.2369
-0.1023 -3.4086 -0.2363
-0.1048 -3.3340 -0.2317
0.7543 -2.9856 -0.0486
0.7476 -2.9394 -0.0467
-0.0641 -2.7811 -0.1864
0.0752 -2.7327 -0.1573
1.1171 -2.7443 0.0351
1.0947 -2.7070 0.0335
1.1055 -2.6766 0.0376
0.4710 -2.4434 -0.0641
-0.6981 -1.9252 -0.2455
-0.5153 -1.6227 -0.1910
-0.5847 -1.5328 -0.1977
-0.6303 -1.4526 -0.2007
1.2903 -5.1900 -0.1548
1.2860 -5.0407 -0.1442
1.1802 -4.7492 -0.1442
1.2160 -4.6353 -0.1277
1.2002 -4.5866 -0.1273
1.3170 -4.3901 -0.0873
1.3660 -4.2786 -0.0682
1.3578 -4.2313 -0.0663
1.3607 -4.1737 -0.0612
1.2962 -4.1804 -0.0755
1.2266 -4.1871 -0.0909
0.4615 -4.5196 -0.2796
0.4086 -4.4735 -0.2874
0.3865 -4.4052 -0.2868
0.3960 -4.3177 -0.2780
0.4521 -4.2060 -0.2574
0.3506 -3.3365 -0.2118
0.3745 -3.2710 -0.2017
0.7366 -3.1258 -0.1133
0.7685 -3.0755 -0.1026
0.8155 -3.0274 -0.0889
0.8924 -2.9830 -0.0690
0.8036 -2.9370 -0.0844
0.8560 -2.8961 -0.0701
0.8176 -2.8506 -0.0747
1.0809 -2.7673 -0.0122
1.1148 -2.7392 -0.0028
1.0979 -2.7027 -0.0036
1.1030 -2.6710 -0.0000
1.2420 -5.2080 -0.2238
1.1396 -4.9643 -0.2274
1.2019 -4.8048 -0.1986
1.2438 -4.6796 -0.1777
1.2827 -4.5641 -0.1583
1.3898 -4.3167 -0.1111
1.3710 -4.2806 -0.1125
1.3406 -4.2559 -0.1177
1.3438 -4.1967 -0.1118
1.3684 -4.1189 -0.0991
1.0014 -4.3938 -0.2115
0.9380 -4.3806 -0.2256
0.9390 -4.3115 -0.2194
0.9217 -4.2580 -0.2190
0.9142 -4.1973 -0.2155
0.9161 -4.1309 -0.2094
0.7980 -4.1437 -0.2390
0.7468 -4.1081 -0.2483
0.7284 -4.0513 -0.2478
0.7325 -3.9824 -0.2408
0.7143 -3.9263 -0.2404
0.6961 -3.8702 -0.2399
0.6421 -3.8295 -0.2494
0.6362 -3.7672 -0.2455
0.6178 -3.7104 -0.2450
0.6232 -3.6457 -0.2381
0.5930 -3.5932 -0.2409
0.5625 -3.5400 -0.2436
0.5563 -3.4802 -0.2399
0.5380 -3.4238 -0.2395
0.5688 -3.3585 -0.2264
0.6325 -3.2912 -0.2052
0.5330 -3.2483 -0.2255
0.4776 -3.1967 -0.2344
0.4594 -3.1406 -0.2340
0.5518 -3.0802 -0.2065
0.8521 -3.0231 -0.1291
0.7946 -2.9776 -0.1390
0.7889 -2.9320 -0.1364
0.9602 -2.8195 -0.0854
1.0661 -2.7254 -0.0517
1.1012 -2.6985 -0.0409
1.0896 -2.6629 -0.0406
1.0304 -2.6152 -0.0508
0.1717 -2.2944 -0.2303
0.1681 -2.2426 -0.2267
0.1499 -2.1864 -0.2262
0.0856 -2.1138 -0.2355
0.0670 -2.0566 -0.2350
0.0649 -2.0059 -0.2311
0.0924 -1.9684 -0.2213
0.1182 -1.9318 -0.2119
1.4408 -4.4383 -0.1546
1.4619 -4.3539 -0.1408
1.4137 -4.3548 -0.1540
1.2225 -4.5135 -0.2207
1.1851 -4.4887 -0.2285
1.2836 -4.2625 -0.1802
1.4013 -4.0423 -0.1274
1.0331 -4.2412 -0.2458
1.0336 -4.1773 -0.2396
1.0418 -4.1092 -0.2308
1.0257 -4.0597 -0.2304
0.9099 -3.8302 -0.2397
0.7858 -3.4788 -0.2396
0.7984 -3.4211 -0.2307
0.7822 -3.3711 -0.2303
0.7755 -3.3194 -0.2271
0.7594 -3.2696 -0.2267
0.7238 -3.2222 -0.2318
0.6328 -3.1788 -0.2522
0.5703 -3.1294 -0.2643
0.6989 -3.0208 -0.2192
0.7134 -2.9721 -0.2107
0.6874 -2.9232 -0.2130
0.6717 -2.8746 -0.2126
0.7153 -2.8314 -0.1967
0.9136 -2.7695 -0.1372
1.0450 -2.7165 -0.0967
1.1093 -2.6623 -0.0741
1.0207 -2.6071 -0.0928
0.3196 -2.2819 -0.2509
0.2752 -2.2197 -0.2569
0.2716 -2.1711 -0.2533
0.2650 -1.9419 -0.2331
0.2866 -1.9090 -0.2241
0.3197 -1.8831 -0.2127
1.5345 -4.3824 -0.1667
1.5041 -4.3662 -0.1741
1.4626 -4.3618 -0.1861
1.2622 -4.4776 -0.2581
1.2395 -4.4385 -0.2608
1.2106 -4.4051 -0.2659
1.2019 -4.3504 -0.2628
1.2080 -4.2824 -0.2538
1.2720 -4.1641 -0.2223
1.3825 -4.0129 -0.1733
1.1552 -4.1475 -0.2554
1.1399 -4.1003 -0.2551
1.1092 -4.0645 -0.2605
1.1167 -4.0009 -0.2515
1.0857 -3.9643 -0.2569
1.0787 -3.9117 -0.2535
1.0862 -3.8514 -0.2449
1.0635 -3.8091 -0.2473
1.0406 -3.7664 -0.2496
1.0332 -3.7158 -0.2465
1.0260 -3.6657 -0.2434
0.9949 -3.6256 -0.2485
0.9716 -3.5817 -0.2508
0.9808 -3.5264 -0.2423
0.9493 -3.4849 -0.2473
0.9036 -3.3442 -0.2462
0.8884 -3.2973 -0.2458
0.8818 -3.2491 -0.2427
0.8667 -3.2024 -0.2424
0.8340 -3.1573 -0.2474
0.9889 -3.0996 -0.1950
0.8560 -3.0612 -0.2307
0.8061 -3.0157 -0.2408
0.7728 -2.9687 -0.2458
0.7575 -2.9215 -0.2455
0.7607 -2.8757 -0.2397
0.7455 -2.8290 -0.2393
0.7576 -2.7856 -0.2312
0.8216 -2.7510 -0.2084
1.0017 -2.7398 -0.1534
1.0093 -2.7046 -0.1474
1.0604 -2.6455 -0.1259
1.0485 -2.6087 -0.1256
0.9382 -2.5442 -0.1518
0.5369 -2.3870 -0.2552
0.5526 -2.3488 -0.2465
0.5473 -2.3046 -0.2434
0.5320 -2.2572 -0.2431
0.5166 -2.2098 -0.2427
0.5012 -2.1624 -0.2423
0.4753 -2.1105 -0.2446
0.4704 -2.0676 -0.2415
0.4551 -2.0201 -0.2411
0.4397 -1.9727 -0.2407
0.4471 -1.9368 -0.2348
1.8024 -4.2535 -0.1074
1.5114 -4.5424 -0.2360
1.4810 -4.4054 -0.2303
1.4868 -4.3405 -0.2210
1.4644 -4.3114 -0.2250
1.3159 -4.3635 -0.2797
1.3259 -4.2928 -0.2684
1.3330 -4.1704 -0.2520
1.3529 -4.0967 -0.2370
1.3924 -4.0094 -0.2140
1.3369 -4.0042 -0.2316
1.2387 -3.7659 -0.2366
1.2183 -3.7276 -0.2389
1.1788 -3.6490 -0.2428
1.1441 -3.5667 -0.2448
1.1489 -3.4246 -0.2269
1.0609 -3.3101 -0.2427
1.0329 -3.2698 -0.2473
1.0189 -3.2267 -0.2469
1.0404 -3.1794 -0.2344
1.1072 -3.1302 -0.2069
1.0619 -3.0921 -0.2174
0.9361 -2.9253 -0.2396
0.9447 -2.8842 -0.2320
0.9392 -2.8428 -0.2291
0.8945 -2.7970 -0.2385
0.9036 -2.7577 -0.2310
0.9638 -2.7282 -0.2079
0.9646 -2.6906 -0.2033
1.0576 -2.6393 -0.1669
1.1098 -2.6193 -0.1474
1.0577 -2.5722 -0.1591
0.7005 -2.3894 -0.2555
0.6807 -2.3040 -0.2522
0.7018 -2.2736 -0.2418
0.6613 -2.2194 -0.2489
0.5708 -1.9897 -0.2522
1.6409 -4.2568 -0.2004
1.5460 -4.3301 -0.2435
1.5059 -4.3255 -0.2573
1.4887 -4.2907 -0.2592
1.4757 -4.2506 -0.2588
1.4575 -4.2161 -0.2610
1.4592 -4.1603 -0.2535
1.4605 -4.1063 -0.2463
1.4379 -4.0764 -0.2507
1.4152 -4.0458 -0.2550
1.4076 -4.0011 -0.2522
1.3791 -3.9742 -0.2591
1.3447 -3.9505 -0.2684
1.3633 -3.8859 -0.2537
1.3342 -3.8572 -0.2606
1.3268 -3.8130 -0.2578
1.3079 -3.7762 -0.2599
1.2840 -3.7420 -0.2643
1.2766 -3.6980 -0.2614
1.2726 -3.6062 -0.2515
1.2657 -3.5636 -0.2486
1.2291 -3.5332 -0.2580
1.2160 -3.4928 -0.2576
1.2270 -3.4443 -0.2477
1.2130 -3.3616 -0.2424
1.1938 -3.3236 -0.2446
1.1568 -3.2889 -0.2535
1.1316 -3.2508 -0.2578
1.1307 -3.2083 -0.2528
1.1243 -3.1673 -0.2500
1.1170 -3.1266 -0.2476
1.0592 -2.9272 -0.2435
1.0189 -2.8853 -0.2527
1.0396 -2.8482 -0.2407
1.0205 -2.8078 -0.2425
1.0010 -2.7294 -0.2397
1.0283 -2.6978 -0.2260
1.1139 -2.6809 -0.1933
1.1301 -2.6516 -0.1838
1.1348 -2.6205 -0.1783
1.1016 -2.5791 -0.1850
1.0119 -2.5191 -0.2097
0.9532 -2.4661 -0.2241
0.8770 -2.4049 -0.2438
0.8561 -2.3618 -0.2459
0.8577 -2.3274 -0.2411
0.8379 -2.2845 -0.2428
0.8318 -2.2474 -0.2404
0.8038 -2.2006 -0.2446
0.7989 -2.1642 -0.2419
0.7859 -2.1241 -0.2415
0.8179 -2.1071 -0.2279
1.6422 -4.2639 -0.2411
1.6154 -4.2478 -0.2493
1.5840 -4.2359 -0.2599
1.5761 -4.1934 -0.2573
1.5719 -4.1471 -0.2527
1.5563 -4.1142 -0.2544
1.5604 -4.0602 -0.2455
1.5641 -4.0080 -0.2371
1.5368 -3.9873 -0.2449
1.5408 -3.9363 -0.2365
1.5215 -3.9070 -0.2401
1.5222 -3.8607 -0.2336
1.4981 -3.8347 -0.2395
1.4642 -3.8150 -0.2500
1.4954 -3.7479 -0.2289
1.4758 -3.7177 -0.2324
1.4332 -3.7012 -0.2468
1.4345 -3.6568 -0.2403
1.4227 -3.6205 -0.2400
1.3924 -3.5936 -0.2482
1.3710 -3.5611 -0.2521
1.3851 -3.4714 -0.2346
1.3662 -3.3979 -0.2321
1.3546 -3.3620 -0.2318
1.3339 -3.3285 -0.2354
1.3066 -3.2960 -0.2416
1.3150 -3.2553 -0.2329
1.2987 -3.2201 -0.2345
1.2964 -3.1826 -0.2304
1.2752 -3.1478 -0.2339
1.2635 -3.1116 -0.2336
1.2412 -3.0760 -0.2375
1.2342 -3.0395 -0.2353
1.2283 -3.0031 -0.2327
1.2107 -2.9668 -0.2347
1.2093 -2.8959 -0.2258
1.1479 -2.8550 -0.2441
1.1410 -2.8186 -0.2419
1.1466 -2.7845 -0.2352
1.1348 -2.7480 -0.2349
1.1345 -2.7139 -0.2304
1.1397 -2.6816 -0.2240
1.1442 -2.6498 -0.2180
1.1542 -2.6203 -0.2102
1.1907 -2.5996 -0.1932
1.1798 -2.5659 -0.1929
1.1259 -2.5178 -0.2074
1.0024 -2.4429 -0.2453
1.0093 -2.4127 -0.2386
0.9850 -2.3709 -0.2425
0.9604 -2.3284 -0.2463
0.9276 -2.2818 -0.2528
0.9153 -2.2438 -0.2525
1.7467 -4.4322 -0.2624
1.7208 -4.3675 -0.2639
1.7094 -4.3325 -0.2636
1.7243 -4.2581 -0.2467
1.7770 -4.1322 -0.2064
1.6753 -4.2273 -0.2628
1.6708 -4.1832 -0.2583
1.6526 -4.1571 -0.2622
1.6482 -4.1136 -0.2578
1.6369 -4.0788 -0.2575
1.6292 -4.0400 -0.2551
1.6179 -4.0053 -0.2548
1.5992 -3.9324 -0.2522
1.5842 -3.9013 -0.2540
1.5730 -3.8667 -0.2537
1.5579 -3.8352 -0.2555
1.5196 -3.7773 -0.2632
1.5161 -3.7364 -0.2588
1.4852 -3.6713 -0.2623
1.4656 -3.6407 -0.2662
1.4623 -3.6006 -0.2618
1.4508 -3.5653 -0.2615
1.4267 -3.5359 -0.2674
1.4176 -3.3427 -0.2433
1.3546 -3.2837 -0.2612
1.3477 -3.2473 -0.2589
1.3641 -3.1357 -0.2359
1.3303 -3.1037 -0.2455
1.3143 -3.0694 -0.2472
1.2789 -3.0353 -0.2572
1.3016 -3.0001 -0.2426
1.2855 -2.9655 -0.2443
1.2694 -2.9307 -0.2461
1.2631 -2.8965 -0.2438
1.2418 -2.8608 -0.2476
1.2305 -2.8261 -0.2473
1.2038 -2.7888 -0.2531
1.1976 -2.7546 -0.2508
1.1758 -2.7174 -0.2546
1.1591 -2.6808 -0.2563
1.1741 -2.6521 -0.2459
1.2281 -2.6053 -0.2165
1.2598 -2.5859 -0.2004
1.2440 -2.5522 -0.2022
1.1861 -2.5029 -0.2193
1.1654 -2.4659 -0.2227
1.1119 -2.4153 -0.2378
1.0668 -2.3665 -0.2497
1.0554 -2.3313 -0.2494
1.0268 -2.2880 -0.2552
1.2693 -2.3508 -0.1625
1.2691 -2.3262 -0.1591
1.8332 -4.3415 -0.2493
1.8204 -4.3139 -0.2509
1.8075 -4.2860 -0.2524
1.7806 -4.2807 -0.2637
1.7757 -4.2387 -0.2594
1.7979 -4.1104 -0.2296
1.7439 -4.1407 -0.2586
1.7299 -4.1125 -0.2605
1.7193 -4.0797 -0.2603
1.7177 -4.0359 -0.2543
1.6980 -4.0141 -0.2597
1.6810 -3.9885 -0.2635
1.6803 -3.9447 -0.2570
1.6755 -3.9061 -0.2532
1.6775 -3.8615 -0.2454
1.6448 -3.8501 -0.2584
1.6312 -3.8200 -0.2599
1.6464 -3.7655 -0.2446
1.6098 -3.7541 -0.2594
1.6255 -3.6622 -0.2381
1.5985 -3.6029 -0.2411
1.5743 -3.5792 -0.2484
1.5492 -3.5166 -0.2500
1.5672 -3.4707 -0.2348
1.5570 -3.4392 -0.2346
1.5433 -3.4090 -0.2361
1.5071 -3.3868 -0.2490
1.5022 -3.2824 -0.2351
1.4803 -3.2534 -0.2405
1.4522 -3.1907 -0.2435
1.4491 -3.1574 -0.2397
1.4276 -3.1266 -0.2447
1.4266 -3.0610 -0.2350
1.3961 -3.0297 -0.2439
1.3869 -2.9654 -0.2381
1.3814 -2.9337 -0.2357
1.3273 -2.8981 -0.2546
1.3200 -2.8340 -0.2480
1.3135 -2.8019 -0.2460
1.2803 -2.7652 -0.2552
1.2644 -2.7310 -0.2571
1.2954 -2.7074 -0.2395
1.2850 -2.6752 -0.2393
1.2703 -2.6418 -0.2407
1.2780 -2.6150 -0.2331
1.2677 -2.5831 -0.2329
1.2519 -2.5494 -0.2348
1.2415 -2.5174 -0.2345
1.2223 -2.4819 -0.2377
1.1929 -2.4419 -0.2448
1.1722 -2.4049 -0.2484
1.1456 -2.3649 -0.2542
1.2798 -2.3997 -0.1991
1.2954 -2.3822 -0.1894
1.2766 -2.3482 -0.1926
1.2110 -2.2891 -0.2130
1.1434 -2.2268 -0.2339
1.8633 -4.2976 -0.2645
1.8432 -4.2355 -0.2640
1.8231 -4.2210 -0.2712
1.8180 -4.1815 -0.2672
1.8329 -4.1121 -0.2486
1.8133 -4.0962 -0.2554
1.8061 -4.0619 -0.2533
1.7908 -4.0386 -0.2568
1.7782 -4.0114 -0.2584
1.7572 -3.9941 -0.2657
1.7526 -3.9564 -0.2617
1.7482 -3.9190 -0.2577
1.7296 -3.8974 -0.2631
1.7224 -3.8633 -0.2609
1.7153 -3.8294 -0.2588
1.6893 -3.7729 -0.2620
1.6419 -3.6152 -0.2589
1.4462 -2.9643 -0.2462
1.4333 -2.9038 -0.2425
1.4005 -2.8708 -0.2529
1.4065 -2.8420 -0.2452
1.3844 -2.8094 -0.2505
1.3621 -2.7762 -0.2558
1.3602 -2.7467 -0.2518
1.3626 -2.7186 -0.2461
1.3611 -2.6901 -0.2421
1.3427 -2.6572 -0.2456
1.3200 -2.6226 -0.2508
1.3099 -2.5916 -0.2506
1.2825 -2.5545 -0.2577
1.2854 -2.5279 -0.2519
1.2665 -2.4934 -0.2553
1.2697 -2.4675 -0.2496
1.2641 -2.4385 -0.2475
1.2315 -2.3973 -0.2564
1.3155 -2.4106 -0.2181
1.3106 -2.3836 -0.2160
1.2724 -2.3397 -0.2272
1.2325 -2.2938 -0.2389
1.1992 -2.2504 -0.2478
1.9148 -4.2127 -0.2591
1.9096 -4.1761 -0.2554
1.8984 -4.1504 -0.2567
1.8970 -4.1081 -0.2499
1.8771 -4.0965 -0.2582
1.8702 -4.0636 -0.2559
1.8737 -4.0157 -0.2458
1.8645 -3.9872 -0.2455
1.8507 -3.9651 -0.2488
1.8347 -3.9452 -0.2535
1.8301 -3.9105 -0.2498
1.8160 -3.8875 -0.2530
1.8066 -3.8586 -0.2528
1.7902 -3.8374 -0.2575
1.8021 -3.7862 -0.2424
1.7908 -3.7600 -0.2437
1.7765 -3.7364 -0.2469
1.7724 -3.7032 -0.2432
1.7388 -3.6584 -0.2527
1.7371 -3.6237 -0.2475
1.7247 -3.5972 -0.2492
1.7232 -3.5632 -0.2440
1.7218 -3.5297 -0.2389
1.6999 -3.5090 -0.2465
1.6873 -3.4821 -0.2483
1.6731 -3.4558 -0.2510
1.6719 -3.4230 -0.2458
1.6626 -3.3943 -0.2456
1.6584 -3.3636 -0.2424
1.6321 -3.3413 -0.2520
1.6287 -3.3103 -0.2483
1.6367 -3.2763 -0.2383
1.6122 -3.2210 -0.2413
1.5886 -3.1954 -0.2489
1.6000 -3.1630 -0.2374
1.5726 -3.1371 -0.2469
1.5696 -3.1076 -0.2433
1.5417 -3.0507 -0.2477
1.5417 -3.0215 -0.2426
1.5257 -2.9928 -0.2458
1.5260 -2.9643 -0.2406
1.5002 -2.9346 -0.2487
1.4977 -2.9062 -0.2451
1.4982 -2.8785 -0.2399
1.4959 -2.8509 -0.2363
1.4766 -2.8208 -0.2409
1.4602 -2.7908 -0.2441
1.4580 -2.7635 -0.2405
1.4518 -2.7355 -0.2388
1.4457 -2.7078 -0.2371
1.4333 -2.6784 -0.2383
1.4028 -2.6432 -0.2478
1.3934 -2.6141 -0.2476
1.3764 -2.5823 -0.2508
1.3821 -2.5587 -0.2437
1.3760 -2.5310 -0.2420
1.3699 -2.5036 -0.2403
1.3606 -2.4748 -0.2401
1.3557 -2.4480 -0.2379
1.3385 -2.4156 -0.2411
1.3439 -2.3941 -0.2345
1.3232 -2.3596 -0.2391
1.3104 -2.3290 -0.2404
1.3092 -2.3047 -0.2367
1.9436 -4.1692 -0.2692
1.9363 -4.1379 -0.2674
1.9272 -4.1099 -0.2672
1.9163 -4.0850 -0.2685
1.9171 -4.0409 -0.2599
1.9101 -4.0104 -0.2581
1.9050 -3.9772 -0.2547
1.8980 -3.9470 -0.2529
1.8763 -3.8976 -0.2556
1.7752 -3.6324 -0.2618
1.5944 -3.0460 -0.2518
1.5642 -2.8831 -0.2381
1.5197 -2.8244 -0.2516
1.5006 -2.7948 -0.2565
1.4987 -2.7683 -0.2527
1.5051 -2.7443 -0.2447
1.4931 -2.7161 -0.2460
1.4810 -2.6877 -0.2474
1.4689 -2.6591 -0.2487
1.4600 -2.6315 -0.2485
1.4403 -2.6000 -0.2534
1.4420 -2.5762 -0.2480
1.4331 -2.5486 -0.2478
1.4208 -2.5196 -0.2491
1.4041 -2.4884 -0.2525
1.3995 -2.4626 -0.2502
1.3826 -2.4310 -0.2535
1.3849 -2.4087 -0.2482
1.3759 -2.3810 -0.2480
1.3588 -2.3489 -0.2513
1.9808 -4.0664 -0.2605
1.9735 -4.0381 -0.2592
1.9650 -4.0118 -0.2590
1.9583 -3.9826 -0.2571
1.9536 -3.9506 -0.2536
1.9452 -3.9247 -0.2534
1.9348 -3.9014 -0.2548
1.9283 -3.8727 -0.2530
1.9219 -3.8441 -0.2511
1.9201 -3.8098 -0.2454
1.9030 -3.7947 -0.2523
1.8925 -3.7711 -0.2538
1.8938 -3.7344 -0.2459
1.8833 -3.7109 -0.2473
1.8729 -3.6873 -0.2487
1.8666 -3.6594 -0.2469
1.8525 -3.6388 -0.2511
1.8521 -3.6059 -0.2448
1.8415 -3.5820 -0.2462
1.8332 -3.5563 -0.2460
1.8142 -3.5381 -0.2535
1.8165 -3.5047 -0.2456
1.8019 -3.4829 -0.2498
1.7997 -3.4532 -0.2452
1.7826 -3.4322 -0.2510
1.7766 -3.4049 -0.2492
1.7682 -3.3790 -0.2489
1.7663 -3.3501 -0.2444
1.7372 -3.3326 -0.2578
1.7454 -3.3001 -0.2467
1.7268 -3.2775 -0.2530
1.7140 -3.2526 -0.2555
1.7202 -3.2224 -0.2460
1.7039 -3.1983 -0.2507
1.7078 -3.1697 -0.2429
1.7039 -3.1432 -0.2400
1.6866 -3.1187 -0.2452
1.6782 -3.0928 -0.2450
1.6716 -3.0668 -0.2437
1.6586 -3.0411 -0.2462
1.6502 -3.0152 -0.2460
1.6361 -2.9891 -0.2490
1.6381 -2.9634 -0.2428
1.6191 -2.9368 -0.2486
1.6135 -2.9109 -0.2468
1.5992 -2.8842 -0.2498
1.5887 -2.8576 -0.2507
1.5713 -2.8298 -0.2554
1.5627 -2.8033 -0.2552
1.5571 -2.7774 -0.2533
1.5710 -2.7566 -0.2412
1.5430 -2.7254 -0.2513
1.5573 -2.7058 -0.2391
1.5374 -2.6763 -0.2449
1.5174 -2.6463 -0.2506
1.5205 -2.6242 -0.2444
1.5121 -2.5982 -0.2442
1.5101 -2.5747 -0.2408
1.5039 -2.5498 -0.2395
1.4900 -2.5214 -0.2420
1.4749 -2.4923 -0.2450
1.4787 -2.4722 -0.2389
1.4737 -2.4481 -0.2370
1.4687 -2.4241 -0.2352
1.4536 -2.3946 -0.2382
1.9864 -3.9840 -0.2712
1.9733 -3.9664 -0.2756
1.9699 -3.9328 -0.2708
1.9666 -3.8997 -0.2660
1.9501 -3.8863 -0.2733
1.9533 -3.8446 -0.2626
1.9471 -3.8168 -0.2607
1.9488 -3.7791 -0.2518
1.8927 -3.6060 -0.2504
1.8905 -3.5763 -0.2456
1.8546 -3.4512 -0.2417
1.8309 -3.4068 -0.2471
1.8088 -3.3042 -0.2394
1.7871 -3.2575 -0.2430
1.7483 -3.1608 -0.2468
1.7359 -3.0854 -0.2388
1.7235 -3.0613 -0.2414
1.7082 -3.0371 -0.2458
1.7122 -3.0122 -0.2382
1.6888 -2.9631 -0.2423
1.6629 -2.8891 -0.2429
1.6569 -2.8647 -0.2415
1.6390 -2.8383 -0.2470
1.6310 -2.8135 -0.2468
1.6329 -2.7909 -0.2409
1.6077 -2.7620 -0.2504
1.6047 -2.7383 -0.2474
1.5966 -2.7134 -0.2472
1.5854 -2.6875 -0.2487
1.5805 -2.6636 -0.2468
1.5616 -2.5910 -0.2433
1.5427 -2.5615 -0.2488
1.5232 -2.5099 -0.2501
1.5117 -2.4831 -0.2516
1.5035 -2.4579 -0.2514
1.4863 -2.4278 -0.2557
1.4815 -2.4043 -0.2538
2.0271 -3.9225 -0.2620
2.0247 -3.8896 -0.2564
2.0103 -3.8764 -0.2629
2.0068 -3.8458 -0.2584
1.9972 -3.8246 -0.2600
1.9939 -3.7945 -0.2556
1.9907 -3.7647 -0.2512
1.9804 -3.7444 -0.2534
1.9727 -3.7207 -0.2532
1.9583 -3.7048 -0.2591
1.9587 -3.6718 -0.2516
1.9462 -3.6533 -0.2557
1.9448 -3.6231 -0.2500
1.9322 -3.6043 -0.2541
1.9294 -3.5760 -0.2496
1.9254 -3.5493 -0.2464
1.9076 -3.5341 -0.2547
1.9131 -3.5001 -0.2436
1.9041 -3.4778 -0.2447
1.8882 -3.4601 -0.2511
1.8743 -3.4118 -0.2495
1.8557 -3.3942 -0.2577
1.8645 -3.3616 -0.2449
1.8473 -3.3427 -0.2519
1.8417 -3.2913 -0.2443
1.8225 -3.2720 -0.2526
1.8148 -3.2482 -0.2524
1.8088 -3.2239 -0.2510
1.7977 -3.2010 -0.2532
1.7873 -3.1777 -0.2548
1.7943 -3.1509 -0.2444
1.7718 -3.1297 -0.2544
1.7670 -3.0808 -0.2468
1.7467 -3.0580 -0.2550
1.7535 -3.0334 -0.2452
1.7504 -3.0098 -0.2420
1.7382 -2.9862 -0.2448
1.7333 -2.9628 -0.2429
1.7124 -2.9383 -0.2510
1.7305 -2.9170 -0.2347
1.7104 -2.8922 -0.2423
1.6931 -2.8672 -0.2481
1.6667 -2.8401 -0.2592
1.6757 -2.8193 -0.2489
1.6700 -2.7959 -0.2475
1.6693 -2.7739 -0.2431
1.6454 -2.7458 -0.2525
1.6591 -2.7283 -0.2398
1.6443 -2.7025 -0.2437
1.6387 -2.6796 -0.2424
1.6310 -2.6560 -0.2422
1.6191 -2.6307 -0.2444
1.6083 -2.6057 -0.2459
1.6005 -2.5819 -0.2457
1.5809 -2.5527 -0.2521
1.5643 -2.5244 -0.2567
1.5675 -2.5056 -0.2505
1.5697 -2.4868 -0.2450
1.5575 -2.4606 -0.2472
1.5622 -2.4437 -0.2404
1.5500 -2.4175 -0.2426
2.0793 -3.9106 -0.2526
2.0285 -3.7852 -0.2585
2.0236 -3.7588 -0.2558
2.0100 -3.6800 -0.2470
2.0001 -3.6607 -0.2493
1.9968 -3.6337 -0.2454
1.9882 -3.6128 -0.2465
1.9708 -3.5706 -0.2486
1.9562 -3.5256 -0.2482
1.8938 -3.3474 -0.2499
1.8864 -3.2989 -0.2439
1.8759 -3.2778 -0.2462
1.8596 -3.2333 -0.2471
1.8373 -3.1901 -0.2524
1.8333 -3.1665 -0.2497
1.8299 -3.1193 -0.2412
1.8209 -3.0971 -0.2423
1.8243 -3.0737 -0.2346
1.8064 -3.0523 -0.2419
1.8118 -3.0294 -0.2330
1.7790 -2.9849 -0.2451
1.7754 -2.9625 -0.2424
1.7540 -2.9390 -0.2516
1.7523 -2.9167 -0.2477
1.7463 -2.8727 -0.2417
1.7151 -2.7823 -0.2422
1.7058 -2.7592 -0.2433
1.6934 -2.7350 -0.2462
1.6881 -2.7130 -0.2448
1.6786 -2.6896 -0.2458
1.6713 -2.6669 -0.2456
1.6713 -2.6471 -0.2411
1.6587 -2.6224 -0.2440
1.6449 -2.5969 -0.2476
1.6079 -2.4828 -0.2466
1.6027 -2.4612 -0.2452
2.1040 -3.8723 -0.2531
2.0935 -3.8569 -0.2569
2.0817 -3.8092 -0.2539
2.0735 -3.7894 -0.2551
2.0615 -3.7751 -0.2602
2.0556 -3.7513 -0.2587
2.0498 -3.7276 -0.2572
2.0401 -3.7092 -0.2596
2.0317 -3.6888 -0.2608
2.0298 -3.6604 -0.2553
2.0266 -3.6339 -0.2512
2.0196 -3.6122 -0.2510
2.0099 -3.5934 -0.2535
2.0042 -3.5703 -0.2520
1.9957 -3.5499 -0.2531
1.9929 -3.5242 -0.2490
1.9859 -3.5026 -0.2488
1.9717 -3.4869 -0.2552
1.9675 -3.4628 -0.2524
1.9604 -3.4410 -0.2522
1.9489 -3.4223 -0.2560
1.9433 -3.3994 -0.2545
1.9407 -3.3747 -0.2504
1.9291 -3.3556 -0.2542
1.9337 -3.3277 -0.2441
1.9165 -3.3111 -0.2525
1.9173 -3.2857 -0.2458
1.8927 -3.2713 -0.2600
1.9001 -3.2438 -0.2480
1.8931 -3.2221 -0.2478
1.8918 -3.1987 -0.2431
1.8652 -3.1586 -0.2525
1.8526 -3.0919 -0.2455
1.8404 -3.0485 -0.2438
1.8244 -3.0272 -0.2502
1.8101 -3.0054 -0.2552
1.8102 -2.9836 -0.2498
1.7958 -2.9614 -0.2549
1.7886 -2.9393 -0.2547
1.7796 -2.9171 -0.2558
1.7838 -2.8965 -0.2478
1.7767 -2.8747 -0.2476
1.7639 -2.8519 -0.2514
1.7607 -2.8308 -0.2486
1.7496 -2.8080 -0.2510
1.7505 -2.7881 -0.2456
1.7384 -2.7453 -0.2440
1.7293 -2.7230 -0.2451
1.7202 -2.7005 -0.2462
1.7132 -2.6787 -0.2460
1.7061 -2.6569 -0.2459
1.6990 -2.6352 -0.2457
1.6941 -2.6143 -0.2442
1.6892 -2.5936 -0.2427
1.6778 -2.5698 -0.2451
1.6599 -2.5425 -0.2515
1.6549 -2.5216 -0.2500
1.6544 -2.5033 -0.2459
1.6496 -2.4827 -0.2444
2.0983 -3.7558 -0.2546
2.0817 -3.7186 -0.2576
2.0521 -3.6080 -0.2520
2.0467 -3.5857 -0.2504
2.0446 -3.5598 -0.2455
2.0345 -3.5427 -0.2487
2.0251 -3.5246 -0.2513
2.0232 -3.4993 -0.2463
2.0158 -3.4792 -0.2469
2.0098 -3.4580 -0.2460
2.0045 -3.4362 -0.2445
2.0015 -3.4129 -0.2409
1.9985 -3.3899 -0.2373
1.9830 -3.3753 -0.2453
1.9673 -3.3353 -0.2471
1.9559 -3.3169 -0.2510
1.9562 -3.2927 -0.2447
1.9487 -3.2724 -0.2452
1.9352 -3.2310 -0.2448
1.9176 -3.1683 -0.2423
1.9050 -3.1490 -0.2469
1.9025 -3.1274 -0.2433
1.9061 -3.1051 -0.2350
1.8848 -3.0866 -0.2464
1.8737 -3.0662 -0.2496
1.8616 -3.0456 -0.2535
1.8530 -3.0246 -0.2547
1.8474 -2.9825 -0.2483
1.8526 -2.9623 -0.2393
1.8422 -2.9414 -0.2418
1.8224 -2.9193 -0.2511
1.8354 -2.9010 -0.2367
1.8135 -2.8780 -0.2474
1.8000 -2.8558 -0.2520
1.8039 -2.8371 -0.2444
1.8079 -2.8189 -0.2367
1.7904 -2.7955 -0.2440
