ply
format ascii 1.0
element vertex 2101
property float x
property float y
property float z
end_header
3.7905 -1.8181 0.3152
3.7868 -1.8066 0.2920
3.7627 -1.8188 0.2451
3.7566 -1.8114 0.2208
3.7511 -1.8022 0.1958
3.7486 -1.7852 0.1691
3.7372 -1.7890 0.1445
3.7282 -1.7869 0.1189
3.7231 -1.7741 0.0907
3.7114 -1.7780 0.0656
3.8156 -1.2937 -0.2482
3.7004 -1.5244 -0.2660
3.6350 -1.6657 -0.2638
3.6066 -1.7286 -0.2611
3.5825 -1.7790 -0.2622
3.5592 -1.8308 -0.2596
3.5387 -1.8749 -0.2591
3.5039 -1.9467 -0.2621
3.4739 -2.0084 -0.2648
3.4593 -2.0429 -0.2607
3.4469 -2.0682 -0.2621
3.4344 -2.0978 -0.2585
3.4242 -2.1147 -0.2643
3.4032 -2.1658 -0.2568
3.3939 -2.1867 -0.2554
3.3854 -2.2039 -0.2565
3.3775 -2.2176 -0.2604
3.3697 -2.2346 -0.2599
3.3554 -2.2682 -0.2562
3.3489 -2.2831 -0.2551
3.3427 -2.2987 -0.2523
3.3367 -2.3091 -0.2549
3.3310 -2.3212 -0.2549
3.3255 -2.3298 -0.2588
3.3204 -2.3425 -0.2565
4.5063 -0.8817 1.1552
4.4750 -0.9068 1.1043
4.4719 -0.8860 1.0735
4.4806 -0.8447 1.0496
3.7974 -1.8405 0.4282
3.7837 -1.8511 0.4055
3.7772 -1.8472 0.3847
3.7710 -1.8422 0.3635
3.7740 -1.8167 0.3431
3.7769 -1.7904 0.3212
3.7674 -1.7910 0.2978
3.7508 -1.8078 0.2746
3.7379 -1.8164 0.2516
3.7335 -1.8048 0.2275
3.7299 -1.7902 0.2023
3.7188 -1.7939 0.1785
3.7130 -1.7836 0.1525
3.7047 -1.7793 0.1269
3.6962 -1.7751 0.1009
3.6859 -1.7759 0.0756
3.6811 -1.7600 0.0459
3.6694 -1.7639 0.0207
3.6633 -1.7502 -0.0099
3.6549 -1.7424 -0.0394
3.6529 -1.7125 -0.0776
3.6462 -1.6963 -0.1123
3.6148 -1.6822 -0.2071
3.6018 -1.6865 -0.2352
3.5827 -1.7173 -0.2492
3.5678 -1.7319 -0.2709
3.5459 -1.7810 -0.2716
3.5228 -1.8420 -0.2624
3.5049 -1.8820 -0.2633
3.4884 -1.9189 -0.2641
3.4580 -1.9911 -0.2611
3.4323 -2.0502 -0.2603
3.4100 -2.1031 -0.2583
3.3907 -2.1453 -0.2602
3.3818 -2.1657 -0.2600
3.3736 -2.1824 -0.2623
3.3581 -2.2225 -0.2571
3.3510 -2.2388 -0.2568
3.3443 -2.2498 -0.2615
3.3320 -2.2809 -0.2582
3.3208 -2.3074 -0.2572
3.3110 -2.3351 -0.2512
3.7923 -1.7986 0.4375
3.7702 -1.8275 0.4119
3.7611 -1.8287 0.3903
3.7561 -1.8205 0.3694
3.7585 -1.7945 0.3490
3.7541 -1.7833 0.3267
3.7326 -1.7904 0.2803
3.7251 -1.7857 0.2568
3.7151 -1.7872 0.2333
3.7061 -1.7857 0.2095
3.6982 -1.7811 0.1850
3.6969 -1.7572 0.1574
3.6884 -1.7529 0.1317
3.6759 -1.7597 0.1076
3.6629 -1.7685 0.0841
3.6541 -1.7642 0.0578
3.6469 -1.7540 0.0294
3.6396 -1.7429 0.0000
3.6320 -1.7319 -0.0301
3.6233 -1.7240 -0.0600
3.6194 -1.6965 -0.0978
3.6079 -1.6967 -0.1262
3.6033 -1.6676 -0.1674
3.5873 -1.6855 -0.1890
3.5739 -1.6926 -0.2150
3.5604 -1.7006 -0.2405
3.5446 -1.7212 -0.2589
3.5261 -1.7588 -0.2667
3.5050 -1.8161 -0.2608
3.4900 -1.8427 -0.2711
3.4720 -1.8936 -0.2641
3.4569 -1.9310 -0.2636
3.4415 -1.9774 -0.2546
3.4174 -2.0349 -0.2562
3.3964 -2.0832 -0.2592
3.3869 -2.1043 -0.2614
3.3780 -2.1217 -0.2658
3.3695 -2.1389 -0.2694
3.3613 -2.1614 -0.2670
3.3535 -2.1882 -0.2590
3.3463 -2.2059 -0.2589
3.3396 -2.2252 -0.2560
3.3331 -2.2382 -0.2589
3.3211 -2.2655 -0.2610
3.3156 -2.2799 -0.2600
3.3106 -2.2969 -0.2550
3.3056 -2.3084 -0.2558
3.3008 -2.3199 -0.2561
3.2960 -2.3296 -0.2581
3.7602 -1.7950 0.4194
3.7490 -1.8005 0.3970
3.7427 -1.7942 0.3758
3.7376 -1.7848 0.3542
3.7338 -1.7713 0.3323
3.7285 -1.7610 0.3094
3.7176 -1.7646 0.2860
3.7107 -1.7577 0.2623
3.6997 -1.7613 0.2387
3.6877 -1.7680 0.2153
3.6834 -1.7518 0.1897
3.6702 -1.7618 0.1665
3.6664 -1.7427 0.1391
3.6586 -1.7351 0.1126
3.6397 -1.7283 0.0599
3.6281 -1.7322 0.0348
3.6214 -1.7178 0.0046
3.6142 -1.7035 -0.0265
3.6021 -1.7075 -0.0525
3.5931 -1.6984 -0.0831
3.5859 -1.6805 -0.1179
3.5779 -1.6637 -0.1535
3.5598 -1.6946 -0.1690
3.5517 -1.6760 -0.2064
3.5378 -1.6871 -0.2303
3.5271 -1.6805 -0.2630
3.5067 -1.7334 -0.2635
3.4870 -1.7890 -0.2598
3.4562 -1.8602 -0.2689
3.4410 -1.9041 -0.2652
3.4265 -1.9505 -0.2574
3.4029 -2.0119 -0.2578
3.3927 -2.0338 -0.2625
3.3826 -2.0612 -0.2616
3.3734 -2.0837 -0.2633
3.3646 -2.1069 -0.2632
3.3563 -2.1328 -0.2594
3.3413 -2.1720 -0.2596
3.3218 -2.2265 -0.2563
3.3161 -2.2441 -0.2538
3.3102 -2.2535 -0.2596
3.3051 -2.2699 -0.2567
3.3002 -2.2836 -0.2561
3.2955 -2.2972 -0.2549
3.2903 -2.3044 -0.2608
3.2859 -2.3161 -0.2608
3.7428 -1.7783 0.4250
3.7334 -1.7796 0.4030
3.7261 -1.7753 0.3815
3.7248 -1.7548 0.3607
3.7141 -1.7583 0.3378
3.7062 -1.7543 0.3150
3.6982 -1.7503 0.2919
3.6855 -1.7592 0.2687
3.6869 -1.7265 0.2437
3.6737 -1.7365 0.2202
3.6716 -1.7116 0.1935
3.6666 -1.6942 0.1664
3.6506 -1.7128 0.1435
3.6294 -1.7141 0.0928
3.6193 -1.7127 0.0668
3.6091 -1.6666 0.0023
3.5945 -1.6809 -0.0209
3.5840 -1.6777 -0.0493
3.5719 -1.6818 -0.0755
3.5603 -1.6827 -0.1029
3.5543 -1.6543 -0.1422
3.5394 -1.6716 -0.1637
3.5286 -1.6656 -0.1950
3.5166 -1.6668 -0.2235
3.5056 -1.6599 -0.2562
3.4889 -1.6940 -0.2676
3.4689 -1.7595 -0.2598
3.4241 -1.8836 -0.2622
3.4095 -1.9426 -0.2469
3.3989 -1.9604 -0.2574
3.3780 -2.0148 -0.2615
3.3594 -2.0742 -0.2558
3.3511 -2.0959 -0.2573
3.3432 -2.1166 -0.2586
3.3359 -2.1380 -0.2581
3.3286 -2.1499 -0.2654
3.3222 -2.1730 -0.2614
3.3162 -2.1949 -0.2571
3.3048 -2.2281 -0.2563
3.2991 -2.2395 -0.2602
3.2940 -2.2535 -0.2606
3.2845 -2.2795 -0.2615
3.2805 -2.2951 -0.2577
3.2757 -2.3033 -0.2623
3.7189 -1.7551 0.4095
3.7113 -1.7508 0.3878
3.7027 -1.7224 0.3444
3.6985 -1.7062 0.3216
3.6921 -1.6956 0.2978
3.6820 -1.6961 0.2736
3.6396 -1.5275 0.0381
3.6327 -1.5035 0.0025
3.6218 -1.4954 -0.0304
3.6079 -1.5000 -0.0604
3.5967 -1.4910 -0.0945
3.5469 -1.6226 -0.1109
3.5297 -1.6536 -0.1278
3.5184 -1.6515 -0.1570
3.5055 -1.6587 -0.1825
3.4958 -1.6424 -0.2187
3.4832 -1.6465 -0.2459
3.4690 -1.6649 -0.2657
3.4496 -1.7377 -0.2552
3.4361 -1.7616 -0.2688
3.4200 -1.8255 -0.2574
3.4059 -1.8780 -0.2498
3.3948 -1.8982 -0.2607
3.3834 -1.9342 -0.2598
3.3731 -1.9620 -0.2629
3.3633 -1.9887 -0.2654
3.3455 -2.0473 -0.2622
3.3299 -2.0954 -0.2619
3.3227 -2.1134 -0.2652
3.3161 -2.1370 -0.2624
3.3041 -2.1790 -0.2581
3.2930 -2.2110 -0.2596
3.2886 -2.2320 -0.2538
3.2837 -2.2453 -0.2552
3.2790 -2.2586 -0.2560
3.2739 -2.2671 -0.2615
3.2699 -2.2811 -0.2601
3.7373 -1.2287 0.1338
3.6068 -1.4941 0.0127
3.5804 -1.4989 -0.0471
3.5730 -1.4683 -0.0870
3.5559 -1.4909 -0.1114
3.5108 -1.6200 -0.1263
3.4978 -1.6283 -0.1516
3.4842 -1.6418 -0.1745
3.4737 -1.6292 -0.2086
3.4611 -1.6334 -0.2356
3.4486 -1.6375 -0.2627
3.4038 -1.7745 -0.2712
3.3675 -1.9107 -0.2600
3.3575 -1.9410 -0.2621
3.3481 -1.9781 -0.2577
3.3314 -2.0367 -0.2554
3.3166 -2.0827 -0.2577
3.3097 -2.1000 -0.2619
3.3029 -2.1152 -0.2671
3.2976 -2.1450 -0.2582
3.2916 -2.1600 -0.2617
3.2865 -2.1797 -0.2598
3.2821 -2.2022 -0.2541
3.2769 -2.2149 -0.2574
3.2714 -2.2238 -0.2641
3.2634 -2.2555 -0.2605
3.2597 -2.2697 -0.2592
3.6997 -1.2460 0.1467
3.5758 -1.4450 -0.0168
3.5602 -1.4594 -0.0443
3.5486 -1.4499 -0.0782
3.4639 -1.6155 -0.1705
3.4499 -1.6365 -0.1899
3.4393 -1.6205 -0.2255
3.4269 -1.6246 -0.2524
3.4130 -1.6518 -0.2674
3.3854 -1.7451 -0.2718
3.3416 -1.9218 -0.2598
3.3327 -1.9514 -0.2615
3.3246 -1.9849 -0.2589
3.3168 -2.0101 -0.2609
3.3096 -2.0371 -0.2602
3.3028 -2.0619 -0.2600
3.2961 -2.0796 -0.2645
3.2852 -2.1304 -0.2570
3.2792 -2.1437 -0.2625
3.2747 -2.1667 -0.2581
3.2697 -2.1827 -0.2593
3.2660 -2.2045 -0.2539
3.2577 -2.2350 -0.2536
3.2530 -2.2447 -0.2583
3.2489 -2.2564 -0.2604
2.1791 -1.0897 0.7451
2.2352 -1.1150 0.7344
2.2734 -1.0852 0.7378
2.3849 -0.9562 0.7568
3.4265 -0.2992 0.8118
3.4790 -0.2820 0.8110
3.4976 -0.3750 0.7885
3.5435 -0.3714 0.7852
3.5800 -0.3940 0.7769
3.6291 -0.3778 0.7761
3.6827 -0.3498 0.7777
3.7167 -0.3720 0.7697
3.7492 -0.3948 0.7617
2.1262 -1.0821 0.7087
2.1820 -1.1004 0.7005
2.2231 -1.0777 0.7017
2.2762 -1.0957 0.6938
2.3149 -1.0646 0.6969
2.3547 -1.0343 0.6998
2.3879 -0.9672 0.7106
2.4144 -0.8473 0.7327
3.4403 -0.0806 0.8041
3.4419 -0.2680 0.7661
3.4824 -0.2948 0.7574
3.5131 -0.3477 0.7442
3.5468 -0.3836 0.7342
3.5832 -0.4060 0.7267
3.6275 -0.4029 0.7237
3.6618 -0.4249 0.7165
1.5229 -1.9979 0.5457
1.5278 -1.9735 0.5497
1.5136 -1.9349 0.5577
1.5159 -1.8738 0.5685
2.1167 -1.0595 0.6702
2.2722 -1.0823 0.6546
2.3115 -1.0511 0.6573
2.3556 -1.0366 0.6566
2.3945 -0.9964 0.6609
2.4046 -0.7858 0.6980
3.4441 -0.0947 0.7451
3.4492 -0.2673 0.7137
3.5208 -0.3462 0.6943
3.5454 -0.4099 0.6810
3.5905 -0.4065 0.6783
3.6498 -0.3630 0.6817
3.5171 -0.9057 0.5941
1.5094 -1.9951 0.5196
1.5217 -1.9752 0.5219
1.4793 -1.8861 0.5387
1.4655 -1.8431 0.5463
2.1849 -1.1136 0.6127
2.3667 -0.8556 0.6410
2.3834 -0.6588 0.6707
2.7974 -0.9968 0.5903
3.4268 -0.1905 0.6747
3.4569 -0.2655 0.6609
3.4978 -0.2916 0.6541
3.5114 -0.3992 0.6364
3.5708 -0.3559 0.6392
3.6317 -0.3109 0.6422
3.6679 -0.3352 0.6360
3.4470 -1.0160 0.5441
3.4663 -1.0458 0.5382
1.5148 -2.0042 0.4902
1.4730 -1.8549 0.5125
1.5051 -1.8443 0.5120
2.1320 -1.1068 0.5735
2.1878 -1.1244 0.5678
2.3799 -0.9171 0.5842
2.7995 -1.0320 0.5442
2.8387 -1.0641 0.5376
2.9025 -1.2174 0.5134
2.9371 -1.2184 0.5113
2.9721 -1.2125 0.5100
3.4026 -0.3113 0.6048
3.4646 -0.2638 0.6075
3.5522 -0.1349 0.6195
3.5408 -0.3299 0.5942
3.5929 -0.3127 0.5934
3.6501 -0.2815 0.5942
3.4494 -1.0249 0.5070
3.4713 -1.0480 0.5026
1.5014 -2.0017 0.4631
1.4933 -1.9685 0.4671
1.4879 -1.8720 0.4780
1.5020 -1.8483 0.4799
0.4267 -0.4966 0.6830
2.3771 -0.8993 0.5394
2.3946 -0.7091 0.5593
2.8416 -1.0671 0.4972
2.9368 -1.2504 0.4723
2.9728 -1.2329 0.4724
3.0082 -1.2213 0.4718
3.4257 -0.2498 0.5571
3.4727 -0.2611 0.5535
3.5510 -0.1649 0.5600
3.5579 -0.3001 0.5449
3.5774 -0.3809 0.5350
3.6239 -0.3768 0.5331
3.4461 -1.0479 0.4685
3.4849 -1.0296 0.4685
1.4951 -2.0036 0.4346
1.4942 -1.8828 0.4451
1.4727 -1.7966 0.4534
0.4127 -0.4963 0.6108
2.4021 -0.7450 0.5036
2.1817 1.9560 0.7450
2.3002 1.9951 0.7432
2.8459 -1.0454 0.4586
2.8870 -1.0318 0.4580
3.0492 -1.2005 0.4365
3.4462 -0.2000 0.5053
3.4717 -0.2905 0.4964
3.4750 -0.4393 0.4835
3.5298 -0.4102 0.4836
3.4696 -0.7166 0.4599
3.4995 -0.7412 0.4565
3.5006 -0.8374 0.4482
3.4485 -1.0568 0.4316
3.4787 -1.0590 0.4301
1.4283 -1.5973 0.4331
0.5254 -0.6189 0.5253
0.5956 -0.5958 0.5243
0.9330 1.3883 0.6348
2.3598 1.4191 0.5865
2.4613 1.5033 0.5881
2.5557 1.8048 0.6034
3.1095 -1.2454 0.3957
3.4587 -0.3611 0.4380
3.5205 -0.3153 0.4386
3.5790 -0.2828 0.4385
3.4483 -1.0720 0.3945
3.4842 -1.0601 0.3939
-0.4158 0.0326 0.5041
0.2825 -0.3974 0.4692
0.3187 -0.3296 0.4707
1.0687 1.0678 0.5024
1.4396 0.4553 0.4695
2.4503 1.7401 0.4899
2.5502 2.0778 0.4998
3.0847 -1.2298 0.3621
3.1186 -1.2242 0.3614
3.4625 -0.1952 0.3904
3.5103 -0.2091 0.3886
3.5522 -0.2380 0.3863
3.4671 -1.0403 0.3588
1.4509 -1.9660 0.3480
0.4503 -1.0460 0.3785
0.4009 -0.9392 0.3808
0.3452 -0.3703 0.3889
0.9707 1.2803 0.3976
2.0981 -1.0326 0.3474
2.1637 1.2986 0.3752
2.3001 1.0679 0.3697
2.3690 1.4164 0.3727
2.4461 1.8863 0.3771
3.0858 -1.2443 0.3260
3.1179 -1.2457 0.3254
3.4488 -0.2728 0.3312
3.5237 -0.1904 0.3308
3.5558 -0.2517 0.3295
3.4752 -1.0354 0.3212
3.5186 -1.0799 0.3198
3.5513 -1.0746 0.3193
1.3671 -1.8199 0.3157
1.3919 -1.8009 0.3152
0.4383 -0.9808 0.3150
0.3686 -0.8522 0.3141
0.2559 -0.1837 0.3069
2.1212 -1.0974 0.2985
2.1347 1.5209 0.2652
2.2863 1.2158 0.2674
2.4193 0.9165 0.2698
3.0853 -1.2657 0.2903
3.1201 -1.2543 0.2898
3.5321 -0.1888 0.2719
3.5745 -0.2182 0.2718
3.4548 -1.0206 0.2833
3.4927 -1.0082 0.2827
3.5272 -1.0747 0.2832
0.4562 -0.7800 0.2420
0.4006 -0.6445 0.2369
0.3989 -0.5505 0.2334
0.4354 -0.4879 0.2309
0.2843 -0.2280 0.2213
2.1167 0.9552 0.1720
2.1839 1.2021 0.1624
2.2653 1.4278 0.1537
2.3646 1.5670 0.1481
2.8636 -1.0244 0.2457
2.9031 -1.0512 0.2466
3.0916 -1.2557 0.2540
3.1255 -1.2500 0.2537
3.4351 -0.3749 0.2196
3.5560 -0.1361 0.2103
3.4926 -0.8494 0.2376
3.5024 -1.0752 0.2462
3.5233 -1.0974 0.2470
3.5560 -1.0920 0.2467
0.1013 -0.4858 0.1497
2.0968 -1.0396 0.1974
2.8723 -0.9400 0.1959
3.0351 -1.2218 0.2149
3.1320 -1.2411 0.2167
3.1706 -1.2177 0.2155
3.4379 -0.9161 0.1978
3.4856 -0.8854 0.1962
3.5048 -1.0842 0.2090
3.5199 -1.1187 0.2113
1.4109 -1.8707 0.2108
-0.4858 0.0041 0.0140
1.9420 0.8040 -0.0221
1.9535 1.2672 -0.0636
2.0704 1.2547 -0.0608
2.1338 1.5992 -0.0909
2.8789 -0.8948 0.1447
2.9221 -0.9176 0.1474
2.9578 -0.9918 0.1546
2.9913 -1.0519 0.1605
3.0197 -1.1221 0.1672
3.0556 -1.1304 0.1685
3.0796 -1.1925 0.1744
3.1127 -1.1997 0.1756
3.1403 -1.2256 0.1783
3.1748 -1.2195 0.1783
3.2087 -1.2147 0.1784
3.2583 -1.1581 0.1740
3.3396 -1.0103 0.1619
3.4111 -0.9061 0.1536
3.4468 -0.9092 0.1544
3.4751 -0.9296 0.1566
3.5124 -0.9248 0.1567
3.5425 -0.9361 0.1582
1.3711 -1.8508 0.1716
1.3695 -1.8134 0.1672
0.2567 -0.5570 -0.0053
1.9882 1.1011 -0.1578
2.0693 1.2764 -0.1763
2.2631 1.5542 -0.2041
3.0017 -1.0058 0.1115
3.0421 -1.0083 0.1127
3.0833 -1.0021 0.1130
3.1126 -1.0525 0.1195
3.1503 -1.2034 0.1380
3.1787 -1.2225 0.1409
3.2185 -1.1978 0.1390
3.3865 -0.8864 0.1066
3.4322 -0.8640 0.1051
3.4619 -0.8858 0.1083
3.4872 -0.9154 0.1124
3.5116 -0.9432 0.1162
3.5315 -0.9778 0.1207
3.5471 -1.0179 0.1257
3.5685 -1.0414 0.1290
1.3356 -1.8342 0.1307
1.3933 -1.8371 0.1330
0.5592 -0.8391 -0.0370
0.2089 -0.4301 -0.1070
0.0327 0.3828 -0.2292
0.0757 0.4911 -0.2434
0.1202 0.6053 -0.2583
0.5809 0.7068 -0.2579
0.9460 0.7297 -0.2494
1.1074 0.6468 -0.2323
2.4261 1.0813 -0.2519
2.5223 1.2030 -0.2663
2.6214 1.3791 -0.2883
2.7284 1.4646 -0.2971
2.8335 1.3055 -0.2709
2.9352 1.2930 -0.2658
3.0347 1.2818 -0.2610
3.1262 -0.1441 -0.0536
3.0923 -0.9791 0.0650
3.3548 -0.8842 0.0599
3.3893 -0.8969 0.0628
3.4195 -0.9184 0.0669
3.4585 -0.9129 0.0673
3.4970 -0.9075 0.0678
3.5352 -0.9022 0.0683
3.5693 -0.9056 0.0699
3.6066 -0.9007 0.0704
3.6394 -0.9045 0.0720
3.6800 -0.8912 0.0714
0.3926 -0.8726 -0.1109
0.4786 -0.8640 -0.1088
0.5473 -0.8414 -0.1098
0.5834 -0.7890 -0.1173
0.5692 -0.6855 -0.1355
0.5543 -0.5740 -0.1551
0.4371 -0.2290 -0.2188
0.2921 0.0653 -0.2750
0.3613 0.1266 -0.2826
0.4564 0.1579 -0.2840
0.5515 0.1892 -0.2854
0.6465 0.2205 -0.2868
0.8221 0.1307 -0.2643
0.9317 0.1315 -0.2599
0.9872 0.2205 -0.2727
1.0269 0.3458 -0.2925
1.1220 0.3772 -0.2939
1.2482 0.3439 -0.2830
1.4360 0.1635 -0.2445
2.0643 0.2770 -0.2379
2.1001 0.5518 -0.2833
2.1740 0.6853 -0.3030
2.2779 0.6457 -0.2919
2.3661 0.7122 -0.2996
2.4710 0.6043 -0.2769
2.5605 0.6338 -0.2782
2.6467 0.7672 -0.2974
2.7387 0.8350 -0.3052
2.8326 0.9023 -0.3128
2.9110 0.5861 -0.2556
2.9985 0.6461 -0.2622
3.1008 0.8461 -0.2921
3.1304 -0.1598 -0.1193
3.1084 -0.9187 0.0092
3.4153 0.0442 -0.1423
3.4720 0.0255 -0.1368
3.3508 -0.7859 -0.0034
3.3603 -0.8867 0.0142
3.3921 -0.9074 0.0190
3.4316 -0.9027 0.0198
3.5635 -0.8509 0.0165
3.6064 -0.8368 0.0158
3.5387 -1.0660 0.0521
0.1189 -0.8315 -0.2071
0.2520 -0.8537 -0.1960
0.2841 -0.7987 -0.2052
0.3566 -0.7749 -0.2063
0.3921 -0.7188 -0.2156
0.6678 -0.8788 -0.1700
0.5393 -0.6703 -0.2178
0.4651 -0.4985 -0.2556
0.5437 -0.4726 -0.2568
0.7761 -0.6150 -0.2168
0.7528 -0.4802 -0.2447
0.8746 -0.3894 -0.2566
1.0005 -0.2953 -0.2689
1.1228 -0.3335 -0.2551
1.1867 -0.2866 -0.2612
1.3974 -0.1646 -0.2748
1.5095 -0.2061 -0.2609
1.6341 -0.2858 -0.2388
2.1062 -1.0823 -0.0572
2.1899 -1.0010 -0.0691
2.1979 -0.6009 -0.1480
2.1635 -0.1579 -0.2375
2.2279 -0.0902 -0.2476
2.2830 0.0487 -0.2724
2.3701 0.0041 -0.2592
2.4403 0.0758 -0.2698
2.5129 0.1503 -0.2809
2.5951 0.1020 -0.2672
2.6682 0.2273 -0.2884
2.8982 0.1781 -0.2670
2.9651 0.0845 -0.2451
3.0515 0.2524 -0.2740
3.0817 -0.1021 -0.2022
3.3962 -0.0718 -0.1924
3.3046 -0.8227 -0.0482
3.3418 -0.8373 -0.0434
3.3720 -0.8697 -0.0355
3.4068 -0.8830 -0.0311
3.4475 -0.8768 -0.0303
3.5815 -0.8255 -0.0337
4.2146 0.2711 -0.2191
0.0351 -1.0067 -0.2514
0.1048 -0.9838 -0.2524
0.5171 -1.2027 -0.1783
0.3000 -0.9789 -0.2419
0.3138 -0.9149 -0.2555
0.3835 -0.8919 -0.2566
0.3613 -0.7926 -0.2804
0.4338 -0.7687 -0.2814
0.6564 -0.8810 -0.2428
0.7972 -0.9279 -0.2238
0.7917 -0.8364 -0.2448
0.8451 -0.7993 -0.2500
0.8568 -0.7155 -0.2683
0.9410 -0.7083 -0.2649
1.0106 -0.6853 -0.2659
1.0932 -0.6786 -0.2625
1.1623 -0.6559 -0.2635
1.2315 -0.6331 -0.2646
1.2894 -0.5935 -0.2700
1.3483 -0.5536 -0.2756
1.4389 -0.5647 -0.2676
1.4888 -0.5073 -0.2777
1.5945 -0.5524 -0.2611
1.6464 -0.4964 -0.2707
1.7155 -0.4736 -0.2718
2.0913 -1.0471 -0.1197
2.1702 -0.9411 -0.1389
2.1901 -0.8084 -0.1677
2.2128 -0.6584 -0.2003
2.2198 -0.4039 -0.2575
2.2687 -0.2914 -0.2800
2.3346 -0.2491 -0.2856
2.3989 -0.1870 -0.2958
2.4761 -0.2230 -0.2831
2.5453 -0.2002 -0.2841
2.6133 -0.1573 -0.2897
2.6841 -0.1740 -0.2818
2.7527 -0.1319 -0.2872
2.8229 -0.0678 -0.2975
3.0269 -0.9531 -0.0851
3.0708 -0.9469 -0.0839
3.1073 -0.9769 -0.0750
3.1572 -0.9359 -0.0813
3.2566 -0.8683 -0.0906
3.3048 -0.8442 -0.0932
3.3447 -0.8484 -0.0899
3.3842 -0.8518 -0.0867
3.4292 -0.8370 -0.0874
3.4669 -0.8420 -0.0840
3.5078 -0.8368 -0.0828
3.5521 -0.8222 -0.0834
4.1053 0.2553 -0.2941
4.1942 0.3235 -0.3042
4.2406 0.2998 -0.2961
4.3676 0.4412 -0.3205
0.5210 -1.2175 -0.2401
0.5372 -1.1654 -0.2523
0.6129 -1.1557 -0.2495
0.6315 -1.1017 -0.2620
0.6940 -1.0811 -0.2629
0.7429 -1.0487 -0.2678
0.8191 -1.0399 -0.2648
0.9193 -1.0548 -0.2541
0.9805 -1.0346 -0.2550
1.0418 -1.0144 -0.2559
1.1139 -1.0059 -0.2531
1.1643 -0.9740 -0.2577
1.2256 -0.9538 -0.2586
1.2965 -0.9458 -0.2558
1.3850 -0.9624 -0.2454
1.4359 -0.9304 -0.2501
1.5043 -0.9231 -0.2472
1.5400 -0.8655 -0.2594
1.6237 -0.8838 -0.2490
1.6833 -0.8641 -0.2499
1.7498 -0.8575 -0.2470
1.7963 -0.8117 -0.2554
1.8684 -0.8184 -0.2487
2.1227 -1.1328 -0.1512
2.1587 -1.0802 -0.1621
2.1933 -1.0159 -0.1761
2.2141 -0.8929 -0.2059
2.2713 -0.8863 -0.2037
2.3174 -0.8334 -0.2140
2.3342 -0.6202 -0.2671
2.4062 -0.6698 -0.2495
2.4610 -0.6232 -0.2576
2.5171 -0.5742 -0.2662
2.5771 -0.5544 -0.2671
2.6380 -0.5496 -0.2641
2.6973 -0.5148 -0.2688
2.7573 -0.4492 -0.2814
2.8120 -0.6827 -0.2182
2.8680 -0.6398 -0.2253
2.9204 -0.6602 -0.2165
2.9834 -0.9877 -0.1288
3.0340 -0.9364 -0.1383
3.0753 -0.9493 -0.1322
3.1119 -0.9790 -0.1221
3.1450 -1.0160 -0.1104
3.1704 -1.0748 -0.0937
3.2997 -0.8835 -0.1335
3.3536 -0.8403 -0.1408
3.3931 -0.8446 -0.1369
3.4321 -0.8480 -0.1334
3.4698 -0.8529 -0.1295
3.5257 -0.8091 -0.1368
3.5670 -0.8036 -0.1354
3.7047 -0.8316 -0.1188
3.7121 -0.8882 -0.1038
0.6328 -1.3647 -0.2559
0.6759 -1.3373 -0.2603
0.7323 -1.3187 -0.2611
0.7765 -1.2910 -0.2655
0.8450 -1.2816 -0.2628
0.9128 -1.2724 -0.2601
0.9799 -1.2635 -0.2574
1.0355 -1.2451 -0.2582
1.0912 -1.2268 -0.2590
1.1469 -1.2084 -0.2599
1.1928 -1.1802 -0.2643
1.2488 -1.1617 -0.2651
1.2958 -1.1331 -0.2695
1.3608 -1.1248 -0.2668
1.4252 -1.1168 -0.2640
1.4808 -1.0984 -0.2648
1.5365 -1.0801 -0.2657
1.5849 -1.0510 -0.2701
1.6409 -1.0325 -0.2709
1.7100 -1.0360 -0.2645
1.7654 -1.0178 -0.2653
1.8261 -1.0099 -0.2628
1.8811 -0.9918 -0.2636
1.9409 -0.9843 -0.2611
2.0049 -0.9885 -0.2549
2.1194 -1.1277 -0.2064
2.1840 -1.1549 -0.1937
2.2028 -1.0476 -0.2226
2.2363 -0.9709 -0.2417
2.2859 -0.9424 -0.2459
2.3314 -0.8930 -0.2563
2.3714 -0.8050 -0.2781
2.4229 -0.7617 -0.2863
2.4909 -0.8283 -0.2621
2.5436 -0.7988 -0.2663
2.5960 -0.7563 -0.2743
2.6510 -0.7382 -0.2751
2.7057 -0.7080 -0.2793
2.7609 -0.7748 -0.2561
2.8143 -0.7451 -0.2603
2.9350 -1.0733 -0.1579
3.0633 -0.7753 -0.2322
3.0933 -0.8746 -0.2017
3.1370 -0.8784 -0.1972
3.1677 -1.1069 -0.1301
3.2274 -1.0225 -0.1493
3.3027 -0.8946 -0.1797
3.3692 -0.8110 -0.1981
3.4126 -0.8058 -0.1962
3.4519 -0.8110 -0.1916
3.4980 -0.7958 -0.1923
3.5605 -0.7388 -0.2035
3.5902 -0.7655 -0.1937
3.6363 -0.7503 -0.1944
0.9907 -1.4062 -0.2733
1.0719 -1.4126 -0.2641
1.1232 -1.3957 -0.2649
1.1918 -1.3942 -0.2593
1.2425 -1.3775 -0.2601
1.2855 -1.3533 -0.2639
1.3521 -1.3525 -0.2583
1.4025 -1.3358 -0.2590
1.4599 -1.3270 -0.2567
1.5167 -1.3183 -0.2544
1.5857 -1.3257 -0.2461
1.6103 -1.2774 -0.2590
1.6786 -1.2860 -0.2503
1.7497 -1.3018 -0.2391
1.7773 -1.2535 -0.2517
1.8160 -1.2197 -0.2589
1.8850 -1.2371 -0.2474
1.9253 -1.2048 -0.2539
1.9827 -1.2050 -0.2488
2.0430 -1.2142 -0.2406
2.0877 -1.1904 -0.2441
2.1360 -1.1745 -0.2448
2.2017 -1.2081 -0.2286
2.2663 -1.2481 -0.2104
2.3001 -1.1937 -0.2244
2.3292 -1.1109 -0.2477
2.3774 -1.0950 -0.2484
2.4309 -1.1055 -0.2404
2.4784 -1.0898 -0.2411
2.5248 -1.0655 -0.2447
2.5715 -1.0401 -0.2485
2.6189 -1.0154 -0.2520
2.6632 -0.9205 -0.2778
2.7146 -0.9448 -0.2657
2.7637 -0.9868 -0.2482
2.8104 -1.0076 -0.2376
2.8497 -1.1282 -0.1965
2.9063 -0.9489 -0.2475
2.9548 -0.9238 -0.2511
3.0052 -0.8882 -0.2578
3.0535 -0.8722 -0.2585
3.1001 -0.8659 -0.2563
3.1481 -0.8501 -0.2571
3.1962 -0.8343 -0.2578
3.2220 -0.9081 -0.2324
3.3628 -0.8527 -0.2374
3.4224 -0.7969 -0.2495
3.4586 -0.8121 -0.2416
3.5088 -0.7865 -0.2452
3.5847 -0.6972 -0.2664
3.6475 -0.6464 -0.2767
3.6863 -0.6537 -0.2710
3.7295 -0.6495 -0.2685
3.7620 -0.6669 -0.2602
3.7475 -0.7771 -0.2271
1.2575 -1.7579 -0.1849
1.2581 -1.7159 -0.1993
1.2154 -1.6392 -0.2296
1.3292 -1.6785 -0.2051
1.2684 -1.5280 -0.2625
1.3152 -1.5126 -0.2632
1.3621 -1.4972 -0.2639
1.4366 -1.5085 -0.2527
1.4624 -1.4731 -0.2623
1.5025 -1.4509 -0.2660
1.5493 -1.4355 -0.2667
1.6081 -1.4341 -0.2614
1.6315 -1.3905 -0.2740
1.7008 -1.4036 -0.2628
1.7884 -1.3657 -0.2671
1.8398 -1.3578 -0.2648
1.8906 -1.3500 -0.2625
1.9367 -1.3348 -0.2632
1.9945 -1.3417 -0.2552
2.0433 -1.3336 -0.2532
2.1145 -1.2583 -0.2720
2.1641 -1.2509 -0.2697
2.2162 -1.2517 -0.2643
2.2620 -1.2366 -0.2650
2.3144 -1.2442 -0.2572
2.3596 -1.2294 -0.2579
2.3996 -1.1913 -0.2670
2.4455 -1.1762 -0.2677
2.4926 -1.1686 -0.2657
2.5382 -1.1536 -0.2664
2.6308 -1.1400 -0.2619
2.6756 -1.1173 -0.2653
2.7208 -1.0934 -0.2691
2.7664 -1.0874 -0.2667
2.8100 -1.1298 -0.2479
2.8508 -1.1692 -0.2304
2.9034 -1.0333 -0.2718
2.9490 -1.0182 -0.2725
2.9982 -0.9761 -0.2821
3.0446 -0.9608 -0.2828
3.0909 -0.9456 -0.2835
3.1353 -0.9399 -0.2810
3.1814 -0.9247 -0.2817
3.2324 -0.8900 -0.2886
3.2584 -0.9502 -0.2655
3.2175 -1.2259 -0.1752
3.4409 -0.8811 -0.2713
3.4967 -0.8378 -0.2806
3.5543 -0.7929 -0.2903
3.5963 -0.7880 -0.2879
3.6424 -0.7728 -0.2886
3.6793 -0.7776 -0.2833
3.7108 -0.7922 -0.2753
3.6255 -1.1024 -0.1775
1.1549 -1.7393 -0.2486
1.2258 -1.7446 -0.2390
1.2818 -1.7410 -0.2343
1.3287 -1.7315 -0.2328
1.4185 -1.7554 -0.2142
1.4468 -1.7332 -0.2194
1.3970 -1.6447 -0.2577
1.4464 -1.6363 -0.2555
1.4891 -1.6222 -0.2561
1.5256 -1.6023 -0.2596
1.6277 -1.5914 -0.2527
1.6700 -1.5775 -0.2533
1.7122 -1.5636 -0.2539
1.7723 -1.5715 -0.2445
1.8186 -1.5641 -0.2422
1.8553 -1.5442 -0.2457
1.8768 -1.5014 -0.2593
1.9272 -1.4997 -0.2545
1.9658 -1.4800 -0.2577
2.0251 -1.4961 -0.2453
2.0628 -1.4758 -0.2488
2.1161 -1.4859 -0.2393
2.1489 -1.4553 -0.2472
2.2001 -1.4652 -0.2380
2.2360 -1.4395 -0.2437
2.2728 -1.4145 -0.2490
2.3219 -1.4251 -0.2398
2.3676 -1.4298 -0.2331
2.4014 -1.3920 -0.2436
2.4380 -1.3601 -0.2515
2.4829 -1.3651 -0.2448
2.5206 -1.3329 -0.2527
2.5608 -1.3117 -0.2562
2.6044 -1.3181 -0.2491
2.6449 -1.2979 -0.2523
2.6863 -1.2911 -0.2504
2.7274 -1.2845 -0.2484
2.7685 -1.2294 -0.2645
2.8099 -1.2297 -0.2599
2.8493 -1.2513 -0.2476
2.8898 -1.2380 -0.2482
2.9335 -1.1968 -0.2588
2.9739 -1.1895 -0.2572
3.0161 -1.1696 -0.2601
3.0630 -1.1255 -0.2714
3.1050 -1.1116 -0.2721
3.1454 -1.1053 -0.2701
3.1892 -1.0839 -0.2733
3.2312 -1.0700 -0.2739
3.2400 -1.2780 -0.1956
3.3995 -1.0146 -0.2764
3.4546 -0.9668 -0.2883
3.5403 -0.9385 -0.2896
3.5755 -0.9418 -0.2846
3.5687 -1.0341 -0.2510
3.5594 -1.1233 -0.2188
3.5769 -1.1512 -0.2065
1.2226 -1.8305 -0.2518
1.2563 -1.8135 -0.2547
1.2893 -1.7957 -0.2579
1.3360 -1.7872 -0.2559
1.3694 -1.7693 -0.2591
1.4382 -1.7781 -0.2475
1.4887 -1.7742 -0.2431
1.5115 -1.7481 -0.2510
1.5352 -1.7216 -0.2588
1.5640 -1.6983 -0.2648
1.6096 -1.6902 -0.2627
1.6548 -1.6822 -0.2606
1.6989 -1.6735 -0.2589
1.7345 -1.6559 -0.2618
1.7565 -1.6221 -0.2728
1.8053 -1.6188 -0.2684
1.8540 -1.6165 -0.2636
1.8974 -1.6082 -0.2618
1.9149 -1.5631 -0.2779
1.9799 -1.5869 -0.2607
2.0134 -1.5640 -0.2659
2.2028 -1.4751 -0.2794
2.2590 -1.5018 -0.2621
2.3339 -1.4643 -0.2683
2.4133 -1.4382 -0.2695
2.4557 -1.4370 -0.2650
2.4927 -1.4120 -0.2707
2.5315 -1.3934 -0.2737
2.6142 -1.3966 -0.2626
2.6528 -1.3780 -0.2656
2.6928 -1.3834 -0.2587
2.7705 -1.3264 -0.2725
2.8097 -1.3204 -0.2703
2.8487 -1.3134 -0.2685
2.8884 -1.2944 -0.2714
2.9293 -1.2682 -0.2772
2.9708 -1.2417 -0.2830
3.0076 -1.2483 -0.2760
3.0495 -1.2227 -0.2814
3.0893 -1.2096 -0.2820
3.1277 -1.2028 -0.2801
3.1586 -1.2241 -0.2680
3.1995 -1.2037 -0.2713
3.2327 -1.3166 -0.2220
3.2806 -1.2694 -0.2354
3.3634 -1.1311 -0.2813
3.4081 -1.1045 -0.2867
3.4512 -1.0835 -0.2901
3.4849 -1.0851 -0.2855
3.5019 -1.1228 -0.2683
3.4997 -1.1972 -0.2386
3.5151 -1.2285 -0.2242
3.5763 -1.1661 -0.2421
1.3304 -1.9050 -0.2508
1.3624 -1.8896 -0.2534
1.4044 -1.8807 -0.2519
1.4309 -1.8612 -0.2570
1.4839 -1.8603 -0.2506
1.5305 -1.8557 -0.2466
1.5575 -1.8361 -0.2517
1.6213 -1.8463 -0.2391
1.6401 -1.8196 -0.2482
1.6892 -1.8190 -0.2422
1.7291 -1.8107 -0.2407
1.7614 -1.7952 -0.2433
1.7740 -1.7589 -0.2574
1.8226 -1.7595 -0.2510
1.8552 -1.7429 -0.2540
1.9057 -1.7477 -0.2454
1.9485 -1.7443 -0.2414
1.9687 -1.7113 -0.2531
2.0112 -1.7081 -0.2491
2.0417 -1.6873 -0.2542
2.0916 -1.6972 -0.2435
2.1298 -1.6895 -0.2420
2.1583 -1.6645 -0.2492
2.1923 -1.6484 -0.2518
2.2285 -1.6365 -0.2523
2.2684 -1.6331 -0.2487
2.3063 -1.6264 -0.2467
2.3387 -1.6050 -0.2519
2.3779 -1.6029 -0.2478
2.4150 -1.5955 -0.2462
2.4507 -1.5838 -0.2468
2.4863 -1.5720 -0.2473
2.5220 -1.5603 -0.2478
2.5503 -1.5031 -0.2690
2.5933 -1.5368 -0.2489
2.6279 -1.5147 -0.2541
2.6638 -1.5028 -0.2546
2.7005 -1.5063 -0.2484
2.7356 -1.4694 -0.2599
2.7715 -1.4829 -0.2494
2.8070 -1.4712 -0.2500
2.8439 -1.4386 -0.2594
2.8790 -1.4378 -0.2553
2.9160 -1.4148 -0.2605
2.9528 -1.3978 -0.2631
2.9920 -1.3684 -0.2709
3.0265 -1.3677 -0.2667
3.0678 -1.3327 -0.2767
3.0992 -1.3438 -0.2678
3.1325 -1.3435 -0.2637
3.1671 -1.3370 -0.2621
3.2064 -1.3143 -0.2669
3.2351 -1.3253 -0.2584
3.2707 -1.3136 -0.2590
3.3109 -1.2896 -0.2642
3.3539 -1.2599 -0.2716
3.3977 -1.2298 -0.2790
3.4374 -1.2109 -0.2822
3.4547 -1.2422 -0.2663
3.4792 -1.2547 -0.2578
3.5146 -1.2430 -0.2584
3.5560 -1.2196 -0.2632
3.6047 -1.1831 -0.2728
1.3635 -1.9660 -0.2603
1.3988 -1.9544 -0.2608
1.4390 -1.9459 -0.2591
1.4693 -1.9311 -0.2618
1.5150 -1.9267 -0.2576
1.5582 -1.9212 -0.2541
1.5974 -1.9131 -0.2525
1.6277 -1.8983 -0.2552
1.6548 -1.8806 -0.2596
1.7012 -1.8789 -0.2540
1.7397 -1.8711 -0.2523
1.7597 -1.8461 -0.2612
1.7866 -1.8266 -0.2665
1.8332 -1.8267 -0.2600
1.8680 -1.8153 -0.2606
1.9087 -1.8106 -0.2571
2.0443 -1.7610 -0.2614
2.0770 -1.7464 -0.2637
2.2492 -1.6848 -0.2685
2.2892 -1.6852 -0.2628
2.3221 -1.6695 -0.2655
2.3630 -1.6754 -0.2571
2.5082 -1.6683 -0.2404
2.5702 -1.6207 -0.2539
2.6029 -1.6012 -0.2584
2.6370 -1.5900 -0.2589
2.6700 -1.5646 -0.2662
2.7389 -1.5419 -0.2672
2.7733 -1.5305 -0.2677
2.8080 -1.5143 -0.2705
2.8419 -1.5128 -0.2665
2.8750 -1.5155 -0.2607
2.9456 -1.4738 -0.2703
2.9792 -1.4676 -0.2685
3.0125 -1.4614 -0.2668
3.0467 -1.4502 -0.2673
3.0847 -1.4231 -0.2746
3.1207 -1.4064 -0.2774
3.1539 -1.4003 -0.2756
3.1931 -1.3738 -0.2825
3.2230 -1.3775 -0.2767
3.2630 -1.3508 -0.2836
3.2922 -1.3548 -0.2777
3.3246 -1.3489 -0.2759
3.3656 -1.3219 -0.2828
3.4029 -1.3047 -0.2856
3.4332 -1.3035 -0.2820
3.4679 -1.2920 -0.2826
3.5049 -1.2760 -0.2849
3.5463 -1.2517 -0.2905
3.5846 -1.2342 -0.2933
1.5652 -2.1175 -0.1957
1.4797 -2.0409 -0.2464
1.4946 -2.0197 -0.2548
1.5274 -2.0088 -0.2553
1.5807 -2.0115 -0.2460
1.6130 -2.0008 -0.2465
1.6535 -1.9961 -0.2428
1.6587 -1.9656 -0.2572
1.6872 -1.9514 -0.2600
1.7710 -1.9449 -0.2508
1.7900 -1.9223 -0.2592
1.8190 -1.9080 -0.2620
1.8615 -1.9065 -0.2564
1.9097 -1.9117 -0.2466
1.9329 -1.8916 -0.2532
1.9653 -1.8809 -0.2537
2.0058 -1.8801 -0.2480
2.0378 -1.8695 -0.2485
2.0865 -1.8814 -0.2354
2.1084 -1.8578 -0.2438
2.1401 -1.8474 -0.2443
2.1718 -1.8369 -0.2448
2.2017 -1.8232 -0.2471
2.2370 -1.8193 -0.2439
2.2686 -1.8089 -0.2443
2.2986 -1.7951 -0.2467
2.3260 -1.7746 -0.2528
2.3580 -1.7640 -0.2533
2.3901 -1.7535 -0.2538
2.4255 -1.7534 -0.2486
2.4551 -1.7359 -0.2528
2.4889 -1.7325 -0.2495
2.5240 -1.7372 -0.2419
2.5537 -1.7188 -0.2467
2.5816 -1.6865 -0.2585
2.6157 -1.6907 -0.2514
2.6477 -1.6840 -0.2500
2.6796 -1.6773 -0.2485
2.7103 -1.6480 -0.2585
2.7424 -1.6413 -0.2571
2.7741 -1.6423 -0.2518
2.8064 -1.6163 -0.2600
2.8379 -1.6136 -0.2566
2.8700 -1.5992 -0.2590
2.9015 -1.5927 -0.2576
2.9333 -1.5822 -0.2580
2.9688 -1.5503 -0.2686
2.9953 -1.5695 -0.2551
3.0287 -1.5508 -0.2594
3.0615 -1.5361 -0.2618
3.0935 -1.5256 -0.2623
3.1278 -1.5066 -0.2666
3.1660 -1.4767 -0.2758
3.1939 -1.4800 -0.2700
3.2211 -1.4835 -0.2642
3.2907 -1.4481 -0.2715
3.3351 -1.4085 -0.2845
3.3616 -1.4122 -0.2787
3.3917 -1.4072 -0.2768
3.3871 -1.5250 -0.2190
3.4187 -1.5107 -0.2213
3.4412 -1.5139 -0.2164
1.5974 -2.1415 -0.2121
1.5645 -2.0684 -0.2560
1.5955 -2.0581 -0.2565
1.6266 -2.0479 -0.2569
1.6652 -2.0428 -0.2535
1.6961 -2.0326 -0.2539
1.7171 -2.0152 -0.2598
1.7509 -2.0070 -0.2588
1.7794 -1.9947 -0.2607
1.8105 -1.9844 -0.2612
1.8503 -1.9818 -0.2562
1.8667 -1.9583 -0.2661
1.9149 -1.9643 -0.2552
1.9400 -1.9484 -0.2596
1.9662 -1.9331 -0.2635
1.9974 -1.9229 -0.2640
2.0329 -1.9178 -0.2610
2.0687 -1.9137 -0.2575
2.0994 -1.9036 -0.2579
2.1258 -1.8873 -0.2623
2.2261 -1.8695 -0.2558
2.2549 -1.8562 -0.2582
2.3496 -1.8326 -0.2556
2.3787 -1.8192 -0.2580
2.4758 -1.8082 -0.2484
2.5076 -1.8054 -0.2448
2.5651 -1.7759 -0.2512
2.5936 -1.7560 -0.2572
2.6225 -1.7351 -0.2637
2.6535 -1.7287 -0.2621
2.6835 -1.7111 -0.2666
2.7448 -1.6795 -0.2736
2.7755 -1.6923 -0.2619
2.8064 -1.6706 -0.2684
2.8992 -1.6363 -0.2718
2.9294 -1.6301 -0.2703
2.9616 -1.6119 -0.2748
2.9939 -1.5946 -0.2788
3.0235 -1.5915 -0.2757
3.0865 -1.5669 -0.2787
3.1163 -1.5609 -0.2771
3.1433 -1.5635 -0.2714
3.1724 -1.5577 -0.2698
3.2076 -1.5346 -0.2764
3.2368 -1.5288 -0.2748
3.2742 -1.5022 -0.2830
3.3002 -1.5042 -0.2778
3.3310 -1.4940 -0.2783
3.3640 -1.4793 -0.2808
3.3861 -1.4873 -0.2730
3.3734 -1.5630 -0.2350
3.3899 -1.5767 -0.2251
3.4122 -1.5779 -0.2209
1.6143 -2.1313 -0.2486
1.6280 -2.1125 -0.2568
1.6475 -2.0967 -0.2624
1.7015 -2.1025 -0.2499
1.7201 -2.0860 -0.2560
1.7596 -2.0834 -0.2507
1.7940 -2.0777 -0.2481
1.8229 -2.0682 -0.2485
1.8551 -2.0614 -0.2468
1.8782 -2.0471 -0.2509
1.9096 -2.0397 -0.2498
1.9468 -2.0378 -0.2445
1.9798 -2.0326 -0.2418
2.0061 -2.0211 -0.2438
2.0346 -2.0117 -0.2442
2.0476 -1.9847 -0.2572
2.0873 -1.9877 -0.2487
2.1262 -1.9910 -0.2402
2.1430 -1.9665 -0.2511
2.1756 -1.9624 -0.2479
2.2073 -1.9577 -0.2452
2.2343 -1.9459 -0.2472
2.2642 -1.9389 -0.2460
2.2944 -1.9328 -0.2443
2.3187 -1.9153 -0.2500
2.3511 -1.9141 -0.2452
2.3794 -1.9047 -0.2456
2.4045 -1.8870 -0.2513
2.4361 -1.8861 -0.2464
2.4617 -1.8682 -0.2521
2.4928 -1.8674 -0.2473
2.5189 -1.8493 -0.2530
2.5487 -1.8452 -0.2503
2.5761 -1.8305 -0.2538
2.6047 -1.8211 -0.2543
2.6328 -1.8080 -0.2568
2.6625 -1.8077 -0.2519
2.6909 -1.7983 -0.2524
2.7191 -1.7834 -0.2560
2.7477 -1.7739 -0.2564
2.7762 -1.7702 -0.2536
2.8048 -1.7580 -0.2557
2.8340 -1.7389 -0.2614
2.8625 -1.7323 -0.2602
2.8921 -1.7159 -0.2644
2.9215 -1.7034 -0.2664
2.9504 -1.6939 -0.2669
2.9788 -1.6874 -0.2657
3.0084 -1.6748 -0.2677
3.0322 -1.6859 -0.2574
3.0615 -1.6734 -0.2595
3.0901 -1.6640 -0.2599
3.1176 -1.6578 -0.2587
3.1497 -1.6377 -0.2645
3.1811 -1.6207 -0.2687
3.2171 -1.5928 -0.2783
3.2402 -1.5984 -0.2712
3.2725 -1.5812 -0.2754
3.2932 -1.5904 -0.2666
3.3182 -1.5888 -0.2633
3.3451 -1.5828 -0.2621
3.3736 -1.5734 -0.2625
3.3917 -1.5836 -0.2537
1.6403 -2.1520 -0.2658
1.7171 -2.1455 -0.2557
1.7450 -2.1363 -0.2562
1.7607 -2.1190 -0.2637
1.7890 -2.1097 -0.2641
1.8225 -2.1042 -0.2612
1.8644 -2.1055 -0.2529
1.8896 -2.0944 -0.2550
1.9044 -2.0744 -0.2641
1.9381 -2.0699 -0.2607
1.9608 -2.0559 -0.2650
2.0171 -2.0373 -0.2658
2.0453 -2.0280 -0.2662
2.0800 -2.0260 -0.2611
2.1097 -2.0190 -0.2599
2.1453 -2.0195 -0.2532
2.1728 -2.0105 -0.2536
2.3487 -1.9779 -0.2411
2.3743 -1.9666 -0.2432
2.4270 -1.9464 -0.2456
2.4503 -1.9275 -0.2527
2.4842 -1.9389 -0.2398
2.5063 -1.9147 -0.2501
2.6685 -1.8584 -0.2542
2.6968 -1.8660 -0.2446
2.7500 -1.8259 -0.2588
2.8045 -1.8108 -0.2579
2.8319 -1.7989 -0.2600
2.8593 -1.7899 -0.2604
2.8862 -1.7839 -0.2592
2.9168 -1.7531 -0.2719
2.9452 -1.7409 -0.2740
2.9698 -1.7479 -0.2654
2.9973 -1.7388 -0.2658
3.0266 -1.7226 -0.2702
3.0828 -1.7012 -0.2727
3.1126 -1.6858 -0.2765
3.1453 -1.6628 -0.2843
3.1685 -1.6674 -0.2773
3.1951 -1.6614 -0.2760
3.2229 -1.6523 -0.2765
3.2536 -1.6365 -0.2803
3.2836 -1.6229 -0.2830
3.3080 -1.6214 -0.2794
3.3309 -1.6223 -0.2747
3.3621 -1.6064 -0.2785
1.7492 -2.1956 -0.2513
1.7647 -2.1802 -0.2580
1.7991 -2.1763 -0.2538
1.8284 -2.1695 -0.2525
1.8714 -2.1451 -0.2596
1.9024 -2.1395 -0.2571
1.9273 -2.1295 -0.2586
1.9555 -2.1220 -0.2579
1.9914 -2.1214 -0.2514
2.0214 -2.1162 -0.2489
2.0417 -2.1020 -0.2539
2.0736 -2.0990 -0.2497
2.0963 -2.0868 -0.2529
2.1245 -2.0803 -0.2516
2.1593 -2.0819 -0.2439
2.1797 -2.0668 -0.2495
2.2109 -2.0649 -0.2447
2.2350 -2.0542 -0.2468
2.2563 -2.0388 -0.2524
2.2882 -2.0395 -0.2458
2.3084 -2.0216 -0.2532
2.3397 -2.0225 -0.2466
2.3598 -2.0028 -0.2551
2.3860 -1.9942 -0.2555
2.4171 -1.9970 -0.2477
2.4409 -1.9836 -0.2516
2.4686 -1.9800 -0.2485
2.4936 -1.9690 -0.2506
2.5221 -1.9699 -0.2446
2.5446 -1.9494 -0.2532
2.5700 -1.9382 -0.2553
2.5975 -1.9376 -0.2504
2.6224 -1.9238 -0.2543
2.6487 -1.9179 -0.2529
2.6740 -1.9040 -0.2568
2.7006 -1.9036 -0.2520
2.7261 -1.8896 -0.2559
2.7521 -1.8810 -0.2562
2.7781 -1.8669 -0.2601
2.8038 -1.8668 -0.2553
2.8299 -1.8554 -0.2574
2.8561 -1.8440 -0.2595
2.8821 -1.8354 -0.2599
2.9067 -1.8357 -0.2550
2.9331 -1.8242 -0.2572
2.9583 -1.8187 -0.2558
2.9869 -1.7981 -0.2633
3.0174 -1.7722 -0.2737
3.0422 -1.7696 -0.2705
3.0667 -1.7671 -0.2674
3.0940 -1.7553 -0.2695
3.1181 -1.7530 -0.2664
3.1442 -1.7444 -0.2668
3.1742 -1.7261 -0.2725
3.1929 -1.7358 -0.2628
3.2255 -1.7120 -0.2715
3.2463 -1.7154 -0.2654
3.2750 -1.7013 -0.2687
3.3000 -1.6949 -0.2679
3.3191 -1.6998 -0.2612
3.3449 -1.6913 -0.2615
3.3707 -1.6828 -0.2619
1.7654 -2.2334 -0.2545
1.7795 -2.2186 -0.2615
1.8081 -2.2119 -0.2601
1.8385 -2.2065 -0.2575
1.8639 -2.1981 -0.2579
1.8939 -2.1929 -0.2552
1.9307 -2.1928 -0.2478
1.9471 -2.1782 -0.2542
1.9590 -2.1594 -0.2642
1.9911 -2.1563 -0.2597
2.0457 -2.1429 -0.2575
2.0652 -2.1291 -0.2627
2.0872 -2.1172 -0.2661
2.1182 -2.1144 -0.2616
2.1456 -2.1081 -0.2602
2.1789 -2.1092 -0.2527
2.2244 -2.0868 -0.2583
2.2733 -2.0679 -0.2609
2.3858 -2.0568 -0.2454
2.4085 -2.0447 -0.2488
2.5572 -1.9984 -0.2491
2.5803 -1.9834 -0.2544
2.6313 -1.9759 -0.2490
2.6561 -1.9705 -0.2475
2.6798 -1.9534 -0.2540
2.7540 -1.9308 -0.2539
2.7789 -1.9115 -0.2616
2.8532 -1.8935 -0.2585
2.8793 -1.8757 -0.2650
2.9048 -1.8645 -0.2672
2.9309 -1.8512 -0.2707
2.9552 -1.8479 -0.2679
2.9808 -1.8376 -0.2696
3.0039 -1.8374 -0.2650
3.0344 -1.8097 -0.2771
3.0605 -1.7993 -0.2787
3.1080 -1.7929 -0.2733
3.1341 -1.7825 -0.2749
3.1847 -1.7658 -0.2757
3.2101 -1.7574 -0.2760
3.2304 -1.7600 -0.2702
3.2539 -1.7550 -0.2687
3.2733 -1.7579 -0.2629
3.3027 -1.7408 -0.2682
1.8140 -2.2655 -0.2523
1.8524 -2.2657 -0.2439
1.8672 -2.2525 -0.2499
1.8884 -2.2428 -0.2521
1.9040 -2.2294 -0.2581
1.9320 -2.2238 -0.2560
1.9695 -2.2253 -0.2469
1.9830 -2.2098 -0.2548
2.0072 -2.2018 -0.2552
2.0426 -2.2030 -0.2467
2.0624 -2.1919 -0.2502
2.0938 -2.1907 -0.2443
2.1088 -2.1748 -0.2522
2.1362 -2.1703 -0.2494
2.1567 -2.1590 -0.2529
2.1820 -2.1525 -0.2520
2.2102 -2.1496 -0.2479
2.2298 -2.1368 -0.2527
2.2514 -2.1259 -0.2556
2.2754 -2.1180 -0.2560
2.3040 -2.1169 -0.2506
2.3278 -2.1091 -0.2510
2.3507 -2.0997 -0.2526
2.3762 -2.0949 -0.2504
2.3999 -2.0871 -0.2508
2.4263 -2.0849 -0.2467
2.4474 -2.0715 -0.2515
2.4720 -2.0661 -0.2499
2.4957 -2.0583 -0.2503
2.5204 -2.0539 -0.2481
2.5444 -2.0478 -0.2471
2.5670 -2.0367 -0.2500
2.5897 -2.0246 -0.2536
2.6127 -2.0133 -0.2565
2.6375 -2.0116 -0.2524
2.6606 -1.9994 -0.2559
2.6855 -2.0041 -0.2473
2.7086 -1.9919 -0.2509
2.7320 -1.9805 -0.2538
2.7557 -1.9635 -0.2605
2.7796 -1.9556 -0.2609
2.8033 -1.9506 -0.2593
2.8275 -1.9380 -0.2629
2.8515 -1.9301 -0.2633
2.8757 -1.9203 -0.2649
2.8997 -1.9124 -0.2653
2.9243 -1.9015 -0.2675
2.9484 -1.8936 -0.2679
2.9701 -1.8956 -0.2618
2.9928 -1.8918 -0.2596
3.0171 -1.8819 -0.2612
3.0425 -1.8690 -0.2648
3.0654 -1.8642 -0.2632
3.0929 -1.8460 -0.2700
3.1150 -1.8433 -0.2672
3.1381 -1.8375 -0.2662
3.1557 -1.8446 -0.2575
3.1878 -1.8174 -0.2695
3.2083 -1.8171 -0.2654
3.2337 -1.8060 -0.2677
3.2588 -1.7959 -0.2693
3.2827 -1.7880 -0.2697
3.3054 -1.7824 -0.2687
3.3262 -1.7801 -0.2658
1.8257 -2.2972 -0.2558
1.8489 -2.2896 -0.2561
1.8773 -2.2848 -0.2532
1.8975 -2.2754 -0.2555
1.9255 -2.2707 -0.2526
1.9486 -2.2631 -0.2529
1.9887 -2.2435 -0.2582
2.0180 -2.2403 -0.2539
2.0369 -2.2294 -0.2576
2.0569 -2.2192 -0.2605
2.0834 -2.2141 -0.2582
2.1164 -2.2151 -0.2501
2.1429 -2.2110 -0.2471
2.3032 -2.1599 -0.2482
2.3300 -2.1584 -0.2432
2.3486 -2.1450 -0.2488
2.3722 -2.1390 -0.2478
2.4409 -2.1182 -0.2475
2.5324 -2.0917 -0.2462
2.5549 -2.0843 -0.2466
2.5748 -2.0668 -0.2549
2.5991 -2.0661 -0.2499
2.6440 -2.0495 -0.2519
2.6682 -2.0543 -0.2429
2.6908 -2.0505 -0.2406
2.7573 -2.0158 -0.2509
2.7798 -2.0084 -0.2512
2.8024 -1.9991 -0.2529
2.8474 -1.9861 -0.2522
2.8694 -1.9825 -0.2499
2.8959 -1.9510 -0.2670
2.9190 -1.9434 -0.2673
2.9436 -1.9289 -0.2724
2.9690 -1.9123 -0.2788
3.0096 -1.9190 -0.2647
3.0531 -1.9111 -0.2606
3.1464 -1.8758 -0.2654
3.1932 -1.8585 -0.2674
3.2134 -1.8564 -0.2644
3.2390 -1.8434 -0.2681
3.2655 -1.8292 -0.2725
3.2886 -1.8216 -0.2728
3.3162 -1.8062 -0.2779
1.8520 -2.3345 -0.2493
1.8763 -2.3284 -0.2483
1.8983 -2.3211 -0.2486
1.9245 -2.3161 -0.2462
1.9444 -2.3077 -0.2479
1.9626 -2.2981 -0.2510
1.9866 -2.2920 -0.2499
2.0123 -2.2872 -0.2475
2.0360 -2.2812 -0.2465
2.0476 -2.2665 -0.2550
2.0699 -2.2592 -0.2553
2.0905 -2.2506 -0.2570
2.1128 -2.2432 -0.2574
2.1380 -2.2385 -0.2550
2.1645 -2.2352 -0.2512
2.1907 -2.2320 -0.2474
2.2059 -2.2180 -0.2546
2.2241 -2.2065 -0.2590
2.2525 -2.2062 -0.2525
2.2781 -2.2032 -0.2487
2.2966 -2.1917 -0.2532
2.3196 -2.1859 -0.2521
2.3426 -2.1802 -0.2511
2.3664 -2.1759 -0.2486
2.3918 -2.1748 -0.2434
2.4100 -2.1616 -0.2493
2.4318 -2.1544 -0.2496
2.4521 -2.1441 -0.2527
2.4733 -2.1353 -0.2544
2.4978 -2.1344 -0.2492
2.5178 -2.1224 -0.2537
2.5429 -2.1250 -0.2457
2.5616 -2.1080 -0.2543
2.5827 -2.0974 -0.2574
2.6069 -2.1003 -0.2494
2.6267 -2.0829 -0.2581
2.6497 -2.0826 -0.2528
2.6715 -2.0754 -0.2532
2.6932 -2.0665 -0.2549
2.7154 -2.0664 -0.2496
2.7369 -2.0539 -0.2541
2.7587 -2.0467 -0.2545
2.7805 -2.0395 -0.2548
2.8023 -2.0323 -0.2551
2.8249 -2.0158 -0.2624
2.8459 -2.0180 -0.2558
2.8682 -2.0070 -0.2589
2.8924 -1.9864 -0.2690
2.9135 -1.9848 -0.2651
2.9348 -1.9814 -0.2626
2.9558 -1.9781 -0.2602
3.0026 -1.9537 -0.2678
3.0228 -1.9524 -0.2640
3.0476 -1.9370 -0.2699
3.0668 -1.9379 -0.2646
3.0864 -1.9369 -0.2607
3.1083 -1.9297 -0.2611
3.1356 -1.9099 -0.2698
3.1587 -1.9004 -0.2715
3.1769 -1.9017 -0.2662
3.1967 -1.8988 -0.2638
3.2175 -1.8937 -0.2627
3.2441 -1.8777 -0.2686
3.2649 -1.8727 -0.2676
3.2818 -1.8744 -0.2622
1.8515 -2.3568 -0.2589
1.9401 -2.3294 -0.2588
1.9597 -2.3211 -0.2605
2.0345 -2.3063 -0.2537
2.0594 -2.3017 -0.2511
2.0789 -2.2935 -0.2529
2.0911 -2.2796 -0.2610
2.1175 -2.2763 -0.2571
2.1358 -2.2667 -0.2602
2.1832 -2.2565 -0.2566
2.2066 -2.2514 -0.2548
2.2246 -2.2410 -0.2587
2.2492 -2.2374 -0.2554
2.3566 -2.2038 -0.2556
2.4041 -2.1980 -0.2483
2.4460 -2.1842 -0.2489
2.5297 -2.1566 -0.2502
2.5512 -2.1514 -0.2491
2.5711 -2.1412 -0.2522
2.5925 -2.1359 -0.2511
2.6127 -2.1257 -0.2543
2.6338 -2.1188 -0.2546
2.6556 -2.1170 -0.2506
2.6761 -2.1066 -0.2538
2.7182 -2.0946 -0.2530
2.7389 -2.0797 -0.2598
2.7601 -2.0772 -0.2565
2.7814 -2.0621 -0.2633
2.8021 -2.0633 -0.2571
2.8233 -2.0554 -0.2582
2.8883 -2.0242 -0.2671
2.9521 -2.0040 -0.2673
2.9719 -2.0029 -0.2633
2.9951 -1.9890 -0.2687
3.0149 -1.9869 -0.2653
3.0600 -1.9658 -0.2711
3.0806 -1.9608 -0.2699
3.1020 -1.9538 -0.2703
3.1442 -1.9407 -0.2702
3.1645 -1.9358 -0.2690
3.1815 -1.9374 -0.2635
3.2037 -1.9283 -0.2653
3.2497 -1.9078 -0.2703
1.9258 -2.3799 -0.2468
1.9430 -2.3715 -0.2493
1.9686 -2.3675 -0.2460
1.9890 -2.3609 -0.2463
2.0024 -2.3502 -0.2517
2.0248 -2.3446 -0.2506
2.0546 -2.3437 -0.2435
2.0639 -2.3299 -0.2526
2.0906 -2.3274 -0.2478
2.1067 -2.3176 -0.2518
2.1255 -2.3096 -0.2535
2.1420 -2.2998 -0.2575
2.1650 -2.2949 -0.2556
2.1907 -2.2926 -0.2508
2.2133 -2.2878 -0.2489
2.2384 -2.2858 -0.2440
2.2519 -2.2725 -0.2517
2.2678 -2.2610 -0.2572
2.2926 -2.2590 -0.2523
2.3130 -2.2523 -0.2526
2.3373 -2.2506 -0.2477
2.3527 -2.2375 -0.2547
2.3756 -2.2343 -0.2513
2.3959 -2.2277 -0.2516
2.4158 -2.2202 -0.2526
2.4365 -2.2143 -0.2522
2.4548 -2.2038 -0.2562
2.4786 -2.2040 -0.2498
2.4974 -2.1942 -0.2531
2.5161 -2.1836 -0.2571
2.5392 -2.1840 -0.2507
2.5575 -2.1718 -0.2562
2.5807 -2.1748 -0.2476
2.6002 -2.1657 -0.2501
2.6199 -2.1574 -0.2519
2.6411 -2.1558 -0.2477
2.6803 -2.1358 -0.2543
2.7009 -2.1325 -0.2516
2.7207 -2.1207 -0.2564
2.7411 -2.1157 -0.2552
2.7613 -2.1002 -0.2630
2.7815 -2.1024 -0.2558
2.8016 -2.0994 -0.2531
2.8214 -2.0964 -0.2504
2.8622 -2.0776 -0.2555
2.8831 -2.0672 -0.2588
2.9036 -2.0595 -0.2599
2.9228 -2.0576 -0.2564
2.9477 -2.0325 -0.2710
2.9651 -2.0375 -0.2623
3.0049 -2.0270 -0.2606
3.0255 -2.0193 -0.2617
3.0493 -2.0035 -0.2688
3.0658 -2.0070 -0.2615
3.0887 -1.9941 -0.2664
3.1087 -1.9884 -0.2659
3.1296 -1.9806 -0.2670
3.1475 -1.9792 -0.2635
3.1705 -1.9671 -0.2676
3.1904 -1.9615 -0.2671
3.2079 -1.9602 -0.2636
3.2313 -1.9480 -0.2677
3.2485 -1.9468 -0.2643
1.9456 -2.3938 -0.2547
1.9865 -2.3812 -0.2545
2.0105 -2.3768 -0.2518
2.0303 -2.3703 -0.2521
2.0878 -2.3496 -0.2545
2.1050 -2.3413 -0.2571
2.1292 -2.3377 -0.2536
2.1449 -2.3281 -0.2577
2.1648 -2.3216 -0.2580
2.1893 -2.3188 -0.2537
2.2054 -2.3091 -0.2578
2.3110 -2.2831 -0.2516
2.3341 -2.2808 -0.2473
2.3714 -2.2659 -0.2502
2.3895 -2.2573 -0.2528
2.4101 -2.2523 -0.2515
2.4301 -2.2465 -0.2510
2.4509 -2.2423 -0.2490
2.4735 -2.2419 -0.2431
2.4895 -2.2287 -0.2504
2.5083 -2.2208 -0.2522
2.5307 -2.2214 -0.2455
2.5474 -2.2079 -0.2528
2.5683 -2.2054 -0.2492
2.5891 -2.2039 -0.2449
2.6077 -2.1951 -0.2475
2.6254 -2.1813 -0.2547
2.6456 -2.1782 -0.2519
2.6650 -2.1709 -0.2530
2.6848 -2.1671 -0.2509
2.7045 -2.1641 -0.2481
2.7235 -2.1525 -0.2531
2.7429 -2.1435 -0.2557
2.7625 -2.1362 -0.2568
2.7816 -2.1413 -0.2469
2.8009 -2.1341 -0.2480
2.8211 -2.1177 -0.2569
2.8400 -2.1168 -0.2525
2.9404 -2.0714 -0.2648
2.9558 -2.0804 -0.2526
2.9751 -2.0740 -0.2529
2.9944 -2.0677 -0.2532
3.0170 -2.0523 -0.2605
3.0354 -2.0489 -0.2585
3.0557 -2.0404 -0.2603
3.0753 -2.0340 -0.2606
3.1144 -2.0211 -0.2612
3.1385 -2.0052 -0.2686
3.1804 -1.9879 -0.2723
3.2039 -1.9748 -0.2773
2.5762 -3.7050 -0.2479
2.6145 -3.6942 -0.2500
2.6340 -3.6879 -0.2503
2.7320 -3.6507 -0.2471
2.7512 -3.6453 -0.2481
2.7705 -3.6408 -0.2499
2.7902 -3.6266 -0.2433
2.8093 -3.6212 -0.2444
2.8286 -3.6176 -0.2469
2.8478 -3.6113 -0.2472
2.8673 -3.6075 -0.2498
2.8863 -3.5987 -0.2478
2.9045 -3.5851 -0.2411
2.9244 -3.5838 -0.2460
2.9820 -3.5650 -0.2468
3.0024 -3.5627 -0.2510
3.0209 -3.5541 -0.2489
3.0386 -3.5440 -0.2453
3.0597 -3.5423 -0.2502
3.0790 -3.5360 -0.2505
3.0971 -3.5275 -0.2485
3.1175 -3.5235 -0.2511
3.1363 -3.5165 -0.2506
3.1541 -3.5081 -0.2485
3.1748 -3.5039 -0.2511
3.1930 -3.4963 -0.2498
3.2138 -3.4921 -0.2524
3.2313 -3.4838 -0.2504
3.2523 -3.4795 -0.2530
3.2735 -3.4753 -0.2556
3.2909 -3.4670 -0.2535
3.3101 -3.4607 -0.2538
3.3287 -3.4538 -0.2533
3.3486 -3.4482 -0.2544
3.3679 -3.4419 -0.2546
3.4040 -3.4276 -0.2529
3.4198 -3.4189 -0.2500
3.4441 -3.4162 -0.2550
3.4633 -3.4100 -0.2552
3.4835 -3.4043 -0.2563
3.5027 -3.3980 -0.2566
3.5240 -3.3928 -0.2584
3.5403 -3.3849 -0.2563
3.5544 -3.3760 -0.2527
3.5703 -3.3682 -0.2506
3.5947 -3.3646 -0.2548
3.6139 -3.3583 -0.2551
3.6308 -3.3511 -0.2538
3.6534 -3.3463 -0.2564
2.4014 -3.8026 -0.2553
2.4239 -3.7918 -0.2527
2.4433 -3.7872 -0.2544
2.4638 -3.7806 -0.2547
2.4842 -3.7739 -0.2550
2.5026 -3.7723 -0.2590
2.5232 -3.7656 -0.2593
2.5455 -3.7539 -0.2559
2.5659 -3.7473 -0.2562
2.5878 -3.7358 -0.2528
2.6086 -3.7272 -0.2516
2.6272 -3.7273 -0.2571
2.6472 -3.7226 -0.2588
2.6686 -3.7112 -0.2554
2.6896 -3.7009 -0.2528
2.7099 -3.6943 -0.2531
2.7299 -3.6895 -0.2548
2.7506 -3.6784 -0.2514
2.7710 -3.6683 -0.2488
2.8514 -3.6456 -0.2529
2.8714 -3.6373 -0.2517
2.8917 -3.6324 -0.2535
2.9117 -3.6242 -0.2523
2.9531 -3.6168 -0.2580
2.9709 -3.6005 -0.2494
2.9933 -3.6020 -0.2571
3.0109 -3.5875 -0.2500
3.0338 -3.5888 -0.2577
3.0531 -3.5799 -0.2558
3.0759 -3.5794 -0.2620
3.0919 -3.5637 -0.2534
3.1139 -3.5609 -0.2574
3.1341 -3.5544 -0.2577
3.1543 -3.5478 -0.2580
3.1922 -3.5311 -0.2548
3.2144 -3.5273 -0.2581
3.2323 -3.5180 -0.2554
3.2535 -3.5128 -0.2572
3.2694 -3.5016 -0.2522
3.2925 -3.4984 -0.2562
3.3106 -3.4899 -0.2543
3.3505 -3.4769 -0.2548
3.3779 -3.4767 -0.2626
3.3920 -3.4651 -0.2569
3.4105 -3.4574 -0.2557
3.4546 -3.4473 -0.2600
3.4721 -3.4390 -0.2581
3.4922 -3.4325 -0.2583
3.5303 -3.4183 -0.2574
3.5454 -3.4090 -0.2539
3.5643 -3.4020 -0.2535
2.5200 -3.7851 -0.2484
2.5629 -3.7685 -0.2468
2.5831 -3.7636 -0.2486
2.6056 -3.7510 -0.2446
2.7098 -3.7144 -0.2440
2.7717 -3.6952 -0.2456
2.7924 -3.6875 -0.2451
2.8338 -3.6749 -0.2464
2.8959 -3.6547 -0.2473
2.9382 -3.6462 -0.2522
2.9795 -3.6310 -0.2514
2.9993 -3.6210 -0.2488
3.0393 -3.6036 -0.2458
3.0627 -3.6039 -0.2526
3.1017 -3.5850 -0.2481
3.1215 -3.5768 -0.2470
3.1676 -3.5715 -0.2555
3.1851 -3.5596 -0.2508
3.2058 -3.5529 -0.2510
3.2243 -3.5433 -0.2485
3.2449 -3.5366 -0.2488
3.2666 -3.5313 -0.2505
3.2890 -3.5267 -0.2530
3.3078 -3.5179 -0.2511
3.3304 -3.5132 -0.2535
3.3491 -3.5045 -0.2517
3.3668 -3.4952 -0.2491
3.3873 -3.4885 -0.2494
3.4109 -3.4843 -0.2526
3.4315 -3.4776 -0.2528
3.4538 -3.4721 -0.2546
3.4753 -3.4660 -0.2556
3.4890 -3.4545 -0.2501
3.5122 -3.4496 -0.2526
3.5327 -3.4429 -0.2529
3.5533 -3.4362 -0.2532
3.5778 -3.4317 -0.2564
3.5964 -3.4239 -0.2552
3.6170 -3.4172 -0.2555
3.6355 -3.4094 -0.2543
3.6583 -3.4038 -0.2561
3.6767 -3.3960 -0.2549
3.6972 -3.3893 -0.2552
3.7120 -3.3801 -0.2519
2.3701 -3.8846 -0.2593
2.3944 -3.8731 -0.2569
2.4175 -3.8638 -0.2559
2.4405 -3.8545 -0.2548
2.4642 -3.8433 -0.2524
2.4846 -3.8402 -0.2555
2.5073 -3.8310 -0.2544
2.5287 -3.8258 -0.2561
2.5501 -3.8206 -0.2578
2.5733 -3.8095 -0.2554
2.5948 -3.8043 -0.2570
2.6173 -3.7952 -0.2560
2.6393 -3.7880 -0.2563
2.6620 -3.7771 -0.2539
2.6836 -3.7718 -0.2556
2.7050 -3.7684 -0.2586
2.7277 -3.7557 -0.2548
2.7499 -3.7449 -0.2524
2.7935 -3.7271 -0.2503
2.8152 -3.7218 -0.2519
2.8371 -3.7183 -0.2550
2.8594 -3.7199 -0.2622
2.8809 -3.7058 -0.2570
2.9021 -3.6935 -0.2532
2.9233 -3.6831 -0.2508
2.9459 -3.6810 -0.2552
2.9666 -3.6690 -0.2514
2.9899 -3.6685 -0.2572
3.0127 -3.6646 -0.2603
3.0312 -3.6470 -0.2516
3.0536 -3.6424 -0.2540
3.0772 -3.6400 -0.2584
3.0959 -3.6259 -0.2525
3.1411 -3.6157 -0.2566
3.1645 -3.6116 -0.2597
3.1855 -3.6030 -0.2586
3.2030 -3.5893 -0.2527
3.2235 -3.5808 -0.2516
3.2498 -3.5803 -0.2582
3.2726 -3.5746 -0.2599
3.2944 -3.5675 -0.2602
3.3149 -3.5591 -0.2591
3.3341 -3.5493 -0.2566
3.3571 -3.5436 -0.2583
3.3767 -3.5345 -0.2565
3.4047 -3.5334 -0.2631
3.4236 -3.5237 -0.2606
3.4468 -3.5179 -0.2624
3.4630 -3.5064 -0.2578
3.4871 -3.5012 -0.2602
3.5028 -3.4899 -0.2556
3.5287 -3.4859 -0.2594
3.5458 -3.4759 -0.2562
3.5636 -3.4665 -0.2537
3.6277 -3.4456 -0.2546
3.6533 -3.4409 -0.2578
3.6726 -3.4328 -0.2567
3.6941 -3.4258 -0.2570
3.7155 -3.4188 -0.2573
3.7346 -3.4108 -0.2562
2.4941 -3.8795 -0.2596
2.5172 -3.8720 -0.2599
2.5422 -3.8585 -0.2563
2.6355 -3.8218 -0.2531
2.7050 -3.7902 -0.2475
2.7507 -3.7672 -0.2422
2.7952 -3.7527 -0.2428
2.8844 -3.7255 -0.2454
2.9510 -3.7020 -0.2450
3.0395 -3.6714 -0.2450
3.0852 -3.6601 -0.2483
3.1054 -3.6481 -0.2446
3.1283 -3.6425 -0.2463
3.1521 -3.6383 -0.2492
3.1719 -3.6265 -0.2456
3.1959 -3.6223 -0.2485
3.2215 -3.6202 -0.2535
3.2363 -3.6019 -0.2438
3.2626 -3.6005 -0.2495
3.2782 -3.5847 -0.2418
3.3036 -3.5818 -0.2461
3.3529 -3.5729 -0.2521
3.3752 -3.5656 -0.2524
3.4010 -3.5617 -0.2561
3.4213 -3.5524 -0.2544
3.4437 -3.5451 -0.2547
3.4645 -3.5366 -0.2537
3.5008 -3.5158 -0.2476
3.5297 -3.5135 -0.2533
3.5520 -3.5063 -0.2536
3.5706 -3.4966 -0.2513
3.5965 -3.4918 -0.2543
3.6130 -3.4810 -0.2506
3.6370 -3.4750 -0.2522
3.6572 -3.4666 -0.2512
3.6793 -3.4594 -0.2515
3.7014 -3.4522 -0.2518
3.7257 -3.4461 -0.2535
3.7456 -3.4378 -0.2524
3.7677 -3.4306 -0.2528
3.7898 -3.4234 -0.2531
2.3660 -3.9553 -0.2533
2.3899 -3.9475 -0.2537
2.4130 -3.9418 -0.2553
2.4369 -3.9340 -0.2556
2.4616 -3.9241 -0.2547
2.4866 -3.9133 -0.2531
2.5105 -3.9055 -0.2535
2.5327 -3.9028 -0.2570
2.5572 -3.8930 -0.2561
2.5806 -3.8872 -0.2577
2.6050 -3.8774 -0.2567
2.6281 -3.8735 -0.2596
2.6534 -3.8590 -0.2555
2.6778 -3.8474 -0.2533
2.7013 -3.8416 -0.2549
2.7248 -3.8357 -0.2566
2.7487 -3.8279 -0.2569
2.7727 -3.8165 -0.2547
2.7964 -3.8060 -0.2531
2.8201 -3.8074 -0.2598
2.8440 -3.7996 -0.2602
2.8676 -3.7874 -0.2573
2.8914 -3.7796 -0.2577
2.9142 -3.7641 -0.2523
2.9377 -3.7564 -0.2526
