ply
format ascii 1.0
element vertex 2109
property float x
property float y
property float z
end_header
3.7117 -3.7016 -0.2624
3.7461 -3.6970 -0.2666
3.7719 -3.6858 -0.2654
3.8004 -3.6765 -0.2658
3.8222 -3.6628 -0.2625
3.8407 -3.6474 -0.2575
3.8787 -3.6444 -0.2633
3.9141 -3.6395 -0.2675
3.9247 -3.6201 -0.2587
3.9430 -3.6057 -0.2543
3.9707 -3.5967 -0.2547
2.3180 -4.2452 -0.2563
2.3486 -4.2352 -0.2567
2.3777 -4.2295 -0.2591
2.8080 -4.0365 -0.2375
2.8373 -4.0345 -0.2419
3.1012 -3.9447 -0.2438
3.1306 -3.9352 -0.2442
3.1599 -3.9256 -0.2446
3.1869 -3.9102 -0.2415
3.3872 -3.8384 -0.2409
3.4179 -3.8312 -0.2429
3.4492 -3.8248 -0.2453
3.4783 -3.8153 -0.2457
3.5144 -3.8140 -0.2517
3.5386 -3.7985 -0.2481
3.5733 -3.7948 -0.2526
3.5949 -3.7774 -0.2474
3.6292 -3.7728 -0.2514
3.6532 -3.7584 -0.2483
3.6847 -3.7509 -0.2502
3.7115 -3.7394 -0.2491
3.7465 -3.7346 -0.2531
3.7759 -3.7250 -0.2535
3.8016 -3.7129 -0.2519
3.8281 -3.7014 -0.2508
3.8639 -3.6964 -0.2548
3.8825 -3.6799 -0.2496
3.9406 -3.6610 -0.2505
3.9738 -3.6540 -0.2529
4.0030 -3.6445 -0.2533
4.0277 -3.6327 -0.2517
4.0533 -3.6215 -0.2506
4.0823 -3.6120 -0.2510
2.2609 -4.3348 -0.2550
2.2949 -4.3199 -0.2536
2.3288 -4.3050 -0.2522
2.3579 -4.3032 -0.2564
2.3916 -4.2884 -0.2550
2.4251 -4.2737 -0.2536
2.4572 -4.2632 -0.2541
2.4882 -4.2569 -0.2564
2.5205 -4.2464 -0.2569
2.5849 -4.2254 -0.2578
2.6192 -4.2019 -0.2522
2.6493 -4.2045 -0.2587
2.6834 -4.1772 -0.2512
2.7162 -4.1550 -0.2461
2.8423 -4.1254 -0.2535
2.8747 -4.1273 -0.2601
2.9065 -4.1131 -0.2587
2.9389 -4.1063 -0.2611
2.9699 -4.0877 -0.2573
3.0005 -4.0701 -0.2539
3.0329 -4.0634 -0.2563
3.0655 -4.0565 -0.2587
3.0974 -4.0462 -0.2591
3.1282 -4.0323 -0.2577
3.1600 -4.0220 -0.2581
3.1917 -4.0116 -0.2586
3.2181 -3.9878 -0.2515
3.2553 -3.9909 -0.2595
3.2855 -3.9773 -0.2581
3.3155 -3.9637 -0.2566
3.3470 -3.9534 -0.2571
3.3786 -3.9432 -0.2575
3.4101 -3.9329 -0.2580
3.4417 -3.9226 -0.2585
3.4755 -3.9154 -0.2608
3.5094 -3.9082 -0.2632
3.5388 -3.8948 -0.2617
3.5730 -3.8875 -0.2641
3.5995 -3.8712 -0.2607
3.6365 -3.8668 -0.2650
3.6654 -3.8536 -0.2636
3.6883 -3.8347 -0.2583
3.7257 -3.8301 -0.2626
3.7604 -3.8226 -0.2650
3.7856 -3.8068 -0.2616
3.8170 -3.7966 -0.2620
3.8519 -3.7890 -0.2644
3.8835 -3.7787 -0.2649
3.9114 -3.7659 -0.2634
3.9580 -3.7659 -0.2716
3.9948 -3.7587 -0.2745
4.0308 -3.7508 -0.2769
4.0536 -3.7348 -0.2730
4.0771 -3.7195 -0.2695
4.1174 -3.7140 -0.2739
4.1271 -3.6918 -0.2646
4.1539 -3.6793 -0.2631
4.1944 -3.6737 -0.2675
2.1897 -4.4521 -0.2602
2.2244 -4.4408 -0.2607
2.2569 -4.4350 -0.2634
2.3611 -4.3117 -0.2237
2.4353 -4.3625 -0.2593
2.5062 -4.3308 -0.2564
2.7127 -4.2453 -0.2509
3.3936 -3.9716 -0.2368
3.4239 -3.9580 -0.2355
3.4602 -3.9538 -0.2396
3.4953 -3.9472 -0.2423
3.5249 -3.9328 -0.2405
3.5602 -3.9260 -0.2432
3.6278 -3.9079 -0.2460
3.6514 -3.8877 -0.2406
3.6958 -3.8896 -0.2488
3.7418 -3.8919 -0.2574
3.7749 -3.8811 -0.2579
3.7874 -3.8521 -0.2465
3.8158 -3.8380 -0.2447
3.8447 -3.8248 -0.2434
3.8918 -3.8258 -0.2516
3.9290 -3.8185 -0.2543
3.9571 -3.8045 -0.2525
3.9898 -3.7938 -0.2530
4.0146 -3.7781 -0.2498
4.0471 -3.7675 -0.2503
4.1914 -3.7330 -0.2582
4.2139 -3.7170 -0.2545
4.2418 -3.7041 -0.2531
2.1580 -4.5444 -0.2554
2.1996 -4.5202 -0.2514
2.2494 -4.4729 -0.2388
2.3107 -4.3901 -0.2126
2.3511 -4.3595 -0.2057
2.3542 -4.4437 -0.2424
2.3831 -4.4546 -0.2516
2.4175 -4.4492 -0.2546
2.4555 -4.4310 -0.2526
2.4916 -4.4193 -0.2532
2.5288 -4.4023 -0.2516
2.5629 -4.4019 -0.2567
2.6009 -4.3788 -0.2527
2.6377 -4.3610 -0.2507
2.6730 -4.3554 -0.2537
2.7175 -4.2353 -0.2089
2.7520 -4.1989 -0.1986
2.7819 -4.2889 -0.2420
2.8171 -4.3084 -0.2558
2.8532 -4.2967 -0.2563
2.8889 -4.2792 -0.2543
2.9247 -4.2676 -0.2549
2.9606 -4.2559 -0.2554
2.9973 -4.2497 -0.2584
3.0324 -4.2325 -0.2564
3.0673 -4.2163 -0.2548
3.1009 -4.1957 -0.2512
3.1376 -4.1886 -0.2538
3.1732 -4.1770 -0.2543
3.2118 -4.1741 -0.2590
3.2495 -4.1676 -0.2621
3.2818 -4.1464 -0.2579
3.3138 -4.1263 -0.2542
3.3469 -4.1098 -0.2522
3.3848 -4.1032 -0.2553
3.4248 -4.0999 -0.2600
3.4557 -4.0801 -0.2563
3.4856 -4.0597 -0.2521
3.5155 -4.0403 -0.2484
3.5560 -4.0368 -0.2532
3.5976 -4.0339 -0.2584
3.6331 -4.0224 -0.2589
3.6648 -4.0062 -0.2568
3.7041 -3.9992 -0.2599
3.7465 -3.9951 -0.2647
3.7858 -3.9872 -0.2673
3.8060 -3.9602 -0.2589
3.8414 -3.9487 -0.2594
3.8854 -3.9450 -0.2646
3.9169 -3.9299 -0.2630
3.9609 -3.9253 -0.2678
3.9923 -3.9102 -0.2662
4.0324 -3.9020 -0.2688
4.0681 -3.8904 -0.2693
4.0991 -3.8754 -0.2677
4.1347 -3.8639 -0.2682
4.1804 -3.8587 -0.2730
4.2111 -3.8438 -0.2714
4.2363 -3.8259 -0.2676
4.2652 -3.8107 -0.2655
4.3072 -3.8028 -0.2686
4.3484 -3.7943 -0.2713
4.3898 -3.7856 -0.2740
2.1675 -4.6195 -0.2453
2.2282 -4.5480 -0.2255
2.3108 -4.6031 -0.2595
2.3538 -4.5774 -0.2554
2.4445 -4.5000 -0.2376
2.6273 -4.4815 -0.2566
3.1700 -4.3048 -0.2645
3.6631 -4.0651 -0.2401
3.7436 -4.0496 -0.2455
3.7729 -4.0294 -0.2417
3.8095 -4.0174 -0.2422
3.8544 -4.0136 -0.2471
3.8951 -4.0052 -0.2497
4.0020 -3.9655 -0.2493
4.0292 -3.9459 -0.2454
4.0803 -3.9449 -0.2524
4.1174 -3.9328 -0.2529
4.1439 -3.9134 -0.2490
4.1806 -3.9015 -0.2495
4.2235 -3.8934 -0.2525
4.2718 -3.8884 -0.2575
4.2973 -3.8693 -0.2535
4.3276 -3.8536 -0.2516
4.3834 -3.8520 -0.2591
4.4400 -3.8502 -0.2665
4.4379 -3.8177 -0.2532
2.1660 -4.7348 -0.2444
2.3512 -4.3969 -0.1447
2.3722 -4.6676 -0.2474
2.4134 -4.6542 -0.2480
2.4546 -4.6408 -0.2486
2.6748 -4.4303 -0.2006
2.8665 -4.4929 -0.2494
2.9090 -4.5066 -0.2602
2.9914 -4.4729 -0.2589
3.0318 -4.4528 -0.2569
3.0719 -4.4329 -0.2550
3.1143 -4.4260 -0.2581
3.1555 -4.4125 -0.2587
3.1967 -4.3991 -0.2593
3.2361 -4.3794 -0.2573
3.2750 -4.3598 -0.2554
3.3159 -4.3465 -0.2560
3.3592 -4.3393 -0.2591
3.4002 -4.3259 -0.2597
3.4498 -4.3305 -0.2681
3.4823 -4.2992 -0.2609
3.5202 -4.2800 -0.2589
3.5610 -4.2667 -0.2595
3.5983 -4.2477 -0.2575
3.6427 -4.2401 -0.2607
3.6915 -4.2380 -0.2665
3.7286 -4.2190 -0.2645
3.7653 -4.2002 -0.2625
3.8017 -4.1814 -0.2605
3.8330 -4.1575 -0.2558
3.8830 -4.1550 -0.2616
3.9186 -4.1365 -0.2596
3.9591 -4.1233 -0.2602
3.9895 -4.1006 -0.2559
4.0401 -4.0969 -0.2614
4.0980 -4.0987 -0.2698
4.1211 -4.0705 -0.2625
4.1677 -4.0622 -0.2658
4.2148 -4.0538 -0.2690
4.2687 -4.0500 -0.2748
4.2897 -4.0225 -0.2675
4.3373 -4.0139 -0.2708
4.3711 -3.9960 -0.2687
4.3972 -3.9737 -0.2640
4.4236 -3.9523 -0.2597
4.4931 -3.9563 -0.2705
4.5181 -3.9344 -0.2658
4.5584 -3.9212 -0.2663
4.5917 -3.9045 -0.2646
4.6234 -3.8873 -0.2626
2.4868 -4.7070 -0.2290
2.6786 -4.4402 -0.1626
2.7860 -4.6979 -0.2633
2.9178 -4.5905 -0.2433
2.9607 -4.5686 -0.2413
3.0145 -4.6403 -0.2723
3.0554 -4.5933 -0.2615
3.3973 -4.4343 -0.2503
3.6036 -4.3434 -0.2452
3.6316 -4.3054 -0.2359
3.6814 -4.3031 -0.2413
3.7369 -4.3079 -0.2498
4.0956 -4.1543 -0.2426
4.1561 -4.1565 -0.2509
4.2151 -4.1075 -0.2416
4.2507 -4.0890 -0.2398
4.2925 -4.0754 -0.2404
4.3767 -4.0916 -0.2564
4.4670 -4.0255 -0.2453
4.5485 -4.0357 -0.2589
4.5509 -3.9982 -0.2465
4.5850 -3.9801 -0.2447
4.6601 -3.9844 -0.2555
4.7027 -3.9706 -0.2561
4.7452 -3.9567 -0.2567
2.0995 -5.0819 -0.2528
2.1523 -5.0547 -0.2505
2.2634 -4.8315 -0.1943
2.3579 -4.6358 -0.1446
2.4857 -4.4022 -0.0871
2.5525 -4.5924 -0.1536
2.6074 -4.4746 -0.1235
2.6441 -4.4686 -0.1259
2.6900 -4.8896 -0.2614
2.7404 -4.8432 -0.2528
2.7892 -4.7993 -0.2449
2.8369 -4.7838 -0.2456
2.9232 -4.6167 -0.2038
2.9741 -4.6761 -0.2281
3.0332 -4.7678 -0.2632
3.0793 -4.7328 -0.2577
3.1244 -4.6991 -0.2525
3.1724 -4.6835 -0.2532
3.2225 -4.6772 -0.2570
3.2682 -4.6523 -0.2546
3.3136 -4.6285 -0.2525
3.3555 -4.5959 -0.2472
3.4026 -4.5805 -0.2479
3.4566 -4.5820 -0.2545
3.5042 -4.5664 -0.2552
3.5597 -4.5674 -0.2619
3.6118 -4.5594 -0.2654
3.6560 -4.5360 -0.2633
3.6949 -4.5044 -0.2580
3.7379 -4.4813 -0.2558
3.7854 -4.4659 -0.2565
3.8487 -4.4733 -0.2661
3.8802 -4.4350 -0.2579
3.9332 -4.4267 -0.2614
3.9867 -4.4183 -0.2650
4.0225 -4.3887 -0.2600
4.0699 -4.3732 -0.2606
4.1036 -4.3433 -0.2553
4.1573 -4.3348 -0.2588
4.2044 -4.3194 -0.2595
4.2597 -4.3115 -0.2634
4.3071 -4.2960 -0.2641
4.3227 -4.2539 -0.2529
4.3381 -4.2139 -0.2423
4.5202 -4.1546 -0.2449
4.6676 -4.2066 -0.2780
4.7252 -4.1968 -0.2816
4.7532 -4.1687 -0.2761
4.7506 -4.1236 -0.2619
4.8389 -4.1318 -0.2746
4.8544 -4.0988 -0.2661
4.8907 -4.0780 -0.2639
4.9157 -4.0518 -0.2587
2.0999 -5.2486 -0.2455
2.4170 -4.5719 -0.0895
2.5085 -4.4735 -0.0716
2.5745 -4.4914 -0.0836
2.6136 -4.4665 -0.0808
2.6479 -4.4785 -0.0878
2.7520 -4.6784 -0.1548
2.8868 -4.7182 -0.1801
2.9333 -4.7111 -0.1831
3.0576 -4.9367 -0.2594
3.2652 -4.8459 -0.2559
3.3236 -4.8501 -0.2632
3.5719 -4.7228 -0.2539
3.6239 -4.7059 -0.2546
3.6710 -4.6795 -0.2522
3.7227 -4.6626 -0.2529
3.7911 -4.6746 -0.2635
3.8437 -4.6575 -0.2643
3.8963 -4.6404 -0.2651
3.9295 -4.5953 -0.2559
3.9250 -4.5020 -0.2293
4.0329 -4.5616 -0.2574
4.1363 -4.5280 -0.2589
4.1880 -4.5111 -0.2597
4.3094 -4.4283 -0.2493
4.3430 -4.3962 -0.2439
4.3930 -4.3799 -0.2446
4.6033 -4.3225 -0.2507
4.7905 -4.3492 -0.2780
4.8196 -4.3166 -0.2719
4.8265 -4.2710 -0.2599
4.8548 -4.2406 -0.2544
4.8379 -4.1846 -0.2369
4.8437 -4.1444 -0.2263
4.8810 -4.1232 -0.2243
4.9166 -4.1015 -0.2220
2.1095 -4.9850 -0.1222
2.0660 -5.3881 -0.2194
2.1221 -5.3699 -0.2202
2.1936 -5.2948 -0.2082
2.2616 -5.2239 -0.1970
2.5432 -4.5004 -0.0422
2.5821 -4.4766 -0.0399
2.6165 -4.4827 -0.0448
2.6432 -4.5664 -0.0684
2.6768 -4.6245 -0.0863
2.7159 -4.6483 -0.0960
2.7544 -4.7486 -0.1249
2.8518 -5.1190 -0.2275
2.9111 -5.1810 -0.2488
2.9700 -5.1760 -0.2532
3.0244 -5.1167 -0.2435
3.0816 -5.0981 -0.2443
3.1388 -5.0794 -0.2452
3.1935 -5.0474 -0.2424
3.2503 -5.0289 -0.2432
3.3166 -5.0489 -0.2546
3.3745 -5.0301 -0.2555
3.4285 -4.9983 -0.2527
3.4860 -4.9795 -0.2535
3.5392 -4.9490 -0.2510
3.5914 -4.9178 -0.2481
3.6482 -4.8993 -0.2490
3.6888 -4.8465 -0.2396
3.7389 -4.8170 -0.2370
3.8005 -4.8101 -0.2412
3.8627 -4.8031 -0.2454
3.9256 -4.7958 -0.2497
3.9821 -4.7774 -0.2505
4.0311 -4.7482 -0.2479
4.1766 -4.7547 -0.2635
4.2433 -4.7472 -0.2681
4.3012 -4.7283 -0.2689
4.3493 -4.6984 -0.2660
4.4171 -4.6906 -0.2706
4.4143 -4.6102 -0.2501
4.4025 -4.5267 -0.2280
4.4755 -4.5273 -0.2352
4.5498 -4.5275 -0.2424
4.5838 -4.4920 -0.2367
4.6273 -4.4657 -0.2343
4.8097 -4.5485 -0.2727
4.8549 -4.5206 -0.2700
4.9122 -4.5019 -0.2708
4.9554 -4.4736 -0.2679
5.0266 -4.4647 -0.2725
5.1121 -4.4642 -0.2806
5.1851 -4.4547 -0.2853
5.1253 -4.3655 -0.2571
4.8384 -4.1512 -0.1755
4.8025 -4.0897 -0.1566
4.8788 -4.0913 -0.1644
2.0963 -5.0480 -0.0854
2.1435 -5.0326 -0.0861
2.1840 -5.0389 -0.0910
2.1986 -5.5183 -0.1993
2.5920 -5.7228 -0.2793
2.6597 -5.7202 -0.2846
3.0573 -5.4024 -0.2483
3.1261 -5.4158 -0.2573
3.1761 -5.2961 -0.2350
3.2476 -5.3230 -0.2472
3.3015 -5.2553 -0.2368
3.3602 -5.2188 -0.2337
3.4351 -5.2445 -0.2460
3.4847 -5.1782 -0.2355
3.5423 -5.1441 -0.2330
3.6149 -5.1532 -0.2413
3.7079 -5.2079 -0.2616
3.7466 -5.1267 -0.2469
3.8030 -5.0920 -0.2440
3.8728 -5.0856 -0.2487
3.9284 -5.0512 -0.2459
3.9990 -5.0445 -0.2505
4.0449 -4.9958 -0.2437
4.0989 -4.9629 -0.2410
4.1693 -4.9553 -0.2455
4.2611 -4.9756 -0.2580
4.3247 -4.9549 -0.2589
4.3672 -4.9083 -0.2522
4.3972 -4.8494 -0.2417
4.4366 -4.8048 -0.2352
4.4538 -4.7388 -0.2219
4.4915 -4.6979 -0.2161
4.5947 -4.7226 -0.2306
4.7434 -4.7858 -0.2577
4.7791 -4.7414 -0.2509
4.8687 -4.7449 -0.2595
4.9753 -4.7604 -0.2722
5.0392 -4.7396 -0.2732
5.1354 -4.7430 -0.2823
5.1982 -4.6540 -0.2679
5.3022 -4.5393 -0.2514
5.4764 -4.5297 -0.2644
5.3497 -4.4041 -0.2253
5.2677 -4.3100 -0.1972
2.0463 -4.9886 -0.0193
2.0616 -5.0547 -0.0334
2.0858 -5.1046 -0.0451
2.0482 -6.1854 -0.2534
2.1349 -6.1097 -0.2454
2.5708 -4.6207 0.0116
2.6004 -4.6885 -0.0039
2.5888 -5.8701 -0.2340
2.6620 -5.8246 -0.2309
2.7329 -5.8232 -0.2361
2.8048 -5.8224 -0.2416
2.8774 -5.7988 -0.2426
3.0278 -5.8189 -0.2583
3.1022 -5.7947 -0.2594
3.1680 -5.7042 -0.2469
3.2182 -5.5393 -0.2185
3.2834 -5.4974 -0.2155
3.3950 -5.6756 -0.2590
3.4636 -5.6306 -0.2556
3.7204 -5.4377 -0.2379
3.7981 -5.4330 -0.2431
3.9206 -5.5282 -0.2713
3.9576 -5.4244 -0.2539
4.0395 -5.4204 -0.2595
4.0530 -5.2871 -0.2345
4.1128 -5.2480 -0.2315
4.1416 -5.1602 -0.2166
4.2836 -5.2543 -0.2461
4.3076 -5.1639 -0.2303
4.5734 -4.8762 -0.1948
4.9662 -5.0959 -0.2685
5.0211 -5.0564 -0.2650
5.0580 -5.0021 -0.2573
5.1284 -4.9792 -0.2583
5.2356 -4.9865 -0.2681
5.3671 -5.0107 -0.2831
5.1762 -4.7862 -0.2243
5.4295 -4.9017 -0.2667
5.5867 -4.9392 -0.2863
5.5508 -4.8416 -0.2644
5.5367 -4.7637 -0.2481
5.5844 -4.7285 -0.2450
5.3952 -4.4952 -0.1846
5.3555 -4.4194 -0.1666
5.3338 -4.3574 -0.1528
2.0544 -5.1000 0.0091
2.1018 -5.0846 0.0084
1.7100 -6.6755 -0.2319
1.7453 -6.8251 -0.2595
1.8341 -6.7962 -0.2608
2.5315 -4.6651 0.0492
3.2203 -6.0652 -0.2339
3.3063 -6.0653 -0.2398
3.3688 -5.9327 -0.2219
3.4983 -5.7606 -0.2019
3.5875 -5.7825 -0.2117
3.7584 -5.7788 -0.2230
3.7202 -5.4368 -0.1628
3.7901 -5.4141 -0.1638
3.9190 -5.5269 -0.1917
3.9928 -5.5029 -0.1928
4.0769 -5.4994 -0.1980
4.1090 -5.3965 -0.1830
4.1197 -5.2662 -0.1618
4.1885 -5.2438 -0.1628
4.3251 -5.3261 -0.1861
4.3611 -5.2499 -0.1758
5.0580 -5.5249 -0.2703
5.5344 -5.0726 -0.2272
5.6100 -5.0480 -0.2283
5.7590 -5.0753 -0.2432
5.6900 -4.9502 -0.2174
5.7432 -4.8425 -0.2030
5.7024 -4.7508 -0.1847
5.4440 -4.4816 -0.1216
5.4359 -4.4250 -0.1115
5.4772 -4.3970 -0.1096
2.1177 -5.0642 0.0605
1.8368 -7.1997 -0.2241
2.5611 -4.5219 0.1102
3.6371 -5.9537 -0.1570
3.7197 -5.6619 -0.1208
3.7487 -5.5132 -0.1015
3.7971 -5.4325 -0.0931
3.8670 -5.4098 -0.0941
3.9543 -5.4243 -0.1014
4.1166 -5.2667 -0.0890
4.1848 -5.2445 -0.0900
4.2860 -5.2733 -0.1002
4.3682 -5.2686 -0.1045
4.6341 -5.5171 -0.1556
5.2041 -5.9817 -0.2557
5.4354 -6.1126 -0.2882
5.4492 -5.9814 -0.2705
5.5763 -5.9819 -0.2782
5.6147 -5.8878 -0.2673
5.4100 -5.5586 -0.2084
5.5745 -5.6045 -0.2248
5.4824 -5.4115 -0.1920
5.8152 -5.3031 -0.1968
5.5950 -5.0512 -0.1480
5.3766 -4.8176 -0.1018
5.5226 -4.8497 -0.1151
5.6789 -4.8847 -0.1295
5.7732 -4.8759 -0.1340
5.7985 -4.8237 -0.1281
5.7998 -4.7594 -0.1191
5.6345 -4.6028 -0.0870
5.5648 -4.5082 -0.0695
2.5347 -4.2185 0.1848
2.5569 -4.2398 0.1812
2.7513 -4.3981 0.1530
3.7091 -6.2046 -0.1038
3.8468 -6.3370 -0.1261
3.8445 -5.7712 -0.0611
4.0855 -6.1506 -0.1171
3.9162 -5.5253 -0.0367
3.9439 -5.4055 -0.0244
4.0046 -5.3646 -0.0228
4.0859 -5.2189 -0.0103
4.1426 -5.1815 -0.0090
4.2931 -5.2918 -0.0294
4.4375 -5.3787 -0.0469
4.5242 -5.3737 -0.0508
4.7209 -5.5122 -0.0769
5.2137 -6.0069 -0.1591
5.5357 -6.2470 -0.2034
5.5461 -6.1065 -0.1878
5.5281 -5.9446 -0.1683
5.6244 -5.9132 -0.1697
5.7207 -5.8819 -0.1711
6.2624 -5.6654 -0.1743
5.5988 -4.8454 -0.0459
5.8525 -4.9412 -0.0700
5.8525 -4.8715 -0.0620
6.0789 -4.9402 -0.0817
5.7439 -4.6790 -0.0343
5.5889 -4.5343 -0.0097
3.8170 -5.9437 0.0062
3.8524 -5.7919 0.0181
3.9699 -5.8642 0.0066
3.9599 -5.6283 0.0279
3.9776 -5.4812 0.0402
4.0303 -5.4204 0.0433
4.0620 -5.3250 0.0503
4.0563 -5.1728 0.0641
4.1208 -5.1518 0.0631
4.2781 -5.2759 0.0453
4.4189 -5.3598 0.0318
4.7629 -5.5783 -0.0024
5.2487 -6.0642 -0.0665
5.3993 -6.0981 -0.0760
5.6184 -6.2042 -0.0949
5.6261 -6.0667 -0.0831
5.6946 -6.0019 -0.0803
5.6703 -5.8472 -0.0655
6.5861 -5.9359 -0.1131
6.4048 -5.6877 -0.0832
6.2043 -5.3513 -0.0448
5.8363 -4.8759 0.0133
5.6322 -4.5714 0.0490
2.3473 -4.9218 0.2061
2.5546 -4.6637 0.2151
2.5731 -4.8066 0.2054
2.7191 -4.4967 0.2198
2.7923 -4.4557 0.2198
2.8285 -4.4728 0.2175
3.6325 -5.9135 0.0990
3.7902 -5.8622 0.0967
3.9581 -5.6265 0.1056
4.0325 -5.6023 0.1045
4.0659 -5.4961 0.1100
4.0329 -5.2756 0.1250
4.0628 -5.1898 0.1294
4.1364 -5.1840 0.1271
4.2421 -5.2267 0.1208
4.3539 -5.2717 0.1140
4.8233 -5.6692 0.0727
5.0683 -5.8486 0.0529
5.3024 -5.9950 0.0355
5.5664 -6.1596 0.0160
5.6361 -6.0930 0.0177
5.6734 -5.9952 0.0225
5.7402 -5.9328 0.0241
6.6678 -6.1404 -0.0213
6.6843 -6.0322 -0.0151
6.6571 -5.8966 -0.0056
6.5902 -5.7395 0.0066
6.1202 -5.3090 0.0500
6.0503 -5.0994 0.0656
5.8670 -4.9096 0.0839
6.0149 -4.9321 0.0773
5.4517 -4.5352 0.1219
5.4931 -4.5056 0.1223
1.7306 -5.8627 0.2325
2.5267 -4.6446 0.2568
2.5890 -4.7289 0.2520
2.6194 -4.8129 0.2480
2.7156 -4.6230 0.2526
2.7551 -4.6036 0.2522
2.7947 -4.5573 0.2529
2.8326 -4.5126 0.2536
3.5307 -5.8374 0.1854
3.5872 -5.7446 0.1874
3.7203 -5.6538 0.1872
3.7554 -5.5291 0.1909
3.9205 -5.5422 0.1861
4.0108 -5.5592 0.1830
4.0732 -5.5152 0.1830
4.0856 -5.3795 0.1877
4.0781 -5.2223 0.1938
4.1153 -5.1552 0.1953
4.2386 -5.2283 0.1893
4.3156 -5.2226 0.1875
4.4296 -5.2675 0.1828
4.9727 -5.7389 0.1506
5.3911 -6.1161 0.1254
5.6391 -6.2586 0.1134
5.6160 -6.0860 0.1205
5.8448 -6.1916 0.1105
6.7404 -6.0963 0.0901
6.5821 -5.8588 0.1033
5.7561 -4.9218 0.1603
5.6803 -4.6822 0.1713
5.6074 -4.5830 0.1769
5.5581 -4.5020 0.1813
2.6307 -4.7579 0.2924
2.7183 -4.6555 0.2921
2.7583 -4.6349 0.2916
2.7984 -4.5805 0.2915
2.8362 -4.5106 0.2917
3.5267 -5.8112 0.2628
3.6206 -5.8567 0.2605
3.6825 -5.7855 0.2602
3.7422 -5.7161 0.2600
3.8002 -5.6494 0.2597
3.8562 -5.5844 0.2595
3.9277 -5.5611 0.2585
3.9900 -5.5180 0.2579
4.0374 -5.2940 0.2598
4.0499 -5.1780 0.2610
4.3008 -5.2082 0.2559
4.9812 -5.7613 0.2365
5.3742 -6.1092 0.2249
5.5567 -6.1780 0.2207
5.6872 -6.1801 0.2182
5.6045 -5.9528 0.2226
5.4049 -5.6233 0.2303
5.8836 -5.2556 0.2260
5.6064 -4.9047 0.2355
5.5974 -4.7664 0.2374
5.5646 -4.6847 0.2390
5.4979 -4.5869 0.2415
5.4881 -4.5271 0.2424
1.6484 -6.1517 0.3619
2.5901 -4.8075 0.3355
2.6357 -4.7610 0.3345
2.6853 -4.6430 0.3325
2.7231 -4.6515 0.3322
2.7625 -4.6387 0.3316
2.8400 -4.5205 0.3294
3.5342 -5.8309 0.3382
3.6086 -5.8067 0.3371
3.6623 -5.7159 0.3354
3.7205 -5.6499 0.3340
3.7843 -5.6061 0.3328
3.8716 -5.6236 0.3321
3.9349 -5.5800 0.3309
4.0064 -5.5567 0.3299
4.0587 -5.4948 0.3286
3.9990 -5.0930 0.3242
4.0121 -4.9946 0.3229
4.2258 -5.1034 0.3220
5.0516 -5.8631 0.3227
5.3571 -6.1019 0.3224
5.5081 -6.1358 0.3212
5.6358 -6.1380 0.3199
5.7028 -6.0724 0.3184
5.8651 -6.1071 0.3171
5.9990 -6.1084 0.3157
6.2173 -5.5186 0.3062
5.4926 -4.8397 0.3055
5.4970 -4.6555 0.3032
5.4519 -4.5717 0.3026
5.4770 -4.5328 0.3019
5.5180 -4.5042 0.3011
1.4884 -6.8234 0.4544
2.2853 -5.1266 0.3903
2.5839 -4.9059 0.3815
2.6887 -4.6601 0.3722
2.7275 -4.6541 0.3719
2.7667 -4.6413 0.3713
2.8433 -4.5062 0.3662
3.5598 -5.9218 0.4161
3.6794 -6.0504 0.4205
3.7431 -5.9712 0.4174
3.7550 -5.5265 0.4011
3.8464 -5.5617 0.4022
3.9509 -5.6192 0.4040
3.9861 -5.5163 0.4002
3.9448 -5.1285 0.3861
3.9746 -5.0548 0.3833
4.0678 -4.9782 0.3803
4.1506 -4.9975 0.3808
4.9785 -5.7806 0.4073
5.2894 -6.0321 0.4157
5.4348 -6.0641 0.4165
5.5863 -6.0974 0.4173
5.7757 -6.1658 0.4193
5.8752 -6.1334 0.4179
5.7516 -5.8815 0.4090
5.8137 -5.8228 0.4067
5.8222 -5.1586 0.3824
5.6850 -4.9862 0.3764
5.6260 -4.8764 0.3726
5.5902 -4.7878 0.3694
5.5588 -4.7065 0.3665
5.4578 -4.5873 0.3624
5.4659 -4.5383 0.3606
5.5759 -4.5488 0.3607
2.5860 -4.9372 0.4274
2.6384 -4.8413 0.4219
2.6883 -4.7296 0.4154
2.7314 -4.6645 0.4117
3.5802 -5.9922 0.4965
3.9010 -6.4728 0.5272
3.7693 -5.5643 0.4716
3.8534 -5.5802 0.4730
3.8985 -5.5000 0.4683
3.9842 -5.5154 0.4697
3.9584 -5.3007 0.4566
3.9584 -5.1586 0.4480
3.9879 -5.0835 0.4436
4.0736 -4.9934 0.4386
4.1311 -4.9747 0.4378
4.2715 -5.0744 0.4445
4.9287 -5.7274 0.4875
5.4304 -6.2190 0.5199
5.5277 -6.1873 0.5184
5.6251 -6.1556 0.5170
5.7541 -6.1580 0.5179
5.8852 -6.1597 0.5186
5.9509 -6.0939 0.5150
6.0145 -6.0288 0.5114
5.7664 -5.6822 0.4891
5.6872 -5.0752 0.4520
5.7365 -5.0358 0.4498
5.8080 -5.0125 0.4488
5.5967 -4.8049 0.4351
5.7034 -4.8101 0.4360
5.7063 -4.7504 0.4324
2.5023 -4.7373 0.4537
2.6192 -4.6993 0.4520
2.6489 -4.7858 0.4597
3.5411 -6.1722 0.5878
3.6081 -6.0912 0.5819
3.7762 -5.5825 0.5413
3.8605 -5.5987 0.5437
3.9138 -5.5377 0.5393
4.0002 -5.5532 0.5417
4.2575 -5.9099 0.5750
3.9956 -5.2338 0.5148
3.9643 -5.0461 0.4986
4.1773 -4.9466 0.4929
5.1447 -6.0190 0.5957
5.4402 -6.2447 0.6185
5.5094 -6.1797 0.6139
5.6349 -6.1813 0.6156
5.7640 -6.1840 0.6175
5.8624 -6.1520 0.6161
5.9269 -6.0862 0.6114
6.0941 -6.1212 0.6165
5.5269 -5.3813 0.5469
5.8630 -5.2999 0.5444
5.5653 -4.9999 0.5153
5.7437 -5.0547 0.5223
5.7240 -4.9695 0.5148
5.4619 -4.6702 0.4863
5.5823 -4.6310 0.4845
2.3087 -4.4280 0.4548
2.3504 -4.4663 0.4597
2.3630 -4.5184 0.4656
2.4614 -4.7904 0.4968
2.6034 -4.8860 0.5100
2.8543 -4.5352 0.4775
4.0352 -7.2795 0.7965
3.7922 -6.1145 0.6664
3.8372 -5.9828 0.6531
3.8439 -5.5584 0.6077
3.9463 -5.6151 0.6159
4.0447 -5.6529 0.6219
4.0967 -5.5887 0.6161
3.9488 -5.0232 0.5523
4.0618 -4.9864 0.5507
4.1830 -4.9616 0.5505
4.3866 -5.1441 0.5743
5.0653 -5.9274 0.6723
5.8394 -6.1437 0.7114
5.9367 -6.1120 0.7100
6.1675 -6.0818 0.7115
6.0244 -5.8357 0.6822
5.8158 -5.5501 0.6472
6.6182 -5.8901 0.7002
5.8458 -5.0664 0.5958
5.6919 -4.8935 0.5741
5.8019 -4.8994 0.5770
0.9335 -8.6896 1.0012
3.7638 -5.7658 0.6991
3.7901 -5.6189 0.6807
3.8994 -5.6978 0.6940
3.9444 -5.6129 0.6842
4.0051 -5.5704 0.6804
3.9941 -5.3847 0.6558
3.9467 -5.1495 0.6239
3.9614 -5.0506 0.6114
3.9964 -4.9950 0.6051
5.1399 -6.0364 0.7729
5.9465 -6.1377 0.8087
6.0439 -6.1060 0.8072
6.2136 -6.1414 0.8166
6.3513 -6.1431 0.8207
6.3359 -6.0109 0.8030
5.9645 -5.5922 0.7380
6.7679 -5.9156 0.8027
6.5085 -5.6282 0.7579
5.7380 -5.0061 0.6553
5.5969 -4.8434 0.6301
5.7054 -4.7888 0.6260
5.7902 -4.7805 0.6273
5.9659 -4.8242 0.6379
0.9917 -8.0165 1.0154
0.9455 -8.7210 1.1216
2.8973 -4.5236 0.5482
4.0224 -6.8389 0.9423
3.9394 -6.2768 0.8533
3.8197 -5.6982 0.7605
3.8351 -5.5379 0.7366
3.9260 -5.5722 0.7450
3.9202 -5.3892 0.7168
3.9842 -5.3684 0.7159
3.8970 -5.0588 0.6654
3.9602 -5.0531 0.6668
4.0093 -5.0222 0.6638
5.9239 -6.1306 0.9011
6.1242 -6.2001 0.9188
6.1874 -6.1339 0.9109
6.2484 -6.0683 0.9030
6.4226 -6.1029 0.9145
6.5626 -6.1042 0.9196
6.1825 -5.6868 0.8423
6.7637 -6.0387 0.9167
6.6946 -5.8796 0.8899
6.6685 -5.7603 0.8707
5.5644 -4.8344 0.6900
5.6279 -4.8137 0.6891
5.7550 -4.7723 0.6873
1.0020 -8.0436 1.1195
4.2054 -7.0511 1.0820
3.8755 -5.8481 0.8570
3.9586 -5.8474 0.8604
3.9232 -5.1129 0.7301
3.9448 -5.0300 0.7165
5.3706 -6.2107 0.9843
6.4119 -6.2325 1.0325
6.4721 -6.1635 1.0229
6.5683 -5.9057 0.9818
6.5471 -5.7873 0.9602
6.8861 -5.9356 1.0006
6.7320 -5.7271 0.9575
5.6914 -4.9326 0.7738
5.5591 -4.7814 0.7417
5.8032 -4.8146 0.7579
3.9565 -6.0658 0.9745
4.0149 -5.9889 0.9622
3.9075 -5.5332 0.8669
3.9290 -5.1281 0.7880
3.9504 -5.0447 0.7726
3.9990 -5.0150 0.7692
6.5600 -6.0247 1.0960
6.6992 -6.0257 1.1032
6.7976 -5.9936 1.1017
6.8521 -5.9296 1.0918
6.8639 -5.8378 1.0743
5.5830 -4.8093 0.8075
5.5705 -4.7416 0.7935
5.8112 -4.7732 0.8117
1.0426 -8.0414 1.3166
0.9588 -8.5651 1.4266
3.9817 -5.7082 0.9725
3.9046 -5.2171 0.8605
3.9488 -5.1701 0.8527
3.9843 -5.1107 0.8417
3.9766 -4.9816 0.8129
7.2858 -6.5048 1.3349
6.9871 -6.1558 1.2415
6.5821 -5.7504 1.1296
0.8347 -5.7964 0.8769
0.8712 -5.6480 0.8584
1.8435 -4.0187 0.5219
1.7362 -4.0911 0.5518
-0.3222 -5.1544 1.1026
-0.5823 -3.9654 1.0827
-0.9679 -3.2606 1.1247
0.7849 -2.9655 0.6970
0.9051 -2.8937 0.6641
0.9204 -2.8587 0.6582
0.9601 -2.8276 0.6468
0.9727 -2.7951 0.6417
0.9431 -2.7573 0.6460
0.9378 -2.7229 0.6450
0.8068 -2.6293 0.6691
-0.4014 -1.8720 0.8990
-0.2906 -1.8641 0.8727
-0.4014 -1.7685 0.8920
0.6471 -6.1207 0.8778
0.9070 -5.6093 0.7921
0.8882 -5.5514 0.7926
1.6560 -4.1613 0.5468
1.6283 -4.1539 0.5522
1.5406 -4.1710 0.5717
1.5446 -4.1226 0.5679
-0.1294 -5.1152 0.9804
-0.8326 -4.1368 1.0693
-1.1149 -3.2653 1.0760
-1.0400 -3.1732 1.0547
0.7839 -3.0026 0.6603
0.8621 -2.9634 0.6415
0.8716 -2.9253 0.6372
0.9014 -2.8896 0.6287
0.9224 -2.8549 0.6222
0.9629 -2.8238 0.6118
0.9634 -2.7896 0.6097
0.9519 -2.7542 0.6099
0.9404 -2.7187 0.6102
0.9534 -2.6880 0.6056
0.9174 -2.6478 0.6108
0.8387 -2.5965 0.6242
0.1904 -2.3064 0.7432
0.2255 -2.2726 0.7338
0.4118 -2.2512 0.6932
-0.3670 -1.8743 0.8344
-0.3122 -1.8447 0.8211
-0.3309 -1.7868 0.8215
0.7698 -5.9411 0.7796
1.5595 -4.1557 0.5359
1.7971 -3.7848 0.4715
1.7032 -3.7772 0.4887
0.7701 -2.9990 0.6229
0.8498 -2.9595 0.6058
0.8811 -2.9219 0.5979
0.9434 -2.8885 0.5844
0.9385 -2.8523 0.5834
0.9646 -2.8199 0.5767
0.9661 -2.7857 0.5746
0.9606 -2.7511 0.5738
0.9370 -2.7135 0.5763
0.9315 -2.6789 0.5755
0.8868 -2.6361 0.5816
0.8949 -2.6045 0.5784
0.8907 -2.5705 0.5774
0.4819 -2.3454 0.6423
0.5164 -2.3181 0.6344
0.5310 -2.2855 0.6299
-0.3149 -1.9353 0.7704
1.6117 -4.1879 0.4975
1.5459 -4.1777 0.5079
1.5645 -4.1124 0.5019
1.7893 -3.7967 0.4502
1.7128 -3.8058 0.4632
1.1813 -3.9948 0.5599
0.5863 -3.0412 0.6146
0.5610 -2.9945 0.6166
1.0499 -2.9264 0.5326
0.9735 -2.8167 0.5402
0.9690 -2.7818 0.5393
0.9634 -2.7470 0.5387
0.9519 -2.7114 0.5389
0.9270 -2.6731 0.5413
0.9031 -2.6345 0.5435
0.9173 -2.6046 0.5398
0.8995 -2.5674 0.5410
0.7997 -2.4729 0.5532
0.5269 -2.3143 0.5910
-0.3572 -1.9088 0.7187
0.8700 -2.2484 0.5312
1.7314 -4.2070 0.4505
1.7322 -4.1641 0.4487
1.6194 -4.1851 0.4656
1.5786 -4.1462 0.4699
1.1674 -4.0084 0.5232
0.7714 -3.1655 0.5473
0.6230 -3.0834 0.5652
0.5777 -3.0375 0.5699
0.5511 -2.9903 0.5719
1.0528 -2.9231 0.4978
0.9559 -2.8816 0.5100
0.9695 -2.8471 0.5068
0.9706 -2.8122 0.5053
0.9648 -2.7768 0.5047
0.9531 -2.7408 0.5050
0.8959 -2.6964 0.5115
0.9612 -2.6751 0.5013
0.9120 -2.6313 0.5067
0.9126 -2.5982 0.5053
0.8948 -2.5607 0.5064
0.8893 -2.5264 0.5059
0.5965 -2.3678 0.5415
0.6604 -2.3525 0.5318
0.5045 -2.2612 0.5505
0.9141 -2.2614 0.4921
1.5937 -4.2245 0.4390
1.5510 -4.2311 0.4443
1.5442 -4.1928 0.4439
1.1393 -4.0325 0.4872
0.7055 -3.1221 0.5108
0.5935 -3.0810 0.5229
0.5782 -3.0336 0.5233
0.5628 -2.9861 0.5236
0.9903 -2.8803 0.4694
0.9657 -2.8426 0.4711
0.9340 -2.8035 0.4737
0.9290 -2.7673 0.4732
0.8756 -2.7234 0.4782
0.8204 -2.6774 0.4834
0.7993 -2.6368 0.4846
0.8810 -2.6191 0.4743
0.9019 -2.5902 0.4709
0.8705 -2.5486 0.4734
0.8451 -2.5080 0.4752
1.6325 -4.2274 0.4031
1.6222 -4.1956 0.4034
1.5912 -4.1892 0.4062
1.5944 -4.1406 0.4048
1.1162 -4.0530 0.4485
0.6610 -3.1217 0.4703
0.6052 -3.0768 0.4746
0.6009 -3.0292 0.4739
0.5745 -2.9820 0.4754
0.5591 -2.9345 0.4757
1.0119 -2.8781 0.4311
0.9932 -2.8413 0.4320
0.9757 -2.8042 0.4328
0.9183 -2.7611 0.4373
0.8708 -2.7177 0.4408
0.7363 -2.6563 0.4523
0.7947 -2.6303 0.4461
0.8336 -2.6028 0.4417
0.6132 -2.3967 0.4580
0.6802 -2.3455 0.4504
0.7165 -2.3236 0.4464
0.8478 -2.2478 0.4321
1.6303 -4.2379 0.3717
1.6168 -4.2098 0.3723
1.5992 -4.1863 0.3731
1.5959 -4.1454 0.3728
1.5750 -4.1251 0.3739
1.0999 -4.0689 0.4072
0.8318 -4.1393 0.4275
0.7860 -4.1071 0.4303
0.7093 -3.1154 0.4204
0.5863 -3.0738 0.4286
0.6126 -3.0251 0.4259
0.5862 -2.9778 0.4271
1.0083 -2.8739 0.3952
0.9518 -2.8328 0.3986
0.9455 -2.7960 0.3985
0.5577 -2.6165 0.4235
0.5620 -2.5753 0.4225
0.5475 -2.5304 0.4229
0.5330 -2.4855 0.4232
0.5294 -2.4437 0.4228
0.5247 -2.4019 0.4225
0.5399 -2.3668 0.4209
0.6001 -2.3477 0.4163
0.6226 -2.3183 0.4142
0.7499 -2.2296 0.4037
0.8229 -2.2298 0.3984
0.8386 -2.2065 0.3970
1.6513 -4.2177 0.3383
1.6247 -4.2070 0.3395
1.5429 -4.1680 0.3430
1.5165 -4.1511 0.3442
0.7388 -3.1103 0.3731
0.6188 -3.0688 0.3785
0.6133 -3.0211 0.3784
0.6189 -2.9739 0.3778
1.0591 -2.8743 0.3561
0.9668 -2.8301 0.3601
0.4539 -2.5901 0.3827
0.4562 -2.5022 0.3819
0.4409 -2.4551 0.3823
0.3327 -2.3821 0.3868
0.2159 -2.3028 0.3918
0.2849 -2.2345 0.3880
0.4614 -2.2537 0.3797
0.4043 -2.1927 0.3820
0.4537 -2.1720 0.3795
0.5191 -2.1602 0.3763
0.5332 -2.1293 0.3754
0.5748 -2.1117 0.3732
0.5433 -2.0620 0.3744
1.2902 -5.1957 0.3143
1.2532 -5.1827 0.3152
0.8538 -5.6546 0.3243
1.6088 -4.2350 0.3072
1.4694 -4.3100 0.3104
1.5123 -4.2099 0.3094
1.5009 -4.1747 0.3097
1.1076 -4.1264 0.3188
1.1003 -4.0768 0.3190
0.6511 -3.0640 0.3295
0.6152 -3.0170 0.3304
0.5899 -2.9692 0.3310
1.0566 -2.8702 0.3202
1.0269 -2.8325 0.3209
0.9445 -2.7869 0.3228
0.8760 -2.7404 0.3244
0.4229 -2.4873 0.3349
0.4407 -2.4478 0.3345
-0.4690 -2.0285 0.3556
0.2345 -2.2088 0.3393
0.3416 -2.2027 0.3369
0.1690 -2.0066 0.3409
-0.1143 -1.7923 0.3475
1.2583 -5.1902 0.2650
1.1665 -5.1846 0.2648
1.2103 -5.0418 0.2661
1.6314 -4.2600 0.2733
1.5964 -4.2588 0.2733
1.4813 -4.3553 0.2723
1.5121 -4.2664 0.2731
1.4247 -4.3180 0.2725
1.3979 -4.2955 0.2726
0.6506 -4.7129 0.2678
1.1523 -4.0963 0.2738
1.1383 -4.0529 0.2742
0.6376 -3.1093 0.2811
1.0710 -2.8676 0.2839
0.9391 -2.8184 0.2840
0.9470 -2.7827 0.2843
0.9416 -2.7458 0.2846
0.7930 -2.6452 0.2852
0.8102 -2.6113 0.2855
0.4642 -2.4468 0.2862
-0.5423 -1.9935 0.2882
0.3301 -2.1900 0.2881
0.1622 -2.0834 0.2887
-0.4508 -1.7369 0.2905
-0.4299 -1.6912 0.2909
-0.3689 -1.6651 0.2912
1.6358 -4.2622 0.2397
1.5903 -4.2747 0.2382
1.4905 -4.3521 0.2343
1.5410 -4.2389 0.2375
1.3998 -4.3546 0.2318
1.2050 -4.5180 0.2238
1.4575 -4.1371 0.2369
1.4228 -4.1231 0.2362
0.9200 -4.3461 0.2189
1.1149 -4.1299 0.2278
1.0865 -4.0954 0.2276
-1.0070 -3.2868 0.1843
0.8764 -3.0078 0.2398
0.8856 -2.9665 0.2407
1.0252 -2.8955 0.2456
1.0742 -2.8639 0.2475
1.0011 -2.8211 0.2462
0.9891 -2.7839 0.2465
0.9963 -2.7498 0.2472
0.9126 -2.6640 0.2464
0.8433 -2.6130 0.2454
0.7919 -2.5641 0.2448
0.7942 -2.5278 0.2454
-0.3724 -2.0378 0.2220
0.2308 -2.1449 0.2365
-0.3936 -1.8593 0.2243
-0.5903 -1.7240 0.2212
-0.5436 -1.6853 0.2231
-0.2779 -1.6947 0.2302
1.6343 -4.2725 0.2052
1.5800 -4.2963 0.2017
1.5535 -4.2806 0.2007
1.5421 -4.2451 0.2010
1.5058 -4.2387 0.1993
1.1260 -4.1260 0.1821
1.0976 -4.0914 0.1814
-0.7999 -4.4373 0.0731
0.9464 -2.9640 0.2014
1.0084 -2.9276 0.2055
1.0278 -2.8917 0.2074
1.1051 -2.8629 0.2122
1.0292 -2.8200 0.2093
0.9859 -2.7789 0.2080
0.9738 -2.7414 0.2083
0.9412 -2.7001 0.2076
0.9014 -2.6564 0.2066
0.8669 -2.6128 0.2059
0.8170 -2.5643 0.2044
0.8275 -2.5307 0.2058
0.7439 -2.4706 0.2029
-0.3354 -2.0970 0.1554
-0.2186 -2.0778 0.1620
0.1379 -2.1484 0.1790
-0.3571 -1.9176 0.1587
-0.6471 -1.7486 0.1476
-0.3787 -1.6890 0.1632
-0.1737 -1.7309 0.1729
1.5961 -4.2834 0.1671
1.5736 -4.2631 0.1660
1.5432 -4.2513 0.1640
1.5232 -4.2256 0.1633
1.4991 -4.2036 0.1621
1.4566 -4.2003 0.1589
1.4015 -4.2074 0.1543
1.2266 -4.2150 0.1404
1.1736 -4.2053 0.1365
1.0870 -4.2202 0.1292
-0.3761 -4.9728 -0.0105
-0.7082 -4.3998 -0.0176
-0.6716 -4.2800 -0.0108
-0.7345 -4.2006 -0.0131
-0.7605 -4.0055 -0.0087
-0.8243 -3.9233 -0.0109
0.8399 -3.0439 0.1488
0.9692 -3.0005 0.1604
0.9638 -2.9607 0.1613
0.9649 -2.9216 0.1626
0.9990 -2.8856 0.1665
1.0381 -2.8524 0.1707
1.0681 -2.8204 0.1741
1.0197 -2.7791 0.1717
0.8139 -2.5208 0.1641
0.7704 -2.4718 0.1623
-0.4917 -1.9756 0.0796
-1.0427 -1.5797 0.0495
-0.8904 -1.5743 0.0616
-0.5788 -1.6443 0.0838
0.0334 -1.8161 0.1261
1.5940 -4.3453 0.1280
1.5707 -4.3256 0.1264
1.5517 -4.2992 0.1255
1.5354 -4.2686 0.1250
1.5115 -4.2468 0.1234
1.3411 -4.2223 0.1066
1.2940 -4.2138 0.1020
-0.6911 -4.6112 -0.1224
-0.6550 -4.4850 -0.1134
-0.6194 -4.3635 -0.1046
-0.5556 -4.2350 -0.0926
-0.6787 -4.1805 -0.1032
-0.9178 -4.1586 -0.1273
-0.9868 -4.0726 -0.1310
0.8704 -2.9543 0.1101
0.8878 -2.9136 0.1136
0.9543 -2.8781 0.1220
1.0353 -2.8121 0.1332
0.8980 -2.6815 0.1243
0.8040 -2.5865 0.1184
0.7826 -2.5434 0.1180
0.7774 -2.5044 0.1190
-0.5448 -1.9458 0.0038
-0.7653 -1.6755 -0.0080
-0.6353 -1.6664 0.0059
-0.4516 -1.6866 0.0244
1.5314 -4.3871 0.0802
1.2563 -4.4950 0.0387
1.1503 -4.5494 0.0220
1.2659 -4.3629 0.0466
-0.6121 -5.1463 -0.2395
-0.4776 -4.6139 -0.1951
-0.6017 -4.5702 -0.2092
-0.6319 -4.4768 -0.2085
-0.5969 -4.3555 -0.1978
-0.5949 -4.2515 -0.1923
-0.6243 -4.1609 -0.1916
-0.8219 -4.1262 -0.2158
-0.8881 -4.0415 -0.2203
-0.8339 -3.6235 -0.1921
-0.8635 -3.5320 -0.1914
0.8671 -2.9082 0.0673
0.9592 -2.7980 0.0849
0.9674 -2.7621 0.0878
0.9272 -2.7187 0.0847
0.8172 -2.6604 0.0732
0.6077 -2.5761 0.0499
0.6506 -2.5438 0.0571
0.7956 -2.5031 0.0782
0.8056 -2.4693 0.0812
-0.7291 -1.8705 -0.0903
-0.7805 -1.7862 -0.0928
-0.7498 -1.7322 -0.0861
-0.6954 -1.6899 -0.0768
-0.7442 -1.6071 -0.0791
-0.7421 -1.5458 -0.0757
-0.5907 -1.5539 -0.0562
1.0657 -5.1879 -0.0807
1.0660 -5.1053 -0.0758
1.0570 -4.9585 -0.0686
0.9525 -5.0119 -0.0883
0.8468 -5.0581 -0.1078
1.1326 -4.6460 -0.0382
1.1700 -4.5367 -0.0258
1.2512 -4.3860 -0.0041
0.8875 -4.4738 -0.0669
0.7011 -4.5597 -0.1014
-0.2543 -4.9116 -0.2735
-0.2561 -4.8065 -0.2676
-0.3391 -4.7524 -0.2775
-0.2853 -4.6168 -0.2610
-0.2342 -4.4885 -0.2454
-0.2614 -4.4045 -0.2447
-0.2117 -4.2850 -0.2298
-0.2893 -4.2252 -0.2386
-0.3974 -4.1742 -0.2527
-0.4251 -4.0886 -0.2520
-0.4805 -3.9176 -0.2507
-0.3446 -3.7878 -0.2215
-0.2946 -3.6885 -0.2078
-0.3971 -3.6259 -0.2203
-0.4773 -3.5547 -0.2288
-0.4228 -3.4598 -0.2146
-0.7237 -2.9772 -0.2337
0.7986 -2.8568 0.0144
0.2891 -2.7064 -0.0574
0.3258 -2.6590 -0.0488
0.5894 -2.6541 -0.0067
0.5951 -2.6106 -0.0033
0.5272 -2.5518 -0.0106
0.5951 -2.5237 0.0018
0.7029 -2.5097 0.0197
0.7484 -2.4832 0.0285
0.7844 -2.4562 0.0358
-0.8209 -1.8257 -0.1812
-1.3370 -1.5683 -0.2478
-1.2561 -1.5227 -0.2323
-0.9543 -1.5711 -0.1873
-0.5767 -1.6645 -0.1330
-0.6733 -1.5622 -0.1423
-0.6962 -1.4913 -0.1418
-0.6440 -1.4565 -0.1314
0.8488 -5.8223 -0.2245
1.0603 -5.3846 -0.1555
0.9369 -5.4852 -0.1853
0.9278 -5.4061 -0.1816
0.6618 -5.6915 -0.2504
0.8287 -5.3615 -0.1970
0.8201 -5.2810 -0.1931
0.9037 -5.0861 -0.1644
0.9978 -4.8889 -0.1335
1.1675 -4.6156 -0.0834
1.1667 -4.5492 -0.0791
1.2493 -4.3959 -0.0533
1.3216 -4.2620 -0.0308
1.2779 -4.2485 -0.0380
0.6397 -4.6186 -0.1817
0.4757 -4.6702 -0.2156
0.2846 -4.7307 -0.2553
0.2969 -4.6316 -0.2462
0.3091 -4.5354 -0.2374
0.3041 -4.4529 -0.2328
0.2986 -4.3721 -0.2283
0.2934 -4.2923 -0.2239
0.2533 -4.2324 -0.2272
0.2307 -4.1626 -0.2267
0.2261 -4.0844 -0.2223
0.2036 -4.0151 -0.2217
0.1629 -3.9530 -0.2251
0.0635 -3.9111 -0.2407
0.0794 -3.8260 -0.2320
0.0564 -3.7551 -0.2314
0.0334 -3.6841 -0.2309
0.0498 -3.6038 -0.2224
-0.0328 -3.5465 -0.2339
-0.0560 -3.4750 -0.2333
-0.0998 -3.4067 -0.2368
-0.1231 -3.3346 -0.2363
-0.1044 -3.2585 -0.2276
-0.1062 -3.1861 -0.2230
-0.1290 -3.1157 -0.2225
-0.0927 -2.9758 -0.2063
0.6068 -2.8839 -0.0701
0.7744 -2.8500 -0.0366
0.3392 -2.6542 -0.1042
0.5217 -2.5893 -0.0659
0.5391 -2.5476 -0.0598
0.5549 -2.5069 -0.0542
0.6865 -2.4986 -0.0292
0.7588 -2.4795 -0.0144
0.7704 -2.4451 -0.0099
-0.7043 -1.4731 -0.2179
-0.6036 -1.4618 -0.1985
1.2991 -5.1762 -0.1517
1.3079 -5.0070 -0.1368
1.2191 -4.7010 -0.1323
1.2392 -4.6080 -0.1208
1.2237 -4.5601 -0.1205
1.3069 -4.4022 -0.0906
1.3283 -4.3196 -0.0796
1.3491 -4.2410 -0.0692
1.3682 -4.1671 -0.0594
1.3045 -4.1732 -0.0735
1.2605 -4.1575 -0.0817
0.4793 -4.5065 -0.2753
0.4576 -4.4397 -0.2748
0.4199 -4.3833 -0.2785
0.4598 -4.2786 -0.2620
0.3435 -3.4002 -0.2193
0.3678 -3.3326 -0.2089
0.3040 -3.2782 -0.2184
0.2751 -3.0939 -0.2104
0.7591 -2.9798 -0.0982
0.7803 -2.9345 -0.0902
0.8095 -2.8915 -0.0807
0.8921 -2.8554 -0.0603
0.8636 -2.8115 -0.0630
0.8734 -2.7722 -0.0579
0.5448 -2.5872 -0.1138
0.5511 -2.5433 -0.1091
0.5354 -2.4949 -0.1088
0.6884 -2.4923 -0.0759
0.7182 -2.4608 -0.0671
0.7726 -2.4390 -0.0538
0.7672 -2.3999 -0.0520
-0.3024 -1.9251 -0.2439
0.1256 -1.9896 -0.1574
0.4772 -2.0555 -0.0874
1.2357 -5.2199 -0.2263
1.0614 -5.1564 -0.2630
1.1413 -4.9630 -0.2270
1.2187 -4.7836 -0.1929
1.2593 -4.6609 -0.1725
1.4209 -4.3390 -0.1058
1.4180 -4.2861 -0.1019
1.3783 -4.2736 -0.1105
1.3648 -4.2318 -0.1101
1.3675 -4.1742 -0.1045
1.3908 -4.0986 -0.0924
1.0121 -4.3847 -0.2085
0.9496 -4.3710 -0.2225
0.9322 -4.3172 -0.2220
0.9050 -4.2709 -0.2246
0.8973 -4.2096 -0.2212
0.8991 -4.1426 -0.2150
0.8103 -4.1357 -0.2359
0.7710 -4.0932 -0.2417
0.7417 -4.0434 -0.2446
0.7347 -3.9809 -0.2409
0.7165 -3.9248 -0.2404
0.7098 -3.8633 -0.2368
0.6444 -3.8279 -0.2495
0.6259 -3.7707 -0.2491
0.6201 -3.7088 -0.2452
0.6137 -3.6481 -0.2415
0.5833 -3.5952 -0.2443
0.5771 -3.5351 -0.2406
0.5711 -3.4757 -0.2370
0.5529 -3.4196 -0.2366
0.5222 -3.3657 -0.2393
0.4913 -3.3111 -0.2421
0.5111 -3.2496 -0.2320
0.6117 -3.1828 -0.2020
0.5119 -3.1356 -0.2221
0.5313 -3.0794 -0.2125
0.5372 -3.0253 -0.2064
0.5783 -2.9730 -0.1920
0.8694 -2.8908 -0.1146
0.8721 -2.8489 -0.1103
0.8582 -2.8060 -0.1100
0.8752 -2.7673 -0.1026
0.8927 -2.7302 -0.0951
0.8479 -2.6830 -0.1019
0.6682 -2.6062 -0.1387
0.6038 -2.5485 -0.1494
0.5995 -2.5039 -0.1466
0.6803 -2.4832 -0.1252
0.7120 -2.4520 -0.1149
0.6887 -2.4053 -0.1165
0.1498 -2.1339 -0.2235
0.1015 -2.0666 -0.2293
0.0680 -2.0041 -0.2321
0.0649 -1.9537 -0.2285
0.1653 -1.9493 -0.2038
0.2937 -1.9622 -0.1739
0.3027 -1.9237 -0.1684
1.4527 -4.4243 -0.1504
1.4393 -4.3829 -0.1500
1.3944 -4.3785 -0.1618
1.2231 -4.4486 -0.2148
1.2795 -4.2672 -0.1822
1.0263 -4.2470 -0.2487
1.0600 -4.1573 -0.2311
1.0767 -4.0840 -0.2196
1.0445 -4.0469 -0.2248
0.9601 -4.0424 -0.2472
0.9034 -3.8331 -0.2425
0.8036 -3.3656 -0.2250
0.7971 -3.3145 -0.2219
0.7716 -3.2667 -0.2242
0.7750 -3.2149 -0.2184
0.7690 -3.1651 -0.2153
0.6400 -3.0198 -0.2363
0.6449 -2.9693 -0.2302
0.9023 -2.9307 -0.1569
0.9121 -2.8892 -0.1503
0.8337 -2.8406 -0.1669
0.6922 -2.7814 -0.1995
0.7066 -2.7382 -0.1915
0.7096 -2.6946 -0.1865
0.8271 -2.6733 -0.1527
0.9347 -2.6562 -0.1220
0.6001 -2.4969 -0.1973
0.6058 -2.4554 -0.1918
0.7138 -2.4455 -0.1616
0.7605 -2.4211 -0.1467
0.6944 -2.3606 -0.1588
0.3232 -2.1414 -0.2383
0.3065 -2.0897 -0.2379
0.3144 -2.0485 -0.2318
0.3062 -1.9578 -0.2254
0.3030 -1.9135 -0.2220
0.2988 -1.8693 -0.2190
1.5323 -4.3869 -0.1682
1.5061 -4.3650 -0.1738
1.4789 -4.3429 -0.1796
1.2503 -4.4921 -0.2637
1.2489 -4.4291 -0.2575
1.2194 -4.3968 -0.2629
1.2184 -4.3348 -0.2567
1.2239 -4.2680 -0.2481
1.1644 -4.1403 -0.2525
1.1340 -4.1052 -0.2580
1.1186 -4.0578 -0.2576
1.1189 -3.9996 -0.2515
1.0962 -3.9575 -0.2538
1.0885 -3.9057 -0.2507
1.0809 -3.8545 -0.2476
1.0418 -3.8206 -0.2558
1.0506 -3.7611 -0.2469
1.0434 -3.7108 -0.2438
1.0283 -3.6643 -0.2435
0.9804 -3.6309 -0.2543
0.9740 -3.5803 -0.2509
0.9682 -3.4785 -0.2420
0.9129 -3.3916 -0.2495
0.9061 -3.3427 -0.2464
0.8909 -3.2958 -0.2460
0.8757 -3.2489 -0.2457
0.8779 -3.1999 -0.2399
0.8707 -3.1528 -0.2371
0.8390 -3.1076 -0.2419
0.8239 -3.0609 -0.2415
0.8088 -3.0142 -0.2412
0.8027 -2.9677 -0.2381
0.9944 -2.9306 -0.1768
0.8076 -2.8773 -0.2272
0.7483 -2.8275 -0.2397
0.7144 -2.7785 -0.2448
0.7086 -2.7328 -0.2417
0.6637 -2.6808 -0.2497
0.6482 -2.6332 -0.2494
0.7374 -2.6080 -0.2200
0.9538 -2.5819 -0.1525
0.7759 -2.4572 -0.1927
0.8350 -2.4382 -0.1731
0.8059 -2.3917 -0.1769
0.7264 -2.3260 -0.1938
0.6298 -2.2509 -0.2149
0.5367 -2.1740 -0.2347
0.4889 -2.1133 -0.2427
0.4630 -2.0612 -0.2450
0.4582 -2.0185 -0.2419
0.4655 -1.9820 -0.2359
0.4395 -1.9297 -0.2382
0.4351 -1.8882 -0.2352
1.6081 -4.3476 -0.1824
1.4732 -4.4170 -0.2347
1.4647 -4.3694 -0.2320
1.4564 -4.3222 -0.2294
1.3566 -4.3800 -0.2688
1.3481 -4.3293 -0.2658
1.3339 -4.2853 -0.2654
1.3430 -4.2181 -0.2548
1.3572 -4.1481 -0.2421
1.3659 -4.0857 -0.2321
1.2470 -3.9680 -0.2577
1.2386 -3.9204 -0.2551
1.2138 -3.6807 -0.2359
1.2063 -3.6359 -0.2332
1.1866 -3.5968 -0.2352
1.1598 -3.5601 -0.2399
1.1594 -3.5129 -0.2346
1.1647 -3.4646 -0.2273
1.0634 -3.3088 -0.2428
1.0430 -3.2671 -0.2448
1.0291 -3.2242 -0.2445
1.0219 -3.1805 -0.2419
0.9935 -3.1390 -0.2465
0.9898 -2.9674 -0.2281
1.0582 -2.9296 -0.2013
0.9627 -2.8839 -0.2275
0.9492 -2.8421 -0.2271
0.8900 -2.7947 -0.2412
0.8419 -2.6245 -0.2376
0.8831 -2.5951 -0.2207
0.9002 -2.5617 -0.2112
0.8717 -2.5167 -0.2155
0.7865 -2.4534 -0.2363
0.7815 -2.4136 -0.2333
0.7925 -2.3797 -0.2259
0.7449 -2.3251 -0.2353
0.7311 -2.2824 -0.2350
0.7172 -2.2396 -0.2346
0.5828 -2.0675 -0.2592
0.5386 -2.0081 -0.2669
0.5346 -1.9681 -0.2636
1.6203 -4.2866 -0.2120
1.5390 -4.3407 -0.2479
1.5080 -4.3244 -0.2570
1.4950 -4.2844 -0.2567
1.4727 -4.2552 -0.2611
1.4596 -4.2149 -0.2608
1.4466 -4.1746 -0.2604
1.4485 -4.1193 -0.2529
1.4356 -4.0795 -0.2526
1.4227 -4.0397 -0.2523
1.4044 -4.0046 -0.2545
1.3915 -3.9646 -0.2542
1.3990 -3.9087 -0.2446
1.3712 -3.8806 -0.2511
1.3421 -3.8520 -0.2580
1.3397 -3.8048 -0.2530
1.2995 -3.7816 -0.2645
1.2863 -3.7407 -0.2642
1.2840 -3.6940 -0.2592
1.2810 -3.6021 -0.2490
1.2733 -3.5601 -0.2465
1.2491 -3.5250 -0.2508
1.2131 -3.4934 -0.2598
1.1918 -3.3666 -0.2517
1.1908 -3.3236 -0.2468
1.1529 -3.2889 -0.2561
1.1463 -3.2473 -0.2533
1.1521 -3.2043 -0.2459
1.1392 -3.1645 -0.2456
1.1264 -3.1247 -0.2453
1.1067 -3.0853 -0.2475
1.1133 -3.0448 -0.2401
1.1065 -3.0053 -0.2376
1.0679 -2.9654 -0.2465
1.0147 -2.9234 -0.2604
1.0014 -2.8824 -0.2601
1.0362 -2.8462 -0.2431
1.0367 -2.8081 -0.2382
1.0104 -2.7667 -0.2425
1.0038 -2.7280 -0.2401
0.9635 -2.6829 -0.2490
0.9643 -2.6456 -0.2441
0.9374 -2.6023 -0.2484
0.9103 -2.5582 -0.2526
0.9036 -2.5194 -0.2502
0.8762 -2.4744 -0.2545
0.8552 -2.4310 -0.2566
0.8576 -2.3955 -0.2514
0.8444 -2.3549 -0.2511
0.8539 -2.3232 -0.2437
0.8478 -2.2859 -0.2413
0.8279 -2.2429 -0.2431
0.8068 -2.1991 -0.2453
0.7856 -2.1549 -0.2474
0.7725 -2.1144 -0.2471
0.8139 -2.1019 -0.2307
0.9076 -2.1193 -0.1992
1.7895 -4.1536 -0.1697
1.5865 -4.2875 -0.2665
1.5945 -4.2242 -0.2549
1.5902 -4.1778 -0.2504
1.5619 -4.1600 -0.2590
1.5498 -4.1226 -0.2587
1.5545 -4.0675 -0.2495
1.5463 -4.0270 -0.2473
1.5098 -4.0142 -0.2598
1.4985 -3.9279 -0.2527
1.5198 -3.8633 -0.2358
1.5043 -3.8305 -0.2374
1.4886 -3.7974 -0.2391
1.4937 -3.7495 -0.2307
1.4486 -3.6919 -0.2405
1.4633 -3.6403 -0.2279
1.4560 -3.6025 -0.2257
1.4091 -3.5851 -0.2416
1.3879 -3.5531 -0.2456
1.3666 -3.5204 -0.2495
1.3833 -3.4719 -0.2366
1.3856 -3.4307 -0.2301
1.3643 -3.3982 -0.2341
1.3481 -3.3635 -0.2357
1.3310 -3.3287 -0.2377
1.3029 -3.2570 -0.2391
1.2910 -3.2206 -0.2388
1.3140 -3.1792 -0.2244
1.3025 -3.1437 -0.2241
1.2604 -3.1108 -0.2361
1.2544 -3.0742 -0.2335
1.2525 -3.0377 -0.2294
1.2359 -3.0018 -0.2310
1.2243 -2.9658 -0.2308
1.2126 -2.9298 -0.2305
1.2221 -2.8954 -0.2222
1.1842 -2.8572 -0.2318
1.1776 -2.8217 -0.2296
1.1380 -2.7814 -0.2396
1.1313 -2.7455 -0.2375
1.1373 -2.7125 -0.2307
1.1023 -2.6711 -0.2388
1.0787 -2.6314 -0.2427
1.0721 -2.5959 -0.2405
1.0547 -2.5574 -0.2421
1.0361 -2.5182 -0.2441
0.9931 -2.4371 -0.2500
0.9933 -2.4041 -0.2455
0.9947 -2.3722 -0.2407
0.9566 -2.3241 -0.2491
0.9444 -2.2864 -0.2488
0.9252 -2.2456 -0.2508
1.7393 -4.4475 -0.2682
1.7018 -4.3466 -0.2695
1.7198 -4.2668 -0.2505
1.7685 -4.1465 -0.2128
1.6707 -4.2355 -0.2666
1.6592 -4.2002 -0.2663
1.6512 -4.1604 -0.2640
1.6468 -4.1167 -0.2595
1.6426 -4.0736 -0.2551
1.6242 -4.0469 -0.2590
1.6129 -4.0119 -0.2587
1.5977 -3.9349 -0.2541
1.5789 -3.9071 -0.2579
1.5752 -3.8655 -0.2535
1.5525 -3.8404 -0.2595
1.5411 -3.8054 -0.2592
1.5376 -3.7645 -0.2548
1.5105 -3.7408 -0.2628
1.4916 -3.6676 -0.2602
1.4473 -3.6089 -0.2704
1.4376 -3.5308 -0.2632
1.4048 -3.3845 -0.2560
1.4201 -3.3415 -0.2434
1.3708 -3.2793 -0.2552
1.3282 -3.1028 -0.2477
1.3122 -3.0684 -0.2494
1.2816 -3.0341 -0.2574
1.2833 -2.9641 -0.2466
1.2721 -2.9294 -0.2463
1.2558 -2.8944 -0.2481
1.2395 -2.8590 -0.2499
1.2435 -2.8261 -0.2435
1.2169 -2.7891 -0.2493
1.2004 -2.7533 -0.2511
1.1838 -2.7171 -0.2529
1.1672 -2.6807 -0.2546
1.1557 -2.6454 -0.2544
1.1550 -2.6130 -0.2500
1.1436 -2.5779 -0.2498
1.1323 -2.5428 -0.2495
1.1319 -2.5115 -0.2452
1.1206 -2.4767 -0.2449
1.0926 -2.4355 -0.2507
1.0756 -2.3980 -0.2525
1.0755 -2.3675 -0.2481
1.0527 -2.3273 -0.2519
1.0172 -2.2808 -0.2601
1.2898 -2.3583 -0.1569
1.2803 -2.3292 -0.1567
1.8225 -4.3639 -0.2582
1.8065 -4.3411 -0.2620
1.7958 -4.3083 -0.2617
1.7827 -4.2796 -0.2633
1.7778 -4.2377 -0.2590
1.8001 -4.1093 -0.2292
1.7427 -4.1443 -0.2605
1.7260 -4.1196 -0.2642
1.7153 -4.0865 -0.2640
1.7128 -3.9983 -0.2515
1.6931 -3.9763 -0.2570
1.6790 -3.9474 -0.2590
1.6843 -3.8983 -0.2490
1.6835 -3.8568 -0.2430
1.6538 -3.8428 -0.2542
1.6335 -3.8189 -0.2597
1.6525 -3.7612 -0.2423
1.6191 -3.7476 -0.2552
1.6248 -3.7027 -0.2457
1.6176 -3.6683 -0.2437
1.5905 -3.6474 -0.2527
1.5767 -3.5780 -0.2483
1.5728 -3.5421 -0.2445
1.5624 -3.5100 -0.2443
1.5663 -3.4712 -0.2365
1.5595 -3.4024 -0.2290
1.5208 -3.3815 -0.2433
1.5104 -3.3494 -0.2430
1.5150 -3.3129 -0.2353
1.4688 -3.2210 -0.2420
1.4548 -3.1895 -0.2435
1.4564 -3.1556 -0.2376
1.4414 -3.1242 -0.2395
1.4310 -3.0922 -0.2393
1.4130 -3.0606 -0.2425
1.3940 -3.0286 -0.2462
1.3922 -2.9962 -0.2420
1.3896 -2.9642 -0.2383
1.3674 -2.9315 -0.2433
1.3137 -2.8315 -0.2521
1.3071 -2.7992 -0.2501
1.2924 -2.7656 -0.2516
1.2672 -2.7297 -0.2574
1.2941 -2.7052 -0.2416
1.2920 -2.6750 -0.2378
1.2678 -2.6390 -0.2432
1.2487 -2.6040 -0.2464
1.2284 -2.5682 -0.2501
1.2417 -2.5436 -0.2403
1.2313 -2.5112 -0.2401
1.2009 -2.4712 -0.2476
1.1758 -2.4324 -0.2530
1.1695 -2.4012 -0.2510
1.1486 -2.3635 -0.2546
1.2873 -2.4006 -0.1978
1.3144 -2.3888 -0.1837
1.2842 -2.3493 -0.1913
1.1953 -2.2779 -0.2204
1.1417 -2.2229 -0.2361
1.8606 -4.3055 -0.2678
1.8379 -4.2472 -0.2692
1.8277 -4.2159 -0.2690
1.8252 -4.1725 -0.2631
1.8177 -4.1375 -0.2610
1.8025 -4.1142 -0.2645
1.7924 -4.0831 -0.2642
1.7796 -4.0556 -0.2659
1.7695 -4.0243 -0.2656
1.7621 -3.9897 -0.2635
1.7548 -3.9553 -0.2614
1.7291 -3.8994 -0.2647
1.7276 -3.8593 -0.2588
1.7263 -3.8198 -0.2530
1.6481 -3.6495 -0.2628
1.5468 -3.3722 -0.2662
1.4735 -3.0867 -0.2547
1.4549 -2.9937 -0.2485
1.4411 -2.9629 -0.2501
1.4212 -2.9013 -0.2496
1.4072 -2.8700 -0.2512
1.3851 -2.8374 -0.2565
1.3710 -2.8055 -0.2581
1.3526 -2.7726 -0.2616
1.3507 -2.7428 -0.2576
1.3613 -2.7164 -0.2482
1.3639 -2.6889 -0.2424
1.3413 -2.6548 -0.2477
1.3214 -2.5932 -0.2472
1.2854 -2.5532 -0.2580
1.2971 -2.5299 -0.2486
1.2827 -2.4973 -0.2502
1.2770 -2.4681 -0.2481
1.2536 -2.4313 -0.2534
1.2480 -2.4022 -0.2513
1.2901 -2.3958 -0.2300
1.2884 -2.3699 -0.2265
1.2661 -2.3337 -0.2313
1.2309 -2.2900 -0.2412
1.1976 -2.2465 -0.2501
1.9110 -4.2229 -0.2637
1.9099 -4.1784 -0.2565
1.8938 -4.1611 -0.2617
1.8949 -4.1143 -0.2531
1.8836 -4.0885 -0.2543
1.8635 -4.0763 -0.2626
1.8669 -4.0280 -0.2524
1.8621 -3.9927 -0.2487
1.8416 -3.9793 -0.2569
1.8349 -3.9468 -0.2547
1.8364 -3.9044 -0.2465
1.8251 -3.8783 -0.2478
1.8089 -3.8576 -0.2525
1.7974 -3.8310 -0.2538
1.7994 -3.7903 -0.2457
1.7953 -3.7568 -0.2420
1.7788 -3.7353 -0.2467
1.7791 -3.6982 -0.2400
1.7434 -3.6556 -0.2510
1.7364 -3.6250 -0.2493
1.7247 -3.5978 -0.2506
1.7310 -3.5585 -0.2404
1.7084 -3.5386 -0.2486
1.6760 -3.3885 -0.2391
1.6373 -3.3072 -0.2449
1.6306 -3.2777 -0.2432
1.6187 -3.2498 -0.2444
1.6094 -3.2211 -0.2442
1.5876 -3.1949 -0.2509
1.5999 -3.1623 -0.2389
1.5779 -3.1356 -0.2455
1.5500 -3.0787 -0.2500
1.5443 -3.0495 -0.2478
1.5539 -3.0202 -0.2378
1.5189 -2.9916 -0.2508
1.5220 -2.9629 -0.2442
1.5029 -2.9335 -0.2489
1.4974 -2.9048 -0.2467
1.4841 -2.8754 -0.2484
1.5046 -2.8506 -0.2335
1.4693 -2.8180 -0.2460
1.4762 -2.7921 -0.2380
1.4639 -2.7629 -0.2392
1.4474 -2.7326 -0.2424
1.4349 -2.7030 -0.2437
1.4361 -2.6771 -0.2386
1.4088 -2.6430 -0.2466
1.3962 -2.6128 -0.2479
1.3900 -2.5849 -0.2462
1.3958 -2.5615 -0.2391
1.3898 -2.5342 -0.2375
1.3772 -2.5042 -0.2387
1.3635 -2.4735 -0.2404
1.3542 -2.4448 -0.2402
1.3381 -2.4127 -0.2429
1.3514 -2.3951 -0.2330
1.3377 -2.3643 -0.2347
1.3330 -2.3383 -0.2325
1.2959 -2.2943 -0.2440
1.9475 -4.1649 -0.2672
1.9402 -4.1337 -0.2655
1.9258 -4.1153 -0.2700
1.9203 -4.0810 -0.2666
1.9193 -4.0400 -0.2596
1.9085 -4.0153 -0.2609
1.9072 -3.9762 -0.2544
1.8757 -3.8615 -0.2504
1.7851 -3.6254 -0.2564
1.5640 -2.8816 -0.2398
1.5225 -2.8233 -0.2518
1.4974 -2.7924 -0.2598
1.4943 -2.7656 -0.2565
1.4925 -2.7394 -0.2527
1.4866 -2.7124 -0.2509
1.4609 -2.6798 -0.2589
1.4718 -2.6580 -0.2489
1.4596 -2.6292 -0.2503
1.4400 -2.5977 -0.2552
1.4341 -2.5709 -0.2534
1.4218 -2.5417 -0.2548
1.4161 -2.5151 -0.2530
1.4181 -2.4921 -0.2477
1.4024 -2.4614 -0.2505
1.3889 -2.4314 -0.2524
1.3844 -2.4058 -0.2501
1.3709 -2.3756 -0.2519
1.3618 -2.3477 -0.2517
1.9842 -4.0634 -0.2590
1.9775 -4.0340 -0.2572
1.9672 -4.0109 -0.2586
1.9642 -3.9757 -0.2535
1.9502 -3.9584 -0.2582
1.9405 -3.9341 -0.2591
1.9371 -3.9005 -0.2545
1.9306 -3.8717 -0.2527
1.9222 -3.8457 -0.2525
1.9157 -3.8172 -0.2506
1.9033 -3.7962 -0.2537
1.8920 -3.7380 -0.2489
1.8836 -3.7121 -0.2487
1.8695 -3.6919 -0.2529
1.8568 -3.6699 -0.2560
1.8526 -3.6398 -0.2525
1.8501 -3.6087 -0.2479
1.8358 -3.5876 -0.2521
1.8333 -3.5570 -0.2475
1.8143 -3.5388 -0.2550
1.8151 -3.5063 -0.2482
1.8067 -3.4804 -0.2480
1.7998 -3.4536 -0.2467
1.7939 -3.4264 -0.2449
1.7831 -3.4018 -0.2463
1.7707 -3.3779 -0.2489
1.7688 -3.3491 -0.2443
1.7412 -3.2726 -0.2453
1.7311 -3.2472 -0.2462
1.7271 -3.2202 -0.2433
1.7091 -3.1966 -0.2491
1.7077 -3.1691 -0.2445
1.6994 -3.1433 -0.2443
1.6865 -3.1180 -0.2469
1.6781 -3.0920 -0.2467
1.6770 -3.0655 -0.2421
1.6714 -3.0396 -0.2403
1.6528 -3.0141 -0.2461
1.6388 -2.9880 -0.2491
1.6189 -2.9355 -0.2504
1.6134 -2.9095 -0.2485
1.5941 -2.8821 -0.2543
1.5915 -2.8565 -0.2508
1.5740 -2.8287 -0.2555
1.5715 -2.8033 -0.2521
1.5660 -2.7777 -0.2502
1.5768 -2.7562 -0.2397
1.5541 -2.7265 -0.2471
1.5601 -2.7046 -0.2393
1.5465 -2.6772 -0.2418
1.5350 -2.6502 -0.2433
1.5266 -2.6242 -0.2431
1.5182 -2.5982 -0.2429
1.5097 -2.5722 -0.2427
1.5155 -2.5523 -0.2354
1.4896 -2.5188 -0.2439
1.4845 -2.4943 -0.2421
1.4761 -2.4683 -0.2419
1.4733 -2.4452 -0.2390
1.4558 -2.4145 -0.2431
1.4542 -2.3922 -0.2396
1.9834 -3.9525 -0.2678
1.9721 -3.9319 -0.2705
1.9707 -3.8960 -0.2639
1.9606 -3.8735 -0.2654
