ply
format ascii 1.0
element vertex 2142
property float x
property float y
property float z
end_header
3.1960 -0.0572 -0.0885
3.1769 -0.0629 -0.0879
3.1556 -0.0635 -0.0871
3.1334 -0.0606 -0.0861
3.1133 -0.0599 -0.0852
3.1014 -0.0758 -0.0854
3.0977 -0.1112 -0.0868
3.0799 -0.1140 -0.0862
3.0602 -0.1098 -0.0853
3.0475 -0.1235 -0.0854
3.0373 -0.1450 -0.0859
2.9925 -0.4969 -0.0994
2.9743 -0.5060 -0.0991
4.3200 0.4063 -0.1479
4.2025 0.3669 -0.1432
4.1846 0.3417 -0.1437
4.1851 0.3125 -0.1456
4.2059 0.1079 -0.1596
4.2032 -0.0509 -0.1693
3.6697 -0.0962 -0.1399
3.6270 -0.1007 -0.1376
3.2758 -0.0306 -0.1119
3.2617 -0.0473 -0.1121
3.2371 -0.0487 -0.1107
3.2120 -0.0476 -0.1091
3.1920 -0.0529 -0.1082
3.1719 -0.0569 -0.1073
3.1537 -0.0631 -0.1065
3.1320 -0.0613 -0.1051
3.1082 -0.0529 -0.1032
3.1013 -0.0797 -0.1044
3.0943 -0.1080 -0.1057
3.0779 -0.1140 -0.1051
3.0570 -0.1068 -0.1034
3.0436 -0.1183 -0.1033
3.0366 -0.1497 -0.1048
3.0172 -0.5388 -0.1279
2.9898 -0.5016 -0.1240
2.9725 -0.5172 -0.1239
2.9545 -0.5263 -0.1234
2.9019 -0.5505 -0.1217
2.8855 -0.5653 -0.1216
4.2085 0.3983 -0.1743
4.2015 0.3716 -0.1759
4.1883 0.3455 -0.1770
4.1942 0.3150 -0.1799
4.1856 0.2866 -0.1815
4.1777 0.2574 -0.1833
4.1638 0.2290 -0.1844
4.1698 0.1943 -0.1877
4.1980 0.1510 -0.1935
4.1829 0.1199 -0.1948
4.1958 0.0779 -0.1993
4.1939 -0.0009 -0.2056
4.2143 -0.0525 -0.2114
5.2763 -0.7861 -0.3571
3.7427 -0.0713 -0.1747
3.6967 -0.0768 -0.1714
3.6557 -0.0842 -0.1687
3.2847 0.0249 -0.1298
3.2705 0.0095 -0.1299
3.2654 -0.0181 -0.1317
3.2592 -0.0454 -0.1334
3.2317 -0.0426 -0.1310
3.2074 -0.0424 -0.1290
3.1874 -0.0478 -0.1278
3.1715 -0.0590 -0.1275
3.1468 -0.0533 -0.1250
3.1292 -0.0591 -0.1240
3.1096 -0.0596 -0.1225
3.0994 -0.0796 -0.1233
3.0927 -0.1089 -0.1251
3.0746 -0.1108 -0.1238
3.0558 -0.1090 -0.1221
3.0412 -0.1174 -0.1216
3.1123 -0.5655 -0.1638
3.0304 -0.5154 -0.1531
3.0076 -0.5075 -0.1506
2.9878 -0.5112 -0.1493
2.9700 -0.5246 -0.1490
2.9526 -0.5390 -0.1487
4.2280 0.4001 -0.2092
4.2147 0.3740 -0.2104
4.2595 0.2745 -0.2250
3.7858 -0.0603 -0.2104
3.7339 -0.0637 -0.2055
3.6857 -0.0674 -0.2010
3.2925 0.0773 -0.1464
3.2781 0.0632 -0.1464
3.2772 0.0330 -0.1493
3.2700 0.0090 -0.1510
3.2630 -0.0162 -0.1528
3.2525 -0.0377 -0.1539
3.2287 -0.0400 -0.1517
3.2066 -0.0434 -0.1498
3.1871 -0.0498 -0.1485
3.1640 -0.0484 -0.1460
3.1460 -0.0547 -0.1448
3.1240 -0.0521 -0.1423
3.0902 -0.1077 -0.1444
3.0733 -0.1128 -0.1432
3.0533 -0.1080 -0.1407
3.0394 -0.1186 -0.1404
3.0321 -0.1500 -0.1428
3.0797 -0.5482 -0.1876
3.0044 -0.5094 -0.1761
2.9846 -0.5133 -0.1744
2.9665 -0.5255 -0.1738
2.9500 -0.5478 -0.1744
2.9319 -0.5571 -0.1735
2.9152 -0.5781 -0.1739
2.8984 -0.5992 -0.1743
4.9303 -0.1851 -0.3995
4.9842 -0.2664 -0.4158
5.1398 -0.3965 -0.4505
5.3670 -0.5714 -0.4994
5.6044 -0.7686 -0.5522
5.2824 -0.6933 -0.5036
5.0337 -0.6406 -0.4668
3.7760 -0.0520 -0.2418
3.7219 -0.0538 -0.2354
3.3363 0.1200 -0.1672
3.3137 0.1131 -0.1653
3.3021 0.0962 -0.1659
3.2891 0.0807 -0.1661
3.2806 0.0598 -0.1676
3.2743 0.0356 -0.1697
3.2707 0.0070 -0.1727
3.2707 -0.0279 -0.1769
3.2529 -0.0399 -0.1761
3.2234 -0.0340 -0.1718
3.2014 -0.0374 -0.1695
3.1799 -0.0402 -0.1672
3.1677 -0.0578 -0.1678
3.1421 -0.0506 -0.1638
3.1221 -0.0518 -0.1615
3.1031 -0.0534 -0.1594
3.0932 -0.0743 -0.1607
3.0843 -0.0984 -0.1625
3.0680 -0.1045 -0.1612
3.0531 -0.1133 -0.1604
3.0351 -0.1123 -0.1581
3.1298 -0.5628 -0.2237
3.1025 -0.5560 -0.2196
3.0763 -0.5494 -0.2155
3.0508 -0.5406 -0.2114
2.9861 -0.5450 -0.2040
2.9690 -0.5679 -0.2046
2.9148 -0.6149 -0.2036
2.8980 -0.6446 -0.2051
4.5231 0.1875 -0.3496
4.5005 0.1531 -0.3512
4.3626 0.1513 -0.3316
4.8839 -0.0510 -0.4349
4.9606 -0.1314 -0.4572
4.9071 -0.1705 -0.4549
5.0167 -0.2731 -0.4850
5.0484 -0.3516 -0.5006
5.2937 -0.5315 -0.5610
5.1527 -0.5423 -0.5422
5.2304 -0.6605 -0.5699
5.1985 -0.7269 -0.5746
5.1839 -0.8048 -0.5833
3.7745 -0.0494 -0.2749
3.7447 -0.0686 -0.2733
3.3335 0.1228 -0.1873
3.3110 0.1158 -0.1850
3.2973 0.1010 -0.1851
3.2910 0.0783 -0.1874
3.2790 0.0610 -0.1881
3.2803 0.0277 -0.1929
3.2757 -0.0004 -0.1962
3.2706 -0.0291 -0.1994
3.2503 -0.0380 -0.1978
3.2170 -0.0263 -0.1913
3.1968 -0.0322 -0.1893
3.1812 -0.0448 -0.1888
3.1602 -0.0473 -0.1861
3.1387 -0.0473 -0.1830
3.1188 -0.0486 -0.1803
3.1017 -0.0541 -0.1786
3.0925 -0.0770 -0.1805
3.0855 -0.1063 -0.1836
3.0682 -0.1105 -0.1817
3.0509 -0.1133 -0.1796
3.0337 -0.1146 -0.1773
3.0248 -0.1415 -0.1797
3.0976 -0.5513 -0.2474
3.0773 -0.5689 -0.2470
3.0563 -0.5829 -0.2459
2.9470 -0.7690 -0.2561
5.8967 0.3142 -0.6024
5.8941 0.2569 -0.6111
5.8912 0.1978 -0.6200
5.8181 0.1475 -0.6160
5.7915 0.0901 -0.6207
4.5732 0.1812 -0.4044
4.4330 0.1759 -0.3820
4.3281 0.1660 -0.3662
4.8855 -0.0998 -0.5010
4.9228 -0.1701 -0.5183
4.8566 -0.2043 -0.5128
4.9348 -0.2977 -0.5407
4.9193 -0.3561 -0.5475
5.0890 -0.5057 -0.5994
5.1088 -0.5920 -0.6165
5.0940 -0.6639 -0.6255
5.0966 -0.7486 -0.6394
3.3394 0.1177 -0.2102
3.3182 0.1090 -0.2080
3.2993 0.0988 -0.2065
3.2902 0.0788 -0.2082
3.2898 0.0483 -0.2130
3.2887 0.0169 -0.2178
3.2697 -0.0294 -0.2221
3.2402 -0.0254 -0.2166
3.2211 -0.0346 -0.2149
3.1986 -0.0374 -0.2116
3.1782 -0.0423 -0.2090
3.1372 -0.0477 -0.2031
3.1160 -0.0464 -0.1993
3.1010 -0.0567 -0.1985
3.0913 -0.0787 -0.2004
3.0841 -0.1080 -0.2039
3.0649 -0.1073 -0.2006
3.0473 -0.1091 -0.1980
3.0308 -0.1126 -0.1958
3.5436 -2.3111 -0.6315
3.4995 -2.3874 -0.6364
3.0139 -0.7710 -0.2980
2.9906 -0.7803 -0.2957
3.1103 -2.9257 -0.6579
3.0549 -2.9254 -0.6486
3.0043 -2.9801 -0.6490
5.6128 0.3501 -0.6162
5.5327 0.3063 -0.6091
5.5069 0.2570 -0.6131
5.4805 0.2071 -0.6172
5.4912 0.1503 -0.6294
5.3923 0.1118 -0.6178
4.4624 0.2127 -0.4252
4.3628 0.1991 -0.4090
4.3086 0.1762 -0.4030
4.3067 0.1386 -0.4094
4.3584 0.0818 -0.4293
4.8062 -0.2381 -0.5708
4.8283 -0.3097 -0.5878
4.7867 -0.3546 -0.5881
4.8774 -0.4675 -0.6254
4.7534 -0.4719 -0.6029
4.7236 -0.5255 -0.6070
4.6438 -0.5490 -0.5962
4.5453 -0.5571 -0.5792
3.3503 0.1082 -0.2355
3.3252 0.1024 -0.2318
3.3088 0.0891 -0.2312
3.2919 0.0765 -0.2303
3.3068 0.0285 -0.2417
3.3181 -0.0192 -0.2524
3.3303 -0.0717 -0.2641
3.2636 -0.0226 -0.2427
3.2337 -0.0178 -0.2363
3.2175 -0.0311 -0.2356
3.1966 -0.0365 -0.2327
3.1798 -0.0476 -0.2315
3.1641 -0.0603 -0.2309
3.1324 -0.0417 -0.2216
3.1122 -0.0422 -0.2179
3.0999 -0.0584 -0.2185
3.0892 -0.0785 -0.2201
3.0811 -0.1058 -0.2235
3.0627 -0.1072 -0.2203
3.0440 -0.1060 -0.2166
3.0269 -0.1074 -0.2136
3.4610 -2.0213 -0.6392
3.4121 -2.0514 -0.6354
3.3638 -2.0808 -0.6316
3.0360 -0.7788 -0.3361
3.0149 -0.8074 -0.3372
3.1013 -2.3874 -0.6375
3.0587 -2.4563 -0.6419
3.0139 -2.5046 -0.6422
2.9669 -2.5098 -0.6344
5.3444 0.3828 -0.6210
5.3044 0.3395 -0.6212
5.2643 0.2962 -0.6215
5.1803 0.2592 -0.6113
5.0591 0.2301 -0.5917
4.5683 0.2730 -0.4802
4.3373 0.2469 -0.4370
4.3165 0.2159 -0.4389
4.2641 0.1933 -0.4324
4.3293 0.0542 -0.4739
4.2919 0.0251 -0.4719
4.2368 0.0038 -0.4646
4.5479 -0.3551 -0.6018
4.5945 -0.4461 -0.6298
4.5326 -0.4763 -0.6228
4.4928 -0.5193 -0.6231
4.4332 -0.5484 -0.6164
3.3432 0.0854 -0.2609
3.3236 0.0741 -0.2590
3.3181 0.0483 -0.2631
3.3159 0.0176 -0.2687
3.3253 -0.0287 -0.2800
3.2539 -0.0111 -0.2615
3.2351 -0.0215 -0.2597
3.2116 -0.0242 -0.2553
3.1983 -0.0415 -0.2559
3.1797 -0.0502 -0.2538
3.1581 -0.0524 -0.2497
3.1398 -0.0594 -0.2473
3.1107 -0.0428 -0.2378
3.0962 -0.0542 -0.2371
3.0888 -0.0820 -0.2411
3.0785 -0.1045 -0.2434
3.0593 -0.1040 -0.2393
3.0411 -0.1039 -0.2355
3.3784 -1.7239 -0.6307
3.3420 -1.7817 -0.6347
3.3050 -1.8400 -0.6386
3.0343 -0.7963 -0.3728
3.0108 -0.8118 -0.3709
3.0998 -2.0250 -0.6327
3.0649 -2.1180 -0.6440
3.0243 -2.1618 -0.6442
2.9804 -2.1541 -0.6335
2.9415 -2.2146 -0.6374
2.9020 -2.2756 -0.6414
4.9733 0.3396 -0.6061
4.6649 0.3395 -0.5346
4.6340 0.3060 -0.5348
4.3403 0.3204 -0.4634
4.3139 0.2918 -0.4636
4.3767 0.2430 -0.4890
4.4110 0.1971 -0.5071
4.2823 0.1930 -0.4781
4.1908 0.1827 -0.4591
4.1867 0.1473 -0.4660
4.4991 -0.0014 -0.5714
4.5092 -0.0538 -0.5854
4.4498 -0.0800 -0.5774
4.3831 -0.1015 -0.5666
4.3991 -0.1601 -0.5833
4.3732 -0.2007 -0.5863
4.2078 -0.1659 -0.5402
4.3619 -0.3072 -0.6072
4.3696 -0.3719 -0.6233
4.3245 -0.4053 -0.6202
4.2332 -0.4055 -0.5991
4.1839 -0.4321 -0.5935
3.3949 0.0688 -0.2995
3.3533 0.0759 -0.2883
3.3367 0.0607 -0.2878
3.3261 0.0394 -0.2900
3.3209 0.0113 -0.2951
3.2508 -0.0083 -0.2831
3.2292 -0.0147 -0.2795
3.2102 -0.0240 -0.2772
3.1920 -0.0338 -0.2751
3.1801 -0.0537 -0.2767
3.1584 -0.0561 -0.2722
3.1340 -0.0515 -0.2656
3.1073 -0.0396 -0.2567
3.0954 -0.0567 -0.2577
3.0850 -0.0778 -0.2600
3.0774 -0.1071 -0.2647
3.0567 -0.1028 -0.2589
3.0402 -0.1079 -0.2562
3.0913 -0.8315 -0.4281
3.0572 -0.8008 -0.4134
3.0242 -0.7635 -0.3975
3.0031 -0.7919 -0.3989
2.9915 -1.8616 -0.6328
2.9196 -1.9534 -0.6364
4.8884 0.4364 -0.6161
4.8446 0.4016 -0.6134
4.7720 0.3706 -0.6024
4.4118 0.2772 -0.5332
4.4542 0.2309 -0.5552
4.4246 0.1990 -0.5554
4.3466 0.1802 -0.5400
4.2299 0.1755 -0.5114
4.1373 0.1675 -0.4897
4.4404 -0.0227 -0.6131
4.4414 -0.0719 -0.6253
4.3831 -0.0972 -0.6165
4.3421 -0.1290 -0.6138
4.2653 -0.1422 -0.5974
4.2059 -0.1617 -0.5870
4.2294 -0.2271 -0.6088
4.2183 -0.2754 -0.6177
4.1926 -0.3157 -0.6209
4.1524 -0.3466 -0.6181
3.3763 0.0541 -0.3231
3.3563 0.0409 -0.3212
3.3469 0.0168 -0.3247
3.3371 -0.0077 -0.3281
3.2305 -0.0184 -0.3035
3.2135 -0.0311 -0.3023
3.1946 -0.0404 -0.2997
3.1765 -0.0502 -0.2975
3.1563 -0.0553 -0.2935
3.1319 -0.0509 -0.2863
3.1089 -0.0465 -0.2793
3.0954 -0.0610 -0.2794
3.0864 -0.0861 -0.2832
3.0720 -0.0989 -0.2826
3.0541 -0.1015 -0.2787
3.0359 -0.1017 -0.2741
3.0706 -0.7523 -0.4405
3.0462 -0.7661 -0.4377
3.0158 -0.7403 -0.4237
2.9905 -0.7370 -0.4164
2.9694 -0.7599 -0.4166
2.9507 -0.8052 -0.4228
2.9348 -1.7004 -0.6356
2.9024 -1.7606 -0.6419
2.8689 -1.8093 -0.6452
4.6714 0.4601 -0.6014
4.6333 0.4286 -0.5991
4.4904 0.3407 -0.5825
4.5223 0.2990 -0.6024
4.4763 0.2699 -0.5972
4.4254 0.2427 -0.5903
4.3890 0.2130 -0.5879
4.3815 0.1758 -0.5957
4.2533 0.1731 -0.5607
4.1733 0.1601 -0.5419
4.0459 0.1666 -0.5048
4.2373 0.0587 -0.5864
4.2214 0.0222 -0.5917
4.2105 -0.0173 -0.5990
4.1756 -0.0467 -0.5971
4.1340 -0.0723 -0.5923
4.1108 -0.1070 -0.5950
4.0874 -0.1421 -0.5977
4.0694 -0.1809 -0.6029
4.0565 -0.2240 -0.6107
4.0155 -0.2489 -0.6059
3.9743 -0.2726 -0.6007
3.9248 -0.2887 -0.5911
3.7406 -0.1898 -0.5138
3.4126 0.0198 -0.3673
3.3776 0.0193 -0.3577
3.3609 0.0014 -0.3578
3.3781 -0.0549 -0.3774
3.4564 -0.1893 -0.4346
3.2284 -0.0172 -0.3258
3.2098 -0.0276 -0.3234
3.1909 -0.0369 -0.3206
3.1728 -0.0467 -0.3182
3.1546 -0.0553 -0.3154
3.1284 -0.0475 -0.3060
3.1090 -0.0506 -0.3014
3.0908 -0.0550 -0.2975
3.0818 -0.0799 -0.3016
3.0675 -0.0927 -0.3010
3.0507 -0.0983 -0.2978
3.0346 -0.1046 -0.2950
3.0361 -0.1667 -0.3118
3.1163 -0.7246 -0.4812
3.0946 -0.7550 -0.4832
3.0704 -0.7743 -0.4815
3.0433 -0.7758 -0.4744
3.0076 -0.7174 -0.4490
2.9816 -0.7066 -0.4390
2.9614 -0.7327 -0.4402
2.9411 -0.7601 -0.4418
2.9191 -0.7700 -0.4383
2.8994 -0.8052 -0.4421
2.8790 -0.8369 -0.4448
4.2286 0.4716 -0.5115
4.5040 0.3797 -0.6208
4.4832 0.3476 -0.6236
4.4324 0.3203 -0.6161
4.3976 0.2909 -0.6140
4.3969 0.2544 -0.6242
4.3535 0.2268 -0.6190
4.3189 0.1976 -0.6169
4.2715 0.1725 -0.6098
4.2070 0.1537 -0.5957
4.0031 0.1852 -0.5252
4.1770 0.0442 -0.6179
4.1722 0.0033 -0.6281
4.1034 -0.0092 -0.6109
4.0971 -0.0504 -0.6208
4.0584 -0.0757 -0.6163
4.0243 -0.1029 -0.6138
3.9913 -0.1304 -0.6117
3.9736 -0.1674 -0.6169
3.9306 -0.1877 -0.6098
3.9072 -0.2212 -0.6123
3.8262 -0.2097 -0.5845
3.4436 -0.0094 -0.4120
3.4029 -0.0438 -0.4095
3.4135 -0.0957 -0.4275
3.4175 -0.1437 -0.4424
3.4055 -0.1745 -0.4476
3.2317 -0.0238 -0.3522
3.2097 -0.0296 -0.3472
3.1908 -0.0391 -0.3442
3.1707 -0.0457 -0.3400
3.1538 -0.0571 -0.3382
3.1209 -0.0362 -0.3223
3.1034 -0.0427 -0.3189
3.0899 -0.0573 -0.3190
3.0788 -0.0776 -0.3214
3.0674 -0.0981 -0.3239
3.0473 -0.0951 -0.3169
3.0326 -0.1055 -0.3155
3.0342 -0.1685 -0.3339
3.1853 -1.0360 -0.6270
3.1601 -1.0825 -0.6327
3.1269 -1.0908 -0.6251
3.0350 -0.7553 -0.5016
2.9946 -0.6627 -0.4630
2.9759 -0.6980 -0.4674
2.9362 -0.7588 -0.4728
2.9132 -0.7562 -0.4651
2.8918 -0.7655 -0.4613
2.8708 -0.7745 -0.4576
4.4384 0.5190 -0.6020
4.2591 0.4741 -0.5575
4.3861 0.4324 -0.6116
4.3416 0.4062 -0.6052
4.3457 0.3737 -0.6165
4.3137 0.3459 -0.6147
4.2873 0.3174 -0.6148
4.2661 0.2877 -0.6171
4.2002 0.2683 -0.6016
4.1744 0.2404 -0.6018
4.1436 0.2140 -0.5999
4.0816 0.1976 -0.5847
3.9884 0.1939 -0.5556
4.0514 0.1362 -0.5938
4.0601 0.0951 -0.6093
4.0196 0.0731 -0.6028
4.0035 0.0407 -0.6075
3.9584 0.0221 -0.5986
3.9422 -0.0106 -0.6033
3.9073 -0.0332 -0.5990
3.8736 -0.0560 -0.5950
3.8482 -0.0834 -0.5952
3.8389 -0.1221 -0.6040
3.8131 -0.1500 -0.6042
3.7837 -0.1750 -0.6023
3.5022 -0.0256 -0.4648
3.4694 -0.0338 -0.4566
3.4353 -0.0391 -0.4472
3.4168 -0.0592 -0.4473
3.4124 -0.0953 -0.4570
3.2268 -0.0186 -0.3730
3.2107 -0.0333 -0.3723
3.1851 -0.0323 -0.3636
3.1689 -0.0456 -0.3625
3.1478 -0.0493 -0.3568
3.1215 -0.0408 -0.3456
3.1000 -0.0395 -0.3382
3.0885 -0.0587 -0.3404
3.0773 -0.0791 -0.3430
3.0669 -0.1026 -0.3468
3.0440 -0.0918 -0.3360
3.0382 -0.1295 -0.3458
3.0954 -0.9558 -0.6184
3.0482 -0.8607 -0.5738
2.9877 -0.6460 -0.4881
2.9685 -0.6763 -0.4911
2.9882 -1.0485 -0.6120
2.9604 -1.0567 -0.6054
2.8886 -0.7900 -0.5001
2.8661 -0.7774 -0.4889
2.8456 -0.7914 -0.4865
4.2354 0.5083 -0.5760
4.2274 0.4820 -0.5819
4.2900 0.4479 -0.6150
4.2697 0.4205 -0.6169
4.2348 0.3950 -0.6132
4.2101 0.3683 -0.6133
4.1907 0.3406 -0.6157
4.1554 0.3159 -0.6115
4.1503 0.2847 -0.6200
4.1162 0.2600 -0.6162
4.0765 0.2374 -0.6098
4.0286 0.2182 -0.5994
3.9701 0.2038 -0.5837
3.9655 0.1365 -0.6043
3.9493 0.1067 -0.6084
3.9380 0.0742 -0.6152
3.9090 0.0496 -0.6131
3.9054 0.0118 -0.6244
3.8638 -0.0060 -0.6157
3.8351 -0.0303 -0.6137
3.8144 -0.0594 -0.6160
3.7820 -0.0809 -0.6118
3.7612 -0.1102 -0.6142
3.5648 -0.0402 -0.5225
3.4870 -0.0117 -0.4859
3.4659 -0.0304 -0.4847
3.4436 -0.0477 -0.4826
3.4159 -0.0587 -0.4765
3.2219 -0.0133 -0.3937
3.2064 -0.0288 -0.3934
3.1858 -0.0361 -0.3886
3.1734 -0.0563 -0.3909
3.1438 -0.0449 -0.3768
3.1162 -0.0340 -0.3636
3.1000 -0.0434 -0.3610
3.0879 -0.0619 -0.3629
3.0738 -0.0757 -0.3626
3.0594 -0.0886 -0.3618
3.0434 -0.0965 -0.3587
3.0412 -0.1463 -0.3744
3.1318 -0.8515 -0.6386
3.1040 -0.8680 -0.6343
3.0766 -0.8840 -0.6300
3.0477 -0.8882 -0.6213
2.9741 -0.9744 -0.6240
2.9522 -1.0321 -0.6354
2.9254 -1.0394 -0.6284
2.8985 -1.0358 -0.6178
2.8636 -0.8307 -0.5380
2.8413 -0.8128 -0.5243
4.2600 0.5643 -0.6028
4.2479 0.5391 -0.6071
4.2249 0.5142 -0.6073
4.1867 0.4904 -0.6014
4.1684 0.4653 -0.6034
4.1366 0.4416 -0.5998
4.1271 0.4152 -0.6056
4.1236 0.3872 -0.6141
4.1046 0.3612 -0.6162
4.0770 0.3368 -0.6145
4.0578 0.3106 -0.6165
4.0213 0.2887 -0.6106
3.9813 0.2684 -0.6028
3.9662 0.2413 -0.6067
3.9556 0.2124 -0.6129
3.9203 0.1917 -0.6070
3.8900 0.1697 -0.6034
3.8743 0.1420 -0.6073
3.8374 0.1236 -0.6000
3.8215 0.0957 -0.6039
3.7920 0.0746 -0.6003
3.7726 0.0482 -0.6023
3.7698 0.0115 -0.6142
3.7271 -0.0009 -0.6026
3.6135 0.0001 -0.5597
3.5492 0.0115 -0.5317
3.5294 -0.0100 -0.5318
3.5007 -0.0235 -0.5258
3.4631 -0.0277 -0.5133
3.4421 -0.0464 -0.5120
3.4973 -0.2440 -0.6023
3.4724 -0.2655 -0.6006
3.2235 -0.0174 -0.4200
3.2051 -0.0292 -0.4173
3.1696 -0.0527 -0.4123
3.1383 -0.0380 -0.3954
3.1158 -0.0368 -0.3866
3.1003 -0.0482 -0.3848
3.0865 -0.0631 -0.3849
3.0715 -0.0752 -0.3836
3.0549 -0.0824 -0.3799
3.0430 -0.1020 -0.3823
3.0386 -0.1458 -0.3961
3.1162 -0.6775 -0.6125
3.0932 -0.7024 -0.6126
3.0518 -0.7768 -0.6234
2.9570 -0.8671 -0.6197
2.9352 -0.9081 -0.6261
2.9122 -0.9397 -0.6286
2.8873 -0.9424 -0.6202
2.8639 -0.9623 -0.6185
2.8409 -0.9926 -0.6205
4.2057 0.5709 -0.6158
4.1836 0.5469 -0.6159
4.1568 0.5233 -0.6141
4.1347 0.4994 -0.6142
4.1081 0.4760 -0.6124
4.0817 0.4528 -0.6106
4.0685 0.4279 -0.6147
4.0584 0.4022 -0.6203
4.0244 0.3802 -0.6150
4.0107 0.3547 -0.6191
3.9803 0.3325 -0.6153
3.9582 0.3087 -0.6155
3.9441 0.2827 -0.6196
3.9219 0.2587 -0.6197
3.8996 0.2346 -0.6199
3.8774 0.2106 -0.6200
3.8579 0.1856 -0.6217
3.8428 0.1585 -0.6258
3.8004 0.1434 -0.6145
3.7818 0.1179 -0.6167
3.7597 0.0941 -0.6168
3.7466 0.0652 -0.6224
3.7188 0.0445 -0.6191
3.6843 0.0286 -0.6113
3.5605 0.0753 -0.5444
3.5457 0.0513 -0.5475
3.5285 0.0286 -0.5491
3.5069 0.0094 -0.5478
3.4584 0.0144 -0.5265
3.5058 -0.1108 -0.5925
3.4960 -0.1455 -0.6016
3.4812 -0.1762 -0.6072
3.4636 -0.2046 -0.6108
3.4441 -0.2310 -0.6130
3.2033 -0.0286 -0.4409
3.1871 -0.0435 -0.4401
3.1687 -0.0541 -0.4367
3.1410 -0.0465 -0.4228
3.1171 -0.0430 -0.4119
3.0993 -0.0502 -0.4075
3.0842 -0.0625 -0.4061
3.0684 -0.0728 -0.4037
3.0515 -0.0791 -0.3993
3.0409 -0.1026 -0.4039
3.0394 -0.1563 -0.4235
3.1018 -0.6371 -0.6289
3.0778 -0.6537 -0.6255
3.0556 -0.6777 -0.6257
3.0334 -0.7017 -0.6258
3.0068 -0.6983 -0.6139
2.9231 -0.8303 -0.6301
2.9022 -0.8756 -0.6387
2.8790 -0.8900 -0.6349
2.8557 -0.8937 -0.6270
2.8337 -0.9269 -0.6307
4.1277 0.5775 -0.6162
4.0817 0.5557 -0.6054
4.0658 0.5332 -0.6076
4.0371 0.5114 -0.6041
4.0279 0.4882 -0.6095
3.9960 0.4670 -0.6044
3.9831 0.4438 -0.6082
3.9506 0.4233 -0.6026
3.9302 0.4012 -0.6027
3.9211 0.3768 -0.6086
3.8964 0.3554 -0.6067
3.8658 0.3356 -0.6016
3.8591 0.3098 -0.6090
3.8250 0.2915 -0.6018
3.8075 0.2685 -0.6036
3.8027 0.2408 -0.6126
3.7819 0.2183 -0.6127
3.7647 0.1944 -0.6150
3.7403 0.1734 -0.6130
3.7111 0.1551 -0.6079
3.6823 0.1372 -0.6028
3.6562 0.1183 -0.5993
3.6438 0.0917 -0.6047
3.6134 0.0760 -0.5980
3.5467 0.0862 -0.5657
3.5137 0.0758 -0.5558
3.5072 0.0462 -0.5649
3.5000 0.0158 -0.5739
3.4483 0.0237 -0.5489
3.4817 -0.0451 -0.5904
3.4783 -0.0833 -0.6042
3.4622 -0.1100 -0.6080
3.4393 -0.1294 -0.6061
3.4252 -0.1593 -0.6120
3.3967 -0.1715 -0.6048
3.3779 -0.1958 -0.6065
3.1824 -0.0382 -0.4607
3.1672 -0.0546 -0.4608
3.1312 -0.0311 -0.4362
3.1135 -0.0396 -0.4321
3.0982 -0.0522 -0.4306
3.0683 -0.0779 -0.4282
3.0512 -0.0844 -0.4235
3.0391 -0.1041 -0.4262
3.0395 -0.1647 -0.4506
3.0335 -0.2110 -0.4665
3.0792 -0.5611 -0.6255
3.0582 -0.5839 -0.6256
3.0362 -0.6023 -0.6237
3.0119 -0.6060 -0.6148
2.9893 -0.6158 -0.6092
2.9318 -0.7205 -0.6265
2.9114 -0.7518 -0.6303
2.8890 -0.7561 -0.6225
2.8659 -0.7359 -0.6047
2.8455 -0.7540 -0.6033
2.8262 -0.8239 -0.6230
4.0574 0.5834 -0.6166
4.0105 0.5406 -0.6136
4.0055 0.5182 -0.6209
3.9708 0.4977 -0.6139
3.9509 0.4763 -0.6140
3.9376 0.4540 -0.6174
3.9145 0.4329 -0.6159
3.8809 0.4138 -0.6089
3.8747 0.3899 -0.6162
3.8649 0.3662 -0.6218
3.8448 0.3444 -0.6220
3.7865 0.3064 -0.6118
3.7695 0.2842 -0.6136
3.7498 0.2628 -0.6137
3.7407 0.2372 -0.6204
3.7102 0.2200 -0.6140
3.6451 0.1589 -0.6105
3.6206 0.1403 -0.6073
3.5815 0.0981 -0.6076
3.5486 0.0862 -0.5978
3.5228 0.0702 -0.5930
3.5123 0.0430 -0.5997
3.4525 0.0561 -0.5673
3.4243 0.0454 -0.5592
3.4467 -0.0517 -0.6102
3.4039 -0.0900 -0.6072
3.3862 -0.1131 -0.6090
3.3666 -0.1342 -0.6091
3.3455 -0.1531 -0.6076
3.3167 -0.1605 -0.5977
3.2081 -0.0408 -0.4983
3.1828 -0.0417 -0.4874
3.1602 -0.0452 -0.4786
3.1285 -0.0294 -0.4577
3.1087 -0.0336 -0.4506
3.0935 -0.0461 -0.4490
3.0806 -0.0640 -0.4508
3.0644 -0.0736 -0.4476
3.0436 -0.0697 -0.4366
3.0401 -0.1750 -0.4794
3.0348 -0.2254 -0.4984
3.0580 -0.4889 -0.6201
3.0359 -0.4997 -0.6147
3.0196 -0.5383 -0.6237
2.9588 -0.4446 -0.5568
2.9370 -0.4326 -0.5419
2.9011 -0.6835 -0.6318
2.8804 -0.6980 -0.6286
2.8597 -0.7071 -0.6231
2.8396 -0.7210 -0.6199
3.9581 0.5687 -0.6090
3.9393 0.5485 -0.6091
3.9171 0.5284 -0.6075
3.9243 0.5060 -0.6209
3.8864 0.4873 -0.6113
3.8741 0.4662 -0.6148
3.8455 0.4471 -0.6098
3.8216 0.4277 -0.6070
3.8142 0.4054 -0.6135
3.7863 0.3869 -0.6084
3.7656 0.3672 -0.6074
3.7469 0.3470 -0.6075
3.7302 0.3263 -0.6088
3.7226 0.3025 -0.6159
3.6928 0.2859 -0.6091
3.6875 0.2605 -0.6179
3.6536 0.2462 -0.6082
3.6298 0.2283 -0.6048
3.6180 0.2050 -0.6096
3.6017 0.1836 -0.6115
3.5742 0.1682 -0.6052
3.5603 0.1453 -0.6088
3.5432 0.1242 -0.6101
3.5141 0.1111 -0.6021
3.4943 0.0922 -0.6011
3.4759 0.0724 -0.6012
3.4254 0.0792 -0.5741
3.3999 0.0674 -0.5673
3.3936 0.0383 -0.5773
3.4073 -0.0122 -0.6064
3.3821 -0.0251 -0.6001
3.3667 -0.0483 -0.6031
3.3483 -0.0682 -0.6033
3.3298 -0.0881 -0.6034
3.3103 -0.1066 -0.6024
3.2930 -0.1280 -0.6037
3.1780 -0.0364 -0.5081
3.1573 -0.0432 -0.5013
3.1085 -0.0371 -0.4753
3.0911 -0.0454 -0.4708
3.0782 -0.0633 -0.4726
3.0620 -0.0730 -0.4692
3.0480 -0.0881 -0.4693
3.0429 -0.1929 -0.5137
3.0365 -0.2417 -0.5324
3.0594 -0.4105 -0.6187
3.0384 -0.4215 -0.6136
3.0210 -0.4481 -0.6172
3.0010 -0.4619 -0.6138
2.9739 -0.4323 -0.5877
2.9342 -0.4399 -0.5722
2.9231 -0.5147 -0.6003
2.9085 -0.5736 -0.6197
2.8893 -0.5904 -0.6181
2.8707 -0.6144 -0.6200
2.8520 -0.6386 -0.6218
2.8326 -0.6412 -0.6138
2.8140 -0.6640 -0.6151
3.8969 0.5746 -0.6069
3.8849 0.5551 -0.6100
3.8726 0.5353 -0.6132
3.8490 0.5163 -0.6103
3.8399 0.4960 -0.6152
3.8239 0.4762 -0.6166
3.7920 0.4586 -0.6088
3.7742 0.4393 -0.6090
3.7624 0.4188 -0.6127
3.7464 0.3989 -0.6140
3.7314 0.3787 -0.6160
3.7181 0.3579 -0.6191
3.7075 0.3361 -0.6241
3.6790 0.3195 -0.6176
3.6663 0.2980 -0.6213
3.6454 0.2793 -0.6196
3.6272 0.2597 -0.6198
3.6022 0.2430 -0.6150
3.5645 0.2049 -0.6141
3.5285 0.1660 -0.6143
3.4830 0.1336 -0.6067
3.4703 0.1108 -0.6110
3.3876 0.0786 -0.5847
3.3797 0.0154 -0.6104
3.3600 -0.0019 -0.6087
3.3440 -0.0231 -0.6107
3.3335 -0.0513 -0.6187
3.3127 -0.0673 -0.6158
3.2878 -0.0773 -0.6080
3.2686 -0.0942 -0.6063
3.1854 -0.0517 -0.5446
3.1567 -0.0452 -0.5270
3.1359 -0.0508 -0.5192
3.1181 -0.0609 -0.5151
3.0907 -0.0490 -0.4957
3.0743 -0.0589 -0.4922
3.0588 -0.0705 -0.4898
3.0448 -0.0856 -0.4899
3.0498 -0.1582 -0.5265
3.0373 -0.1833 -0.5321
3.0564 -0.3236 -0.6078
3.0454 -0.3692 -0.6237
3.0279 -0.3920 -0.6257
3.0125 -0.4255 -0.6337
2.9882 -0.4141 -0.6162
2.9685 -0.4225 -0.6102
2.9511 -0.4439 -0.6115
2.9323 -0.4552 -0.6074
2.9169 -0.4952 -0.6185
2.8989 -0.5146 -0.6186
2.8806 -0.5304 -0.6169
2.8448 -0.5692 -0.6172
2.8270 -0.5949 -0.6203
2.8089 -0.6118 -0.6192
3.8746 0.5983 -0.6134
3.8468 0.5798 -0.6078
3.8320 0.5613 -0.6092
3.8172 0.5426 -0.6106
3.7877 0.5250 -0.6038
3.7730 0.5064 -0.6052
3.7689 0.4866 -0.6128
3.7538 0.4676 -0.6142
3.7417 0.4481 -0.6175
3.7172 0.4307 -0.6132
3.6860 0.4150 -0.6045
3.6730 0.3957 -0.6071
3.6607 0.3761 -0.6104
3.6436 0.3576 -0.6105
3.6265 0.3390 -0.6106
3.6012 0.3233 -0.6051
3.5878 0.3037 -0.6077
3.5794 0.2817 -0.6141
3.5664 0.2612 -0.6174
3.5334 0.2500 -0.6055
3.5180 0.2308 -0.6069
3.5144 0.2051 -0.6178
3.4856 0.1932 -0.6084
3.4655 0.1767 -0.6060
3.4551 0.1539 -0.6118
3.4316 0.1400 -0.6062
3.4195 0.1179 -0.6108
3.4037 0.0983 -0.6122
3.3820 0.0839 -0.6078
3.3682 0.0625 -0.6111
3.3511 0.0440 -0.6112
3.3340 0.0255 -0.6114
3.3169 0.0071 -0.6115
3.2982 -0.0094 -0.6097
3.2790 -0.0250 -0.6073
3.2667 -0.0498 -0.6131
3.2425 -0.0579 -0.6043
3.2281 -0.0800 -0.6076
3.2046 -0.0873 -0.5988
3.1675 -0.0682 -0.5697
3.1423 -0.0670 -0.5559
3.1269 -0.0837 -0.5560
3.1100 -0.0968 -0.5535
3.0914 -0.1054 -0.5479
3.0748 -0.1181 -0.5455
3.0581 -0.1297 -0.5424
3.0544 -0.2497 -0.5999
3.0426 -0.2856 -0.6114
3.0246 -0.2999 -0.6090
3.0114 -0.3348 -0.6193
2.9915 -0.3408 -0.6118
2.9759 -0.3668 -0.6164
2.9580 -0.3809 -0.6139
2.9415 -0.4039 -0.6166
2.9241 -0.4202 -0.6154
2.9059 -0.4283 -0.6098
2.8900 -0.4596 -0.6169
2.8719 -0.4649 -0.6100
2.8551 -0.4857 -0.6114
2.8379 -0.4979 -0.6084
2.8211 -0.5199 -0.6104
2.8041 -0.5408 -0.6118
2.7871 -0.5618 -0.6132
3.8300 0.6024 -0.6157
3.8157 0.5844 -0.6172
3.7933 0.5666 -0.6140
3.7768 0.5487 -0.6141
3.7602 0.5308 -0.6142
3.7415 0.5131 -0.6130
3.7250 0.4952 -0.6131
3.6969 0.4789 -0.6060
3.6919 0.4595 -0.6134
3.6805 0.4407 -0.6168
3.6638 0.4228 -0.6169
3.6424 0.4059 -0.6137
3.6277 0.3876 -0.6151
3.6140 0.3689 -0.6172
3.5628 0.3391 -0.6043
3.5562 0.3180 -0.6116
3.5415 0.2995 -0.6131
3.4995 0.2682 -0.6060
3.4685 0.2321 -0.6076
3.4591 0.2104 -0.6136
3.3934 0.1688 -0.5988
3.3829 0.1472 -0.6042
3.3600 0.1352 -0.5977
3.3544 0.1087 -0.6083
3.3355 0.0935 -0.6058
3.3084 0.0526 -0.6120
3.2954 0.0309 -0.6161
3.2789 0.0131 -0.6162
3.2613 -0.0034 -0.6150
3.2219 -0.0294 -0.6066
3.2028 -0.0423 -0.6027
3.1858 -0.0582 -0.6015
3.1679 -0.0724 -0.5990
3.1519 -0.0897 -0.5991
3.1359 -0.1070 -0.5992
3.1199 -0.1243 -0.5993
3.0981 -0.1274 -0.5888
3.0810 -0.1407 -0.5863
3.0764 -0.1891 -0.6089
3.0629 -0.2153 -0.6150
3.0476 -0.2369 -0.6178
3.0341 -0.2656 -0.6252
3.0163 -0.2797 -0.6226
2.9985 -0.2925 -0.6194
2.9834 -0.3178 -0.6242
2.9646 -0.3240 -0.6170
2.8977 -0.3849 -0.6115
2.8808 -0.3955 -0.6076
2.8648 -0.4154 -0.6090
2.8489 -0.4415 -0.6138
2.8328 -0.4666 -0.6179
2.8162 -0.4794 -0.6154
2.7998 -0.4996 -0.6168
3.8030 0.6401 -0.6078
3.7945 0.6233 -0.6120
3.7810 0.6061 -0.6135
3.7535 0.5891 -0.6067
3.7446 0.5719 -0.6110
3.7400 0.5543 -0.6179
3.7108 0.5379 -0.6098
3.7037 0.5201 -0.6154
3.6835 0.5033 -0.6128
3.6677 0.4862 -0.6129
3.6539 0.4687 -0.6144
3.6339 0.4523 -0.6117
3.6162 0.4356 -0.6105
3.6062 0.4172 -0.6147
3.5903 0.4000 -0.6148
3.5670 0.3849 -0.6094
3.5531 0.3674 -0.6109
3.5462 0.3473 -0.6179
3.5163 0.3352 -0.6070
3.4972 0.3197 -0.6043
3.4900 0.2992 -0.6113
3.4758 0.2813 -0.6128
3.4568 0.2659 -0.6102
3.4442 0.2472 -0.6130
3.4284 0.2301 -0.6131
3.4052 0.2177 -0.6064
3.3838 0.2047 -0.6010
3.3739 0.1839 -0.6066
3.3583 0.1670 -0.6067
3.3466 0.1468 -0.6109
3.3283 0.1321 -0.6083
3.3177 0.1104 -0.6139
3.2994 0.0958 -0.6112
3.2837 0.0788 -0.6113
3.2657 0.0644 -0.6087
3.2511 0.0461 -0.6102
3.2333 0.0319 -0.6075
3.2136 0.0207 -0.6021
3.2060 -0.0078 -0.6133
3.1874 -0.0203 -0.6092
3.1754 -0.0434 -0.6149
3.1569 -0.0557 -0.6108
3.1429 -0.0760 -0.6137
3.1224 -0.0829 -0.6055
3.1083 -0.1032 -0.6084
3.0956 -0.1271 -0.6140
3.0784 -0.1406 -0.6114
3.0621 -0.1557 -0.6101
3.0470 -0.1745 -0.6116
3.0319 -0.1934 -0.6131
3.0167 -0.2124 -0.6146
3.0024 -0.2355 -0.6188
2.9856 -0.2485 -0.6162
2.9698 -0.2656 -0.6163
2.9540 -0.2827 -0.6164
2.9361 -0.2868 -0.6082
2.9215 -0.3103 -0.6124
2.9058 -0.3272 -0.6125
2.8907 -0.3511 -0.6168
2.8747 -0.3658 -0.6155
2.8589 -0.3829 -0.6156
2.8426 -0.3878 -0.6088
2.8270 -0.4022 -0.6075
2.8118 -0.4466 -0.6229
2.7958 -0.4562 -0.6188
2.7801 -0.4682 -0.6162
3.7382 0.6096 -0.6127
3.7160 0.5932 -0.6085
3.7031 0.5767 -0.6101
3.6630 0.5270 -0.6139
3.6498 0.5103 -0.6155
3.6387 0.4932 -0.6184
3.6212 0.4769 -0.6171
3.6059 0.4603 -0.6172
3.5945 0.4429 -0.6202
3.5733 0.4275 -0.6160
3.5598 0.4105 -0.6175
3.5500 0.3924 -0.6219
3.5291 0.3773 -0.6177
3.5120 0.3613 -0.6164
3.4984 0.3441 -0.6180
3.4848 0.3268 -0.6195
3.4644 0.3123 -0.6153
3.4483 0.2962 -0.6147
3.4283 0.2821 -0.6105
3.4185 0.2628 -0.6156
3.3648 0.2186 -0.6081
3.3415 0.1808 -0.6154
3.3223 0.1675 -0.6112
3.2944 0.1324 -0.6143
3.2810 0.1142 -0.6166
3.2669 0.0964 -0.6181
3.2477 0.0844 -0.6132
3.2303 0.0707 -0.6104
3.1835 0.0239 -0.6086
3.1689 0.0068 -0.6094
3.1566 -0.0141 -0.6138
3.1388 -0.0257 -0.6096
3.1237 -0.0420 -0.6097
3.1094 -0.0600 -0.6113
3.0951 -0.0780 -0.6128
3.0806 -0.0961 -0.6143
3.0655 -0.1126 -0.6144
3.0519 -0.1336 -0.6181
3.0047 -0.1782 -0.6149
2.9891 -0.1926 -0.6135
2.9759 -0.2182 -0.6201
2.9602 -0.2326 -0.6188
2.9296 -0.2657 -0.6190
2.9143 -0.2822 -0.6191
2.8989 -0.2976 -0.6185
2.8677 -0.3212 -0.6129
2.7921 -0.4105 -0.6178
2.7769 -0.4295 -0.6193
3.7396 0.6602 -0.6098
3.7214 0.6442 -0.6077
3.7104 0.6286 -0.6100
3.6887 0.6127 -0.6057
3.6800 0.5970 -0.6095
3.6597 0.5813 -0.6059
3.6508 0.5654 -0.6097
3.6318 0.5498 -0.6068
3.6291 0.5332 -0.6151
3.6101 0.5177 -0.6122
3.5954 0.5018 -0.6123
3.5757 0.4867 -0.6087
3.5711 0.4693 -0.6162
3.5485 0.4548 -0.6104
3.5320 0.4395 -0.6090
3.5155 0.4242 -0.6076
3.5111 0.4057 -0.6159
3.4882 0.3922 -0.6093
3.4763 0.3756 -0.6116
3.4565 0.3616 -0.6073
3.4403 0.3466 -0.6059
3.4300 0.3292 -0.6097
3.4170 0.3127 -0.6113
3.3992 0.2985 -0.6084
3.3839 0.2832 -0.6078
3.3732 0.2653 -0.6116
3.3556 0.2514 -0.6087
3.3425 0.2347 -0.6103
3.3314 0.2164 -0.6141
3.3134 0.2032 -0.6105
3.2975 0.1885 -0.6091
3.2874 0.1689 -0.6144
3.2697 0.1559 -0.6108
3.2533 0.1420 -0.6087
3.2330 0.1325 -0.6013
3.2209 0.1145 -0.6044
3.2114 0.0929 -0.6112
3.1952 0.0792 -0.6091
3.1807 0.0636 -0.6092
3.1633 0.0522 -0.6048
3.1498 0.0352 -0.6064
3.1376 0.0157 -0.6102
3.1278 -0.0087 -0.6185
3.1086 -0.0157 -0.6104
3.0960 -0.0356 -0.6142
3.0791 -0.0463 -0.6099
3.0594 -0.0489 -0.5988
3.0501 -0.0777 -0.6101
3.0343 -0.0897 -0.6072
3.0205 -0.1072 -0.6088
3.0065 -0.1247 -0.6104
2.9941 -0.1482 -0.6164
2.9789 -0.1621 -0.6150
2.9643 -0.1779 -0.6151
2.9501 -0.1958 -0.6167
2.9329 -0.1968 -0.6064
2.9195 -0.2189 -0.6110
2.9049 -0.2345 -0.6111
2.8906 -0.2513 -0.6119
2.8762 -0.2693 -0.6135
2.8621 -0.2909 -0.6173
2.8472 -0.3032 -0.6152
2.8326 -0.3202 -0.6161
2.8179 -0.3299 -0.6124
2.8033 -0.3419 -0.6103
2.7888 -0.3638 -0.6141
3.6618 0.6158 -0.6111
3.6511 0.6005 -0.6135
3.6369 0.5852 -0.6136
3.6020 0.5548 -0.6092
3.5749 0.5243 -0.6102
3.5556 0.5097 -0.6064
3.5405 0.4773 -0.6166
3.5205 0.4630 -0.6121
3.5073 0.4475 -0.6130
3.4931 0.4322 -0.6131
3.4296 0.3735 -0.6073
3.4123 0.3597 -0.6043
3.3876 0.3281 -0.6076
3.3682 0.3157 -0.6023
3.3574 0.2991 -0.6055
3.3389 0.2631 -0.6157
3.3009 0.2393 -0.6051
3.2769 0.2060 -0.6099
3.2348 0.1605 -0.6102
3.2208 0.1453 -0.6103
3.2068 0.1301 -0.6104
3.1927 0.1150 -0.6105
3.1777 0.1011 -0.6090
3.1617 0.0888 -0.6060
3.1482 0.0730 -0.6069
3.1366 0.0543 -0.6109
3.1217 0.0406 -0.6094
3.1060 0.0286 -0.6064
3.0921 0.0136 -0.6065
3.0653 -0.0191 -0.6090
3.0496 -0.0298 -0.6053
3.0390 -0.0537 -0.6131
3.0273 -0.0762 -0.6193
2.9670 -0.1229 -0.6081
2.9537 -0.1410 -0.6106
2.9265 -0.1765 -0.6146
2.9123 -0.1907 -0.6139
2.8982 -0.2059 -0.6140
2.8704 -0.2408 -0.6173
2.8563 -0.2561 -0.6174
2.8425 -0.2797 -0.6229
2.8283 -0.2975 -0.6246
2.8140 -0.3105 -0.6231
2.7997 -0.3285 -0.6248
2.6355 1.6285 -0.6148
2.6217 1.6064 -0.6102
2.6078 1.5915 -0.6103
2.5938 1.5777 -0.6112
2.5802 1.5595 -0.6090
2.5386 1.5148 -0.6092
2.5247 1.4999 -0.6093
2.5114 1.4820 -0.6071
2.4966 1.4721 -0.6110
2.4831 1.4553 -0.6095
2.4680 1.4451 -0.6135
2.4628 1.3998 -0.5881
2.4535 1.3729 -0.5774
2.4362 1.3711 -0.5883
2.4157 1.3757 -0.6053
2.3992 1.3676 -0.6116
2.4328 1.1762 -0.4659
2.4225 1.1652 -0.4660
2.2818 1.2235 -0.6008
2.2634 1.2145 -0.6078
2.2529 1.1961 -0.6032
2.2341 1.1867 -0.6103
2.2250 1.1673 -0.6042
2.2076 1.1559 -0.6089
2.1982 1.1373 -0.6036
2.1176 1.0484 -0.6025
2.1025 1.0346 -0.6042
2.0857 1.0213 -0.6073
2.0671 1.0087 -0.6121
2.0541 0.9935 -0.6114
2.0469 0.9761 -0.6053
2.0264 0.9637 -0.6115
2.0169 0.9475 -0.6078
2.0067 0.9318 -0.6047
1.9949 0.9166 -0.6033
2.0647 0.8400 -0.5059
2.0515 0.8282 -0.5075
2.0443 0.8157 -0.5045
2.0122 0.8053 -0.5201
1.8868 0.7995 -0.6032
1.8624 0.7852 -0.6110
1.8651 0.7701 -0.5994
1.8751 0.7556 -0.5832
1.8699 0.7416 -0.5779
1.8153 0.7262 -0.6059
1.8393 0.7003 -0.5727
1.8827 0.6795 -0.5293
1.8710 0.6669 -0.5294
2.6308 1.6572 -0.6106
2.6163 1.6441 -0.6122
2.6019 1.6285 -0.6122
2.5874 1.6130 -0.6123
2.5735 1.5920 -0.6087
2.5579 1.5874 -0.6162
2.5431 1.5739 -0.6178
2.5294 1.5520 -0.6134
2.5164 1.5283 -0.6076
2.5007 1.5199 -0.6129
2.4611 1.4592 -0.6020
2.4322 1.3747 -0.5695
2.4090 1.3863 -0.5919
2.3739 1.3728 -0.6069
2.4083 1.1583 -0.4530
2.3942 1.1530 -0.4590
2.3799 1.1473 -0.4651
2.3687 1.1365 -0.4659
2.3534 1.1310 -0.4726
2.2168 1.2042 -0.6079
2.2060 1.1854 -0.6035
2.1955 1.1668 -0.5991
2.0912 1.0645 -0.6057
2.0800 1.0477 -0.6028
2.0667 1.0321 -0.6021
2.0518 1.0173 -0.6030
2.0401 1.0012 -0.6008
2.0193 0.9885 -0.6069
2.0197 0.9683 -0.5942
2.0963 0.8938 -0.4980
2.0848 0.8815 -0.4980
2.0829 0.8674 -0.4906
2.0717 0.8553 -0.4907
2.0425 0.8458 -0.5042
2.0147 0.8354 -0.5163
1.8550 0.8048 -0.6034
1.8583 0.7890 -0.5915
1.8644 0.7737 -0.5781
1.8633 0.7591 -0.5699
1.8718 0.7452 -0.5558
1.8531 0.7178 -0.5514
1.8644 0.7056 -0.5365
1.8410 0.6914 -0.5433
1.8557 0.6805 -0.5269
2.6257 1.6969 -0.6117
2.6111 1.6714 -0.6061
2.5961 1.6578 -0.6076
2.5814 1.6396 -0.6063
2.5663 1.6258 -0.6078
2.5510 1.6142 -0.6107
2.5360 1.5982 -0.6108
2.5211 1.5822 -0.6109
2.5065 1.5640 -0.6096
2.4924 1.5440 -0.6068
2.4771 1.5300 -0.6083
2.4634 1.5092 -0.6048
2.4411 1.4534 -0.5864
2.4377 1.4044 -0.5599
2.4235 1.3916 -0.5614
2.3919 1.4238 -0.6002
2.3737 1.4166 -0.6075
2.3607 1.3965 -0.6040
2.3468 1.3791 -0.6027
2.3296 1.3680 -0.6071
2.3869 1.1623 -0.4507
2.3792 1.1466 -0.4464
2.3646 1.1408 -0.4522
2.3523 1.1313 -0.4545
2.3366 1.1255 -0.4610
2.1814 1.2090 -0.6080
2.0755 1.0989 -0.6108
2.0607 1.0830 -0.6108
2.0573 1.0610 -0.6001
2.0443 1.0446 -0.5988
2.1255 0.9344 -0.4830
2.1229 0.9193 -0.4759
2.1134 0.9067 -0.4745
2.0975 0.8957 -0.4782
2.0843 0.8840 -0.4797
2.0709 0.8721 -0.4812
2.0526 0.8611 -0.4863
1.8667 0.8576 -0.6020
1.8500 0.8421 -0.6035
1.8280 0.8270 -0.6087
1.8207 0.8107 -0.6037
1.8422 0.7932 -0.5800
1.8649 0.7771 -0.5562
1.8541 0.7214 -0.5305
1.6951 0.6697 -0.6009
1.6679 0.6528 -0.6082
2.6357 1.7523 -0.6105
2.6198 1.7477 -0.6174
2.6042 1.7284 -0.6162
2.5891 1.7023 -0.6107
2.5738 1.6822 -0.6088
2.5584 1.6656 -0.6089
2.5427 1.6501 -0.6096
2.5272 1.6334 -0.6097
2.5123 1.6136 -0.6078
2.4964 1.5991 -0.6092
2.4795 1.5896 -0.6142
2.4659 1.5639 -0.6080
2.4515 1.5434 -0.6054
2.4366 1.5250 -0.6041
2.4473 1.4226 -0.5406
2.4304 1.4181 -0.5483
2.3894 1.4792 -0.6071
2.3739 1.4627 -0.6072
2.3600 1.4427 -0.6045
2.3413 1.4337 -0.6109
2.3285 1.4114 -0.6061
2.3123 1.3965 -0.6076
2.2978 1.3784 -0.6063
2.2824 1.3619 -0.6064
2.3588 1.1471 -0.4406
2.3528 1.1295 -0.4344
2.3367 1.1245 -0.4414
2.3224 1.1167 -0.4456
2.3003 1.1165 -0.4588
2.2752 1.0326 -0.4273
2.2711 1.0170 -0.4211
2.1525 0.9763 -0.4701
2.1518 0.9594 -0.4611
2.1387 0.9479 -0.4626
2.1282 0.9354 -0.4620
2.1195 0.9223 -0.4599
2.1037 0.9115 -0.4635
2.0802 0.9024 -0.4726
1.8511 0.9199 -0.6207
1.8522 0.9000 -0.6090
1.8388 0.8832 -0.6077
1.8255 0.8665 -0.6064
1.8144 0.8496 -0.6037
1.7949 0.8336 -0.6066
1.8259 0.7976 -0.5678
1.8173 0.7822 -0.5644
1.8270 0.7666 -0.5499
1.8503 0.7520 -0.5277
1.8372 0.7380 -0.5278
1.6750 0.7024 -0.6059
1.6495 0.6701 -0.6033
2.6311 1.7565 -0.5885
2.6158 1.7338 -0.5853
2.5986 1.7516 -0.6046
2.5827 1.7321 -0.6034
2.5672 1.7104 -0.6008
2.5511 1.6956 -0.6022
2.5337 1.6906 -0.6096
2.5175 1.6733 -0.6097
2.5044 1.6379 -0.5986
2.4897 1.6147 -0.5947
2.4606 1.4274 -0.5121
2.4479 1.4113 -0.5108
2.3747 1.5112 -0.6060
2.3563 1.5001 -0.6107
2.3420 1.4785 -0.6075
2.3275 1.4580 -0.6049
2.3139 1.4360 -0.6010
2.2964 1.4221 -0.6038
2.2805 1.4050 -0.6039
2.2595 1.3963 -0.6113
2.2434 1.3790 -0.6114
2.3351 1.1255 -0.4241
2.3175 1.1215 -0.4322
2.3005 1.1158 -0.4389
2.2845 1.1086 -0.4443
2.2706 1.0987 -0.4470
2.2585 1.0870 -0.4478
2.2578 1.0662 -0.4372
2.2157 1.0360 -0.4454
2.2014 1.0256 -0.4481
2.1884 1.0142 -0.4495
2.1785 1.0010 -0.4482
2.1679 0.9884 -0.4476
2.1581 0.9754 -0.4464
2.1501 0.9618 -0.4438
2.1353 0.9509 -0.4465
2.1169 0.9412 -0.4519
2.1135 0.9262 -0.4460
1.8421 0.9457 -0.6125
1.8445 0.9245 -0.5999
1.8248 0.9084 -0.6027
1.8009 0.8927 -0.6081
1.7870 0.8753 -0.6069
1.7816 0.8570 -0.6003
1.8406 0.7556 -0.5125
1.6739 0.7388 -0.5996
1.6534 0.7218 -0.6024
1.6352 0.7048 -0.6038
1.6342 0.6888 -0.5959
1.6061 0.6710 -0.6027
1.5903 0.6541 -0.6028
2.5739 1.7924 -0.6114
2.5554 1.7927 -0.6217
2.5402 1.7562 -0.6116
2.5256 1.7204 -0.6015
2.4942 1.4852 -0.5001
2.4821 1.4646 -0.4963
2.4695 1.4473 -0.4945
2.3722 1.5733 -0.6113
2.3583 1.5471 -0.6057
2.3417 1.5292 -0.6058
2.3217 1.5191 -0.6116
2.2929 1.4731 -0.6042
2.2733 1.4609 -0.6088
2.2624 1.4327 -0.6006
2.2275 1.4003 -0.6033
2.2064 1.3890 -0.6092
2.1917 1.3682 -0.6067
2.2867 1.1062 -0.4225
2.2755 1.0942 -0.4226
2.2624 1.0839 -0.4246
2.2565 1.0474 -0.4094
2.2087 1.0414 -0.4325
2.1950 1.0305 -0.4345
2.1858 1.0168 -0.4327
2.1783 1.0024 -0.4295
2.1661 0.9906 -0.4303
2.1539 0.9788 -0.4310
2.1400 0.9676 -0.4330
1.8649 1.0085 -0.6042
1.8299 0.9735 -0.6057
1.8134 0.9557 -0.6058
1.8076 0.9357 -0.5989
1.7803 0.9202 -0.6060
1.7626 0.8824 -0.5966
1.7953 0.7903 -0.5322
1.8051 0.7743 -0.5188
1.6443 0.7427 -0.5910
1.6005 0.7246 -0.6058
1.5754 0.7065 -0.6104
1.5674 0.6892 -0.6060
1.5395 0.6706 -0.6119
1.5139 0.6518 -0.6165
2.5172 1.5178 -0.4808
2.5033 1.5054 -0.4821
2.4902 1.4888 -0.4810
2.4738 1.4864 -0.4884
2.3576 1.6056 -0.6059
2.3368 1.5960 -0.6121
2.3235 1.5665 -0.6049
2.3073 1.5453 -0.6031
2.2880 1.5309 -0.6063
2.2748 1.5040 -0.6003
2.2623 1.4766 -0.5937
2.2444 1.4600 -0.5950
2.2191 1.4100 -0.5842
2.1989 1.3971 -0.5886
2.1773 1.3854 -0.5942
2.1527 1.3767 -0.6029
2.2921 1.1237 -0.4091
2.2833 1.1092 -0.4068
2.2696 1.0996 -0.4093
2.2577 1.0880 -0.4100
2.2519 1.0716 -0.4051
2.2470 1.0550 -0.3997
2.2060 1.0440 -0.4158
2.1885 1.0354 -0.4207
2.1808 1.0208 -0.4177
1.8662 1.0844 -0.6119
1.8591 1.0616 -0.6046
1.8356 1.0453 -0.6091
1.8246 1.0245 -0.6049
1.8101 1.0051 -0.6031
1.7901 0.9874 -0.6051
1.7680 0.9701 -0.6082
1.7585 0.9497 -0.6034
1.7483 0.9299 -0.5992
1.7312 0.9115 -0.5993
1.7422 0.8891 -0.5828
1.5906 0.7467 -0.5935
1.5629 0.7283 -0.5991
1.5188 0.7089 -0.6128
1.5113 0.6907 -0.6080
1.4839 0.6714 -0.6130
1.4831 0.6541 -0.6051
2.5386 1.5628 -0.4679
2.5254 1.5448 -0.4663
2.4106 1.7317 -0.6077
2.3844 1.7420 -0.6253
2.3701 1.7061 -0.6161
2.3558 1.6729 -0.6081
2.3385 1.6505 -0.6064
2.3220 1.6263 -0.6036
2.3021 1.6113 -0.6066
2.2846 1.5900 -0.6056
2.2613 1.5816 -0.6133
2.2441 1.5593 -0.6116
2.2292 1.5331 -0.6071
2.2179 1.5017 -0.5984
2.1937 1.4925 -0.6061
2.2087 1.4227 -0.5671
2.1836 1.4162 -0.5765
2.1354 1.3965 -0.5914
2.2361 1.1547 -0.4320
2.2553 1.1126 -0.4034
2.2537 1.0916 -0.3947
2.2417 1.0801 -0.3953
2.2332 1.0658 -0.3930
2.2133 1.0598 -0.4001
2.1989 1.0495 -0.4025
1.8467 1.1224 -0.6094
1.8353 1.1000 -0.6048
1.8146 1.0816 -0.6067
1.7822 1.0673 -0.6162
1.7684 1.0460 -0.6134
1.7528 1.0255 -0.6117
1.7450 1.0030 -0.6054
1.7318 0.9824 -0.6025
1.8169 0.8457 -0.4985
1.5936 0.8277 -0.6005
1.5758 0.8085 -0.6006
1.6356 0.7869 -0.5612
1.5689 0.7511 -0.5779
1.4982 0.7316 -0.6040
1.4703 0.7120 -0.6088
1.4459 0.6922 -0.6118
1.4379 0.6733 -0.6072
2.5620 1.5960 -0.4484
2.5487 1.5778 -0.4468
2.4143 1.7968 -0.6035
2.3938 1.7826 -0.6070
2.3739 1.7650 -0.6087
2.3591 1.7297 -0.6005
2.3346 1.7267 -0.6107
2.3229 1.6845 -0.5980
2.2622 1.6335 -0.6044
2.2384 1.6234 -0.6112
2.2242 1.5927 -0.6047
2.2052 1.5723 -0.6048
2.1848 1.5543 -0.6066
2.1847 1.4559 -0.5644
2.1951 1.3973 -0.5344
2.2187 1.2274 -0.4505
2.2416 1.1021 -0.3860
2.2398 1.0820 -0.3782
2.2299 1.0688 -0.3772
1.9099 1.1493 -0.5611
1.7989 1.1181 -0.5995
1.7462 1.0834 -0.6092
1.6996 1.0450 -0.6145
1.6976 1.0196 -0.6045
1.8481 0.8980 -0.4821
1.8186 0.8845 -0.4901
1.8047 0.8683 -0.4896
1.5958 0.8741 -0.5896
1.5364 0.8582 -0.6105
1.5173 0.8377 -0.6106
1.5051 0.8168 -0.6074
1.4330 0.7355 -0.6061
1.4414 0.7161 -0.5939
1.3838 0.6944 -0.6114
1.3865 0.6753 -0.6020
1.3496 0.6537 -0.6100
2.5728 1.6013 -0.4231
2.5568 1.6102 -0.4338
2.4275 1.9460 -0.6267
2.4118 1.8991 -0.6147
2.3907 1.8804 -0.6164
2.3788 1.8246 -0.5990
2.3545 1.8194 -0.6076
2.3380 1.7860 -0.6014
2.3121 1.7830 -0.6116
2.2670 1.7515 -0.6187
2.2562 1.7060 -0.6050
2.2272 1.7048 -0.6174
2.2055 1.6855 -0.6191
2.1863 1.6610 -0.6176
2.1807 1.6119 -0.6002
2.1534 1.6035 -0.6088
2.1376 1.5748 -0.6042
2.1891 1.4462 -0.5294
2.2002 1.3877 -0.5009
2.1954 1.3552 -0.4898
2.2043 1.3074 -0.4665
2.2091 1.2682 -0.4485
2.2038 1.2429 -0.4407
2.2420 1.0806 -0.3581
1.8188 1.2000 -0.5929
1.7737 1.1919 -0.6096
1.7511 1.1715 -0.6113
1.7474 1.1429 -0.6013
1.7135 1.1273 -0.6099
1.7052 1.1014 -0.6031
1.8344 0.9037 -0.4661
1.5226 0.9106 -0.6063
1.5071 0.8888 -0.6043
1.4761 0.8686 -0.6098
1.4561 0.8471 -0.6099
1.3684 0.7399 -0.6052
1.3523 0.7187 -0.6037
1.3199 0.6969 -0.6091
1.3282 0.6772 -0.5975
2.5268 1.6901 -0.4539
2.3804 1.9037 -0.5961
2.3106 1.8616 -0.6090
2.3103 1.7758 -0.5764
2.2882 1.7600 -0.5796
2.2667 1.7421 -0.5817
2.2362 1.7450 -0.5954
2.2000 1.7574 -0.6152
2.1994 1.6910 -0.5901
2.1637 1.6986 -0.6079
2.1475 1.6668 -0.6025
2.1266 1.6443 -0.6026
2.0372 1.5128 -0.5896
1.9496 1.4740 -0.6112
2.2359 1.0858 -0.3444
2.2276 1.0716 -0.3425
2.2002 1.0711 -0.3536
1.9696 1.1471 -0.4783
1.8057 1.2092 -0.5700
1.7310 1.2157 -0.6035
1.7220 1.1877 -0.5966
1.7014 1.1656 -0.5967
1.8569 1.0484 -0.4875
1.8524 1.0266 -0.4810
1.8322 0.9667 -0.4666
1.5116 0.9670 -0.5998
1.4845 0.9458 -0.6030
1.4649 0.8985 -0.5931
1.4142 0.8796 -0.6069
1.4522 0.8296 -0.5721
1.6401 0.7815 -0.4758
1.3045 0.7447 -0.6011
1.2763 0.7223 -0.6043
1.2682 0.7005 -0.5993
2.5376 1.7107 -0.4320
2.5202 1.7092 -0.4383
2.4850 1.6980 -0.4480
2.4362 1.7411 -0.4824
2.3903 1.7462 -0.5022
2.3559 1.7835 -0.5289
2.2843 1.8406 -0.5773
2.2809 1.7692 -0.5531
2.2380 1.8054 -0.5828
2.1913 1.8428 -0.6143
2.1252 1.7665 -0.6128
2.0801 1.7181 -0.6131
2.0575 1.6939 -0.6133
2.0391 1.6635 -0.6096
2.0124 1.6455 -0.6135
2.0010 1.6067 -0.6041
1.9719 1.5914 -0.6100
1.9222 1.5487 -0.6141
1.9073 1.5167 -0.6085
2.2248 1.0950 -0.3339
2.2134 1.0828 -0.3340
2.1968 1.0742 -0.3374
1.7510 1.3489 -0.6094
1.7193 1.3308 -0.6153
1.6912 1.2383 -0.5932
1.6730 1.2134 -0.5914
1.8425 1.0811 -0.4780
1.8483 1.0542 -0.4661
1.8333 1.0129 -0.4572
1.8355 0.9901 -0.4482
1.8315 0.9699 -0.4425
1.4551 1.0100 -0.6036
1.4121 0.9903 -0.6134
1.3803 0.9403 -0.6079
1.3714 0.9149 -0.6022
1.3405 0.8923 -0.6062
1.3275 0.8678 -0.6025
1.2228 0.7500 -0.6012
1.2915 0.7283 -0.5667
2.4252 1.8812 -0.5053
2.4270 1.7641 -0.4655
2.3921 1.7240 -0.4648
2.3685 1.7254 -0.4739
2.3391 1.7420 -0.4902
2.3107 1.7503 -0.5034
2.2027 1.8844 -0.5877
2.1779 1.8645 -0.5901
2.1464 1.8587 -0.5996
2.1564 1.7652 -0.5647
2.0186 1.7509 -0.6103
2.0063 1.7083 -0.6005
1.9732 1.6968 -0.6087
1.9394 1.6846 -0.6170
1.9235 1.6488 -0.6108
1.9075 1.6143 -0.6051
1.8760 1.5978 -0.6111
1.8605 1.5638 -0.6054
1.8311 1.5443 -0.6096
2.2271 1.0935 -0.3142
2.2107 1.0853 -0.3174
1.7028 1.3825 -0.6023
1.6763 1.3594 -0.6043
1.6634 1.3282 -0.5985
1.7130 1.2637 -0.5589
1.7954 1.1583 -0.4935
1.8374 1.0857 -0.4539
1.8434 1.0587 -0.4427
1.8484 1.0333 -0.4323
1.8265 1.0178 -0.4352
1.8083 1.0009 -0.4362
1.4846 1.0653 -0.5759
1.4583 1.0425 -0.5779
1.4154 1.0231 -0.5871
1.3484 1.0074 -0.6063
1.3433 0.9791 -0.5987
1.3016 0.9571 -0.6066
1.2726 0.9327 -0.6090
1.2638 0.9058 -0.6032
1.2463 0.8803 -0.6011
1.4616 0.8387 -0.5085
1.5409 0.8128 -0.4709
1.5176 0.7557 -0.4603
1.5243 0.7376 -0.4518
1.5357 0.7203 -0.4418
1.5361 0.7034 -0.4360
1.5146 0.6856 -0.4379
2.4753 2.3739 -0.6109
2.4468 2.3715 -0.6199
2.4172 2.3695 -0.6293
2.3972 2.3034 -0.6156
2.3769 2.2466 -0.6048
2.3654 1.8082 -0.4720
2.3523 1.7672 -0.4636
2.3371 1.7360 -0.4591
2.2642 1.7926 -0.5016
2.1797 1.6493 -0.4857
1.9972 1.7797 -0.5886
1.9359 1.8083 -0.6184
1.9191 1.7686 -0.6118
1.8801 1.6998 -0.6036
1.8522 1.6766 -0.6059
1.8178 1.6599 -0.6124
1.8085 1.6162 -0.6019
1.7672 1.6055 -0.6127
1.6385 1.4269 -0.6008
1.8061 1.1848 -0.4682
1.8117 1.1530 -0.4564
1.8255 1.0681 -0.4252
1.8399 1.0390 -0.4112
1.8111 1.0256 -0.4169
1.6518 1.0502 -0.4788
1.6115 1.0352 -0.4879
1.5622 1.0214 -0.5004
1.5587 0.9960 -0.4937
1.5717 0.9682 -0.4806
1.5750 0.9435 -0.4717
1.5649 0.9218 -0.4684
1.5652 0.8992 -0.4613
1.5342 0.8808 -0.4661
1.5362 0.7602 -0.4278
1.5193 0.7421 -0.4279
1.4960 0.7238 -0.4301
1.4881 0.7059 -0.4272
2.3964 2.4645 -0.6219
2.3769 2.3864 -0.6055
2.3487 2.3643 -0.6080
2.2677 2.2774 -0.6085
2.1574 1.6858 -0.4722
2.1437 1.6520 -0.4667
2.0895 1.6306 -0.4777
1.7819 1.7558 -0.6114
1.7832 1.6961 -0.5937
2.2293 1.0723 -0.2718
1.8274 1.0461 -0.3915
1.5499 0.9766 -0.4593
1.5694 0.9485 -0.4450
1.5748 0.9244 -0.4363
1.5631 0.9037 -0.4340
1.5447 0.8839 -0.4342
1.5379 0.8631 -0.4303
1.5327 0.8426 -0.4260
1.5364 0.8220 -0.4189
1.5273 0.8027 -0.4162
1.5457 0.7830 -0.4046
1.4986 0.7651 -0.4144
1.4901 0.7465 -0.4117
1.4146 0.7266 -0.4298
1.3387 0.7049 -0.4476
2.1891 2.4130 -0.6255
2.1680 2.3520 -0.6153
2.1094 2.2891 -0.6157
2.0997 2.2060 -0.5963
2.1256 1.6225 -0.4326
2.1021 1.6069 -0.4353
2.0476 1.6362 -0.4591
1.9677 1.6395 -0.4834
1.5361 0.8676 -0.4035
1.5298 0.8472 -0.3999
1.5179 0.8275 -0.3981
1.5046 0.7886 -0.3916
1.5111 0.7695 -0.3846
0.6891 0.7177 -0.6118
0.6684 0.6872 -0.6098
2.0791 2.4825 -0.6258
2.0418 2.3429 -0.6016
2.0047 2.3252 -0.6072
2.1967 1.6566 -0.3909
2.1748 1.6414 -0.3930
2.2227 0.8747 -0.1915
2.2178 0.8654 -0.1905
2.2398 0.8406 -0.1785
2.2359 0.8322 -0.1775
2.2309 0.8242 -0.1768
1.5223 0.8317 -0.3701
1.5292 0.8115 -0.3633
1.5206 0.7926 -0.3610
1.4844 0.7745 -0.3663
0.5536 0.7562 -0.6133
0.5017 0.7227 -0.6191
0.5513 0.6916 -0.5980
0.4809 0.6575 -0.6086
2.4438 1.5374 -0.2735
2.0487 2.6972 -0.6319
2.0135 2.6593 -0.6321
2.0093 2.5350 -0.6052
1.9577 2.5452 -0.6202
1.9560 2.4290 -0.5946
1.9046 2.4351 -0.6087
2.1975 1.6491 -0.3595
2.3698 0.9802 -0.1665
2.3657 0.9702 -0.1653
2.3625 0.9598 -0.1638
2.3407 0.9378 -0.1642
2.3293 0.9214 -0.1633
2.3232 0.9135 -0.1631
2.3163 0.9061 -0.1631
2.2604 0.8558 -0.1656
2.2427 0.8508 -0.1689
2.2409 0.8418 -0.1673
2.2381 0.8333 -0.1661
2.2355 0.8249 -0.1648
2.2240 0.8181 -0.1662
1.5031 0.8172 -0.3443
1.5030 0.7977 -0.3399
1.4856 0.7790 -0.3400
0.3493 0.7654 -0.6181
0.2906 0.7288 -0.6244
0.2192 0.6912 -0.6336
0.2222 0.6555 -0.6248
2.4888 1.4731 -0.2293
2.0284 2.7382 -0.5908
1.9779 2.7430 -0.6031
2.4031 1.0538 -0.1631
2.3980 1.0428 -0.1620
2.3943 1.0304 -0.1603
2.3903 1.0190 -0.1589
2.3829 1.0112 -0.1589
2.3784 1.0007 -0.1578
2.3741 0.9904 -0.1567
2.3684 0.9815 -0.1561
2.3651 0.9710 -0.1547
2.3596 0.9623 -0.1542
2.3526 0.9547 -0.1542
2.3431 0.9488 -0.1551
2.3403 0.9387 -0.1537
2.3316 0.9322 -0.1543
2.3203 0.9158 -0.1536
2.3152 0.9075 -0.1530
2.3082 0.9001 -0.1531
2.3004 0.8930 -0.1534
2.2755 0.8720 -0.1547
2.2685 0.8644 -0.1547
2.2573 0.8580 -0.1559
2.2395 0.8530 -0.1589
2.2388 0.8437 -0.1572
2.2449 0.8335 -0.1537
2.2380 0.8260 -0.1538
1.5129 0.8017 -0.3119
0.0658 0.7365 -0.6241
0.0860 0.6977 -0.6117
0.0062 0.6570 -0.6213
2.4845 1.4797 -0.2130
2.4314 1.2388 -0.1796
2.4195 1.1283 -0.1618
2.4124 1.0966 -0.1574
2.4085 1.0825 -0.1557
2.4036 1.0702 -0.1544
2.3977 1.0596 -0.1536
2.3847 1.0244 -0.1498
2.3794 1.0145 -0.1491
2.3770 1.0020 -0.1473
2.3705 0.9936 -0.1471
2.3648 0.9847 -0.1466
2.3599 0.9752 -0.1458
2.3536 0.9670 -0.1456
2.3473 0.9588 -0.1454
2.3427 0.9496 -0.1446
2.3323 0.9441 -0.1457
2.3304 0.9336 -0.1442
2.3234 0.9261 -0.1442
2.3164 0.9186 -0.1443
2.3085 0.9115 -0.1446
2.3005 0.9043 -0.1449
2.2954 0.8960 -0.1444
2.2855 0.8896 -0.1452
2.2774 0.8824 -0.1455
2.2734 0.8738 -0.1448
2.2623 0.8675 -0.1459
2.2520 0.8608 -0.1467
2.2438 0.8534 -0.1470
2.2476 0.8433 -0.1444
2.2427 0.8267 -0.1424
2.2370 0.8192 -0.1422
1.5079 0.8063 -0.2877
1.4907 0.7879 -0.2878
-0.2600 0.7454 -0.6352
-0.2280 0.7019 -0.6207
2.4918 1.5018 -0.1971
2.4169 1.1789 -0.1580
2.4120 1.1623 -0.1561
2.3667 1.0266 -0.1422
2.2276 0.8687 -0.1417
2.2339 0.8212 -0.1328
1.4836 0.8317 -0.2704
1.5327 0.7731 -0.2520
1.6552 0.7405 -0.2245
1.6890 0.7269 -0.2161
2.4678 1.5264 -0.1861
2.4291 1.5466 -0.1952
2.4086 1.5548 -0.1997
2.4319 1.2304 -0.1495
2.4165 1.2327 -0.1523
2.4092 0.9991 -0.1200
2.3960 0.9720 -0.1183
2.3721 0.9320 -0.1164
2.3667 0.9247 -0.1162
2.1538 0.8902 -0.1453
1.5382 0.8517 -0.2381
1.6725 0.7745 -0.2056
1.6877 0.7593 -0.2010
1.6902 0.7447 -0.1985
2.3565 1.5853 -0.1899
2.4406 1.2381 -0.1353
2.4172 1.0188 -0.1115
2.4118 1.0101 -0.1112
2.4086 0.9994 -0.1103
2.4049 0.9896 -0.1096
2.3956 0.9724 -0.1088
2.3899 0.9649 -0.1086
2.3843 0.9574 -0.1085
2.3804 0.9488 -0.1080
2.3749 0.9415 -0.1078
2.3694 0.9342 -0.1077
2.3586 0.9197 -0.1074
2.3506 0.9139 -0.1078
2.3443 0.9072 -0.1078
2.3336 0.8928 -0.1076
2.3254 0.8869 -0.1080
2.3151 0.8817 -0.1087
1.6812 0.8429 -0.1918
1.6942 0.8250 -0.1878
1.6901 0.8090 -0.1864
1.5864 0.7803 -0.1972
2.4383 1.2396 -0.1221
2.4358 1.0763 -0.1054
2.4300 1.0496 -0.1033
2.4237 1.0414 -0.1032
2.4174 1.0332 -0.1031
2.4139 1.0221 -0.1023
2.4105 1.0112 -0.1016
2.4053 1.0026 -0.1013
2.4015 0.9928 -0.1007
2.3957 0.9851 -0.1006
2.3880 0.9666 -0.0996
2.3832 0.9585 -0.0993
2.3785 0.9505 -0.0991
2.3730 0.9432 -0.0989
2.3621 0.9286 -0.0987
2.3559 0.9219 -0.0987
2.3496 0.9151 -0.0988
2.3424 0.9089 -0.0990
2.3361 0.9021 -0.0990
2.3308 0.8949 -0.0989
2.3235 0.8886 -0.0991
2.3173 0.8819 -0.0991
2.0005 0.9521 -0.1438
2.2566 0.8298 -0.1009
2.2513 0.8227 -0.1007
1.8305 0.8323 -0.1513
1.8067 0.8199 -0.1529
1.7528 0.8088 -0.1580
2.2208 3.2842 -0.3038
2.4450 1.1418 -0.0996
2.4397 1.1288 -0.0990
2.4347 1.1161 -0.0984
2.4325 1.0799 -0.0955
2.4295 1.0664 -0.0947
2.4210 1.0440 -0.0936
2.4167 1.0335 -0.0931
2.4119 1.0239 -0.0928
2.4086 1.0130 -0.0922
2.4040 1.0037 -0.0918
2.4003 0.9938 -0.0914
2.3952 0.9855 -0.0911
2.3910 0.9765 -0.0908
2.3862 0.9683 -0.0906
2.3805 0.9609 -0.0905
2.3758 0.9528 -0.0903
2.3703 0.9454 -0.0902
2.3648 0.9381 -0.0901
2.3576 0.9319 -0.0902
2.3522 0.9246 -0.0902
2.3459 0.9178 -0.0902
2.3396 0.9110 -0.0902
2.3342 0.9038 -0.0901
2.3270 0.8975 -0.0903
2.3217 0.8903 -0.0902
2.3144 0.8839 -0.0904
