ply
format ascii 1.0
element vertex 2128
property float x
property float y
property float z
end_header
4.2119 -3.8004 -0.1168
4.2112 -3.7814 -0.1200
4.1939 -3.7361 -0.1138
4.1906 -3.6777 -0.1227
4.1735 -3.6528 -0.1125
4.1781 -3.6348 -0.1202
4.1444 -3.5488 -0.1078
4.1425 -3.4887 -0.1182
4.1292 -3.4267 -0.1189
4.1077 -3.3656 -0.1122
4.1025 -3.3453 -0.1117
4.0857 -3.3063 -0.1046
4.0830 -3.2858 -0.1064
4.0835 -3.2643 -0.1111
4.0767 -3.2447 -0.1091
4.0732 -3.2242 -0.1101
4.0665 -3.2048 -0.1081
4.0678 -3.1597 -0.1183
4.0657 -3.1379 -0.1208
4.0515 -3.1228 -0.1113
4.0411 -3.1061 -0.1055
4.0383 -3.0851 -0.1072
4.0421 -3.0595 -0.1158
4.0312 -3.0439 -0.1092
4.0276 -3.0231 -0.1102
4.0283 -2.9988 -0.1157
4.0181 -2.9593 -0.1147
4.0180 -2.9350 -0.1195
4.0094 -2.9187 -0.1152
4.0064 -2.8969 -0.1169
3.9932 -2.8863 -0.1073
3.9950 -2.8593 -0.1144
3.9886 -2.8414 -0.1123
3.9856 -2.8196 -0.1141
3.9713 -2.7606 -0.1133
3.9663 -2.7414 -0.1128
3.9521 -2.6277 -0.1231
4.2778 -3.9452 -0.1191
4.2539 -3.8930 -0.1089
4.2484 -3.8712 -0.1085
4.2467 -3.8515 -0.1109
4.2479 -3.8332 -0.1154
4.2193 -3.7235 -0.1124
4.1964 -3.6369 -0.1098
4.1829 -3.6134 -0.1028
4.1838 -3.5937 -0.1074
4.1810 -3.5730 -0.1091
4.1827 -3.5528 -0.1144
4.1764 -3.5313 -0.1132
4.1648 -3.5093 -0.1077
4.1629 -3.4884 -0.1101
4.1481 -3.4668 -0.1017
4.1479 -3.4460 -0.1055
4.1451 -3.4250 -0.1072
4.1431 -3.4039 -0.1096
4.1403 -3.3827 -0.1113
4.1332 -3.3618 -0.1094
4.1370 -3.3395 -0.1169
4.1299 -3.3186 -0.1150
4.1221 -3.2981 -0.1123
4.1111 -3.2786 -0.1068
4.1051 -3.2581 -0.1056
4.1062 -3.2354 -0.1109
4.1040 -3.2135 -0.1133
4.1010 -3.1917 -0.1150
4.0981 -3.1698 -0.1167
4.0850 -3.1527 -0.1090
4.0913 -3.1261 -0.1194
4.0737 -3.1120 -0.1073
4.0708 -3.0903 -0.1090
4.0685 -3.0679 -0.1114
4.0603 -3.0494 -0.1080
4.0618 -3.0243 -0.1141
4.0602 -3.0009 -0.1173
4.0491 -2.9850 -0.1110
4.0496 -2.9598 -0.1163
4.0401 -2.9431 -0.1115
4.0384 -2.9195 -0.1146
4.0396 -2.8928 -0.1207
4.0301 -2.8766 -0.1158
4.0249 -2.8563 -0.1154
4.0204 -2.8352 -0.1156
4.0132 -2.8174 -0.1129
4.0067 -2.7990 -0.1110
4.0035 -2.7764 -0.1127
3.9977 -2.7572 -0.1115
3.9952 -2.7336 -0.1139
3.9920 -2.7108 -0.1156
3.9907 -2.6849 -0.1195
3.9849 -2.6657 -0.1183
3.9829 -2.6406 -0.1215
3.9771 -2.6215 -0.1203
3.9707 -2.6036 -0.1183
3.9662 -2.5825 -0.1186
4.3253 -4.0091 -0.1192
4.3165 -3.9839 -0.1167
4.3097 -3.9602 -0.1156
4.3009 -3.9353 -0.1131
4.2961 -3.9131 -0.1134
4.2894 -3.8897 -0.1123
4.2983 -3.8748 -0.1222
4.2799 -3.8452 -0.1128
4.2694 -3.8003 -0.1127
4.2694 -3.7802 -0.1164
4.2335 -3.7253 -0.0976
4.2485 -3.7108 -0.1123
4.2484 -3.6902 -0.1160
4.2454 -3.6684 -0.1177
4.2498 -3.6486 -0.1248
4.2240 -3.6208 -0.1092
4.2227 -3.5784 -0.1160
4.2149 -3.5341 -0.1179
4.2102 -3.5119 -0.1181
4.1837 -3.4005 -0.1174
4.1646 -3.3796 -0.1058
4.1520 -3.3366 -0.1035
4.1515 -3.3142 -0.1073
4.1550 -3.2906 -0.1145
4.1408 -3.2245 -0.1153
4.1314 -3.1804 -0.1158
4.1251 -3.1590 -0.1146
4.1188 -3.1378 -0.1135
4.1095 -3.1182 -0.1096
4.1094 -3.0939 -0.1140
4.1047 -3.0720 -0.1143
4.0968 -3.0271 -0.1162
4.0921 -3.0051 -0.1165
4.0874 -2.9831 -0.1167
4.0812 -2.9623 -0.1156
4.0838 -2.9342 -0.1228
4.0747 -2.9159 -0.1189
4.0657 -2.8978 -0.1149
4.0610 -2.8760 -0.1152
4.0591 -2.8512 -0.1183
4.0516 -2.8322 -0.1157
4.0483 -2.8088 -0.1174
4.0254 -2.7542 -0.1090
4.0195 -2.7344 -0.1079
4.0149 -2.7129 -0.1081
4.0175 -2.6809 -0.1161
4.0141 -2.6572 -0.1178
4.0094 -2.6353 -0.1180
4.0034 -2.6155 -0.1169
3.9988 -2.5936 -0.1171
3.9953 -2.5696 -0.1188
4.3359 -3.9514 -0.1104
4.3121 -3.9173 -0.0981
4.3172 -3.9002 -0.1050
4.3044 -3.8732 -0.0999
4.3074 -3.8546 -0.1055
4.3032 -3.7906 -0.1136
4.3002 -3.7683 -0.1152
4.2933 -3.7444 -0.1141
4.2837 -3.7196 -0.1111
4.2750 -3.6953 -0.1087
4.2716 -3.6513 -0.1139
4.2621 -3.6271 -0.1108
4.2340 -3.5121 -0.1095
4.2309 -3.4894 -0.1111
4.2141 -3.4435 -0.1063
4.2179 -3.4206 -0.1133
4.2044 -3.3982 -0.1069
4.2012 -3.3754 -0.1085
4.1831 -3.3312 -0.1023
4.1866 -3.3072 -0.1093
4.1834 -3.2841 -0.1109
4.1736 -3.2626 -0.1071
4.1720 -3.2390 -0.1101
4.1793 -3.2123 -0.1204
4.1655 -3.1924 -0.1133
4.1638 -3.1683 -0.1162
4.1478 -3.1502 -0.1071
4.1492 -3.1246 -0.1128
4.1490 -3.0994 -0.1170
4.1364 -3.0808 -0.1106
4.1253 -3.0618 -0.1055
4.1312 -3.0325 -0.1152
4.1218 -3.0128 -0.1114
4.1199 -2.9880 -0.1144
4.1166 -2.9640 -0.1160
4.1102 -2.9424 -0.1149
4.1053 -2.9196 -0.1152
4.1062 -2.8917 -0.1208
4.0941 -2.8754 -0.1143
4.0892 -2.8527 -0.1146
4.0815 -2.8329 -0.1122
4.0795 -2.8072 -0.1152
4.0732 -2.7861 -0.1141
4.0697 -2.7618 -0.1157
4.0649 -2.7391 -0.1160
4.0573 -2.7198 -0.1135
4.0497 -2.7007 -0.1111
4.0449 -2.6782 -0.1113
4.0427 -2.6519 -0.1143
4.0405 -2.6254 -0.1173
4.0330 -2.6067 -0.1148
4.0282 -2.5841 -0.1151
4.0208 -2.5657 -0.1127
4.0185 -2.5389 -0.1156
4.0136 -2.5162 -0.1159
4.3664 -3.9848 -0.0994
4.3820 -3.9311 -0.1199
4.3696 -3.8812 -0.1192
4.3556 -3.8526 -0.1138
4.3523 -3.8294 -0.1153
4.3423 -3.8031 -0.1124
4.3372 -3.7790 -0.1127
4.3406 -3.7582 -0.1187
4.3468 -3.7379 -0.1266
4.3245 -3.7078 -0.1155
4.3474 -3.6919 -0.1349
4.3179 -3.6605 -0.1186
4.3026 -3.6338 -0.1119
4.2908 -3.5625 -0.1153
4.2700 -3.4899 -0.1123
4.2569 -3.4658 -0.1068
4.2503 -3.4184 -0.1099
4.2530 -3.3942 -0.1160
4.2401 -3.3708 -0.1105
4.2393 -3.3466 -0.1140
4.2282 -3.3236 -0.1098
4.2290 -3.2988 -0.1145
4.2197 -3.2758 -0.1116
4.2163 -3.2516 -0.1132
4.2137 -3.2271 -0.1154
4.2102 -3.2027 -0.1169
4.1993 -3.1808 -0.1127
4.1983 -3.1554 -0.1162
4.1952 -3.1042 -0.1226
4.1845 -3.0829 -0.1183
4.1739 -3.0620 -0.1141
4.1672 -3.0391 -0.1131
4.1637 -3.0144 -0.1147
4.1467 -2.9718 -0.1094
4.1401 -2.9494 -0.1084
4.1434 -2.8913 -0.1206
4.1383 -2.8673 -0.1209
4.1317 -2.8447 -0.1199
4.1266 -2.8208 -0.1201
4.1258 -2.7926 -0.1243
4.1142 -2.7753 -0.1188
4.1012 -2.7309 -0.1167
4.0989 -2.7039 -0.1196
4.0862 -2.6896 -0.1127
4.0860 -2.6598 -0.1176
4.0711 -2.6191 -0.1136
4.0661 -2.5955 -0.1138
4.0579 -2.5454 -0.1163
4.0529 -2.5218 -0.1166
4.0446 -2.5036 -0.1136
4.3521 -3.8246 -0.0873
4.3625 -3.8072 -0.0973
4.3818 -3.7694 -0.1167
4.3602 -3.7385 -0.1067
4.3691 -3.7182 -0.1161
4.3476 -3.6883 -0.1060
4.3463 -3.6409 -0.1127
4.3336 -3.6143 -0.1081
4.3165 -3.5637 -0.1044
4.3015 -3.5140 -0.1020
4.2989 -3.4897 -0.1041
4.2901 -3.4406 -0.1059
4.2866 -3.4159 -0.1074
4.2735 -3.3917 -0.1022
4.2743 -3.3667 -0.1068
4.2880 -3.3397 -0.1206
4.2620 -3.3177 -0.1061
4.2644 -3.2916 -0.1119
4.2616 -3.2663 -0.1141
4.2462 -3.2439 -0.1070
4.2410 -3.2194 -0.1073
4.2415 -3.1929 -0.1119
4.2501 -3.1631 -0.1226
4.2349 -3.1417 -0.1155
4.2219 -3.0931 -0.1143
4.2110 -3.0711 -0.1102
4.1962 -3.0516 -0.1031
4.2004 -3.0218 -0.1108
4.2068 -2.9899 -0.1204
4.1806 -2.9787 -0.1040
4.1846 -2.9479 -0.1117
4.1778 -2.9244 -0.1107
4.1702 -2.9016 -0.1092
4.1672 -2.8753 -0.1113
4.1650 -2.8481 -0.1141
4.1656 -2.8180 -0.1193
4.1544 -2.7987 -0.1147
4.1513 -2.7718 -0.1168
4.1460 -2.7471 -0.1171
4.1385 -2.7247 -0.1155
4.1403 -2.6918 -0.1221
4.1314 -2.6711 -0.1192
4.1212 -2.6523 -0.1152
4.1146 -2.6295 -0.1142
4.1059 -2.6095 -0.1114
4.0993 -2.5870 -0.1104
4.0988 -2.5558 -0.1151
4.0888 -2.5382 -0.1110
4.0849 -2.5118 -0.1125
4.0810 -2.4852 -0.1141
4.0758 -2.4607 -0.1144
4.0737 -2.4306 -0.1178
4.4362 -3.8808 -0.1058
4.4434 -3.8605 -0.1137
4.4436 -3.8366 -0.1174
4.4068 -3.7978 -0.0991
4.4245 -3.7807 -0.1134
4.4160 -3.7535 -0.1120
4.4075 -3.7263 -0.1105
4.4124 -3.7032 -0.1173
4.4170 -3.6541 -0.1278
4.3982 -3.6245 -0.1199
4.3851 -3.5967 -0.1156
4.3430 -3.4127 -0.1160
4.3274 -3.3607 -0.1137
4.3192 -3.3349 -0.1122
4.3274 -3.3068 -0.1219
4.3080 -3.2829 -0.1128
4.3067 -3.2560 -0.1161
4.2924 -3.1768 -0.1188
4.2843 -3.1515 -0.1173
4.2746 -3.1270 -0.1147
4.2690 -3.1010 -0.1150
4.2594 -3.0769 -0.1123
4.2619 -3.0469 -0.1185
4.2587 -3.0195 -0.1206
4.2618 -2.9882 -0.1274
4.2412 -2.9710 -0.1165
4.2222 -2.8947 -0.1156
4.2288 -2.8592 -0.1254
4.2171 -2.8379 -0.1210
4.2198 -2.8046 -0.1278
4.2082 -2.7836 -0.1234
4.2006 -2.7275 -0.1270
4.1782 -2.7187 -0.1136
4.1763 -2.6890 -0.1169
4.1779 -2.6550 -0.1231
4.1745 -2.6263 -0.1252
4.1520 -2.5883 -0.1163
4.1341 -2.5462 -0.1109
4.1341 -2.5129 -0.1160
4.1144 -2.4749 -0.1088
4.1121 -2.4100 -0.1172
4.5352 -3.9723 -0.1239
4.5111 -3.8852 -0.1216
4.4992 -3.8547 -0.1186
4.4962 -3.8280 -0.1206
4.4756 -3.7948 -0.1126
4.4552 -3.7624 -0.1045
4.4609 -3.7389 -0.1115
4.4663 -3.6884 -0.1222
4.4348 -3.6546 -0.1075
4.4402 -3.6297 -0.1145
4.4231 -3.6002 -0.1081
4.4098 -3.5719 -0.1040
4.4170 -3.5465 -0.1121
4.4194 -3.5198 -0.1175
4.4080 -3.4919 -0.1144
4.3867 -3.4640 -0.1053
4.3769 -3.4100 -0.1070
4.3667 -3.3833 -0.1045
4.3513 -3.3573 -0.0987
4.3701 -3.3276 -0.1147
4.3442 -3.3034 -0.1021
4.3353 -3.2494 -0.1044
4.3245 -3.2239 -0.1014
4.3357 -3.1923 -0.1129
4.3206 -3.1681 -0.1071
4.3173 -3.1403 -0.1091
4.3066 -3.1153 -0.1060
4.3099 -3.0846 -0.1125
4.2958 -3.0316 -0.1115
4.2860 -3.0067 -0.1090
4.2779 -2.9812 -0.1076
4.2745 -2.9530 -0.1096
4.2711 -2.9245 -0.1116
4.2606 -2.9008 -0.1085
4.2572 -2.8723 -0.1105
4.2553 -2.8424 -0.1137
4.2457 -2.8185 -0.1112
4.2399 -2.7916 -0.1115
4.2342 -2.7647 -0.1118
4.2389 -2.7279 -0.1201
4.2308 -2.7028 -0.1187
4.2250 -2.6756 -0.1190
4.2133 -2.6548 -0.1148
4.2075 -2.6278 -0.1151
4.2017 -2.6008 -0.1154
4.1995 -2.5695 -0.1186
4.1859 -2.5522 -0.1126
4.1879 -2.5152 -0.1192
4.1689 -2.5063 -0.1087
4.1591 -2.4856 -0.1056
4.1554 -2.4561 -0.1076
4.1518 -2.4265 -0.1096
4.1515 -2.3914 -0.1145
4.1437 -2.3678 -0.1131
4.1512 -2.3187 -0.1249
4.6188 -4.0620 -0.1281
4.5991 -4.0251 -0.1216
4.5887 -3.9935 -0.1199
4.5723 -3.9593 -0.1150
4.5831 -3.9380 -0.1243
4.5698 -3.9053 -0.1209
4.5635 -3.8759 -0.1213
4.5513 -3.8443 -0.1184
4.5480 -3.8161 -0.1204
4.5251 -3.7812 -0.1117
4.5325 -3.7565 -0.1195
4.5388 -3.7308 -0.1267
4.5199 -3.6981 -0.1202
4.5070 -3.6673 -0.1168
4.4885 -3.6358 -0.1102
4.4795 -3.6067 -0.1090
4.4949 -3.5811 -0.1215
4.4821 -3.5511 -0.1182
4.4761 -3.4934 -0.1226
4.4634 -3.4640 -0.1192
4.4454 -3.4350 -0.1126
4.4483 -3.4060 -0.1183
4.4448 -3.3769 -0.1202
4.4216 -3.3494 -0.1104
4.4297 -3.3191 -0.1193
4.4120 -3.2919 -0.1127
4.4074 -3.2026 -0.1223
4.3450 -3.0087 -0.1123
4.3316 -2.9842 -0.1078
4.3183 -2.9603 -0.1033
4.3159 -2.8982 -0.1104
4.3146 -2.8666 -0.1140
4.3038 -2.8416 -0.1111
4.3000 -2.8116 -0.1130
4.2933 -2.7503 -0.1175
4.2940 -2.7156 -0.1227
4.2839 -2.6559 -0.1250
4.2829 -2.6217 -0.1291
4.2627 -2.6077 -0.1191
4.2537 -2.5824 -0.1173
4.2311 -2.5026 -0.1151
4.2272 -2.4715 -0.1170
4.2232 -2.4403 -0.1190
4.2150 -2.4149 -0.1177
4.2179 -2.3734 -0.1251
4.2097 -2.3478 -0.1238
4.2016 -2.3224 -0.1225
4.7115 -4.1344 -0.1358
4.7130 -4.1070 -0.1402
4.7144 -4.0792 -0.1446
4.6664 -4.0264 -0.1250
4.6597 -3.9951 -0.1253
4.6733 -3.9730 -0.1357
4.6071 -3.8603 -0.1138
4.6045 -3.8312 -0.1161
4.5712 -3.7354 -0.1102
4.5405 -3.6992 -0.0980
4.5217 -3.6668 -0.0918
4.5584 -3.6459 -0.1148
4.5217 -3.5817 -0.1029
4.4990 -3.4626 -0.1058
4.4897 -3.3724 -0.1124
4.4770 -3.3428 -0.1092
4.4668 -3.2825 -0.1115
4.4298 -3.1655 -0.1063
4.4174 -3.1377 -0.1031
4.4171 -3.1061 -0.1070
4.4048 -3.0787 -0.1037
4.4069 -3.0456 -0.1092
4.3838 -3.0236 -0.0993
4.3916 -2.9873 -0.1084
4.3959 -2.9519 -0.1154
4.3870 -2.9232 -0.1142
4.3725 -2.8982 -0.1094
4.3629 -2.8706 -0.1077
4.3542 -2.8426 -0.1065
4.3479 -2.8131 -0.1069
4.3471 -2.7794 -0.1108
4.3430 -2.7478 -0.1127
4.3289 -2.7246 -0.1079
4.3249 -2.6930 -0.1098
4.3292 -2.6535 -0.1173
4.3175 -2.6287 -0.1141
4.3186 -2.5912 -0.1196
4.3122 -2.5612 -0.1199
4.3006 -2.5369 -0.1167
4.2920 -2.5095 -0.1155
4.2878 -2.4771 -0.1174
4.2922 -2.4337 -0.1255
4.2750 -2.4174 -0.1181
4.2615 -2.3971 -0.1133
4.2551 -2.3675 -0.1136
4.2537 -2.3309 -0.1176
4.2473 -2.3011 -0.1180
4.2313 -2.2862 -0.1110
4.2298 -2.2492 -0.1150
4.2282 -2.2117 -0.1190
4.7633 -4.1565 -0.1238
4.7427 -4.1161 -0.1181
4.7450 -4.0883 -0.1227
4.6956 -4.0344 -0.1037
4.7093 -4.0123 -0.1135
4.7279 -3.9914 -0.1258
4.7077 -3.9528 -0.1200
4.6926 -3.9169 -0.1166
4.6977 -3.8889 -0.1227
4.6707 -3.8492 -0.1135
4.6757 -3.8208 -0.1196
4.5794 -3.7333 -0.0804
4.5622 -3.7004 -0.0755
4.6013 -3.6804 -0.0983
4.6376 -3.6260 -0.1238
4.6306 -3.5934 -0.1242
4.5972 -3.5578 -0.1112
4.5791 -3.5250 -0.1059
4.5804 -3.4622 -0.1143
4.5809 -3.4301 -0.1185
4.5740 -3.3979 -0.1189
4.5566 -3.3338 -0.1177
4.5569 -3.3007 -0.1219
4.5392 -3.2701 -0.1165
4.5359 -3.2374 -0.1188
4.5220 -3.2069 -0.1154
4.5221 -3.1731 -0.1196
4.5118 -3.1420 -0.1180
4.5118 -3.1078 -0.1223
4.4844 -3.0486 -0.1153
4.4742 -3.0183 -0.1137
4.4741 -2.9835 -0.1180
4.4739 -2.9483 -0.1222
4.4637 -2.9179 -0.1207
4.4569 -2.8859 -0.1210
4.4500 -2.8539 -0.1214
4.4432 -2.8219 -0.1218
4.4194 -2.7282 -0.1210
4.4094 -2.6989 -0.1194
4.3901 -2.6776 -0.1120
4.3989 -2.6325 -0.1221
4.3921 -2.6006 -0.1225
4.3883 -2.5657 -0.1248
4.3693 -2.5460 -0.1174
4.3685 -2.5081 -0.1217
4.3886 -2.4466 -0.1396
4.3756 -2.4206 -0.1361
4.3657 -2.3916 -0.1345
4.3442 -2.3773 -0.1251
4.3258 -2.3603 -0.1176
4.3162 -2.3326 -0.1161
4.3151 -2.2934 -0.1204
4.3056 -2.2659 -0.1188
4.2988 -2.2344 -0.1191
4.2383 -2.2063 -0.0912
4.8538 -4.1997 -0.1256
4.7474 -4.1116 -0.0842
4.7582 -4.0881 -0.0921
4.7823 -4.0704 -0.1059
4.7895 -4.0433 -0.1126
4.7767 -3.9442 -0.1178
4.6739 -3.6603 -0.1008
4.6794 -3.6290 -0.1070
4.6683 -3.5949 -0.1056
4.6578 -3.5282 -0.1082
4.6346 -3.4939 -0.1009
4.6275 -3.4607 -0.1013
4.6287 -3.4275 -0.1058
4.6253 -3.3940 -0.1080
4.6073 -3.3274 -0.1070
4.5920 -3.2951 -0.1033
4.5930 -3.2606 -0.1077
4.5521 -3.1655 -0.0989
4.5565 -3.1294 -0.1052
4.5572 -3.0937 -0.1097
4.5457 -3.0619 -0.1078
4.5283 -3.0327 -0.1027
4.5281 -2.9969 -0.1068
4.5142 -2.9668 -0.1035
4.5172 -2.9289 -0.1094
4.5101 -2.8957 -0.1098
4.4822 -2.8742 -0.0987
4.4893 -2.8332 -0.1069
4.4789 -2.8023 -0.1054
4.4719 -2.7693 -0.1058
4.4680 -2.7341 -0.1081
4.4642 -2.6598 -0.1148
4.4602 -2.6238 -0.1170
4.4530 -2.5903 -0.1174
4.4326 -2.5690 -0.1100
4.4186 -2.5427 -0.1062
4.4154 -2.5060 -0.1089
4.4144 -2.4667 -0.1130
4.4043 -2.4369 -0.1116
4.4032 -2.3970 -0.1156
4.3961 -2.3638 -0.1160
4.3927 -2.3260 -0.1187
4.3855 -2.2926 -0.1191
4.3747 -2.2641 -0.1172
4.3741 -2.2219 -0.1218
4.3605 -2.1976 -0.1180
4.3597 -2.1549 -0.1226
4.3498 -2.1257 -0.1211
4.3190 -2.1297 -0.1057
4.7828 -4.1233 -0.0626
4.7851 -4.0949 -0.0668
4.8502 -4.0964 -0.0961
4.9072 -4.0908 -0.1226
4.8993 -4.0538 -0.1230
4.8800 -4.0120 -0.1188
4.8721 -3.9753 -0.1192
4.8693 -3.9404 -0.1218
4.8786 -3.9093 -0.1294
4.8595 -3.8685 -0.1252
4.8406 -3.8282 -0.1210
4.8042 -3.6803 -0.1206
4.7915 -3.6429 -0.1189
4.7779 -3.6057 -0.1168
4.7759 -3.5699 -0.1198
4.7881 -3.5350 -0.1291
4.7308 -3.4956 -0.1074
4.7524 -3.4605 -0.1210
4.7446 -3.4240 -0.1215
4.7368 -3.3875 -0.1219
4.7142 -3.3521 -0.1155
4.7064 -3.3160 -0.1159
4.7078 -3.2788 -0.1206
4.6864 -3.2447 -0.1146
4.6878 -3.2070 -0.1193
4.6755 -3.1718 -0.1176
4.6723 -3.1346 -0.1202
4.6645 -3.0984 -0.1206
4.6480 -3.0651 -0.1168
4.6533 -3.0245 -0.1236
4.6369 -2.9916 -0.1198
4.6206 -2.9592 -0.1159
4.6129 -2.9234 -0.1163
4.6010 -2.8897 -0.1146
4.5891 -2.8563 -0.1128
4.5906 -2.7753 -0.1223
4.5911 -2.7340 -0.1270
4.5751 -2.7032 -0.1231
4.5674 -2.6671 -0.1236
4.5766 -2.6183 -0.1331
4.5728 -2.5785 -0.1357
4.5442 -2.5590 -0.1248
4.5246 -2.5333 -0.1188
4.5327 -2.4833 -0.1279
4.5374 -2.4352 -0.1352
4.5257 -2.4024 -0.1335
4.5056 -2.3787 -0.1270
4.4864 -2.3551 -0.1209
4.4750 -2.3237 -0.1191
4.4607 -2.2962 -0.1156
4.4747 -2.2345 -0.1287
4.4824 -2.1788 -0.1382
4.4746 -2.1422 -0.1387
4.4667 -2.1056 -0.1391
4.4474 -2.0853 -0.1325
4.4253 -2.0700 -0.1242
4.4078 -2.0494 -0.1185
4.3967 -2.0196 -0.1167
4.7667 -4.0787 -0.0237
4.8953 -4.0782 -0.0779
4.9826 -3.9382 -0.1289
4.8266 -3.4969 -0.1082
4.7734 -3.3460 -0.1012
4.7756 -3.3075 -0.1061
4.7730 -3.2690 -0.1089
4.7594 -3.2319 -0.1070
4.7413 -3.1960 -0.1030
4.7127 -3.0848 -0.1023
4.7091 -3.0461 -0.1048
4.7064 -3.0067 -0.1076
4.6887 -2.9728 -0.1036
4.6946 -2.9295 -0.1105
4.6473 -2.8283 -0.1010
4.6436 -2.7888 -0.1034
4.6356 -2.7516 -0.1038
4.6235 -2.7171 -0.1023
4.6197 -2.6773 -0.1047
4.6208 -2.6336 -0.1096
4.6086 -2.5992 -0.1080
4.5958 -2.5657 -0.1060
4.5878 -2.5285 -0.1065
4.6022 -2.4719 -0.1183
4.5940 -2.4339 -0.1187
4.5812 -2.4004 -0.1167
4.5731 -2.3627 -0.1172
4.5650 -2.3249 -0.1176
4.5484 -2.2962 -0.1136
4.5404 -2.2587 -0.1140
4.5324 -2.2212 -0.1145
4.5288 -2.1782 -0.1174
4.5245 -2.1359 -0.1199
4.5164 -2.0981 -0.1203
4.5046 -2.0653 -0.1187
4.4966 -2.0276 -0.1191
4.4885 -1.9900 -0.1196
4.4804 -1.9523 -0.1200
4.4681 -1.9213 -0.1180
5.1089 -4.2420 -0.1055
4.8005 -4.0587 -0.0028
4.8081 -4.0318 -0.0083
5.0304 -4.0226 -0.0958
5.0765 -4.0017 -0.1157
5.0819 -3.9646 -0.1214
5.0657 -3.9202 -0.1193
5.0161 -3.8668 -0.1051
4.7357 -3.7563 -0.0064
5.0297 -3.7522 -0.1213
5.0207 -3.7101 -0.1218
4.9979 -3.6660 -0.1171
4.9889 -3.6244 -0.1176
4.9868 -3.5834 -0.1207
4.9779 -3.5416 -0.1212
4.9429 -3.4987 -0.1116
4.8853 -3.4569 -0.0932
4.9196 -3.4166 -0.1104
4.9420 -3.3743 -0.1231
4.9330 -3.3325 -0.1236
4.9110 -3.2920 -0.1189
4.8845 -3.2529 -0.1123
4.8757 -3.2120 -0.1128
4.8725 -3.1700 -0.1155
4.8755 -3.1262 -0.1208
4.8666 -3.0848 -0.1213
4.8577 -3.0433 -0.1218
4.8435 -3.0036 -0.1200
4.8586 -2.9538 -0.1307
4.8406 -2.8698 -0.1317
4.8316 -2.8278 -0.1322
4.8286 -2.7828 -0.1353
4.8196 -2.7406 -0.1358
4.7756 -2.7180 -0.1208
4.7507 -2.6865 -0.1141
4.7311 -2.6528 -0.1097
4.7492 -2.5947 -0.1223
4.7569 -2.5419 -0.1303
4.7316 -2.5125 -0.1232
4.7121 -2.4798 -0.1188
4.6986 -2.4430 -0.1170
4.6842 -2.4073 -0.1148
4.7123 -2.3337 -0.1328
4.6931 -2.3018 -0.1283
4.6787 -2.2660 -0.1261
4.6551 -2.2402 -0.1194
4.6464 -2.1996 -0.1198
4.6477 -2.1479 -0.1253
4.6489 -2.0954 -0.1307
4.6302 -2.0660 -0.1262
4.6259 -2.0194 -0.1290
4.6223 -1.9716 -0.1322
4.6135 -1.9303 -0.1327
4.6046 -1.8890 -0.1332
4.5907 -1.8551 -0.1310
4.5869 -1.8064 -0.1341
4.5637 -1.7872 -0.1269
5.3103 -4.2912 -0.1284
4.7868 -3.9856 0.0321
4.7660 -3.9468 0.0362
4.8050 -3.9310 0.0208
4.9920 -3.9285 -0.0465
5.0916 -3.9216 -0.0828
5.0968 -3.8832 -0.0881
5.0026 -3.7805 -0.0634
5.0985 -3.7607 -0.0995
5.0891 -3.7172 -0.1000
5.0440 -3.6683 -0.0882
5.0349 -3.6257 -0.0887
5.0326 -3.5838 -0.0916
5.0098 -3.5401 -0.0873
5.0075 -3.4979 -0.0902
4.9270 -3.4545 -0.0652
5.0381 -3.4119 -0.1088
5.0287 -3.3680 -0.1093
4.9985 -3.3255 -0.1022
4.9816 -3.2829 -0.0999
4.9864 -3.2379 -0.1056
4.9836 -3.1933 -0.1086
4.9539 -3.1534 -0.1015
4.9382 -3.1117 -0.0995
4.9290 -3.0688 -0.1001
4.9334 -3.0219 -0.1058
4.9169 -2.9808 -0.1035
4.8830 -2.8539 -0.1026
4.8706 -2.7650 -0.1060
4.8617 -2.6244 -0.1153
4.8404 -2.5881 -0.1109
4.8311 -2.5447 -0.1114
4.8335 -2.4931 -0.1168
4.8242 -2.4493 -0.1173
4.8032 -2.4146 -0.1129
4.7633 -2.2953 -0.1091
4.7428 -2.2628 -0.1047
4.7226 -2.2312 -0.1002
4.7356 -2.1664 -0.1107
4.7382 -2.1109 -0.1165
4.7343 -2.0615 -0.1195
4.7250 -2.0179 -0.1200
4.7210 -1.9680 -0.1230
4.7063 -1.9308 -0.1210
4.6857 -1.9018 -0.1162
4.6824 -1.8506 -0.1196
4.6783 -1.8001 -0.1226
4.6638 -1.7639 -0.1206
4.6487 -1.7291 -0.1182
4.6343 -1.6937 -0.1162
4.6201 -1.6587 -0.1142
5.4693 -4.4007 -0.1216
5.4694 -4.3559 -0.1253
5.4180 -4.2879 -0.1141
5.3489 -4.2144 -0.0974
4.8586 -3.9450 0.0413
4.8667 -3.9151 0.0362
4.8799 -3.8861 0.0295
4.9053 -3.8596 0.0190
4.9200 -3.8286 0.0116
4.8893 -3.7852 0.0181
4.9689 -3.7676 -0.0095
5.0648 -3.7079 -0.0458
5.0076 -3.6583 -0.0311
4.9659 -3.6131 -0.0211
4.9454 -3.5716 -0.0178
4.9122 -3.5300 -0.0104
4.8862 -3.4900 -0.0051
5.2018 -3.4060 -0.1155
5.2184 -3.3565 -0.1250
5.1898 -3.3089 -0.1195
5.1888 -3.2594 -0.1233
5.1690 -3.2119 -0.1207
5.1586 -3.1634 -0.1212
5.1575 -3.1130 -0.1250
5.1295 -3.0682 -0.1195
5.1191 -3.0200 -0.1201
5.1006 -2.9741 -0.1177
5.0984 -2.9235 -0.1212
5.0962 -2.8724 -0.1247
5.0778 -2.8270 -0.1223
5.0674 -2.7787 -0.1229
5.0739 -2.7229 -0.1296
5.0713 -2.6702 -0.1331
5.0608 -2.6212 -0.1337
5.0425 -2.5765 -0.1313
5.0321 -2.5278 -0.1319
5.0131 -2.4843 -0.1292
4.9874 -2.4460 -0.1240
4.9847 -2.3926 -0.1274
4.9743 -2.3444 -0.1280
4.9798 -2.2839 -0.1348
4.9768 -2.2291 -0.1383
4.9589 -2.1863 -0.1359
4.9558 -2.1310 -0.1394
4.9453 -2.0820 -0.1400
4.9123 -2.0549 -0.1314
4.9020 -2.0066 -0.1320
4.8916 -1.9583 -0.1325
4.8962 -1.8937 -0.1394
4.8779 -1.8538 -0.1366
4.8676 -1.8053 -0.1372
4.8572 -1.7568 -0.1378
4.8468 -1.7083 -0.1384
4.8439 -1.6498 -0.1422
4.8402 -1.5918 -0.1458
4.8297 -1.5428 -0.1463
4.7786 -1.5532 -0.1287
4.6732 -1.6497 -0.0862
4.6369 -1.6477 -0.0745
5.5374 -4.4691 -0.0835
5.5941 -4.4508 -0.1018
5.5948 -4.4037 -0.1055
5.5263 -4.3259 -0.0910
5.4724 -4.2567 -0.0802
5.4008 -4.1827 -0.0644
5.0985 -4.0269 0.0138
4.9789 -3.9477 0.0435
4.9465 -3.9016 0.0496
4.9217 -3.8589 0.0538
4.8960 -3.8167 0.0583
4.8665 -3.7745 0.0639
4.8915 -3.7454 0.0542
4.9295 -3.7172 0.0408
4.9750 -3.6878 0.0250
4.9927 -3.6517 0.0170
5.0371 -3.6173 0.0012
5.3292 -3.4517 -0.0984
5.2793 -3.4013 -0.0873
5.2502 -3.3522 -0.0824
5.2771 -3.2997 -0.0943
5.3054 -3.2450 -0.1069
5.3039 -3.1920 -0.1105
5.2833 -3.1415 -0.1081
5.2619 -3.0918 -0.1055
5.2508 -3.0404 -0.1061
5.2213 -2.9938 -0.1009
5.1668 -2.7394 -0.1038
5.1559 -2.6885 -0.1044
5.1538 -2.6334 -0.1080
5.0819 -2.3889 -0.1051
5.0966 -2.3206 -0.1146
5.0518 -2.2939 -0.1033
5.0578 -2.2307 -0.1098
5.0385 -2.1865 -0.1074
5.0360 -2.1289 -0.1110
5.0168 -2.0853 -0.1086
5.0142 -2.0272 -0.1122
4.9952 -1.9841 -0.1098
4.9924 -1.9254 -0.1134
4.9974 -1.8578 -0.1200
4.9785 -1.8151 -0.1176
4.9675 -1.7639 -0.1182
4.9487 -1.7220 -0.1158
4.9301 -1.6805 -0.1134
4.9193 -1.6299 -0.1140
4.9160 -1.5693 -0.1176
4.9051 -1.5185 -0.1182
4.8942 -1.4676 -0.1188
4.8326 -1.4903 -0.0987
5.6087 -4.4941 -0.0469
5.6579 -4.4706 -0.0617
5.6584 -4.4223 -0.0652
5.6218 -4.3574 -0.0599
5.6104 -4.3039 -0.0605
5.4141 -4.1792 -0.0165
5.4432 -4.1448 -0.0267
5.4028 -4.0849 -0.0200
5.3436 -4.0206 -0.0086
4.9009 -3.8128 0.0958
4.9097 -3.7800 0.0912
4.9306 -3.7491 0.0835
4.9883 -3.7237 0.0662
5.0257 -3.6916 0.0539
5.0363 -3.6534 0.0485
5.1133 -3.6216 0.0256
5.5197 -3.6140 -0.0840
5.6327 -3.5665 -0.1176
5.6609 -3.5094 -0.1291
5.6481 -3.4498 -0.1298
5.6354 -3.3902 -0.1305
5.6089 -3.3314 -0.1275
5.5963 -3.2722 -0.1282
5.5450 -3.2171 -0.1183
5.5450 -3.1573 -0.1224
5.5458 -3.0967 -0.1268
5.5332 -3.0379 -0.1275
5.5075 -2.9820 -0.1245
5.4828 -2.9267 -0.1217
5.4583 -2.8721 -0.1189
5.4339 -2.8181 -0.1161
5.4454 -2.7524 -0.1237
5.4576 -2.6849 -0.1317
5.4567 -2.6212 -0.1359
5.4441 -2.5620 -0.1366
5.3956 -2.5200 -0.1265
5.3832 -2.4619 -0.1272
5.3946 -2.3907 -0.1351
5.3819 -2.3319 -0.1358
5.3458 -2.2876 -0.1292
5.3222 -2.2369 -0.1264
5.3441 -2.1554 -0.1379
5.3085 -2.1134 -0.1313
5.2961 -2.0553 -0.1319
5.2836 -1.9972 -0.1326
5.2820 -1.9300 -0.1368
5.2695 -1.8715 -0.1375
5.2570 -1.8131 -0.1382
5.2444 -1.7546 -0.1389
5.2319 -1.6962 -0.1396
5.2307 -1.6260 -0.1441
5.2181 -1.5671 -0.1448
5.1737 -1.5441 -0.1345
5.1511 -1.4983 -0.1316
5.1192 -1.4646 -0.1254
5.0783 -1.4440 -0.1159
5.1142 -1.3261 -0.1336
5.1317 -1.2286 -0.1451
5.1192 -1.1701 -0.1458
5.0675 -1.1681 -0.1321
4.9409 -1.2811 -0.0903
5.7753 -4.5656 -0.0272
5.7117 -4.4358 -0.0202
5.7666 -4.4092 -0.0350
5.4461 -4.0915 0.0217
5.4259 -4.0387 0.0232
5.3465 -3.9695 0.0378
5.0337 -3.7661 0.0998
5.0519 -3.7308 0.0932
5.0431 -3.6897 0.0928
5.0476 -3.6505 0.0892
5.6095 -3.5601 -0.0509
5.7632 -3.5079 -0.0910
5.6446 -2.8851 -0.1019
5.6032 -2.8309 -0.0954
5.5631 -2.7780 -0.0891
5.5639 -2.7124 -0.0934
5.5508 -2.6513 -0.0942
5.5505 -2.5849 -0.0983
5.5790 -2.5048 -0.1101
5.5656 -2.3724 -0.1153
5.5662 -2.3014 -0.1199
5.5385 -2.2460 -0.1167
5.4977 -2.1997 -0.1099
5.4460 -2.1624 -0.0999
5.4329 -2.1012 -0.1006
5.4319 -2.0314 -0.1048
5.3738 -1.3340 -0.1348
5.3482 -1.2839 -0.1319
5.2737 -1.2934 -0.1135
5.1837 -1.3277 -0.0898
5.2458 -1.0934 -0.1194
5.1988 -1.0781 -0.1091
5.1751 -1.0326 -0.1063
5.7385 -4.4870 0.0346
5.7267 -4.4319 0.0340
6.1543 -4.5022 -0.0521
5.9996 -4.3829 -0.0263
5.5701 -4.1730 0.0522
5.4501 -4.0848 0.0725
5.4394 -4.0353 0.0719
5.3414 -3.9610 0.0883
4.9613 -3.8180 0.1602
5.0122 -3.7565 0.1460
5.0360 -3.7229 0.1391
5.0616 -3.6880 0.1317
5.0455 -3.6458 0.1327
5.0859 -3.6100 0.1221
5.1278 -3.5717 0.1111
6.1315 -3.4422 -0.1076
6.1161 -3.3704 -0.1084
6.0809 -3.2996 -0.1051
6.0656 -3.2283 -0.1059
6.1511 -3.1460 -0.1286
6.1780 -3.0660 -0.1388
6.0991 -3.0012 -0.1259
6.0631 -2.9317 -0.1222
6.0284 -2.8631 -0.1188
5.9018 -2.8192 -0.0947
5.7691 -2.7838 -0.0687
5.8061 -2.6294 -0.0853
5.8082 -2.5554 -0.0900
5.8102 -2.4803 -0.0947
5.8467 -2.3888 -0.1075
5.9043 -2.2839 -0.1256
5.9258 -2.1926 -0.1354
5.8912 -2.1293 -0.1317
5.8756 -2.0564 -0.1325
5.7891 -2.0269 -0.1160
5.7564 -1.9675 -0.1125
5.8112 -1.8495 -0.1308
5.8130 -1.7646 -0.1360
5.8155 -1.6779 -0.1414
5.7818 -1.6187 -0.1377
5.7491 -1.5599 -0.1342
5.7336 -1.4875 -0.1350
5.7525 -1.3839 -0.1449
5.7367 -1.3104 -0.1457
5.7383 -1.2197 -0.1512
5.7224 -1.1456 -0.1521
5.7245 -1.0524 -0.1578
5.7085 -0.9777 -0.1587
5.6748 -0.9234 -0.1547
5.5162 -1.0197 -0.1158
5.3011 -1.1982 -0.0604
5.1286 -1.1176 -0.0287
5.1368 -1.0294 -0.0354
5.6639 -4.4417 0.1029
5.7028 -4.4109 0.0943
5.7566 -4.3841 0.0831
5.7733 -4.2878 0.0752
5.4633 -4.1271 0.1235
5.3931 -4.0583 0.1329
5.3181 -3.9910 0.1431
5.2395 -3.9257 0.1541
5.0357 -3.7563 0.1827
5.0607 -3.7226 0.1764
5.0593 -3.6830 0.1746
5.1192 -3.6093 0.1600
5.1100 -3.5663 0.1595
5.1233 -3.5245 0.1549
5.8055 -3.2465 0.0164
5.8066 -3.1812 0.0128
6.3422 -2.9586 -0.0962
6.2545 -2.8928 -0.0835
6.3081 -2.7991 -0.0981
6.1991 -2.7429 -0.0810
6.0362 -2.7077 -0.0531
6.0810 -2.6156 -0.0660
6.0490 -2.4662 -0.0677
5.9931 -2.4079 -0.0605
6.1211 -2.2706 -0.0908
5.9809 -2.2518 -0.0662
5.9850 -2.1675 -0.0712
6.1145 -2.0138 -0.1027
6.0976 -1.9347 -0.1036
6.1708 -1.8006 -0.1238
6.1533 -1.7187 -0.1248
6.1824 -1.6051 -0.1358
6.1182 -1.5551 -0.1267
6.1007 -1.4733 -0.1276
6.1064 -1.3730 -0.1338
6.1350 -1.2522 -0.1451
6.0932 -1.1888 -0.1407
6.1464 -1.0414 -0.1579
6.1280 -0.9559 -0.1589
6.0180 -0.9602 -0.1386
5.9779 -0.9005 -0.1344
6.0040 -0.7724 -0.1456
6.0090 -0.6640 -0.1521
5.8840 -0.7023 -0.1273
5.8072 -0.6924 -0.1138
5.3781 -0.8709 -0.0265
7.4259 -5.4068 -0.0718
7.1836 -5.2063 -0.0433
5.6784 -4.4380 0.1549
5.7176 -4.4071 0.1475
4.9805 -3.9862 0.2425
5.0143 -3.9639 0.2363
5.1145 -3.5627 0.2028
5.1053 -3.5200 0.2023
5.1483 -3.4785 0.1938
6.4495 -3.3518 -0.0131
6.6756 -3.2583 -0.0522
6.0287 -3.2247 0.0463
6.7702 -2.9782 -0.0794
6.8146 -2.8770 -0.0909
6.5083 -2.7530 -0.0491
6.2487 -2.6474 -0.0137
6.1872 -2.5832 -0.0070
6.4631 -2.4044 -0.0577
6.5850 -2.2657 -0.0828
6.4265 -2.2332 -0.0597
6.4620 -2.1239 -0.0701
6.7443 -1.8939 -0.1241
6.6916 -1.8142 -0.1196
6.7369 -1.6836 -0.1324
6.7161 -1.5866 -0.1336
6.6620 -1.5098 -0.1286
6.4690 -1.4206 -0.1028
6.4211 -1.3494 -0.0986
6.4018 -1.2589 -0.0997
6.4686 -1.1008 -0.1171
6.4192 -1.0317 -0.1126
6.5815 -0.7830 -0.1488
6.5605 -0.6850 -0.1500
6.5081 -0.6163 -0.1450
4.8861 -4.0080 0.2929
4.8578 -3.8091 0.2888
4.8407 -3.7725 0.2895
4.7662 -3.6926 0.2959
4.7422 -3.6571 0.2975
4.7438 -3.6264 0.2961
4.7538 -3.5963 0.2937
5.0808 -3.5152 0.2489
5.1450 -3.4750 0.2392
5.1673 -3.4311 0.2346
6.5585 -3.2604 0.0509
5.9218 -3.2306 0.1308
6.8268 -2.9674 0.0053
7.3294 -2.7876 -0.0657
6.9558 -2.7514 -0.0196
6.4778 -2.7592 0.0416
6.2026 -2.6613 0.0728
6.0806 -2.6182 0.0866
6.1059 -2.5304 0.0800
6.4682 -2.3128 0.0254
6.4225 -2.2384 0.0283
6.7911 -1.9832 -0.0286
6.9474 -1.8036 -0.0555
6.9507 -1.2261 -0.0785
6.7474 -1.2434 -0.0519
6.8677 -1.0441 -0.0750
6.9604 -0.8551 -0.0942
6.5663 -0.5801 -0.0548
6.5776 -0.4508 -0.0612
6.5243 -0.3840 -0.0571
6.4413 -0.3508 -0.0478
5.2787 -4.3149 0.2980
4.9083 -4.0419 0.3261
4.9214 -4.0162 0.3239
4.9196 -3.9839 0.3230
4.8764 -3.9364 0.3258
4.9018 -3.8814 0.3214
4.8573 -3.8041 0.3233
4.8446 -3.7688 0.3234
4.8373 -3.7349 0.3230
4.8204 -3.6992 0.3235
4.7906 -3.6617 0.3253
4.7569 -3.6247 0.3274
4.7807 -3.5962 0.3241
4.8253 -3.5681 0.3187
4.9983 -3.5079 0.2993
5.0355 -3.4695 0.2943
5.1032 -3.4284 0.2861
5.1464 -3.3842 0.2803
6.0472 -3.2167 0.1843
5.8279 -3.1713 0.2049
6.5362 -2.9199 0.1254
6.3658 -2.8670 0.1407
6.3252 -2.7933 0.1424
6.2624 -2.7266 0.1465
6.2459 -2.6495 0.1455
6.1210 -2.6066 0.1566
6.0253 -2.5601 0.1647
6.9293 -2.1418 0.0601
6.9083 -2.0438 0.0589
6.9590 -1.9142 0.0495
7.1730 -1.7032 0.0210
5.2748 -4.3417 0.3415
5.2577 -4.2961 0.3415
4.9295 -4.0756 0.3596
4.9016 -4.0328 0.3605
4.9365 -4.0160 0.3575
4.9834 -4.0020 0.3536
4.7308 -3.7945 0.3665
4.7166 -3.7620 0.3667
4.7331 -3.7373 0.3648
4.8182 -3.7264 0.3582
4.8252 -3.6960 0.3568
4.7770 -3.6555 0.3593
4.7572 -3.6212 0.3598
4.8964 -3.5715 0.3482
4.9446 -3.5394 0.3437
4.9776 -3.5037 0.3403
4.9881 -3.4655 0.3385
5.0650 -3.4258 0.3317
5.2576 -3.3777 0.3161
5.8299 -3.1686 0.2681
6.3264 -3.0331 0.2277
6.2869 -2.9605 0.2286
6.2487 -2.8890 0.2295
6.3000 -2.7984 0.2232
6.3062 -2.7154 0.2204
6.1787 -2.6693 0.2286
6.2056 -2.5811 0.2242
6.0072 -2.5682 0.2385
6.9204 -2.1484 0.1595
7.1236 -1.9602 0.1393
7.0244 -1.8906 0.1447
6.9290 -1.8240 0.1499
6.8576 -1.3066 0.1409
6.8726 -1.1822 0.1363
6.9242 -1.0296 0.1283
6.5462 -0.4018 0.1389
6.4938 -0.3373 0.1410
4.9887 -1.2634 0.2777
5.2714 -4.3681 0.3837
5.3190 -4.3553 0.3812
4.8983 -4.0554 0.3947
4.8716 -4.0141 0.3950
4.6956 -3.7800 0.3983
4.6860 -3.7497 0.3981
4.6874 -3.7223 0.3974
4.7196 -3.7010 0.3954
4.7415 -3.6759 0.3938
4.7357 -3.6147 0.3927
4.8516 -3.5977 0.3868
4.8902 -3.5675 0.3843
4.9038 -3.5333 0.3829
4.9416 -3.4991 0.3804
4.9862 -3.4626 0.3774
5.0689 -3.4230 0.3726
6.6262 -3.2430 0.2944
5.9253 -3.2212 0.3273
5.8788 -3.1605 0.3282
6.2141 -3.0469 0.3097
6.3077 -2.9552 0.3032
6.3145 -2.8747 0.3011
6.2751 -2.8034 0.3014
6.2817 -2.7217 0.2993
6.2209 -2.6579 0.3008
6.1831 -2.5894 0.3011
6.2161 -2.4156 0.2957
6.7901 -2.0997 0.2614
7.0137 -1.9002 0.2463
6.9923 -1.8001 0.2452
6.7956 -1.7875 0.2543
7.1856 -1.4743 0.2288
7.0813 -1.4132 0.2324
7.0989 -1.2848 0.2288
7.1169 -1.1535 0.2250
6.9003 -1.1751 0.2358
6.8786 -1.0739 0.2346
6.7862 -1.0244 0.2379
6.7650 -0.9254 0.2368
6.8135 -0.7703 0.2311
6.7563 -0.6989 0.2322
6.6351 -0.6861 0.2377
6.5204 -0.6746 0.2429
6.6257 -0.4614 0.2332
6.6376 -0.3309 0.2298
6.5837 -0.2653 0.2309
6.4995 -0.2346 0.2343
6.4196 -0.2041 0.2374
6.4289 -0.0762 0.2341
6.4085 0.0188 0.2330
6.3308 0.0437 0.2362
6.3389 0.1724 0.2330
6.1836 0.0895 0.2422
4.9653 -1.3788 0.3326
5.4169 -4.4347 0.4223
4.9051 -4.0819 0.4278
4.9027 -4.0511 0.4273
4.6890 -3.7738 0.4274
4.6828 -3.7448 0.4271
4.6844 -3.7176 0.4266
4.6969 -3.6923 0.4259
4.7015 -3.6647 0.4254
4.6875 -3.6334 0.4252
4.7203 -3.6091 0.4240
4.8610 -3.5953 0.4207
4.9053 -3.5655 0.4193
4.9416 -3.5326 0.4179
5.0115 -3.4988 0.4158
5.0752 -3.4610 0.4138
6.1098 -3.4087 0.3902
6.5675 -3.2424 0.3774
5.9098 -3.2197 0.3915
5.7869 -3.1689 0.3933
6.4154 -3.0156 0.3770
6.3518 -2.9459 0.3773
6.2899 -2.8785 0.3775
6.2737 -2.8032 0.3766
6.2796 -2.7222 0.3752
6.2196 -2.6588 0.3754
6.0412 -2.6352 0.3790
6.0262 -2.5650 0.3781
6.3055 -2.3847 0.3690
6.8623 -1.9709 0.3500
7.3039 -1.6606 0.3352
6.9930 -1.4716 0.3389
7.0825 -1.0659 0.3302
6.9063 -1.0668 0.3341
7.1185 -0.7952 0.3250
7.5629 -0.3301 0.3075
6.5771 -0.6400 0.3343
6.6525 -0.4545 0.3296
6.5669 -0.4199 0.3309
6.5784 -0.2912 0.3285
6.5576 -0.1941 0.3274
6.4752 -0.1646 0.3287
6.4549 -0.0696 0.3276
6.4050 -0.0092 0.3277
6.4141 0.1206 0.3254
6.4229 0.2523 0.3230
5.5058 -4.5116 0.4669
5.5665 -4.5021 0.4670
4.8752 -4.0621 0.4598
4.7388 -3.7834 0.4563
4.7245 -3.7513 0.4559
4.7069 -3.7189 0.4554
4.7006 -3.6893 0.4551
4.6942 -3.6597 0.4547
4.6879 -3.6301 0.4544
4.7747 -3.6133 0.4545
4.8704 -3.5929 0.4546
4.9205 -3.5635 0.4544
4.9355 -3.5290 0.4541
6.7461 -3.3118 0.4578
6.6987 -3.2297 0.4568
5.8781 -3.2197 0.4539
5.9468 -3.1477 0.4533
6.4614 -3.0065 0.4535
6.5206 -2.9150 0.4527
6.6094 -2.8133 0.4519
6.2720 -2.8030 0.4506
6.1299 -2.7606 0.4497
6.1347 -2.6836 0.4488
6.0604 -2.6303 0.4480
6.1247 -2.5328 0.4471
6.1920 -2.4295 0.4462
6.1544 -2.3635 0.4454
7.0207 -1.4645 0.4384
7.2408 -1.2203 0.4364
7.0149 -1.2386 0.4358
7.1114 -1.0585 0.4342
6.8616 -1.1096 0.4339
6.7713 -1.0606 0.4331
7.4929 -0.4001 0.4282
6.7979 -0.8124 0.4304
6.6122 -0.8497 0.4302
6.7130 -0.4161 0.4257
6.6583 -0.3496 0.4248
6.5726 -0.3171 0.4242
6.6493 -0.1189 0.4222
6.4809 -0.0629 0.4211
6.4605 0.0322 0.4199
6.4198 0.2223 0.4177
5.5997 -4.5934 0.5146
5.7522 -4.4944 0.5184
4.7260 -3.8032 0.4853
4.7129 -3.7719 0.4848
4.7100 -3.7436 0.4845
4.7037 -3.7142 0.4842
4.7008 -3.6856 0.4839
4.6945 -3.6562 0.4836
4.6882 -3.6268 0.4833
4.8331 -3.6177 0.4873
4.8645 -3.5888 0.4880
5.9792 -3.5275 0.5193
5.9325 -3.4644 0.5176
5.9855 -3.4015 0.5188
6.5001 -3.3167 0.5329
6.5586 -3.2346 0.5341
5.9120 -3.2138 0.5156
5.8661 -3.1549 0.5140
6.2957 -3.0283 0.5254
6.4175 -2.9310 0.5283
6.5253 -2.8289 0.5308
6.2485 -2.8078 0.5228
6.1301 -2.7606 0.5192
6.2382 -2.6547 0.5217
6.2012 -2.5872 0.5202
6.2284 -2.4990 0.5205
6.3971 -2.3555 0.5245
6.1964 -2.3496 0.5188
7.0483 -1.4574 0.5378
6.9886 -1.3786 0.5357
6.9671 -1.2785 0.5345
6.9833 -1.1538 0.5343
6.9616 -1.0526 0.5331
6.8322 -1.0290 0.5293
6.9182 -0.8502 0.5307
6.8250 -0.8054 0.5278
7.0671 -0.4893 0.5329
6.7826 -0.6073 0.5255
6.8315 -0.4454 0.5259
6.7061 -0.4408 0.5224
6.5271 -0.4959 0.5176
6.7311 -0.1773 0.5216
6.5783 -0.2144 0.5174
6.4968 -0.1843 0.5150
6.4766 -0.0901 0.5139
6.4865 0.0388 0.5134
6.4363 0.0981 0.5116
6.4457 0.2290 0.5112
6.3387 0.2130 0.5082
4.7225 -3.7978 0.5136
4.7163 -3.7687 0.5133
4.7100 -3.7395 0.5129
4.7152 -3.7130 0.5132
4.7134 -3.6845 0.5131
4.7026 -3.6542 0.5125
4.9122 -3.6246 0.5236
4.9103 -3.5903 0.5235
4.9237 -3.5571 0.5242
5.8757 -3.3382 0.5745
5.8936 -3.2754 0.5754
5.7206 -3.2289 0.5663
5.7641 -3.1648 0.5685
5.7944 -3.0997 0.5701
6.0231 -2.9978 0.5822
6.3516 -2.8626 0.5995
6.1536 -2.6794 0.5890
6.1798 -2.5951 0.5903
6.1844 -2.5158 0.5905
6.4949 -2.3217 0.6069
6.4266 -2.2602 0.6033
7.0007 -1.4920 0.6334
7.0927 -1.3266 0.6382
7.1099 -1.2001 0.6390
6.9730 -1.1713 0.6318
6.8800 -1.1202 0.6268
6.8733 -0.8975 0.6264
6.8170 -0.8261 0.6233
6.7960 -0.7280 0.6222
6.8443 -0.5707 0.6247
7.0505 -0.2679 0.6355
6.6996 -0.4648 0.6170
6.6788 -0.3678 0.6158
6.6251 -0.3036 0.6130
6.7035 -0.1050 0.6170
6.5225 -0.1777 0.6075
6.5329 -0.0496 0.6080
6.6069 0.1543 0.6118
6.5222 0.1765 0.6073
6.3555 0.0925 0.5985
5.5629 -4.5530 0.6029
4.9373 -4.1006 0.5568
4.8726 -4.0427 0.5521
4.7673 -3.9167 0.5445
4.7208 -3.7657 0.5417
4.7111 -3.7358 0.5410
4.7163 -3.7094 0.5416
4.7169 -3.6815 0.5418
4.7072 -3.6515 0.5411
4.8392 -3.6433 0.5514
4.8759 -3.6162 0.5543
4.9143 -3.5873 0.5574
4.9965 -3.5597 0.5639
5.1306 -3.5307 0.5744
5.4708 -3.4024 0.6013
5.4095 -3.3548 0.5968
5.4495 -3.2521 0.6004
5.4599 -3.1994 0.6014
5.4080 -3.1549 0.5976
5.5368 -3.0811 0.6080
5.5025 -3.0325 0.6055
5.9471 -2.8076 0.6409
5.6919 -2.7489 0.6215
5.7209 -2.6759 0.6241
5.8914 -2.5479 0.6379
5.9627 -2.4490 0.6439
6.9549 -1.5253 0.7249
7.0820 -1.3420 0.7356
7.1382 -1.1928 0.7407
7.0004 -1.1643 0.7302
6.9790 -1.0642 0.7290
7.3684 -0.4094 0.7622
6.8932 -0.6638 0.7243
6.7337 -0.6810 0.7119
6.7808 -0.5251 0.7163
6.8288 -0.3634 0.7207
6.8796 -0.1942 0.7255
6.7177 -0.2309 0.7128
6.5996 -0.2330 0.7037
6.7093 0.0011 0.7133
5.1734 -4.3353 0.6095
5.1987 -4.3153 0.6123
4.8697 -4.0636 0.5815
4.7118 -3.6488 0.5696
4.8776 -3.6454 0.5864
4.8648 -3.6113 0.5855
4.9294 -3.5854 0.5923
5.0311 -3.5590 0.6028
5.3678 -3.5402 0.6371
6.5634 -3.3005 0.7604
6.3148 -3.2396 0.7358
5.8745 -3.0208 0.6935
6.0630 -2.9186 0.7135
6.3307 -2.7873 0.7419
5.9648 -2.8030 0.7048
5.9394 -2.6027 0.7042
6.1275 -2.4627 0.7246
6.9814 -1.5185 0.8203
7.3153 -1.2154 0.8571
7.0492 -1.2574 0.8298
7.1048 -1.1076 0.8369
7.0446 -1.0313 0.8315
6.9487 -0.9827 0.8223
7.0012 -0.8289 0.8292
7.0960 -0.6372 0.8406
6.8496 -0.7143 0.8149
6.7942 -0.6452 0.8100
6.7735 -0.5482 0.8089
6.7866 -0.4201 0.8115
6.5726 -0.5057 0.7890
6.6776 -0.2902 0.8018
6.6903 -0.1601 0.8043
6.6695 -0.0631 0.8032
5.6829 -4.6391 0.7036
5.6614 -4.5854 0.7018
5.6190 -4.5215 0.6974
4.8135 -4.0324 0.6043
4.6881 -3.6687 0.5941
4.7920 -3.6591 0.6072
4.9249 -3.6153 0.6244
4.9502 -3.5841 0.6281
4.9808 -3.5517 0.6324
6.5342 -3.2974 0.8299
6.5680 -3.2179 0.8353
5.8715 -3.1452 0.7495
5.7997 -3.0936 0.7413
6.3289 -2.7871 0.8119
6.3351 -2.7080 0.8139
6.2755 -2.6463 0.8074
6.2816 -2.5666 0.8093
6.1033 -2.5484 0.7874
6.0691 -2.4864 0.7840
6.9164 -1.4556 0.9051
7.1547 -1.2027 0.9386
7.0183 -1.1739 0.9220
6.9247 -1.1236 0.9111
6.8014 -1.0990 0.8961
7.0289 -0.8218 0.9286
6.8273 -0.8596 0.9029
6.7409 -0.8167 0.8928
6.8208 -0.6384 0.9054
6.7331 -0.6000 0.8951
6.6490 -0.5629 0.8851
6.6602 -0.4402 0.8884
6.7376 -0.2503 0.9009
6.7848 -0.0841 0.9092
6.7293 -0.0211 0.9033
6.5187 -0.1302 0.8754
6.3062 -0.2558 0.8470
5.2694 -1.1492 0.7043
5.6959 -4.6357 0.7506
5.7545 -4.6240 0.7595
5.6642 -4.5345 0.7479
4.8711 -4.0799 0.6396
4.8252 -4.0319 0.6338
4.6748 -3.8433 0.6153
4.8223 -3.6606 0.6408
4.8764 -3.6379 0.6492
4.9035 -3.6091 0.6538
4.9270 -3.5784 0.6579
5.0088 -3.5505 0.6706
5.0560 -3.5167 0.6782
7.0424 -3.2689 0.9771
6.0315 -3.1884 0.8291
5.9345 -3.1352 0.8158
6.0774 -2.9824 0.8400
6.3424 -2.8600 0.8817
6.3712 -2.7769 0.8876
6.3553 -2.7028 0.8867
6.2955 -2.6412 0.8791
6.3017 -2.5614 0.8816
6.2859 -2.4879 0.8807
7.2230 -1.1711 1.0456
7.1216 -1.1183 1.0317
7.1000 -1.0171 1.0305
6.9305 -1.0197 1.0054
6.8406 -0.9736 0.9930
6.7219 -0.9541 0.9758
6.7998 -0.7834 0.9908
6.6211 -0.8207 0.9636
6.8612 -0.5044 1.0054
6.8057 -0.4376 0.9985
6.7507 -0.3727 0.9917
6.7301 -0.2767 0.9905
6.7433 -0.1465 0.9951
6.6572 -0.1179 0.9829
6.5440 -0.1237 0.9661
6.5961 0.1673 0.9796
6.5757 0.2623 0.9785
6.2052 0.0310 0.9190
6.2121 0.1489 0.9224
5.7090 -4.6324 0.7975
5.7453 -4.6088 0.8043
5.6559 -4.5205 0.7913
4.6670 -3.7866 0.6405
4.8541 -3.6622 0.6756
4.8992 -3.6375 0.6839
4.9174 -3.6073 0.6878
4.9695 -3.5791 0.6974
4.9949 -3.5462 0.7025
5.0223 -3.5119 0.7081
6.5026 -3.2903 0.9665
6.4867 -3.2162 0.9656
6.4950 -3.1397 0.9689
6.8224 -3.0222 1.0278
6.4309 -2.8410 0.9654
6.3691 -2.7768 0.9565
6.3533 -2.7033 0.9556
6.2943 -2.6421 0.9470
6.2358 -2.5831 0.9385
6.6243 -2.3748 1.0101
7.0194 -1.3040 1.1042
6.9986 -1.2070 1.1030
7.0140 -1.0858 1.1087
6.9210 -1.0381 1.0940
7.0088 -0.8628 1.1133
6.9300 -0.6936 1.1041
6.9451 -0.5656 1.1098
6.8530 -0.5278 1.0951
6.7647 -0.4916 1.0809
6.7907 -0.2367 1.0916
6.6400 -0.2703 1.0651
6.6001 -0.0839 1.0629
6.6108 0.0436 1.0679
5.7004 -4.6175 0.8407
5.7004 -4.5754 0.8419
4.7394 -3.9832 0.6736
4.7203 -3.9256 0.6716
4.6725 -3.8338 0.6651
4.6704 -3.8085 0.6654
4.6840 -3.7875 0.6687
4.6686 -3.7579 0.6666
4.6584 -3.6789 0.6669
4.8862 -3.6637 0.7115
4.9037 -3.6345 0.7157
4.9370 -3.6061 0.7230
4.9562 -3.5745 0.7277
4.9934 -3.5429 0.7358
5.0085 -3.5082 0.7397
8.0216 -3.2097 1.3315
6.7654 -3.1916 1.0891
6.6147 -3.1245 1.0619
6.6498 -3.0409 1.0711
6.3822 -2.8498 1.0251
6.3892 -2.7717 1.0287
6.2858 -2.7206 1.0102
6.7381 -2.5168 1.1038
7.1158 -1.0291 1.2211
7.2131 -0.8463 1.2453
7.1119 -0.8005 1.2271
7.0146 -0.7568 1.2096
6.8518 -0.7701 1.1777
6.7328 -0.7566 1.1550
6.7454 -0.6365 1.1610
6.6855 -0.3569 1.1578
6.6033 -0.3259 1.1428
6.4307 -0.1780 1.1138
6.3585 -0.1513 1.1006
5.7825 -4.6507 0.9008
4.8003 -4.0557 0.7094
4.7201 -3.9939 0.6943
4.6906 -3.9570 0.6892
4.7261 -3.9478 0.6971
4.7141 -3.9183 0.6956
4.7046 -3.8901 0.6945
4.6607 -3.8013 0.6881
4.6780 -3.7818 0.6925
4.6856 -3.7586 0.6949
4.6606 -3.7268 0.6906
4.6549 -3.7002 0.6903
4.6931 -3.6826 0.6992
4.8810 -3.6592 0.7405
4.9034 -3.6309 0.7463
4.9010 -3.5986 0.7469
4.9494 -3.5706 0.7583
4.9859 -3.5392 0.7673
5.0253 -3.5060 0.7769
7.5299 -3.2289 1.3268
6.6009 -3.2002 1.1274
6.6358 -3.1191 1.1377
6.5198 -3.0546 1.1149
6.5522 -2.9725 1.1247
6.4878 -2.9052 1.1132
6.2325 -2.8792 1.0590
6.3649 -2.7767 1.0911
6.3494 -2.7043 1.0902
7.3792 -2.1233 1.3324
7.6219 -1.9265 1.3916
7.1691 -1.3443 1.3140
6.9941 -1.1207 1.2839
6.9389 -1.0486 1.2745
6.9893 -0.9023 1.2904
7.0788 -0.7217 1.3159
6.7458 -0.8677 1.2390
6.7580 -0.7501 1.2457
6.8371 -0.5733 1.2689
6.7509 -0.5367 1.2516
6.7963 -0.3831 1.2667
6.6790 -0.3811 1.2414
6.8931 -0.0563 1.2988
6.6087 -0.2281 1.2315
4.7128 -5.4000 0.8733
4.5429 -5.4778 0.8858
4.4677 -5.4420 0.8746
4.4015 -5.4177 0.8665
4.2407 -5.5206 0.8853
4.5223 -7.1176 1.2747
4.4427 -7.1694 1.2842
4.2208 -7.0172 1.2402
4.1361 -7.0352 1.2415
3.9504 -7.6615 1.3837
3.8475 -7.6417 1.3754
3.7646 -7.8800 1.4291
2.8271 -8.1266 1.4545
2.5734 -7.9124 1.3946
1.1019 -8.5912 1.5038
1.1516 -8.1324 1.3965
1.1046 -8.0624 1.3782
1.0105 -8.0824 1.3796
5.8620 -6.1627 1.0276
5.7709 -6.1586 1.0239
5.6817 -6.1551 1.0204
5.6099 -6.1704 1.0215
5.5223 -6.1666 1.0180
5.4511 -6.1818 1.0191
4.7835 -5.4899 0.8500
5.0146 -6.0138 0.9696
4.5801 -5.5331 0.8530
4.4645 -5.4301 0.8274
4.4027 -5.4142 0.8220
4.2904 -5.5085 0.8389
4.2538 -5.5476 0.8462
4.2079 -5.5675 0.8490
4.2218 -7.0261 1.1630
4.1549 -7.1388 1.1852
4.0840 -7.2568 1.2084
3.9294 -7.5168 1.2595
3.8653 -7.8785 1.3353
3.7812 -8.2019 1.4022
2.7238 -8.0741 1.3424
2.6012 -8.1953 1.3647
1.3691 -8.1841 1.3246
1.2226 -8.3025 1.3456
1.0721 -8.2472 1.3291
1.0491 -8.1290 1.3030
0.9272 -8.1952 1.3135
6.0876 -6.0278 0.9389
5.9978 -6.0257 0.9362
5.9830 -6.0945 0.9490
5.9300 -6.1291 0.9543
5.8383 -6.1252 0.9512
5.7313 -6.1035 0.9443
5.6768 -6.1373 0.9494
5.6050 -6.1526 0.9505
5.5175 -6.1489 0.9475
5.4462 -6.1641 0.9486
4.9207 -5.6698 0.8402
4.7988 -5.7802 0.8583
4.6395 -5.6250 0.8244
4.4873 -5.4639 0.7895
4.4383 -5.4743 0.7903
4.3796 -5.4657 0.7871
4.3267 -5.4669 0.7860
4.2826 -5.4863 0.7886
4.2504 -5.5354 0.7972
4.2045 -5.5551 0.7998
4.2093 -6.9751 1.0725
4.1305 -7.0230 1.0796
4.1083 -7.4136 1.1540
4.0303 -7.5514 1.1785
3.9573 -7.7848 1.2214
3.8458 -7.7184 1.2058
3.7568 -7.9219 1.2426
2.6537 -8.4121 1.3083
2.6135 -8.0704 1.2417
2.4657 -8.2953 1.2810
1.3397 -8.2077 1.2353
1.2157 -8.2774 1.2455
1.0890 -8.3488 1.2559
1.1386 -8.0847 1.2065
1.0676 -8.0598 1.1999
0.9466 -8.1255 1.2094
6.2676 -6.0150 0.8731
6.2601 -6.0862 0.8849
6.1649 -6.0832 0.8824
6.0710 -6.0800 0.8799
5.9592 -6.0584 0.8740
5.8690 -6.0555 0.8716
5.7977 -6.0707 0.8727
5.7438 -6.1042 0.8772
5.6720 -6.1195 0.8783
5.5685 -6.0984 0.8726
5.4978 -6.1134 0.8737
5.4119 -6.1096 0.8713
5.2878 -6.0542 0.8593
4.7675 -5.5351 0.7610
4.8376 -5.8328 0.8127
4.7364 -5.7781 0.8013
4.4998 -5.4793 0.7460
4.4199 -5.4344 0.7368
4.3148 -5.4369 0.7350
4.2838 -5.4843 0.7424
4.2509 -5.5322 0.7498
4.2011 -5.5428 0.7505
4.1307 -7.0325 1.0003
4.1149 -7.4667 1.0732
4.0236 -7.5270 1.0815
3.9503 -7.7591 1.1191
3.8276 -7.5687 1.0844
3.7436 -7.8031 1.1222
3.4267 -8.5664 1.2444
2.5451 -8.3527 1.1901
2.4923 -8.1154 1.1489
1.0244 -8.6240 1.2042
1.0290 -8.4264 1.1710
1.0587 -8.1980 1.1331
1.0111 -8.1264 1.1200
0.9401 -8.1017 1.1144
6.4074 -5.9663 0.7993
6.1903 -6.0124 0.8026
6.1810 -6.0835 0.8127
6.1069 -6.0993 0.8138
5.9732 -6.0586 0.8058
5.8825 -6.0559 0.8040
5.8107 -6.0711 0.8051
5.7389 -6.0864 0.8062
5.6671 -6.1017 0.8073
5.6115 -6.1354 0.8113
5.5235 -6.1322 0.8094
5.4366 -6.1287 0.8076
5.2077 -5.9392 0.7765
4.7781 -5.5421 0.7121
4.8421 -5.8314 0.7551
4.3428 -5.4897 0.6977
4.2475 -5.5198 0.7005
4.1554 -5.5614 0.7051
4.2964 -6.3710 0.8248
4.1763 -7.2735 0.9538
4.1084 -7.4427 0.9772
4.0344 -7.6252 1.0025
3.9433 -7.7335 1.0168
3.8246 -7.5842 0.9933
3.7337 -7.7330 1.0134
3.5331 -8.0621 1.0580
3.4231 -8.1371 1.0672
3.3143 -8.1086 1.0613
3.0999 -8.1037 1.0572
2.9861 -8.1784 1.0663
2.8476 -8.4218 1.0994
2.5272 -7.9027 1.0191
2.3684 -8.1615 1.0541
1.1798 -8.4624 1.0790
1.0170 -8.5969 1.0960
1.1259 -8.2005 1.0402
1.0259 -8.2218 1.0417
0.9530 -8.1945 1.0366
0.9075 -8.1229 1.0255
6.0931 -5.9923 0.7297
6.0611 -6.0438 0.7356
5.9882 -6.0593 0.7367
5.8960 -6.0560 0.7353
5.8423 -6.0903 0.7389
5.8237 -6.1629 0.7475
5.6964 -6.1213 0.7411
5.5904 -6.0991 0.7373
5.5030 -6.0959 0.7360
5.4318 -6.1110 0.7370
5.0909 -5.7778 0.6930
4.9350 -5.6627 0.6774
4.8281 -5.6047 0.6693
4.8042 -5.6632 0.6761
4.9026 -5.9171 0.7079
4.8120 -5.8862 0.7032
4.3839 -5.4571 0.6467
4.3437 -5.4863 0.6498
4.3030 -5.5168 0.6530
4.2442 -5.5075 0.6513
4.1483 -5.5388 0.6540
4.2288 -6.1486 0.7288
4.2751 -6.5651 0.7797
4.1794 -6.8548 0.8138
4.1988 -7.3980 0.8798
4.0432 -7.0702 0.8384
3.8531 -6.9841 0.8260
3.7657 -6.9721 0.8236
3.7114 -7.4623 0.8824
3.6370 -8.0626 0.9543
3.5257 -8.0350 0.9498
3.4163 -8.0582 0.9514
3.3069 -8.0815 0.9531
2.9348 -8.5465 1.0054
2.8475 -8.3361 0.9790
2.7515 -8.2508 0.9677
2.6693 -8.1178 0.9507
2.5189 -8.3525 0.9775
2.2824 -8.0593 0.9395
1.3520 -8.2571 0.9535
1.0913 -8.6036 0.9927
1.1193 -8.3523 0.9626
1.0941 -8.2236 0.9467
1.0950 -8.0576 0.9266
0.9721 -8.1241 0.9333
6.2891 -6.0683 0.6688
6.0969 -6.0625 0.6672
5.9635 -6.0226 0.6626
5.8911 -6.0380 0.6637
5.8560 -6.0910 0.6687
5.7464 -6.0688 0.6659
5.7090 -6.1222 0.6709
5.6186 -6.1187 0.6700
5.5620 -6.1535 0.6731
5.4420 -6.1118 0.6684
5.0268 -5.6855 0.6248
4.7355 -5.4658 0.6019
4.5746 -5.4892 0.6033
4.5405 -5.5300 0.6071
4.4250 -5.4257 0.5963
4.3856 -5.4546 0.5989
4.2951 -5.4944 0.6023
4.2408 -5.4951 0.6020
4.1800 -5.4777 0.6000
4.2570 -6.8164 0.7301
4.1706 -7.2626 0.7729
3.8840 -6.1342 0.6620
3.5150 -7.6825 0.8100
3.4144 -7.6616 0.8074
3.3109 -7.7692 0.8173
2.9771 -8.0730 0.8449
2.8758 -8.0458 0.8417
2.7846 -7.9709 0.8339
2.6712 -8.0416 0.8401
2.5114 -8.3247 0.8667
2.1427 -8.1539 0.8481
1.3907 -8.1340 0.8420
1.0838 -8.5761 0.8832
1.0022 -8.5426 0.8795
1.1615 -8.0581 0.8334
1.1126 -7.9894 0.8265
0.9655 -8.0998 0.8364
6.2306 -6.0846 0.5969
6.0715 -6.0259 0.5926
6.0178 -6.0599 0.5950
5.9437 -6.0756 0.5962
5.8882 -6.1100 0.5986
5.8135 -6.1259 0.5998
5.7389 -6.1417 0.6009
5.6474 -6.1386 0.6006
5.5407 -6.1161 0.5990
5.4221 -6.0756 0.5960
5.1151 -5.7890 0.5752
4.6225 -5.4655 0.5516
4.4418 -5.4501 0.5505
4.3867 -5.4510 0.5505
4.3465 -5.4811 0.5527
4.2917 -5.4820 0.5527
4.2416 -5.4926 0.5535
4.1448 -6.0964 0.5971
4.0927 -6.1613 0.6018
3.6847 -6.1253 0.5991
3.4039 -7.8581 0.7244
3.2962 -7.9284 0.7294
2.9639 -8.0969 0.7415
2.8322 -8.2799 0.7547
2.7188 -8.3039 0.7564
2.6055 -8.3280 0.7581
2.4680 -8.4670 0.7681
2.1504 -8.0783 0.7399
2.0064 -7.9346 0.7295
1.9231 -7.9103 0.7277
1.7885 -8.0229 0.7358
1.4414 -8.1838 0.7474
1.3612 -8.1567 0.7454
1.3058 -8.0835 0.7401
1.0319 -8.0997 0.7412
0.9848 -8.0301 0.7361
6.1496 -6.0819 0.5230
5.9537 -5.9867 0.5194
5.8813 -6.0021 0.5205
5.8460 -6.0545 0.5232
5.7725 -6.0701 0.5243
5.6990 -6.0857 0.5254
5.6255 -6.1013 0.5265
5.5683 -6.1360 0.5284
5.4031 -6.0407 0.5247
5.0893 -5.7461 0.5123
4.6450 -5.4045 0.4983
4.6129 -5.4433 0.5003
4.5798 -5.4835 0.5024
4.5162 -5.4746 0.5023
4.4384 -5.4377 0.5009
4.3884 -5.4483 0.5017
4.3383 -5.4590 0.5025
4.2424 -5.4900 0.5044
4.1882 -5.4909 0.5047
4.1381 -5.5015 0.5055
4.1083 -5.5720 0.5090
4.1325 -5.8298 0.5211
4.1661 -6.4564 0.5507
4.0914 -6.4723 0.5518
3.9557 -6.1730 0.5383
3.8621 -6.0229 0.5316
3.7839 -5.9188 0.5270
3.7267 -5.9449 0.5286
3.2869 -7.9504 0.6259
2.4073 -8.6856 0.6652
2.0061 -8.1745 0.6430
1.9170 -8.1464 0.6421
1.7923 -8.2199 0.6462
1.1795 -8.4977 0.6625
1.0111 -8.6371 0.6699
1.0440 -8.3790 0.6575
1.0209 -8.2460 0.6513
5.9337 -6.0388 0.4495
5.8975 -6.0922 0.4511
5.8034 -6.0888 0.4520
5.7288 -6.1047 0.4531
5.6206 -6.0831 0.4538
5.5633 -6.1176 0.4551
5.3834 -6.0050 0.4545
5.0242 -5.6536 0.4504
4.7250 -5.4273 0.4485
4.6606 -5.4198 0.4490
4.5852 -5.3934 0.4492
4.5525 -5.4321 0.4504
4.5127 -5.4618 0.4514
4.4613 -5.4728 0.4522
4.3850 -5.4359 0.4522
4.3396 -5.4562 0.4531
4.2042 -5.5274 0.4561
4.1348 -5.4891 0.4560
4.0947 -5.5294 0.4573
4.0905 -5.6917 0.4609
4.1404 -6.0802 0.4690
4.1721 -6.4822 0.4776
4.0630 -6.3483 0.4758
3.9413 -6.1056 0.4717
3.8457 -5.9337 0.4688
3.7818 -5.9176 0.4691
3.7094 -6.4893 0.4826
3.6557 -6.8499 0.4912
3.1643 -8.0468 0.5229
2.6434 -8.6034 0.5406
2.4522 -8.4094 0.5383
1.9443 -8.0226 0.5350
1.7851 -8.1934 0.5404
1.1987 -8.4146 0.5514
0.8106 -8.9929 0.5683
0.9506 -8.5172 0.5563
1.0139 -8.2203 0.5490
5.8352 -5.9317 0.3780
5.8176 -5.9998 0.3781
5.7447 -6.0153 0.3792
5.6891 -6.0492 0.3799
5.6156 -6.0649 0.3810
5.5259 -6.0618 0.3825
5.4077 -6.0226 0.3845
5.0402 -5.6641 0.3915
4.8984 -5.5688 0.3940
4.5881 -5.5831 0.3989
4.5207 -5.5732 0.4000
4.4546 -5.5630 0.4010
4.4005 -5.5745 0.4019
4.3773 -5.6532 0.4020
4.4108 -5.8738 0.4007
4.0946 -5.5266 0.4068
4.2552 -6.8169 0.4000
4.1225 -6.6215 0.4028
3.8512 -5.9769 0.4092
3.7798 -5.9173 0.4105
3.7157 -6.6078 0.4092
3.6549 -6.9149 0.4092
3.0358 -8.1473 0.4148
1.7970 -8.1164 0.4345
0.9571 -8.8695 0.4452
1.0840 -8.2226 0.4454
1.0598 -8.0980 0.4462
5.8311 -5.9997 0.3050
5.6879 -5.9443 0.3096
5.6166 -5.9595 0.3107
5.6273 -6.0651 0.3074
5.5532 -6.0808 0.3085
5.4480 -6.0592 0.3114
4.8692 -5.5214 0.3395
4.7753 -5.4806 0.3426
4.6411 -5.3761 0.3486
4.6146 -5.4236 0.3477
4.5629 -5.4346 0.3485
4.4763 -5.4866 0.3488
4.4291 -5.5081 0.3492
4.3861 -5.5392 0.3492
4.3428 -5.5725 0.3492
4.3601 -5.7500 0.3436
4.2959 -5.7490 0.3450
4.2056 -5.6750 0.3491
4.0945 -5.5237 0.3559
4.0430 -5.5346 0.3567
4.0930 -5.9094 0.3446
