ply
format ascii 1.0
element vertex 2114
property float x
property float y
property float z
end_header
5.8254 -3.1917 -0.0620
5.2380 -3.1972 -0.1348
5.1517 -3.1979 -0.1450
5.0470 -3.1974 -0.1427
4.8721 -3.1966 -0.1387
4.7227 -3.1953 -0.1298
4.5218 -3.1947 -0.1292
4.4489 -3.1949 -0.1331
4.4049 -3.1941 -0.1253
4.3636 -3.1931 -0.1169
4.3376 -3.1934 -0.1202
4.3066 -3.1930 -0.1169
4.2604 -3.1933 -0.1210
4.1946 -3.1930 -0.1200
4.1743 -3.1928 -0.1187
4.1586 -3.1931 -0.1222
4.1419 -3.1932 -0.1231
4.1054 -3.1924 -0.1167
4.0931 -3.1928 -0.1206
4.0809 -3.1931 -0.1241
4.0633 -3.1924 -0.1172
4.0536 -3.1929 -0.1229
4.0403 -3.1927 -0.1214
4.0274 -3.1925 -0.1193
4.0046 -3.1923 -0.1182
3.9964 -3.1928 -0.1232
3.9873 -3.1930 -0.1254
3.9788 -3.1933 -0.1285
5.7356 -3.0914 0.5124
7.0644 -3.0721 0.4254
7.0304 -3.0789 0.3540
6.8097 -3.1133 0.0042
7.2618 -3.1170 -0.1461
5.8796 -3.1446 -0.1414
5.2301 -3.1573 -0.1367
5.0121 -3.1612 -0.1309
4.9161 -3.1627 -0.1255
4.8504 -3.1644 -0.1303
4.7137 -3.1668 -0.1264
4.6140 -3.1692 -0.1310
4.5608 -3.1699 -0.1268
4.5123 -3.1706 -0.1228
4.4487 -3.1727 -0.1328
4.3712 -3.1735 -0.1231
4.3153 -3.1747 -0.1244
4.2610 -3.1754 -0.1202
4.2188 -3.1765 -0.1226
4.1987 -3.1769 -0.1229
4.1768 -3.1771 -0.1196
4.1457 -3.1782 -0.1257
4.1257 -3.1782 -0.1207
4.1137 -3.1789 -0.1262
4.0959 -3.1789 -0.1218
4.0784 -3.1788 -0.1164
4.0672 -3.1794 -0.1203
4.0549 -3.1797 -0.1214
4.0429 -3.1800 -0.1221
4.0317 -3.1803 -0.1234
4.0183 -3.1803 -0.1195
4.0105 -3.1810 -0.1260
3.9988 -3.1810 -0.1235
3.9890 -3.1813 -0.1242
6.0116 -3.0162 0.7752
5.9561 -3.0223 0.7259
5.4462 -3.0540 0.5936
5.4298 -3.0573 0.5590
5.8185 -3.0416 0.5467
6.5243 -3.0172 0.4710
6.5840 -3.0237 0.3501
6.3177 -3.0388 0.3010
6.2910 -3.0441 0.2449
6.2642 -3.0494 0.1888
6.7817 -3.0420 -0.0060
5.6752 -3.0997 -0.1470
5.3439 -3.1132 -0.1384
5.2229 -3.1184 -0.1387
5.1281 -3.1228 -0.1437
5.0175 -3.1270 -0.1369
4.9170 -3.1307 -0.1290
4.8405 -3.1339 -0.1278
4.7750 -3.1367 -0.1285
4.7071 -3.1393 -0.1243
4.6617 -3.1417 -0.1301
4.6072 -3.1438 -0.1276
4.5574 -3.1457 -0.1252
4.5218 -3.1476 -0.1302
4.3989 -3.1521 -0.1195
4.3755 -3.1536 -0.1264
4.3442 -3.1548 -0.1248
4.3129 -3.1559 -0.1210
4.2733 -3.1584 -0.1319
4.2382 -3.1588 -0.1185
4.2230 -3.1600 -0.1256
4.2027 -3.1609 -0.1258
4.1755 -3.1613 -0.1157
4.1620 -3.1623 -0.1217
4.1494 -3.1634 -0.1282
4.1152 -3.1646 -0.1254
4.0980 -3.1651 -0.1218
4.0824 -3.1656 -0.1196
4.0705 -3.1663 -0.1223
4.0588 -3.1669 -0.1245
4.0460 -3.1674 -0.1239
4.0310 -3.1676 -0.1180
4.0140 -3.1692 -0.1288
4.0011 -3.1693 -0.1237
3.9935 -3.1701 -0.1295
6.2985 -2.9466 0.8500
6.0377 -2.9831 0.5462
6.4053 -2.9688 0.3990
6.3455 -2.9762 0.3437
6.3189 -2.9815 0.2880
6.3419 -2.9839 0.2283
6.8290 -2.9689 -0.0270
6.8455 -2.9729 -0.1053
5.7786 -3.0365 -0.0227
5.7902 -3.0394 -0.0787
5.7450 -3.0450 -0.1208
5.6376 -3.0534 -0.1428
5.3268 -3.0731 -0.1376
5.2154 -3.0805 -0.1404
5.1002 -3.0877 -0.1361
4.7675 -3.1086 -0.1265
4.6585 -3.1158 -0.1295
4.5537 -3.1222 -0.1234
4.5208 -3.1247 -0.1298
4.4858 -3.1272 -0.1330
4.4428 -3.1296 -0.1278
4.3730 -3.1339 -0.1236
4.3434 -3.1358 -0.1231
4.3184 -3.1375 -0.1254
4.2931 -3.1392 -0.1257
4.2675 -3.1407 -0.1242
4.2409 -3.1422 -0.1198
4.2210 -3.1436 -0.1214
4.2068 -3.1449 -0.1287
4.1658 -3.1473 -0.1243
4.1453 -3.1483 -0.1198
4.1287 -3.1494 -0.1194
4.1125 -3.1504 -0.1183
4.1007 -3.1514 -0.1229
4.0884 -3.1524 -0.1261
4.0724 -3.1532 -0.1220
4.0574 -3.1539 -0.1183
4.0479 -3.1549 -0.1234
4.0384 -3.1558 -0.1281
4.0249 -3.1564 -0.1239
4.0152 -3.1572 -0.1266
3.9924 -3.1584 -0.1218
6.6846 -2.8599 0.8961
6.5476 -2.8757 0.8240
6.3256 -2.8991 0.7455
6.1856 -2.9223 0.5404
6.3413 -2.9113 0.4947
6.3069 -2.9201 0.3871
6.3297 -2.9212 0.3312
6.3363 -2.9237 0.2742
6.3098 -2.9290 0.2184
6.4026 -2.9247 0.1500
7.2769 -2.8633 -0.1098
5.7934 -2.9872 -0.0344
5.8881 -2.9833 -0.1117
5.7705 -2.9947 -0.1356
5.6130 -3.0086 -0.1421
5.3246 -3.0335 -0.1420
5.0788 -3.0541 -0.1310
4.7598 -3.0813 -0.1243
4.6588 -3.0904 -0.1311
4.4783 -3.1057 -0.1275
4.4085 -3.1117 -0.1270
4.3516 -3.1168 -0.1300
4.2952 -3.1215 -0.1267
4.2623 -3.1238 -0.1172
4.2435 -3.1256 -0.1212
4.2297 -3.1273 -0.1298
4.2032 -3.1292 -0.1223
4.1688 -3.1323 -0.1259
4.1452 -3.1339 -0.1172
4.1387 -3.1352 -0.1310
4.1145 -3.1366 -0.1184
4.1034 -3.1379 -0.1240
4.0870 -3.1391 -0.1204
4.0606 -3.1414 -0.1202
4.0371 -3.1435 -0.1214
4.0284 -3.1445 -0.1268
4.0169 -3.1454 -0.1256
4.0044 -3.1463 -0.1215
3.9951 -3.1472 -0.1232
6.4868 -2.8133 1.1272
6.4314 -2.8218 1.0698
6.4868 -2.8173 1.0378
6.5273 -2.8146 1.0002
6.5199 -2.8175 0.9515
6.6168 -2.8085 0.9198
6.7221 -2.7987 0.8850
6.5465 -2.8210 0.8080
6.4523 -2.8339 0.7458
5.4306 -2.9517 0.5642
6.3352 -2.8558 0.5332
6.3421 -2.8574 0.4811
6.3495 -2.8589 0.4278
6.3731 -2.8588 0.3726
6.3135 -2.8676 0.3191
6.3537 -2.8658 0.2604
6.4487 -2.8586 0.1939
6.5052 -2.8583 0.0621
7.0311 -2.8083 -0.0866
6.5873 -2.8560 -0.0852
6.5778 -2.8600 -0.1535
5.5612 -2.9684 -0.1327
5.3087 -2.9959 -0.1413
5.0842 -3.0198 -0.1371
4.9052 -3.0388 -0.1320
4.8248 -3.0473 -0.1270
4.7749 -3.0530 -0.1347
4.4794 -3.0845 -0.1285
4.4042 -3.0923 -0.1230
4.3514 -3.0983 -0.1290
4.3186 -3.1015 -0.1236
4.2899 -3.1045 -0.1200
4.2533 -3.1089 -0.1304
4.2025 -3.1138 -0.1194
4.1688 -3.1176 -0.1236
4.1496 -3.1196 -0.1206
4.1401 -3.1210 -0.1303
4.1046 -3.1245 -0.1229
4.0903 -3.1260 -0.1224
4.0789 -3.1274 -0.1259
4.0540 -3.1301 -0.1269
4.0400 -3.1315 -0.1230
4.0295 -3.1327 -0.1247
4.0167 -3.1339 -0.1208
4.0078 -3.1350 -0.1242
3.9973 -3.1361 -0.1232
6.2880 -2.7922 1.0208
6.4161 -2.7778 0.9621
6.5363 -2.7632 0.9385
6.4940 -2.7705 0.8833
6.5022 -2.7711 0.8361
6.5818 -2.7622 0.7969
6.4196 -2.7854 0.7272
5.5174 -2.9068 0.5614
6.2755 -2.8110 0.5176
6.3587 -2.8020 0.4679
6.3333 -2.8071 0.4146
6.3079 -2.8122 0.3613
6.2825 -2.8173 0.3080
6.2119 -2.8280 0.2579
6.5730 -2.7869 0.1055
6.6464 -2.7801 0.0300
6.6716 -2.7817 -0.1130
6.5556 -2.7982 -0.1605
5.7789 -2.8940 -0.0475
5.3206 -2.9564 -0.1507
5.0895 -2.9858 -0.1432
4.8906 -3.0108 -0.1276
4.7580 -3.0278 -0.1273
4.6609 -3.0405 -0.1350
4.5454 -3.0548 -0.1197
4.5231 -3.0582 -0.1329
4.4388 -3.0687 -0.1243
4.4119 -3.0723 -0.1292
4.3493 -3.0802 -0.1264
4.3182 -3.0841 -0.1222
4.2885 -3.0877 -0.1174
4.2692 -3.0904 -0.1218
4.2559 -3.0924 -0.1317
4.2245 -3.0960 -0.1202
4.2001 -3.0990 -0.1147
4.1901 -3.1007 -0.1254
4.1657 -3.1035 -0.1172
4.1509 -3.1055 -0.1200
4.1356 -3.1075 -0.1211
4.1206 -3.1094 -0.1217
4.1059 -3.1113 -0.1217
4.0907 -3.1132 -0.1199
4.0814 -3.1146 -0.1267
4.0634 -3.1167 -0.1180
4.0525 -3.1181 -0.1203
4.0299 -3.1211 -0.1212
4.0208 -3.1224 -0.1248
4.0094 -3.1238 -0.1230
3.9989 -3.1251 -0.1219
3.9909 -3.1262 -0.1258
6.3025 -2.7440 1.0093
6.5026 -2.7165 0.9167
6.5438 -2.7114 0.8757
6.5027 -2.7188 0.8208
6.4133 -2.7336 0.7605
6.2423 -2.7641 0.5525
6.2613 -2.7625 0.5041
6.2970 -2.7584 0.4541
6.3031 -2.7587 0.4020
6.3246 -2.7569 0.3481
6.3475 -2.7548 0.2921
6.8251 -2.6910 -0.0085
6.7691 -2.7009 -0.0715
6.4466 -2.7492 -0.0824
5.8735 -2.8344 -0.0783
5.7933 -2.8471 -0.1113
5.7165 -2.8593 -0.1424
5.4091 -2.9051 -0.1424
5.3262 -2.9178 -0.1578
5.1480 -2.9437 -0.1312
5.0496 -2.9583 -0.1296
4.9713 -2.9700 -0.1325
4.8313 -2.9909 -0.1351
4.6937 -3.0111 -0.1247
4.6714 -3.0149 -0.1429
4.4386 -3.0491 -0.1242
4.4134 -3.0530 -0.1302
4.3472 -3.0627 -0.1236
4.3125 -3.0677 -0.1157
4.2726 -3.0738 -0.1241
4.2503 -3.0771 -0.1240
4.2309 -3.0801 -0.1258
4.2039 -3.0839 -0.1173
4.1853 -3.0866 -0.1174
4.1686 -3.0892 -0.1186
4.1559 -3.0912 -0.1244
4.1354 -3.0941 -0.1182
4.1232 -3.0960 -0.1228
4.0953 -3.1002 -0.1241
4.0783 -3.1026 -0.1182
4.0691 -3.1041 -0.1244
4.0554 -3.1061 -0.1220
4.0440 -3.1078 -0.1226
4.0328 -3.1095 -0.1228
4.0140 -3.1124 -0.1283
6.5350 -2.6603 0.9068
6.5265 -2.6625 0.8575
6.3601 -2.6917 0.7863
6.1975 -2.7201 0.7207
5.4521 -2.8483 0.5707
6.2284 -2.7176 0.5390
6.2771 -2.7101 0.4916
6.3444 -2.6994 0.4413
6.3195 -2.7044 0.3890
6.3253 -2.7042 0.3355
6.3486 -2.7011 0.2796
6.1888 -2.7320 0.0150
6.1943 -2.7320 -0.0444
6.1232 -2.7446 -0.0884
5.9121 -2.7804 -0.0960
5.7426 -2.8092 -0.1053
5.3914 -2.8691 -0.1417
5.1754 -2.9057 -0.1464
4.8229 -2.9650 -0.1330
4.7014 -2.9855 -0.1308
4.6338 -2.9968 -0.1206
4.5412 -3.0124 -0.1181
4.5162 -3.0168 -0.1286
4.4483 -3.0283 -0.1319
4.4042 -3.0356 -0.1221
4.3752 -3.0405 -0.1228
4.3212 -3.0497 -0.1232
4.2971 -3.0537 -0.1239
4.2793 -3.0568 -0.1298
4.2511 -3.0615 -0.1234
4.2300 -3.0651 -0.1231
4.2045 -3.0693 -0.1162
4.1905 -3.0717 -0.1219
4.1737 -3.0746 -0.1231
4.1542 -3.0778 -0.1195
4.1380 -3.0806 -0.1193
4.1273 -3.0825 -0.1260
4.1045 -3.0861 -0.1136
4.0985 -3.0873 -0.1261
4.0814 -3.0901 -0.1201
4.0681 -3.0924 -0.1191
4.0571 -3.0943 -0.1212
4.0449 -3.0963 -0.1205
4.0350 -3.0980 -0.1230
4.0245 -3.0998 -0.1239
4.0162 -3.1013 -0.1283
4.0043 -3.1032 -0.1245
6.2026 -2.5692 0.8316
6.1674 -2.5773 0.7827
5.7667 -2.6821 0.6877
5.6052 -2.7239 0.6329
5.4653 -2.7601 0.5854
6.2445 -2.5504 0.5585
6.3103 -2.5314 0.5106
6.3318 -2.5242 0.4587
5.9570 -2.6221 0.3623
5.9233 -2.6298 0.3165
5.9845 -2.6120 0.2639
6.0509 -2.5926 0.2071
6.1808 -2.5559 0.1385
6.2803 -2.5272 0.0670
6.5734 -2.4436 -0.1125
6.1895 -2.5452 -0.1614
5.6850 -2.6811 -0.1399
5.3627 -2.7678 -0.1328
5.1505 -2.8246 -0.1385
4.9347 -2.8829 -0.1211
4.7964 -2.9200 -0.1218
4.6842 -2.9501 -0.1235
4.5855 -2.9766 -0.1220
4.4971 -3.0004 -0.1170
4.4608 -3.0101 -0.1169
4.4192 -3.0215 -0.1102
4.3733 -3.0335 -0.1228
4.3141 -3.0495 -0.1173
4.2686 -3.0617 -0.1189
4.2280 -3.0725 -0.1203
4.2040 -3.0791 -0.1146
4.1866 -3.0837 -0.1156
4.1718 -3.0876 -0.1188
4.1564 -3.0917 -0.1205
4.1371 -3.0970 -0.1153
4.1217 -3.1012 -0.1145
4.1101 -3.1042 -0.1185
4.0940 -3.1086 -0.1143
4.0699 -3.1150 -0.1166
4.0573 -3.1185 -0.1152
4.0455 -3.1216 -0.1144
4.0364 -3.1240 -0.1182
4.0263 -3.1266 -0.1191
4.0140 -3.1301 -0.1144
4.0061 -3.1321 -0.1184
3.9983 -3.1341 -0.1221
7.2812 -2.2179 1.0957
5.8036 -2.6300 0.6678
5.4735 -2.7217 0.5635
6.0436 -2.5510 0.4199
5.9596 -2.5736 0.3730
5.9257 -2.5816 0.3263
5.9876 -2.5617 0.2733
6.8643 -2.2969 -0.0075
6.6226 -2.3656 -0.0431
6.6572 -2.3527 -0.1211
6.4388 -2.4150 -0.1476
5.9257 -2.5636 -0.1505
5.7353 -2.6187 -0.1530
5.3639 -2.7271 -0.1331
5.2302 -2.7660 -0.1288
5.1262 -2.7961 -0.1298
5.0292 -2.8243 -0.1286
4.9429 -2.8493 -0.1274
4.8506 -2.8764 -0.1187
4.7707 -2.8998 -0.1114
4.7459 -2.9063 -0.1313
4.6696 -2.9289 -0.1190
4.4948 -2.9795 -0.1211
4.4237 -3.0001 -0.1204
4.3539 -3.0207 -0.1121
4.3437 -3.0230 -0.1286
4.3119 -3.0324 -0.1229
4.2824 -3.0412 -0.1174
4.2605 -3.0475 -0.1183
4.2391 -3.0537 -0.1184
4.2173 -3.0601 -0.1166
4.1945 -3.0669 -0.1119
4.1781 -3.0715 -0.1140
4.1634 -3.0757 -0.1173
4.1461 -3.0807 -0.1161
4.1299 -3.0855 -0.1151
4.1182 -3.0887 -0.1198
4.1019 -3.0935 -0.1165
4.0893 -3.0971 -0.1180
4.0756 -3.1011 -0.1167
4.0517 -3.1081 -0.1171
4.0400 -3.1115 -0.1165
4.0292 -3.1146 -0.1167
4.0193 -3.1174 -0.1176
4.0095 -3.1203 -0.1182
3.9999 -3.1230 -0.1184
3.9910 -3.1256 -0.1195
6.5120 -2.3570 0.4908
6.6000 -2.3267 0.4319
6.5038 -2.3317 -0.0843
5.5332 -2.6320 -0.1414
5.3500 -2.6899 -0.1282
5.2490 -2.7210 -0.1367
5.0247 -2.7914 -0.1287
4.9462 -2.8158 -0.1316
4.8597 -2.8430 -0.1264
4.7677 -2.8724 -0.1133
4.7218 -2.8864 -0.1215
4.6676 -2.9032 -0.1222
4.6208 -2.9177 -0.1248
4.5732 -2.9326 -0.1241
4.5274 -2.9470 -0.1220
4.4869 -2.9597 -0.1211
4.4455 -2.9728 -0.1172
4.4117 -2.9834 -0.1170
4.3827 -2.9924 -0.1190
4.3502 -3.0027 -0.1160
4.3295 -3.0088 -0.1225
4.2746 -3.0262 -0.1174
4.2515 -3.0334 -0.1169
4.2082 -3.0471 -0.1146
4.1944 -3.0510 -0.1214
4.1759 -3.0568 -0.1210
4.1529 -3.0644 -0.1128
4.1407 -3.0679 -0.1187
4.1261 -3.0724 -0.1201
4.1103 -3.0774 -0.1187
4.0923 -3.0833 -0.1122
4.0825 -3.0861 -0.1182
4.0677 -3.0909 -0.1148
4.0564 -3.0944 -0.1165
4.0447 -3.0980 -0.1165
4.0214 -3.1054 -0.1139
4.0127 -3.1080 -0.1174
4.0025 -3.1112 -0.1168
3.9930 -3.1141 -0.1171
3.9853 -3.1163 -0.1209
7.5071 -1.9979 1.1273
5.6179 -2.5979 0.5605
7.1640 -2.0771 0.5242
7.0451 -2.1126 0.4498
7.0943 -2.0917 0.3764
7.3019 -2.0172 0.2929
7.1707 -2.0568 0.2194
7.1641 -2.0543 0.1396
7.2857 -2.0078 0.0443
6.9751 -2.1094 -0.0006
6.7324 -2.1883 -0.0426
6.2965 -2.3308 -0.1048
6.0560 -2.4109 -0.1155
5.8785 -2.4695 -0.1314
5.5480 -2.5795 -0.1453
4.7176 -2.8593 -0.1233
4.6579 -2.8795 -0.1209
4.6082 -2.8962 -0.1216
4.5076 -2.9304 -0.1133
4.4795 -2.9393 -0.1217
4.4403 -2.9526 -0.1195
4.3757 -2.9742 -0.1200
4.3437 -2.9851 -0.1174
4.3162 -2.9944 -0.1173
4.2629 -3.0125 -0.1133
4.2157 -3.0286 -0.1088
4.1996 -3.0337 -0.1135
4.1853 -3.0381 -0.1195
4.1485 -3.0506 -0.1172
4.1324 -3.0560 -0.1173
4.1173 -3.0611 -0.1177
4.1024 -3.0661 -0.1175
4.0854 -3.0721 -0.1123
4.0762 -3.0747 -0.1195
4.0610 -3.0801 -0.1151
4.0406 -3.0865 -0.1219
4.0252 -3.0922 -0.1132
4.0175 -3.0944 -0.1197
3.9938 -3.1028 -0.1116
3.9790 -3.1072 -0.1210
7.3461 -1.9915 1.3807
7.4956 -1.9360 1.3556
5.5329 -2.5857 0.5661
7.3252 -1.9402 0.5496
7.3210 -1.9362 0.4714
7.2783 -1.9403 0.3116
7.3689 -1.8954 0.1379
7.2284 -1.9408 0.0647
7.0964 -1.9833 -0.0046
6.4843 -2.1939 -0.1379
5.9198 -2.3968 -0.1390
5.5348 -2.5351 -0.1399
5.0026 -2.7277 -0.1230
4.8402 -2.7860 -0.1229
4.7130 -2.8317 -0.1249
4.6108 -2.8681 -0.1286
4.4660 -2.9209 -0.1176
4.4323 -2.9329 -0.1197
4.3977 -2.9454 -0.1190
4.3646 -2.9574 -0.1174
4.3120 -2.9760 -0.1213
4.2824 -2.9870 -0.1171
4.2549 -2.9971 -0.1132
4.2190 -3.0094 -0.1223
4.1776 -3.0245 -0.1194
4.1595 -3.0310 -0.1194
4.1359 -3.0402 -0.1097
4.1123 -3.0478 -0.1215
4.0951 -3.0543 -0.1174
4.0826 -3.0586 -0.1199
4.0667 -3.0647 -0.1152
4.0554 -3.0685 -0.1177
4.0414 -3.0738 -0.1140
4.0329 -3.0765 -0.1201
4.0194 -3.0817 -0.1152
4.0101 -3.0848 -0.1181
3.9978 -3.0896 -0.1132
3.9900 -3.0921 -0.1178
3.9797 -3.0959 -0.1157
3.9727 -3.0981 -0.1210
7.2384 -1.8876 0.5681
7.3300 -1.8462 0.4923
7.2278 -1.8788 0.4119
7.1904 -1.8867 0.3326
7.0846 -1.9145 0.1763
7.1013 -1.8941 0.0075
7.0631 -1.9021 -0.0733
6.5008 -2.1133 -0.1343
5.5305 -2.4860 -0.1375
5.3947 -2.5377 -0.1437
4.7034 -2.8052 -0.1237
4.5908 -2.8487 -0.1207
4.4686 -2.8952 -0.1262
4.4272 -2.9115 -0.1225
4.3836 -2.9289 -0.1140
4.3511 -2.9416 -0.1126
4.3336 -2.9473 -0.1237
4.3023 -2.9597 -0.1198
4.2274 -2.9888 -0.1165
4.2105 -2.9948 -0.1218
4.1871 -3.0042 -0.1175
4.1683 -3.0114 -0.1175
4.1499 -3.0186 -0.1166
4.1338 -3.0246 -0.1178
4.1162 -3.0316 -0.1153
4.1008 -3.0376 -0.1150
4.0852 -3.0437 -0.1130
4.0741 -3.0476 -0.1177
4.0620 -3.0521 -0.1198
4.0358 -3.0624 -0.1167
4.0268 -3.0655 -0.1218
4.0119 -3.0719 -0.1135
4.0022 -3.0755 -0.1153
3.9921 -3.0793 -0.1154
3.9828 -3.0828 -0.1164
3.9727 -3.0869 -0.1143
3.9643 -3.0900 -0.1157
7.1970 -1.7957 0.3509
7.0367 -1.8544 0.2760
7.0903 -1.8244 0.1915
7.1460 -1.7931 0.1023
6.9552 -1.8654 0.0387
7.2692 -1.7241 -0.0925
6.2616 -2.1322 -0.1488
5.3717 -2.4987 -0.1355
5.1245 -2.6000 -0.1367
4.6402 -2.7999 -0.1247
4.5898 -2.8205 -0.1256
4.5438 -2.8393 -0.1265
4.4507 -2.8782 -0.1188
4.4170 -2.8918 -0.1211
4.3825 -2.9060 -0.1206
4.3428 -2.9231 -0.1127
4.3210 -2.9313 -0.1197
4.2686 -2.9528 -0.1202
4.2454 -2.9622 -0.1210
4.2207 -2.9726 -0.1182
4.1603 -2.9975 -0.1173
4.1440 -3.0040 -0.1195
4.1288 -3.0100 -0.1219
4.1095 -3.0184 -0.1168
4.0783 -3.0315 -0.1138
4.0673 -3.0355 -0.1187
4.0513 -3.0426 -0.1133
4.0403 -3.0469 -0.1160
4.0273 -3.0524 -0.1136
4.0183 -3.0556 -0.1188
4.0064 -3.0607 -0.1165
3.9952 -3.0655 -0.1149
3.9873 -3.0682 -0.1201
3.9761 -3.0732 -0.1162
3.9666 -3.0771 -0.1155
7.2104 -1.7073 0.4521
7.2047 -1.7009 0.3699
7.1982 -1.6948 0.2862
7.0950 -1.7315 0.2074
7.3260 -1.6190 0.1007
7.1461 -1.6899 0.0290
7.1061 -1.6983 -0.0558
5.7065 -2.3022 -0.1314
5.3821 -2.4432 -0.1391
5.1397 -2.5486 -0.1447
4.8889 -2.6611 -0.1183
4.7359 -2.7284 -0.1153
4.6822 -2.7513 -0.1205
4.6380 -2.7698 -0.1285
4.4406 -2.8572 -0.1177
4.3681 -2.8892 -0.1154
4.3475 -2.8971 -0.1254
4.3250 -2.9062 -0.1324
4.2645 -2.9334 -0.1250
4.2164 -2.9547 -0.1232
4.1743 -2.9732 -0.1220
4.1540 -2.9823 -0.1198
4.1361 -2.9902 -0.1195
4.1026 -3.0050 -0.1182
4.0718 -3.0187 -0.1157
4.0592 -3.0240 -0.1175
4.0198 -3.0417 -0.1129
4.0110 -3.0451 -0.1181
4.0012 -3.0490 -0.1207
3.9892 -3.0547 -0.1168
3.9784 -3.0596 -0.1148
3.9694 -3.0635 -0.1159
3.9609 -3.0669 -0.1180
7.0232 -1.6909 0.3921
7.2065 -1.5951 0.3045
7.3056 -1.5377 0.2110
7.0303 -1.6577 0.1435
7.2580 -1.5381 0.0305
7.2512 -1.5299 -0.0637
7.0066 -1.6370 -0.1194
5.7285 -2.2297 -0.1353
5.1122 -2.5165 -0.1350
5.0207 -2.5584 -0.1407
4.9006 -2.6158 -0.1272
4.7524 -2.6846 -0.1290
4.6238 -2.7449 -0.1249
4.5135 -2.7972 -0.1172
4.4737 -2.8154 -0.1196
4.4423 -2.8292 -0.1264
4.3654 -2.8656 -0.1210
4.3076 -2.8921 -0.1239
4.2818 -2.9040 -0.1255
4.2044 -2.9407 -0.1189
4.1893 -2.9468 -0.1266
4.1675 -2.9573 -0.1241
4.1292 -2.9755 -0.1213
4.0926 -2.9933 -0.1146
4.0623 -3.0077 -0.1123
4.0511 -3.0124 -0.1163
4.0378 -3.0187 -0.1156
4.0270 -3.0233 -0.1185
4.0169 -3.0276 -0.1222
4.0035 -3.0344 -0.1174
3.9929 -3.0393 -0.1177
3.9816 -3.0449 -0.1152
3.9724 -3.0489 -0.1169
3.9630 -3.0533 -0.1169
3.9533 -3.0580 -0.1153
6.8180 -1.6894 0.3361
7.0113 -1.5818 0.2464
7.1675 -1.4913 0.1478
7.3044 -1.4092 0.0407
7.2245 -1.4371 -0.0462
7.0439 -1.5172 -0.1143
5.1223 -2.4636 -0.1410
5.0107 -2.5191 -0.1388
4.5221 -2.7617 -0.1302
4.4654 -2.7911 -0.1202
4.4248 -2.8113 -0.1195
4.3938 -2.8260 -0.1243
4.3536 -2.8467 -0.1185
4.2967 -2.8743 -0.1219
4.2699 -2.8875 -0.1223
4.2410 -2.9023 -0.1183
4.2181 -2.9136 -0.1191
4.2028 -2.9200 -0.1278
4.1745 -2.9352 -0.1182
4.1587 -2.9423 -0.1235
4.1021 -2.9711 -0.1176
4.0855 -2.9796 -0.1159
4.0765 -2.9826 -0.1263
4.0594 -2.9917 -0.1211
4.0450 -2.9991 -0.1193
4.0303 -3.0069 -0.1155
4.0186 -3.0125 -0.1165
4.0087 -3.0169 -0.1202
3.9940 -3.0253 -0.1121
3.9860 -3.0284 -0.1183
3.9762 -3.0331 -0.1194
3.9658 -3.0385 -0.1177
3.9565 -3.0430 -0.1179
3.9487 -3.0464 -0.1214
7.1274 -1.4472 0.4317
7.1539 -1.4205 0.3452
7.2169 -1.3738 0.2533
7.1400 -1.4013 0.1669
7.2035 -1.3532 0.0675
7.0907 -1.4002 -0.0141
6.9825 -1.4454 -0.0925
5.0058 -2.4756 -0.1393
4.8162 -2.5760 -0.1330
4.7477 -2.6116 -0.1357
4.5509 -2.7167 -0.1231
4.5022 -2.7424 -0.1222
4.4699 -2.7580 -0.1311
4.4189 -2.7861 -0.1223
4.3755 -2.8097 -0.1163
4.3119 -2.8430 -0.1171
4.2883 -2.8545 -0.1226
4.2552 -2.8729 -0.1160
4.2341 -2.8833 -0.1205
4.2095 -2.8963 -0.1194
4.1455 -2.9303 -0.1169
4.1267 -2.9403 -0.1162
4.0996 -2.9529 -0.1270
4.0798 -2.9643 -0.1200
4.0361 -2.9877 -0.1169
3.9999 -3.0067 -0.1171
3.9884 -3.0129 -0.1159
3.9781 -3.0182 -0.1165
3.9685 -3.0231 -0.1177
3.9595 -3.0275 -0.1197
3.9495 -3.0330 -0.1176
3.9413 -3.0370 -0.1200
3.9326 -3.0417 -0.1194
7.4006 -1.3405 1.3581
7.4943 -1.2415 1.0714
7.3078 -1.3272 0.9615
7.1675 -1.3894 0.8641
7.4013 -1.2364 0.7243
7.1479 -1.3608 0.6224
7.7303 -1.0261 0.5572
7.4266 -1.1783 0.4551
7.1613 -1.3113 0.3655
6.9879 -1.3943 0.2833
7.0780 -1.3287 0.1890
7.1396 -1.2784 0.0903
7.1318 -1.2670 -0.0053
7.0537 -1.2964 -0.0917
6.5426 -1.5803 -0.0940
6.0875 -1.8358 -0.0797
5.5234 -2.1417 -0.1279
5.2201 -2.3096 -0.1333
5.0065 -2.4269 -0.1425
4.7967 -2.5461 -0.1268
4.6613 -2.6212 -0.1285
4.5537 -2.6806 -0.1317
4.4505 -2.7393 -0.1233
4.3807 -2.7771 -0.1296
4.3049 -2.8209 -0.1195
4.2483 -2.8525 -0.1186
4.2249 -2.8653 -0.1204
4.2013 -2.8784 -0.1204
4.1802 -2.8900 -0.1215
4.1631 -2.8987 -0.1265
4.1186 -2.9251 -0.1167
4.0835 -2.9450 -0.1139
4.0306 -2.9731 -0.1218
4.0169 -2.9811 -0.1196
4.0017 -2.9908 -0.1123
3.9925 -2.9951 -0.1173
3.9816 -3.0011 -0.1174
3.9715 -3.0067 -0.1181
3.9611 -3.0126 -0.1171
3.9514 -3.0180 -0.1168
3.9436 -3.0217 -0.1209
3.9347 -3.0266 -0.1210
3.9257 -3.0319 -0.1193
7.3376 -1.2625 1.3046
7.3587 -1.2099 1.0802
7.1485 -1.3135 0.9670
7.1096 -1.3216 0.8846
7.0089 -1.3650 0.7954
7.0631 -1.3201 0.7227
7.2598 -1.1919 0.6545
7.2531 -1.1802 0.5667
7.1757 -1.2095 0.4762
6.9683 -1.3162 0.3893
7.0246 -1.2671 0.3006
7.0160 -1.2562 0.2111
6.9744 -1.2649 0.1228
6.8692 -1.3125 0.0426
6.8598 -1.3017 -0.0488
6.6709 -1.4023 -0.1086
6.1694 -1.7009 -0.0911
5.5512 -2.0573 -0.1353
5.2264 -2.2484 -0.1368
5.1192 -2.3100 -0.1457
5.0067 -2.3763 -0.1456
4.8893 -2.4473 -0.1356
4.7855 -2.5103 -0.1251
4.6254 -2.6070 -0.1117
4.5324 -2.6598 -0.1233
4.4451 -2.7105 -0.1269
4.3661 -2.7574 -0.1251
4.3330 -2.7768 -0.1260
4.3007 -2.7960 -0.1251
4.2392 -2.8333 -0.1188
4.1911 -2.8617 -0.1190
4.1499 -2.8856 -0.1206
4.1346 -2.8936 -0.1266
4.1141 -2.9063 -0.1232
4.0946 -2.9184 -0.1196
4.0746 -2.9314 -0.1130
4.0490 -2.9451 -0.1204
4.0329 -2.9555 -0.1158
3.9955 -2.9775 -0.1155
3.9846 -2.9838 -0.1163
3.9747 -2.9892 -0.1188
3.9520 -3.0038 -0.1119
3.9434 -3.0085 -0.1140
3.9364 -3.0115 -0.1206
3.9266 -3.0179 -0.1169
3.9174 -3.0239 -0.1140
7.2129 -1.2322 1.3086
7.1223 -1.2270 0.9929
7.1154 -1.2160 0.9144
7.0758 -1.2243 0.8304
6.9741 -1.2702 0.7405
7.1622 -1.1400 0.6743
7.1552 -1.1274 0.5877
7.2566 -1.0473 0.5013
7.2127 -1.0565 0.4084
7.0290 -1.1539 0.3202
6.9870 -1.1627 0.2311
6.7888 -1.2716 0.1562
6.8292 -1.2098 -0.0316
6.6125 -1.3339 -0.0879
6.0327 -1.6873 -0.1298
5.2333 -2.1838 -0.1406
5.1158 -2.2559 -0.1464
4.9903 -2.3352 -0.1410
4.8878 -2.3996 -0.1388
4.7054 -2.5158 -0.1264
4.4331 -2.6859 -0.1252
4.3961 -2.7084 -0.1279
4.3567 -2.7334 -0.1256
4.3177 -2.7588 -0.1205
4.2897 -2.7755 -0.1238
4.2594 -2.7947 -0.1222
4.2106 -2.8245 -0.1259
4.1245 -2.8784 -0.1249
4.1038 -2.8921 -0.1209
4.0682 -2.9151 -0.1166
4.0536 -2.9240 -0.1176
4.0384 -2.9338 -0.1159
4.0265 -2.9406 -0.1193
4.0147 -2.9474 -0.1222
4.0006 -2.9569 -0.1182
3.9869 -2.9664 -0.1134
3.9761 -2.9730 -0.1143
3.9677 -2.9771 -0.1202
3.9554 -2.9859 -0.1144
3.9442 -2.9937 -0.1101
3.9280 -3.0026 -0.1165
3.9195 -3.0079 -0.1166
3.9122 -3.0117 -0.1202
7.4091 -1.0594 1.6186
7.1556 -1.1652 1.3290
7.0815 -1.1144 0.8598
6.9772 -1.1636 0.7675
7.0667 -1.0889 0.6937
7.0586 -1.0761 0.6082
7.0169 -1.0849 0.5199
6.9431 -1.1148 0.4317
6.8701 -1.1446 0.3452
6.8921 -1.1110 0.2552
6.9477 -1.0538 0.1586
6.8292 -1.0944 -0.0186
6.7867 -1.1033 -0.1087
5.9186 -1.6626 -0.1713
5.3796 -2.0253 -0.1375
5.2238 -2.1280 -0.1380
5.1057 -2.2045 -0.1444
4.8808 -2.3540 -0.1393
4.7899 -2.4145 -0.1370
4.7186 -2.4609 -0.1398
4.6159 -2.5334 -0.1175
4.5647 -2.5660 -0.1225
4.4662 -2.6306 -0.1246
4.3135 -2.7310 -0.1264
4.1983 -2.8077 -0.1226
4.1484 -2.8422 -0.1154
4.1314 -2.8524 -0.1202
4.1148 -2.8625 -0.1241
4.0955 -2.8756 -0.1220
4.0773 -2.8882 -0.1198
4.0595 -2.9006 -0.1164
4.0452 -2.9098 -0.1176
4.0307 -2.9195 -0.1171
4.0175 -2.9280 -0.1178
3.9917 -2.9455 -0.1159
3.9689 -2.9606 -0.1155
3.9585 -2.9673 -0.1160
3.9499 -2.9720 -0.1205
3.9290 -2.9872 -0.1141
3.9130 -2.9967 -0.1188
7.2579 -1.0778 1.7449
7.2469 -1.0533 1.6052
7.1624 -1.0574 1.3670
7.1021 -1.0271 1.0524
6.9579 -1.0863 0.8724
7.0133 -1.0308 0.7992
6.9097 -1.0819 0.7072
7.0299 -0.9808 0.6323
6.8909 -1.0564 0.5398
7.0126 -0.9519 0.4544
7.0035 -0.9372 0.3626
6.8617 -1.0160 0.2757
6.8628 -0.9495 -0.0100
6.8863 -0.9091 -0.1147
5.9540 -1.5625 -0.0999
5.8557 -1.6196 -0.1502
5.4018 -1.9371 -0.1453
5.1090 -2.1407 -0.1481
4.8888 -2.2943 -0.1477
4.6914 -2.4361 -0.1293
4.5604 -2.5281 -0.1266
4.4541 -2.6030 -0.1233
4.3704 -2.6614 -0.1233
4.3002 -2.7103 -0.1233
4.2665 -2.7345 -0.1204
4.2360 -2.7562 -0.1181
4.2189 -2.7655 -0.1296
4.1838 -2.7931 -0.1164
4.1487 -2.8145 -0.1297
4.1040 -2.8475 -0.1215
4.0846 -2.8617 -0.1188
4.0682 -2.8730 -0.1193
4.0398 -2.8917 -0.1241
4.0098 -2.9138 -0.1191
3.9979 -2.9215 -0.1213
3.9744 -2.9379 -0.1217
3.9650 -2.9433 -0.1263
3.9413 -2.9619 -0.1174
3.9323 -2.9677 -0.1193
3.9232 -2.9740 -0.1195
3.9140 -2.9808 -0.1180
3.9048 -2.9880 -0.1148
3.8982 -2.9911 -0.1210
6.9471 -1.1429 1.5415
6.6781 -1.3030 1.3886
6.9433 -1.0788 1.2725
7.0900 -0.9619 1.2371
6.9559 -1.0345 1.1317
7.0420 -0.9567 1.0738
6.9079 -1.0302 0.9721
6.8394 -1.0589 0.8847
6.9526 -0.9597 0.8208
6.9440 -0.9452 0.7374
6.9346 -0.9310 0.6523
6.9252 -0.9163 0.5654
6.8204 -0.9711 0.4754
6.8097 -0.9572 0.3876
6.7570 -0.9515 0.2088
6.4502 -1.0960 -0.1193
6.0511 -1.3904 -0.1177
5.8571 -1.5260 -0.1469
5.4153 -1.8507 -0.1499
5.0909 -2.0915 -0.1428
4.9845 -2.1685 -0.1484
4.8809 -2.2449 -0.1482
4.7864 -2.3152 -0.1454
4.6252 -2.4360 -0.1367
4.5507 -2.4934 -0.1271
4.3599 -2.6348 -0.1234
4.2956 -2.6807 -0.1295
4.2283 -2.7323 -0.1210
4.2025 -2.7512 -0.1218
4.1742 -2.7733 -0.1167
4.1598 -2.7810 -0.1285
4.1313 -2.8046 -0.1182
4.1117 -2.8189 -0.1187
4.0970 -2.8279 -0.1255
4.0440 -2.8682 -0.1205
4.0181 -2.8857 -0.1269
3.9993 -2.9026 -0.1146
3.9898 -2.9079 -0.1218
3.9749 -2.9207 -0.1143
3.9650 -2.9270 -0.1184
3.9558 -2.9326 -0.1231
3.9341 -2.9497 -0.1188
3.9065 -2.9703 -0.1176
7.0300 -0.9688 1.5428
6.9919 -0.9768 1.4620
7.0456 -0.9207 1.4085
7.2411 -0.7636 1.3900
6.9369 -0.9586 1.2346
6.8394 -1.0088 1.1388
6.8298 -0.9962 1.0639
7.0729 -0.7989 1.0334
7.1346 -0.7313 0.9605
6.7427 -0.9993 0.8229
6.7905 -0.9425 0.7496
6.9611 -0.7677 0.5926
6.7894 -0.8759 0.4979
6.8418 -0.8112 0.4089
6.9321 -0.7152 0.3128
6.5780 -0.9709 0.2391
6.7761 -0.7874 0.1295
6.5544 -0.8900 -0.1312
6.0582 -1.2808 -0.1133
5.8093 -1.4700 -0.1298
5.7009 -1.5425 -0.1740
5.4758 -1.7185 -0.1711
5.2287 -1.9181 -0.1436
5.0799 -2.0346 -0.1406
4.9487 -2.1382 -0.1350
4.8631 -2.2025 -0.1436
4.7731 -2.2726 -0.1434
4.6908 -2.3371 -0.1413
4.4969 -2.4895 -0.1357
4.4392 -2.5362 -0.1288
4.3845 -2.5813 -0.1194
4.3509 -2.6059 -0.1251
4.2755 -2.6661 -0.1194
4.2169 -2.7115 -0.1198
4.1953 -2.7268 -0.1257
4.1679 -2.7491 -0.1219
4.1444 -2.7677 -0.1208
4.1225 -2.7850 -0.1198
4.1023 -2.8009 -0.1191
4.0850 -2.8138 -0.1212
4.0690 -2.8255 -0.1241
4.0349 -2.8531 -0.1201
4.0181 -2.8674 -0.1156
4.0052 -2.8769 -0.1176
3.9934 -2.8852 -0.1207
3.9792 -2.8975 -0.1163
3.9572 -2.9138 -0.1192
3.9470 -2.9213 -0.1209
3.9370 -2.9287 -0.1219
3.9160 -2.9468 -0.1155
3.9072 -2.9535 -0.1159
3.8996 -2.9585 -0.1194
3.8924 -2.9630 -0.1238
3.8840 -2.9701 -0.1216
7.2019 -0.8545 2.0479
6.9229 -0.9575 1.6109
6.8858 -0.9653 1.5323
6.8879 -0.9049 1.3290
6.9709 -0.8224 1.2795
6.9309 -0.8308 1.1947
6.9217 -0.8159 1.1166
6.9449 -0.7757 1.0432
6.8110 -0.8560 0.9404
6.7710 -0.8644 0.8556
6.9739 -0.6558 0.7105
6.7087 -0.8431 0.6046
6.7579 -0.7785 0.5208
6.6858 -0.8120 0.4317
6.6738 -0.7961 0.3425
6.6025 -0.8295 0.2552
6.5328 -0.8620 0.1696
6.5632 -0.7814 -0.0234
6.5792 -0.7386 -0.1262
6.0250 -1.2015 -0.0991
5.7770 -1.4000 -0.1171
5.6264 -1.5146 -0.1488
5.4114 -1.6913 -0.1483
5.2012 -1.8681 -0.1342
5.0679 -1.9764 -0.1380
4.9725 -2.0512 -0.1503
4.8501 -2.1542 -0.1416
4.7465 -2.2415 -0.1340
4.6049 -2.3568 -0.1377
4.4787 -2.4626 -0.1302
4.3791 -2.5460 -0.1246
4.3304 -2.5885 -0.1161
4.3001 -2.6117 -0.1218
4.2401 -2.6596 -0.1264
4.2085 -2.6868 -0.1224
4.1773 -2.7143 -0.1158
4.1405 -2.7405 -0.1300
4.1145 -2.7638 -0.1228
4.0974 -2.7767 -0.1272
4.0559 -2.8135 -0.1174
4.0394 -2.8272 -0.1169
4.0226 -2.8420 -0.1136
4.0095 -2.8519 -0.1164
3.9960 -2.8630 -0.1167
3.9836 -2.8727 -0.1181
3.9704 -2.8842 -0.1158
3.9591 -2.8932 -0.1167
3.9481 -2.9022 -0.1169
3.9388 -2.9088 -0.1208
3.9280 -2.9182 -0.1187
3.9185 -2.9258 -0.1193
3.9090 -2.9340 -0.1182
3.8995 -2.9426 -0.1153
3.8928 -2.9461 -0.1225
3.8848 -2.9524 -0.1233
7.1513 -0.7024 1.8093
6.8397 -0.9138 1.6198
6.8878 -0.8575 1.5728
6.9076 -0.8217 1.5125
7.2291 -0.5535 1.5467
6.9827 -0.7201 1.3948
6.8504 -0.8004 1.2839
6.9020 -0.7370 1.2236
6.8314 -0.7695 1.1311
6.8835 -0.7038 1.0650
6.7808 -0.7624 0.9668
6.8635 -0.6699 0.8997
6.7001 -0.7793 0.7956
6.7187 -0.7384 0.7156
6.6775 -0.7470 0.6282
6.6953 -0.7051 0.5431
6.7139 -0.6615 0.4544
6.7017 -0.6437 0.3627
6.4848 -0.8062 0.2804
6.3915 -0.8617 0.1986
6.4157 -0.7831 0.0126
6.4847 -0.6892 -0.0972
5.8621 -1.2169 -0.1360
5.6374 -1.4073 -0.1501
5.4155 -1.5998 -0.1495
5.2346 -1.7569 -0.1488
4.9410 -2.0144 -0.1391
4.7290 -2.2011 -0.1298
4.6481 -2.2717 -0.1281
4.5814 -2.3292 -0.1293
4.4703 -2.4244 -0.1328
4.3736 -2.5091 -0.1301
4.2902 -2.5835 -0.1233
4.2338 -2.6296 -0.1321
4.1755 -2.6816 -0.1276
4.1245 -2.7277 -0.1215
4.0860 -2.7599 -0.1250
4.0515 -2.7892 -0.1273
4.0132 -2.8267 -0.1132
3.9878 -2.8471 -0.1185
3.9756 -2.8571 -0.1202
3.9631 -2.8684 -0.1191
3.9509 -2.8795 -0.1173
3.9400 -2.8888 -0.1177
3.9295 -2.8979 -0.1175
3.9209 -2.9040 -0.1220
3.9106 -2.9137 -0.1195
3.9010 -2.9227 -0.1174
3.8919 -2.9310 -0.1158
3.8832 -2.9393 -0.1136
3.8759 -2.9446 -0.1168
7.0918 -0.6327 1.8305
6.9272 -0.7385 1.6960
6.8316 -0.7917 1.5928
6.9718 -0.6579 1.5762
6.9951 -0.6154 1.5126
6.7733 -0.7707 1.3698
7.0018 -0.5342 1.2872
6.8015 -0.6750 1.1594
6.7912 -0.6581 1.0802
6.8115 -0.6146 1.0053
6.6985 -0.6579 0.8248
6.6573 -0.6665 0.7374
6.7359 -0.5687 0.6592
6.6620 -0.6055 0.5668
6.6195 -0.6144 0.4767
6.5486 -0.6495 0.3871
6.5641 -0.6047 0.2951
6.6422 -0.4996 0.1941
6.5069 -0.5953 0.1097
6.3646 -0.6678 -0.0637
5.7767 -1.1907 -0.1086
5.6483 -1.2939 -0.1514
5.2241 -1.6837 -0.1462
4.8434 -2.0313 -0.1484
4.7321 -2.1365 -0.1379
4.6451 -2.2176 -0.1333
4.5830 -2.2728 -0.1384
4.5156 -2.3357 -0.1345
4.4583 -2.3887 -0.1327
4.3562 -2.4848 -0.1249
4.3223 -2.5138 -0.1308
4.2878 -2.5446 -0.1331
4.2087 -2.6229 -0.1152
4.1100 -2.7132 -0.1152
4.0894 -2.7321 -0.1150
4.0720 -2.7470 -0.1182
4.0407 -2.7732 -0.1255
4.0064 -2.8067 -0.1188
3.9933 -2.8179 -0.1213
3.9798 -2.8303 -0.1213
3.9557 -2.8516 -0.1234
3.9434 -2.8637 -0.1208
3.9209 -2.8859 -0.1163
3.9126 -2.8915 -0.1220
3.9023 -2.9021 -0.1185
3.8937 -2.9095 -0.1200
3.8848 -2.9181 -0.1186
3.8762 -2.9267 -0.1166
3.8683 -2.9339 -0.1164
3.8616 -2.9387 -0.1205
6.8509 -0.7100 1.7730
6.8131 -0.7179 1.6929
6.9522 -0.5798 1.6822
6.7648 -0.7110 1.5429
7.0660 -0.4335 1.5799
7.0583 -0.4128 1.5012
6.7923 -0.6133 1.3431
6.6943 -0.6719 1.2423
6.9295 -0.4398 1.2281
6.7912 -0.5333 1.1156
6.6489 -0.6041 0.9289
6.5523 -0.6636 0.8344
6.4853 -0.6970 0.7465
6.5548 -0.6033 0.6719
6.5987 -0.5314 0.5893
6.4724 -0.6206 0.4972
6.4582 -0.6031 0.4096
6.5587 -0.4724 0.3154
6.5755 -0.4215 0.2178
6.5616 -0.3998 0.1194
6.0452 -0.8261 -0.0829
5.9044 -0.9423 -0.1381
5.6603 -1.1728 -0.1528
5.2226 -1.5972 -0.1472
5.0998 -1.7109 -0.1610
4.7172 -2.0892 -0.1356
4.6492 -2.1521 -0.1434
4.5651 -2.2365 -0.1343
4.5065 -2.2922 -0.1369
4.4441 -2.3544 -0.1311
4.3092 -2.4853 -0.1297
4.2732 -2.5197 -0.1302
4.2404 -2.5512 -0.1308
4.1470 -2.6458 -0.1185
4.1249 -2.6662 -0.1208
4.1009 -2.6906 -0.1176
4.0819 -2.7081 -0.1200
4.0626 -2.7267 -0.1198
4.0456 -2.7426 -0.1214
4.0294 -2.7577 -0.1229
4.0118 -2.7761 -0.1190
3.9974 -2.7896 -0.1200
3.9841 -2.8018 -0.1219
3.9702 -2.8158 -0.1202
3.9580 -2.8272 -0.1213
3.9469 -2.8371 -0.1236
3.9336 -2.8522 -0.1173
3.9237 -2.8607 -0.1201
3.9147 -2.8679 -0.1245
3.9037 -2.8801 -0.1198
3.8939 -2.8904 -0.1176
3.8862 -2.8961 -0.1224
3.8770 -2.9063 -0.1190
3.8692 -2.9131 -0.1206
3.8608 -2.9225 -0.1170
3.8541 -2.9274 -0.1214
6.8133 -0.6756 1.9253
7.0042 -0.4665 1.8871
6.8712 -0.5542 1.7619
6.7742 -0.6124 1.6552
6.7642 -0.5956 1.5846
6.6699 -0.6526 1.4823
6.7619 -0.5173 1.3734
6.7818 -0.4710 1.3053
6.6243 -0.5864 1.1872
6.7292 -0.4607 1.1376
6.9121 -0.2588 1.0967
6.5881 -0.5330 0.9505
6.6043 -0.4869 0.8729
6.6204 -0.4395 0.7919
6.6080 -0.4190 0.7047
6.5355 -0.4574 0.6118
6.5221 -0.4370 0.5227
6.4792 -0.4460 0.4317
6.6166 -0.2688 0.3344
6.3933 -0.4640 0.2496
6.3231 -0.5019 0.1615
6.1802 -0.6185 0.0858
6.1881 -0.5741 -0.0095
6.3581 -0.3493 -0.1448
6.0351 -0.6697 -0.1675
5.3668 -1.3639 -0.1319
5.2210 -1.5062 -0.1482
5.0628 -1.6675 -0.1478
4.8147 -1.9215 -0.1444
4.7068 -2.0345 -0.1363
4.6307 -2.1108 -0.1393
4.5060 -2.2353 -0.1463
4.3731 -2.3797 -0.1225
4.2906 -2.4635 -0.1230
4.2219 -2.5334 -0.1230
4.1613 -2.5968 -0.1188
4.0711 -2.6883 -0.1197
4.0374 -2.7204 -0.1256
4.0158 -2.7463 -0.1153
4.0002 -2.7624 -0.1149
3.9737 -2.7875 -0.1197
3.9618 -2.7985 -0.1228
3.9467 -2.8170 -0.1148
3.9385 -2.8211 -0.1258
3.9258 -2.8360 -0.1207
3.9157 -2.8454 -0.1228
3.9052 -2.8568 -0.1211
3.8943 -2.8701 -0.1155
3.8855 -2.8786 -0.1166
3.8774 -2.8858 -0.1193
3.8695 -2.8929 -0.1216
3.8614 -2.9014 -0.1211
3.8534 -2.9104 -0.1189
3.8468 -2.9154 -0.1233
6.7553 -0.5373 1.7572
6.7169 -0.5453 1.6756
6.6676 -0.5360 1.5229
6.8029 -0.3819 1.5018
6.7313 -0.4191 1.4045
6.7812 -0.3414 1.3455
6.8337 -0.2593 1.2825
6.7903 -0.2684 1.1905
6.7158 -0.3081 1.0916
6.6130 -0.3766 0.9889
6.7109 -0.2088 0.8355
6.6344 -0.2509 0.7371
6.4722 -0.3833 0.6343
6.5457 -0.2695 0.5491
6.3723 -0.3801 0.3634
6.3294 -0.3891 0.2724
6.2346 -0.4560 0.1865
6.1748 -0.4456 0.0039
5.9971 -0.5730 -0.1519
5.7941 -0.7762 -0.1888
5.3813 -1.2411 -0.1368
5.0415 -1.6043 -0.1417
4.8161 -1.8427 -0.1513
4.6263 -2.0494 -0.1447
4.5478 -2.1357 -0.1400
4.4714 -2.2222 -0.1293
4.3668 -2.3349 -0.1285
4.2846 -2.4226 -0.1301
4.2087 -2.5077 -0.1216
4.1868 -2.5269 -0.1321
4.1550 -2.5634 -0.1264
4.1018 -2.6235 -0.1195
4.0640 -2.6612 -0.1266
4.0258 -2.7035 -0.1235
4.0098 -2.7202 -0.1247
3.9916 -2.7424 -0.1182
3.9771 -2.7582 -0.1179
3.9643 -2.7710 -0.1202
3.9528 -2.7817 -0.1243
3.9383 -2.7999 -0.1176
3.9270 -2.8118 -0.1183
3.9155 -2.8250 -0.1162
3.9068 -2.8319 -0.1223
3.8962 -2.8443 -0.1198
3.8856 -2.8580 -0.1143
3.8770 -2.8668 -0.1155
3.8696 -2.8721 -0.1217
3.8613 -2.8815 -0.1208
3.8524 -2.8935 -0.1146
3.8457 -2.8987 -0.1195
3.8392 -2.9039 -0.1241
6.7577 -0.4966 1.9932
6.6396 -0.5780 1.8729
6.7736 -0.3706 1.7458
6.7628 -0.3511 1.6731
6.6648 -0.4152 1.5650
6.7114 -0.3395 1.5126
6.6417 -0.3765 1.4163
6.6591 -0.3273 1.3489
6.6766 -0.2769 1.2786
6.7257 -0.1927 1.2135
6.6214 -0.2647 1.1071
6.8010 -0.0418 1.0632
6.6259 -0.1879 0.9430
6.3590 -0.4357 0.8170
6.3084 -0.3053 0.3862
6.2390 -0.3448 0.2966
6.1719 -0.3826 0.2088
5.9809 -0.4464 -0.1418
5.8333 -0.5895 -0.1978
5.1677 -1.3738 -0.1305
5.0117 -1.5503 -0.1318
4.6069 -2.0057 -0.1404
4.4669 -2.1662 -0.1364
4.3478 -2.3073 -0.1229
4.2768 -2.3821 -0.1357
4.2382 -2.4272 -0.1330
4.1451 -2.5344 -0.1295
4.1167 -2.5687 -0.1247
4.0889 -2.6035 -0.1170
4.0726 -2.6181 -0.1259
4.0503 -2.6452 -0.1217
4.0138 -2.6872 -0.1205
3.9808 -2.7264 -0.1165
3.9684 -2.7382 -0.1215
3.9549 -2.7536 -0.1215
3.9415 -2.7696 -0.1196
3.9298 -2.7826 -0.1203
3.9178 -2.7970 -0.1184
3.9071 -2.8091 -0.1185
3.8970 -2.8205 -0.1188
3.8869 -2.8324 -0.1174
3.8775 -2.8437 -0.1163
3.8690 -2.8527 -0.1177
3.8607 -2.8617 -0.1185
3.8529 -2.8699 -0.1199
3.8447 -2.8809 -0.1163
3.8382 -2.8855 -0.1224
3.8316 -2.8915 -0.1260
6.7283 -0.4053 2.0277
6.7461 -0.3598 1.9758
6.6407 -0.4031 1.7980
6.7322 -0.2513 1.7072
6.6058 -0.3461 1.5860
6.8026 -0.1134 1.5922
6.6681 -0.2168 1.4685
6.5978 -0.2555 1.3708
6.8015 -0.0056 1.3580
6.6308 -0.1494 1.2281
6.5879 -0.1584 1.1371
6.5156 -0.1995 1.0396
6.5309 -0.1444 0.9606
6.1934 -0.2917 0.4094
6.2015 -0.2394 0.3179
6.1838 -0.2171 0.2247
5.9118 -0.5135 0.1616
6.0591 -0.1892 -0.1557
5.8143 -0.4669 -0.1889
5.1736 -1.2926 -0.0634
5.1174 -1.3372 -0.1122
5.0292 -1.4282 -0.1435
4.8995 -1.5819 -0.1470
4.7731 -1.7363 -0.1405
4.6907 -1.8308 -0.1494
4.5253 -2.0317 -0.1434
4.3033 -2.3012 -0.1357
4.2574 -2.3593 -0.1288
4.2211 -2.4032 -0.1280
4.1903 -2.4391 -0.1302
4.1597 -2.4763 -0.1290
4.1281 -2.5171 -0.1225
4.1029 -2.5477 -0.1218
4.0812 -2.5727 -0.1238
4.0590 -2.5999 -0.1222
4.0434 -2.6148 -0.1304
3.9991 -2.6768 -0.1114
3.9861 -2.6891 -0.1183
3.9723 -2.7043 -0.1212
3.9556 -2.7276 -0.1140
3.9431 -2.7419 -0.1157
3.9312 -2.7553 -0.1174
3.9194 -2.7694 -0.1175
3.9085 -2.7819 -0.1185
3.8992 -2.7907 -0.1236
3.8874 -2.8082 -0.1163
3.8791 -2.8155 -0.1222
3.8694 -2.8284 -0.1192
3.8612 -2.8370 -0.1219
3.8450 -2.8561 -0.1224
3.8373 -2.8659 -0.1212
3.8298 -2.8757 -0.1195
3.8233 -2.8819 -0.1230
6.7271 -0.2840 2.0788
6.7345 -0.2144 1.9577
6.6106 -0.3084 1.8317
6.7424 -0.1405 1.8294
6.9240 0.0832 1.8413
6.7072 -0.0721 1.6025
6.2946 -0.3066 1.0252
6.3564 -0.1966 0.9612
6.2760 -0.0810 0.5246
6.2322 -0.0902 0.4317
6.2417 -0.0308 0.3366
6.0946 -0.1735 0.2496
6.2621 0.0960 0.1334
6.0176 -0.0777 -0.1384
5.6424 -0.5545 -0.1339
5.2121 -1.1271 -0.0767
4.8763 -1.5198 -0.1408
4.6738 -1.7727 -0.1473
4.3896 -2.1347 -0.1420
4.1713 -2.4207 -0.1222
4.1483 -2.4453 -0.1311
4.0960 -2.5115 -0.1308
4.0670 -2.5537 -0.1198
4.0465 -2.5793 -0.1205
4.0277 -2.6023 -0.1219
4.0086 -2.6276 -0.1197
3.9899 -2.6535 -0.1152
3.9780 -2.6638 -0.1248
3.9617 -2.6863 -0.1210
3.9469 -2.7064 -0.1182
3.9353 -2.7188 -0.1229
3.9222 -2.7364 -0.1206
3.9114 -2.7486 -0.1237
3.8997 -2.7645 -0.1214
3.8796 -2.7892 -0.1227
3.8704 -2.8004 -0.1238
3.8615 -2.8115 -0.1242
3.8445 -2.8334 -0.1231
3.8294 -2.8522 -0.1239
3.8219 -2.8630 -0.1211
3.8154 -2.8700 -0.1236
6.8247 -0.0891 2.2510
6.7843 -0.0976 2.1654
6.6577 -0.1959 2.0321
7.2087 0.4582 2.1862
6.5949 -0.1615 1.8094
6.2107 -0.2662 1.0403
6.3466 -0.0603 0.9946
6.2784 -0.1010 0.8998
4.8461 -1.8143 0.5231
6.0546 -0.0658 0.2707
5.9420 -0.1715 0.1866
5.8368 -0.1672 -0.0861
5.4158 -0.7421 -0.0627
5.1568 -1.0910 -0.0571
5.1789 -1.0167 -0.1413
4.8272 -1.4972 -0.1213
4.7074 -1.6594 -0.1172
4.6380 -1.7436 -0.1333
4.4818 -1.9529 -0.1320
4.4313 -2.0148 -0.1424
4.3587 -2.1202 -0.1267
4.2725 -2.2321 -0.1328
4.1969 -2.3337 -0.1316
4.1299 -2.4276 -0.1233
4.0827 -2.4873 -0.1296
4.0374 -2.5496 -0.1263
4.0167 -2.5789 -0.1233
4.0002 -2.5992 -0.1266
3.9637 -2.6537 -0.1157
3.9383 -2.6833 -0.1240
3.9255 -2.6998 -0.1248
3.9114 -2.7226 -0.1176
3.9010 -2.7343 -0.1216
3.8913 -2.7444 -0.1269
3.8704 -2.7744 -0.1230
3.8610 -2.7874 -0.1223
3.8521 -2.7995 -0.1218
3.8435 -2.8116 -0.1207
3.8354 -2.8228 -0.1198
3.8278 -2.8332 -0.1195
3.8207 -2.8420 -0.1208
3.8136 -2.8523 -0.1193
6.2324 -0.0515 1.0053
4.8276 -1.7676 0.5342
5.2072 -1.1230 0.3425
5.1689 -1.1439 0.2840
5.0957 -1.2176 0.2316
5.0637 -1.0766 -0.0967
4.8819 -1.3381 -0.0880
4.7441 -1.5352 -0.0837
4.6598 -1.6468 -0.0967
4.6155 -1.6916 -0.1279
4.3745 -2.0444 -0.1058
4.3465 -2.0707 -0.1293
4.2546 -2.2005 -0.1290
4.1740 -2.3197 -0.1197
4.1564 -2.3332 -0.1395
4.1167 -2.3983 -0.1234
4.0215 -2.5357 -0.1183
4.0105 -2.5411 -0.1364
3.9880 -2.5791 -0.1253
3.9701 -2.6063 -0.1218
3.9559 -2.6244 -0.1251
3.9410 -2.6465 -0.1235
3.9273 -2.6660 -0.1230
3.9162 -2.6782 -0.1291
3.9031 -2.6991 -0.1249
3.8918 -2.7152 -0.1249
3.8805 -2.7327 -0.1222
3.8702 -2.7477 -0.1212
3.8433 -2.7844 -0.1236
3.8346 -2.7983 -0.1205
3.8267 -2.8098 -0.1198
3.8191 -2.8220 -0.1174
3.8123 -2.8295 -0.1211
3.8053 -2.8408 -0.1186
3.7991 -2.8467 -0.1236
6.5158 -0.0136 1.9365
6.1704 0.0211 1.0273
4.6706 -1.9174 0.5305
5.2547 -0.9762 0.4164
5.1093 -1.1232 0.3006
4.9528 -1.3328 0.2608
4.9140 -1.3604 0.2107
4.8622 -1.3001 -0.0166
4.8570 -1.2692 -0.0806
4.6370 -1.5913 -0.0909
4.3908 -1.9330 -0.1338
4.3317 -2.0236 -0.1298
4.2940 -2.0729 -0.1412
4.1981 -2.2534 -0.0799
4.1693 -2.2914 -0.0880
4.1528 -2.3027 -0.1099
4.1299 -2.3302 -0.1210
4.1025 -2.3703 -0.1223
4.0330 -2.4717 -0.1262
4.0128 -2.5017 -0.1264
3.9723 -2.5689 -0.1154
3.9587 -2.5850 -0.1222
3.9438 -2.6069 -0.1228
3.9300 -2.6270 -0.1238
3.9171 -2.6454 -0.1253
3.8809 -2.7014 -0.1219
3.8714 -2.7128 -0.1266
3.8605 -2.7323 -0.1213
3.8515 -2.7443 -0.1236
3.8431 -2.7547 -0.1272
3.8341 -2.7699 -0.1242
3.8252 -2.7882 -0.1161
3.8177 -2.7983 -0.1177
3.8107 -2.8068 -0.1208
3.8036 -2.8193 -0.1180
3.7969 -2.8301 -0.1167
6.5101 0.1214 1.9882
6.1084 0.0937 1.0494
6.1645 0.2248 0.9836
5.2010 -0.9409 0.4320
5.2572 -0.8098 0.3665
5.1523 -0.9374 0.3076
4.8909 -1.2946 0.2212
4.9152 -1.2145 0.1567
4.9662 -1.0837 0.0790
4.9072 -1.1460 0.0312
4.9028 -1.1099 -0.0354
4.6181 -1.5260 -0.0877
4.5780 -1.5667 -0.1228
4.3569 -1.9195 -0.1173
4.1630 -2.2665 -0.0542
4.1190 -2.2895 -0.1262
4.0688 -2.3645 -0.1329
4.0213 -2.4422 -0.1289
3.9825 -2.5036 -0.1287
3.9500 -2.5531 -0.1314
3.9309 -2.5918 -0.1182
3.9190 -2.6064 -0.1248
3.8937 -2.6464 -0.1249
3.8705 -2.6851 -0.1215
3.8511 -2.7142 -0.1242
3.8325 -2.7463 -0.1197
3.8239 -2.7626 -0.1157
3.8161 -2.7748 -0.1159
3.8091 -2.7827 -0.1208
3.8021 -2.7930 -0.1220
3.7886 -2.8160 -0.1193
3.7827 -2.8197 -0.1281
6.0700 0.2011 1.0781
6.0511 0.2270 0.9946
4.5931 -1.9017 0.5447
5.1098 -1.0098 0.5051
5.2836 -0.5837 0.3089
4.8674 -1.2268 0.2319
4.9743 -0.9427 0.0793
4.8846 -1.0171 -0.0302
4.3093 -1.9745 -0.0377
4.3171 -1.9222 -0.0947
4.1524 -2.1578 -0.1524
4.1090 -2.2434 -0.1337
4.0736 -2.3114 -0.1209
4.0521 -2.3425 -0.1279
4.0044 -2.4273 -0.1208
3.9694 -2.4812 -0.1276
3.9375 -2.5328 -0.1302
3.9082 -2.5838 -0.1273
3.8820 -2.6316 -0.1215
3.8602 -2.6678 -0.1219
3.8503 -2.6840 -0.1225
3.8404 -2.7027 -0.1195
3.8321 -2.7127 -0.1249
3.8228 -2.7330 -0.1181
3.8074 -2.7570 -0.1208
3.8000 -2.7702 -0.1196
3.7930 -2.7824 -0.1188
3.7864 -2.7929 -0.1195
3.7800 -2.8059 -0.1163
5.9878 0.3011 1.0171
5.1050 -0.8994 0.5221
5.1336 -0.8053 0.4633
5.3723 -0.3309 0.3943
4.9525 -0.7962 0.0157
4.8134 -1.0290 -0.0032
4.6600 -1.3032 -0.0003
4.2810 -1.9567 -0.0254
4.2650 -1.9601 -0.0593
4.1482 -2.1231 -0.1192
4.1244 -2.1546 -0.1337
4.0929 -2.2117 -0.1321
4.0619 -2.2713 -0.1259
4.0374 -2.3140 -0.1268
4.0160 -2.3493 -0.1303
3.9940 -2.3899 -0.1282
3.9743 -2.4257 -0.1272
3.9551 -2.4622 -0.1237
3.9219 -2.5248 -0.1188
3.9098 -2.5401 -0.1270
3.8308 -2.6824 -0.1240
3.8216 -2.7015 -0.1203
3.7777 -2.7783 -0.1218
3.7715 -2.7907 -0.1199
3.7656 -2.7996 -0.1220
5.8178 0.1979 1.0096
4.5474 -1.8398 0.5625
4.2883 -2.1062 0.2821
4.6396 -1.2265 0.0049
4.6152 -1.2316 -0.0469
4.1313 -2.0863 -0.1177
4.1052 -2.1270 -0.1284
4.0212 -2.2889 -0.1234
4.0047 -2.3091 -0.1372
3.9792 -2.3664 -0.1256
3.9618 -2.3956 -0.1300
3.9404 -2.4449 -0.1185
3.9259 -2.4682 -0.1236
3.9091 -2.5052 -0.1168
3.8979 -2.5172 -0.1282
3.8717 -2.5693 -0.1246
3.8491 -2.6137 -0.1224
3.8388 -2.6334 -0.1218
3.8294 -2.6503 -0.1228
3.8202 -2.6690 -0.1211
3.8113 -2.6893 -0.1166
3.8036 -2.6997 -0.1217
3.7961 -2.7119 -0.1243
3.7819 -2.7360 -0.1276
3.7688 -2.7634 -0.1241
3.7570 -2.7878 -0.1212
4.5620 -1.7669 0.6109
4.6638 -1.4851 0.5182
4.3027 -2.0610 0.3453
4.2670 -2.1119 0.3211
4.2401 -2.1456 0.2972
4.2187 -2.1682 0.2732
4.5836 -1.2315 0.0276
4.5888 -1.1643 -0.0396
4.5687 -1.1577 -0.0951
4.1497 -1.9773 -0.1162
4.1174 -2.0374 -0.1216
4.0856 -2.1002 -0.1225
4.0343 -2.1950 -0.1315
4.0073 -2.2541 -0.1255
3.9875 -2.2890 -0.1311
3.9623 -2.3503 -0.1180
3.9482 -2.3678 -0.1308
3.9121 -2.4486 -0.1205
3.8845 -2.5014 -0.1234
3.8596 -2.5519 -0.1225
3.8386 -2.5897 -0.1274
3.8190 -2.6309 -0.1250
3.8014 -2.6699 -0.1204
3.7862 -2.6993 -0.1217
3.7723 -2.7285 -0.1200
3.7659 -2.7425 -0.1186
3.7597 -2.7519 -0.1220
3.7539 -2.7631 -0.1226
3.7481 -2.7706 -0.1273
4.3896 -2.0183 0.5842
4.2766 -2.1275 0.4390
4.2902 -2.0736 0.4113
4.2802 -2.0691 0.3830
4.2338 -2.1207 0.3310
4.2211 -2.1233 0.3040
4.2054 -2.1331 0.2780
4.1875 -2.1490 0.2533
4.5508 -1.0620 -0.0947
4.5253 -1.0674 -0.1487
4.1759 -1.9312 -0.0148
4.1251 -2.0487 -0.0044
4.1111 -2.0516 -0.0340
4.1339 -1.9270 -0.1183
4.0747 -2.0398 -0.1328
4.0211 -2.1495 -0.1374
3.9956 -2.2068 -0.1341
3.9709 -2.2659 -0.1267
3.9529 -2.2994 -0.1321
3.9345 -2.3386 -0.1321
3.9150 -2.3882 -0.1229
3.9017 -2.4086 -0.1317
3.8473 -2.5352 -0.1196
3.8172 -2.5945 -0.1248
3.7913 -2.6501 -0.1241
3.7836 -2.6675 -0.1230
3.7762 -2.6858 -0.1201
3.7694 -2.6983 -0.1223
3.7628 -2.7137 -0.1208
3.7566 -2.7261 -0.1217
3.7505 -2.7339 -0.1274
3.7449 -2.7508 -0.1217
3.7391 -2.7549 -0.1310
4.3050 -2.1453 0.5967
4.2591 -2.0768 0.4187
4.2430 -2.0868 0.3916
4.2319 -2.0853 0.3641
4.2191 -2.0880 0.3369
4.2062 -2.0907 0.3096
4.1917 -2.0976 0.2829
4.2514 -1.6865 -0.0019
4.1349 -1.9655 0.0138
4.1066 -2.0162 0.0001
4.0937 -2.0151 -0.0313
4.0841 -2.0009 -0.0683
4.0574 -1.9989 -0.1327
4.0010 -2.1309 -0.1285
3.9806 -2.1695 -0.1362
3.9172 -2.3267 -0.1220
3.8878 -2.3854 -0.1304
3.8742 -2.4130 -0.1336
3.8468 -2.4864 -0.1217
3.8359 -2.5088 -0.1243
3.8151 -2.5570 -0.1230
3.8058 -2.5780 -0.1232
3.7970 -2.5970 -0.1241
3.7885 -2.6188 -0.1213
3.7806 -2.6405 -0.1176
3.7733 -2.6516 -0.1231
3.7662 -2.6664 -0.1243
3.7596 -2.6859 -0.1198
3.7532 -2.6977 -0.1225
3.7470 -2.7067 -0.1278
3.7413 -2.7231 -0.1241
3.7355 -2.7319 -0.1284
4.2900 -2.1406 0.6250
4.2354 -2.0650 0.4256
4.2257 -2.0602 0.3982
4.1855 -2.0725 0.3168
4.1555 -2.1228 0.2956
4.1219 -2.1866 0.2788
4.1110 -2.1869 0.2538
4.0966 -2.1978 0.2309
4.1177 -1.9723 0.0631
4.0997 -1.9888 0.0374
4.0892 -1.9783 0.0029
4.0727 -1.9905 -0.0238
4.0701 -1.8854 -0.1308
4.0120 -2.0228 -0.1337
3.9211 -2.2502 -0.1261
3.8881 -2.3285 -0.1275
3.8589 -2.4031 -0.1236
3.8471 -2.4261 -0.1290
3.8343 -2.4640 -0.1222
3.8233 -2.4908 -0.1221
3.8130 -2.5154 -0.1222
3.7945 -2.5565 -0.1258
3.7779 -2.5942 -0.1281
3.7701 -2.6144 -0.1266
3.7629 -2.6384 -0.1204
3.7561 -2.6516 -0.1236
3.7497 -2.6734 -0.1173
3.7376 -2.6985 -0.1213
3.7266 -2.7223 -0.1241
3.7207 -2.7255 -0.1347
4.2971 -2.1742 0.7361
4.2935 -2.1619 0.7167
4.3061 -2.1161 0.7049
4.2944 -2.1186 0.6802
4.2811 -2.1244 0.6547
4.2011 -2.1632 0.5048
4.1244 -2.1713 0.3350
4.1122 -2.1758 0.3109
4.1007 -2.1782 0.2866
4.0872 -2.1871 0.2634
4.0830 -2.1659 0.2348
4.0679 -2.1801 0.2126
4.0999 -1.9839 0.1111
4.0895 -1.9740 0.0783
4.0788 -1.9643 0.0448
4.0627 -1.9757 0.0178
4.0458 -1.9912 -0.0072
3.9905 -2.0028 -0.1244
3.9445 -2.1197 -0.1262
3.9071 -2.2108 -0.1311
3.8461 -2.3710 -0.1287
3.8220 -2.4352 -0.1270
3.8010 -2.4917 -0.1248
3.7919 -2.5097 -0.1299
3.7827 -2.5417 -0.1224
3.7667 -2.5841 -0.1215
3.7523 -2.6152 -0.1270
3.7396 -2.6560 -0.1197
3.7335 -2.6673 -0.1238
3.7277 -2.6805 -0.1252
3.7224 -2.6957 -0.1240
3.7169 -2.7048 -0.1285
3.7116 -2.7150 -0.1315
4.8966 0.6983 1.2717
4.8032 0.3294 1.1895
4.8131 0.2061 1.1595
3.9161 -1.8175 0.7320
3.9308 -1.8378 0.7263
3.4198 0.1420 1.1539
4.8099 0.4754 1.1475
4.8337 0.3693 1.1233
4.7297 0.0102 1.0519
3.9146 -1.8296 0.7015
3.3500 0.2539 1.1023
3.4212 0.0946 1.0681
4.7715 0.3627 1.0505
4.8510 0.3801 1.0498
3.8889 -1.8381 0.6731
3.9186 -1.8316 0.6729
3.9433 -1.8340 0.6712
4.9108 1.0247 1.0798
4.7632 0.4831 0.9954
4.7356 0.2571 0.9586
4.8690 0.3919 0.9752
3.9088 -1.8103 0.6486
3.9316 -1.8174 0.6463
3.9568 -1.8196 0.6448
3.3509 0.0953 0.9172
3.4259 0.0287 0.9045
3.5941 -0.7652 0.7830
3.6299 -0.8689 0.7666
3.9321 -0.7339 0.7738
4.0431 -0.5598 0.7944
4.1624 -0.3817 0.8153
4.6393 0.5251 0.9268
4.6442 0.3502 0.9014
4.6250 0.1383 0.8715
4.6885 0.1282 0.8675
3.9194 -1.8002 0.6204
3.9406 -1.8109 0.6180
3.9710 -1.8042 0.6177
1.4950 -1.8490 0.6705
3.5206 -1.2119 0.6754
3.5970 -1.0594 0.6910
3.7244 -1.1282 0.6782
3.8323 -0.9144 0.7001
3.9164 -0.8058 0.7101
4.1134 -0.5433 0.7347
4.3913 0.0445 0.7955
4.5317 0.2252 0.8122
4.6227 0.2711 0.8145
4.7561 0.4112 0.8266
4.7551 0.2480 0.8071
3.9402 -1.7175 0.5998
3.9440 -1.7645 0.5940
3.9495 -1.8045 0.5890
3.9371 -1.8724 0.5813
1.5341 -1.8889 0.6235
3.5791 -1.1721 0.6307
3.6883 -1.1061 0.6337
3.7181 -1.1708 0.6266
3.8424 -0.9007 0.6487
3.9141 -0.8343 0.6529
4.0840 -0.4829 0.6814
4.3576 0.1168 0.7305
4.5009 0.3069 0.7444
4.5826 0.3248 0.7436
4.6386 0.2820 0.7379
4.6802 0.2123 0.7300
4.3757 -0.7062 0.6513
3.9416 -1.7253 0.5669
3.9294 -1.8014 0.5600
3.9404 -1.8303 0.5569
3.9131 -1.9227 0.5489
1.2345 -1.4350 0.6216
0.3567 -0.4452 0.7131
3.0967 1.1044 0.7555
3.3611 -0.9295 0.6051
3.6905 -1.1180 0.5837
3.7118 -1.2131 0.5765
3.7507 -1.2325 0.5742
3.8518 -1.0516 0.5845
4.0085 -0.8778 0.5929
3.9743 -1.0977 0.5782
3.9617 -1.2399 0.5685
4.0072 -1.2300 0.5680
4.0486 -1.2295 0.5671
4.1732 -1.1400 0.5703
4.1607 -1.2468 0.5631
3.9541 -1.7662 0.5314
3.9521 -1.8192 0.5277
3.9280 -1.9060 0.5222
-1.0104 0.4450 0.6950
0.1972 -0.3074 0.6377
3.1139 0.3315 0.6113
3.3659 -0.9148 0.5498
3.8393 -0.9529 0.5390
3.9516 -0.7588 0.5457
4.0047 -0.7610 0.5446
4.0463 -0.7935 0.5424
4.0811 -0.8381 0.5397
4.0880 -0.9453 0.5347
4.1196 -0.9832 0.5323
4.1446 -1.0310 0.5297
4.1378 -1.1412 0.5248
4.1506 -1.2013 0.5218
3.9528 -1.7254 0.5017
3.9200 -1.8381 0.4972
3.9305 -1.8667 0.4957
-0.0470 -0.2033 0.5529
0.1115 -0.2427 0.5500
1.2486 0.8547 0.5567
1.4287 0.7353 0.5519
2.8819 1.0536 0.5387
3.3759 -0.8421 0.4941
3.9949 -0.6462 0.4897
4.0124 -0.7599 0.4872
4.0182 -0.8899 0.4845
3.8475 -1.5491 0.4736
3.8666 -1.5862 0.4726
3.8761 -1.6403 0.4714
3.8770 -1.7068 0.4700
3.8951 -1.7325 0.4693
3.9006 -1.7800 0.4683
3.9151 -1.8065 0.4675
3.9119 -1.8623 0.4665
3.9067 -1.9174 0.4654
3.9189 -1.9391 0.4648
1.3158 -1.7544 0.4559
1.5849 0.3694 0.4415
3.1197 0.4288 0.4292
3.3196 -0.8545 0.4351
3.3697 -0.9561 0.4353
3.5749 -0.2724 0.4297
3.6308 -0.3675 0.4298
3.7321 -1.1967 0.4338
4.0430 -0.5213 0.4275
3.9895 -0.8467 0.4298
3.8348 -1.4046 0.4342
3.8325 -1.5104 0.4349
3.8305 -1.6034 0.4354
3.8515 -1.6336 0.4354
3.8691 -1.6676 0.4355
3.8757 -1.7209 0.4358
3.8789 -1.7760 0.4360
3.8822 -1.8257 0.4363
3.8965 -1.8510 0.4363
3.9106 -1.8743 0.4364
3.9051 -1.9291 0.4367
3.9179 -1.9495 0.4367
1.4253 1.0066 0.3191
2.8919 -0.8878 0.3767
2.9466 -0.7942 0.3736
3.3271 -0.7924 0.3727
3.3746 -0.9420 0.3774
3.4443 -0.8274 0.3736
3.5657 -0.3784 0.3590
3.6520 -0.2738 0.3555
3.7462 -1.1659 0.3838
3.8582 -0.9521 0.3767
4.0339 -0.5728 0.3643
3.8073 -1.4934 0.3941
3.8370 -1.5130 0.3947
3.8480 -1.5744 0.3967
3.8561 -1.6354 0.3986
3.8733 -1.6703 0.3997
3.8823 -1.7185 0.4012
3.8956 -1.7532 0.4023
