ply
format ascii 1.0
element vertex 2122
property float x
property float y
property float z
end_header
4.3387 -2.2112 0.5511
4.3172 -2.2207 0.5267
4.3185 -2.2178 0.5078
4.3107 -2.2199 0.4866
4.3084 -2.2190 0.4663
4.3004 -2.2212 0.4447
4.2783 -2.2311 0.4212
4.2100 -2.2601 0.3332
4.2085 -2.2587 0.3124
4.2098 -2.2557 0.2912
4.2149 -2.2504 0.2694
4.1781 -2.2616 0.1815
4.1944 -2.2496 0.1553
4.3401 -2.1583 0.0732
4.3184 -2.1679 0.0483
5.1501 -1.6625 -0.2757
4.9200 -1.7948 -0.2551
4.8747 -1.8164 -0.2913
4.3078 -2.1411 -0.2522
4.2613 -2.1663 -0.2626
4.1939 -2.2050 -0.2568
4.0367 -2.2984 -0.2147
4.0260 -2.3019 -0.2377
4.0139 -2.3064 -0.2595
3.9414 -2.3475 -0.2580
3.9043 -2.3691 -0.2525
3.8840 -2.3796 -0.2613
3.8559 -2.3956 -0.2605
3.8199 -2.4173 -0.2485
3.8056 -2.4241 -0.2594
3.7395 -2.4619 -0.2552
3.7242 -2.4701 -0.2598
3.7074 -2.4795 -0.2610
3.6857 -2.4926 -0.2530
3.6726 -2.4996 -0.2571
3.6570 -2.5085 -0.2558
3.6422 -2.5170 -0.2547
3.6175 -2.5306 -0.2576
3.6002 -2.5416 -0.2468
3.5914 -2.5459 -0.2527
3.5783 -2.5538 -0.2480
3.5713 -2.5569 -0.2565
3.5616 -2.5622 -0.2578
3.5503 -2.5691 -0.2537
3.5397 -2.5754 -0.2503
3.5328 -2.5786 -0.2563
3.5240 -2.5837 -0.2556
4.3279 -2.1960 0.5955
4.3145 -2.2012 0.5732
4.3116 -2.1983 0.5348
4.2927 -2.2066 0.5111
4.2893 -2.2062 0.4911
4.2988 -2.1983 0.4732
4.2811 -2.2060 0.4498
4.2826 -2.2026 0.4297
4.2628 -2.2115 0.4063
4.2693 -2.2051 0.3861
4.2610 -2.2073 0.3639
4.2557 -2.2078 0.3418
4.2686 -2.1946 0.2969
4.2774 -2.1864 0.2731
4.1347 -2.2612 0.1904
5.2095 -1.5607 -0.2943
4.9519 -1.7176 -0.2674
4.8633 -1.7678 -0.2892
4.2901 -2.1281 -0.1377
4.2701 -2.1368 -0.1636
4.3467 -2.0817 -0.2404
4.3037 -2.1054 -0.2559
4.2632 -2.1278 -0.2705
4.0189 -2.2848 -0.1786
4.0032 -2.2918 -0.1974
3.9906 -2.2968 -0.2181
3.9823 -2.2987 -0.2423
3.9648 -2.3071 -0.2585
3.9310 -2.3273 -0.2586
3.8987 -2.3467 -0.2576
3.8705 -2.3634 -0.2585
3.8502 -2.3746 -0.2660
3.7747 -2.4201 -0.2616
3.7533 -2.4330 -0.2608
3.7148 -2.4560 -0.2603
3.6775 -2.4789 -0.2549
3.6486 -2.4958 -0.2572
3.6342 -2.5045 -0.2563
3.6068 -2.5213 -0.2533
3.5943 -2.5288 -0.2524
3.5841 -2.5346 -0.2551
3.5754 -2.5390 -0.2609
3.5624 -2.5475 -0.2547
3.5520 -2.5539 -0.2537
3.5444 -2.5577 -0.2593
3.5344 -2.5639 -0.2573
3.5246 -2.5700 -0.2548
4.2678 -2.2053 0.5870
4.2595 -2.2078 0.5670
4.2835 -2.1912 0.5559
4.2880 -2.1859 0.5385
4.2715 -2.1931 0.5154
4.2659 -2.1938 0.4950
4.2602 -2.1946 0.4744
4.2544 -2.1953 0.4536
4.2464 -2.1974 0.4323
4.2436 -2.1963 0.4115
4.2375 -2.1972 0.3901
4.2303 -2.1987 0.3684
4.2171 -2.2039 0.3461
4.2295 -2.1931 0.3250
4.2454 -2.1801 0.3027
4.2413 -2.1794 0.2793
4.1015 -2.2560 0.1978
4.0991 -2.2545 0.1759
5.1670 -1.5201 -0.2807
4.8515 -1.7175 -0.2871
4.2641 -2.1086 -0.1290
4.2412 -2.1196 -0.1533
4.0235 -2.2558 -0.1582
3.9801 -2.2748 -0.2183
3.9612 -2.2845 -0.2338
3.9508 -2.2879 -0.2561
3.8839 -2.3303 -0.2539
3.8349 -2.3601 -0.2611
3.8110 -2.3749 -0.2626
3.7851 -2.3916 -0.2598
3.7400 -2.4204 -0.2566
3.7012 -2.4451 -0.2546
3.6697 -2.4644 -0.2576
3.6542 -2.4742 -0.2575
3.6380 -2.4847 -0.2547
3.6130 -2.4999 -0.2585
3.5980 -2.5101 -0.2532
3.5853 -2.5184 -0.2513
3.5626 -2.5328 -0.2499
3.5539 -2.5377 -0.2540
3.5445 -2.5434 -0.2555
3.5349 -2.5495 -0.2553
3.5251 -2.5559 -0.2533
3.5172 -2.5605 -0.2558
3.5083 -2.5664 -0.2541
3.5003 -2.5713 -0.2545
4.2091 -2.2136 0.5614
4.1978 -2.2180 0.5411
4.1839 -2.2213 0.5030
4.1822 -2.2197 0.4850
4.1709 -2.2241 0.4647
4.1689 -2.2225 0.4462
4.2150 -2.1903 0.4353
4.2092 -2.1909 0.4145
4.2072 -2.1891 0.3940
4.2080 -2.1853 0.3734
4.2067 -2.1830 0.3521
4.2167 -2.1730 0.3308
4.2014 -2.1797 0.3080
4.1916 -2.1791 0.2625
4.1810 -2.1827 0.2396
4.0799 -2.2441 0.2036
4.0667 -2.2497 0.1835
4.0642 -2.2480 0.1617
5.0600 -1.5253 -0.2469
4.2235 -2.1000 -0.1135
4.1965 -2.1146 -0.1349
4.1517 -2.1426 -0.1455
4.1167 -2.1476 -0.2637
4.0761 -2.1736 -0.2696
4.0145 -2.2167 -0.2554
3.9459 -2.2610 -0.2622
3.9158 -2.2804 -0.2658
3.8793 -2.3054 -0.2607
3.8259 -2.3403 -0.2635
3.8023 -2.3557 -0.2653
3.7780 -2.3719 -0.2645
3.7521 -2.3899 -0.2592
3.7285 -2.4062 -0.2548
3.6871 -2.4347 -0.2480
3.6584 -2.4527 -0.2548
3.6432 -2.4627 -0.2548
3.6023 -2.4898 -0.2551
3.5881 -2.4998 -0.2510
3.5784 -2.5055 -0.2556
3.5565 -2.5200 -0.2558
3.5453 -2.5278 -0.2533
3.5357 -2.5341 -0.2537
3.5259 -2.5408 -0.2524
3.5163 -2.5474 -0.2505
3.5081 -2.5527 -0.2518
3.5009 -2.5570 -0.2552
3.4937 -2.5612 -0.2584
4.1916 -2.2003 0.5656
4.1663 -2.2137 0.5411
4.1680 -2.2098 0.5249
4.1558 -2.2148 0.5046
4.1468 -2.2178 0.4852
4.1409 -2.2187 0.4665
4.1441 -2.2136 0.4494
4.1520 -2.2052 0.4326
4.1575 -2.1983 0.4147
4.1784 -2.1808 0.3979
4.1802 -2.1762 0.3778
4.1826 -2.1710 0.3571
4.1856 -2.1652 0.3358
4.1734 -2.1699 0.3134
4.1565 -2.1779 0.2911
4.1527 -2.1768 0.2688
4.1567 -2.1700 0.2457
4.1177 -2.1938 0.2255
4.0637 -2.2286 0.2088
4.0541 -2.2318 0.1881
4.0514 -2.2300 0.1663
4.2090 -2.0786 -0.0758
4.1769 -2.0977 -0.0951
4.1506 -2.1125 -0.1158
4.1432 -2.1126 -0.1457
4.1487 -2.1023 -0.1838
4.2049 -2.0507 -0.2559
4.1620 -2.0788 -0.2665
4.0466 -2.1612 -0.2561
4.0012 -2.1932 -0.2543
3.9713 -2.2126 -0.2628
3.9338 -2.2389 -0.2620
3.9023 -2.2606 -0.2641
3.8354 -2.3085 -0.2567
3.8147 -2.3219 -0.2635
3.7856 -2.3430 -0.2584
3.7665 -2.3555 -0.2637
3.7410 -2.3741 -0.2587
3.7218 -2.3872 -0.2603
3.7009 -2.4023 -0.2575
3.6317 -2.4517 -0.2512
3.6059 -2.4691 -0.2549
3.5926 -2.4786 -0.2537
3.5827 -2.4846 -0.2591
3.5700 -2.4939 -0.2566
3.5567 -2.5040 -0.2512
3.5484 -2.5088 -0.2572
3.5379 -2.5164 -0.2560
3.5272 -2.5243 -0.2531
3.5180 -2.5308 -0.2531
3.5097 -2.5363 -0.2550
3.5016 -2.5417 -0.2565
3.4926 -2.5483 -0.2538
3.4856 -2.5527 -0.2570
4.1691 -2.1934 0.5843
4.1634 -2.1942 0.5662
4.1660 -2.1893 0.5505
4.1475 -2.1987 0.5282
4.1344 -2.2045 0.5077
4.1347 -2.2011 0.4908
4.1307 -2.2006 0.4725
4.1322 -2.1928 0.4369
4.1355 -2.1870 0.4189
4.1617 -2.1648 0.4033
4.1717 -2.1538 0.3841
4.1653 -2.1545 0.3626
4.1449 -2.1652 0.3400
4.1348 -2.1686 0.3183
4.1329 -2.1659 0.2966
4.1325 -2.1620 0.2744
4.1389 -2.1530 0.2514
4.1101 -2.1702 0.2302
4.0492 -2.2119 0.2137
4.0362 -2.2176 0.1935
4.0350 -2.2144 0.1715
4.1121 -2.1454 0.1063
4.1939 -2.0581 -0.0382
4.1869 -2.0575 -0.0687
4.1871 -2.0508 -0.1032
4.1709 -2.0576 -0.1303
4.1663 -2.0548 -0.1637
4.2297 -1.9940 -0.2388
4.1991 -2.0125 -0.2600
4.1445 -2.0521 -0.2630
4.0852 -2.0966 -0.2585
4.0413 -2.1283 -0.2617
3.9927 -2.1648 -0.2575
3.9683 -2.1802 -0.2712
3.9332 -2.2057 -0.2730
3.9038 -2.2264 -0.2780
3.8565 -2.2643 -0.2613
3.8330 -2.2804 -0.2672
3.7752 -2.3244 -0.2595
3.7536 -2.3400 -0.2614
3.7315 -2.3564 -0.2605
3.6915 -2.3861 -0.2592
3.6740 -2.3988 -0.2598
3.6566 -2.4119 -0.2585
3.6405 -2.4238 -0.2581
3.6235 -2.4371 -0.2540
3.5940 -2.4596 -0.2494
3.5836 -2.4663 -0.2544
3.5717 -2.4750 -0.2547
3.5601 -2.4836 -0.2544
3.5484 -2.4926 -0.2524
3.5390 -2.4990 -0.2552
3.5287 -2.5068 -0.2541
3.5194 -2.5135 -0.2548
3.5092 -2.5216 -0.2514
3.5014 -2.5268 -0.2545
3.4921 -2.5342 -0.2512
3.4847 -2.5392 -0.2536
3.4763 -2.5460 -0.2504
4.1572 -2.1768 0.5902
4.1608 -2.1709 0.5753
4.1445 -2.1790 0.5534
4.1375 -2.1806 0.5346
4.1284 -2.1836 0.5151
4.1174 -2.1880 0.4951
4.1262 -2.1781 0.4800
4.1170 -2.1811 0.4601
4.1126 -2.1806 0.4412
4.1167 -2.1738 0.4235
4.1346 -2.1565 0.4071
4.1611 -2.1325 0.3904
4.1545 -2.1331 0.3686
4.1360 -2.1428 0.3459
4.1205 -2.1502 0.3238
4.1104 -2.1536 0.3020
4.1194 -2.1420 0.2799
4.1134 -2.1420 0.2574
4.0910 -2.1549 0.2358
4.0464 -2.1857 0.2174
4.0185 -2.2035 0.1989
4.0057 -2.2093 0.1789
4.0911 -2.1295 0.1128
4.1665 -2.0549 0.0347
4.2050 -1.9941 -0.1152
4.1762 -2.0118 -0.1376
4.1541 -2.0238 -0.1624
4.2406 -1.9382 -0.2526
4.1930 -1.9727 -0.2642
4.1352 -2.0172 -0.2655
4.0822 -2.0582 -0.2659
4.0326 -2.0969 -0.2649
3.9526 -2.1581 -0.2684
3.9194 -2.1831 -0.2719
3.8846 -2.2103 -0.2710
3.8144 -2.2671 -0.2593
3.7869 -2.2887 -0.2578
3.7651 -2.3049 -0.2612
3.7390 -2.3260 -0.2567
3.7184 -2.3418 -0.2576
3.6788 -2.3729 -0.2558
3.6441 -2.4000 -0.2546
3.6298 -2.4106 -0.2570
3.6145 -2.4227 -0.2558
3.6001 -2.4341 -0.2547
3.5865 -2.4449 -0.2537
3.5624 -2.4634 -0.2544
3.5506 -2.4727 -0.2533
3.5404 -2.4804 -0.2546
3.5292 -2.4896 -0.2521
3.5198 -2.4966 -0.2533
3.5107 -2.5036 -0.2541
3.5024 -2.5094 -0.2567
3.4924 -2.5182 -0.2517
3.4834 -2.5259 -0.2484
3.4767 -2.5300 -0.2533
3.4702 -2.5341 -0.2580
4.1700 -2.1456 0.6219
4.1546 -2.1532 0.5998
4.1424 -2.1585 0.5791
4.1404 -2.1562 0.5620
4.1313 -2.1592 0.5423
4.1480 -2.1429 0.5303
4.1415 -2.1438 0.5107
4.1145 -2.1602 0.4859
4.1081 -2.1611 0.4666
4.1026 -2.1612 0.4473
4.1129 -2.1491 0.4307
4.1162 -2.1422 0.4121
4.1237 -2.1318 0.3933
4.1254 -2.1258 0.3730
4.1171 -2.1277 0.3513
4.0933 -2.1373 0.3074
4.0942 -2.1315 0.2855
4.0974 -2.1238 0.2629
4.0812 -2.1321 0.2408
4.0364 -2.1644 0.2220
4.0056 -2.1854 0.2036
3.9958 -2.1836 0.1604
4.0686 -2.1150 0.1197
4.1009 -2.0806 0.0841
4.1356 -2.0433 0.0445
4.1927 -1.9612 -0.1131
4.1344 -2.0071 -0.1205
4.1183 -2.0141 -0.1477
4.1955 -1.9320 -0.2325
4.1746 -1.9426 -0.2607
4.1335 -1.9733 -0.2737
4.0769 -2.0199 -0.2720
4.0225 -2.0654 -0.2674
3.9732 -2.1066 -0.2626
3.9361 -2.1364 -0.2650
3.8988 -2.1670 -0.2641
3.8677 -2.1919 -0.2665
3.8301 -2.2243 -0.2589
3.8107 -2.2378 -0.2694
3.7718 -2.2731 -0.2535
3.7562 -2.2833 -0.2649
3.7311 -2.3045 -0.2617
3.7073 -2.3248 -0.2577
3.6689 -2.3563 -0.2573
3.6535 -2.3680 -0.2609
3.6372 -2.3813 -0.2610
3.6191 -2.3973 -0.2558
3.6041 -2.4098 -0.2548
3.5895 -2.4221 -0.2530
3.5754 -2.4342 -0.2502
3.5644 -2.4424 -0.2535
3.5534 -2.4511 -0.2552
3.5418 -2.4607 -0.2542
3.5218 -2.4765 -0.2566
3.5102 -2.4874 -0.2503
3.5013 -2.4946 -0.2511
3.4844 -2.5081 -0.2524
3.4773 -2.5129 -0.2566
3.4684 -2.5213 -0.2518
3.4616 -2.5260 -0.2553
4.1576 -2.1245 0.6119
4.1579 -2.1160 0.5785
4.1828 -2.0923 0.5694
4.1895 -2.0826 0.5531
4.1745 -2.0897 0.5299
4.1549 -2.1006 0.5056
4.1083 -2.1333 0.4754
4.0905 -2.1431 0.4532
4.0948 -2.1351 0.4355
4.1087 -2.1190 0.4188
4.1033 -2.1186 0.3981
4.0854 -2.1285 0.3758
4.0886 -2.1208 0.3558
4.0863 -2.1176 0.3346
4.0796 -2.1180 0.3130
4.0827 -2.1099 0.2910
4.0757 -2.1105 0.2686
4.0677 -2.1118 0.2461
4.0317 -2.1378 0.2261
3.9831 -2.1756 0.2095
3.9752 -2.1773 0.1888
3.9702 -2.1763 0.1674
4.0968 -2.0474 0.0861
3.9886 -2.1287 0.0381
4.0958 -1.9926 -0.1406
4.0973 -1.9819 -0.1786
4.1553 -1.9128 -0.2566
4.0662 -1.9851 -0.2743
4.0008 -2.0447 -0.2605
3.9604 -2.0788 -0.2631
3.9182 -2.1157 -0.2605
3.8773 -2.1523 -0.2553
3.8497 -2.1746 -0.2608
3.8201 -2.1999 -0.2617
3.7924 -2.2236 -0.2621
3.7659 -2.2465 -0.2615
3.7418 -2.2673 -0.2615
3.7212 -2.2843 -0.2643
3.6945 -2.3094 -0.2554
3.6809 -2.3188 -0.2650
3.6419 -2.3538 -0.2592
3.6237 -2.3704 -0.2553
3.5808 -2.4071 -0.2559
3.5689 -2.4168 -0.2582
3.5554 -2.4292 -0.2549
3.5427 -2.4409 -0.2518
3.5329 -2.4486 -0.2550
3.5122 -2.4665 -0.2545
3.5003 -2.4788 -0.2461
3.4931 -2.4834 -0.2526
3.4765 -2.4973 -0.2543
3.4692 -2.5028 -0.2574
3.4613 -2.5098 -0.2565
4.1965 -2.0563 0.6036
4.1863 -2.0597 0.5817
4.1762 -2.0631 0.5597
4.1744 -2.0595 0.5403
4.1641 -2.0629 0.5182
4.1125 -2.1010 0.4856
4.0864 -2.1180 0.4609
4.0804 -2.1181 0.4410
4.0797 -2.1137 0.4219
4.0970 -2.0935 0.4050
4.0834 -2.0998 0.3829
4.0793 -2.0979 0.3619
4.0742 -2.0968 0.3404
4.0657 -2.0987 0.3185
4.0596 -2.0984 0.2966
4.0605 -2.0915 0.2742
4.0572 -2.0884 0.2513
4.0272 -2.1100 0.2304
3.9748 -2.1530 0.2136
3.9576 -2.1634 0.1942
3.9556 -2.1594 0.1723
3.9891 -2.1207 0.1415
4.2035 -1.8438 -0.1675
4.0436 -1.9930 -0.1518
4.0772 -1.9356 -0.2525
4.0452 -1.9602 -0.2688
3.9873 -2.0148 -0.2606
3.9415 -2.0571 -0.2581
3.8646 -2.1273 -0.2557
3.8343 -2.1542 -0.2581
3.8038 -2.1820 -0.2574
3.7726 -2.2115 -0.2529
3.7539 -2.2261 -0.2618
3.7029 -2.2743 -0.2545
3.6858 -2.2883 -0.2599
3.6663 -2.3060 -0.2598
3.6296 -2.3401 -0.2567
3.6098 -2.3602 -0.2487
3.6024 -2.3626 -0.2647
3.5863 -2.3782 -0.2609
3.5685 -2.3972 -0.2503
3.5469 -2.4146 -0.2583
3.5348 -2.4261 -0.2564
3.5241 -2.4357 -0.2568
3.5127 -2.4469 -0.2534
3.5038 -2.4541 -0.2567
3.4847 -2.4721 -0.2542
3.4766 -2.4790 -0.2560
3.4676 -2.4880 -0.2526
3.4597 -2.4953 -0.2522
3.4525 -2.5014 -0.2537
4.1843 -2.0304 0.5925
4.1851 -2.0242 0.5740
4.1783 -2.0245 0.5525
4.1659 -2.0296 0.5292
4.1428 -2.0441 0.5032
4.0845 -2.0900 0.4694
4.0695 -2.0979 0.4473
4.0866 -2.0770 0.4315
4.0936 -2.0648 0.4126
4.0791 -2.0721 0.3900
4.0598 -2.0839 0.3670
4.0464 -2.0903 0.3451
4.0380 -2.0921 0.3235
4.0454 -2.0788 0.3021
4.0405 -2.0769 0.2798
4.0355 -2.0751 0.2571
3.9600 -2.1361 0.2186
3.9445 -2.1451 0.1988
3.9422 -2.1410 0.1769
3.9689 -2.1070 0.1476
4.0202 -2.0467 0.1088
4.2435 -1.7453 -0.1951
4.2305 -1.7466 -0.2332
4.0127 -1.9714 -0.1758
4.0292 -1.9290 -0.2674
3.9426 -2.0103 -0.2722
3.8631 -2.0874 -0.2685
3.7944 -2.1549 -0.2618
3.7357 -2.2132 -0.2540
3.7150 -2.2319 -0.2579
3.6957 -2.2491 -0.2620
3.6734 -2.2712 -0.2590
3.6553 -2.2881 -0.2607
3.6193 -2.3231 -0.2583
3.6016 -2.3413 -0.2541
3.5860 -2.3568 -0.2520
3.5620 -2.3776 -0.2596
3.5358 -2.4040 -0.2547
3.5240 -2.4157 -0.2530
3.5138 -2.4250 -0.2545
3.5045 -2.4330 -0.2575
3.4949 -2.4421 -0.2578
3.4853 -2.4517 -0.2565
3.4754 -2.4623 -0.2522
3.4674 -2.4694 -0.2541
3.4587 -2.4787 -0.2509
3.4517 -2.4845 -0.2541
3.4450 -2.4896 -0.2583
3.4372 -2.4981 -0.2546
4.2140 -1.9716 0.6157
4.2003 -1.9777 0.5911
4.1920 -1.9789 0.5684
4.1771 -1.9797 0.5231
4.0975 -2.0469 0.4821
4.0634 -2.0727 0.4548
4.0612 -2.0688 0.4352
4.0721 -2.0522 0.4174
4.0733 -2.0445 0.3971
4.0427 -2.0676 0.3724
4.0351 -2.0686 0.3509
4.0383 -2.0587 0.3299
4.0334 -2.0567 0.3078
4.0253 -2.0578 0.2854
4.0201 -2.0559 0.2627
3.9941 -2.0754 0.2413
3.9409 -2.1236 0.2241
3.9256 -2.1328 0.2044
3.9203 -2.1314 0.1831
3.9322 -2.1114 0.1576
4.6996 -1.2096 -0.2537
4.6053 -1.2978 -0.2752
4.5143 -1.3843 -0.2914
4.3788 -1.5255 -0.2763
4.3069 -1.5943 -0.2875
4.2072 -1.6988 -0.2746
3.9825 -1.9601 -0.1630
4.0172 -1.8917 -0.2696
3.9781 -1.9284 -0.2779
3.9211 -1.9897 -0.2654
3.8779 -2.0346 -0.2611
3.8446 -2.0673 -0.2634
3.8158 -2.0950 -0.2677
3.7578 -2.1536 -0.2672
3.7297 -2.1831 -0.2635
3.7025 -2.2123 -0.2577
3.6831 -2.2306 -0.2614
3.6664 -2.2454 -0.2677
3.6456 -2.2673 -0.2646
3.6271 -2.2864 -0.2632
3.5948 -2.3188 -0.2634
3.5504 -2.3656 -0.2567
3.5382 -2.3780 -0.2568
3.5171 -2.3974 -0.2624
3.5056 -2.4100 -0.2593
3.4936 -2.4243 -0.2521
3.4848 -2.4324 -0.2546
3.4762 -2.4404 -0.2566
3.4683 -2.4472 -0.2604
3.4594 -2.4568 -0.2580
3.4513 -2.4652 -0.2573
3.4439 -2.4723 -0.2584
3.4359 -2.4817 -0.2542
6.2880 0.0158 1.3633
4.0560 -2.0478 0.4623
4.0477 -2.0495 0.4412
4.0703 -2.0203 0.4257
4.0542 -2.0294 0.4024
4.0281 -2.0489 0.3781
4.0211 -2.0491 0.3567
4.0124 -2.0508 0.3349
4.0128 -2.0431 0.3133
4.0128 -2.0355 0.2909
4.0089 -2.0319 0.2681
4.0069 -2.0260 0.2446
3.9110 -2.1083 0.1870
3.9000 -2.1130 0.1665
4.5660 -1.2602 -0.2627
4.4711 -1.3562 -0.2766
4.3813 -1.4484 -0.2857
3.9438 -1.9485 -0.1809
3.9232 -1.9499 -0.2412
3.8980 -1.9713 -0.2570
3.8734 -1.9925 -0.2716
3.8241 -2.0501 -0.2561
3.8007 -2.0714 -0.2664
3.7476 -2.1259 -0.2719
3.6939 -2.1855 -0.2643
3.6707 -2.2111 -0.2615
3.6530 -2.2284 -0.2658
3.6162 -2.2677 -0.2651
3.5998 -2.2851 -0.2652
3.5821 -2.3057 -0.2601
3.5664 -2.3233 -0.2571
3.5533 -2.3369 -0.2582
3.5266 -2.3669 -0.2531
3.5159 -2.3775 -0.2554
3.5055 -2.3880 -0.2569
3.4951 -2.3991 -0.2569
3.4843 -2.4119 -0.2530
3.4764 -2.4183 -0.2588
3.4674 -2.4278 -0.2589
3.4592 -2.4360 -0.2606
3.4499 -2.4477 -0.2550
3.4422 -2.4557 -0.2555
3.4348 -2.4636 -0.2555
3.4278 -2.4708 -0.2563
3.4204 -2.4798 -0.2528
4.0373 -2.0267 0.4480
4.0431 -2.0134 0.4295
4.0258 -2.0243 0.4061
4.0279 -2.0145 0.3859
4.0024 -2.0343 0.3620
3.9990 -2.0303 0.3406
3.9983 -2.0231 0.3189
3.9915 -2.0225 0.2966
3.9846 -2.0220 0.2739
3.9873 -2.0103 0.2504
3.9111 -2.0816 0.2120
3.8973 -2.0895 0.1917
3.8928 -2.0865 0.1696
4.6087 -1.1403 -0.2241
4.5772 -1.1576 -0.2734
4.4341 -1.3209 -0.2648
4.3466 -1.4153 -0.2747
4.2736 -1.4929 -0.2862
4.1890 -1.5886 -0.2835
3.8964 -1.9505 -0.1905
3.8908 -1.9444 -0.2242
3.8765 -1.9508 -0.2502
3.8476 -1.9797 -0.2597
3.8069 -2.0278 -0.2527
3.7840 -2.0496 -0.2632
3.7300 -2.1090 -0.2662
3.7011 -2.1436 -0.2601
3.6733 -2.1778 -0.2517
3.6353 -2.2189 -0.2560
3.6175 -2.2384 -0.2570
3.6032 -2.2522 -0.2629
3.5707 -2.2897 -0.2601
3.5413 -2.3245 -0.2551
3.5312 -2.3329 -0.2627
3.5174 -2.3506 -0.2569
3.4955 -2.3749 -0.2573
3.4849 -2.3875 -0.2554
3.4751 -2.3987 -0.2548
3.4663 -2.4079 -0.2566
3.4582 -2.4156 -0.2600
3.4491 -2.4272 -0.2564
3.4412 -2.4361 -0.2565
3.4260 -2.4536 -0.2550
3.4194 -2.4598 -0.2582
3.4123 -2.4690 -0.2550
6.0933 0.1003 1.3121
4.0479 -1.9883 0.4797
4.0306 -1.9994 0.4558
4.0261 -1.9884 0.4147
3.9939 -2.0163 0.3890
3.9801 -2.0238 0.3668
3.9860 -2.0088 0.3465
3.9828 -2.0039 0.3246
3.9837 -1.9941 0.3023
3.9779 -1.9918 0.2794
3.9808 -1.9790 0.2555
3.8848 -2.0690 0.1962
3.8832 -2.0618 0.1733
3.8758 -2.0619 0.1512
4.6472 -0.9937 -0.2439
4.5810 -1.0572 -0.2812
4.4208 -1.2528 -0.2653
4.3323 -1.3534 -0.2754
4.1696 -1.5433 -0.2815
4.0900 -1.6404 -0.2741
4.0378 -1.6992 -0.2813
3.9067 -1.8650 -0.2539
3.8733 -1.9010 -0.2626
3.8328 -1.9501 -0.2599
3.7967 -1.9935 -0.2579
3.7710 -2.0211 -0.2651
3.7413 -2.0564 -0.2643
3.7172 -2.0834 -0.2681
3.6807 -2.1341 -0.2490
3.6632 -2.1518 -0.2567
3.6487 -2.1643 -0.2684
3.6247 -2.1960 -0.2599
3.6041 -2.2224 -0.2546
3.5908 -2.2352 -0.2623
3.5741 -2.2555 -0.2605
3.5280 -2.3148 -0.2486
3.5070 -2.3360 -0.2578
3.4959 -2.3492 -0.2577
3.4854 -2.3615 -0.2577
3.4755 -2.3731 -0.2580
3.4668 -2.3820 -0.2617
3.4569 -2.3954 -0.2575
3.4479 -2.4066 -0.2557
3.4404 -2.4139 -0.2598
3.4319 -2.4256 -0.2556
3.4247 -2.4333 -0.2576
3.4173 -2.4429 -0.2556
3.4104 -2.4511 -0.2554
3.4040 -2.4580 -0.2571
6.1923 0.1967 1.7293
4.0344 -1.9673 0.4864
4.0204 -1.9663 0.4432
4.0070 -1.9732 0.4201
3.9892 -1.9853 0.3964
3.9760 -1.9921 0.3739
3.9672 -1.9938 0.3519
3.9680 -1.9836 0.3304
3.9596 -1.9846 0.3079
3.9538 -1.9822 0.2852
3.9623 -1.9614 0.2614
3.9760 -1.9333 0.2356
3.8964 -2.0160 0.1965
3.8793 -2.0285 0.1758
3.8757 -2.0228 0.1521
4.6460 -0.9196 -0.1801
4.5410 -1.0405 -0.2041
4.5534 -0.9949 -0.2747
4.4573 -1.1072 -0.2925
4.3330 -1.2655 -0.2853
4.2386 -1.3835 -0.2851
4.0768 -1.5888 -0.2771
3.9108 -1.7974 -0.2739
3.8596 -1.8652 -0.2648
3.8134 -1.9269 -0.2552
3.7856 -1.9584 -0.2628
3.7586 -1.9897 -0.2686
3.7228 -2.0387 -0.2584
3.7013 -2.0625 -0.2655
3.6774 -2.0921 -0.2660
3.6514 -2.1274 -0.2595
3.6306 -2.1535 -0.2592
3.6113 -2.1779 -0.2586
3.5959 -2.1947 -0.2640
3.5772 -2.2201 -0.2593
3.5622 -2.2381 -0.2609
3.5457 -2.2609 -0.2558
3.5330 -2.2756 -0.2584
3.5204 -2.2909 -0.2594
3.5082 -2.3061 -0.2595
3.4965 -2.3212 -0.2586
3.4854 -2.3354 -0.2578
3.4749 -2.3488 -0.2570
3.4659 -2.3586 -0.2605
3.4563 -2.3710 -0.2593
3.4465 -2.3854 -0.2542
3.4387 -2.3936 -0.2579
3.4302 -2.4057 -0.2545
3.4234 -2.4117 -0.2604
3.4154 -2.4236 -0.2557
3.4084 -2.4321 -0.2562
3.4017 -2.4405 -0.2561
3.3950 -2.4502 -0.2530
6.3873 0.5368 1.8850
6.3460 0.5231 1.7961
4.0222 -1.9352 0.4738
4.0079 -1.9432 0.4500
3.9944 -1.9502 0.4267
3.9654 -1.9766 0.4009
3.9650 -1.9677 0.3802
3.9560 -1.9694 0.3581
3.9571 -1.9580 0.3365
3.9431 -1.9659 0.3136
3.9417 -1.9573 0.2908
3.9541 -1.9300 0.2668
3.9700 -1.8847 0.2141
4.5253 -0.9307 -0.2682
4.4634 -0.9957 -0.3045
4.3172 -1.1970 -0.2862
4.2086 -1.3445 -0.2770
4.0510 -1.5553 -0.2705
3.9412 -1.6987 -0.2736
3.8404 -1.8372 -0.2615
3.8023 -1.8879 -0.2606
3.7717 -1.9264 -0.2648
3.7460 -1.9569 -0.2723
3.7104 -2.0086 -0.2618
3.6658 -2.0634 -0.2707
3.6422 -2.0957 -0.2681
3.6191 -2.1285 -0.2630
3.6005 -2.1527 -0.2637
3.5823 -2.1775 -0.2622
3.5632 -2.2057 -0.2555
3.5478 -2.2263 -0.2550
3.5357 -2.2393 -0.2612
3.5208 -2.2610 -0.2568
3.5093 -2.2745 -0.2605
3.4964 -2.2930 -0.2573
3.4755 -2.3186 -0.2616
3.4653 -2.3323 -0.2612
3.4540 -2.3509 -0.2530
3.4459 -2.3594 -0.2579
3.4373 -2.3706 -0.2582
3.4282 -2.3852 -0.2525
3.4207 -2.3942 -0.2546
3.4136 -2.4023 -0.2573
3.4066 -2.4104 -0.2595
3.3998 -2.4191 -0.2602
3.3929 -2.4298 -0.2567
3.3870 -2.4356 -0.2611
6.3378 0.6597 1.8503
6.0932 0.4132 1.6589
4.0064 -1.9153 0.4801
3.9886 -1.9279 0.4554
3.9816 -1.9269 0.4334
3.9503 -1.9574 0.4067
3.9427 -1.9572 0.3851
3.9371 -1.9544 0.3635
3.9372 -1.9436 0.3420
3.9331 -1.9268 0.2966
3.9452 -1.8980 0.2724
3.9491 -1.8800 0.2469
5.1784 0.0054 -0.0970
5.0764 -0.1055 -0.1607
4.9001 -0.3348 -0.1944
4.4962 -0.9305 -0.1295
4.4894 -0.8764 -0.2580
4.4282 -0.9436 -0.2949
4.2796 -1.1610 -0.2742
4.1874 -1.2895 -0.2749
3.8777 -1.7661 -0.1847
3.8330 -1.8285 -0.1847
3.8181 -1.8361 -0.2113
3.8127 -1.8251 -0.2485
3.7835 -1.8616 -0.2573
3.7610 -1.8859 -0.2719
3.6905 -1.9930 -0.2541
3.6702 -2.0171 -0.2624
3.6441 -2.0559 -0.2575
3.6037 -2.1116 -0.2592
3.5682 -2.1609 -0.2597
3.5503 -2.1882 -0.2548
3.5356 -2.2085 -0.2552
3.5230 -2.2241 -0.2593
3.5093 -2.2441 -0.2577
3.4841 -2.2812 -0.2534
3.4741 -2.2932 -0.2574
3.4634 -2.3089 -0.2560
3.4541 -2.3207 -0.2585
3.4438 -2.3375 -0.2535
3.4356 -2.3469 -0.2575
3.4272 -2.3584 -0.2579
3.4190 -2.3705 -0.2566
3.4114 -2.3811 -0.2568
3.4041 -2.3908 -0.2575
3.3967 -2.4033 -0.2531
3.3905 -2.4094 -0.2583
3.3840 -2.4189 -0.2574
3.3780 -2.4263 -0.2595
6.0533 0.5083 1.6936
3.9884 -1.8981 0.4858
3.9805 -1.8980 0.4636
3.9589 -1.9163 0.4380
3.9450 -1.9243 0.4147
3.9267 -1.9388 0.3908
3.9228 -1.9331 0.3695
3.9270 -1.9157 0.3484
3.9194 -1.9147 0.3255
3.9258 -1.8931 0.3027
3.9183 -1.8914 0.2787
3.9295 -1.8612 0.2532
3.9300 -1.8465 0.2268
4.9434 -0.1637 -0.1226
4.8697 -0.2396 -0.1846
3.8269 -1.7970 -0.1520
3.8078 -1.8131 -0.1747
3.7991 -1.8083 -0.2078
3.7902 -1.8036 -0.2414
3.7784 -1.8047 -0.2721
3.7375 -1.8704 -0.2620
3.6799 -1.9556 -0.2618
3.6579 -1.9852 -0.2673
3.6319 -2.0265 -0.2619
3.6103 -2.0587 -0.2613
3.5911 -2.0866 -0.2622
3.5731 -2.1127 -0.2629
3.5540 -2.1441 -0.2571
3.5390 -2.1651 -0.2591
3.5234 -2.1898 -0.2562
3.4979 -2.2253 -0.2600
3.4864 -2.2410 -0.2626
3.4731 -2.2649 -0.2547
3.4638 -2.2749 -0.2616
3.4533 -2.2909 -0.2606
3.4433 -2.3067 -0.2586
3.4352 -2.3150 -0.2655
3.4252 -2.3343 -0.2570
3.4176 -2.3431 -0.2617
3.4022 -2.3656 -0.2622
3.3877 -2.3899 -0.2568
3.3814 -2.3975 -0.2599
3.3750 -2.4080 -0.2580
3.3691 -2.4155 -0.2602
6.0674 0.6741 1.7586
5.8714 0.4635 1.5909
6.0401 0.7170 1.6092
3.9896 -1.8768 0.5366
3.9811 -1.8774 0.5145
3.9766 -1.8724 0.4935
3.9624 -1.8807 0.4694
3.9438 -1.8955 0.4443
3.9241 -1.9121 0.4196
3.9111 -1.9193 0.3967
3.9096 -1.9097 0.3757
3.9046 -1.9049 0.3537
3.9106 -1.8697 0.3087
3.9023 -1.8688 0.2847
3.9019 -1.8552 0.2599
3.9000 -1.8436 0.2342
3.9150 -1.8033 0.2050
3.8815 -1.8101 0.1252
3.8525 -1.8261 0.0742
3.8460 -1.8196 0.0452
3.8356 -1.8202 0.0176
3.8259 -1.8191 -0.0107
3.8165 -1.8171 -0.0397
3.8113 -1.8066 -0.0724
3.8027 -1.8022 -0.1034
3.7857 -1.7919 -0.1677
3.7726 -1.7963 -0.1959
3.7555 -1.8099 -0.2190
3.7247 -1.8302 -0.2676
3.6995 -1.8652 -0.2752
3.6681 -1.9182 -0.2686
3.6452 -1.9517 -0.2726
3.6157 -2.0055 -0.2594
3.5985 -2.0278 -0.2674
3.5769 -2.0645 -0.2623
3.5422 -2.1193 -0.2615
3.5256 -2.1471 -0.2582
3.5107 -2.1715 -0.2563
3.4979 -2.1902 -0.2586
3.4860 -2.2071 -0.2615
3.4738 -2.2270 -0.2602
3.4626 -2.2444 -0.2603
3.4523 -2.2601 -0.2613
3.4415 -2.2795 -0.2568
3.4324 -2.2927 -0.2588
3.4235 -2.3064 -0.2590
3.4147 -2.3216 -0.2566
3.4071 -2.3313 -0.2604
3.3992 -2.3448 -0.2584
3.3920 -2.3551 -0.2600
3.3850 -2.3660 -0.2600
3.3785 -2.3754 -0.2616
3.3718 -2.3884 -0.2569
3.3659 -2.3954 -0.2609
3.3602 -2.4024 -0.2645
5.9314 0.6918 1.6785
5.9977 0.8220 1.6459
6.3324 1.3211 1.7375
3.9356 -1.8641 0.4526
3.9097 -1.8906 0.4259
3.9048 -1.8855 0.4045
3.8973 -1.8842 0.3823
3.8956 -1.8736 0.3605
3.8877 -1.8724 0.3375
3.8946 -1.8470 0.3148
3.8896 -1.8405 0.2906
3.8799 -1.8414 0.2661
3.8712 -1.8406 0.2414
3.8645 -1.8361 0.2160
3.8616 -1.8243 0.1894
3.8544 -1.8200 0.1630
3.8484 -1.8130 0.1356
3.8336 -1.8224 0.1109
3.8245 -1.8209 0.0840
3.8179 -1.8141 0.0554
3.8116 -1.8065 0.0260
3.7967 -1.8159 0.0012
3.7912 -1.8058 -0.0299
3.7898 -1.7861 -0.0655
3.7799 -1.7841 -0.0954
3.7551 -1.8155 -0.1112
3.7502 -1.8022 -0.1460
3.7364 -1.8089 -0.1720
3.7346 -1.7864 -0.2134
3.7206 -1.7933 -0.2399
3.7040 -1.8070 -0.2622
3.6796 -1.8427 -0.2702
3.6474 -1.9019 -0.2607
3.6276 -1.9293 -0.2695
3.6012 -1.9784 -0.2610
3.5817 -2.0095 -0.2631
3.5604 -2.0487 -0.2570
3.5457 -2.0685 -0.2644
3.5284 -2.0988 -0.2616
3.5135 -2.1232 -0.2623
3.4994 -2.1465 -0.2624
3.4867 -2.1664 -0.2644
3.4735 -2.1902 -0.2613
3.4617 -2.2105 -0.2602
3.4511 -2.2267 -0.2623
3.4404 -2.2460 -0.2600
3.4311 -2.2595 -0.2630
3.4219 -2.2745 -0.2635
3.4135 -2.2870 -0.2660
3.4044 -2.3064 -0.2590
3.3967 -2.3179 -0.2610
3.3890 -2.3324 -0.2582
3.3820 -2.3430 -0.2600
3.3752 -2.3542 -0.2601
3.3687 -2.3653 -0.2596
3.3625 -2.3763 -0.2584
3.3566 -2.3850 -0.2602
3.3509 -2.3951 -0.2591
6.0974 1.0369 1.9006
3.9049 -1.8532 0.4348
3.8828 -1.8752 0.4093
3.8835 -1.8603 0.3887
3.8774 -1.8561 0.3663
3.8796 -1.8377 0.3443
3.8696 -1.8394 0.3205
3.8672 -1.8279 0.2967
3.8559 -1.8316 0.2724
3.8518 -1.8221 0.2475
3.8434 -1.8202 0.2224
3.8344 -1.8194 0.1972
3.8286 -1.8120 0.1708
3.8089 -1.8317 0.1481
3.7933 -1.8438 0.1249
3.7962 -1.8181 0.0940
3.7961 -1.7973 0.0626
3.7908 -1.7867 0.0326
3.7773 -1.7935 0.0070
3.7767 -1.7713 -0.0281
3.7602 -1.7844 -0.0519
3.7583 -1.7635 -0.0885
3.7414 -1.7775 -0.1120
3.7312 -1.7755 -0.1420
3.7151 -1.7886 -0.1653
3.7024 -1.7927 -0.1925
3.6965 -1.7785 -0.2296
3.6759 -1.8046 -0.2449
3.6548 -1.8340 -0.2567
3.6380 -1.8519 -0.2743
3.6145 -1.8921 -0.2761
3.5673 -1.9826 -0.2651
3.5479 -2.0184 -0.2628
3.5327 -2.0412 -0.2688
3.5132 -2.0832 -0.2574
3.4988 -2.1080 -0.2583
3.4725 -2.1538 -0.2592
3.4610 -2.1723 -0.2618
3.4495 -2.1931 -0.2610
3.4384 -2.2145 -0.2583
3.4287 -2.2301 -0.2605
3.4194 -2.2455 -0.2619
3.4106 -2.2600 -0.2635
3.4017 -2.2784 -0.2595
3.3934 -2.2951 -0.2565
3.3861 -2.3044 -0.2616
3.3788 -2.3184 -0.2600
3.3719 -2.3300 -0.2609
3.3651 -2.3446 -0.2569
3.3590 -2.3528 -0.2608
3.3530 -2.3633 -0.2610
3.3472 -2.3752 -0.2584
3.3417 -2.3832 -0.2610
3.8651 -1.8583 0.4149
3.8563 -1.8588 0.3927
3.8692 -1.8210 0.3736
3.8756 -1.7934 0.3519
3.8482 -1.8264 0.3263
3.8398 -1.8252 0.3026
3.8328 -1.8211 0.2786
3.8270 -1.8142 0.2541
3.8143 -1.8208 0.2299
3.8082 -1.8141 0.2047
3.7968 -1.8178 0.1801
3.7931 -1.8055 0.1532
3.7828 -1.8065 0.1277
3.7788 -1.7935 0.0992
3.7836 -1.7600 0.0650
3.7741 -1.7575 0.0368
3.7762 -1.7273 0.0002
3.7623 -1.7343 -0.0266
3.9225 -1.2665 -0.2599
3.7087 -1.7576 -0.1340
3.6915 -1.7745 -0.1555
3.6740 -1.7931 -0.1755
3.6673 -1.7801 -0.2110
3.6538 -1.7869 -0.2366
3.6404 -1.7938 -0.2621
3.6160 -1.8377 -0.2645
3.5945 -1.8752 -0.2687
3.5506 -1.9623 -0.2620
3.5167 -2.0238 -0.2649
3.5010 -2.0537 -0.2643
3.4858 -2.0843 -0.2614
3.4717 -2.1129 -0.2584
3.4600 -2.1319 -0.2624
3.4368 -2.1771 -0.2601
3.4162 -2.2182 -0.2565
3.4079 -2.2289 -0.2634
3.3991 -2.2454 -0.2634
3.3831 -2.2746 -0.2646
3.3755 -2.2899 -0.2631
3.3682 -2.3066 -0.2587
3.3615 -2.3200 -0.2576
3.3551 -2.3341 -0.2547
3.3491 -2.3433 -0.2577
3.3433 -2.3524 -0.2602
3.3377 -2.3638 -0.2588
4.5333 -0.8291 0.8828
4.5243 -0.8156 0.8421
4.5024 -0.8229 0.7950
3.8687 -1.8187 0.4463
3.8502 -1.8363 0.4212
3.8501 -1.8207 0.4008
3.8516 -1.8013 0.3797
3.8621 -1.7641 0.3587
3.8200 -1.8093 0.3085
3.8129 -1.8050 0.2846
3.8017 -1.8087 0.2606
3.7994 -1.7938 0.2355
3.7917 -1.7898 0.2103
3.7829 -1.7878 0.1849
3.7687 -1.7974 0.1609
3.7890 -1.7034 0.0918
3.8008 -1.6485 0.0514
3.7932 -1.6387 0.0189
3.7840 -1.6318 -0.0135
3.8733 -1.2837 -0.2326
3.8482 -1.3093 -0.2644
3.6679 -1.7262 -0.1911
3.6499 -1.7470 -0.2107
3.6345 -1.7603 -0.2333
3.6183 -1.7772 -0.2533
3.5973 -1.8130 -0.2613
3.5754 -1.8548 -0.2636
3.5179 -1.9693 -0.2642
3.5025 -1.9974 -0.2676
3.4851 -2.0386 -0.2593
3.4722 -2.0610 -0.2637
3.4590 -2.0876 -0.2634
3.4455 -2.1200 -0.2564
3.4350 -2.1366 -0.2618
3.4131 -2.1875 -0.2527
3.4041 -2.2037 -0.2552
3.3956 -2.2172 -0.2595
3.3872 -2.2340 -0.2596
3.3793 -2.2489 -0.2607
3.3644 -2.2802 -0.2586
3.3576 -2.2965 -0.2553
3.3511 -2.3101 -0.2543
3.3450 -2.3179 -0.2601
3.3391 -2.3330 -0.2556
3.3335 -2.3415 -0.2594
3.3281 -2.3515 -0.2604
4.4934 -0.8836 0.9926
4.5026 -0.8415 0.9659
4.4639 -0.8780 0.9109
4.4488 -0.8754 0.8694
3.8800 -1.7637 0.4816
3.8578 -1.7880 0.4543
3.8470 -1.7916 0.4309
3.8456 -1.7768 0.4097
3.8346 -1.7804 0.3859
3.8275 -1.7759 0.3627
3.8213 -1.7695 0.3391
3.8052 -1.7833 0.3146
3.7926 -1.7900 0.2906
3.7916 -1.7717 0.2661
3.7802 -1.7755 0.2416
3.7888 -1.7098 0.1849
3.7971 -1.6647 0.1521
3.8018 -1.6257 0.1177
3.7931 -1.6184 0.0868
3.7962 -1.5801 0.0488
3.7866 -1.5731 0.0159
3.7802 -1.5565 -0.0201
3.8341 -1.3257 -0.1587
3.8895 -1.1130 -0.2716
3.8306 -1.2402 -0.2696
3.7876 -1.3249 -0.2779
3.7067 -1.4951 -0.2807
3.6276 -1.7292 -0.2025
3.6107 -1.7492 -0.2217
3.5965 -1.7598 -0.2451
3.5818 -1.7732 -0.2666
3.5597 -1.8195 -0.2675
3.5399 -1.8600 -0.2695
3.5203 -1.9039 -0.2672
3.5031 -1.9401 -0.2676
3.4725 -2.0045 -0.2686
3.4568 -2.0462 -0.2588
3.4448 -2.0689 -0.2624
3.4218 -2.1181 -0.2621
3.4010 -2.1674 -0.2561
3.3920 -2.1865 -0.2563
3.3835 -2.2037 -0.2574
3.3755 -2.2191 -0.2594
3.3679 -2.2318 -0.2635
3.3535 -2.2680 -0.2571
3.3469 -2.2812 -0.2580
3.3407 -2.2968 -0.2552
3.3348 -2.3090 -0.2558
3.3291 -2.3202 -0.2568
3.3235 -2.3280 -0.2618
3.3184 -2.3415 -0.2585
4.5105 -0.8720 1.1572
4.4852 -0.8873 1.1104
4.4938 -0.8469 1.0874
4.4624 -0.8721 1.0363
4.4365 -0.8886 0.9893
3.8475 -1.7547 0.4628
3.8448 -1.7416 0.4415
3.8336 -1.7453 0.4174
3.8248 -1.7439 0.3937
3.8218 -1.7300 0.3708
3.8037 -1.7482 0.3454
3.7887 -1.7602 0.3208
3.7977 -1.7179 0.2968
3.7873 -1.7187 0.2714
3.7913 -1.6850 0.2444
3.7924 -1.6567 0.2158
3.7838 -1.5922 0.1231
3.7818 -1.5658 0.0887
3.7665 -1.5743 0.0597
3.7585 -1.5621 0.0262
3.7545 -1.5372 -0.0114
3.8299 -1.2186 -0.1736
3.8583 -1.0719 -0.2638
3.8124 -1.1658 -0.2757
3.7615 -1.2840 -0.2734
3.7222 -1.3687 -0.2787
3.6841 -1.4556 -0.2787
3.5895 -1.7290 -0.2150
3.5798 -1.7209 -0.2484
3.5631 -1.7439 -0.2652
3.5233 -1.8287 -0.2715
3.5032 -1.8799 -0.2656
3.4870 -1.9150 -0.2677
3.4565 -1.9872 -0.2648
3.4433 -2.0169 -0.2652
3.4311 -2.0436 -0.2663
3.4082 -2.1011 -0.2608
3.3889 -2.1433 -0.2627
3.3796 -2.1691 -0.2575
3.3715 -2.1840 -0.2614
3.3562 -2.2170 -0.2635
3.3491 -2.2369 -0.2595
3.3424 -2.2496 -0.2624
3.3301 -2.2825 -0.2570
3.3189 -2.3072 -0.2580
3.3088 -2.3315 -0.2566
3.3038 -2.3401 -0.2596
3.8117 -1.6904 0.3787
3.7937 -1.7090 0.3526
3.7560 -1.5136 0.0598
3.7336 -1.5435 0.0346
3.7262 -1.5271 -0.0006
3.7310 -1.4688 -0.0480
3.8291 -1.0226 -0.2584
3.7928 -1.0885 -0.2816
3.7441 -1.2072 -0.2819
3.6983 -1.3240 -0.2768
3.6638 -1.4038 -0.2816
3.6305 -1.4849 -0.2816
3.5913 -1.6023 -0.2598
3.5439 -1.7142 -0.2637
3.5246 -1.7557 -0.2695
3.5035 -1.8130 -0.2637
3.4873 -1.8472 -0.2693
3.4700 -1.8934 -0.2652
3.4400 -1.9735 -0.2583
3.4153 -2.0356 -0.2564
3.3945 -2.0821 -0.2609
3.3850 -2.1032 -0.2631
3.3761 -2.1196 -0.2684
3.3676 -2.1369 -0.2720
3.3592 -2.1666 -0.2627
3.3515 -2.1881 -0.2599
3.3444 -2.2039 -0.2616
3.3376 -2.2224 -0.2597
3.3311 -2.2353 -0.2627
3.3251 -2.2535 -0.2591
3.3191 -2.2645 -0.2628
3.3138 -2.2824 -0.2576
3.3085 -2.2940 -0.2591
3.3038 -2.3100 -0.2544
3.2989 -2.3197 -0.2569
3.2941 -2.3294 -0.2589
3.9489 -1.2940 0.4174
4.0633 -0.9786 0.4034
4.1586 -0.5345 0.2217
3.7137 -1.5087 0.0395
3.7722 -1.0055 -0.2882
3.7252 -1.1265 -0.2905
3.6826 -1.2387 -0.2902
3.6438 -1.3440 -0.2869
3.6059 -1.4555 -0.2756
3.5506 -1.6042 -0.2724
3.5062 -1.7235 -0.2700
3.4854 -1.7858 -0.2626
3.4682 -1.8322 -0.2615
3.4392 -1.9019 -0.2675
3.4241 -1.9541 -0.2557
3.4124 -1.9811 -0.2593
3.4012 -2.0079 -0.2617
3.3909 -2.0308 -0.2657
3.3808 -2.0591 -0.2641
3.3715 -2.0816 -0.2658
3.3543 -2.1326 -0.2603
3.3393 -2.1746 -0.2578
3.3198 -2.2254 -0.2581
3.3143 -2.2457 -0.2527
3.3084 -2.2551 -0.2584
3.3032 -2.2698 -0.2575
3.2981 -2.2825 -0.2580
3.2937 -2.2979 -0.2546
3.2884 -2.3043 -0.2616
3.2844 -2.3186 -0.2581
4.6283 0.3224 0.7766
4.4366 -0.0775 0.6539
4.0048 -0.9246 0.3312
4.0215 -0.8278 0.2885
3.8492 -1.1880 0.1787
3.8403 -1.1672 0.1393
3.8107 -1.2131 0.1067
3.6758 -1.4906 0.0168
3.6732 -1.4496 -0.0248
3.7736 -0.9003 -0.2533
3.7401 -0.9637 -0.2803
3.6933 -1.0961 -0.2804
3.6597 -1.1756 -0.2936
3.5867 -1.3946 -0.2830
3.5283 -1.5783 -0.2670
3.4876 -1.6878 -0.2720
3.4676 -1.7533 -0.2642
3.4528 -1.7848 -0.2731
3.4225 -1.8785 -0.2664
3.4079 -1.9366 -0.2519
3.3974 -1.9534 -0.2632
3.3857 -1.9971 -0.2539
3.3759 -2.0184 -0.2595
3.3574 -2.0740 -0.2567
3.3413 -2.1154 -0.2603
3.3338 -2.1359 -0.2607
3.3267 -2.1507 -0.2654
3.3202 -2.1728 -0.2622
3.3141 -2.1929 -0.2598
3.3082 -2.2100 -0.2594
3.3029 -2.2289 -0.2561
3.2973 -2.2402 -0.2601
3.2922 -2.2543 -0.2604
3.2874 -2.2682 -0.2600
3.2826 -2.2802 -0.2612
3.2786 -2.2949 -0.2585
3.2738 -2.3031 -0.2631
4.2210 -0.4677 0.6086
4.1065 -0.7173 0.5291
3.9522 -0.9987 0.3788
3.9593 -0.9290 0.3409
3.8439 -1.2277 0.2982
3.8089 -1.2920 0.2644
3.8172 -1.1175 0.1467
3.7767 -1.2051 0.1180
3.6631 -1.4212 0.0145
3.6497 -1.4208 -0.0182
3.7009 -1.0447 -0.1913
3.7039 -0.9403 -0.2665
3.6318 -1.1319 -0.2892
3.5987 -1.2278 -0.2936
3.5372 -1.4258 -0.2858
3.5133 -1.4971 -0.2873
3.4681 -1.6545 -0.2721
3.4485 -1.7284 -0.2612
3.4341 -1.7614 -0.2699
3.4039 -1.8778 -0.2508
3.3924 -1.9050 -0.2571
3.3813 -1.9360 -0.2594
3.3710 -1.9628 -0.2631
3.3614 -1.9855 -0.2686
3.3435 -2.0549 -0.2569
3.3279 -2.0942 -0.2636
3.3207 -2.1141 -0.2652
3.3020 -2.1760 -0.2617
3.2969 -2.1991 -0.2558
3.2910 -2.2099 -0.2614
3.2865 -2.2308 -0.2556
3.2816 -2.2442 -0.2570
3.2721 -2.2678 -0.2613
3.2683 -2.2827 -0.2587
4.3474 -0.2179 0.8676
4.3542 -0.1425 0.8297
4.3407 -0.1169 0.7789
3.8630 -1.1922 0.4111
3.8410 -1.2155 0.3754
3.8229 -1.2275 0.3408
3.8033 -1.2450 0.3065
3.7895 -1.2435 0.2725
3.7581 -1.1988 0.1652
3.7354 -1.2284 0.1323
3.7467 -1.1225 0.0830
3.6695 -1.1010 -0.1170
3.6585 -1.0695 -0.1659
3.6765 -0.8693 -0.2671
3.6449 -0.9418 -0.2903
3.6070 -1.0646 -0.2927
3.5725 -1.1801 -0.2919
3.5439 -1.2697 -0.2959
3.5142 -1.3816 -0.2861
3.4866 -1.4959 -0.2698
3.4671 -1.5544 -0.2743
3.4475 -1.6270 -0.2690
3.4140 -1.7542 -0.2575
3.4011 -1.7845 -0.2663
3.3654 -1.9125 -0.2597
3.3554 -1.9448 -0.2602
3.3461 -1.9830 -0.2551
3.3146 -2.0805 -0.2602
3.3012 -2.1190 -0.2645
3.2957 -2.1448 -0.2590
3.2896 -2.1589 -0.2635
3.2844 -2.1786 -0.2616
3.2800 -2.2011 -0.2559
3.2750 -2.2148 -0.2582
3.2696 -2.2246 -0.2639
3.2662 -2.2447 -0.2577
3.2618 -2.2572 -0.2591
4.3367 -0.2622 1.0149
4.3430 -0.1913 0.9833
4.3298 -0.1679 0.9367
4.2687 -0.2713 0.8597
4.2610 -0.2328 0.8162
4.2469 -0.2097 0.7678
4.1141 -0.5278 0.6614
3.8603 -1.1344 0.4572
3.7136 -1.2404 0.1792
3.6965 -1.2512 0.1458
3.7111 -1.0482 0.0473
3.6899 -1.0696 0.0112
3.6693 -1.0897 -0.0243
3.6598 -1.0518 -0.0718
3.6313 -1.1166 -0.0967
3.6117 -1.1355 -0.1309
3.6049 -0.9539 -0.2658
3.5787 -1.0108 -0.2906
3.5398 -1.1788 -0.2729
3.5126 -1.2730 -0.2755
3.4879 -1.3623 -0.2757
3.4437 -1.5412 -0.2632
3.4259 -1.6097 -0.2607
3.4115 -1.6422 -0.2733
3.3396 -1.9155 -0.2649
3.3306 -1.9472 -0.2653
3.3148 -2.0099 -0.2618
3.3076 -2.0369 -0.2611
3.3009 -2.0618 -0.2609
3.2942 -2.0814 -0.2637
3.2882 -2.1029 -0.2639
3.2830 -2.1283 -0.2596
3.2731 -2.1695 -0.2561
3.2679 -2.1836 -0.2592
3.2635 -2.2004 -0.2587
3.2561 -2.2367 -0.2523
3.2511 -2.2446 -0.2591
3.2468 -2.2552 -0.2623
2.9553 0.4106 1.0112
3.0194 0.3348 0.9885
3.0948 0.4069 0.9979
3.1693 0.4557 1.0022
2.9633 0.4432 0.9471
3.0239 0.3176 0.9168
1.5167 -1.9948 0.5469
1.5103 -1.9627 0.5531
1.5043 -1.9294 0.5595
1.5011 -1.8963 0.5657
1.4887 -1.8548 0.5740
2.9866 0.7070 0.9210
3.0512 0.5573 0.8893
3.1002 -0.1751 0.7545
1.4962 -1.9875 0.5219
1.5397 -1.9879 0.5189
1.4855 -1.8914 0.5376
1.4736 -1.8500 0.5448
2.9644 0.2831 0.7779
3.0309 0.2598 0.7697
3.0930 0.2146 0.7585
3.1436 0.1067 0.7383
1.5098 -2.0019 0.4910
1.4715 -1.8548 0.5128
1.4984 -1.8403 0.5131
2.9707 0.2900 0.7087
3.0333 0.2195 0.6956
3.1025 0.2423 0.6945
3.1655 0.2203 0.6878
1.5069 -2.0059 0.4626
1.4838 -1.9633 0.4684
1.4821 -1.8688 0.4788
1.5005 -1.8482 0.4801
1.3806 -1.6787 0.5049
0.5146 -0.5845 0.6693
2.9565 0.0103 0.6081
3.0400 0.2256 0.6273
3.1179 0.3195 0.6336
1.4927 -1.8827 0.4453
1.4984 -1.8530 0.4476
1.4620 -1.7895 0.4546
0.4842 -0.5677 0.6020
2.8553 -0.8247 0.4760
3.0445 0.2085 0.5561
3.1254 0.3263 0.5626
3.4713 -0.7061 0.4592
3.4977 -0.7407 0.4551
3.4824 -0.8802 0.4438
3.4524 -1.0423 0.4313
3.4802 -1.0509 0.4293
0.3963 -0.4954 0.5379
0.5774 -0.5792 0.5263
0.7387 1.5137 0.6489
0.9761 1.2851 0.6264
1.1670 1.1295 0.6100
1.3566 0.9459 0.5919
2.3483 1.5190 0.5915
2.4755 1.2684 0.5715
2.5999 0.7564 0.5357
2.8114 -0.8714 0.4282
2.8583 -0.8361 0.4287
3.0559 0.2610 0.4889
3.1301 0.3087 0.4892
3.4222 1.8730 0.5747
3.4517 -1.0588 0.3937
3.4852 -1.0533 0.3929
-0.3537 -0.0244 0.5011
1.2279 0.9707 0.4938
1.4083 0.8010 0.4826
1.4354 1.0391 0.4906
2.2814 1.1777 0.4722
2.4694 1.4283 0.4762
2.6149 0.5156 0.4385
2.6985 0.4269 0.4329
2.8608 -0.8575 0.3810
2.9116 -0.7815 0.3824
3.0629 0.2674 0.4168
3.1318 0.2671 0.4149
3.2369 0.5232 0.4214
3.4735 -1.0953 0.3552
3.5174 -1.0644 0.3551
1.3611 -1.7727 0.3524
0.4173 -1.0227 0.3801
0.3825 -0.9263 0.3819
0.3433 -0.3705 0.3894
1.0535 1.0872 0.3931
1.3009 0.7830 0.3846
1.4567 0.6655 0.3801
1.4272 1.0567 0.3854
2.3028 1.0273 0.3678
2.4000 1.0593 0.3663
2.4729 1.4516 0.3696
2.6226 0.4376 0.3544
2.7041 0.3805 0.3521
2.9172 -0.7619 0.3341
3.0469 0.0490 0.3414
3.1168 0.0927 0.3405
3.2501 0.5605 0.3436
0.4033 -0.9551 0.3157
0.2998 -0.2315 0.3075
0.8821 1.4650 0.2788
1.0249 1.4492 0.2774
1.4628 0.6422 0.2829
1.5192 0.7852 0.2804
2.2786 1.2618 0.2656
2.4025 1.0764 0.2666
2.6289 0.3902 0.2729
2.7091 0.3614 0.2724
2.8255 -0.7519 0.2855
2.8733 -0.7676 0.2852
2.9177 -0.8049 0.2852
3.0936 -0.1396 0.2745
3.2921 0.3284 0.2662
3.4285 0.6819 0.2600
3.5961 0.7664 0.2570
3.4417 -1.0489 0.2824
3.4758 -1.0441 0.2820
0.4053 -0.8963 0.2472
0.4194 -0.7497 0.2415
0.3413 -0.5927 0.2357
0.3970 -0.5507 0.2339
0.4522 -0.5066 0.2321
1.0974 1.2620 0.1621
1.3359 0.9707 0.1726
1.4703 0.9204 0.1741
1.6114 0.8325 0.1771
1.5687 1.3603 0.1569
1.6541 1.5036 0.1512
1.7696 1.5416 0.1494
1.9369 1.3204 0.1574
2.0779 1.1680 0.1628
2.1944 1.1139 0.1645
2.2744 1.3296 0.1560
2.3933 1.2246 0.1597
2.5267 0.7783 0.1765
2.6330 0.3983 0.1907
2.7190 -0.0131 0.2063
2.8316 -0.6835 0.2318
2.8758 -0.7905 0.2357
2.9208 -0.8165 0.2366
3.0451 -0.0831 0.2080
3.1000 -0.1370 0.2099
3.1687 -0.0789 0.2075
3.2570 0.0825 0.2010
3.3596 0.2851 0.1929
3.4362 0.3330 0.1909
3.5653 0.5960 0.1804
3.4860 -0.9528 0.2402
0.1226 -0.5062 0.1519
1.3506 1.2584 0.0453
2.0987 1.8020 0.0145
2.5370 0.6871 0.0885
2.6371 0.4072 0.1071
2.7227 0.0337 0.1315
2.7889 -0.2905 0.1527
2.8851 -0.7032 0.1798
2.9284 -0.7754 0.1847
2.9748 -0.7815 0.1853
3.0261 -0.7432 0.1831
3.0928 -0.6112 0.1750
3.2447 -0.5729 0.1734
3.2842 -0.6047 0.1757
3.5356 -0.8455 0.1925
1.4039 -1.8671 0.2107
-0.2337 -0.2149 0.0383
1.6691 1.4469 -0.0850
1.8201 1.3290 -0.0722
2.0061 1.6174 -0.0956
2.1540 1.4391 -0.0774
2.5563 0.4460 0.0180
2.6424 0.3873 0.0245
2.7232 0.4140 0.0232
2.8061 0.5899 0.0085
2.9394 -0.6989 0.1269
2.9690 -0.8737 0.1431
3.0140 -0.8684 0.1432
3.0633 -0.8331 0.1408
3.1210 -0.7557 0.1346
3.1894 -0.6387 0.1250
3.4145 0.1591 0.0560
3.4572 -0.9706 0.1587
3.5209 -0.8987 0.1531
3.5510 -0.9110 0.1547
3.5702 -0.9461 0.1581
3.5774 -1.0031 0.1634
1.3772 -1.8904 0.1767
1.3693 -1.8508 0.1719
1.3780 -1.8205 0.1686
0.2115 -0.5188 -0.0102
0.9834 1.1901 -0.1922
1.5379 1.0514 -0.1633
1.6832 0.9549 -0.1487
1.7644 1.0766 -0.1611
1.9004 0.9802 -0.1467
1.9386 1.3384 -0.1877
2.0137 1.5887 -0.2152
2.2841 1.3480 -0.1809
2.3970 1.3346 -0.1768
2.5581 0.4856 -0.0739
2.6476 0.3675 -0.0581
2.9104 0.9421 -0.1192
2.9549 0.2328 -0.0353
2.9817 -0.2769 0.0249
3.0219 -0.4460 0.0456
3.3882 0.3050 -0.0338
3.4342 0.2095 -0.0216
4.5163 2.5349 -0.2686
3.4631 -0.9719 0.1171
3.5031 -0.9587 0.1165
3.5395 -0.9541 0.1168
3.5689 -0.9644 0.1187
3.5972 -0.9751 0.1205
3.6179 -0.9999 0.1239
1.3443 -1.8412 0.1324
1.3864 -1.8336 0.1327
-0.0996 0.5332 -0.2546
0.1043 0.4528 -0.2365
0.1489 0.5649 -0.2512
1.0484 0.7641 -0.2513
1.4387 0.6697 -0.2254
1.5379 0.7025 -0.2270
1.6121 0.8138 -0.2406
1.7473 0.7296 -0.2242
1.8645 0.6877 -0.2145
1.9257 0.8732 -0.2392
1.9925 1.0753 -0.2661
2.4444 0.8390 -0.2178
2.5438 0.7965 -0.2086
2.6460 0.5538 -0.1705
2.8177 0.5790 -0.1686
2.9502 0.0741 -0.0919
2.9889 -0.2575 -0.0430
3.0325 -0.4002 -0.0211
3.3951 1.1525 -0.2327
3.5755 1.6453 -0.2978
3.4034 0.3377 -0.1154
3.4834 0.3870 -0.1199
3.8198 1.4547 -0.2627
4.0148 1.8393 -0.3118
4.1385 1.9303 -0.3209
3.5092 -0.9600 0.0745
3.5495 -0.9468 0.0738
3.6258 -0.9289 0.0737
3.6738 -0.8995 0.0710
-0.5167 -0.3454 -0.2373
0.3357 -0.8286 -0.1200
0.4419 -0.8352 -0.1146
0.5116 -0.8122 -0.1157
0.6455 -0.8481 -0.1041
0.5323 -0.6525 -0.1421
0.5342 -0.5563 -0.1585
0.4565 -0.3698 -0.1935
0.3207 -0.1037 -0.2445
0.2897 0.0649 -0.2746
0.3589 0.1262 -0.2823
0.4540 0.1575 -0.2837
0.5720 0.1580 -0.2790
0.6868 0.1594 -0.2746
0.7800 0.1902 -0.2761
0.8926 0.1898 -0.2714
0.9663 0.2516 -0.2790
1.0244 0.3456 -0.2927
1.1365 0.3441 -0.2879
1.2761 0.2809 -0.2714
1.3946 0.2503 -0.2613
1.4586 0.3411 -0.2742
1.5736 0.3093 -0.2641
1.6523 0.3696 -0.2712
1.7526 0.3683 -0.2669
1.8145 0.4938 -0.2859
1.9151 0.4916 -0.2814
2.0063 0.5217 -0.2828
2.0841 0.6201 -0.2965
2.1715 0.6853 -0.3041
2.2754 0.6457 -0.2931
2.3715 0.6420 -0.2885
2.4657 0.6377 -0.2840
2.5580 0.6339 -0.2796
2.6535 0.4720 -0.2480
2.8170 0.2462 -0.2028
2.8806 -0.0312 -0.1528
2.9392 -0.1679 -0.1270
2.9763 -0.4488 -0.0775
3.1856 0.2461 -0.1877
3.2995 0.5113 -0.2284
3.3852 0.5676 -0.2346
3.4083 0.3195 -0.1912
3.4381 0.1525 -0.1615
3.5699 0.4206 -0.2019
3.3901 -0.9071 0.0177
3.4295 -0.9024 0.0185
3.4722 -0.8884 0.0178
3.5258 -0.8468 0.0129
-0.3551 -0.5723 -0.2812
-0.0165 -0.7333 -0.2324
0.3071 -0.8982 -0.1836
0.2628 -0.7837 -0.2085
0.3544 -0.7752 -0.2057
0.4457 -0.7678 -0.2026
0.6499 -0.8647 -0.1732
0.4244 -0.5632 -0.2443
0.4013 -0.4376 -0.2703
0.5024 -0.4321 -0.2664
0.7253 -0.5621 -0.2295
0.7338 -0.4612 -0.2491
0.8723 -0.3897 -0.2564
1.1063 -0.3126 -0.2601
1.1978 -0.3082 -0.2564
1.2751 -0.2827 -0.2576
1.5378 -0.2694 -0.2471
1.6230 -0.2662 -0.2436
1.6887 -0.2197 -0.2495
1.7641 -0.1948 -0.2507
1.8243 -0.1265 -0.2613
1.9150 -0.1451 -0.2531
2.0029 -0.1636 -0.2450
2.0718 -0.1182 -0.2506
2.1414 -0.0705 -0.2566
2.2032 0.0232 -0.2721
2.2845 0.0253 -0.2685
2.3645 0.0268 -0.2648
2.4379 0.0758 -0.2709
2.5084 0.1755 -0.2871
2.5900 0.1507 -0.2782
2.8080 -0.4145 -0.1551
2.8631 -0.5161 -0.1322
2.9149 -0.5806 -0.1168
2.9706 -0.5623 -0.1177
3.0262 -0.5439 -0.1186
3.0819 -0.5256 -0.1194
3.1399 -0.4930 -0.1230
3.2538 -0.1705 -0.1814
3.3252 -0.1118 -0.1895
3.4373 0.1131 -0.2285
3.4844 0.0501 -0.2137
3.3111 -0.7918 -0.0552
3.3517 -0.7970 -0.0521
3.3851 -0.8221 -0.0455
3.4079 -0.8734 -0.0342
3.4619 -0.8308 -0.0399
3.4921 -0.8540 -0.0338
3.5176 -0.8848 -0.0265
3.5421 -0.9139 -0.0195
4.0949 0.0252 -0.1784
0.2002 -1.0504 -0.2308
0.5724 -1.2436 -0.1651
0.3345 -1.0062 -0.2329
0.3304 -0.9296 -0.2505
0.3258 -0.8481 -0.2692
0.3785 -0.8091 -0.2749
0.5035 -0.8315 -0.2625
0.6850 -0.9091 -0.2342
0.7950 -0.9282 -0.2234
0.7844 -0.7389 -0.2669
0.8097 -0.6670 -0.2817
0.9248 -0.6926 -0.2691
0.9816 -0.6534 -0.2746
1.0523 -0.6301 -0.2757
1.1477 -0.6396 -0.2679
1.2292 -0.6333 -0.2645
1.2984 -0.6105 -0.2656
1.3777 -0.6038 -0.2625
1.4463 -0.5812 -0.2635
1.5241 -0.5750 -0.2603
1.5658 -0.5018 -0.2745
1.6522 -0.5133 -0.2668
1.7052 -0.4559 -0.2766
1.7673 -0.4149 -0.2823
1.8445 -0.4099 -0.2788
1.9142 -0.3870 -0.2799
1.9839 -0.3640 -0.2810
2.0535 -0.3410 -0.2821
2.1232 -0.3181 -0.2832
2.2013 -0.3323 -0.2753
2.2736 -0.3280 -0.2721
2.3386 -0.2871 -0.2775
2.3992 -0.2066 -0.2922
2.4738 -0.2230 -0.2840
2.5429 -0.2002 -0.2851
2.6203 -0.3265 -0.2520
2.6865 -0.3395 -0.2451
2.7505 -0.1902 -0.2751
2.8648 -0.5719 -0.1819
2.9302 -0.4366 -0.2087
2.9811 -0.5059 -0.1900
3.0315 -0.5437 -0.1785
3.0834 -0.5532 -0.1733
3.1149 -0.6751 -0.1438
3.1714 -0.6339 -0.1498
3.2779 -0.3660 -0.2042
3.3047 -0.4803 -0.1767
3.3066 -0.6673 -0.1343
3.3198 -0.7829 -0.1073
3.3458 -0.8379 -0.0933
3.3851 -0.8424 -0.0900
3.4303 -0.8275 -0.0907
3.4881 -0.8823 -0.0749
3.5170 -0.9035 -0.0684
3.5484 -0.9157 -0.0638
3.6057 -0.8671 -0.0714
4.0817 0.0856 -0.2590
4.0638 -0.0629 -0.2265
4.0635 -0.1635 -0.2037
0.5495 -1.1762 -0.2479
0.6003 -1.0790 -0.2692
0.6777 -1.0698 -0.2663
0.7544 -1.0608 -0.2633
0.8301 -1.0521 -0.2604
0.9291 -1.0663 -0.2500
0.9900 -1.0463 -0.2509
1.0284 -1.0031 -0.2593
1.0901 -0.9827 -0.2603
1.1726 -0.9861 -0.2538
1.2234 -0.9540 -0.2585
1.3135 -0.9702 -0.2482
1.4007 -0.9862 -0.2382
1.4337 -0.9306 -0.2501
1.5910 -0.8329 -0.2643
1.6739 -0.8514 -0.2539
1.7408 -0.8446 -0.2510
1.7940 -0.8117 -0.2558
1.8718 -0.8309 -0.2456
1.9359 -0.8241 -0.2429
1.9993 -0.8174 -0.2403
2.0529 -0.7855 -0.2448
2.0944 -0.7127 -0.2605
2.1625 -0.7209 -0.2537
2.2383 -0.7661 -0.2370
2.2930 -0.7348 -0.2412
2.3429 -0.6756 -0.2529
2.4040 -0.6697 -0.2503
2.4625 -0.6504 -0.2512
2.5148 -0.5741 -0.2670
2.5737 -0.5405 -0.2716
2.6388 -0.6066 -0.2503
2.6973 -0.6015 -0.2476
2.7551 -0.6100 -0.2415
2.8086 -0.7319 -0.2068
2.8678 -0.5993 -0.2365
2.9274 -0.5390 -0.2478
2.9848 -0.5200 -0.2487
3.0439 -0.4873 -0.2530
3.1017 -0.4682 -0.2539
3.1472 -0.5205 -0.2375
3.2194 -0.6657 -0.1956
3.2486 -0.7416 -0.1742
3.2809 -0.7900 -0.1597
3.3171 -0.8147 -0.1509
3.3608 -0.8095 -0.1492
3.4074 -0.7941 -0.1500
3.4432 -0.8098 -0.1435
3.5270 -0.8963 -0.1158
3.5622 -0.8999 -0.1124
3.6004 -0.8955 -0.1110
3.6767 -0.8846 -0.1085
0.6175 -1.3562 -0.2588
0.6738 -1.3376 -0.2597
0.7177 -1.3100 -0.2641
0.7987 -1.3096 -0.2579
0.8547 -1.2911 -0.2588
0.9221 -1.2821 -0.2561
0.9667 -1.2542 -0.2605
1.0334 -1.2454 -0.2579
1.0995 -1.2367 -0.2552
1.1347 -1.1988 -0.2632
1.1907 -1.1804 -0.2640
1.2467 -1.1619 -0.2649
1.3027 -1.1434 -0.2658
1.3674 -1.1353 -0.2631
1.4064 -1.0961 -0.2711
1.4866 -1.1091 -0.2612
1.5343 -1.0802 -0.2657
1.5827 -1.0511 -0.2702
1.6456 -1.0435 -0.2674
1.6881 -1.0032 -0.2756
1.7507 -0.9957 -0.2728
1.8126 -0.9885 -0.2701
1.8738 -0.9815 -0.2673
1.9291 -0.9632 -0.2682
1.9844 -0.9450 -0.2690
2.0307 -0.9034 -0.2772
2.0950 -0.9085 -0.2707
2.1465 -0.8784 -0.2753
2.2057 -0.8721 -0.2725
2.2610 -0.8538 -0.2733
2.3163 -0.8356 -0.2742
2.3760 -0.8402 -0.2683
2.4328 -0.8346 -0.2654
2.4805 -0.7683 -0.2805
2.5334 -0.7246 -0.2888
2.5928 -0.7444 -0.2785
2.6494 -0.7501 -0.2725
2.7031 -0.6949 -0.2840
2.7586 -0.8202 -0.2441
2.8065 -0.9490 -0.2039
2.8660 -0.7160 -0.2653
2.9247 -0.6350 -0.2837
2.9814 -0.6032 -0.2884
3.0370 -0.5848 -0.2892
3.0927 -0.5665 -0.2901
3.1459 -0.5621 -0.2872
3.1808 -0.6467 -0.2605
3.1954 -0.8016 -0.2154
3.2389 -0.8065 -0.2107
3.2707 -0.8516 -0.1954
3.3202 -0.8262 -0.1987
3.3670 -0.8108 -0.1995
3.4138 -0.7953 -0.2002
3.4570 -0.7902 -0.1983
3.4959 -0.7956 -0.1938
3.5301 -0.8106 -0.1868
3.5596 -0.8342 -0.1778
1.0882 -1.4279 -0.2574
1.1568 -1.4264 -0.2519
1.1814 -1.3871 -0.2620
1.2236 -1.3622 -0.2662
1.2834 -1.3535 -0.2636
1.3418 -1.3443 -0.2614
1.3925 -1.3276 -0.2622
1.4432 -1.3109 -0.2630
1.5285 -1.3349 -0.2480
1.5900 -1.3338 -0.2430
1.6143 -1.2856 -0.2559
1.6584 -1.2610 -0.2598
1.7364 -1.2855 -0.2453
1.7640 -1.2362 -0.2583
1.8245 -1.2374 -0.2526
1.8877 -1.2457 -0.2445
1.9317 -1.2211 -0.2484
1.9763 -1.1964 -0.2522
2.0333 -1.1977 -0.2468
2.0819 -1.1816 -0.2476
2.1339 -1.1745 -0.2452
2.1850 -1.1667 -0.2432
2.2275 -1.1336 -0.2498
2.2761 -1.1176 -0.2506
2.3223 -1.0924 -0.2545
2.3671 -1.0585 -0.2611
2.4217 -1.0696 -0.2529
2.4719 -1.0631 -0.2505
2.5238 -1.0741 -0.2426
2.5684 -1.0313 -0.2520
2.6152 -0.9958 -0.2591
2.6645 -0.9896 -0.2567
2.7131 -0.9736 -0.2574
2.7615 -0.9867 -0.2491
2.8096 -0.9608 -0.2530
2.8587 -0.9256 -0.2597
2.9105 -0.8693 -0.2728
2.9601 -0.8530 -0.2736
3.0097 -0.8366 -0.2743
3.0627 -0.7981 -0.2818
3.1110 -0.7922 -0.2794
3.1563 -0.7983 -0.2735
3.1850 -0.8742 -0.2473
3.2344 -0.8489 -0.2509
3.2817 -0.8333 -0.2516
3.3290 -0.8177 -0.2523
3.3732 -0.8122 -0.2502
3.4168 -0.8068 -0.2481
3.4637 -0.7914 -0.2488
3.5182 -0.7553 -0.2553
3.5737 -0.7190 -0.2618
3.6307 -0.6811 -0.2687
3.6790 -0.6652 -0.2694
3.7273 -0.6493 -0.2702
3.7649 -0.6560 -0.2648
1.2059 -1.6339 -0.2319
1.3200 -1.6731 -0.2074
1.2587 -1.5218 -0.2651
1.2983 -1.4998 -0.2688
1.3385 -1.4776 -0.2725
1.4068 -1.4819 -0.2644
1.4670 -1.4800 -0.2592
1.5004 -1.4511 -0.2658
1.5472 -1.4356 -0.2666
1.6179 -1.4482 -0.2554
1.6580 -1.4260 -0.2591
1.6987 -1.4037 -0.2628
1.7450 -1.3884 -0.2635
1.7863 -1.3658 -0.2673
1.8472 -1.3727 -0.2590
1.8971 -1.3642 -0.2570
1.9303 -1.3273 -0.2664
1.9884 -1.3341 -0.2585
2.0306 -1.3122 -0.2619
2.1090 -1.2504 -0.2754
2.1620 -1.2509 -0.2701
2.2027 -1.2196 -0.2768
2.2599 -1.2366 -0.2655
2.3495 -1.1981 -0.2699
2.3937 -1.1745 -0.2737
2.4448 -1.1836 -0.2656
2.4904 -1.1686 -0.2663
2.5372 -1.1621 -0.2640
2.5860 -1.1789 -0.2535
2.6280 -1.1322 -0.2654
2.6730 -1.1084 -0.2692
2.7180 -1.0676 -0.2788
2.7643 -1.0703 -0.2734
