ply
format ascii 1.0
element vertex 2151
property float x
property float y
property float z
end_header
5.7912 0.0921 -0.6256
4.5807 0.1806 -0.4094
4.4253 0.1791 -0.3837
4.3680 0.1557 -0.3778
4.8601 -0.0900 -0.4989
4.9366 -0.1738 -0.5249
4.9083 -0.2231 -0.5280
4.9349 -0.2963 -0.5440
5.1056 -0.5122 -0.6067
5.0577 -0.5641 -0.6069
3.6526 0.0679 -0.2722
3.6209 0.0551 -0.2689
3.6091 0.0294 -0.2710
3.5969 0.0033 -0.2731
3.6318 -0.0609 -0.2891
3.6439 -0.1111 -0.2990
3.3305 0.0366 -0.2233
3.2776 0.0626 -0.2104
3.2447 0.0700 -0.2037
3.2190 0.0709 -0.1992
3.2017 0.0623 -0.1977
3.1865 0.0516 -0.1969
3.1736 0.0377 -0.1969
3.1651 0.0169 -0.1988
3.1603 -0.0112 -0.2024
3.1878 -0.0992 -0.2210
3.1691 -0.1080 -0.2192
3.1480 -0.1108 -0.2161
3.1291 -0.1169 -0.2139
3.1161 -0.1353 -0.2147
3.0997 -0.1458 -0.2136
3.0870 -0.1653 -0.2146
3.0709 -0.1756 -0.2135
3.0491 -0.1676 -0.2086
3.0346 -0.1803 -0.2082
3.0215 -0.1974 -0.2087
3.0172 -0.2495 -0.2162
3.0020 -0.2617 -0.2156
2.9868 -0.2737 -0.2150
3.0154 -0.7758 -0.2992
3.1526 -2.7646 -0.6367
3.1028 -2.8185 -0.6369
3.0530 -2.8724 -0.6371
3.0048 -2.9533 -0.6419
2.9583 -3.0928 -0.6561
5.4855 0.3632 -0.5953
5.4602 0.3158 -0.5990
5.4533 0.2655 -0.6067
5.4104 0.2190 -0.6068
5.3834 0.1699 -0.6105
5.2909 0.1324 -0.5997
5.0995 0.1179 -0.5661
4.4545 0.2156 -0.4268
4.3690 0.1986 -0.4137
4.3283 0.1717 -0.4108
4.3066 0.1396 -0.4124
4.3310 0.0919 -0.4256
4.8388 -0.3784 -0.6054
4.8632 -0.4590 -0.6244
4.7404 -0.4635 -0.6020
3.6357 0.0467 -0.3022
3.6266 0.0182 -0.3056
3.6216 -0.0142 -0.3104
3.6220 -0.0523 -0.3173
3.6495 -0.1153 -0.3337
3.3313 0.0352 -0.2467
3.2741 0.0660 -0.2304
3.2469 0.0665 -0.2252
3.2284 0.0579 -0.2232
3.2073 0.0536 -0.2200
3.1901 0.0450 -0.2183
3.1858 0.0175 -0.2224
3.1835 -0.0149 -0.2278
3.1668 -0.1072 -0.2411
3.1434 -0.1055 -0.2363
3.1268 -0.1163 -0.2351
3.1137 -0.1347 -0.2359
3.0977 -0.1463 -0.2350
3.0864 -0.1700 -0.2371
3.0676 -0.1732 -0.2341
3.0486 -0.1738 -0.2306
3.0308 -0.1760 -0.2276
3.0216 -0.2073 -0.2315
3.0127 -0.2427 -0.2361
2.9991 -0.2616 -0.2369
2.9852 -0.2796 -0.2375
3.0433 -0.8172 -0.3444
3.0156 -0.8073 -0.3374
3.1008 -2.3671 -0.6318
3.0567 -2.4148 -0.6320
3.0156 -2.5049 -0.6403
2.9698 -2.5317 -0.6364
5.3280 0.3857 -0.6221
5.2727 0.3443 -0.6186
5.2485 0.2996 -0.6224
5.2087 0.2566 -0.6226
5.0200 0.2379 -0.5864
4.3565 0.2434 -0.4452
4.3353 0.2120 -0.4470
4.2639 0.1943 -0.4355
4.2258 0.1686 -0.4325
4.2917 0.0260 -0.4748
4.2433 0.0019 -0.4694
4.2142 -0.0296 -0.4695
4.5410 -0.4139 -0.6149
3.6506 -0.0348 -0.3515
3.6266 -0.0552 -0.3505
3.6410 -0.1075 -0.3639
3.6508 -0.1593 -0.3763
3.3340 0.0319 -0.2714
3.2808 0.0578 -0.2550
3.2527 0.0586 -0.2489
3.2298 0.0551 -0.2448
3.2097 0.0489 -0.2417
3.2014 0.0272 -0.2443
3.1976 -0.0024 -0.2494
3.1607 -0.0991 -0.2608
3.1429 -0.1085 -0.2589
3.1231 -0.1129 -0.2556
3.1108 -0.1332 -0.2571
3.0972 -0.1508 -0.2577
3.0809 -0.1614 -0.2564
3.0658 -0.1749 -0.2559
3.0451 -0.1704 -0.2506
3.0295 -0.1802 -0.2493
3.0180 -0.2039 -0.2516
3.0124 -0.2526 -0.2600
2.9954 -0.2582 -0.2576
2.9832 -0.2842 -0.2602
3.0311 -0.7735 -0.3676
3.0100 -0.8021 -0.3688
3.1067 -2.0744 -0.6424
3.0696 -2.1528 -0.6501
3.0257 -2.1621 -0.6427
2.9818 -2.1544 -0.6319
2.9420 -2.1975 -0.6321
2.9048 -2.3114 -0.6469
4.9856 0.3394 -0.6136
4.6299 0.3455 -0.5292
4.3333 0.3226 -0.4649
4.3070 0.2941 -0.4650
4.3699 0.2454 -0.4904
4.4106 0.1981 -0.5103
4.2944 0.1905 -0.4848
4.1906 0.1836 -0.4621
4.1755 0.1517 -0.4656
4.4812 0.0058 -0.5691
4.5551 -0.0704 -0.6031
4.5108 -0.1043 -0.6002
4.4586 -0.1341 -0.5945
4.4242 -0.1713 -0.5947
4.3731 -0.1999 -0.5890
4.2276 -0.1760 -0.5497
4.3543 -0.3019 -0.6070
4.2869 -0.3199 -0.5952
3.6693 -0.0882 -0.4000
3.6706 -0.1318 -0.4099
3.6479 -0.1564 -0.4100
3.3288 0.0370 -0.2929
3.2847 0.0526 -0.2792
3.2541 0.0561 -0.2713
3.2353 0.0469 -0.2689
3.2214 0.0319 -0.2689
3.2120 0.0104 -0.2714
3.2147 -0.0303 -0.2810
3.1551 -0.0920 -0.2806
3.1405 -0.1078 -0.2807
3.1259 -0.1236 -0.2808
3.1092 -0.1346 -0.2793
3.0947 -0.1503 -0.2794
3.0798 -0.1650 -0.2791
3.0657 -0.1818 -0.2795
3.0419 -0.1681 -0.2709
3.0266 -0.1790 -0.2697
3.0154 -0.2039 -0.2726
3.0073 -0.2435 -0.2794
2.9910 -0.2513 -0.2773
3.0544 -0.7821 -0.4087
3.0240 -0.7587 -0.3965
3.0030 -0.7871 -0.3978
3.0382 -1.9209 -0.6552
2.9905 -1.8347 -0.6251
4.8456 0.4409 -0.6087
4.8132 0.4058 -0.6088
4.3987 0.3832 -0.5080
4.3907 0.2823 -0.5302
4.4623 0.2299 -0.5612
4.4327 0.1978 -0.5613
4.3669 0.1755 -0.5498
4.2356 0.1745 -0.5164
4.1370 0.1683 -0.4926
4.4239 -0.0156 -0.6105
4.4495 -0.0745 -0.6312
4.3911 -0.1000 -0.6224
4.3580 -0.1358 -0.6225
4.2871 -0.1525 -0.6083
4.2264 -0.1721 -0.5975
4.2368 -0.2307 -0.6143
4.2330 -0.2838 -0.6261
4.1644 -0.2966 -0.6115
3.7258 -0.1776 -0.4704
3.3744 0.0231 -0.3319
3.3275 0.0379 -0.3163
3.2956 0.0397 -0.3077
3.2653 0.0418 -0.2994
3.2501 0.0269 -0.2991
3.2385 0.0073 -0.3009
3.2317 -0.0197 -0.3056
3.3663 -0.2637 -0.3989
3.1555 -0.0965 -0.3046
3.1355 -0.1015 -0.3006
3.1222 -0.1201 -0.3017
3.1091 -0.1398 -0.3031
3.0937 -0.1537 -0.3025
3.0765 -0.1626 -0.3002
3.0627 -0.1803 -0.3009
3.0406 -0.1721 -0.2933
3.0234 -0.1767 -0.2900
3.0126 -0.2037 -0.2937
3.0050 -0.2456 -0.3018
2.9881 -0.2512 -0.2989
3.0453 -0.7580 -0.4356
2.9917 -0.7419 -0.4180
2.9678 -0.7427 -0.4120
2.9372 -1.7244 -0.6406
2.9035 -1.7610 -0.6407
2.8697 -1.7976 -0.6409
4.6528 0.4625 -0.5999
4.4181 0.3861 -0.5543
4.5045 0.3394 -0.5907
4.5218 0.2999 -0.6059
4.4541 0.2751 -0.5935
4.4250 0.2436 -0.5936
4.4105 0.2085 -0.5987
4.3955 0.1729 -0.6039
4.2842 0.1647 -0.5749
4.2254 0.1441 -0.5639
4.0505 0.1656 -0.5093
4.2502 0.0545 -0.5943
4.2472 0.0123 -0.6045
4.2303 -0.0254 -0.6097
4.2067 -0.0607 -0.6123
4.1513 -0.0805 -0.6020
4.0987 -0.0999 -0.5924
4.0755 -0.1347 -0.5950
4.0628 -0.1763 -0.6024
4.0452 -0.2161 -0.6079
3.9936 -0.2331 -0.5979
3.9591 -0.2608 -0.5955
3.8907 -0.2613 -0.5765
3.7904 -0.2312 -0.5406
3.4413 -0.0070 -0.3842
3.3339 0.0306 -0.3443
3.3005 0.0334 -0.3342
3.2786 0.0249 -0.3303
3.3797 -0.2346 -0.4266
3.3628 -0.2613 -0.4289
3.3394 -0.2782 -0.4268
3.1318 -0.0980 -0.3215
3.1209 -0.1222 -0.3248
3.1102 -0.1477 -0.3285
3.0881 -0.1453 -0.3217
3.0728 -0.1591 -0.3210
3.0573 -0.1717 -0.3200
3.0380 -0.1718 -0.3146
3.0247 -0.1903 -0.3157
3.0153 -0.2241 -0.3220
3.0020 -0.2454 -0.3238
2.9874 -0.2612 -0.3239
3.0403 -0.7561 -0.4684
2.9826 -0.7103 -0.4403
2.9614 -0.7291 -0.4393
2.9407 -0.7515 -0.4394
2.8993 -0.7964 -0.4396
2.8796 -0.8371 -0.4447
4.4886 0.3826 -0.6193
4.4535 0.3529 -0.6171
4.3967 0.3272 -0.6072
4.3765 0.2957 -0.6100
4.3412 0.2671 -0.6074
4.3530 0.2276 -0.6222
4.3246 0.1968 -0.6224
4.2770 0.1715 -0.6151
4.2125 0.1526 -0.6009
4.0298 0.1765 -0.5387
4.1634 0.0911 -0.6035
4.1822 0.0426 -0.6230
4.1483 0.0142 -0.6208
4.1199 -0.0165 -0.6209
4.0916 -0.0472 -0.6210
4.0471 -0.0692 -0.6138
4.0399 -0.1115 -0.6236
4.0016 -0.1363 -0.6190
3.9679 -0.1633 -0.6164
3.9351 -0.1905 -0.6142
3.9026 -0.2174 -0.6120
3.8217 -0.2058 -0.5842
3.7422 -0.1900 -0.5556
3.3898 0.0071 -0.3928
3.3350 0.0290 -0.3700
3.3140 0.0173 -0.3670
3.2910 0.0089 -0.3624
3.3981 -0.2126 -0.4577
3.3909 -0.2534 -0.4671
3.3629 -0.2645 -0.4618
3.3308 -0.2676 -0.4529
3.3142 -0.2952 -0.4557
3.1324 -0.1036 -0.3462
3.1164 -0.1168 -0.3451
3.1056 -0.1422 -0.3491
3.0833 -0.1389 -0.3413
3.0723 -0.1645 -0.3453
3.0563 -0.1764 -0.3438
3.0350 -0.1705 -0.3357
3.0202 -0.1837 -0.3350
3.0149 -0.2335 -0.3475
2.9983 -0.2419 -0.3448
2.9841 -0.2600 -0.3457
2.9945 -0.6593 -0.4621
2.9367 -0.7590 -0.4729
2.9144 -0.7652 -0.4680
2.8926 -0.7696 -0.4626
2.8720 -0.7877 -0.4615
4.2432 0.4762 -0.5555
4.3797 0.4338 -0.6131
4.3410 0.4070 -0.6086
4.3273 0.3771 -0.6133
4.2770 0.3528 -0.6043
4.2287 0.3292 -0.5957
4.2254 0.2970 -0.6045
4.1945 0.2703 -0.6026
4.1851 0.2382 -0.6093
4.1531 0.2118 -0.6069
4.0626 0.2041 -0.5797
3.9756 0.1987 -0.5529
4.0416 0.1403 -0.5923
4.0450 0.1016 -0.6053
4.0291 0.0694 -0.6100
3.9934 0.0458 -0.6055
3.9495 0.0269 -0.5969
3.9283 -0.0028 -0.5991
3.8946 -0.0257 -0.5950
3.8814 -0.0605 -0.6014
3.8440 -0.0804 -0.5952
3.8264 -0.1131 -0.5995
3.8092 -0.1468 -0.6042
3.7499 -0.1481 -0.5852
3.4626 0.0099 -0.4429
3.4268 0.0067 -0.4322
3.3809 0.0158 -0.4144
3.3506 0.0117 -0.4057
3.3384 -0.0111 -0.4087
3.3426 -0.0544 -0.4233
3.4068 -0.2790 -0.5130
3.3744 -0.2853 -0.5043
3.3292 -0.2686 -0.4845
3.2951 -0.2659 -0.4725
3.1286 -0.1001 -0.3673
3.1147 -0.1179 -0.3682
3.0999 -0.1339 -0.3683
3.0884 -0.1586 -0.3721
3.0728 -0.1729 -0.3713
3.0509 -0.1678 -0.3626
3.0317 -0.1681 -0.3564
3.0195 -0.1908 -0.3594
3.0103 -0.2268 -0.3674
2.9964 -0.2460 -0.3687
2.9881 -0.6461 -0.4884
2.9911 -1.0695 -0.6189
2.9636 -1.0843 -0.6144
2.8888 -0.7864 -0.4989
2.8668 -0.7828 -0.4906
2.8458 -0.7824 -0.4836
4.2193 0.5100 -0.5737
4.2314 0.4824 -0.5870
4.2561 0.4521 -0.6056
4.2589 0.4225 -0.6163
4.2286 0.3965 -0.6142
4.2095 0.3690 -0.6165
4.1848 0.3422 -0.6166
4.1601 0.3155 -0.6167
4.1250 0.2911 -0.6124
4.0954 0.2659 -0.6103
4.0144 0.2230 -0.5959
3.9572 0.2086 -0.5806
3.9631 0.1729 -0.5944
3.9825 0.1300 -0.6152
3.9579 0.1034 -0.6153
3.9245 0.0808 -0.6110
3.8958 0.0565 -0.6089
3.8924 0.0190 -0.6201
3.8388 -0.0323 -0.6181
3.8063 -0.0540 -0.6138
3.5003 0.0139 -0.4840
3.4156 0.0173 -0.4532
3.3838 0.0127 -0.4435
3.3609 0.0002 -0.4396
3.3543 -0.0300 -0.4472
3.4910 -0.3438 -0.5981
3.4484 -0.3423 -0.5827
3.4165 -0.3537 -0.5753
3.3977 -0.3850 -0.5789
3.2503 -0.2445 -0.4811
3.2140 -0.2295 -0.4634
3.1129 -0.1190 -0.3916
3.1011 -0.1426 -0.3952
3.0861 -0.1589 -0.3953
3.0714 -0.1762 -0.3958
3.0472 -0.1643 -0.3834
3.0296 -0.1698 -0.3790
3.0179 -0.1947 -0.3831
3.0087 -0.2318 -0.3921
2.9921 -0.2403 -0.3890
3.0770 -0.8843 -0.6302
3.0508 -0.9045 -0.6276
2.9773 -0.9990 -0.6328
2.9521 -1.0263 -0.6329
2.9269 -1.0535 -0.6330
2.9005 -1.0604 -0.6260
4.2496 0.5653 -0.6025
4.2316 0.5405 -0.6045
4.1994 0.5164 -0.6008
4.1860 0.4911 -0.6047
4.1632 0.4664 -0.6048
4.1404 0.4417 -0.6049
4.1220 0.4164 -0.6068
4.0948 0.3924 -0.6051
4.0763 0.3669 -0.6070
4.0534 0.3421 -0.6071
4.0480 0.3133 -0.6152
4.0207 0.2892 -0.6134
3.9808 0.2689 -0.6055
3.9619 0.2430 -0.6075
3.9390 0.2183 -0.6076
3.9087 0.1962 -0.6040
3.8896 0.1702 -0.6059
3.8739 0.1424 -0.6098
3.8510 0.1176 -0.6099
3.8246 0.0944 -0.6081
3.8017 0.0696 -0.6082
3.7821 0.0430 -0.6102
3.7695 0.0119 -0.6164
3.7206 0.0034 -0.6010
3.5223 0.0327 -0.5162
3.4976 0.0167 -0.5125
3.4609 0.0120 -0.5004
3.4337 0.0002 -0.4943
3.3968 -0.0007 -0.4808
3.3748 -0.0152 -0.4776
3.5150 -0.2138 -0.5999
3.4972 -0.2438 -0.6038
3.4723 -0.2654 -0.6020
3.4448 -0.2831 -0.5979
3.4293 -0.3174 -0.6041
3.4107 -0.3483 -0.6079
3.3963 -0.3868 -0.6160
3.3613 -0.3910 -0.6044
3.2003 -0.2068 -0.4792
3.1099 -0.1172 -0.4139
3.0999 -0.1456 -0.4201
3.0855 -0.1639 -0.4211
3.0703 -0.1804 -0.4211
3.0451 -0.1658 -0.4066
3.0287 -0.1755 -0.4038
3.0145 -0.1923 -0.4043
3.0050 -0.2282 -0.4134
2.9911 -0.2486 -0.4153
3.0521 -0.7770 -0.6236
2.9569 -0.8625 -0.6179
2.8878 -0.9427 -0.6201
2.8642 -0.9575 -0.6164
2.8412 -0.9877 -0.6184
4.1856 0.5720 -0.6113
4.1829 0.5476 -0.6193
4.1654 0.5234 -0.6214
4.1074 0.4766 -0.6156
4.0720 0.4544 -0.6098
4.0503 0.4309 -0.6099
4.0329 0.4067 -0.6119
4.0153 0.3823 -0.6140
4.0059 0.3561 -0.6201
3.9838 0.3321 -0.6201
3.9537 0.3102 -0.6163
3.9356 0.2853 -0.6183
3.9242 0.2582 -0.6239
3.9020 0.2341 -0.6240
3.8732 0.2124 -0.6206
3.7999 0.1437 -0.6169
3.7780 0.1200 -0.6170
3.7527 0.0979 -0.6151
3.6970 0.0577 -0.6078
3.6638 0.0419 -0.6005
3.5625 0.0740 -0.5479
3.5322 0.0612 -0.5405
3.5132 0.0407 -0.5406
3.4886 0.0248 -0.5367
3.4419 0.0291 -0.5164
3.4219 0.0114 -0.5149
3.4889 -0.1381 -0.5977
3.4876 -0.1837 -0.6142
3.4612 -0.2016 -0.6103
3.4485 -0.2367 -0.6184
3.4369 -0.2747 -0.6279
3.4025 -0.2812 -0.6166
3.3786 -0.3017 -0.6147
3.3387 -0.3556 -0.6188
3.1915 -0.1938 -0.4994
3.1618 -0.1859 -0.4845
3.1097 -0.1219 -0.4397
3.0953 -0.1401 -0.4408
3.0890 -0.1803 -0.4533
3.0681 -0.1816 -0.4454
3.0398 -0.1573 -0.4250
3.0250 -0.1720 -0.4246
3.0127 -0.1960 -0.4286
3.0012 -0.2246 -0.4347
2.9861 -0.2396 -0.4342
3.0328 -0.6975 -0.6241
3.0064 -0.6940 -0.6122
2.9429 -0.7788 -0.6185
2.9239 -0.8355 -0.6321
2.9022 -0.8710 -0.6367
2.8791 -0.8841 -0.6323
2.8563 -0.8980 -0.6284
2.8345 -0.9443 -0.6370
4.1100 0.5784 -0.6122
4.0857 0.5561 -0.6107
4.0604 0.5340 -0.6087
4.0318 0.5123 -0.6052
4.0192 0.4895 -0.6089
3.9875 0.4684 -0.6038
3.9825 0.4443 -0.6112
3.9618 0.4220 -0.6113
3.9264 0.4022 -0.6040
3.9091 0.3795 -0.6057
3.8887 0.3574 -0.6058
3.8523 0.3393 -0.5975
3.8615 0.3094 -0.6133
3.8341 0.2890 -0.6097
3.8070 0.2689 -0.6061
3.7994 0.2422 -0.6135
3.7634 0.2257 -0.6047
3.7368 0.2063 -0.6011
3.7287 0.1788 -0.6085
3.7048 0.1583 -0.6065
3.6761 0.1405 -0.6014
3.6558 0.1186 -0.6015
3.6466 0.0900 -0.6089
3.5463 0.0864 -0.5676
3.5215 0.0701 -0.5635
3.5069 0.0464 -0.5667
3.4956 0.0195 -0.5726
3.4299 0.0400 -0.5365
3.4710 -0.0351 -0.5838
3.4762 -0.0813 -0.6043
3.4638 -0.1119 -0.6112
3.4373 -0.1273 -0.6061
3.4210 -0.1543 -0.6098
3.3965 -0.1714 -0.6062
3.3778 -0.1957 -0.6079
3.3574 -0.2179 -0.6080
3.3304 -0.2298 -0.6012
3.3136 -0.2573 -0.6050
3.2933 -0.2793 -0.6051
3.2774 -0.3097 -0.6104
3.2403 -0.2981 -0.5900
3.0930 -0.1402 -0.4646
3.0784 -0.1585 -0.4657
3.0649 -0.1799 -0.4684
3.0361 -0.1539 -0.4458
3.0228 -0.1736 -0.4480
3.0115 -0.2018 -0.4543
2.9974 -0.2210 -0.4560
2.9830 -0.2393 -0.4571
3.0121 -0.6063 -0.6152
2.9315 -0.7160 -0.6245
2.9117 -0.7522 -0.6304
2.8890 -0.7528 -0.6210
2.8669 -0.7489 -0.6100
2.8462 -0.7633 -0.6070
2.8268 -0.8348 -0.6271
2.8056 -0.8205 -0.6124
4.0422 0.5842 -0.6133
4.0097 0.5412 -0.6167
3.9865 0.5199 -0.6152
3.9633 0.4988 -0.6136
3.9502 0.4768 -0.6170
3.9337 0.4549 -0.6187
3.9074 0.4343 -0.6155
3.8708 0.4158 -0.6068
3.8648 0.3921 -0.6140
3.8511 0.3695 -0.6174
3.8313 0.3480 -0.6175
3.8085 0.3273 -0.6159
3.7764 0.3096 -0.6088
3.7401 0.2664 -0.6107
3.7205 0.2452 -0.6107
3.6323 0.1655 -0.6044
3.5983 0.1208 -0.6079
3.5674 0.1071 -0.5997
3.5378 0.0935 -0.5921
3.5145 0.0762 -0.5889
3.4837 0.0653 -0.5795
3.4419 0.0648 -0.5609
3.4240 0.0455 -0.5609
3.4322 0.0016 -0.5831
3.4407 -0.0459 -0.6069
3.4213 -0.0669 -0.6070
3.4037 -0.0899 -0.6087
3.3469 -0.1553 -0.6106
3.3305 -0.1810 -0.6140
3.3019 -0.1882 -0.6042
3.2840 -0.2115 -0.6059
3.2647 -0.2325 -0.6060
3.2440 -0.2509 -0.6044
3.2247 -0.2718 -0.6045
3.0909 -0.1411 -0.4891
3.0784 -0.1653 -0.4936
3.0567 -0.1636 -0.4831
3.0346 -0.1573 -0.4705
3.0191 -0.1701 -0.4689
3.0058 -0.1911 -0.4717
2.9929 -0.2143 -0.4756
2.9598 -0.4505 -0.5601
2.9393 -0.4490 -0.5502
2.9010 -0.6803 -0.6303
2.8801 -0.6897 -0.6248
2.8603 -0.7151 -0.6265
2.8401 -0.7291 -0.6233
2.8202 -0.7506 -0.6234
3.9629 0.5896 -0.6057
3.9644 0.5690 -0.6156
3.9420 0.5488 -0.6140
3.9267 0.5282 -0.6158
3.9112 0.5075 -0.6176
3.8790 0.4884 -0.6107
3.8582 0.4685 -0.6096
3.8417 0.4480 -0.6109
3.8230 0.4277 -0.6110
3.8136 0.4057 -0.6162
3.7665 0.3914 -0.6001
3.7591 0.3690 -0.6066
3.7328 0.3510 -0.6020
3.7220 0.3289 -0.6067
3.7165 0.3046 -0.6149
3.6922 0.2862 -0.6115
3.6718 0.2666 -0.6104
3.6453 0.2497 -0.6053
3.6268 0.2297 -0.6054
3.6041 0.2117 -0.6026
3.6086 0.1799 -0.6188
3.5650 0.1733 -0.6010
3.5599 0.1455 -0.6109
3.5344 0.1297 -0.6058
3.5100 0.1138 -0.6012
3.4939 0.0924 -0.6030
3.4769 0.0714 -0.6043
3.4237 0.0805 -0.5748
3.4042 0.0634 -0.5731
3.4030 0.0293 -0.5877
3.4051 -0.0103 -0.6063
3.3818 -0.0250 -0.6017
3.3653 -0.0469 -0.6036
3.3469 -0.0668 -0.6036
3.3313 -0.0903 -0.6066
3.3144 -0.1125 -0.6084
3.2989 -0.1371 -0.6120
3.2758 -0.1503 -0.6068
3.2588 -0.1726 -0.6087
3.2439 -0.1992 -0.6134
3.2204 -0.2102 -0.6071
3.1986 -0.2234 -0.6025
3.1878 -0.2599 -0.6136
3.0738 -0.1597 -0.5146
3.0635 -0.1917 -0.5239
3.0477 -0.2088 -0.5240
3.0252 -0.2017 -0.5101
3.0166 -0.4270 -0.6062
2.9955 -0.4329 -0.5987
2.9721 -0.4215 -0.5825
2.9536 -0.4350 -0.5797
2.9338 -0.4368 -0.5710
2.9074 -0.5609 -0.6136
2.8879 -0.5702 -0.6085
2.8705 -0.6074 -0.6167
2.8518 -0.6277 -0.6168
2.8329 -0.6442 -0.6151
2.8142 -0.6580 -0.6123
2.7955 -0.6846 -0.6153
3.8985 0.5750 -0.6112
3.8841 0.5555 -0.6131
3.8549 0.5368 -0.6071
3.8338 0.5179 -0.6053
3.7892 0.4593 -0.6104
3.7662 0.4408 -0.6074
3.7587 0.4197 -0.6136
3.7199 0.3816 -0.6119
3.7050 0.3615 -0.6138
3.6870 0.3421 -0.6139
3.6645 0.3242 -0.6109
3.6557 0.3017 -0.6171
3.6377 0.2822 -0.6171
3.6223 0.2617 -0.6190
3.6042 0.2421 -0.6191
3.5722 0.2009 -0.6223
3.5477 0.1847 -0.6175
3.5258 0.1675 -0.6146
3.5101 0.1467 -0.6164
3.4958 0.1247 -0.6196
3.4684 0.1120 -0.6117
3.4260 0.0790 -0.6058
3.3939 0.0728 -0.5926
3.3984 0.0336 -0.6133
3.3843 0.0105 -0.6170
3.3627 -0.0051 -0.6134
3.3437 -0.0231 -0.6123
3.3037 -0.0560 -0.6076
3.2860 -0.0752 -0.6076
3.2673 -0.0928 -0.6065
3.2189 -0.1582 -0.6128
3.1998 -0.1750 -0.6110
3.1833 -0.1968 -0.6129
3.0916 -0.1558 -0.5475
3.0718 -0.1616 -0.5403
3.0588 -0.1861 -0.5452
3.0491 -0.2226 -0.5574
3.0358 -0.2500 -0.5636
3.0399 -0.3481 -0.6117
3.0284 -0.3944 -0.6276
3.0090 -0.4088 -0.6246
2.9652 -0.4030 -0.5998
2.9459 -0.4083 -0.5926
2.9277 -0.4189 -0.5884
2.8995 -0.5209 -0.6221
2.8812 -0.5369 -0.6203
2.8630 -0.5539 -0.6192
2.8451 -0.5734 -0.6192
2.8092 -0.6213 -0.6236
3.8572 0.5987 -0.6076
3.8379 0.5804 -0.6064
3.8232 0.5620 -0.6077
3.8085 0.5434 -0.6091
3.8026 0.5242 -0.6155
3.7723 0.5068 -0.6080
3.7574 0.4882 -0.6093
3.7436 0.4693 -0.6113
3.7358 0.4493 -0.6170
3.7094 0.4323 -0.6114
3.6894 0.4144 -0.6096
3.6684 0.3969 -0.6071
3.6553 0.3776 -0.6097
3.6411 0.3583 -0.6117
3.6259 0.3393 -0.6130
3.5979 0.3245 -0.6055
3.5793 0.3069 -0.6043
3.5788 0.2819 -0.6164
3.5591 0.2644 -0.6146
3.5345 0.2494 -0.6089
3.5103 0.2347 -0.6033
3.5045 0.2104 -0.6123
3.4797 0.1965 -0.6060
3.4666 0.1758 -0.6092
3.4481 0.1584 -0.6080
3.4291 0.1417 -0.6062
3.4122 0.1234 -0.6063
3.3953 0.1051 -0.6063
3.3804 0.0851 -0.6083
3.3691 0.0613 -0.6141
3.3446 0.0502 -0.6066
3.3349 0.0242 -0.6142
3.3178 0.0057 -0.6143
3.2995 -0.0115 -0.6131
3.2760 -0.0215 -0.6056
3.2675 -0.0513 -0.6158
3.2433 -0.0595 -0.6070
3.2312 -0.0854 -0.6134
3.2086 -0.0945 -0.6059
3.1980 -0.1240 -0.6148
3.1779 -0.1367 -0.6104
3.1601 -0.1534 -0.6092
3.1404 -0.1657 -0.6049
3.1078 -0.1456 -0.5776
3.0883 -0.1538 -0.5713
3.0666 -0.1541 -0.5600
3.0592 -0.1956 -0.5766
3.0500 -0.2353 -0.5912
3.0439 -0.2908 -0.6155
3.0273 -0.3114 -0.6168
3.0113 -0.3351 -0.6201
2.9911 -0.3390 -0.6112
2.9755 -0.3649 -0.6157
2.9583 -0.3834 -0.6158
2.9423 -0.4098 -0.6203
2.9248 -0.4262 -0.6191
2.9062 -0.4309 -0.6116
2.8894 -0.4517 -0.6129
2.8722 -0.4677 -0.6117
2.8556 -0.4946 -0.6163
2.8384 -0.5107 -0.6150
2.8211 -0.5165 -0.6088
2.8042 -0.5348 -0.6088
2.7872 -0.5662 -0.6153
3.7998 0.5850 -0.6116
3.7811 0.5673 -0.6103
3.7648 0.5496 -0.6104
3.7528 0.5316 -0.6131
3.7407 0.5134 -0.6158
3.7157 0.4965 -0.6106
3.6962 0.4792 -0.6087
3.6818 0.4406 -0.6207
3.6602 0.4236 -0.6174
3.6291 0.4091 -0.6076
3.6128 0.3915 -0.6077
3.6012 0.3726 -0.6111
3.5658 0.3381 -0.6092
3.5495 0.3204 -0.6093
3.4990 0.2683 -0.6082
3.4751 0.2283 -0.6156
3.4502 0.2155 -0.6084
3.3852 0.1451 -0.6086
3.3514 0.1110 -0.6075
3.3377 0.0911 -0.6102
3.3281 0.0666 -0.6175
3.3039 0.0571 -0.6090
3.2962 0.0296 -0.6190
3.2764 0.0157 -0.6151
3.2196 -0.0265 -0.6053
3.2025 -0.0424 -0.6041
3.1837 -0.0552 -0.6002
3.1712 -0.0789 -0.6056
3.1567 -0.0997 -0.6083
3.1373 -0.1105 -0.6030
3.1251 -0.1366 -0.6097
3.1037 -0.1417 -0.6005
3.0836 -0.1482 -0.5926
3.0731 -0.1801 -0.6033
3.0600 -0.2070 -0.6100
3.0444 -0.2265 -0.6114
3.0348 -0.2689 -0.6280
3.0162 -0.2800 -0.6235
2.9975 -0.2887 -0.6176
2.9825 -0.3139 -0.6223
2.9638 -0.3201 -0.6151
2.9471 -0.3356 -0.6138
2.9311 -0.3556 -0.6152
2.8977 -0.3853 -0.6120
2.8806 -0.3935 -0.6068
2.8645 -0.4110 -0.6068
2.8487 -0.4358 -0.6109
2.8326 -0.4596 -0.6143
2.7999 -0.5116 -0.6230
3.7889 0.6235 -0.6122
3.7637 0.6064 -0.6068
3.7597 0.5893 -0.6137
3.7507 0.5720 -0.6179
3.7258 0.5552 -0.6125
3.7035 0.5386 -0.6084
3.6900 0.5215 -0.6099
3.6700 0.5050 -0.6072
3.6670 0.4864 -0.6155
3.6470 0.4699 -0.6128
3.6333 0.4525 -0.6143
3.6036 0.4382 -0.6047
3.5939 0.4201 -0.6089
3.5859 0.4012 -0.6145
3.5626 0.3862 -0.6090
3.5488 0.3687 -0.6105
3.5349 0.3511 -0.6119
3.5139 0.3360 -0.6079
3.5000 0.3184 -0.6093
3.4844 0.3015 -0.6094
3.4655 0.2861 -0.6067
3.4547 0.2668 -0.6109
3.4359 0.2515 -0.6082
3.4188 0.2355 -0.6069
3.4032 0.2186 -0.6069
3.3862 0.2028 -0.6056
3.3735 0.1839 -0.6084
3.3647 0.1617 -0.6154
3.3462 0.1468 -0.6127
3.3279 0.1321 -0.6100
3.3210 0.1068 -0.6197
3.2978 0.0970 -0.6115
3.2822 0.0800 -0.6116
3.2631 0.0669 -0.6075
3.2541 0.0420 -0.6159
3.2351 0.0290 -0.6118
3.2133 0.0206 -0.6036
3.2057 -0.0079 -0.6147
3.1899 -0.0249 -0.6147
3.1715 -0.0373 -0.6107
3.1541 -0.0511 -0.6080
3.1427 -0.0761 -0.6149
3.1237 -0.0865 -0.6095
3.1058 -0.0982 -0.6054
3.0954 -0.1273 -0.6151
3.0755 -0.1336 -0.6069
3.0606 -0.1522 -0.6084
3.0481 -0.1785 -0.6153
3.0312 -0.1917 -0.6126
3.0160 -0.2107 -0.6141
3.0013 -0.2317 -0.6169
2.9855 -0.2488 -0.6170
2.9689 -0.2618 -0.6143
2.9543 -0.2852 -0.6185
2.9378 -0.2980 -0.6158
2.9208 -0.3062 -0.6103
2.9055 -0.3253 -0.6118
2.8907 -0.3515 -0.6174
2.8736 -0.3522 -0.6078
2.8588 -0.3809 -0.6147
2.8428 -0.3907 -0.6107
2.8272 -0.4076 -0.6107
2.8117 -0.4370 -0.6177
2.7959 -0.4541 -0.6178
3.7175 0.5934 -0.6128
3.7024 0.5770 -0.6129
3.6749 0.5612 -0.6051
3.6396 0.5116 -0.6117
3.6307 0.4944 -0.6160
3.6205 0.4771 -0.6197
3.6012 0.4612 -0.6169
3.5850 0.4449 -0.6162
3.5697 0.4283 -0.6163
3.5526 0.4123 -0.6149
3.5438 0.3940 -0.6200
3.5285 0.3774 -0.6201
3.5052 0.3635 -0.6137
3.4748 0.3307 -0.6138
3.4277 0.2822 -0.6126
3.4126 0.2658 -0.6126
3.3231 0.1664 -0.6145
3.3080 0.1500 -0.6145
3.2884 0.1377 -0.6096
3.2776 0.1172 -0.6146
3.2590 0.1045 -0.6104
3.2450 0.0869 -0.6119
3.2288 0.0719 -0.6105
3.2008 0.0365 -0.6135
3.1696 0.0052 -0.6122
3.1554 -0.0127 -0.6137
3.1381 -0.0251 -0.6102
3.1251 -0.0455 -0.6138
3.1100 -0.0618 -0.6139
3.0941 -0.0765 -0.6125
3.0829 -0.1025 -0.6205
3.0683 -0.1209 -0.6220
3.0529 -0.1375 -0.6221
3.0074 -0.1893 -0.6237
2.9775 -0.2267 -0.6267
2.9609 -0.2371 -0.6224
2.9299 -0.2682 -0.6211
2.9143 -0.2825 -0.6198
2.8992 -0.3013 -0.6213
2.8828 -0.3053 -0.6134
2.8677 -0.3216 -0.6135
2.8524 -0.3344 -0.6114
3.7388 0.6605 -0.6128
3.7230 0.6446 -0.6121
3.7036 0.6287 -0.6092
3.6833 0.6129 -0.6056
3.6688 0.5973 -0.6056
3.6544 0.5817 -0.6057
3.6422 0.5659 -0.6072
3.6201 0.5507 -0.6021
3.6165 0.5344 -0.6096
3.6020 0.5186 -0.6096
3.5875 0.5029 -0.6097
3.5729 0.4872 -0.6098
3.5694 0.4696 -0.6180
3.5478 0.4550 -0.6128
3.5332 0.4392 -0.6129
3.5149 0.4243 -0.6100
3.4939 0.4104 -0.6049
3.4831 0.3937 -0.6079
3.4731 0.3766 -0.6117
3.4568 0.3614 -0.6102
3.4456 0.3444 -0.6133
3.4253 0.3310 -0.6081
3.4148 0.3135 -0.6119
3.3979 0.2989 -0.6097
3.3834 0.2832 -0.6098
3.3734 0.2649 -0.6143
3.3551 0.2514 -0.6107
3.3399 0.2361 -0.6100
3.3261 0.2199 -0.6108
3.3116 0.2042 -0.6108
3.2925 0.1923 -0.6057
3.2851 0.1705 -0.6139
3.2637 0.1611 -0.6058
3.2487 0.1461 -0.6051
3.2326 0.1325 -0.6030
3.2228 0.1118 -0.6090
3.2018 0.1041 -0.6001
3.1918 0.0832 -0.6061
3.1809 0.0627 -0.6114
3.1639 0.0506 -0.6077
3.1481 0.0373 -0.6056
3.1382 0.0140 -0.6131
3.1245 -0.0033 -0.6146
3.1050 -0.0094 -0.6057
3.0918 -0.0275 -0.6080
3.0781 -0.0448 -0.6096
3.0612 -0.0543 -0.6044
3.0492 -0.0761 -0.6097
3.0332 -0.0872 -0.6060
3.0191 -0.1037 -0.6069
3.0053 -0.1212 -0.6084
2.9949 -0.1524 -0.6204
2.9797 -0.1664 -0.6190
2.9635 -0.1751 -0.6138
2.9499 -0.1961 -0.6176
2.9338 -0.2035 -0.6117
2.9198 -0.2224 -0.6140
2.9048 -0.2349 -0.6118
2.8907 -0.2540 -0.6141
2.8756 -0.2640 -0.6104
2.8612 -0.2797 -0.6105
2.8469 -0.2989 -0.6128
2.8325 -0.3194 -0.6158
2.8178 -0.3291 -0.6122
2.8033 -0.3448 -0.6122
2.7888 -0.3643 -0.6145
2.7741 -0.3865 -0.6183
3.6610 0.6160 -0.6139
3.6434 0.6007 -0.6117
3.6237 0.5856 -0.6079
3.5829 0.5402 -0.6088
3.5742 0.5245 -0.6127
3.5549 0.5099 -0.6090
3.5289 0.4793 -0.6106
3.5149 0.4641 -0.6107
3.4897 0.4330 -0.6131
3.4756 0.4178 -0.6132
3.4430 0.3887 -0.6094
3.4265 0.3745 -0.6072
3.4142 0.3588 -0.6088
3.3863 0.3285 -0.6089
3.3762 0.3114 -0.6128
3.3560 0.2995 -0.6067
3.3326 0.2667 -0.6114
3.3108 0.2567 -0.6030
3.2732 0.2086 -0.6078
3.2606 0.1924 -0.6094
3.2429 0.1808 -0.6048
3.2332 0.1616 -0.6103
3.2158 0.1502 -0.6057
3.2052 0.1313 -0.6104
3.1913 0.1162 -0.6105
3.1757 0.1031 -0.6082
3.1583 0.0929 -0.6029
3.1445 0.0780 -0.6029
3.1349 0.0563 -0.6099
3.1213 0.0404 -0.6108
3.1069 0.0261 -0.6101
3.0794 -0.0050 -0.6109
3.0643 -0.0176 -0.6087
3.0504 -0.0327 -0.6087
3.0246 -0.0692 -0.6143
3.0094 -0.0807 -0.6112
2.9820 -0.1129 -0.6129
2.9666 -0.1222 -0.6083
2.9533 -0.1403 -0.6107
2.9403 -0.1606 -0.6146
2.9264 -0.1768 -0.6155
2.8978 -0.2040 -0.6133
2.8695 -0.2310 -0.6111
2.8555 -0.2461 -0.6111
2.8277 -0.2800 -0.6135
2.8138 -0.3025 -0.6182
2.7996 -0.3227 -0.6214
2.7854 -0.3394 -0.6222
2.6339 1.6243 -0.6152
2.6203 1.5989 -0.6083
2.6066 1.5841 -0.6083
2.5922 1.5771 -0.6138
2.5792 1.5522 -0.6069
2.5645 1.5461 -0.6131
2.5510 1.5280 -0.6108
2.5372 1.5131 -0.6109
2.5237 1.4962 -0.6094
2.5116 1.4724 -0.6025
2.4963 1.4655 -0.6087
2.4830 1.4488 -0.6072
2.4678 1.4397 -0.6119
2.4532 1.3686 -0.5765
2.4351 1.3696 -0.5896
2.4192 1.3621 -0.5959
2.3989 1.3643 -0.6114
2.4244 1.1593 -0.4625
2.2831 1.2194 -0.5986
2.2664 1.2086 -0.6033
2.2516 1.1952 -0.6049
2.2363 1.1823 -0.6073
2.2261 1.1641 -0.6027
2.2106 1.1511 -0.6051
2.1989 1.1348 -0.6028
2.1128 1.0495 -0.6077
2.0968 1.0359 -0.6101
2.0845 1.0203 -0.6086
2.0692 1.0062 -0.6102
2.0595 0.9898 -0.6063
2.0433 0.9760 -0.6087
2.0321 0.9604 -0.6064
2.0158 0.9464 -0.6088
2.0030 0.9314 -0.6081
1.9938 0.9156 -0.6043
2.0609 0.8395 -0.5092
2.0446 0.8280 -0.5131
2.0342 0.8156 -0.5124
2.0114 0.8043 -0.5209
1.8944 0.7978 -0.5977
1.8658 0.7839 -0.6085
1.8609 0.7690 -0.6024
1.8702 0.7405 -0.5777
1.8236 0.7253 -0.6002
1.8553 0.7003 -0.5623
1.8857 0.6788 -0.5275
1.8715 0.6659 -0.5291
2.6294 1.6483 -0.6081
2.6150 1.6353 -0.6097
2.6008 1.6176 -0.6082
2.5864 1.6045 -0.6098
2.5723 1.5869 -0.6083
2.5563 1.5868 -0.6188
2.5420 1.5690 -0.6174
2.5268 1.5586 -0.6211
2.5134 1.5358 -0.6160
2.5011 1.5092 -0.6078
2.4869 1.4939 -0.6079
2.4609 1.4538 -0.6005
2.4479 1.3766 -0.5619
2.4321 1.3705 -0.5686
2.4073 1.3864 -0.5947
2.3888 1.3824 -0.6045
2.3758 1.3647 -0.6023
2.4068 1.1585 -0.4556
2.3822 1.1418 -0.4616
2.3672 1.1366 -0.4684
2.3524 1.1304 -0.4744
2.2189 1.1997 -0.6051
2.2060 1.1833 -0.6036
2.1955 1.1648 -0.5992
2.0789 1.0466 -0.6040
2.0656 1.0311 -0.6033
2.0507 1.0163 -0.6041
2.0365 1.0011 -0.6042
2.0140 0.9890 -0.6117
2.0160 0.9681 -0.5976
2.0943 0.8784 -0.4909
2.0849 0.8659 -0.4894
2.0737 0.8539 -0.4895
2.0526 0.8433 -0.4970
1.8540 0.8036 -0.6041
1.8552 0.7879 -0.5936
1.8646 0.7725 -0.5780
1.8703 0.7580 -0.5653
1.8687 0.7440 -0.5579
1.8588 0.7042 -0.5401
1.8634 0.6921 -0.5296
1.8611 0.6800 -0.5237
2.6245 1.6748 -0.6016
2.5948 1.6514 -0.6067
2.5790 1.6480 -0.6147
2.5650 1.6219 -0.6082
2.5502 1.6060 -0.6083
2.5353 1.5911 -0.6091
2.5201 1.5773 -0.6106
2.5049 1.5634 -0.6120
2.4924 1.5352 -0.6035
2.4767 1.5244 -0.6071
2.4612 1.5114 -0.6093
2.4471 1.4926 -0.6072
2.4385 1.4564 -0.5915
2.4399 1.3929 -0.5534
2.4237 1.3865 -0.5600
2.3911 1.4213 -0.6010
2.3751 1.4090 -0.6039
2.3593 1.3957 -0.6061
2.3438 1.3815 -0.6076
2.3319 1.3601 -0.6026
2.3796 1.1439 -0.4460
2.3640 1.1395 -0.4533
2.3523 1.1293 -0.4547
2.3394 1.1204 -0.4577
2.1868 1.2016 -0.6016
2.0765 1.0966 -0.6099
2.0617 1.0807 -0.6100
2.0516 1.0624 -0.6057
2.0448 1.0428 -0.5985
2.1307 0.9315 -0.4792
2.1185 0.9196 -0.4799
2.1062 0.9076 -0.4807
2.0939 0.8956 -0.4815
2.0815 0.8835 -0.4822
2.0634 0.8726 -0.4873
2.0479 0.8609 -0.4902
1.8728 0.8554 -0.5977
1.8438 0.8414 -0.6078
1.8344 0.8252 -0.6043
1.8165 0.8096 -0.6065
1.8640 0.7760 -0.5568
1.8574 0.7616 -0.5526
1.8438 0.7334 -0.5447
1.8640 0.7208 -0.5246
1.8321 0.7062 -0.5361
1.6861 0.6534 -0.5976
2.6340 1.7481 -0.6113
2.6181 1.7471 -0.6203
2.6026 1.7254 -0.6176
2.5873 1.7040 -0.6149
2.5731 1.6702 -0.6046
2.5578 1.6538 -0.6046
2.5420 1.6417 -0.6074
2.5261 1.6295 -0.6102
2.5113 1.6087 -0.6075
2.4952 1.5964 -0.6103
2.4783 1.5869 -0.6152
2.4657 1.5572 -0.6063
2.4494 1.5446 -0.6091
2.4361 1.5205 -0.6036
2.3843 1.4882 -0.6169
2.3745 1.4566 -0.6052
2.3592 1.4402 -0.6053
2.3424 1.4271 -0.6081
2.3271 1.4106 -0.6082
2.3109 1.3957 -0.6096
2.2964 1.3776 -0.6083
2.2819 1.3596 -0.6069
2.3599 1.1437 -0.4396
2.3523 1.1282 -0.4354
2.3379 1.1213 -0.4403
2.3203 1.1173 -0.4487
2.2763 1.0304 -0.4267
2.2660 1.0193 -0.4268
2.1606 0.9715 -0.4637
2.1395 0.9465 -0.4624
2.1308 0.9334 -0.4604
2.1187 0.9215 -0.4611
2.1037 0.9104 -0.4639
2.0831 0.9006 -0.4709
2.0725 0.8879 -0.4702
1.8438 0.8810 -0.6043
1.8186 0.8478 -0.6009
1.8014 0.8317 -0.6024
1.8250 0.7964 -0.5684
1.8437 0.7509 -0.5318
1.8328 0.7368 -0.5304
1.6717 0.7009 -0.6076
1.6651 0.6851 -0.6028
1.6550 0.6693 -0.6001
2.6448 1.8087 -0.6106
2.6291 1.7731 -0.6007
2.6129 1.7657 -0.6060
2.5967 1.7533 -0.6088
2.5817 1.7222 -0.6008
2.5665 1.6983 -0.5969
2.5494 1.6949 -0.6049
2.5332 1.6800 -0.6063
2.5170 1.6650 -0.6077
2.5024 1.6394 -0.6024
2.4889 1.6099 -0.5945
2.4746 1.5870 -0.5906
2.4480 1.4060 -0.5097
2.3745 1.5068 -0.6055
2.3572 1.4932 -0.6082
2.3441 1.4692 -0.6030
2.3275 1.4538 -0.6044
2.3133 1.4335 -0.6018
2.2958 1.4197 -0.6045
2.2764 1.4088 -0.6099
2.2581 1.3954 -0.6132
2.2444 1.3744 -0.6100
2.3347 1.1242 -0.4251
2.2859 1.1055 -0.4432
2.2703 1.0974 -0.4479
2.2595 1.0846 -0.4473
2.1945 1.0284 -0.4548
2.1821 1.0164 -0.4555
2.1768 1.0007 -0.4502
2.1686 0.9868 -0.4476
2.1523 0.9768 -0.4517
2.1450 0.9627 -0.4484
2.1328 0.9508 -0.4491
2.1178 0.9398 -0.4518
2.1153 0.9246 -0.4451
1.8357 0.9249 -0.6060
1.8297 0.9060 -0.5994
1.8019 0.8911 -0.6075
1.7701 0.8569 -0.6076
1.7830 0.8371 -0.5896
1.8542 0.7687 -0.5124
1.8363 0.7545 -0.5151
1.6883 0.7378 -0.5913
1.6597 0.7207 -0.5987
1.6367 0.7035 -0.6027
1.6383 0.6877 -0.5934
1.6002 0.6692 -0.6055
1.5793 0.6517 -0.6082
2.5726 1.7860 -0.6110
2.5563 1.7633 -0.6085
2.5416 1.7274 -0.5984
2.5245 1.7153 -0.6016
2.5098 1.6856 -0.5947
2.4937 1.4805 -0.4999
2.4788 1.4721 -0.5037
2.4674 1.4497 -0.4987
2.3706 1.5725 -0.6136
2.3578 1.5436 -0.6060
2.3412 1.5257 -0.6061
2.3194 1.5200 -0.6151
2.3088 1.4884 -0.6049
2.2914 1.4722 -0.6063
2.2710 1.4616 -0.6121
2.2591 1.4350 -0.6051
2.2393 1.4225 -0.6096
2.2289 1.3950 -0.6014
2.2060 1.3866 -0.6097
2.1903 1.3673 -0.6085
2.3011 1.1133 -0.4196
2.2863 1.1050 -0.4235
2.2707 1.0970 -0.4280
2.2621 1.0827 -0.4255
2.2501 1.0509 -0.4160
2.2278 1.0471 -0.4262
2.2078 1.0407 -0.4340
2.1933 1.0302 -0.4366
2.1864 1.0152 -0.4328
2.1719 1.0046 -0.4354
2.1620 0.9915 -0.4341
2.1572 0.9762 -0.4290
2.1259 0.9552 -0.4355
1.8204 0.9745 -0.6123
1.8046 0.9348 -0.6009
1.7575 0.8817 -0.5998
1.7968 0.7891 -0.5315
1.6104 0.7236 -0.6003
1.5831 0.7055 -0.6061
1.5641 0.6876 -0.6075
1.5450 0.6696 -0.6088
2.5653 1.8210 -0.6032
2.5289 1.5351 -0.4850
2.5144 1.5259 -0.4881
2.4993 1.5186 -0.4924
2.4877 1.4934 -0.4864
2.4717 1.4889 -0.4925
2.3967 1.6219 -0.5953
2.3740 1.6216 -0.6069
2.3567 1.6030 -0.6070
2.3434 1.5735 -0.5997
2.3230 1.5630 -0.6053
2.3103 1.5340 -0.5980
2.2904 1.5216 -0.6023
2.2699 1.5097 -0.6073
2.2547 1.4870 -0.6043
2.2398 1.4646 -0.6013
2.1658 1.3978 -0.6076
2.2780 1.1128 -0.4127
2.2674 1.1001 -0.4121
2.2601 1.0846 -0.4084
2.2523 1.0699 -0.4054
2.2448 1.0554 -0.4024
2.2059 1.0428 -0.4166
2.1945 1.0306 -0.4166
2.1799 1.0201 -0.4191
2.1685 1.0077 -0.4191
1.8735 1.0796 -0.6068
1.8641 1.0580 -0.6013
1.8216 1.0239 -0.6070
1.8090 1.0039 -0.6040
1.7842 0.9874 -0.6089
1.7669 0.9688 -0.6090
1.7594 0.9480 -0.6029
1.7302 0.9319 -0.6103
1.7302 0.9102 -0.6000
1.7768 0.7620 -0.5047
1.5563 0.7449 -0.6109
1.5511 0.7266 -0.6049
1.5179 0.7074 -0.6129
1.5042 0.6889 -0.6111
1.5084 0.6717 -0.6007
1.4913 0.6534 -0.6008
2.5386 1.5523 -0.4652
2.5240 1.5443 -0.4688
2.5098 1.5328 -0.4705
2.4869 1.4826 -0.4590
2.3499 1.6854 -0.6186
2.3369 1.6496 -0.6088
2.3204 1.6255 -0.6059
2.3012 1.6087 -0.6077
2.2823 1.5909 -0.6090
2.2649 1.5697 -0.6079
2.2425 1.5584 -0.6138
2.2264 1.5346 -0.6109
2.2118 1.5087 -0.6063
2.1846 1.5038 -0.6175
2.1961 1.3956 -0.5626
2.1329 1.3969 -0.5943
2.2582 1.1084 -0.4014
2.2488 1.0944 -0.3997
2.2443 1.0767 -0.3939
2.2345 1.0636 -0.3928
2.2146 1.0577 -0.3998
2.1973 1.0493 -0.4045
2.1865 1.0364 -0.4040
1.8719 1.1368 -0.6045
1.8430 1.1224 -0.6122
1.8358 1.0980 -0.6046
1.8065 1.0831 -0.6123
1.7739 1.0686 -0.6218
1.7745 1.0423 -0.6095
1.7619 1.0211 -0.6061
1.7506 0.9999 -0.6020
1.8128 0.8449 -0.5009
1.5691 0.8074 -0.6038
1.6185 0.7860 -0.5698
1.5368 0.7496 -0.5934
1.4937 0.7301 -0.6058
1.4855 0.7111 -0.6012
1.4702 0.6920 -0.6001
1.4524 0.6728 -0.6001
2.3898 1.7910 -0.6146
2.3762 1.7492 -0.6029
2.3556 1.7348 -0.6063
2.3338 1.7230 -0.6114
2.3232 1.6780 -0.5970
2.2641 1.6248 -0.6016
2.2367 1.6225 -0.6134
2.2252 1.5868 -0.6034
2.2076 1.5640 -0.6018
2.1888 1.5438 -0.6019
2.1859 1.4980 -0.5836
2.1868 1.4498 -0.5624
2.2092 1.3005 -0.4878
2.2158 1.2286 -0.4538
2.2143 1.2012 -0.4427
2.2326 1.1316 -0.4042
2.2375 1.0825 -0.3809
2.2298 1.0677 -0.3781
1.9055 1.1499 -0.5645
1.7857 1.1220 -0.6083
1.7667 1.1015 -0.6084
1.7477 1.0811 -0.6084
1.7572 1.0512 -0.5911
1.7012 1.0428 -0.6136
1.7127 1.0137 -0.5957
1.8503 0.8964 -0.4812
1.8377 0.8803 -0.4801
1.8199 0.8650 -0.4819
1.5509 0.8553 -0.6030
1.4904 0.8161 -0.6143
1.7211 0.7704 -0.4872
1.4357 0.7340 -0.6045
1.4057 0.7134 -0.6096
1.3905 0.6931 -0.6080
1.3793 0.6733 -0.6047
1.3448 0.6518 -0.6115
2.5708 1.6081 -0.4289
2.5558 1.6063 -0.4348
2.4303 1.9203 -0.6174
2.4144 1.8771 -0.6068
2.3913 1.8691 -0.6138
2.3778 1.8208 -0.6001
2.3553 1.8096 -0.6054
2.3344 1.7911 -0.6071
2.3135 1.7725 -0.6087
2.2756 1.7239 -0.6057
2.2545 1.7051 -0.6074
2.2369 1.6784 -0.6042
2.2133 1.6647 -0.6091
2.1920 1.6457 -0.6108
2.1858 1.5987 -0.5944
2.1621 1.5849 -0.5992
2.1410 1.5661 -0.6009
2.1877 1.4454 -0.5313
2.2021 1.3825 -0.4995
2.2117 1.2323 -0.4344
2.2376 1.0828 -0.3623
2.2236 1.0729 -0.3644
2.1173 1.1034 -0.4236
1.7857 1.1840 -0.6021
1.7575 1.1667 -0.6075
1.7291 1.1193 -0.6007
1.7004 1.1014 -0.6061
1.8464 0.9191 -0.4679
1.8335 0.9027 -0.4669
1.5151 0.9100 -0.6099
1.4809 0.8902 -0.6169
1.4785 0.8667 -0.6084
1.4620 0.8450 -0.6069
1.4352 0.8241 -0.6102
1.7084 0.7746 -0.4700
1.3589 0.7173 -0.6004
1.3317 0.6959 -0.6036
1.3236 0.6753 -0.5989
2.5266 1.6804 -0.4525
2.5070 1.6923 -0.4651
2.3741 1.9219 -0.6079
2.3571 1.8837 -0.6004
2.3343 1.8684 -0.6040
2.3194 1.8262 -0.5940
2.2966 1.8108 -0.5976
2.2896 1.7507 -0.5775
2.2675 1.7348 -0.5806
2.2323 1.7495 -0.6008
2.1999 1.7529 -0.6155
2.1907 1.7048 -0.6009
2.1681 1.6858 -0.6030
2.1491 1.6601 -0.6011
2.0577 1.5316 -0.5898
2.2372 1.0835 -0.3444
2.2268 1.0710 -0.3439
1.9757 1.1420 -0.4750
1.7996 1.2106 -0.5741
1.8431 1.0284 -0.4865
1.8432 0.9626 -0.4614
1.8287 0.9457 -0.4609
1.4854 0.9702 -0.6124
1.4835 0.9443 -0.6034
1.4507 0.9236 -0.6090
1.4419 0.8996 -0.6035
1.4087 0.8785 -0.6091
1.4151 0.8537 -0.5971
1.4547 0.8279 -0.5708
1.6465 0.7801 -0.4731
1.2792 0.7208 -0.6025
1.2674 0.6988 -0.5991
1.3139 0.6804 -0.5728
2.5561 1.6813 -0.4166
2.4990 1.7181 -0.4520
2.4798 1.7187 -0.4597
2.2803 1.8466 -0.5831
2.2816 1.7618 -0.5522
2.2388 1.7981 -0.5818
2.1987 1.8199 -0.6053
2.1652 1.8211 -0.6187
2.1459 1.7897 -0.6150
2.1376 1.7383 -0.5998
2.1194 1.7081 -0.5960
2.0937 1.6911 -0.5999
2.0558 1.6928 -0.6153
2.0458 1.6502 -0.6039
2.0215 1.6294 -0.6059
2.0061 1.5969 -0.6002
1.9657 1.5959 -0.6156
1.9527 1.5607 -0.6080
1.9305 1.5368 -0.6081
1.9057 1.5155 -0.6101
2.2218 1.0962 -0.3368
2.2140 1.0811 -0.3345
2.1945 1.0747 -0.3398
1.7496 1.3477 -0.6106
1.7211 1.3275 -0.6145
1.6705 1.2467 -0.6052
1.6553 1.2197 -0.6014
1.8478 1.0775 -0.4756
1.8381 1.0100 -0.4552
1.8288 0.9907 -0.4519
1.8078 0.9748 -0.4544
1.4416 1.0111 -0.6098
1.4067 0.9896 -0.6156
1.3971 0.9633 -0.6099
1.3662 0.9406 -0.6138
1.3482 0.9160 -0.6120
1.3169 0.8930 -0.6159
1.3082 0.8677 -0.6102
1.4525 0.8330 -0.5417
1.6310 0.7847 -0.4550
1.2455 0.7484 -0.5919
2.4292 1.9777 -0.5386
2.4384 1.7052 -0.4438
2.4240 1.6777 -0.4398
2.3661 1.7278 -0.4778
2.3303 1.7643 -0.5030
2.2488 1.8400 -0.5581
2.2039 1.8760 -0.5865
2.1746 1.8672 -0.5943
2.1499 1.8461 -0.5961
2.1359 1.8028 -0.5868
2.1150 1.7750 -0.5850
2.0345 1.7220 -0.5965
1.9976 1.6595 -0.5890
1.9557 1.6600 -0.6044
1.9347 1.6320 -0.6027
1.9167 1.6007 -0.5987
1.8855 1.5845 -0.6047
1.8564 1.5652 -0.6088
1.8328 1.5399 -0.6089
2.2227 1.0958 -0.3180
2.2129 1.0825 -0.3171
1.6806 1.3949 -0.6157
1.6639 1.3649 -0.6117
1.6823 1.3151 -0.5883
1.7051 1.2661 -0.5635
1.8039 1.1527 -0.4896
1.8364 1.0847 -0.4549
1.8341 1.0608 -0.4477
1.8296 1.0385 -0.4419
1.8256 1.0168 -0.4361
1.8172 0.9970 -0.4325
1.4795 1.0649 -0.5782
1.4114 1.0520 -0.5987
1.4309 1.0180 -0.5802
1.3874 0.9981 -0.5893
1.3379 0.9782 -0.6007
1.3049 0.9548 -0.6049
1.2816 0.9297 -0.6049
1.2684 0.9035 -0.6010
1.2395 0.8792 -0.6033
1.4642 0.8370 -0.5073
1.5169 0.7544 -0.4605
1.5287 0.7364 -0.4501
1.5299 0.7189 -0.4438
1.5276 0.7018 -0.4389
1.5113 0.6842 -0.4389
2.4724 2.3792 -0.6165
2.4469 2.3518 -0.6165
2.3999 2.2728 -0.6078
2.3908 1.8986 -0.4939
2.3726 1.7752 -0.4614
2.3574 1.7440 -0.4568
2.2651 1.7851 -0.5011
2.1277 1.9666 -0.6045
2.1966 1.6723 -0.4891
2.1737 1.6571 -0.4921
2.0690 1.7227 -0.5482
1.9904 1.7866 -0.5949
1.9256 1.7560 -0.6073
1.8755 1.7022 -0.6075
1.8536 1.6719 -0.6055
1.8124 1.6627 -0.6166
1.8102 1.6117 -0.6014
1.6409 1.4230 -0.5999
1.8106 1.1520 -0.4574
1.8378 1.0867 -0.4278
1.8227 1.0678 -0.4270
1.8352 1.0394 -0.4139
1.8015 1.0274 -0.4216
1.6656 1.0446 -0.4731
1.6346 1.0275 -0.4783
1.5970 1.0113 -0.4860
1.5963 0.9862 -0.4784
1.5898 0.9631 -0.4734
1.5644 0.9439 -0.4760
1.5586 0.9214 -0.4710
1.5330 0.9020 -0.4736
1.5209 0.8809 -0.4711
1.5408 0.8160 -0.4440
1.5356 0.7590 -0.4280
1.5123 0.7408 -0.4302
1.5134 0.7230 -0.4243
1.4993 0.7051 -0.4235
2.3952 2.4567 -0.6230
2.2880 2.3252 -0.6186
2.1974 1.6643 -0.4552
1.7838 1.7503 -0.6108
1.7708 1.7064 -0.6022
1.7515 1.6707 -0.5979
2.2255 1.0741 -0.2748
1.8304 1.0438 -0.3908
1.5655 0.9970 -0.4609
1.5586 0.9734 -0.4562
1.5772 0.9458 -0.4423
1.5861 0.9213 -0.4324
1.5679 0.9017 -0.4325
1.5439 0.8827 -0.4345
1.5314 0.8624 -0.4326
1.5379 0.8409 -0.4243
1.5500 0.8199 -0.4143
1.5473 0.8006 -0.4096
1.5388 0.7819 -0.4069
1.5105 0.7637 -0.4105
1.4894 0.7452 -0.4118
1.4204 0.7254 -0.4278
1.4063 0.7062 -0.4267
2.1868 2.4121 -0.6286
2.1742 2.3231 -0.6084
2.1002 2.1982 -0.5965
2.1983 1.6562 -0.4222
2.1455 1.6405 -0.4334
2.0955 1.6691 -0.4557
2.0835 1.6329 -0.4495
2.0462 1.6353 -0.4610
1.7020 1.7796 -0.6004
1.5166 0.8683 -0.4098
1.5172 0.8469 -0.4039
1.4991 0.8275 -0.4039
1.5361 0.8055 -0.3872
1.5164 0.7870 -0.3880
1.5079 0.7683 -0.3855
0.6791 0.7154 -0.6135
0.6055 0.6829 -0.6263
0.6310 0.6540 -0.6111
2.0757 2.3600 -0.5991
2.1981 1.6506 -0.3910
2.1749 1.6381 -0.3941
2.0018 1.5903 -0.4289
2.2242 0.8737 -0.1920
2.2169 0.8548 -0.1893
1.5277 0.8301 -0.3687
1.5224 0.8106 -0.3653
1.5287 0.7911 -0.3588
1.4838 0.7733 -0.3664
0.4813 0.7201 -0.6230
0.4498 0.6862 -0.6231
0.3954 0.6513 -0.6291
2.0964 2.6818 -0.6196
2.0712 2.6156 -0.6109
2.0178 2.6377 -0.6290
1.9935 2.5711 -0.6199
1.9433 2.4530 -0.6056
2.1962 1.6485 -0.3617
2.3708 0.9788 -0.1675
2.3652 0.9700 -0.1668
2.3620 0.9596 -0.1653
2.3542 0.9526 -0.1656
2.3464 0.9456 -0.1660
2.3402 0.9376 -0.1657
2.3332 0.9300 -0.1657
2.3237 0.9128 -0.1641
2.3168 0.9054 -0.1642
2.2423 0.8504 -0.1701
2.2400 0.8325 -0.1666
2.2352 0.8246 -0.1660
1.4963 0.8164 -0.3461
1.4999 0.7966 -0.3408
0.3238 0.7631 -0.6228
0.3264 0.7268 -0.6140
0.2675 0.6900 -0.6202
0.2092 0.6524 -0.6260
2.0011 2.8159 -0.6158
2.4049 1.0506 -0.1636
2.3944 1.0295 -0.1616
2.3897 1.0188 -0.1605
2.3852 1.0083 -0.1594
2.3750 0.9890 -0.1577
2.3679 0.9813 -0.1577
2.3661 0.9696 -0.1557
2.3591 0.9620 -0.1557
2.3537 0.9534 -0.1551
2.3407 0.9379 -0.1549
2.3337 0.9305 -0.1549
2.3276 0.9225 -0.1547
2.3207 0.9151 -0.1547
2.3129 0.9081 -0.1550
2.3059 0.9006 -0.1550
2.2990 0.8931 -0.1550
2.2911 0.8860 -0.1554
2.2741 0.8720 -0.1563
2.2671 0.8644 -0.1563
2.2600 0.8569 -0.1563
2.2423 0.8519 -0.1593
2.2351 0.8441 -0.1593
2.2423 0.8336 -0.1555
1.5010 0.8010 -0.3147
0.0649 0.7338 -0.6224
0.0423 0.6941 -0.6193
2.4281 1.2443 -0.1832
2.4215 1.2273 -0.1814
2.4073 1.0831 -0.1576
2.4066 1.0654 -0.1545
2.4002 1.0557 -0.1540
2.3971 1.0424 -0.1522
2.3903 1.0336 -0.1520
2.3862 1.0222 -0.1507
2.3782 1.0149 -0.1510
2.3729 1.0051 -0.1502
2.3635 0.9851 -0.1484
2.3587 0.9756 -0.1476
2.3539 0.9662 -0.1469
2.3509 0.9558 -0.1456
2.3456 0.9473 -0.1451
2.3327 0.9434 -0.1469
2.3273 0.9348 -0.1464
2.3221 0.9263 -0.1459
2.3141 0.9192 -0.1462
2.3029 0.9029 -0.1455
2.2940 0.8962 -0.1460
2.2851 0.8893 -0.1466
2.2780 0.8818 -0.1466
2.2710 0.8742 -0.1466
2.2608 0.8675 -0.1474
2.2516 0.8605 -0.1480
2.2503 0.8335 -0.1433
2.2435 0.8262 -0.1433
2.2378 0.8187 -0.1431
1.5111 0.8050 -0.2871
1.4941 0.7867 -0.2872
-0.1882 0.7428 -0.6184
-0.1766 0.7000 -0.6082
2.4733 1.5113 -0.2042
2.4559 1.5169 -0.2082
2.4241 1.2186 -0.1650
2.4165 1.1533 -0.1556
2.4026 1.0884 -0.1475
2.3300 0.9704 -0.1412
2.2721 0.8953 -0.1392
2.2679 0.8864 -0.1386
2.2368 0.8658 -0.1408
2.2415 0.8280 -0.1337
1.4768 0.8310 -0.2718
1.5348 0.7720 -0.2517
2.4639 1.5388 -0.1908
2.4271 1.5497 -0.1982
2.4063 1.5589 -0.2028
2.3857 1.5641 -0.2068
2.4186 1.2268 -0.1530
2.4101 1.1875 -0.1486
2.2463 0.8286 -0.1229
2.2408 0.8212 -0.1227
1.5290 0.8515 -0.2399
1.6707 0.7737 -0.2062
1.6846 0.7584 -0.2018
1.6669 0.7436 -0.2024
2.3958 1.5834 -0.1864
2.3698 1.6033 -0.1925
2.3484 1.6050 -0.1956
2.4408 1.2359 -0.1370
2.4307 1.2280 -0.1374
2.4209 1.0290 -0.1139
2.4167 1.0187 -0.1132
2.4016 0.9792 -0.1103
2.3952 0.9723 -0.1104
2.3895 0.9648 -0.1102
2.3831 0.9579 -0.1102
2.3800 0.9487 -0.1095
2.3745 0.9413 -0.1094
2.3699 0.9335 -0.1090
2.3645 0.9262 -0.1088
2.3600 0.9185 -0.1085
2.3520 0.9128 -0.1089
2.3457 0.9061 -0.1089
2.3423 0.8980 -0.1084
2.2415 0.8577 -0.1172
2.2536 0.8287 -0.1119
1.6832 0.8418 -0.1919
1.6963 0.8240 -0.1879
1.6820 0.8086 -0.1880
2.4385 1.2374 -0.1238
2.4336 1.0788 -0.1076
2.4276 1.0693 -0.1073
2.4264 1.0535 -0.1058
2.4232 1.0413 -0.1049
2.4202 1.0293 -0.1040
2.4154 1.0197 -0.1035
2.4121 1.0089 -0.1028
2.4062 1.0011 -0.1026
2.4018 0.9919 -0.1022
2.3876 0.9665 -0.1012
2.3844 0.9572 -0.1006
2.3781 0.9504 -0.1006
2.3734 0.9425 -0.1003
2.3680 0.9352 -0.1002
2.3626 0.9279 -0.1000
2.3582 0.9202 -0.0997
2.3501 0.9145 -0.1001
2.3439 0.9078 -0.1001
2.3376 0.9010 -0.1001
2.3304 0.8948 -0.1003
2.3222 0.8888 -0.1006
2.3159 0.8821 -0.1006
2.0043 0.9503 -0.1442
1.8327 0.8314 -0.1517
1.7962 0.8200 -0.1547
2.4424 1.1455 -0.1020
2.4320 1.0798 -0.0973
2.4284 1.0671 -0.0966
2.4244 1.0554 -0.0959
2.4212 1.0431 -0.0952
2.4175 1.0319 -0.0946
2.4128 1.0223 -0.0942
2.4088 1.0121 -0.0937
2.4043 1.0029 -0.0933
2.3999 0.9937 -0.0930
2.3948 0.9853 -0.0927
2.3899 0.9771 -0.0925
2.3857 0.9682 -0.0921
2.3817 0.9595 -0.0918
2.3762 0.9521 -0.0917
2.3707 0.9447 -0.0916
2.3653 0.9374 -0.0914
2.3599 0.9301 -0.0913
2.3545 0.9229 -0.0912
2.3465 0.9171 -0.0915
2.3402 0.9104 -0.0915
2.3348 0.9032 -0.0914
2.3276 0.8969 -0.0916
2.3203 0.8905 -0.0917
2.3150 0.8834 -0.0916
2.3077 0.8770 -0.0918
1.9369 0.9729 -0.1357
2.2526 0.8236 -0.0925
1.8278 0.8497 -0.1356
1.8328 0.8344 -0.1338
1.8332 0.8202 -0.1325
2.3042 2.2476 -0.1755
2.2721 2.2547 -0.1784
2.2434 2.2445 -0.1799
2.4411 1.2243 -0.0959
2.4369 1.1308 -0.0899
2.4324 1.1171 -0.0893
2.4326 1.0966 -0.0879
2.4305 1.0809 -0.0870
2.4251 1.0707 -0.0868
2.4217 1.0581 -0.0862
2.4179 1.0466 -0.0857
2.4149 1.0345 -0.0851
2.4101 1.0249 -0.0848
2.4068 1.0139 -0.0843
2.4002 1.0068 -0.0843
2.3972 0.9962 -0.0839
2.3929 0.9871 -0.0836
2.3872 0.9795 -0.0835
2.3815 0.9719 -0.0834
2.3767 0.9637 -0.0832
2.3727 0.9550 -0.0829
2.3689 0.9464 -0.0826
2.3626 0.9397 -0.0827
2.3572 0.9323 -0.0826
2.3518 0.9251 -0.0825
2.3446 0.9188 -0.0826
2.3393 0.9116 -0.0826
2.3330 0.9049 -0.0826
2.3258 0.8986 -0.0827
2.3175 0.8926 -0.0829
2.3142 0.8847 -0.0826
2.3090 0.8776 -0.0826
2.2594 0.8317 -0.0832
2.2531 0.8249 -0.0832
2.2480 0.8179 -0.0832
1.8078 0.8252 -0.1171
2.3850 2.2394 -0.1361
2.3535 2.2609 -0.1389
2.3257 2.2578 -0.1404
2.2932 2.2708 -0.1428
2.2619 2.2730 -0.1447
2.2345 2.2570 -0.1454
2.1997 2.2643 -0.1478
2.1722 2.2438 -0.1483
2.4388 1.1479 -0.0795
2.4325 1.1366 -0.0793
2.4260 1.0863 -0.0772
2.4230 1.0726 -0.0767
2.4190 1.0608 -0.0764
2.4042 1.0165 -0.0750
2.4011 1.0057 -0.0747
2.3938 0.9993 -0.0748
2.3902 0.9895 -0.0745
2.3853 0.9812 -0.0743
2.3812 0.9723 -0.0741
2.3756 0.9648 -0.0741
2.3717 0.9561 -0.0739
2.3616 0.9408 -0.0737
2.3553 0.9340 -0.0737
2.3499 0.9268 -0.0737
2.3446 0.9195 -0.0736
2.3374 0.9133 -0.0737
2.3321 0.9061 -0.0736
2.3249 0.8998 -0.0737
2.3176 0.8935 -0.0738
2.3113 0.8868 -0.0739
2.3071 0.8793 -0.0737
2.2608 0.8249 -0.0737
2.2534 0.8184 -0.0738
1.2188 0.8553 -0.1337
2.4033 2.2542 -0.1038
2.3783 2.2454 -0.1044
2.3487 2.2572 -0.1059
2.3129 2.2910 -0.1082
2.2861 2.2773 -0.1088
2.2504 2.2961 -0.1107
2.2256 2.2694 -0.1107
2.1956 2.2598 -0.1115
2.4519 1.2524 -0.0710
2.4409 1.2180 -0.0704
2.4213 1.2315 -0.0715
2.4344 1.1538 -0.0686
2.4313 1.1369 -0.0682
2.4312 1.1157 -0.0676
2.4260 1.1041 -0.0674
2.4233 1.0711 -0.0665
2.4188 1.0602 -0.0663
2.4151 1.0487 -0.0661
2.4095 1.0397 -0.0660
2.4054 1.0293 -0.0658
2.4015 1.0190 -0.0657
2.3970 1.0097 -0.0655
2.3933 0.9997 -0.0654
2.3883 0.9913 -0.0653
2.3826 0.9836 -0.0653
2.3769 0.9760 -0.0652
2.3745 0.9659 -0.0650
2.3681 0.9590 -0.0650
2.3660 0.9493 -0.0648
2.3606 0.9419 -0.0648
2.3570 0.9336 -0.0646
2.3472 0.9290 -0.0649
2.3418 0.9217 -0.0648
2.3356 0.9150 -0.0649
2.3303 0.9078 -0.0648
2.3240 0.9011 -0.0648
2.3188 0.8939 -0.0648
2.3105 0.8881 -0.0649
2.3053 0.8809 -0.0649
2.2990 0.8742 -0.0649
2.2576 0.8191 -0.0647
2.2503 0.8127 -0.0648
1.2373 0.8829 -0.1041
1.2559 0.8577 -0.1026
1.2450 0.8355 -0.1024
2.3640 2.2932 -0.0734
2.3330 2.3070 -0.0741
2.3069 2.2926 -0.0743
2.2805 2.2778 -0.0746
2.2521 2.2685 -0.0750
2.2278 2.2424 -0.0751
2.1900 2.2609 -0.0760
2.1650 2.2340 -0.0760
2.4248 1.2210 -0.0584
2.4326 1.1550 -0.0574
2.4338 1.1305 -0.0570
2.4250 1.1043 -0.0569
2.4182 1.0773 -0.0566
2.4149 1.0646 -0.0565
2.4111 1.0530 -0.0564
2.4082 1.0408 -0.0563
2.4048 1.0296 -0.0562
2.3995 1.0208 -0.0562
2.3965 1.0100 -0.0561
2.3921 1.0008 -0.0561
2.3791 0.9867 -0.0561
2.3782 0.9751 -0.0560
2.3718 0.9683 -0.0560
2.3688 0.9589 -0.0559
2.3642 0.9509 -0.0559
2.3614 0.9419 -0.0559
2.3534 0.9363 -0.0559
2.3462 0.9302 -0.0560
2.3409 0.9229 -0.0560
2.3356 0.9157 -0.0560
2.3313 0.9081 -0.0559
2.3252 0.9014 -0.0560
2.3180 0.8952 -0.0560
2.3087 0.8897 -0.0561
2.3034 0.8826 -0.0561
2.2993 0.8752 -0.0561
2.2920 0.8688 -0.0561
2.2667 0.8264 -0.0560
2.2619 0.8198 -0.0560
2.2509 0.8140 -0.0561
1.2499 0.8632 -0.0741
1.2597 0.7751 -0.0728
1.2873 0.7548 -0.0721
2.4195 2.2442 -0.0411
2.3858 2.2920 -0.0408
2.3641 2.2626 -0.0409
2.3330 2.2796 -0.0408
2.3099 2.2548 -0.0409
2.2802 2.2564 -0.0408
2.2173 2.2606 -0.0407
2.1911 2.2401 -0.0408
2.4367 1.2206 -0.0459
2.4344 1.1983 -0.0460
2.4329 1.1523 -0.0462
2.4305 1.1345 -0.0463
2.4263 1.1009 -0.0465
2.4208 1.0904 -0.0465
2.4173 1.0775 -0.0466
2.4128 1.0665 -0.0466
2.4104 1.0532 -0.0467
2.4082 1.0402 -0.0467
2.4022 1.0322 -0.0467
2.3976 1.0226 -0.0468
2.3960 1.0103 -0.0468
2.3917 1.0011 -0.0469
2.3852 0.9941 -0.0469
2.3787 0.9871 -0.0469
2.3747 0.9782 -0.0469
2.3740 0.9668 -0.0470
2.3737 0.9557 -0.0470
2.3632 0.9520 -0.0470
2.3605 0.9430 -0.0471
2.3534 0.9369 -0.0471
2.3453 0.9313 -0.0471
2.3419 0.9231 -0.0472
2.3357 0.9164 -0.0472
2.3305 0.9093 -0.0472
2.3243 0.9026 -0.0472
2.3182 0.8960 -0.0472
2.3110 0.8898 -0.0473
2.3037 0.8835 -0.0473
2.2986 0.8765 -0.0473
2.2924 0.8698 -0.0473
2.2757 0.8336 -0.0475
2.2698 0.8272 -0.0475
2.2626 0.8210 -0.0475
2.2566 0.8145 -0.0475
1.2083 0.8715 -0.0456
1.2104 0.8478 -0.0457
1.2390 0.8235 -0.0458
1.2482 0.8014 -0.0460
1.2541 0.7802 -0.0461
1.2791 0.7597 -0.0462
2.4367 2.2585 -0.0109
2.4108 2.2645 -0.0103
2.3791 2.2981 -0.0089
2.3584 2.2636 -0.0092
2.3328 2.2545 -0.0089
2.3053 2.2511 -0.0084
2.2732 2.2628 -0.0075
2.2053 2.2837 -0.0057
2.4605 1.2189 -0.0344
2.4509 1.2133 -0.0343
2.4408 1.2085 -0.0342
2.4378 1.1884 -0.0346
2.4348 1.1698 -0.0349
2.4241 1.1029 -0.0362
2.4217 1.0880 -0.0365
2.4159 1.0786 -0.0366
2.4139 1.0642 -0.0368
2.4090 1.0543 -0.0370
2.4055 1.0428 -0.0371
2.4009 1.0332 -0.0373
2.3963 1.0237 -0.0374
2.3948 1.0113 -0.0376
2.3883 1.0043 -0.0376
2.3849 0.9945 -0.0378
2.3816 0.9848 -0.0379
2.3769 0.9766 -0.0380
2.3650 0.9623 -0.0381
2.3587 0.9555 -0.0381
2.3560 0.9464 -0.0383
2.3524 0.9380 -0.0384
2.3472 0.9308 -0.0384
2.3372 0.9263 -0.0383
2.3348 0.9176 -0.0385
2.3307 0.9100 -0.0385
2.3235 0.9038 -0.0385
2.3174 0.8972 -0.0386
2.3102 0.8910 -0.0385
2.3061 0.8836 -0.0386
2.2989 0.8774 -0.0386
2.2939 0.8704 -0.0387
2.2855 0.8645 -0.0386
2.2793 0.8579 -0.0387
2.2694 0.8441 -0.0388
2.2680 0.8365 -0.0389
2.2729 0.8278 -0.0392
2.2658 0.8217 -0.0392
2.2586 0.8156 -0.0392
1.2353 0.8512 -0.0176
