ply
format ascii 1.0
element vertex 2107
property float x
property float y
property float z
end_header
3.1363 -0.9882 -0.1034
3.1419 -1.0393 -0.1400
3.1508 -1.1692 -0.1485
3.1621 -1.3689 -0.1252
3.1677 -1.4384 -0.1428
3.1743 -1.5425 -0.1426
3.1857 -1.7212 -0.1404
3.1955 -1.8897 -0.1246
3.1990 -1.9381 -0.1306
3.2024 -1.9920 -0.1307
3.2054 -2.0331 -0.1363
3.2089 -2.1066 -0.1172
3.2113 -2.1332 -0.1278
3.2183 -2.2453 -0.1242
3.2221 -2.3068 -0.1227
3.2255 -2.3539 -0.1282
3.2270 -2.3865 -0.1190
3.2284 -2.4092 -0.1187
3.2298 -2.4306 -0.1184
3.2310 -2.4508 -0.1180
3.2323 -2.4683 -0.1197
3.2334 -2.4856 -0.1207
3.2345 -2.5025 -0.1209
3.2355 -2.5204 -0.1184
3.2365 -2.5353 -0.1193
3.2376 -2.5471 -0.1239
3.2383 -2.5653 -0.1171
3.2393 -2.5760 -0.1218
3.2401 -2.5903 -0.1192
3.2409 -2.6024 -0.1195
3.2415 -2.6155 -0.1169
3.2424 -2.6241 -0.1222
3.2430 -2.6367 -0.1186
3.2436 -2.6485 -0.1156
3.2444 -2.6559 -0.1212
2.9393 -0.0232 1.1687
2.9557 -0.1401 1.0487
2.9652 -0.2131 0.9874
2.9684 -0.2214 0.9400
2.9656 -0.1654 0.9031
2.9643 -0.1239 0.8611
2.9784 -0.2480 0.7941
3.0765 -1.2106 0.5019
3.0814 -1.2467 0.4670
3.0768 -1.1001 0.3168
3.0785 -1.0943 0.2760
3.0781 -1.0626 0.2313
3.0790 -0.9488 0.0306
3.0832 -0.9703 -0.0141
3.0853 -0.9617 -0.0666
3.0881 -0.9633 -0.1177
3.0938 -1.0053 -0.1574
3.1056 -1.1383 -0.1650
3.1214 -1.3365 -0.1422
3.1297 -1.4270 -0.1519
3.1410 -1.5689 -0.1353
3.1539 -1.7116 -0.1480
3.1616 -1.8104 -0.1347
3.1675 -1.8813 -0.1313
3.1724 -1.9366 -0.1332
3.1771 -1.9917 -0.1322
3.1815 -2.0449 -0.1296
3.1852 -2.0869 -0.1316
3.1926 -2.1800 -0.1216
3.1987 -2.2538 -0.1166
3.2036 -2.3095 -0.1193
3.2080 -2.3590 -0.1217
3.2102 -2.3878 -0.1162
3.2119 -2.4050 -0.1218
3.2137 -2.4257 -0.1222
3.2155 -2.4484 -0.1190
3.2171 -2.4668 -0.1195
3.2186 -2.4826 -0.1223
3.2214 -2.5141 -0.1249
3.2228 -2.5374 -0.1131
3.2241 -2.5512 -0.1142
3.2253 -2.5641 -0.1158
3.2264 -2.5754 -0.1192
3.2275 -2.5898 -0.1164
3.2286 -2.6000 -0.1201
3.2296 -2.6119 -0.1197
3.2305 -2.6236 -0.1189
3.2315 -2.6339 -0.1201
3.2323 -2.6463 -0.1157
3.2332 -2.6555 -0.1173
2.8847 -0.0067 1.1556
2.8975 -0.0993 1.0873
2.9061 -0.1567 1.0289
2.9146 -0.2135 0.9716
2.9108 -0.0878 0.7486
2.9120 -0.0784 0.6970
3.0465 -1.1982 0.3520
3.0305 -1.0290 0.3031
3.0333 -1.0388 0.2623
3.0097 -0.7470 0.0854
3.0313 -0.9436 0.0698
3.0335 -0.9448 0.0216
3.0406 -0.9957 -0.0159
3.0381 -0.9475 -0.0779
3.0415 -0.9596 -0.1260
3.0503 -1.0303 -0.1563
3.0652 -1.1679 -0.1608
3.0790 -1.2966 -0.1621
3.0950 -1.4524 -0.1462
3.1080 -1.5786 -0.1349
3.1157 -1.6474 -0.1434
3.1249 -1.7346 -0.1395
3.1343 -1.8268 -0.1284
3.1396 -1.8729 -0.1379
3.1468 -1.9428 -0.1311
3.1520 -1.9897 -0.1348
3.1589 -2.0607 -0.1201
3.1627 -2.0926 -0.1283
3.1708 -2.1665 -0.1322
3.1756 -2.2159 -0.1209
3.1789 -2.2461 -0.1228
3.1856 -2.3115 -0.1167
3.1932 -2.3803 -0.1228
3.1956 -2.4024 -0.1230
3.1981 -2.4279 -0.1178
3.2002 -2.4475 -0.1180
3.2021 -2.4652 -0.1193
3.2041 -2.4841 -0.1179
3.2058 -2.4996 -0.1197
3.2076 -2.5156 -0.1200
3.2092 -2.5319 -0.1185
3.2108 -2.5472 -0.1173
3.2123 -2.5609 -0.1178
3.2138 -2.5749 -0.1166
3.2151 -2.5867 -0.1182
3.2164 -2.5983 -0.1194
3.2177 -2.6109 -0.1177
3.2188 -2.6207 -0.1204
3.2200 -2.6322 -0.1190
3.2211 -2.6423 -0.1197
3.2222 -2.6528 -0.1186
2.8531 -0.1496 1.0595
2.8556 -0.1573 1.0128
3.0013 -1.1151 0.3005
2.9854 -0.9652 0.2027
2.9118 -0.3553 0.0711
2.9003 -0.2453 -0.0073
2.9915 -0.9522 -0.0339
2.9765 -0.8121 -0.1213
2.9928 -0.9346 -0.1405
3.0052 -1.0260 -0.1643
3.0219 -1.1548 -0.1712
3.0465 -1.3542 -0.1456
3.0614 -1.4711 -0.1430
3.0761 -1.5887 -0.1342
3.0975 -1.7571 -0.1312
3.1062 -1.8250 -0.1317
3.1157 -1.9013 -0.1240
3.1268 -1.9839 -0.1397
3.1357 -2.0582 -0.1227
3.1509 -2.1762 -0.1248
3.1596 -2.2446 -0.1238
3.1671 -2.3035 -0.1234
3.1706 -2.3312 -0.1222
3.1772 -2.3842 -0.1173
3.1794 -2.3999 -0.1243
3.1824 -2.4248 -0.1197
3.1852 -2.4468 -0.1169
3.1870 -2.4592 -0.1248
3.1917 -2.4968 -0.1211
3.1939 -2.5143 -0.1191
3.1960 -2.5314 -0.1163
3.1978 -2.5454 -0.1172
3.1996 -2.5604 -0.1153
3.2029 -2.5856 -0.1165
3.2043 -2.5959 -0.1199
3.2058 -2.6079 -0.1193
3.2073 -2.6203 -0.1170
3.2099 -2.6395 -0.1211
3.2113 -2.6506 -0.1186
3.2124 -2.6586 -0.1224
2.7837 -0.0348 1.1602
2.8106 -0.1965 1.0331
2.8103 -0.1883 0.9906
2.9730 -1.2058 0.4755
2.9641 -1.1237 0.3312
2.9451 -0.9202 -0.1519
2.9673 -1.0691 -0.1569
2.9877 -1.2066 -0.1589
3.0123 -1.3751 -0.1426
3.0297 -1.4934 -0.1382
3.0591 -1.6936 -0.1284
3.0780 -1.8194 -0.1370
3.1130 -2.0577 -0.1239
3.1306 -2.1761 -0.1250
3.1348 -2.2037 -0.1306
3.1457 -2.2790 -0.1194
3.1505 -2.3125 -0.1142
3.1543 -2.3377 -0.1149
3.1605 -2.3784 -0.1221
3.1635 -2.3982 -0.1246
3.1668 -2.4208 -0.1226
3.1700 -2.4430 -0.1196
3.1733 -2.4662 -0.1137
3.1825 -2.5274 -0.1195
3.1845 -2.5400 -0.1226
3.1867 -2.5559 -0.1195
3.1886 -2.5680 -0.1214
3.1905 -2.5813 -0.1206
3.1926 -2.5956 -0.1168
3.1945 -2.6096 -0.1123
3.1957 -2.6156 -0.1223
3.1973 -2.6266 -0.1219
3.1990 -2.6386 -0.1185
3.2002 -2.6455 -0.1252
3.2014 -2.6530 -0.1303
2.9391 -1.2089 0.5322
2.9110 -1.0246 0.3165
2.6263 0.7011 -0.1111
2.9296 -1.1091 -0.0103
2.8894 -0.8617 -0.1235
2.9059 -0.9573 -0.1479
2.9498 -1.2176 -0.1605
2.9700 -1.3372 -0.1617
2.9970 -1.4995 -0.1398
3.0280 -1.6842 -0.1358
3.0385 -1.7461 -0.1420
3.0730 -1.9521 -0.1303
3.0823 -2.0071 -0.1276
3.0929 -2.0715 -0.1157
3.1035 -2.1334 -0.1296
3.1164 -2.2102 -0.1252
3.1278 -2.2786 -0.1192
3.1321 -2.3036 -0.1217
3.1354 -2.3231 -0.1282
3.1408 -2.3556 -0.1204
3.1452 -2.3817 -0.1173
3.1525 -2.4257 -0.1151
3.1583 -2.4595 -0.1202
3.1617 -2.4801 -0.1162
3.1645 -2.4965 -0.1165
3.1723 -2.5432 -0.1146
3.1739 -2.5520 -0.1225
3.1766 -2.5684 -0.1175
3.1791 -2.5837 -0.1129
3.1807 -2.5926 -0.1184
3.1825 -2.6034 -0.1201
3.1845 -2.6153 -0.1187
3.1866 -2.6283 -0.1144
3.1883 -2.6384 -0.1146
3.1898 -2.6471 -0.1171
3.1908 -2.6521 -0.1275
2.7215 -0.7072 0.5788
2.1727 1.3227 0.3740
2.1813 1.2808 0.2859
2.1785 1.2814 0.1954
2.1519 1.3699 0.0960
2.1609 1.3262 0.0042
2.1699 1.2825 -0.0876
2.5018 0.0348 -0.1429
2.8434 -1.2293 -0.0211
2.8534 -1.2701 -0.0533
2.8493 -1.2600 -0.1010
2.8742 -1.3543 -0.1130
2.9177 -1.5193 -0.1336
2.9378 -1.5955 -0.1408
2.9638 -1.6921 -0.1346
3.0094 -1.8609 -0.1198
3.0431 -1.9860 -0.1126
3.0649 -2.0685 -0.1202
3.0853 -2.1452 -0.1233
3.1087 -2.2310 -0.1100
3.1236 -2.2870 -0.1131
3.1370 -2.3376 -0.1149
3.1494 -2.3838 -0.1151
3.1554 -2.4063 -0.1138
3.1604 -2.4251 -0.1153
3.1653 -2.4437 -0.1159
3.1716 -2.4663 -0.1100
3.1750 -2.4796 -0.1150
3.1795 -2.4963 -0.1145
3.1837 -2.5120 -0.1143
3.1871 -2.5252 -0.1166
3.1908 -2.5389 -0.1174
3.1954 -2.5557 -0.1119
3.2024 -2.5817 -0.1104
3.2050 -2.5917 -0.1136
3.2082 -2.6035 -0.1128
3.2105 -2.6125 -0.1165
3.2139 -2.6250 -0.1122
3.2168 -2.6354 -0.1112
3.2192 -2.6445 -0.1124
1.9802 1.7145 0.6782
2.2055 0.9184 0.5585
2.0403 1.4803 0.4867
2.0359 1.4829 0.3944
2.0842 1.3035 0.3057
2.1173 1.1770 0.2202
2.0680 1.3070 -0.0751
2.1032 1.1743 -0.1562
2.4471 -0.0118 -0.1260
2.5140 -0.2463 -0.1478
2.5816 -0.4816 -0.1587
2.6624 -0.7597 -0.1469
2.7185 -0.9539 -0.1467
2.7717 -1.1369 -0.1405
2.8293 -1.3335 -0.1203
2.8508 -1.4102 -0.1361
2.8830 -1.5213 -0.1341
2.9400 -1.7173 -0.1251
2.9786 -1.8512 -0.1285
3.0137 -1.9724 -0.1252
3.0456 -2.0815 -0.1164
3.0562 -2.1188 -0.1196
3.0665 -2.1545 -0.1220
3.1070 -2.2937 -0.1139
3.1192 -2.3373 -0.1229
3.1277 -2.3661 -0.1181
3.1332 -2.3856 -0.1215
3.1471 -2.4326 -0.1152
3.1585 -2.4718 -0.1123
3.1679 -2.5044 -0.1131
3.1729 -2.5212 -0.1109
3.1756 -2.5315 -0.1176
3.1847 -2.5623 -0.1122
3.1887 -2.5759 -0.1107
3.1917 -2.5867 -0.1133
3.1956 -2.5998 -0.1107
3.1974 -2.6071 -0.1185
3.2016 -2.6209 -0.1124
3.2040 -2.6296 -0.1158
3.2074 -2.6411 -0.1124
3.2096 -2.6490 -0.1164
3.2123 -2.6584 -0.1161
1.9970 1.3258 0.5966
2.0691 1.0791 0.5039
1.9540 1.4198 0.3240
1.9775 1.3293 0.2323
1.9724 1.3305 0.1363
1.9670 1.3318 0.0382
1.9907 1.2412 -0.0514
2.0408 1.0681 -0.1270
2.4386 -0.2132 -0.1488
2.6734 -0.9661 -0.1410
2.8103 -1.4055 -0.1386
2.8510 -1.5348 -0.1298
2.8814 -1.6324 -0.1282
2.9054 -1.7100 -0.1311
2.9345 -1.8019 -0.1225
2.9730 -1.9258 -0.1244
2.9932 -1.9899 -0.1189
3.0052 -2.0295 -0.1256
3.0206 -2.0788 -0.1235
3.0604 -2.2055 -0.1165
3.0799 -2.2683 -0.1179
3.0916 -2.3047 -0.1109
3.0954 -2.3189 -0.1234
3.1060 -2.3517 -0.1161
3.1127 -2.3738 -0.1181
3.1200 -2.3969 -0.1175
3.1279 -2.4218 -0.1132
3.1325 -2.4373 -0.1186
3.1394 -2.4590 -0.1151
3.1452 -2.4775 -0.1145
3.1512 -2.4962 -0.1120
3.1557 -2.5111 -0.1137
3.1597 -2.5243 -0.1169
3.1649 -2.5407 -0.1143
3.1700 -2.5566 -0.1110
3.1730 -2.5671 -0.1158
3.1778 -2.5818 -0.1122
3.1817 -2.5943 -0.1115
3.1859 -2.6072 -0.1090
3.1882 -2.6156 -0.1144
3.1923 -2.6280 -0.1109
3.1953 -2.6378 -0.1118
3.1980 -2.6469 -0.1136
3.2002 -2.6547 -0.1177
3.2029 -2.6634 -0.1188
1.6418 2.1324 0.7626
1.8948 1.3504 0.6231
2.0122 0.9812 0.5245
1.7695 1.6543 0.2392
1.8312 1.4532 0.1477
1.8569 1.3590 0.0539
1.8504 1.3598 -0.0485
1.9374 1.0874 -0.1154
2.6861 -1.1541 -0.1329
2.8164 -1.5429 -0.1278
2.8459 -1.6317 -0.1306
2.8957 -1.7816 -0.1362
2.9843 -2.0438 -0.1212
2.9994 -2.0889 -0.1219
3.0175 -2.1417 -0.1143
3.0293 -2.1773 -0.1166
3.0409 -2.2122 -0.1175
3.0521 -2.2456 -0.1175
3.0612 -2.2735 -0.1204
3.0721 -2.3055 -0.1177
3.0825 -2.3361 -0.1142
3.0978 -2.3824 -0.1172
3.1136 -2.4290 -0.1136
3.1199 -2.4480 -0.1148
3.1264 -2.4673 -0.1142
3.1313 -2.4827 -0.1175
3.1374 -2.5005 -0.1163
3.1428 -2.5166 -0.1163
3.1478 -2.5317 -0.1167
3.1533 -2.5478 -0.1142
3.1591 -2.5642 -0.1099
3.1623 -2.5746 -0.1148
3.1665 -2.5872 -0.1148
3.1745 -2.6112 -0.1144
3.1791 -2.6242 -0.1103
3.1826 -2.6347 -0.1105
3.1850 -2.6427 -0.1153
3.1892 -2.6544 -0.1109
3.1913 -2.6616 -0.1163
3.1943 -2.6707 -0.1162
1.7096 1.6551 0.9458
1.5097 2.1828 0.7986
1.7377 1.5182 0.6580
2.0056 0.7471 0.5405
1.8531 1.1569 0.4640
1.7828 1.3341 0.3709
1.7753 1.3355 0.2743
1.8292 1.1083 -0.1035
1.9427 0.7818 -0.1533
2.1702 0.1514 -0.1319
2.3125 -0.2449 -0.1288
2.4240 -0.5556 -0.1265
2.4944 -0.7545 -0.1384
2.5591 -0.9364 -0.1456
2.6331 -1.1409 -0.1361
2.6884 -1.2946 -0.1339
2.7356 -1.4260 -0.1321
2.7811 -1.5517 -0.1256
2.8203 -1.6598 -0.1201
2.8756 -1.8145 -0.1224
2.9204 -1.9398 -0.1246
2.9595 -2.0487 -0.1231
2.9898 -2.1338 -0.1261
3.0193 -2.2153 -0.1217
3.0335 -2.2539 -0.1174
3.0448 -2.2853 -0.1170
3.0752 -2.3697 -0.1138
3.0837 -2.3934 -0.1138
3.0928 -2.4181 -0.1110
3.0992 -2.4364 -0.1140
3.1074 -2.4587 -0.1109
3.1114 -2.4715 -0.1188
3.1181 -2.4901 -0.1176
3.1264 -2.5117 -0.1108
3.1321 -2.5276 -0.1108
3.1377 -2.5431 -0.1102
3.1420 -2.5557 -0.1130
3.1472 -2.5700 -0.1121
3.1517 -2.5827 -0.1128
3.1564 -2.5958 -0.1117
3.1609 -2.6080 -0.1113
3.1643 -2.6182 -0.1138
3.1681 -2.6288 -0.1146
3.1715 -2.6386 -0.1163
3.1798 -2.6608 -0.1107
3.1831 -2.6700 -0.1110
3.1850 -2.6765 -0.1176
1.7450 1.2227 0.6692
1.8878 0.8275 0.5657
1.7129 1.2668 0.4892
1.6118 1.5093 0.3927
1.5183 1.7291 0.2837
1.5276 1.6329 -0.0419
1.8005 0.9164 -0.0630
1.8406 0.7942 -0.1426
1.9609 0.4719 -0.1814
2.2590 -0.2904 -0.1124
2.4231 -0.7252 -0.1427
2.5846 -1.1446 -0.1338
2.7768 -1.6448 -0.1290
2.8054 -1.7205 -0.1343
2.8416 -1.8132 -0.1265
2.8944 -1.9502 -0.1229
2.9374 -2.0618 -0.1197
2.9704 -2.1481 -0.1216
3.0000 -2.2251 -0.1204
3.0139 -2.2608 -0.1185
3.0215 -2.2827 -0.1272
3.0474 -2.3483 -0.1183
3.0655 -2.3958 -0.1202
3.0767 -2.4237 -0.1136
3.0845 -2.4440 -0.1144
3.0928 -2.4653 -0.1124
3.0983 -2.4807 -0.1168
3.1081 -2.5044 -0.1083
3.1115 -2.5151 -0.1169
3.1257 -2.5506 -0.1099
3.1354 -2.5766 -0.1132
3.1467 -2.6049 -0.1075
3.1492 -2.6130 -0.1151
3.1528 -2.6231 -0.1178
3.1625 -2.6471 -0.1122
3.1675 -2.6591 -0.1073
3.1704 -2.6674 -0.1106
3.1738 -2.6764 -0.1110
3.1775 -2.6858 -0.1096
1.4986 1.5371 0.5196
1.3938 1.7172 0.1984
2.7441 -1.6590 -0.1248
2.7709 -1.7266 -0.1343
2.8418 -1.8971 -0.1221
2.8664 -1.9574 -0.1231
2.9105 -2.0651 -0.1230
2.9497 -2.1600 -0.1189
2.9627 -2.1929 -0.1240
2.9797 -2.2336 -0.1204
2.9980 -2.2765 -0.1121
3.0071 -2.3003 -0.1186
3.0218 -2.3347 -0.1132
3.0310 -2.3581 -0.1167
3.0413 -2.3832 -0.1169
3.0514 -2.4078 -0.1159
3.0695 -2.4518 -0.1146
3.0758 -2.4681 -0.1191
3.0930 -2.5087 -0.1130
3.0986 -2.5233 -0.1162
3.1067 -2.5419 -0.1118
3.1122 -2.5558 -0.1135
3.1187 -2.5712 -0.1116
3.1287 -2.5963 -0.1141
3.1337 -2.6084 -0.1145
3.1399 -2.6225 -0.1098
3.1440 -2.6331 -0.1113
3.1485 -2.6439 -0.1112
3.1522 -2.6535 -0.1130
3.1559 -2.6628 -0.1144
3.1602 -2.6730 -0.1129
3.1642 -2.6824 -0.1122
3.1671 -2.6903 -0.1149
1.4580 1.3664 0.5428
1.3766 1.4754 0.2336
1.2996 1.5936 0.0020
2.6557 -1.5495 -0.1312
2.7415 -1.7455 -0.1280
2.8033 -1.8880 -0.1315
2.8333 -1.9561 -0.1287
2.8646 -2.0259 -0.1205
2.8873 -2.0779 -0.1199
2.9070 -2.1232 -0.1209
2.9240 -2.1628 -0.1234
2.9465 -2.2123 -0.1152
2.9759 -2.2801 -0.1165
2.9890 -2.3104 -0.1172
2.9992 -2.3349 -0.1216
3.0259 -2.3942 -0.1140
3.0358 -2.4170 -0.1147
3.0471 -2.4420 -0.1112
3.0529 -2.4571 -0.1183
3.0625 -2.4785 -0.1160
3.0712 -2.4981 -0.1146
3.0779 -2.5141 -0.1168
3.0853 -2.5309 -0.1164
3.0923 -2.5468 -0.1161
3.0995 -2.5630 -0.1141
3.1052 -2.5764 -0.1154
3.1109 -2.5896 -0.1162
3.1186 -2.6057 -0.1098
3.1242 -2.6182 -0.1091
3.1289 -2.6294 -0.1101
3.1326 -2.6388 -0.1141
3.1369 -2.6490 -0.1154
3.1432 -2.6619 -0.1089
3.1468 -2.6707 -0.1116
3.1499 -2.6788 -0.1152
3.1544 -2.6885 -0.1133
1.2737 1.5471 0.6784
1.5196 0.9852 0.5578
1.3042 1.3986 0.3664
1.4685 1.0205 0.2756
1.4573 1.0184 0.1768
1.2351 1.4597 0.0352
1.5258 0.7967 -0.1021
1.9683 -0.1607 -0.1168
2.1481 -0.5457 -0.1076
2.2457 -0.7598 -0.1220
2.3041 -0.8929 -0.1487
2.4159 -1.1302 -0.1349
2.4807 -1.2716 -0.1415
2.6186 -1.5648 -0.1264
2.6617 -1.6585 -0.1298
2.7026 -1.7468 -0.1305
2.7747 -1.9016 -0.1281
2.8267 -2.0149 -0.1331
2.8789 -2.1254 -0.1256
2.8971 -2.1654 -0.1282
2.9215 -2.2157 -0.1196
2.9402 -2.2552 -0.1168
2.9578 -2.2923 -0.1133
2.9699 -2.3192 -0.1171
2.9826 -2.3469 -0.1182
3.0077 -2.4005 -0.1164
3.0262 -2.4418 -0.1218
3.0491 -2.4889 -0.1129
3.0558 -2.5044 -0.1170
3.0625 -2.5197 -0.1204
3.0814 -2.5579 -0.1106
3.0878 -2.5720 -0.1116
3.0938 -2.5853 -0.1131
3.0997 -2.5982 -0.1139
3.1048 -2.6098 -0.1162
3.1129 -2.6253 -0.1093
3.1163 -2.6343 -0.1149
3.1216 -2.6456 -0.1145
3.1258 -2.6552 -0.1171
3.1302 -2.6651 -0.1181
3.1357 -2.6762 -0.1149
3.1405 -2.6860 -0.1136
3.1452 -2.6956 -0.1119
1.2131 1.4223 0.7016
1.4826 0.8413 0.5780
1.3042 1.1798 0.4939
1.3366 1.0866 0.3951
1.4106 0.9107 0.3014
1.3333 1.0381 0.1961
1.2490 1.1771 0.0808
1.5344 0.5350 -0.1475
2.2658 -0.9439 -0.1311
2.5740 -1.5677 -0.1269
2.6672 -1.7573 -0.1286
2.7035 -1.8316 -0.1317
2.7402 -1.9058 -0.1302
2.8009 -2.0287 -0.1297
2.8249 -2.0780 -0.1320
2.8559 -2.1382 -0.1228
2.8744 -2.1768 -0.1263
2.8986 -2.2241 -0.1201
2.9181 -2.2631 -0.1177
2.9383 -2.3024 -0.1121
2.9602 -2.3502 -0.1240
2.9908 -2.4098 -0.1157
3.0015 -2.4320 -0.1171
3.0088 -2.4487 -0.1240
3.0353 -2.4987 -0.1107
3.0418 -2.5135 -0.1158
3.0492 -2.5291 -0.1184
3.0577 -2.5461 -0.1175
3.0653 -2.5616 -0.1177
3.0732 -2.5772 -0.1161
3.0815 -2.5931 -0.1127
3.0885 -2.6069 -0.1116
3.0942 -2.6188 -0.1130
3.0998 -2.6305 -0.1138
3.1058 -2.6424 -0.1130
3.1106 -2.6526 -0.1149
3.1157 -2.6630 -0.1153
3.1257 -2.6832 -0.1145
3.1310 -2.6933 -0.1121
3.1352 -2.7019 -0.1130
0.9908 1.6184 0.7463
1.3231 0.8893 0.4203
1.2879 0.9284 0.3231
1.3198 0.8401 0.2284
1.3134 0.7376 -0.1687
2.2005 -0.9458 -0.1279
2.3766 -1.2847 -0.1366
2.4591 -1.4409 -0.1311
2.5316 -1.5774 -0.1245
2.6361 -1.7764 -0.1223
2.6603 -1.8272 -0.1381
2.7068 -1.9139 -0.1303
2.7343 -1.9682 -0.1367
2.8354 -2.1556 -0.1165
2.8781 -2.2372 -0.1168
2.8970 -2.2734 -0.1167
2.9102 -2.3003 -0.1227
2.9454 -2.3660 -0.1169
2.9569 -2.3890 -0.1210
2.9736 -2.4193 -0.1149
2.9857 -2.4424 -0.1151
2.9968 -2.4638 -0.1156
3.0174 -2.5033 -0.1161
3.0286 -2.5238 -0.1127
3.0376 -2.5409 -0.1127
3.0451 -2.5559 -0.1147
3.0618 -2.5870 -0.1126
3.0683 -2.5999 -0.1144
3.0768 -2.6151 -0.1103
3.0827 -2.6269 -0.1118
3.0886 -2.6384 -0.1128
3.1010 -2.6615 -0.1107
3.1055 -2.6709 -0.1135
3.1112 -2.6813 -0.1122
3.1160 -2.6907 -0.1128
3.1219 -2.7011 -0.1093
3.1258 -2.7091 -0.1115
3.1289 -2.7163 -0.1159
0.9624 1.3324 0.4460
1.0295 1.1797 0.3404
0.9543 1.2816 0.2276
1.2783 0.5901 -0.1310
1.8802 -0.4862 -0.1028
2.0090 -0.7231 -0.1186
2.2476 -1.1544 -0.1230
2.3965 -1.4271 -0.1375
2.5310 -1.6682 -0.1333
2.6353 -1.8545 -0.1275
2.6787 -1.9319 -0.1246
2.7198 -2.0043 -0.1196
2.7520 -2.0622 -0.1193
2.7700 -2.0982 -0.1307
2.8007 -2.1521 -0.1262
2.8336 -2.2083 -0.1159
2.8534 -2.2448 -0.1182
2.8683 -2.2736 -0.1250
2.9082 -2.3439 -0.1196
2.9312 -2.3823 -0.1092
2.9417 -2.4030 -0.1155
2.9544 -2.4264 -0.1171
2.9708 -2.4542 -0.1114
2.9776 -2.4692 -0.1201
2.9877 -2.4881 -0.1225
3.0131 -2.5313 -0.1141
3.0224 -2.5481 -0.1143
3.0321 -2.5651 -0.1128
3.0399 -2.5796 -0.1142
3.0485 -2.5947 -0.1130
3.0548 -2.6070 -0.1159
3.0624 -2.6204 -0.1152
3.0699 -2.6335 -0.1139
3.0773 -2.6463 -0.1117
3.0825 -2.6565 -0.1145
3.0868 -2.6655 -0.1190
3.0945 -2.6779 -0.1139
3.0999 -2.6878 -0.1140
3.1066 -2.6986 -0.1100
3.1107 -2.7068 -0.1127
3.1148 -2.7148 -0.1150
3.1192 -2.7230 -0.1157
0.8652 1.0997 -0.0791
2.1223 -1.0615 -0.1514
2.3252 -1.4054 -0.1469
2.4705 -1.6516 -0.1439
2.5969 -1.8618 -0.1279
2.6915 -2.0189 -0.1159
2.7462 -2.1150 -0.1254
2.7843 -2.1764 -0.1148
2.8056 -2.2141 -0.1190
2.8498 -2.2894 -0.1193
2.8676 -2.3204 -0.1216
2.8823 -2.3467 -0.1265
2.9196 -2.4083 -0.1201
2.9377 -2.4375 -0.1147
2.9499 -2.4588 -0.1170
2.9738 -2.4999 -0.1183
2.9865 -2.5208 -0.1156
2.9978 -2.5395 -0.1145
3.0070 -2.5556 -0.1159
3.0189 -2.5745 -0.1109
3.0350 -2.6026 -0.1133
3.0430 -2.6161 -0.1134
3.0499 -2.6284 -0.1149
3.0650 -2.6534 -0.1128
3.0771 -2.6746 -0.1148
3.0846 -2.6863 -0.1109
3.0912 -2.6968 -0.1087
3.0959 -2.7054 -0.1107
3.1006 -2.7139 -0.1123
3.1057 -2.7225 -0.1122
3.1099 -2.7303 -0.1143
2.0366 -1.0412 -0.1563
2.2652 -1.4058 -0.1478
2.4341 -1.6739 -0.1365
2.4967 -1.7739 -0.1346
2.5604 -1.8735 -0.1260
2.6078 -1.9492 -0.1246
2.6494 -2.0158 -0.1238
2.6825 -2.0700 -0.1267
2.7127 -2.1193 -0.1293
2.7781 -2.2217 -0.1207
2.8033 -2.2620 -0.1201
2.8224 -2.2940 -0.1241
2.8723 -2.3703 -0.1118
2.8852 -2.3930 -0.1180
2.9356 -2.4720 -0.1116
2.9465 -2.4907 -0.1153
2.9568 -2.5084 -0.1189
2.9681 -2.5269 -0.1199
2.9812 -2.5469 -0.1165
2.9928 -2.5649 -0.1146
3.0007 -2.5788 -0.1182
3.0131 -2.5969 -0.1126
3.0224 -2.6116 -0.1117
3.0297 -2.6239 -0.1139
3.0364 -2.6356 -0.1166
3.0445 -2.6483 -0.1156
3.0521 -2.6603 -0.1149
3.0610 -2.6732 -0.1103
3.0660 -2.6824 -0.1139
3.0729 -2.6930 -0.1125
3.0914 -2.7218 -0.1095
3.0953 -2.7292 -0.1132
3.1001 -2.7372 -0.1141
1.8295 -0.8387 -0.1461
2.1263 -1.2863 -0.1353
2.2207 -1.4310 -0.1390
2.3069 -1.5620 -0.1391
2.3804 -1.6738 -0.1396
2.4555 -1.7857 -0.1324
2.5107 -1.8698 -0.1328
2.5593 -1.9438 -0.1333
2.6025 -2.0096 -0.1339
2.6481 -2.0771 -0.1285
2.6922 -2.1414 -0.1203
2.7220 -2.1872 -0.1217
2.7434 -2.2220 -0.1290
2.7783 -2.2721 -0.1199
2.8025 -2.3088 -0.1195
2.8249 -2.3427 -0.1189
2.8422 -2.3702 -0.1224
2.8813 -2.4284 -0.1188
2.9003 -2.4560 -0.1149
2.9144 -2.4779 -0.1162
2.9396 -2.5172 -0.1194
2.9523 -2.5364 -0.1191
2.9649 -2.5551 -0.1176
2.9774 -2.5732 -0.1151
2.9862 -2.5875 -0.1180
2.9970 -2.6033 -0.1164
3.0087 -2.6197 -0.1119
3.0147 -2.6305 -0.1173
3.0336 -2.6576 -0.1122
3.0399 -2.6681 -0.1148
3.0482 -2.6799 -0.1126
3.0554 -2.6907 -0.1119
3.0620 -2.7007 -0.1117
3.0672 -2.7094 -0.1145
3.0732 -2.7186 -0.1144
3.0802 -2.7283 -0.1115
3.0857 -2.7366 -0.1116
0.9715 0.2751 -0.1297
1.7433 -0.8388 -0.1425
1.9430 -1.1210 -0.1275
2.0476 -1.2752 -0.1390
2.2603 -1.5792 -0.1339
2.3469 -1.7023 -0.1293
2.4058 -1.7888 -0.1350
2.5321 -1.9670 -0.1249
2.6239 -2.0977 -0.1211
2.6935 -2.1979 -0.1213
2.7224 -2.2399 -0.1225
2.8017 -2.3527 -0.1190
2.8475 -2.4166 -0.1132
2.8640 -2.4410 -0.1152
2.8793 -2.4637 -0.1174
2.8944 -2.4858 -0.1184
2.9050 -2.5030 -0.1244
2.9364 -2.5461 -0.1182
2.9495 -2.5644 -0.1170
2.9613 -2.5813 -0.1165
2.9832 -2.6123 -0.1154
2.9948 -2.6279 -0.1121
3.0036 -2.6408 -0.1128
3.0108 -2.6522 -0.1157
3.0195 -2.6645 -0.1151
3.0260 -2.6748 -0.1179
3.0357 -2.6873 -0.1137
3.0511 -2.7085 -0.1109
3.0574 -2.7177 -0.1115
3.0626 -2.7261 -0.1139
3.0684 -2.7346 -0.1146
3.0740 -2.7428 -0.1150
0.8925 0.2077 -0.1054
1.6522 -0.8377 -0.1391
1.8775 -1.1379 -0.1204
2.0042 -1.3121 -0.1257
2.2129 -1.5970 -0.1285
2.3658 -1.8058 -0.1304
2.4830 -1.9657 -0.1317
2.5949 -2.1130 -0.1174
2.6656 -2.2102 -0.1198
2.7341 -2.3008 -0.1124
2.7471 -2.3231 -0.1257
2.7823 -2.3671 -0.1146
2.8244 -2.4247 -0.1154
2.8619 -2.4754 -0.1147
2.8700 -2.4903 -0.1257
2.8890 -2.5147 -0.1213
2.9056 -2.5363 -0.1187
2.9220 -2.5573 -0.1147
2.9506 -2.5942 -0.1090
2.9600 -2.6080 -0.1121
2.9687 -2.6210 -0.1153
2.9893 -2.6486 -0.1141
2.9978 -2.6606 -0.1153
3.0095 -2.6747 -0.1096
3.0152 -2.6841 -0.1146
3.0224 -2.6944 -0.1159
3.0400 -2.7163 -0.1101
3.0520 -2.7336 -0.1133
3.0584 -2.7423 -0.1129
3.0643 -2.7504 -0.1134
1.5154 -0.7879 -0.1490
2.1463 -1.5948 -0.1318
2.3119 -1.8088 -0.1334
2.4444 -1.9783 -0.1301
2.5444 -2.1069 -0.1294
2.6312 -2.2167 -0.1233
2.6971 -2.3012 -0.1221
2.7554 -2.3748 -0.1176
2.8074 -2.4392 -0.1102
2.8389 -2.4827 -0.1185
2.8593 -2.5076 -0.1149
2.8723 -2.5259 -0.1190
2.9023 -2.5644 -0.1186
2.9319 -2.6007 -0.1137
2.9558 -2.6311 -0.1125
2.9776 -2.6586 -0.1105
2.9864 -2.6703 -0.1117
2.9940 -2.6810 -0.1144
3.0010 -2.6911 -0.1175
3.0102 -2.7024 -0.1158
3.0283 -2.7238 -0.1104
3.0345 -2.7325 -0.1123
3.0418 -2.7415 -0.1115
3.0468 -2.7492 -0.1148
3.0534 -2.7575 -0.1142
0.7149 0.0603 -0.1593
1.1966 -0.5173 -0.1299
1.4280 -0.8034 -0.1406
2.1675 -1.7052 -0.1385
2.3320 -1.9045 -0.1342
2.4536 -2.0524 -0.1329
2.5192 -2.1284 -0.1216
2.5638 -2.1826 -0.1209
2.6042 -2.2317 -0.1199
2.6342 -2.2699 -0.1245
2.6786 -2.3204 -0.1141
2.7337 -2.3879 -0.1149
2.7572 -2.4170 -0.1161
2.7780 -2.4431 -0.1182
2.8161 -2.4908 -0.1214
2.8384 -2.5163 -0.1168
2.8525 -2.5349 -0.1205
2.8653 -2.5520 -0.1248
2.9027 -2.5938 -0.1138
2.9257 -2.6232 -0.1176
2.9434 -2.6416 -0.1087
2.9503 -2.6523 -0.1152
2.9709 -2.6775 -0.1151
2.9799 -2.6888 -0.1160
2.9912 -2.7011 -0.1120
2.9971 -2.7101 -0.1168
3.0060 -2.7205 -0.1157
3.0130 -2.7296 -0.1173
3.0217 -2.7394 -0.1150
3.0286 -2.7481 -0.1155
3.0338 -2.7556 -0.1190
3.0418 -2.7644 -0.1162
3.0486 -2.7723 -0.1152
0.7500 -0.1320 -0.1102
1.0492 -0.4853 -0.1304
1.3043 -0.7843 -0.1415
1.5220 -1.0377 -0.1460
1.8793 -1.4481 -0.1383
2.4157 -2.0658 -0.1313
2.5247 -2.1894 -0.1245
2.6086 -2.2851 -0.1210
2.6412 -2.3233 -0.1222
2.6698 -2.3571 -0.1245
2.7249 -2.4209 -0.1243
2.7742 -2.4769 -0.1217
2.7954 -2.5012 -0.1213
2.8171 -2.5253 -0.1186
2.8555 -2.5681 -0.1140
2.8705 -2.5857 -0.1148
2.8859 -2.6032 -0.1138
2.8982 -2.6181 -0.1159
2.9122 -2.6338 -0.1145
2.9243 -2.6479 -0.1148
2.9356 -2.6612 -0.1152
2.9438 -2.6723 -0.1196
2.9575 -2.6862 -0.1145
2.9686 -2.6984 -0.1125
2.9772 -2.7088 -0.1138
2.9864 -2.7193 -0.1135
2.9937 -2.7285 -0.1157
3.0015 -2.7378 -0.1163
3.0111 -2.7477 -0.1130
3.0194 -2.7567 -0.1113
3.0236 -2.7636 -0.1172
3.0318 -2.7721 -0.1145
3.0382 -2.7796 -0.1148
0.4265 0.0555 -0.1355
0.6826 -0.2414 -0.1794
1.1717 -0.7637 -0.1425
1.4257 -1.0420 -0.1425
2.3881 -2.0893 -0.1228
2.4833 -2.1958 -0.1287
2.5752 -2.2944 -0.1231
2.6476 -2.3727 -0.1200
2.7018 -2.4331 -0.1230
2.7559 -2.4904 -0.1178
2.8013 -2.5387 -0.1137
2.8176 -2.5576 -0.1164
2.8325 -2.5750 -0.1195
2.8664 -2.6113 -0.1170
2.8954 -2.6426 -0.1157
2.9078 -2.6564 -0.1163
2.9234 -2.6716 -0.1114
2.9356 -2.6846 -0.1102
2.9434 -2.6948 -0.1149
2.9523 -2.7054 -0.1171
2.9606 -2.7154 -0.1197
2.9731 -2.7273 -0.1144
2.9813 -2.7367 -0.1157
2.9906 -2.7463 -0.1143
2.9999 -2.7557 -0.1122
3.0157 -2.7726 -0.1107
3.0205 -2.7795 -0.1152
0.8192 -0.5104 -0.1093
1.1837 -0.8871 -0.1044
1.4142 -1.1296 -0.1129
1.7348 -1.4698 -0.1325
2.3464 -2.1012 -0.1226
2.4026 -2.1600 -0.1237
2.4584 -2.2170 -0.1211
2.5411 -2.3043 -0.1250
2.6275 -2.3898 -0.1138
2.6554 -2.4198 -0.1165
2.6784 -2.4456 -0.1216
2.7320 -2.5004 -0.1192
2.7565 -2.5251 -0.1174
2.7754 -2.5456 -0.1196
2.8142 -2.5856 -0.1188
2.8465 -2.6196 -0.1200
2.8635 -2.6364 -0.1178
2.8790 -2.6519 -0.1161
2.9085 -2.6807 -0.1113
2.9178 -2.6918 -0.1150
2.9271 -2.7025 -0.1180
2.9409 -2.7151 -0.1135
2.9493 -2.7250 -0.1162
2.9604 -2.7356 -0.1142
2.9707 -2.7457 -0.1124
2.9777 -2.7541 -0.1155
2.9853 -2.7626 -0.1169
2.9935 -2.7710 -0.1167
2.9998 -2.7786 -0.1195
3.0098 -2.7871 -0.1147
3.0153 -2.7940 -0.1177
0.7736 -0.5929 -0.0826
0.9215 -0.7580 -0.1339
1.2518 -1.0800 -0.1259
2.3140 -2.1217 -0.1164
2.3587 -2.1693 -0.1259
2.4212 -2.2290 -0.1212
2.4740 -2.2799 -0.1185
2.5591 -2.3632 -0.1172
2.5895 -2.3947 -0.1215
2.6211 -2.4263 -0.1227
2.6795 -2.4838 -0.1227
2.7105 -2.5124 -0.1179
2.7607 -2.5601 -0.1133
2.7752 -2.5767 -0.1195
2.8048 -2.6015 -0.1081
2.8135 -2.6139 -0.1182
2.8471 -2.6465 -0.1169
2.8645 -2.6624 -0.1137
2.8941 -2.6902 -0.1103
2.9037 -2.7011 -0.1141
2.9126 -2.7114 -0.1182
2.9220 -2.7217 -0.1209
2.9348 -2.7332 -0.1178
2.9488 -2.7447 -0.1118
2.9574 -2.7537 -0.1134
2.9673 -2.7630 -0.1123
2.9738 -2.7708 -0.1160
2.9835 -2.7795 -0.1136
2.9900 -2.7869 -0.1165
2.9990 -2.7949 -0.1141
3.0059 -2.8020 -0.1148
0.7294 -0.6743 -0.0563
0.6605 -0.6489 -0.1573
2.1660 -2.0431 -0.1316
2.3131 -2.1789 -0.1283
2.4272 -2.2844 -0.1260
2.5185 -2.3689 -0.1243
2.5556 -2.4039 -0.1251
2.5998 -2.4423 -0.1178
2.6284 -2.4699 -0.1202
2.6649 -2.5015 -0.1140
2.6902 -2.5256 -0.1151
2.7161 -2.5493 -0.1140
2.7318 -2.5666 -0.1210
2.7538 -2.5869 -0.1205
2.7764 -2.6070 -0.1178
2.7946 -2.6242 -0.1184
2.8134 -2.6411 -0.1170
2.8320 -2.6575 -0.1144
2.8485 -2.6724 -0.1131
2.8634 -2.6860 -0.1125
2.8754 -2.6981 -0.1146
2.8860 -2.7091 -0.1178
2.8992 -2.7210 -0.1165
2.9111 -2.7320 -0.1163
2.9228 -2.7425 -0.1153
2.9317 -2.7518 -0.1178
2.9453 -2.7624 -0.1122
2.9548 -2.7712 -0.1123
2.9608 -2.7787 -0.1173
2.9688 -2.7867 -0.1185
2.9781 -2.7947 -0.1169
2.9860 -2.8022 -0.1171
2.9905 -2.8086 -0.1228
0.5809 -0.6684 -0.0491
0.4468 -0.5951 -0.1653
1.9142 -1.8792 -0.1329
2.1138 -2.0552 -0.1319
2.2573 -2.1833 -0.1353
2.3966 -2.3013 -0.1222
2.4866 -2.3816 -0.1243
2.5657 -2.4508 -0.1225
2.6056 -2.4840 -0.1173
2.6378 -2.5119 -0.1158
2.6601 -2.5335 -0.1207
2.6941 -2.5608 -0.1135
2.7395 -2.6011 -0.1142
2.7821 -2.6377 -0.1116
2.7991 -2.6533 -0.1126
2.8118 -2.6663 -0.1175
2.8476 -2.6958 -0.1120
2.8578 -2.7068 -0.1170
2.8737 -2.7196 -0.1140
2.8866 -2.7310 -0.1138
2.9001 -2.7421 -0.1117
2.9093 -2.7515 -0.1149
2.9213 -2.7615 -0.1133
2.9311 -2.7704 -0.1142
2.9415 -2.7793 -0.1134
2.9491 -2.7872 -0.1163
2.9566 -2.7948 -0.1188
2.9675 -2.8030 -0.1150
2.9763 -2.8104 -0.1141
2.9796 -2.8164 -0.1222
-0.3422 0.1947 0.5072
0.8790 -0.8663 0.4086
0.5644 -0.7712 -0.0182
0.5459 -0.7911 -0.1081
0.7788 -0.9996 -0.1423
0.9957 -1.1906 -0.1664
2.2117 -2.1964 -0.1357
2.3525 -2.3105 -0.1262
2.4565 -2.3961 -0.1225
2.5042 -2.4345 -0.1186
2.5431 -2.4668 -0.1180
2.6109 -2.5232 -0.1169
2.6369 -2.5460 -0.1197
2.6619 -2.5677 -0.1216
2.6921 -2.5912 -0.1171
2.7116 -2.6089 -0.1208
2.7584 -2.6463 -0.1162
2.7752 -2.6612 -0.1185
2.7948 -2.6769 -0.1165
2.8309 -2.7055 -0.1124
2.8562 -2.7283 -0.1166
2.8804 -2.7495 -0.1188
2.8957 -2.7605 -0.1143
2.9051 -2.7694 -0.1170
2.9166 -2.7787 -0.1161
2.9259 -2.7871 -0.1176
2.9387 -2.7960 -0.1131
2.9478 -2.8038 -0.1134
2.9548 -2.8108 -0.1165
2.9638 -2.8181 -0.1158
-0.0374 -0.0843 0.8179
0.1845 -0.3066 0.7015
0.2583 -0.4032 0.6060
0.1003 -0.3119 0.5206
0.5865 -0.7347 0.4268
0.4094 -0.7682 -0.0098
0.3287 -0.7455 -0.1134
0.5910 -0.9676 -0.1489
0.8759 -1.1991 -0.1630
2.1781 -2.2179 -0.1293
2.2655 -2.2832 -0.1194
2.3201 -2.3278 -0.1226
2.3536 -2.3592 -0.1350
2.4526 -2.4367 -0.1323
2.5426 -2.5045 -0.1236
2.5884 -2.5371 -0.1142
2.6055 -2.5550 -0.1249
2.6414 -2.5810 -0.1189
2.6662 -2.6012 -0.1202
2.7176 -2.6404 -0.1163
2.7411 -2.6581 -0.1139
2.7568 -2.6721 -0.1180
2.7762 -2.6872 -0.1171
2.7955 -2.7016 -0.1150
2.8117 -2.7145 -0.1152
2.8247 -2.7260 -0.1180
2.8430 -2.7387 -0.1137
2.8558 -2.7493 -0.1148
2.8663 -2.7589 -0.1180
2.8828 -2.7699 -0.1128
2.8916 -2.7784 -0.1166
2.9231 -2.8038 -0.1175
2.9355 -2.8120 -0.1136
2.9433 -2.8191 -0.1157
2.9511 -2.8259 -0.1174
2.9582 -2.8325 -0.1199
0.3504 -0.5275 0.7865
0.2386 -0.4732 0.7129
0.3548 -0.6670 0.4481
-0.0235 -0.4604 0.2562
-0.4330 -0.2061 0.1246
0.4050 -0.9111 -0.0648
0.4134 -0.9518 -0.1502
0.7268 -1.1929 -0.1648
1.0350 -1.4231 -0.1622
1.3060 -1.6224 -0.1521
2.0444 -2.1680 -0.1311
2.1452 -2.2402 -0.1224
2.2148 -2.2929 -0.1235
2.2766 -2.3397 -0.1247
2.3290 -2.3801 -0.1274
2.4387 -2.4595 -0.1202
2.4886 -2.4948 -0.1148
2.5178 -2.5192 -0.1209
2.5816 -2.5681 -0.1237
2.6288 -2.5979 -0.1096
2.6437 -2.6132 -0.1198
2.6722 -2.6335 -0.1172
2.6940 -2.6506 -0.1188
2.7351 -2.6820 -0.1205
2.7795 -2.7125 -0.1133
2.7937 -2.7244 -0.1163
2.8071 -2.7356 -0.1193
2.8397 -2.7586 -0.1157
2.8474 -2.7673 -0.1230
2.8643 -2.7780 -0.1181
2.8765 -2.7872 -0.1182
2.8894 -2.7962 -0.1165
2.9006 -2.8046 -0.1163
2.9095 -2.8122 -0.1186
2.9245 -2.8206 -0.1116
2.9333 -2.8276 -0.1127
2.9390 -2.8340 -0.1179
2.9485 -2.8407 -0.1169
0.1889 -0.5171 0.8194
0.1013 -0.4866 0.7415
0.4189 -0.7901 0.5495
0.3798 -0.8289 0.3857
0.2207 -0.9345 -0.1518
1.3894 -1.7432 -0.1000
1.5416 -1.8555 -0.1104
1.9960 -2.1856 -0.1288
2.1570 -2.3005 -0.1302
2.2238 -2.3482 -0.1309
2.2758 -2.3872 -0.1358
2.4168 -2.4782 -0.1135
2.4529 -2.5057 -0.1183
2.4887 -2.5323 -0.1210
2.5548 -2.5805 -0.1242
2.5975 -2.6072 -0.1153
2.6284 -2.6283 -0.1132
2.6693 -2.6608 -0.1219
2.7203 -2.6946 -0.1159
2.7374 -2.7079 -0.1187
2.7594 -2.7223 -0.1157
2.7956 -2.7471 -0.1136
2.8092 -2.7577 -0.1159
2.8251 -2.7685 -0.1147
2.8385 -2.7783 -0.1154
2.8486 -2.7871 -0.1193
2.8603 -2.7960 -0.1207
2.8751 -2.8051 -0.1172
2.8890 -2.8136 -0.1140
2.9013 -2.8216 -0.1121
2.9186 -2.8356 -0.1163
2.9283 -2.8424 -0.1160
1.2434 -1.4630 0.5285
0.4399 -0.9405 0.4872
0.3677 -0.9248 0.4072
0.2108 -1.0350 -0.1179
1.2504 -1.7300 -0.1106
1.4099 -1.8424 -0.1236
1.6912 -2.0362 -0.1358
1.9336 -2.1973 -0.1317
2.1290 -2.3244 -0.1216
2.1844 -2.3647 -0.1293
2.2472 -2.4071 -0.1299
2.3131 -2.4494 -0.1250
2.3511 -2.4781 -0.1329
2.4190 -2.5183 -0.1199
2.4565 -2.5447 -0.1227
2.5387 -2.5974 -0.1166
2.5748 -2.6204 -0.1137
2.6014 -2.6392 -0.1160
2.6211 -2.6550 -0.1223
2.6694 -2.6881 -0.1238
2.6963 -2.7045 -0.1198
2.7189 -2.7190 -0.1183
2.7372 -2.7319 -0.1195
2.7604 -2.7455 -0.1148
2.7719 -2.7557 -0.1208
2.7932 -2.7678 -0.1155
2.8037 -2.7771 -0.1210
2.8464 -2.8054 -0.1201
2.8591 -2.8138 -0.1199
2.8843 -2.8298 -0.1174
2.8952 -2.8370 -0.1173
2.9036 -2.8438 -0.1199
2.9160 -2.8506 -0.1164
2.9244 -2.8569 -0.1180
0.1436 -0.8471 0.5131
0.1203 -0.8677 0.4276
-0.5673 -0.4755 0.3212
-0.2552 -0.8734 -0.1617
1.2713 -1.8075 -0.0784
1.3157 -1.8545 -0.1239
1.4285 -1.9352 -0.1460
1.7645 -2.1421 -0.1310
1.9773 -2.2769 -0.1303
2.0663 -2.3328 -0.1288
2.1407 -2.3802 -0.1293
2.2059 -2.4220 -0.1303
2.2690 -2.4613 -0.1288
2.3308 -2.4987 -0.1243
2.3783 -2.5291 -0.1250
2.4465 -2.5661 -0.1097
2.5396 -2.6298 -0.1208
2.5686 -2.6488 -0.1225
2.6304 -2.6861 -0.1177
2.6529 -2.7012 -0.1197
2.6787 -2.7166 -0.1175
2.7027 -2.7310 -0.1154
2.7206 -2.7432 -0.1176
2.7443 -2.7564 -0.1131
2.7903 -2.7877 -0.1180
2.8052 -2.7972 -0.1183
2.8200 -2.8064 -0.1178
2.8323 -2.8149 -0.1195
2.8478 -2.8235 -0.1164
2.8624 -2.8315 -0.1135
2.8695 -2.8385 -0.1194
2.8831 -2.8458 -0.1162
2.8934 -2.8525 -0.1168
2.9044 -2.8590 -0.1156
2.9089 -2.8650 -0.1231
1.0398 -1.4495 0.6229
1.2310 -1.5934 0.5526
1.1776 -1.6779 0.2733
1.2109 -1.8401 -0.0675
1.1887 -1.8536 -0.1317
1.3383 -1.9495 -0.1467
1.4890 -2.0426 -0.1532
1.9291 -2.2957 -0.1279
2.0066 -2.3444 -0.1335
2.0900 -2.3938 -0.1320
2.1802 -2.4438 -0.1224
2.2411 -2.4806 -0.1232
2.3421 -2.5426 -0.1267
2.3976 -2.5735 -0.1211
2.4358 -2.5974 -0.1234
2.5179 -2.6442 -0.1177
2.5546 -2.6648 -0.1145
2.5743 -2.6799 -0.1222
2.6311 -2.7130 -0.1200
2.6838 -2.7424 -0.1148
2.7211 -2.7661 -0.1180
2.7564 -2.7877 -0.1191
2.7760 -2.7981 -0.1160
2.7904 -2.8073 -0.1174
2.8030 -2.8159 -0.1199
2.8198 -2.8247 -0.1169
2.8497 -2.8407 -0.1122
2.8603 -2.8478 -0.1140
2.8684 -2.8545 -0.1184
2.8797 -2.8611 -0.1180
1.1996 -1.6398 0.5656
1.3037 -1.7666 0.4040
1.3305 -1.8470 0.2491
0.1631 -1.3386 -0.1111
1.0910 -1.8457 -0.0697
1.1971 -1.9196 -0.1029
1.4857 -2.0727 -0.0790
1.5677 -2.1294 -0.1036
1.6351 -2.1781 -0.1288
1.8792 -2.3148 -0.1257
2.0530 -2.4139 -0.1276
2.1212 -2.4536 -0.1305
2.2093 -2.4988 -0.1195
2.3043 -2.5564 -0.1287
2.4130 -2.6137 -0.1190
2.4850 -2.6557 -0.1220
2.5181 -2.6747 -0.1227
2.5464 -2.6917 -0.1250
2.6063 -2.7244 -0.1223
2.6566 -2.7523 -0.1211
2.7037 -2.7772 -0.1171
2.8318 -2.8496 -0.1170
2.8595 -2.8636 -0.1130
2.8651 -2.8698 -0.1203
2.8783 -2.8760 -0.1173
2.8855 -2.8819 -0.1216
1.5509 -1.8633 0.6398
1.5092 -1.8580 0.6001
0.4484 -1.3422 0.4836
1.3517 -1.9364 0.2170
1.3015 -2.0012 0.0012
1.3414 -2.0409 -0.0424
1.3348 -2.0604 -0.0966
1.5714 -2.1989 -0.1261
1.8218 -2.3321 -0.1257
1.8952 -2.3758 -0.1366
1.9947 -2.4270 -0.1322
2.0805 -2.4713 -0.1289
2.1574 -2.5108 -0.1253
2.2169 -2.5430 -0.1266
2.2884 -2.5775 -0.1182
2.3154 -2.5975 -0.1313
2.3881 -2.6296 -0.1156
2.4101 -2.6465 -0.1278
2.4599 -2.6699 -0.1206
2.4835 -2.6859 -0.1287
2.5328 -2.7072 -0.1170
2.6380 -2.7644 -0.1195
2.6608 -2.7765 -0.1196
2.6871 -2.7887 -0.1152
2.7015 -2.7985 -0.1204
2.7417 -2.8186 -0.1171
2.7559 -2.8273 -0.1199
2.7929 -2.8443 -0.1136
2.8032 -2.8517 -0.1179
2.8197 -2.8591 -0.1146
2.8308 -2.8659 -0.1167
2.8454 -2.8725 -0.1140
2.8546 -2.8787 -0.1171
2.8664 -2.8847 -0.1164
2.8746 -2.8905 -0.1196
1.4584 -1.8631 0.6579
1.4128 -1.8576 0.6173
1.4571 -1.9010 0.5677
1.4939 -2.0362 0.2943
1.4094 -2.0170 0.2398
1.3372 -2.0054 0.1823
1.0743 -1.9122 0.0916
1.2288 -2.0024 0.0619
1.2587 -2.0377 0.0143
1.1334 -2.0099 -0.0678
1.1102 -2.0250 -0.1305
1.3093 -2.1254 -0.1316
1.5055 -2.2203 -0.1234
1.6098 -2.2780 -0.1360
1.7399 -2.3423 -0.1339
1.8324 -2.3912 -0.1397
1.9545 -2.4476 -0.1283
2.0354 -2.4884 -0.1288
2.1275 -2.5307 -0.1199
2.1969 -2.5645 -0.1173
2.2487 -2.5918 -0.1204
2.2993 -2.6176 -0.1214
2.3516 -2.6427 -0.1188
2.3827 -2.6615 -0.1264
2.4718 -2.7029 -0.1186
2.5099 -2.7208 -0.1156
2.5327 -2.7348 -0.1217
2.5931 -2.7638 -0.1187
2.6462 -2.7889 -0.1151
2.6657 -2.7996 -0.1174
2.6878 -2.8102 -0.1162
2.7623 -2.8464 -0.1134
2.7738 -2.8540 -0.1176
2.7953 -2.8617 -0.1104
2.8030 -2.8685 -0.1172
2.8153 -2.8752 -0.1185
2.8320 -2.8816 -0.1139
2.8414 -2.8877 -0.1171
2.8508 -2.8935 -0.1199
2.8592 -2.8992 -0.1234
-0.2532 -0.4863 2.1101
1.5148 -1.9444 0.6575
1.4452 -1.9269 0.6219
1.3997 -1.9231 0.5809
1.4759 -2.0767 0.3072
1.4211 -2.0725 0.2567
0.9401 -1.9415 0.0338
1.0530 -2.0110 -0.0041
1.0878 -2.0487 -0.0538
1.0640 -2.0644 -0.1163
1.1538 -2.1210 -0.1495
1.5469 -2.2996 -0.1337
1.6688 -2.3585 -0.1369
1.7673 -2.4074 -0.1427
1.8920 -2.4621 -0.1330
1.9568 -2.4967 -0.1425
2.1387 -2.5756 -0.1266
2.2463 -2.6285 -0.1315
2.3685 -2.6798 -0.1168
2.4382 -2.7154 -0.1231
2.5023 -2.7469 -0.1260
2.5429 -2.7629 -0.1187
2.5669 -2.7755 -0.1219
2.6288 -2.8010 -0.1130
2.6468 -2.8112 -0.1171
2.6646 -2.8209 -0.1203
2.6795 -2.8301 -0.1252
2.7085 -2.8399 -0.1162
2.7289 -2.8485 -0.1139
2.7417 -2.8563 -0.1181
2.7516 -2.8638 -0.1245
2.7764 -2.8713 -0.1147
2.7889 -2.8781 -0.1168
2.8033 -2.8846 -0.1162
2.8167 -2.8908 -0.1159
2.8272 -2.8968 -0.1182
2.8386 -2.9024 -0.1189
2.8472 -2.9080 -0.1225
1.5059 -1.9880 0.6650
1.4329 -2.1254 0.2727
1.3022 -2.0935 0.2126
1.1174 -2.1378 -0.0787
1.0530 -2.1403 -0.1504
1.4829 -2.3222 -0.1310
1.6104 -2.3802 -0.1346
1.7291 -2.4330 -0.1350
1.8261 -2.4772 -0.1380
1.9549 -2.5277 -0.1230
2.1061 -2.5946 -0.1228
2.1892 -2.6273 -0.1133
2.2270 -2.6482 -0.1231
2.3347 -2.6940 -0.1186
2.3719 -2.7120 -0.1223
2.4078 -2.7291 -0.1248
2.4832 -2.7612 -0.1220
2.5520 -2.7892 -0.1163
2.6084 -2.8128 -0.1131
2.6383 -2.8238 -0.1079
2.6517 -2.8329 -0.1152
2.6688 -2.8419 -0.1185
2.6897 -2.8507 -0.1175
2.7096 -2.8590 -0.1163
2.7264 -2.8668 -0.1170
2.7404 -2.8741 -0.1198
2.7533 -2.8812 -0.1228
2.7756 -2.8878 -0.1153
2.7875 -2.8942 -0.1179
2.8002 -2.9002 -0.1189
2.8100 -2.9061 -0.1225
2.8263 -2.9114 -0.1179
2.8379 -2.9166 -0.1182
1.5153 -2.0389 0.6699
1.3861 -2.1535 0.2835
1.3174 -2.1480 0.2306
0.6511 -1.9848 -0.0298
1.1403 -2.1967 -0.0501
1.0649 -2.1968 -0.1221
1.1505 -2.2462 -0.1541
1.4354 -2.3508 -0.1227
1.5499 -2.4025 -0.1324
1.6597 -2.4506 -0.1381
1.7886 -2.5012 -0.1314
1.9220 -2.5501 -0.1165
1.9716 -2.5768 -0.1306
2.0507 -2.6089 -0.1290
2.1975 -2.6658 -0.1198
2.2470 -2.6875 -0.1223
2.2973 -2.7082 -0.1220
2.3962 -2.7461 -0.1147
2.4640 -2.7756 -0.1180
2.5281 -2.8019 -0.1171
2.5817 -2.8244 -0.1177
2.6707 -2.8617 -0.1186
2.6860 -2.8696 -0.1222
2.7013 -2.8772 -0.1251
2.7282 -2.8845 -0.1160
2.7433 -2.8912 -0.1172
2.7613 -2.8976 -0.1147
2.7801 -2.9035 -0.1104
2.7834 -2.9098 -0.1218
2.7963 -2.9155 -0.1224
2.8140 -2.9204 -0.1169
1.5231 -2.0868 0.6747
1.3648 -2.1713 0.3414
1.3887 -2.1997 0.2978
1.3531 -2.2070 0.2495
1.2723 -2.2000 0.1941
0.5528 -1.9862 0.0442
0.4303 -1.9762 -0.0415
1.1359 -2.2446 -0.0287
0.9767 -2.2222 -0.1188
1.0810 -2.2755 -0.1479
1.4788 -2.4233 -0.1328
1.5866 -2.4689 -0.1415
1.7381 -2.5224 -0.1293
1.8375 -2.5613 -0.1298
1.9248 -2.5955 -0.1305
2.0212 -2.6296 -0.1231
2.0962 -2.6578 -0.1207
2.1605 -2.6824 -0.1200
2.2183 -2.7046 -0.1194
2.2654 -2.7239 -0.1218
2.3082 -2.7416 -0.1243
2.3870 -2.7735 -0.1272
2.4272 -2.7882 -0.1252
2.5172 -2.8159 -0.1086
2.5364 -2.8264 -0.1155
2.6276 -2.8646 -0.1218
2.6544 -2.8729 -0.1171
2.6741 -2.8807 -0.1174
2.7141 -2.8948 -0.1142
2.7265 -2.9015 -0.1184
2.7488 -2.9074 -0.1122
2.7684 -2.9195 -0.1225
2.7845 -2.9248 -0.1201
2.8025 -2.9294 -0.1148
1.3357 -5.6675 1.0587
1.3471 -5.5815 1.0504
1.3817 -5.4729 1.0351
1.3550 -5.2226 1.0254
1.2703 -5.2294 1.0461
1.4189 -4.9716 0.9939
-0.3799 -5.3638 1.4498
-0.4017 -5.2639 1.4486
0.7259 -2.8745 1.0243
0.7284 -2.8190 1.0202
0.7000 -2.7556 1.0229
0.1849 -1.9143 1.0919
0.1701 -1.8467 1.0910
1.3485 -5.5929 0.9956
1.3717 -5.4955 0.9847
1.3591 -5.4376 0.9840
1.2460 -5.1898 0.9937
1.4316 -4.9695 0.9405
-0.2966 -5.4390 1.3423
-0.3562 -5.3598 1.3504
-0.9031 -3.2574 1.3436
0.7553 -2.8758 0.9621
0.7589 -2.8210 0.9581
-0.7368 -1.6744 1.2133
-0.4055 -1.7492 1.1461
0.1558 -1.8888 1.0330
1.3384 -5.6172 0.9429
1.2471 -5.2698 0.9416
1.4753 -4.9421 0.8797
1.4222 -4.9218 0.8889
-0.7896 -4.0833 1.2699
-1.2507 -3.3443 1.3187
0.7821 -2.9325 0.9041
0.7693 -2.8734 0.9033
0.7564 -2.8144 0.9026
0.6621 -2.7323 0.9163
-0.6582 -1.7767 1.1190
-0.5340 -1.7529 1.0938
0.1721 -1.8861 0.9648
1.4003 -5.5617 0.8727
1.3367 -5.2701 0.8691
1.4891 -5.0015 0.8300
1.4253 -4.9912 0.8403
1.4134 -4.9366 0.8397
2.0157 -4.3366 0.7082
2.0367 -4.2815 0.7019
1.9189 -4.1852 0.7171
-0.8325 -3.3515 1.1417
-0.8548 -3.2494 1.1404
0.6609 -2.9602 0.8697
0.7811 -2.9269 0.8477
0.7995 -2.8750 0.8420
0.8018 -2.8203 0.8389
0.7422 -2.7486 0.8455
0.8377 -2.7225 0.8280
0.7944 -2.6555 0.8320
-0.6749 -1.7568 1.0365
-0.5846 -1.7173 1.0192
-0.5324 -1.6641 1.0078
-0.0654 -1.8190 0.9364
0.1883 -1.8834 0.8966
1.4703 -5.4965 0.8037
1.3775 -5.5269 0.8185
1.3401 -5.4205 0.8193
1.3632 -5.3261 0.8117
1.4195 -5.2035 0.7982
1.5425 -5.0263 0.7725
1.5118 -4.9907 0.7754
1.3715 -5.0440 0.7981
1.4151 -4.9433 0.7873
2.0290 -4.3319 0.6712
2.0269 -4.2920 0.6698
2.0133 -4.2596 0.6703
1.9957 -4.2292 0.6716
1.6146 -4.1953 0.7254
1.4530 -4.2108 0.7496
1.5774 -4.1102 0.7271
1.5592 -4.0667 0.7278
-1.2517 -3.3338 1.1039
0.5246 -2.9915 0.8308
0.7100 -2.9645 0.8027
0.8101 -2.9278 0.7865
0.7661 -2.8612 0.7900
0.7205 -2.7927 0.7936
0.8332 -2.7684 0.7761
0.7902 -2.7014 0.7794
0.8670 -2.6728 0.7670
0.7008 -2.5621 0.7863
0.4926 -2.4292 0.8107
0.1423 -2.1663 0.8500
-0.6537 -1.7533 0.9475
-0.8298 -1.5922 0.9660
-0.6928 -1.5744 0.9453
0.1974 -1.9382 0.8320
-0.0369 -1.7556 0.8580
2.4700 -4.4808 0.5888
2.4558 -4.4651 0.5899
2.4431 -4.4469 0.5907
2.4347 -4.4234 0.5908
2.4140 -4.4130 0.5929
1.5910 -4.9310 0.7126
1.4281 -4.9411 0.7327
2.0202 -4.3005 0.6362
2.0170 -4.2612 0.6351
2.0091 -4.2249 0.6346
1.5669 -4.2190 0.6879
1.5372 -4.1276 0.6880
1.4814 -4.0956 0.6935
-0.1810 -2.9427 0.8500
0.6872 -3.0149 0.7478
0.6905 -2.9553 0.7450
0.8401 -2.9291 0.7259
0.8571 -2.8777 0.7219
0.8595 -2.8238 0.7195
0.9199 -2.7874 0.7108
0.8192 -2.7038 0.7197
0.8217 -2.6509 0.7174
0.7314 -2.5656 0.7250
0.7019 -2.5000 0.7260
0.5318 -2.3775 0.7419
-0.0164 -2.0897 0.7971
-0.6698 -1.7334 0.8624
-0.8489 -1.5696 0.8777
-0.5272 -1.6405 0.8415
0.3016 -1.9795 0.7543
0.2428 -1.8895 0.7580
0.4533 -1.9434 0.7346
0.5670 -1.9519 0.7211
1.5693 -4.2210 0.6417
1.5126 -4.1392 0.6445
1.1372 -4.0314 0.6771
0.9341 -3.1653 0.6678
0.8623 -3.0981 0.6725
0.8493 -3.0387 0.6717
0.8962 -2.9914 0.6656
0.8983 -2.9367 0.6636
0.8857 -2.8791 0.6629
0.9167 -2.8333 0.6584
0.8455 -2.7595 0.6628
0.7552 -2.6770 0.6687
0.8051 -2.6384 0.6626
0.7607 -2.5688 0.6646
0.7643 -2.5160 0.6625
0.7196 -2.4444 0.6644
0.6705 -2.1553 0.6595
0.4247 -1.9739 0.6771
0.4866 -1.9510 0.6704
0.6970 -2.0149 0.6522
1.2983 -6.2275 0.6706
1.1961 -6.2797 0.6794
1.9721 -5.1233 0.5915
2.0034 -5.0310 0.5867
2.0057 -4.7270 0.5780
1.9349 -4.7464 0.5837
2.0454 -4.3341 0.5642
1.5806 -4.2191 0.5943
1.5170 -4.1932 0.5981
1.1096 -3.1324 0.5976
0.7955 -2.7943 0.6107
0.8593 -2.7572 0.6051
0.7210 -2.6593 0.6122
0.7077 -2.5983 0.6115
0.8062 -2.5778 0.6039
0.8391 -2.5370 0.6004
0.5380 -1.9686 0.6060
1.2856 -6.1777 0.6051
1.9765 -4.7637 0.5413
1.9147 -4.7733 0.5444
1.8326 -4.7976 0.5487
1.7111 -4.8511 0.5556
1.7124 -4.6813 0.5517
2.0254 -4.3528 0.5298
1.8292 -4.2498 0.5366
1.5481 -4.2366 0.5493
1.5375 -4.1877 0.5487
0.4982 -3.0982 0.5725
1.0728 -3.0697 0.5452
0.9671 -2.9958 0.5484
0.9401 -2.9355 0.5483
0.8562 -2.8048 0.5493
0.7647 -2.7226 0.5517
0.3549 -2.5347 0.5665
0.3615 -2.4722 0.5648
0.4911 -2.4554 0.5584
0.5721 -2.4262 0.5540
0.4622 -2.3232 0.5568
0.3008 -2.1939 0.5614
0.3357 -2.0856 0.5573
0.5796 -2.0897 0.5461
0.6896 -2.0419 0.5399
0.6439 -1.9643 0.5403
0.6138 -1.8948 0.5401
1.2438 -6.3433 0.5428
1.3014 -6.1751 0.5388
1.5863 -5.3604 0.5191
1.3994 -5.4940 0.5253
1.5720 -5.2414 0.5174
1.5897 -5.1576 0.5156
1.7032 -4.9841 0.5103
1.7718 -4.8616 0.5068
1.3697 -5.0911 0.5191
1.4801 -4.9324 0.5141
1.4999 -4.8529 0.5123
1.7360 -4.6154 0.5034
1.9929 -4.3804 0.4941
1.5510 -4.2385 0.5009
1.5490 -4.1857 0.5001
1.1519 -4.0935 0.5068
0.6140 -3.1091 0.5014
0.9392 -2.9299 0.4916
0.9120 -2.8686 0.4911
0.9569 -2.8266 0.4895
0.6612 -2.6847 0.4933
0.2440 -2.4230 0.4976
0.1474 -2.1846 0.4956
0.1559 -2.1213 0.4943
-0.0141 -1.9780 0.4955
-0.0865 -1.8747 0.4952
-0.0216 -1.8370 0.4932
0.4057 -1.9899 0.4869
0.4512 -1.9560 0.4854
0.1333 -1.7221 0.4881
0.0438 -1.6078 0.4880
1.2597 -6.2515 0.4731
1.3524 -5.5579 0.4658
1.4811 -5.3474 0.4641
1.7129 -4.9247 0.4605
1.4626 -5.0215 0.4603
1.3708 -5.0301 0.4600
2.0075 -4.3750 0.4557
1.5867 -4.1730 0.4514
1.5315 -4.1420 0.4508
1.0224 -4.2681 0.4497
1.0675 -4.1857 0.4490
1.0837 -4.1152 0.4483
0.4899 -3.0870 0.4338
0.6338 -3.0424 0.4340
0.8112 -3.0117 0.4345
0.9941 -2.9913 0.4352
0.9384 -2.9243 0.4342
0.9258 -2.8663 0.4335
0.8840 -2.8001 0.4325
0.8249 -2.7274 0.4314
0.6623 -2.6187 0.4294
0.3068 -2.4361 0.4256
-0.5585 -2.0490 0.4169
-0.5038 -1.9864 0.4165
0.1395 -2.1711 0.4218
-0.1780 -1.9651 0.4179
-0.4553 -1.7648 0.4143
0.0071 -1.7719 0.4166
-0.3626 -1.5053 0.4118
-0.0260 -1.6204 0.4148
-0.2413 -1.4293 0.4116
-0.1995 -1.3846 0.4113
1.4854 -5.9584 0.4098
1.3984 -5.9958 0.4073
1.5596 -5.7046 0.4107
1.5683 -5.6198 0.4105
1.3560 -5.7247 0.4045
1.3153 -5.6916 0.4031
1.3012 -5.6273 0.4023
1.4267 -5.4165 0.4050
1.3648 -5.4060 0.4030
1.7245 -4.9227 0.4116
1.6709 -4.9119 0.4098
1.5384 -4.9657 0.4060
1.4636 -4.9631 0.4037
1.4736 -4.8893 0.4036
2.0365 -4.3593 0.4182
1.9982 -4.3420 0.4169
1.8981 -4.3624 0.4139
1.5262 -4.2010 0.4014
1.4766 -4.1656 0.3997
1.2684 -4.1839 0.3933
1.2179 -4.1394 0.3915
1.0687 -4.1215 0.3867
0.4214 -3.0723 0.3608
0.3134 -2.9843 0.3570
0.9665 -2.9254 0.3770
0.9960 -2.8787 0.3776
0.8979 -2.7978 0.3741
0.9433 -2.7570 0.3753
0.8418 -2.6704 0.3717
0.8288 -2.6110 0.3709
0.5042 -2.3738 0.3595
0.0018 -2.1032 0.3424
-0.4501 -1.8338 0.3269
-0.8170 -1.5850 0.3141
-0.7552 -1.5282 0.3157
-0.5081 -1.5681 0.3236
0.0250 -1.7689 0.3413
-0.4424 -1.4477 0.3250
1.4966 -5.8026 0.3486
1.3189 -5.9499 0.3383
1.4061 -5.5264 0.3435
1.4636 -5.3901 0.3468
1.6862 -4.9677 0.3598
1.7645 -4.8365 0.3643
1.5714 -4.9462 0.3531
1.4664 -4.9696 0.3471
2.0256 -4.3720 0.3795
1.9261 -4.3490 0.3737
1.8869 -4.3267 0.3715
1.8843 -4.2812 0.3714
1.8362 -4.2610 0.3686
1.7727 -4.2461 0.3649
1.6803 -4.2416 0.3596
1.5859 -4.2327 0.3542
1.5200 -4.2065 0.3504
1.4390 -4.1828 0.3457
1.3513 -4.1571 0.3407
1.1395 -4.1670 0.3285
1.0091 -4.1408 0.3210
0.3937 -3.0630 0.2858
0.5888 -3.0243 0.2970
0.8080 -3.0006 0.3097
0.8270 -2.9450 0.3108
0.8924 -2.9021 0.3146
0.9532 -2.8617 0.3181
0.9262 -2.7996 0.3165
0.9569 -2.7547 0.3183
0.8402 -2.6629 0.3116
0.9026 -2.6298 0.3152
0.6466 -2.4800 0.3005
0.5393 -2.3789 0.2944
-0.0346 -2.0770 0.2614
-0.7327 -1.6958 0.2213
-0.9247 -1.5205 0.2102
-0.7327 -1.5244 0.2213
-0.1332 -1.7439 0.2558
0.2459 -1.8105 0.2776
0.3194 -1.7905 0.2819
1.1233 -2.1610 0.3281
1.8698 -4.7495 0.3251
1.8502 -4.6596 0.3240
2.0227 -4.4242 0.3400
2.0249 -4.3776 0.3405
2.0165 -4.3389 0.3400
1.9583 -4.3327 0.3351
1.8459 -4.3565 0.3255
1.7815 -4.3452 0.3201
1.6014 -4.3381 0.3049
1.5812 -4.2930 0.3035
1.5797 -4.2388 0.3037
1.5027 -4.2168 0.2973
1.3982 -4.2013 0.2886
1.1393 -4.2350 0.2665
-0.5983 -4.5009 0.1181
0.4400 -2.9938 0.2151
0.5502 -2.9454 0.2247
0.7420 -2.9209 0.2410
0.8129 -2.8771 0.2473
0.9089 -2.8440 0.2556
0.8959 -2.7846 0.2549
0.8829 -2.7252 0.2541
0.7909 -2.6392 0.2469
0.6577 -2.5350 0.2363
0.6797 -2.4844 0.2384
-0.8574 -1.7163 0.1133
-0.3075 -1.8717 0.1588
-0.3263 -1.7856 0.1577
-0.3451 -1.6994 0.1567
1.1683 -2.2219 0.2813
1.1898 -2.1927 0.2833
1.8562 -4.8249 0.2768
1.8171 -4.8054 0.2726
2.0522 -4.4073 0.3037
2.0075 -4.3953 0.2988
1.9365 -4.3989 0.2909
1.8593 -4.4021 0.2822
1.8083 -4.3844 0.2767
1.7249 -4.3828 0.2674
1.6661 -4.3626 0.2611
1.3215 -4.2961 0.2234
0.3566 -2.8302 0.1333
0.7465 -2.7944 0.1773
0.7501 -2.7356 0.1784
0.7363 -2.6722 0.1777
0.3903 -2.4964 0.1411
0.5015 -2.4706 0.1539
0.6589 -2.4681 0.1715
0.5324 -2.3581 0.1587
-0.3339 -1.9264 0.0671
-0.9454 -1.5720 0.0031
-1.1106 -1.4026 -0.0133
-0.8119 -1.4557 0.0194
-0.7501 -1.4007 0.0270
-0.3960 -1.5057 0.0653
1.1799 -2.2199 0.2327
1.1799 -2.1776 0.2332
1.7711 -4.9150 0.2159
1.7985 -4.8308 0.2213
1.1617 -5.3333 0.1235
1.9621 -4.5304 0.2495
1.9932 -4.4579 0.2551
1.9439 -4.4470 0.2485
1.9109 -4.4218 0.2443
1.8358 -4.4227 0.2338
1.5555 -4.4872 0.1936
1.1070 -4.6770 0.1278
1.0927 -4.6114 0.1269
1.1681 -4.3644 0.1419
-0.4317 -4.8043 -0.0888
-0.5436 -4.7253 -0.1030
-0.4788 -4.5884 -0.0915
-0.4177 -4.4579 -0.0806
-0.4407 -4.3524 -0.0819
-0.3419 -4.2217 -0.0658
-0.4044 -4.1268 -0.0727
-0.5532 -4.0424 -0.0919
-0.6437 -3.8330 -0.1008
-0.5789 -3.7194 -0.0897
-0.3958 -3.6065 -0.0621
-0.4572 -3.5069 -0.0689
-0.4793 -3.4059 -0.0701
-0.6940 -3.1919 -0.0962
-0.6734 -3.0907 -0.0915
-0.5674 -3.0021 -0.0751
-0.1148 -2.9713 -0.0115
-0.0410 -2.8988 0.0001
0.0871 -2.8418 0.0189
0.1515 -2.7777 0.0291
0.5528 -2.8008 0.0845
0.2702 -2.6588 0.0477
0.1523 -2.5527 0.0332
0.4229 -2.5653 0.0707
0.4073 -2.4936 0.0698
0.5576 -2.4824 0.0909
0.6196 -2.4445 0.1003
0.5673 -2.3633 0.0944
-0.3469 -1.9084 -0.0246
-0.6646 -1.6844 -0.0648
-0.8981 -1.4876 -0.0938
-0.4403 -1.6251 -0.0325
-0.3897 -1.5719 -0.0245
-0.2761 -1.5558 -0.0084
-0.1403 -1.5577 0.0105
1.1018 -2.1200 0.1733
2.6096 -4.2838 0.3205
2.5860 -4.2825 0.3166
2.5776 -4.2626 0.3156
2.5561 -4.2566 0.3122
2.5491 -4.2341 0.3116
2.5297 -4.2239 0.3086
1.8204 -4.8768 0.1742
0.7131 -5.7416 -0.0319
0.9981 -5.4020 0.0240
1.0870 -5.0815 0.0466
1.7128 -4.5093 0.1651
0.7265 -4.9829 -0.0113
1.0441 -4.7182 0.0482
1.1527 -4.5855 0.0696
1.0473 -4.5660 0.0525
1.0952 -4.4703 0.0628
1.1958 -4.3564 0.0824
1.1544 -4.3056 0.0767
0.0518 -4.5338 -0.1132
-0.1397 -4.4908 -0.1442
-0.1250 -4.3823 -0.1391
-0.0424 -4.2598 -0.1223
0.0027 -4.1514 -0.1122
-0.0176 -4.0584 -0.1133
-0.0712 -3.9704 -0.1201
-0.1953 -3.8889 -0.1389
-0.2164 -3.7921 -0.1401
-0.2375 -3.6953 -0.1413
-0.2587 -3.5985 -0.1425
-0.3172 -3.5020 -0.1499
-0.2654 -3.4056 -0.1389
-0.2495 -3.3114 -0.1340
-0.2352 -3.2191 -0.1294
-0.2557 -3.1252 -0.1305
-0.1067 -3.0524 -0.1039
0.3792 -2.9655 -0.0205
0.4536 -2.9079 -0.0067
0.5238 -2.8540 0.0063
0.5896 -2.8031 0.0186
0.5745 -2.7340 0.0177
0.5594 -2.6650 0.0169
0.4461 -2.4983 0.0020
0.5142 -2.4579 0.0143
0.6352 -2.4419 0.0349
0.6019 -2.3684 0.0311
0.0408 -2.0644 -0.0553
-0.0047 -1.9720 -0.0607
-0.0222 -1.8918 -0.0617
-0.0976 -1.7825 -0.0716
-0.0572 -1.7313 -0.0636
-0.1333 -1.6192 -0.0736
-0.2171 -1.3559 -0.0813
1.4532 -5.4662 0.0346
1.4872 -5.3546 0.0446
1.7620 -4.9424 0.1108
1.7912 -4.8550 0.1192
1.3215 -5.1387 0.0187
1.3332 -5.0545 0.0236
