ply
format ascii 1.0
element vertex 2102
property float x
property float y
property float z
end_header
3.3828 -2.3772 -0.2579
3.3763 -2.3887 -0.2555
3.3647 -2.4019 -0.2641
6.3338 1.3266 1.7332
4.2000 -1.4349 0.4620
4.2323 -1.3437 0.4005
4.2880 -1.2320 0.3690
4.3912 -1.0388 0.3331
4.4849 -0.8548 0.2865
5.1540 0.5999 -0.2759
4.3485 -0.8167 -0.1450
4.0598 -1.2121 -0.2815
3.9332 -1.4206 -0.2839
3.7108 -1.8287 -0.2202
3.7075 -1.8090 -0.2613
3.6790 -1.8558 -0.2622
3.5636 -2.1036 -0.1700
3.5555 -2.1041 -0.1911
3.5659 -2.0448 -0.2599
3.5487 -2.0729 -0.2605
3.5332 -2.0975 -0.2625
3.5182 -2.1219 -0.2631
3.5037 -2.1468 -0.2617
3.4904 -2.1692 -0.2613
3.4669 -2.2068 -0.2635
3.4444 -2.2478 -0.2573
3.4356 -2.2590 -0.2629
3.4257 -2.2787 -0.2577
3.4091 -2.3044 -0.2608
3.4010 -2.3190 -0.2588
3.3933 -2.3335 -0.2559
3.3798 -2.3529 -0.2609
3.3669 -2.3773 -0.2559
3.3610 -2.3867 -0.2564
3.3554 -2.3938 -0.2600
6.2237 1.2148 1.9696
4.2274 -1.2506 0.3763
4.3502 -1.0130 0.3442
4.4318 -0.8394 0.2990
5.0629 0.6332 -0.2473
4.8455 0.2669 -0.2727
4.2756 -0.7966 -0.1827
3.9110 -1.3732 -0.2824
3.6978 -1.8158 -0.1809
3.6859 -1.7883 -0.2545
3.6554 -1.8447 -0.2504
3.5480 -2.0909 -0.1641
3.5444 -2.0760 -0.1964
3.5473 -2.0357 -0.2494
3.5349 -2.0492 -0.2622
3.5032 -2.1075 -0.2584
3.4661 -2.1685 -0.2651
3.4532 -2.1967 -0.2569
3.4427 -2.2148 -0.2574
3.4329 -2.2312 -0.2587
3.4238 -2.2458 -0.2610
3.4149 -2.2611 -0.2615
3.4063 -2.2771 -0.2603
3.3979 -2.2945 -0.2563
3.3906 -2.3047 -0.2604
3.3834 -2.3163 -0.2619
3.3764 -2.3295 -0.2607
3.3698 -2.3417 -0.2599
3.3634 -2.3546 -0.2573
3.3462 -2.3843 -0.2583
4.5865 -0.7266 0.7174
4.1080 -1.4036 0.4090
4.8232 0.4190 -0.2686
4.2174 -0.7929 -0.1610
4.2140 -0.7527 -0.2262
4.1738 -0.7972 -0.2696
3.8713 -1.3688 -0.2629
3.6671 -1.7587 -0.2527
3.6429 -1.7995 -0.2591
3.5323 -2.0792 -0.1575
3.5331 -2.0113 -0.2507
3.5175 -2.0388 -0.2531
3.5050 -2.0549 -0.2632
3.4902 -2.0838 -0.2617
3.4645 -2.1314 -0.2626
3.4518 -2.1587 -0.2576
3.4416 -2.1749 -0.2618
3.4203 -2.2210 -0.2530
3.4118 -2.2334 -0.2580
3.4036 -2.2449 -0.2634
3.3876 -2.2741 -0.2645
3.3728 -2.3053 -0.2596
3.3596 -2.3336 -0.2546
3.3478 -2.3527 -0.2589
3.3422 -2.3649 -0.2563
3.3370 -2.3762 -0.2542
4.5467 -0.7805 0.8494
4.3356 -0.7974 0.3234
4.6201 0.1689 -0.1951
4.4840 -0.0796 -0.2253
4.1967 -0.7039 -0.1591
4.1375 -0.7968 -0.1918
3.9060 -1.2497 -0.2038
3.8706 -1.3027 -0.2270
3.8526 -1.3087 -0.2659
3.8239 -1.3463 -0.2915
3.6286 -1.8305 -0.1688
3.6415 -1.7506 -0.2390
3.6263 -1.7640 -0.2613
3.5173 -2.0648 -0.1528
3.5194 -1.9821 -0.2551
3.5043 -2.0093 -0.2587
3.4911 -2.0302 -0.2658
3.4752 -2.0683 -0.2576
3.4629 -2.0905 -0.2607
3.4502 -2.1178 -0.2581
3.4395 -2.1361 -0.2620
3.4288 -2.1578 -0.2617
3.4178 -2.1853 -0.2544
3.4088 -2.2006 -0.2578
3.3837 -2.2493 -0.2597
3.3761 -2.2658 -0.2581
3.3689 -2.2797 -0.2585
3.3556 -2.3096 -0.2542
3.3495 -2.3174 -0.2599
3.3437 -2.3333 -0.2544
3.3380 -2.3418 -0.2581
3.3327 -2.3534 -0.2568
3.3275 -2.3626 -0.2584
4.5053 -0.8380 0.9641
4.4965 -0.8249 0.9256
4.4996 -0.7909 0.8926
3.9135 -1.0533 -0.2941
3.6044 -1.8275 -0.1548
3.5118 -2.0448 -0.1307
3.5047 -2.0396 -0.1551
3.5060 -1.9478 -0.2624
3.4760 -2.0094 -0.2649
3.4625 -2.0377 -0.2656
3.4486 -2.0728 -0.2590
3.4367 -2.0988 -0.2582
3.4265 -2.1158 -0.2639
3.4054 -2.1686 -0.2546
3.3879 -2.2041 -0.2566
3.3798 -2.2212 -0.2568
3.3723 -2.2330 -0.2617
3.3580 -2.2666 -0.2580
3.3393 -2.3085 -0.2557
3.3336 -2.3214 -0.2546
3.3281 -2.3292 -0.2595
3.3231 -2.3435 -0.2549
4.4709 -0.9110 1.0967
4.4904 -0.8530 1.0816
4.4592 -0.8784 1.0307
4.0714 -1.2033 0.4097
4.0995 -1.1102 0.3772
3.6593 -1.9286 0.1726
3.6527 -1.9239 0.1507
3.6453 -1.9211 0.1287
3.8452 -1.1827 -0.1861
3.8627 -1.0714 -0.2658
3.7697 -1.2700 -0.2803
3.5797 -1.8299 -0.1388
3.5679 -1.8365 -0.1615
3.4994 -2.0173 -0.1337
3.4913 -2.0157 -0.1561
3.4892 -1.9275 -0.2595
3.4602 -1.9922 -0.2612
3.4356 -2.0432 -0.2667
3.4131 -2.0961 -0.2650
3.3931 -2.1455 -0.2604
3.3235 -2.3084 -0.2557
3.3135 -2.3336 -0.2531
3.3084 -2.3405 -0.2583
4.0075 -1.2532 0.4127
3.6723 -1.9429 0.2810
3.6488 -1.9428 0.2219
3.6415 -1.9407 0.2017
3.8416 -1.1152 -0.1442
3.7950 -1.0959 -0.2809
3.7502 -1.1998 -0.2863
3.7012 -1.3294 -0.2761
3.5436 -1.8436 -0.1433
3.4878 -1.9826 -0.1404
3.4722 -1.9080 -0.2559
3.4444 -1.9730 -0.2588
3.4196 -2.0370 -0.2554
3.3989 -2.0825 -0.2605
3.3896 -2.1000 -0.2658
3.3806 -2.1183 -0.2695
3.3720 -2.1391 -0.2697
3.3560 -2.1921 -0.2556
3.3421 -2.2228 -0.2588
3.3357 -2.2384 -0.2589
3.3237 -2.2666 -0.2598
3.3183 -2.2819 -0.2576
3.3132 -2.2962 -0.2558
3.3082 -2.3086 -0.2555
3.3032 -2.3175 -0.2591
3.2984 -2.3272 -0.2611
3.6491 -1.9495 0.2860
3.6423 -1.9472 0.2669
3.6342 -1.9480 0.2478
3.6257 -1.9500 0.2286
3.5770 -2.0503 0.2028
3.5693 -2.0530 0.1860
3.5599 -2.0607 0.1701
3.7885 -1.1597 -0.1146
3.5216 -1.8448 -0.1287
3.5067 -1.8719 -0.1399
3.4724 -1.9656 -0.1365
3.4700 -1.8511 -0.2506
3.4564 -1.8778 -0.2590
3.4423 -1.9139 -0.2599
3.4291 -1.9479 -0.2603
3.3951 -2.0350 -0.2624
3.3850 -2.0633 -0.2606
3.3760 -2.0811 -0.2662
3.3244 -2.2277 -0.2554
3.3188 -2.2452 -0.2528
3.3129 -2.2546 -0.2585
3.3079 -2.2720 -0.2544
3.3028 -2.2838 -0.2559
3.2978 -2.2947 -0.2579
3.2928 -2.3029 -0.2627
3.2886 -2.3163 -0.2604
3.6385 -1.9652 0.3270
3.6325 -1.9615 0.3090
3.5536 -2.0715 0.2111
3.5425 -2.0867 0.1970
3.5346 -2.0912 0.1816
3.7365 -1.2143 -0.0842
3.7722 -1.0022 -0.1808
3.7800 -0.8905 -0.2586
3.4764 -2.1118 0.0567
3.4574 -1.9446 -0.1348
3.4485 -1.9438 -0.1573
3.4545 -1.8090 -0.2594
3.4257 -1.8917 -0.2583
3.3619 -2.0735 -0.2571
3.3536 -2.0952 -0.2585
3.3457 -2.1150 -0.2606
3.3383 -2.1345 -0.2619
3.3312 -2.1511 -0.2648
3.3247 -2.1723 -0.2625
3.3185 -2.1905 -0.2619
3.3073 -2.2275 -0.2572
3.3017 -2.2398 -0.2602
3.2971 -2.2575 -0.2563
3.2920 -2.2687 -0.2590
3.2873 -2.2807 -0.2602
3.2833 -2.2962 -0.2563
3.2790 -2.3072 -0.2574
3.6680 -1.9846 0.4636
3.6620 -1.9827 0.4477
3.6358 -1.9604 0.3663
3.6299 -1.9565 0.3490
3.6232 -1.9549 0.3313
3.5344 -2.0832 0.2178
3.5235 -2.0995 0.2043
3.5159 -2.1040 0.1895
3.5076 -2.1117 0.1754
3.7070 -1.1154 -0.1323
3.7034 -1.0524 -0.1912
3.4650 -2.0948 0.0587
3.4692 -1.8568 -0.1203
3.4538 -1.9029 -0.1211
3.4422 -1.9233 -0.1330
3.4334 -1.9195 -0.1572
3.4246 -1.9146 -0.1824
3.4182 -1.8779 -0.2273
3.4092 -1.8643 -0.2598
3.3977 -1.8896 -0.2676
3.3857 -1.9375 -0.2588
3.3657 -1.9919 -0.2641
3.3480 -2.0534 -0.2582
3.3323 -2.0899 -0.2673
3.3187 -2.1373 -0.2627
3.3066 -2.1774 -0.2601
3.2957 -2.2113 -0.2597
3.2911 -2.2313 -0.2547
3.2863 -2.2456 -0.2551
3.2762 -2.2646 -0.2646
3.2729 -2.2832 -0.2577
3.2686 -2.2934 -0.2600
3.6920 -1.9475 0.5395
3.6816 -1.9560 0.5207
3.6723 -1.9621 0.5027
3.6649 -1.9636 0.4860
3.6571 -1.9662 0.4691
3.6505 -1.9654 0.4528
3.6448 -1.9624 0.4368
3.6293 -1.9466 0.3881
3.6234 -1.9426 0.3711
3.6178 -1.9375 0.3538
3.6063 -1.9014 0.3000
3.6014 -1.8910 0.2808
3.5038 -2.1198 0.2122
3.4953 -2.1296 0.1989
3.4892 -2.1297 0.1843
3.4831 -2.1297 0.1696
3.4468 -1.8861 -0.0942
3.4366 -1.8955 -0.1120
3.4270 -1.8988 -0.1326
3.4175 -1.9020 -0.1532
3.4082 -1.9011 -0.1762
3.3919 -1.8446 -0.2562
3.3698 -1.9120 -0.2604
3.3600 -1.9343 -0.2679
3.3505 -1.9755 -0.2608
3.3337 -2.0281 -0.2631
3.3059 -2.1224 -0.2614
3.3001 -2.1444 -0.2594
3.2942 -2.1594 -0.2629
3.2890 -2.1791 -0.2609
3.2847 -2.2025 -0.2542
3.2795 -2.2143 -0.2584
3.2748 -2.2288 -0.2589
3.2663 -2.2567 -0.2592
3.2629 -2.2728 -0.2557
3.6002 -1.8841 0.3238
3.5939 -1.8780 0.3048
3.5871 -1.8731 0.2855
3.5002 -2.1023 0.2297
3.4900 -2.1201 0.2171
3.4818 -2.1300 0.2041
3.4737 -2.1399 0.1914
3.4678 -2.1399 0.1772
3.4846 -1.9281 0.0777
3.4289 -1.8885 -0.0812
3.4199 -1.8864 -0.1040
3.4100 -1.8948 -0.1219
3.4003 -1.9022 -0.1401
3.3904 -1.9168 -0.1541
3.3744 -1.8310 -0.2489
3.3535 -1.8944 -0.2566
3.3441 -1.9252 -0.2588
3.3352 -1.9518 -0.2624
3.3194 -2.0125 -0.2601
3.3122 -2.0395 -0.2593
3.2993 -2.0889 -0.2574
3.2929 -2.1054 -0.2618
3.2878 -2.1308 -0.2573
3.2829 -2.1539 -0.2536
3.2776 -2.1690 -0.2564
3.2720 -2.1801 -0.2623
3.2603 -2.2343 -0.2546
3.2554 -2.2431 -0.2603
3.2515 -2.2557 -0.2613
1.9682 -1.0622 0.7647
2.0102 -1.0380 0.7664
2.0562 -1.0228 0.7657
2.0852 -0.9613 0.7768
2.1325 -0.9457 0.7761
2.1798 -0.9301 0.7754
2.2099 -0.8544 0.7895
2.2118 -0.6564 0.8332
2.2345 -0.5057 0.8646
3.5348 0.1032 0.8849
3.5847 0.0850 0.8765
3.5901 -0.0737 0.8408
3.6519 -0.0383 0.8432
3.7028 -0.0365 0.8391
3.7175 -0.1333 0.8163
3.8012 -0.1587 0.8033
2.0245 -1.0755 0.7132
2.0337 -0.9704 0.7334
2.0951 -0.9914 0.7243
2.1226 -0.9193 0.7364
2.1708 -0.9034 0.7357
2.1919 -0.7920 0.7562
2.2339 -0.7415 0.7629
3.5334 0.0679 0.8191
3.5423 -0.0897 0.7870
3.6148 -0.0199 0.7950
3.6447 -0.0858 0.7795
3.6949 -0.0841 0.7758
3.7101 -0.1766 0.7561
3.7476 -0.3145 0.7256
3.8147 -0.2568 0.7316
1.5095 -1.9860 0.5459
1.5217 -1.9660 0.5485
1.5156 -1.9327 0.5549
1.5209 -1.9059 0.5592
1.5178 -1.8716 0.5655
2.0252 -0.9530 0.6906
2.0881 -0.9756 0.6820
2.1152 -0.9005 0.6933
2.1708 -0.9050 0.6884
2.1953 -0.8046 0.7044
2.2159 -0.6712 0.7264
1.8198 1.8382 1.1991
3.5429 0.0730 0.7606
3.5815 0.0174 0.7479
3.6134 -0.0508 0.7335
3.6484 -0.0996 0.7223
3.6927 -0.1147 0.7164
3.7246 -0.1600 0.7060
1.5032 -1.9878 0.5183
1.5156 -1.9679 0.5206
1.4728 -1.8449 0.5423
1.9358 -1.0069 0.6407
2.0360 -0.9840 0.6376
2.0732 -0.9389 0.6421
2.1290 -0.9432 0.6378
2.9380 -1.1941 0.5459
3.4956 0.0750 0.7044
3.5698 -0.0500 0.6803
3.5857 -0.1648 0.6616
3.6687 -0.0639 0.6716
3.7198 -0.0617 0.6686
1.8619 -0.9767 0.6014
1.9345 -1.0091 0.5929
2.0356 -0.9870 0.5899
2.0577 -0.9009 0.5999
2.1078 -0.8844 0.5991
3.6118 0.0630 0.6353
3.6546 0.0265 0.6280
3.6784 -0.0602 0.6153
3.7118 -0.1089 0.6070
3.7318 -0.1867 0.5957
3.4399 -1.0506 0.4999
3.4842 -1.0180 0.5016
1.5069 -2.0019 0.4600
1.4930 -1.9047 0.4712
0.3709 -0.4384 0.6847
1.8455 -0.9497 0.5556
1.9010 -0.9426 0.5536
2.0759 -0.9531 0.5436
2.1077 -0.8867 0.5491
2.1374 -0.8042 0.5565
2.9762 -1.2188 0.4698
3.6834 0.2715 0.5937
3.6087 -0.1434 0.5530
3.6175 -0.2647 0.5396
3.6499 -0.3054 0.5336
3.4478 -1.0453 0.4646
3.4866 -1.0270 0.4646
1.4831 -1.9041 0.4407
1.4962 -1.8809 0.4421
1.4706 -1.7916 0.4506
1.3959 -1.5062 0.4776
0.3758 -0.4570 0.6083
1.9139 -0.9754 0.4997
1.9640 -0.9588 0.4989
2.0528 -0.8951 0.5005
2.0925 -0.8453 0.5029
2.1228 -0.7598 0.5087
2.9444 -1.2266 0.4349
3.1090 -1.2346 0.4272
3.4689 -0.3025 0.4895
3.4677 -0.7240 0.4545
3.4942 -0.7575 0.4505
3.4921 -0.8616 0.4420
3.4477 -1.0607 0.4273
3.4890 -1.0359 0.4276
1.4354 -1.5507 0.4319
0.5971 -0.5940 0.5174
2.0805 -0.8136 0.4531
2.1263 -0.7731 0.4539
2.3511 1.5212 0.5817
2.4752 1.3159 0.5653
2.5563 1.8075 0.5915
2.8926 -1.0238 0.4126
3.1195 -1.2073 0.3939
3.5852 -0.1076 0.4427
3.6004 -0.2196 0.4356
3.6725 -0.1527 0.4370
3.7110 -0.1831 0.4339
3.4500 -1.0696 0.3906
3.4887 -1.0513 0.3903
0.3620 -0.3702 0.4604
2.2844 1.1796 0.4631
2.3888 1.1691 0.4599
2.4691 1.4796 0.4685
2.5685 1.6703 0.4725
3.1163 -1.2398 0.3572
3.5614 -0.0368 0.3870
3.6279 0.0027 0.3866
3.6888 0.0228 0.3857
3.7054 -0.0836 0.3816
3.7635 -0.0644 0.3807
3.4550 -1.0721 0.3540
1.4439 -1.9587 0.3455
0.3517 -0.8980 0.3760
0.2820 -0.3043 0.3832
2.3155 0.9493 0.3581
2.4031 1.0610 0.3576
3.0839 -1.2598 0.3223
3.1211 -1.2377 0.3218
3.1545 -1.2321 0.3212
3.5874 0.0231 0.3256
3.6319 -0.0123 0.3245
3.6989 0.0261 0.3236
3.7406 -0.0092 0.3225
3.7673 -0.0788 0.3213
3.5119 -1.0969 0.3160
1.4334 -1.9585 0.3140
1.3888 -1.7957 0.3120
0.4235 -0.9667 0.3091
0.4873 -0.9457 0.3081
0.2432 -0.2804 0.3004
0.4100 -0.3412 0.2997
1.9740 -0.7011 0.2894
2.0028 -0.5985 0.2875
2.1647 1.3221 0.2566
2.2925 1.1737 0.2575
2.3814 1.3438 0.2540
2.4466 1.9812 0.2437
2.5717 1.8979 0.2437
2.6896 1.8762 0.2428
3.0925 -1.2393 0.2863
3.1220 -1.2522 0.2862
3.5805 -0.0295 0.2629
3.6475 0.0089 0.2616
3.7092 0.0292 0.2607
3.7918 0.1084 0.2587
3.4595 -1.0110 0.2791
3.4945 -1.0060 0.2787
3.5256 -1.0802 0.2795
0.3604 -0.9305 0.2419
0.4431 -0.9226 0.2414
0.4585 -0.8594 0.2388
0.4409 -0.7642 0.2350
0.4023 -0.6436 0.2301
0.3088 -0.2508 0.2143
1.9076 -0.5299 0.2229
1.6265 0.4816 0.1822
2.0530 -0.5497 0.2235
2.1353 -0.6032 0.2255
1.9500 1.2732 0.1495
2.0890 1.1245 0.1553
2.2160 0.9889 0.1606
2.2779 1.3308 0.1465
2.8635 -1.0555 0.2427
2.9023 -1.0803 0.2436
3.0973 -1.2364 0.2497
3.1274 -1.2480 0.2501
3.1720 -1.2000 0.2481
3.5899 -0.0267 0.1996
3.6639 0.0321 0.1971
3.7751 0.1956 0.1902
3.4862 -0.9598 0.2377
3.5190 -1.0393 0.2409
3.5223 -1.1017 0.2435
3.5488 -1.1091 0.2437
1.4945 0.8559 0.0626
2.1352 1.5734 0.0192
2.8353 -0.7856 0.1809
2.8747 -0.9296 0.1907
3.1398 -1.2149 0.2115
3.1725 -1.2159 0.2118
3.5034 -1.0897 0.2057
1.2300 1.2442 -0.0835
1.5012 0.8308 -0.0410
1.8300 0.1479 0.0273
1.9351 1.3664 -0.0839
2.0464 1.4031 -0.0856
2.1427 1.5452 -0.0973
2.8307 2.0108 -0.1298
2.8777 -0.9409 0.1444
2.9176 -0.9882 0.1494
2.9550 -1.0321 0.1540
2.9942 -1.0425 0.1556
3.0262 -1.0913 0.1606
3.0587 -1.1220 0.1639
3.0840 -1.1783 0.1695
3.1118 -1.2106 0.1730
3.1422 -1.2239 0.1747
3.1768 -1.2178 0.1746
3.2090 -1.2188 0.1752
3.2523 -1.1823 0.1725
3.1458 -1.8740 0.2349
3.1794 -1.8736 0.2354
1.3757 -1.8857 0.1729
1.3459 -1.8313 0.1656
1.3716 -1.8122 0.1640
0.2586 -0.5567 -0.0125
1.9000 -1.1101 0.0931
1.5864 0.5808 -0.1159
2.1305 -0.5895 0.0367
1.8532 1.2051 -0.1838
2.1019 1.0922 -0.1644
2.1345 1.6277 -0.2274
2.2822 1.3982 -0.1965
2.3686 1.7049 -0.2309
2.8387 1.9811 -0.2525
3.0060 -0.9866 0.1051
3.0428 -1.0146 0.1093
3.0822 -1.0174 0.1106
3.1097 -1.0747 0.1181
3.1540 -1.1949 0.1335
3.1857 -1.2024 0.1352
3.2259 -1.1775 0.1332
3.1115 -1.8822 0.2144
3.1324 -1.9133 0.2186
3.1458 -1.9194 0.2196
3.1569 -1.9294 0.2211
3.1650 -1.9447 0.2231
1.3430 -1.8367 0.1282
1.3842 -1.8283 0.1284
0.3303 -0.7234 -0.0677
0.5447 -0.8243 -0.0459
0.2775 -0.4917 -0.1033
-0.2380 0.6986 -0.2941
-0.0881 0.6926 -0.2883
0.4199 0.7544 -0.2805
0.5299 0.7907 -0.2822
0.7604 0.6218 -0.2499
1.0750 0.2735 -0.1887
1.4842 0.5613 -0.2172
2.0960 -0.6947 -0.0136
2.1428 -0.6332 -0.0211
1.9387 0.8336 -0.2419
2.0607 0.7514 -0.2259
2.4638 0.6604 -0.1993
2.5411 0.9098 -0.2332
2.7311 1.2718 -0.2798
2.8324 1.1712 -0.2617
2.9366 1.2935 -0.2761
3.0658 -0.1457 -0.0618
3.1253 -0.1616 -0.0575
3.0959 -0.9687 0.0594
3.3078 -0.9156 0.0586
3.3399 -0.9364 0.0627
3.1023 -1.8686 0.1910
3.1090 -1.8968 0.1953
3.1202 -1.9109 0.1978
3.1284 -1.9302 0.2008
3.1387 -1.9424 0.2030
3.1454 -1.9612 0.2059
3.1577 -1.9665 0.2071
-0.4806 -0.3693 -0.2410
0.1891 -0.7896 -0.1401
0.3581 -0.8430 -0.1237
0.4638 -0.8497 -0.1181
0.5329 -0.8269 -0.1192
0.6496 -0.8477 -0.1107
0.4235 -0.5440 -0.1728
0.5008 -0.5185 -0.1740
0.4389 -0.2292 -0.2267
0.4143 -0.0741 -0.2546
0.4358 0.0379 -0.2731
0.5280 0.0683 -0.2745
0.6623 0.0419 -0.2643
0.7325 0.1004 -0.2715
0.7841 0.1902 -0.2848
0.8584 0.2511 -0.2923
0.9889 0.2203 -0.2815
1.5914 0.0314 -0.2234
1.5777 0.3095 -0.2722
1.7086 0.2207 -0.2513
1.9963 -0.3838 -0.1345
2.0596 0.3053 -0.2512
2.1271 0.4232 -0.2688
2.1986 0.5486 -0.2875
2.2795 0.6460 -0.3010
2.3756 0.6423 -0.2963
2.4698 0.6380 -0.2916
2.5601 0.6678 -0.2930
2.6494 0.7326 -0.3005
2.7407 0.7627 -0.3018
2.8320 0.7928 -0.3032
2.9185 0.7174 -0.2865
2.9935 0.5530 -0.2549
3.0990 0.8112 -0.2952
3.1684 0.6710 -0.2680
3.4219 0.0666 -0.1526
3.4789 0.0469 -0.1468
3.3427 -0.9468 0.0196
3.1014 -1.8796 0.1710
3.1103 -1.9016 0.1752
3.1184 -1.9229 0.1792
3.1259 -1.9433 0.1831
3.1372 -1.9531 0.1853
3.1448 -1.9692 0.1884
0.1412 -0.8468 -0.2095
0.3836 -0.9536 -0.1757
0.2469 -0.7675 -0.2200
0.3002 -0.7262 -0.2256
0.4130 -0.7355 -0.2180
0.6848 -0.8925 -0.1726
0.4672 -0.5999 -0.2424
0.5612 -0.5927 -0.2391
0.6367 -0.5678 -0.2402
0.6954 -0.5247 -0.2459
0.7380 -0.4611 -0.2565
0.7985 -0.4153 -0.2626
0.9236 -0.4494 -0.2493
0.9996 -0.4243 -0.2505
1.0325 -0.3381 -0.2661
1.0670 -0.2473 -0.2826
1.1611 -0.2431 -0.2786
1.2793 -0.2826 -0.2647
1.4352 -0.3984 -0.2335
1.7728 -0.5894 -0.1778
1.7594 -0.3792 -0.2207
1.7845 -0.2367 -0.2481
1.8363 -0.1484 -0.2632
2.0335 -0.5034 -0.1818
2.0987 -0.4819 -0.1828
2.1680 -0.4766 -0.1803
2.1605 -0.1364 -0.2490
2.2297 -0.0899 -0.2548
2.3184 -0.1515 -0.2379
2.3932 -0.1485 -0.2347
2.4574 -0.0612 -0.2489
2.5247 0.0301 -0.2638
2.5982 0.0791 -0.2699
2.6714 0.1765 -0.2857
2.7485 0.2804 -0.3027
2.8273 0.2795 -0.2985
2.9035 0.2531 -0.2893
2.9754 0.2035 -0.2756
3.0484 0.2028 -0.2718
3.0835 -0.1014 -0.2089
3.1502 -0.0794 -0.2099
3.3236 -0.7602 -0.0643
3.3351 -0.8647 -0.0427
3.1077 -1.8717 0.1479
3.1159 -1.8958 0.1532
3.1257 -1.9132 0.1572
3.1303 -1.9406 0.1629
3.1400 -1.9539 0.1661
3.1477 -1.9699 0.1697
0.1852 -1.0373 -0.2417
0.2655 -0.9524 -0.2563
0.3159 -0.9153 -0.2617
0.4211 -0.9205 -0.2542
0.4014 -0.8246 -0.2773
0.5078 -0.8315 -0.2693
0.7042 -0.9225 -0.2366
0.8186 -0.7700 -0.2646
0.8588 -0.7157 -0.2746
0.9569 -0.7244 -0.2667
1.0823 -0.6625 -0.2733
1.1520 -0.6395 -0.2744
1.2217 -0.6165 -0.2754
1.2914 -0.5936 -0.2765
1.3503 -0.5536 -0.2821
1.4307 -0.5476 -0.2786
1.8238 -0.7090 -0.2179
1.7937 -0.4678 -0.2749
1.8557 -0.4279 -0.2803
1.9310 -0.4226 -0.2770
2.0109 -0.4352 -0.2693
2.0785 -0.4129 -0.2703
2.1595 -0.4425 -0.2586
2.2096 -0.3502 -0.2768
2.2918 -0.3989 -0.2606
2.3521 -0.3421 -0.2700
2.4089 -0.2455 -0.2887
2.4822 -0.2603 -0.2809
2.5487 -0.2189 -0.2863
2.6173 -0.1962 -0.2874
2.6854 -0.1543 -0.2929
2.7546 -0.1315 -0.2939
2.8247 -0.0674 -0.3044
2.8844 -0.2578 -0.2572
3.0250 -0.9791 -0.0836
3.0682 -0.9730 -0.0824
3.1060 -0.9933 -0.0755
3.1496 -0.9789 -0.0762
3.2063 -0.9100 -0.0885
3.2585 -0.8672 -0.0952
3.2962 -0.8804 -0.0899
3.3270 -0.9122 -0.0807
3.3654 -0.9150 -0.0778
3.1352 -1.9368 0.1422
3.1553 -1.9609 0.1489
3.1654 -1.9709 0.1518
0.5370 -1.2275 -0.2419
0.5538 -1.1761 -0.2539
0.6011 -1.1453 -0.2586
0.6482 -1.1135 -0.2635
0.7376 -1.1155 -0.2567
0.7724 -1.0725 -0.2654
0.8601 -1.0751 -0.2586
0.9334 -1.0662 -0.2558
0.9943 -1.0461 -0.2567
1.0207 -0.9906 -0.2691
1.0713 -0.9576 -0.2741
1.2177 -0.9419 -0.2679
1.3089 -0.9587 -0.2573
1.3502 -0.9135 -0.2660
1.6258 -0.8837 -0.2545
1.7196 -0.9250 -0.2373
1.8828 -1.1073 -0.1790
1.9437 -1.1096 -0.1742
1.8704 -0.8183 -0.2542
1.9184 -0.7719 -0.2628
1.9938 -0.7918 -0.2524
2.0482 -0.7596 -0.2569
2.1157 -0.7659 -0.2506
2.1889 -0.7977 -0.2373
2.2460 -0.7789 -0.2382
2.3000 -0.7468 -0.2427
2.3574 -0.7279 -0.2435
2.4127 -0.6964 -0.2478
2.4668 -0.6501 -0.2559
2.5190 -0.5738 -0.2719
2.5827 -0.5976 -0.2613
2.6430 -0.6062 -0.2549
2.7016 -0.6011 -0.2521
2.7594 -0.6492 -0.2357
2.8147 -0.6575 -0.2298
2.8742 -0.5574 -0.2514
2.9234 -0.6460 -0.2251
2.9368 -1.0365 -0.1238
2.9888 -0.9603 -0.1397
3.0319 -0.9634 -0.1359
3.0712 -0.9840 -0.1279
3.1174 -0.9606 -0.1307
3.1583 -0.9634 -0.1271
3.1962 -0.9754 -0.1214
3.2992 -0.8915 -0.1358
3.3355 -0.9050 -0.1298
3.3891 -0.8618 -0.1372
3.4241 -0.8758 -0.1311
3.4518 -0.9063 -0.1214
3.1577 -1.9630 0.1300
0.5955 -1.3385 -0.2714
0.6782 -1.3375 -0.2652
0.7345 -1.3190 -0.2660
0.8030 -1.3095 -0.2633
0.8590 -1.2910 -0.2641
0.9379 -1.2913 -0.2578
0.9932 -1.2731 -0.2587
1.0378 -1.2452 -0.2631
1.0934 -1.2269 -0.2639
1.1491 -1.2085 -0.2648
1.2144 -1.2001 -0.2620
1.2510 -1.1618 -0.2701
1.3070 -1.1433 -0.2709
1.3883 -1.1549 -0.2612
1.4357 -1.1271 -0.2653
1.5057 -1.1283 -0.2595
1.5463 -1.0907 -0.2670
1.5943 -1.0617 -0.2715
1.6569 -1.0542 -0.2687
1.7370 -1.0773 -0.2557
1.8912 -1.1295 -0.2286
1.9816 -1.1926 -0.2034
2.0065 -1.1238 -0.2211
2.0350 -0.9032 -0.2819
2.1032 -0.9191 -0.2720
2.1546 -0.8900 -0.2762
2.2065 -0.8598 -0.2808
2.2622 -0.8414 -0.2816
2.3178 -0.8231 -0.2825
2.3759 -0.8171 -0.2796
2.4250 -0.7615 -0.2916
2.4865 -0.7806 -0.2812
2.5404 -0.7497 -0.2858
2.5990 -0.7677 -0.2760
2.7087 -0.7447 -0.2739
2.7630 -0.7268 -0.2747
2.8177 -0.6956 -0.2793
3.0603 -0.8076 -0.2281
3.0886 -0.9124 -0.1958
3.1429 -0.8582 -0.2071
3.1626 -1.1356 -0.1261
3.2047 -1.1147 -0.1288
3.3047 -0.8937 -0.1841
3.3586 -0.8507 -0.1921
3.3737 -0.9286 -0.1687
3.4053 -0.9484 -0.1605
3.2095 -1.7426 0.0512
3.2213 -1.7610 0.0574
3.2358 -1.7713 0.0615
3.2478 -1.7855 0.0665
0.9716 -1.4466 -0.2670
1.0129 -1.4219 -0.2711
1.0742 -1.4128 -0.2686
1.1348 -1.4038 -0.2660
1.1940 -1.3943 -0.2637
1.2783 -1.4087 -0.2517
1.3278 -1.3923 -0.2525
1.3916 -1.3903 -0.2474
1.4270 -1.3596 -0.2540
1.4621 -1.3270 -0.2611
1.5189 -1.3183 -0.2588
1.5943 -1.3335 -0.2473
1.6431 -1.3174 -0.2481
1.6978 -1.3094 -0.2457
1.7675 -1.3245 -0.2348
1.8151 -1.3089 -0.2355
1.8626 -1.2932 -0.2362
1.9058 -1.2699 -0.2397
1.9360 -1.2208 -0.2525
1.9971 -1.2298 -0.2443
2.0376 -1.1973 -0.2509
2.1036 -1.2227 -0.2370
2.1478 -1.1991 -0.2405
2.1865 -1.1583 -0.2500
2.2374 -1.1505 -0.2479
2.2830 -1.1264 -0.2514
2.3289 -1.1013 -0.2553
2.3754 -1.0759 -0.2591
2.4330 -1.1051 -0.2448
2.4762 -1.0628 -0.2543
2.5281 -1.0737 -0.2463
2.5784 -1.0842 -0.2385
2.6246 -1.0600 -0.2420
2.6712 -1.0356 -0.2456
2.7187 -1.0289 -0.2435
2.7658 -0.9763 -0.2559
2.8142 -0.9513 -0.2595
2.8493 -1.1735 -0.1863
2.9124 -0.8988 -0.2673
2.9601 -0.8931 -0.2648
3.0087 -0.8771 -0.2656
3.0541 -0.8812 -0.2602
3.0985 -0.8856 -0.2549
3.1543 -0.8291 -0.2678
3.1982 -0.8337 -0.2624
3.2195 -0.9260 -0.2314
3.2014 -1.1466 -0.1635
3.3617 -0.8620 -0.2390
3.4211 -0.8063 -0.2512
3.4401 -0.8693 -0.2297
1.2933 -1.7806 -0.1772
1.2030 -1.6749 -0.2225
1.2400 -1.6558 -0.2255
1.3505 -1.6930 -0.2017
1.3133 -1.6156 -0.2321
1.2707 -1.5281 -0.2665
1.3249 -1.5192 -0.2642
1.3643 -1.4972 -0.2679
1.4319 -1.5018 -0.2596
1.4714 -1.4799 -0.2633
1.5112 -1.4577 -0.2670
1.5578 -1.4424 -0.2677
1.5984 -1.4200 -0.2714
1.6510 -1.4117 -0.2691
1.7030 -1.4035 -0.2668
1.7807 -1.3509 -0.2773
1.8516 -1.3724 -0.2629
1.8974 -1.3573 -0.2636
1.9433 -1.3422 -0.2643
1.9891 -1.3270 -0.2650
2.0421 -1.3265 -0.2599
2.1664 -1.2506 -0.2739
2.2665 -1.2435 -0.2664
2.3101 -1.2212 -0.2698
2.3559 -1.2061 -0.2705
2.4018 -1.1909 -0.2712
2.4476 -1.1758 -0.2719
2.4961 -1.1768 -0.2668
2.5404 -1.1532 -0.2706
2.5886 -1.1622 -0.2627
2.6329 -1.1396 -0.2661
2.6781 -1.1247 -0.2668
2.7226 -1.0762 -0.2792
2.7688 -1.0430 -0.2861
2.8129 -1.1052 -0.2603
2.8484 -1.2479 -0.2076
2.9492 -1.0353 -0.2709
3.0004 -0.9756 -0.2865
3.0437 -0.9792 -0.2809
3.0896 -0.9641 -0.2816
3.1394 -0.9298 -0.2886
3.1813 -0.9339 -0.2830
3.2225 -0.9372 -0.2778
3.2632 -0.9397 -0.2729
3.2086 -1.2625 -0.1670
3.4430 -0.8804 -0.2756
3.4772 -0.8940 -0.2676
3.5564 -0.7922 -0.2949
3.5984 -0.7874 -0.2924
3.6398 -0.7826 -0.2900
3.6765 -0.7875 -0.2847
3.6987 -0.8210 -0.2709
3.5671 -1.1602 -0.1669
3.5898 -1.1747 -0.1597
1.1653 -1.7446 -0.2493
1.1929 -1.7206 -0.2552
1.2632 -1.7261 -0.2455
1.3051 -1.7123 -0.2462
1.4492 -1.7330 -0.2228
1.4188 -1.6610 -0.2531
1.4668 -1.6521 -0.2512
1.4914 -1.6222 -0.2597
1.5563 -1.6295 -0.2500
1.5930 -1.6104 -0.2531
1.6558 -1.6184 -0.2433
1.6971 -1.6048 -0.2440
1.7383 -1.5912 -0.2446
1.7834 -1.5822 -0.2430
1.8033 -1.5411 -0.2563
1.8622 -1.5503 -0.2465
1.8991 -1.5303 -0.2500
1.9479 -1.5280 -0.2455
1.9751 -1.4914 -0.2563
2.0274 -1.4959 -0.2489
2.0651 -1.4755 -0.2525
2.1183 -1.4856 -0.2429
2.1563 -1.4662 -0.2461
2.1998 -1.4588 -0.2441
2.2338 -1.4278 -0.2521
2.2704 -1.4009 -0.2582
2.3100 -1.3809 -0.2614
2.3592 -1.3924 -0.2517
2.4052 -1.3979 -0.2447
2.4386 -1.3523 -0.2581
2.4826 -1.3517 -0.2536
2.5237 -1.3381 -0.2542
2.5666 -1.3378 -0.2497
2.6074 -1.3244 -0.2503
2.6471 -1.2974 -0.2561
2.6892 -1.3043 -0.2490
2.7295 -1.2772 -0.2548
2.7704 -1.2706 -0.2528
2.8116 -1.2432 -0.2586
2.8527 -1.2296 -0.2592
2.8926 -1.2303 -0.2546
2.9342 -1.2097 -0.2579
2.9761 -1.1889 -0.2611
3.0172 -1.1754 -0.2617
3.0595 -1.1555 -0.2646
3.1026 -1.1334 -0.2682
3.1510 -1.0897 -0.2793
3.1856 -1.1060 -0.2694
3.2313 -1.0771 -0.2753
3.2732 -1.0633 -0.2760
3.2478 -1.2595 -0.2051
3.3436 -1.0746 -0.2640
3.3931 -1.0376 -0.2726
3.4407 -1.0080 -0.2785
3.4858 -0.9862 -0.2818
3.5312 -0.9643 -0.2851
3.5735 -0.9504 -0.2857
3.5963 -0.9785 -0.2727
3.5422 -1.1624 -0.2096
3.5564 -1.1953 -0.1957
1.2587 -1.8135 -0.2580
1.2985 -1.8004 -0.2586
1.3384 -1.7872 -0.2592
1.3717 -1.7693 -0.2625
1.4352 -1.7740 -0.2531
1.4684 -1.7561 -0.2564
1.5376 -1.7215 -0.2622
1.5719 -1.7033 -0.2655
1.6119 -1.6901 -0.2661
1.6520 -1.6769 -0.2667
1.6970 -1.6690 -0.2646
1.7320 -1.6505 -0.2679
1.7806 -1.6473 -0.2635
1.8241 -1.6388 -0.2617
1.8521 -1.6109 -0.2697
1.8881 -1.5922 -0.2731
1.9322 -1.5845 -0.2709
1.9759 -1.5770 -0.2688
2.1458 -1.5455 -0.2614
2.1775 -1.5164 -0.2695
2.2219 -1.5145 -0.2650
2.2589 -1.4954 -0.2683
2.2965 -1.4771 -0.2713
2.3379 -1.4694 -0.2695
2.3842 -1.4796 -0.2599
2.4244 -1.4723 -0.2581
2.4604 -1.4476 -0.2638
2.4994 -1.4348 -0.2644
2.5355 -1.4042 -0.2725
2.5743 -1.3855 -0.2755
2.6568 -1.4015 -0.2592
2.6928 -1.3337 -0.2824
2.7327 -1.3136 -0.2858
2.7728 -1.3142 -0.2809
2.8120 -1.3199 -0.2739
2.8517 -1.2999 -0.2773
2.8906 -1.2940 -0.2751
2.9308 -1.2738 -0.2785
2.9703 -1.2608 -0.2791
3.0505 -1.2285 -0.2827
3.0916 -1.2090 -0.2857
3.1331 -1.1885 -0.2891
3.1679 -1.1956 -0.2821
3.2035 -1.1967 -0.2774
3.2325 -1.2175 -0.2655
3.2446 -1.2862 -0.2363
3.2851 -1.2620 -0.2413
3.3705 -1.1171 -0.2899
3.4051 -1.1174 -0.2857
3.4446 -1.1044 -0.2863
3.4871 -1.0845 -0.2893
3.5102 -1.1083 -0.2769
3.4818 -1.2394 -0.2271
3.5116 -1.2394 -0.2236
1.3588 -1.8858 -0.2589
1.3960 -1.8735 -0.2594
1.4390 -1.8651 -0.2575
1.4863 -1.8603 -0.2536
1.5078 -1.8366 -0.2611
1.5599 -1.8360 -0.2547
1.6009 -1.8273 -0.2532
1.6286 -1.8075 -0.2583
1.6742 -1.8032 -0.2543
1.7155 -1.7954 -0.2524
1.7520 -1.7834 -0.2529
1.7807 -1.7632 -0.2580
1.8175 -1.7511 -0.2586
1.8615 -1.7472 -0.2546
1.9049 -1.7436 -0.2506
1.9472 -1.7395 -0.2469
1.9710 -1.7111 -0.2562
2.0075 -1.6991 -0.2568
2.0524 -1.6999 -0.2507
2.0989 -1.7050 -0.2424
2.1368 -1.6974 -0.2409
2.1678 -1.6774 -0.2456
2.1967 -1.6523 -0.2528
2.2285 -1.6311 -0.2580
2.2631 -1.6148 -0.2606
2.3087 -1.6261 -0.2499
2.3445 -1.6143 -0.2504
2.3831 -1.6113 -0.2467
2.4173 -1.5951 -0.2494
2.4530 -1.5834 -0.2499
2.4886 -1.5716 -0.2505
2.5243 -1.5599 -0.2510
2.5583 -1.5379 -0.2562
2.5950 -1.5317 -0.2542
2.6327 -1.5387 -0.2463
2.6650 -1.4871 -0.2646
2.7011 -1.4703 -0.2673
2.7380 -1.4787 -0.2589
2.7738 -1.4824 -0.2526
2.8097 -1.4609 -0.2574
2.8465 -1.4331 -0.2648
2.8808 -1.4423 -0.2564
2.9177 -1.4194 -0.2616
2.9560 -1.3912 -0.2690
2.9923 -1.3792 -0.2696
3.0287 -1.3672 -0.2701
3.0676 -1.3437 -0.2754
3.0960 -1.3664 -0.2618
3.1334 -1.3483 -0.2649
3.1675 -1.3428 -0.2629
3.2069 -1.3191 -0.2681
3.2412 -1.3127 -0.2665
3.2791 -1.2953 -0.2692
3.3172 -1.2779 -0.2719
3.3561 -1.2592 -0.2751
3.3948 -1.2416 -0.2778
3.4288 -1.2352 -0.2762
3.4595 -1.2358 -0.2719
3.4896 -1.2366 -0.2677
3.5254 -1.2248 -0.2683
3.5648 -1.2060 -0.2714
1.3871 -1.9783 -0.2543
1.4218 -1.9669 -0.2549
1.4475 -1.9497 -0.2593
1.4717 -1.9311 -0.2647
1.5174 -1.9267 -0.2604
1.5607 -1.9211 -0.2570
1.6043 -1.9164 -0.2531
1.6301 -1.8982 -0.2580
1.6572 -1.8805 -0.2625
1.6922 -1.8690 -0.2630
1.7343 -1.8639 -0.2596
1.7621 -1.8460 -0.2641
1.8007 -1.8381 -0.2624
1.8278 -1.8185 -0.2678
1.8704 -1.8151 -0.2635
2.0549 -1.7726 -0.2576
2.0736 -1.7374 -0.2715
2.2589 -1.7005 -0.2630
2.4125 -1.7040 -0.2400
2.5712 -1.6120 -0.2609
2.6406 -1.6027 -0.2556
2.6723 -1.5642 -0.2692
2.7074 -1.5671 -0.2630
2.7417 -1.5732 -0.2554
2.7753 -1.5583 -0.2577
2.8099 -1.5236 -0.2691
2.8442 -1.5123 -0.2696
2.8790 -1.4960 -0.2724
2.9135 -1.4846 -0.2729
2.9486 -1.4682 -0.2757
2.9824 -1.4619 -0.2739
3.0178 -1.4454 -0.2767
3.0544 -1.4246 -0.2814
3.0870 -1.4226 -0.2778
3.1216 -1.4112 -0.2783
3.1561 -1.3998 -0.2788
3.1937 -1.3787 -0.2835
3.2271 -1.3715 -0.2822
3.2653 -1.3502 -0.2868
3.2924 -1.3597 -0.2786
3.3330 -1.3327 -0.2856
3.3678 -1.3212 -0.2861
3.4250 -1.3256 -0.2761
3.4647 -1.3029 -0.2812
3.4962 -1.2973 -0.2795
3.5306 -1.2860 -0.2800
1.5128 -2.0586 -0.2355
1.5187 -2.0326 -0.2476
1.5249 -2.0056 -0.2602
1.5832 -2.0114 -0.2486
1.6154 -2.0007 -0.2491
1.6523 -1.9934 -0.2472
1.6844 -1.9828 -0.2477
1.6940 -1.9547 -0.2603
1.7335 -1.9493 -0.2571
1.7735 -1.9448 -0.2534
1.7925 -1.9222 -0.2618
1.8314 -1.9170 -0.2586
1.8610 -1.9034 -0.2609
1.9093 -1.9086 -0.2511
1.9353 -1.8914 -0.2558
1.9762 -1.8904 -0.2502
2.0082 -1.8798 -0.2507
2.0450 -1.8754 -0.2474
2.0768 -1.8649 -0.2479
2.1179 -1.8676 -0.2404
2.1446 -1.8502 -0.2451
2.1762 -1.8398 -0.2456
2.2078 -1.8294 -0.2460
2.2359 -1.8124 -0.2503
2.2726 -1.8118 -0.2451
2.2995 -1.7915 -0.2513
2.3356 -1.7911 -0.2461
2.3658 -1.7773 -0.2484
2.3974 -1.7669 -0.2489
2.4315 -1.7642 -0.2451
2.4565 -1.7320 -0.2575
2.4921 -1.7356 -0.2503
2.5245 -1.7288 -0.2489
2.5553 -1.7148 -0.2513
2.5857 -1.6970 -0.2556
2.6180 -1.6902 -0.2542
2.6497 -1.6798 -0.2546
2.6820 -1.6768 -0.2513
2.7131 -1.6589 -0.2556
2.7449 -1.6522 -0.2542
2.7763 -1.6505 -0.2503
2.8082 -1.6275 -0.2570
2.8402 -1.6131 -0.2594
2.8720 -1.6026 -0.2599
2.9033 -1.5962 -0.2585
2.9381 -1.5645 -0.2691
2.9681 -1.5671 -0.2633
2.9976 -1.5689 -0.2580
3.0301 -1.5543 -0.2604
3.0598 -1.5522 -0.2570
3.0924 -1.5376 -0.2594
3.1252 -1.5230 -0.2618
3.1609 -1.4997 -0.2681
3.3595 -1.4217 -0.2774
3.3965 -1.4009 -0.2823
3.4105 -1.4289 -0.2662
3.4422 -1.4184 -0.2666
3.4835 -1.3894 -0.2749
1.5998 -2.1413 -0.2143
1.5570 -2.0906 -0.2481
1.5557 -2.0615 -0.2638
1.5870 -2.0512 -0.2643
1.6184 -2.0408 -0.2648
1.6573 -2.0356 -0.2613
1.6949 -2.0299 -0.2583
1.7160 -2.0125 -0.2642
1.7568 -2.0095 -0.2593
1.7819 -1.9946 -0.2632
1.8097 -1.9815 -0.2657
1.8528 -1.9816 -0.2587
1.8722 -1.9609 -0.2666
1.9319 -1.9374 -0.2695
1.9687 -1.9329 -0.2660
2.0070 -1.9308 -0.2610
2.0378 -1.9206 -0.2615
2.0735 -1.9165 -0.2580
2.1018 -1.9033 -0.2604
2.1369 -1.8994 -0.2569
2.1612 -1.8799 -0.2634
2.1803 -1.8508 -0.2758
2.2178 -1.8508 -0.2698
2.2489 -1.8405 -0.2703
2.2974 -1.8646 -0.2497
2.3492 -1.8256 -0.2622
2.3785 -1.8121 -0.2646
2.4034 -1.7858 -0.2746
2.4765 -1.8017 -0.2545
2.5100 -1.8049 -0.2474
2.5680 -1.7782 -0.2523
2.7776 -1.7062 -0.2570
2.8085 -1.6779 -0.2671
2.8395 -1.6600 -0.2716
2.8691 -1.6617 -0.2660
2.8995 -1.6517 -0.2664
2.9312 -1.6336 -0.2710
2.9632 -1.6154 -0.2755
2.9957 -1.5971 -0.2801
3.0267 -1.5869 -0.2805
3.0498 -1.6088 -0.2652
3.0854 -1.5789 -0.2753
3.1162 -1.5688 -0.2758
3.1442 -1.5672 -0.2722
3.1426 -1.7211 -0.1905
3.1609 -1.7332 -0.1811
3.1804 -1.7401 -0.1743
3.2366 -1.7578 -0.1559
3.2560 -1.7600 -0.1517
3.2801 -1.7520 -0.1520
1.6168 -2.1311 -0.2508
1.6489 -2.1234 -0.2497
1.6569 -2.1009 -0.2610
1.7001 -2.0999 -0.2542
1.7226 -2.0858 -0.2583
1.7556 -2.0787 -0.2567
1.8000 -2.0802 -0.2482
1.8314 -2.0727 -0.2471
1.8601 -2.0632 -0.2475
1.8864 -2.0517 -0.2495
1.9120 -2.0394 -0.2521
1.9515 -2.0397 -0.2452
1.9801 -2.0303 -0.2456
2.0065 -2.0187 -0.2476
2.0351 -2.0093 -0.2481
2.0611 -1.9969 -0.2506
2.1004 -2.0000 -0.2421
2.1245 -1.9855 -0.2462
2.1455 -1.9662 -0.2535
2.1797 -1.9644 -0.2486
2.2067 -1.9527 -0.2507
2.2368 -1.9456 -0.2495
2.2667 -1.9386 -0.2484
2.2982 -1.9348 -0.2451
2.3305 -1.9336 -0.2402
2.3558 -1.9186 -0.2444
2.3794 -1.8986 -0.2517
2.4089 -1.8917 -0.2505
2.4373 -1.8823 -0.2509
2.4630 -1.8644 -0.2567
2.4974 -1.8748 -0.2449
2.5255 -1.8655 -0.2453
2.5530 -1.8536 -0.2473
2.5785 -1.8301 -0.2563
2.6075 -1.8233 -0.2551
2.6349 -1.8048 -0.2609
2.6648 -1.8073 -0.2544
2.6944 -1.8136 -0.2457
2.7215 -1.7829 -0.2584
2.7501 -1.7735 -0.2589
2.7787 -1.7669 -0.2577
2.8072 -1.7575 -0.2581
2.8362 -1.7413 -0.2623
2.8652 -1.7289 -0.2644
2.8928 -1.7293 -0.2594
2.9223 -1.7129 -0.2636
2.9503 -1.7074 -0.2619
2.9797 -1.6940 -0.2645
3.0085 -1.6845 -0.2649
3.0346 -1.6853 -0.2600
3.0716 -1.6448 -0.2766
3.0968 -1.6487 -0.2700
3.1219 -1.6508 -0.2645
3.1412 -1.7362 -0.2130
3.1672 -1.7276 -0.2134
3.1848 -1.7398 -0.2035
3.2065 -1.7402 -0.1995
3.2228 -1.7519 -0.1902
3.2345 -1.7716 -0.1770
3.2482 -1.7851 -0.1670
3.2684 -1.7841 -0.1641
3.2834 -1.7924 -0.1569
1.6323 -2.1460 -0.2734
1.7097 -2.1393 -0.2633
1.7446 -2.1343 -0.2599
1.7755 -2.1270 -0.2587
1.7915 -2.1095 -0.2663
1.8250 -2.1041 -0.2634
1.8618 -2.1014 -0.2583
1.8946 -2.0962 -0.2555
1.9174 -2.0830 -0.2592
1.9452 -2.0738 -0.2596
1.9587 -2.0515 -0.2705
2.0031 -2.0576 -0.2588
2.0245 -2.0420 -0.2642
2.0525 -2.0328 -0.2646
2.0844 -2.0279 -0.2617
2.3153 -1.9696 -0.2545
2.3475 -1.9703 -0.2483
2.3756 -1.9638 -0.2470
2.4255 -1.9361 -0.2545
2.4510 -1.9221 -0.2583
2.5915 -1.8954 -0.2486
2.6464 -1.8876 -0.2433
2.6712 -1.8607 -0.2549
2.6988 -1.8600 -0.2502
2.7799 -1.8070 -0.2672
2.8073 -1.8017 -0.2653
2.8343 -1.7984 -0.2624
2.8611 -1.7953 -0.2594
2.8890 -1.7804 -0.2632
2.9183 -1.7586 -0.2710
2.9442 -1.7594 -0.2657
2.9716 -1.7504 -0.2661
3.0020 -1.7281 -0.2739
3.0289 -1.7221 -0.2726
3.0538 -1.7233 -0.2674
3.0793 -1.7205 -0.2644
3.1130 -1.6915 -0.2756
3.1371 -1.6930 -0.2703
3.1484 -1.7277 -0.2475
3.1631 -1.7492 -0.2320
3.1936 -1.7288 -0.2386
3.2370 -1.6797 -0.2601
3.2745 -1.6477 -0.2724
3.2972 -1.6486 -0.2677
3.3128 -1.6632 -0.2561
3.3233 -1.6860 -0.2406
1.7348 -2.2094 -0.2477
1.7518 -2.1954 -0.2533
1.7702 -2.1819 -0.2583
1.7987 -2.1743 -0.2575
1.8253 -2.1656 -0.2579
1.8500 -2.1556 -0.2595
1.8837 -2.1519 -0.2553
1.9075 -2.1413 -0.2574
1.9415 -2.1384 -0.2526
1.9628 -2.1258 -0.2565
1.9869 -2.1151 -0.2586
2.0262 -2.1180 -0.2492
2.0544 -2.1115 -0.2478
2.0803 -2.1029 -0.2482
2.1022 -2.0901 -0.2521
2.1321 -2.0858 -0.2490
2.1618 -2.0816 -0.2459
2.1822 -2.0665 -0.2515
2.2145 -2.0661 -0.2456
2.2375 -2.0539 -0.2488
2.2618 -2.0430 -0.2510
2.2892 -2.0368 -0.2496
2.3137 -2.0259 -0.2518
2.3422 -2.0221 -0.2487
2.3688 -2.0152 -0.2479
2.3926 -2.0027 -0.2512
2.4195 -1.9966 -0.2498
2.4433 -1.9832 -0.2537
2.4693 -1.9746 -0.2541
2.4974 -1.9728 -0.2498
2.5196 -1.9524 -0.2584
2.5488 -1.9558 -0.2506
2.5730 -1.9404 -0.2557
2.5999 -1.9371 -0.2526
2.6253 -1.9260 -0.2547
2.6517 -1.9219 -0.2522
2.6767 -1.9062 -0.2573
2.7035 -1.9104 -0.2494
2.7291 -1.9038 -0.2486
2.7546 -1.8908 -0.2520
2.7804 -1.8748 -0.2571
2.8065 -1.8606 -0.2610
2.8321 -1.8578 -0.2578
2.8582 -1.8464 -0.2600
2.8841 -1.8378 -0.2604
2.9092 -1.8351 -0.2572
2.9346 -1.8286 -0.2565
2.9607 -1.8181 -0.2580
2.9893 -1.7975 -0.2655
3.0130 -1.7981 -0.2606
3.0389 -1.7896 -0.2610
3.0676 -1.7717 -0.2667
3.0916 -1.7694 -0.2635
3.1146 -1.7693 -0.2592
3.1403 -1.7608 -0.2596
3.1660 -1.7523 -0.2600
3.1980 -1.7287 -0.2687
3.2251 -1.7179 -0.2703
3.2512 -1.7093 -0.2707
3.2773 -1.7007 -0.2711
3.2946 -1.7099 -0.2619
3.3232 -1.6958 -0.2653
3.3442 -1.6963 -0.2609
3.3667 -1.6936 -0.2583
1.7700 -2.2344 -0.2552
1.7871 -2.2214 -0.2604
1.8047 -2.2082 -0.2656
1.8362 -2.2033 -0.2624
1.8665 -2.1980 -0.2598
1.8964 -2.1927 -0.2571
1.9244 -2.1863 -0.2557
1.9402 -2.1709 -0.2627
2.0000 -2.1613 -0.2568
2.0268 -2.1543 -0.2560
2.0542 -2.1481 -0.2546
2.0771 -2.1377 -0.2568
2.0988 -2.1260 -0.2602
2.1241 -2.1176 -0.2606
2.1513 -2.1114 -0.2591
2.1845 -2.1125 -0.2516
2.2224 -2.0806 -0.2651
2.2784 -2.0714 -0.2598
2.3895 -2.0587 -0.2455
2.4128 -2.0483 -0.2477
2.5607 -2.0023 -0.2481
2.5837 -1.9873 -0.2534
2.6337 -1.9754 -0.2510
2.6586 -1.9700 -0.2496
2.6828 -1.9592 -0.2518
2.7320 -1.9458 -0.2507
2.7564 -1.9304 -0.2560
2.7810 -1.9250 -0.2545
2.8055 -1.9188 -0.2536
2.9313 -1.8616 -0.2660
2.9576 -1.8474 -0.2701
2.9839 -1.8341 -0.2736
3.0063 -1.8368 -0.2671
3.0345 -1.8174 -0.2743
3.0582 -1.8142 -0.2716
3.0841 -1.8038 -0.2733
3.1122 -1.7871 -0.2786
3.1345 -1.7872 -0.2740
3.1597 -1.7789 -0.2744
3.1898 -1.7588 -0.2816
3.2115 -1.7590 -0.2770
3.2328 -1.7594 -0.2724
3.2563 -1.7544 -0.2709
3.2774 -1.7539 -0.2669
3.3022 -1.7457 -0.2673
1.7946 -2.2744 -0.2524
1.8166 -2.2653 -0.2541
1.8478 -2.2614 -0.2500
1.8648 -2.2494 -0.2548
1.8890 -2.2414 -0.2552
1.9103 -2.2316 -0.2574
1.9418 -2.2286 -0.2527
1.9720 -2.2250 -0.2487
1.9915 -2.2140 -0.2522
2.0113 -2.2029 -0.2557
2.0378 -2.1969 -0.2542
2.0650 -2.1916 -0.2520
2.0926 -2.1871 -0.2492
2.1128 -2.1759 -0.2528
2.1388 -2.1700 -0.2512
2.1639 -2.1636 -0.2503
2.1890 -2.1571 -0.2494
2.2115 -2.1479 -0.2510
2.2340 -2.1386 -0.2527
2.2562 -2.1286 -0.2549
2.2854 -2.1281 -0.2489
2.3075 -2.1180 -0.2512
2.3327 -2.1125 -0.2497
2.3532 -2.0993 -0.2545
2.3787 -2.0946 -0.2523
2.4060 -2.0938 -0.2469
2.4306 -2.0884 -0.2453
2.4509 -2.0735 -0.2514
2.4758 -2.0690 -0.2492
2.4973 -2.0555 -0.2541
2.5229 -2.0534 -0.2500
2.5459 -2.0440 -0.2516
2.5680 -2.0303 -0.2564
2.5921 -2.0242 -0.2555
2.6152 -2.0129 -0.2584
2.6405 -2.0147 -0.2517
2.6636 -2.0034 -0.2547
2.6877 -2.0009 -0.2512
2.7110 -1.9896 -0.2541
2.7345 -1.9800 -0.2557
2.7581 -1.9676 -0.2593
2.7818 -1.9616 -0.2584
2.8056 -1.9538 -0.2587
2.8283 -1.9573 -0.2514
2.8520 -1.9467 -0.2537
2.8770 -1.9284 -0.2611
2.9010 -1.9186 -0.2628
2.9258 -1.9059 -0.2663
2.9487 -1.9029 -0.2635
2.9720 -1.8971 -0.2625
2.9939 -1.8963 -0.2584
3.0175 -1.8885 -0.2587
3.0417 -1.8787 -0.2604
3.0688 -1.8606 -0.2672
3.0927 -1.8527 -0.2676
3.1214 -1.8322 -0.2757
3.1414 -1.8348 -0.2696
3.1599 -1.8397 -0.2622
3.1893 -1.8190 -0.2703
3.2132 -1.8111 -0.2707
3.2345 -1.8087 -0.2678
3.2584 -1.8008 -0.2682
3.2798 -1.7974 -0.2659
3.3091 -1.7795 -0.2721
3.3285 -1.7795 -0.2679
1.8143 -2.2898 -0.2659
1.8515 -2.2894 -0.2578
1.8748 -2.2817 -0.2581
1.9030 -2.2769 -0.2552
1.9233 -2.2675 -0.2575
1.9493 -2.2617 -0.2559
1.9616 -2.2467 -0.2641
1.9912 -2.2433 -0.2599
2.0239 -2.2425 -0.2530
2.0436 -2.2324 -0.2560
2.0882 -2.2159 -0.2580
2.1159 -2.2122 -0.2544
2.2066 -2.1805 -0.2571
2.3111 -2.1669 -0.2433
2.3305 -2.1551 -0.2476
2.3502 -2.1431 -0.2519
2.3729 -2.1356 -0.2522
2.4442 -2.1194 -0.2480
2.5359 -2.0946 -0.2453
2.5578 -2.0856 -0.2470
2.6468 -2.0508 -0.2524
2.6921 -2.0376 -0.2517
2.7145 -2.0284 -0.2534
2.7375 -2.0336 -0.2444
2.7597 -2.0208 -0.2487
2.7824 -2.0024 -0.2571
2.8716 -1.9839 -0.2504
2.8962 -1.9630 -0.2602
2.9190 -1.9555 -0.2605
2.9445 -1.9353 -0.2696
2.9671 -1.9296 -0.2686
3.0115 -1.9205 -0.2653
3.0548 -1.9126 -0.2612
3.0768 -1.9071 -0.2602
3.1002 -1.8976 -0.2619
3.1674 -1.8773 -0.2616
3.1920 -1.8655 -0.2646
3.2126 -1.8623 -0.2623
3.2403 -1.8450 -0.2687
3.2615 -1.8408 -0.2670
3.2873 -1.8277 -0.2708
1.8590 -2.3365 -0.2482
1.8767 -2.3271 -0.2512
1.9051 -2.3231 -0.2475
1.9108 -2.3068 -0.2587
1.9490 -2.3086 -0.2481
1.9709 -2.3014 -0.2485
1.9910 -2.2930 -0.2502
2.0148 -2.2869 -0.2491
2.0368 -2.2797 -0.2494
2.0502 -2.2662 -0.2566
2.0741 -2.2602 -0.2556
2.0962 -2.2529 -0.2559
2.1184 -2.2455 -0.2563
2.1450 -2.2422 -0.2525
2.1670 -2.2349 -0.2528
2.1918 -2.2304 -0.2504
2.2111 -2.2204 -0.2535
2.2407 -2.2214 -0.2456
2.2600 -2.2115 -0.2486
2.2794 -2.2015 -0.2517
2.3013 -2.1942 -0.2521
2.3232 -2.1870 -0.2524
2.3481 -2.1842 -0.2486
2.3680 -2.1741 -0.2517
2.3907 -2.1684 -0.2506
2.4108 -2.1581 -0.2537
2.4351 -2.1555 -0.2499
2.4539 -2.1421 -0.2558
2.4779 -2.1396 -0.2519
2.4997 -2.1324 -0.2523
2.5203 -2.1220 -0.2554
2.5438 -2.1197 -0.2515
2.5651 -2.1109 -0.2533
2.5860 -2.1004 -0.2564
2.6105 -2.1049 -0.2470
2.6304 -2.0893 -0.2542
2.6522 -2.0821 -0.2546
2.6738 -2.0732 -0.2563
2.6958 -2.0678 -0.2552
2.7181 -2.0694 -0.2486
2.7394 -2.0534 -0.2559
2.7612 -2.0480 -0.2548
2.7831 -2.0335 -0.2607
2.8048 -2.0318 -0.2569
2.8266 -2.0246 -0.2572
2.8486 -2.0156 -0.2589
2.8693 -2.0159 -0.2537
2.8932 -1.9954 -0.2638
2.9148 -1.9901 -0.2627
2.9364 -1.9848 -0.2617
2.9568 -1.9835 -0.2578
2.9829 -1.9605 -0.2693
3.0027 -1.9611 -0.2641
3.0246 -1.9539 -0.2644
3.0459 -1.9487 -0.2633
3.0648 -1.9497 -0.2580
3.0897 -1.9343 -0.2640
3.1107 -1.9291 -0.2629
3.1380 -1.9093 -0.2717
3.1554 -1.9126 -0.2650
3.1783 -1.9032 -0.2667
3.1992 -1.8981 -0.2656
3.2233 -1.8866 -0.2688
3.2418 -1.8859 -0.2649
3.2624 -1.8809 -0.2638
3.2816 -1.8782 -0.2613
1.9538 -2.3354 -0.2525
2.0389 -2.3073 -0.2538
2.0637 -2.3027 -0.2512
2.1003 -2.2844 -0.2569
2.1184 -2.2748 -0.2600
2.1384 -2.2664 -0.2618
2.1644 -2.2632 -0.2578
2.1879 -2.2581 -0.2560
2.2078 -2.2498 -0.2578
2.2914 -2.2195 -0.2612
2.3622 -2.2078 -0.2528
2.4493 -2.1854 -0.2491
2.5097 -2.1592 -0.2551
2.5311 -2.1530 -0.2547
2.5736 -2.1408 -0.2539
2.5946 -2.1339 -0.2542
2.6156 -2.1269 -0.2545
2.6358 -2.1158 -0.2584
2.7207 -2.0941 -0.2546
2.7415 -2.0836 -0.2579
2.7625 -2.0767 -0.2582
2.7837 -2.0670 -0.2607
2.8047 -2.0619 -0.2595
2.8257 -2.0559 -0.2591
2.8903 -2.0265 -0.2666
2.9773 -1.9915 -0.2730
2.9955 -1.9954 -0.2653
3.0151 -1.9934 -0.2620
3.0583 -1.9765 -0.2648
3.1014 -1.9605 -0.2669
3.1217 -1.9556 -0.2658
3.1428 -1.9486 -0.2661
3.1834 -1.9379 -0.2645
3.2050 -1.9299 -0.2656
3.2261 -1.9229 -0.2659
1.9229 -2.3770 -0.2519
1.9466 -2.3719 -0.2500
1.9691 -2.3662 -0.2488
1.9925 -2.3612 -0.2469
2.0099 -2.3528 -0.2495
2.0284 -2.3449 -0.2512
2.0488 -2.3382 -0.2515
2.0683 -2.3308 -0.2526
2.0914 -2.3259 -0.2507
2.1101 -2.3180 -0.2525
2.1264 -2.3081 -0.2565
2.1446 -2.2995 -0.2590
2.1729 -2.2990 -0.2519
2.1918 -2.2910 -0.2537
2.2137 -2.2856 -0.2525
2.2354 -2.2802 -0.2514
2.2544 -2.2721 -0.2532
2.2716 -2.2620 -0.2572
2.2970 -2.2608 -0.2515
2.3173 -2.2541 -0.2519
2.3387 -2.2488 -0.2507
2.3579 -2.2407 -0.2525
2.3782 -2.2340 -0.2528
2.4004 -2.2302 -0.2501
2.4174 -2.2184 -0.2556
2.4399 -2.2154 -0.2522
2.4590 -2.2065 -0.2547
2.4797 -2.2005 -0.2543
2.5000 -2.1938 -0.2546
2.5193 -2.1848 -0.2572
2.5426 -2.1860 -0.2500
2.5608 -2.1737 -0.2555
2.5835 -2.1752 -0.2484
2.6033 -2.1677 -0.2494
2.6225 -2.1570 -0.2535
2.6434 -2.1545 -0.2500
2.6832 -2.1387 -0.2529
2.7034 -2.1321 -0.2532
2.7233 -2.1219 -0.2565
2.7436 -2.1188 -0.2538
2.7638 -2.1059 -0.2594
2.7840 -2.1019 -0.2574
2.8040 -2.0989 -0.2547
2.8238 -2.0959 -0.2520
2.8440 -2.0884 -0.2530
2.8640 -2.0817 -0.2534
2.8839 -2.0761 -0.2529
2.9051 -2.0638 -0.2577
2.9249 -2.0590 -0.2565
2.9484 -2.0388 -0.2674
2.9668 -2.0399 -0.2617
2.9874 -2.0322 -0.2627
3.0090 -2.0215 -0.2661
3.0280 -2.0188 -0.2634
3.0457 -2.0192 -0.2584
3.0686 -2.0054 -0.2640
3.0911 -1.9935 -0.2681
3.1088 -1.9930 -0.2638
3.1291 -1.9863 -0.2641
3.1484 -1.9817 -0.2629
3.1740 -1.9644 -0.2708
3.1917 -1.9630 -0.2673
3.2139 -1.9531 -0.2699
3.2337 -1.9474 -0.2695
3.2496 -1.9484 -0.2645
1.9493 -2.3941 -0.2553
1.9891 -2.3810 -0.2559
2.0090 -2.3744 -0.2562
2.0507 -2.3624 -0.2553
2.0949 -2.3523 -0.2520
2.1120 -2.3440 -0.2546
2.1352 -2.3399 -0.2519
2.1516 -2.3309 -0.2552
2.1722 -2.3250 -0.2548
2.1958 -2.3216 -0.2512
2.2386 -2.3119 -0.2480
2.2526 -2.3003 -0.2544
2.3135 -2.2828 -0.2530
2.3556 -2.2733 -0.2498
2.3740 -2.2655 -0.2516
2.3930 -2.2583 -0.2527
2.4145 -2.2548 -0.2499
2.4376 -2.2542 -0.2440
2.4530 -2.2412 -0.2512
2.4741 -2.2378 -0.2484
2.4913 -2.2268 -0.2534
2.5119 -2.2227 -0.2513
2.5320 -2.2178 -0.2501
2.5508 -2.2098 -0.2519
2.5716 -2.2074 -0.2483
2.5909 -2.2010 -0.2486
2.6109 -2.1971 -0.2466
2.6287 -2.1842 -0.2531
2.6489 -2.1819 -0.2495
2.6679 -2.1730 -0.2521
2.6873 -2.1666 -0.2524
2.7069 -2.1628 -0.2504
2.7261 -2.1546 -0.2522
2.7456 -2.1500 -0.2510
2.7650 -2.1383 -0.2559
2.7839 -2.1462 -0.2438
2.8035 -2.1318 -0.2511
2.8234 -2.1190 -0.2568
2.8423 -2.1181 -0.2524
2.8823 -2.0979 -0.2593
2.9020 -2.0905 -0.2604
2.9231 -2.0774 -0.2661
2.9436 -2.0680 -0.2688
2.9604 -2.0721 -0.2605
2.9794 -2.0676 -0.2592
2.9999 -2.0582 -0.2618
3.0184 -2.0547 -0.2598
3.0379 -2.0483 -0.2601
3.0574 -2.0419 -0.2604
3.0751 -2.0396 -0.2575
3.0950 -2.0321 -0.2586
3.1144 -2.0257 -0.2589
3.1354 -2.0162 -0.2616
3.1516 -2.0161 -0.2571
3.1998 -1.9861 -0.2703
2.5454 -3.6270 -0.1670
2.5621 -3.6216 -0.1672
2.5781 -3.6181 -0.1690
2.5942 -3.6146 -0.1708
2.6064 -3.6228 -0.1817
2.6742 -3.6831 -0.2553
2.7538 -3.6493 -0.2496
2.7733 -3.6430 -0.2498
2.8123 -3.6277 -0.2481
2.8316 -3.6196 -0.2469
2.8510 -3.6150 -0.2487
2.8705 -3.6095 -0.2497
2.8895 -3.5999 -0.2469
2.9082 -3.5894 -0.2434
2.9269 -3.5807 -0.2414
2.9466 -3.5769 -0.2439
2.9668 -3.5747 -0.2481
2.9870 -3.5716 -0.2514
3.0062 -3.5644 -0.2509
3.0256 -3.5581 -0.2512
3.0425 -3.5457 -0.2453
3.0637 -3.5440 -0.2502
3.0827 -3.5369 -0.2498
3.1008 -3.5284 -0.2477
3.1217 -3.5250 -0.2511
3.1384 -3.5144 -0.2467
3.1571 -3.5074 -0.2462
3.1792 -3.5054 -0.2512
3.1986 -3.4991 -0.2514
3.2151 -3.4894 -0.2479
3.2343 -3.4831 -0.2481
3.2571 -3.4809 -0.2531
3.2727 -3.4706 -0.2487
3.2951 -3.4676 -0.2528
3.3110 -3.4581 -0.2492
3.3337 -3.4550 -0.2534
3.3709 -3.4412 -0.2524
3.3893 -3.4343 -0.2519
3.4069 -3.4268 -0.2506
3.4278 -3.4218 -0.2525
3.4470 -3.4155 -0.2528
3.4663 -3.4092 -0.2530
3.4864 -3.4035 -0.2541
3.5028 -3.3956 -0.2520
3.5249 -3.3910 -0.2547
3.5432 -3.3842 -0.2542
3.5573 -3.3752 -0.2505
3.5753 -3.3685 -0.2500
3.6009 -3.3653 -0.2550
3.6179 -3.3581 -0.2537
3.6360 -3.3513 -0.2532
3.6551 -3.3451 -0.2535
2.4244 -3.7966 -0.2538
2.4440 -3.7920 -0.2555
2.5618 -3.6310 -0.1540
2.5786 -3.6255 -0.1542
2.5920 -3.6299 -0.1618
2.6066 -3.6322 -0.1679
2.6150 -3.6557 -0.1901
2.6297 -3.7288 -0.2560
2.6502 -3.7221 -0.2563
2.6715 -3.7117 -0.2537
2.6920 -3.7041 -0.2532
2.7122 -3.6984 -0.2543
2.7329 -3.6890 -0.2524
2.7526 -3.6887 -0.2578
2.7739 -3.6695 -0.2478
2.7939 -3.6656 -0.2503
2.8141 -3.6591 -0.2506
2.8344 -3.6559 -0.2538
2.8546 -3.6476 -0.2526
2.8739 -3.6308 -0.2441
2.9156 -3.6295 -0.2550
2.9358 -3.6229 -0.2553
2.9554 -3.6130 -0.2526
2.9769 -3.6112 -0.2574
2.9974 -3.6054 -0.2584
3.0175 -3.5980 -0.2580
3.0388 -3.5937 -0.2605
3.0582 -3.5847 -0.2586
3.0779 -3.5765 -0.2574
3.0956 -3.5646 -0.2525
3.1177 -3.5618 -0.2565
3.1379 -3.5552 -0.2568
3.1591 -3.5501 -0.2586
3.1937 -3.5283 -0.2502
3.2189 -3.5288 -0.2579
3.2403 -3.5236 -0.2597
3.2577 -3.5136 -0.2563
3.2796 -3.5090 -0.2588
3.2986 -3.5011 -0.2576
3.3155 -3.4912 -0.2542
3.3349 -3.4840 -0.2537
3.3570 -3.4794 -0.2563
3.3808 -3.4760 -0.2603
3.3973 -3.4663 -0.2569
3.4134 -3.4567 -0.2534
3.4318 -3.4489 -0.2522
3.4576 -3.4466 -0.2577
3.4794 -3.4413 -0.2595
3.4960 -3.4324 -0.2568
3.5380 -3.4204 -0.2589
3.5484 -3.4083 -0.2517
3.6185 -3.3942 -0.2601
3.6331 -3.3850 -0.2566
3.6476 -3.3759 -0.2531
2.3638 -3.8569 -0.2598
2.5607 -3.6425 -0.1418
2.5759 -3.6420 -0.1456
2.5913 -3.6414 -0.1494
2.6048 -3.6476 -0.1581
2.6183 -3.6555 -0.1682
2.6910 -3.7272 -0.2461
2.7128 -3.7139 -0.2414
2.7536 -3.7068 -0.2470
2.7741 -3.7045 -0.2508
2.8986 -3.6516 -0.2427
2.9194 -3.6466 -0.2444
2.9412 -3.6457 -0.2497
2.9810 -3.6247 -0.2439
3.0021 -3.6196 -0.2456
3.0236 -3.6153 -0.2481
3.0434 -3.6061 -0.2462
3.0650 -3.6018 -0.2487
3.1253 -3.5777 -0.2460
3.1451 -3.5695 -0.2449
3.1674 -3.5657 -0.2480
3.2092 -3.5530 -0.2493
3.2310 -3.5476 -0.2511
3.2506 -3.5395 -0.2499
3.2707 -3.5320 -0.2495
3.2920 -3.5260 -0.2505
3.3121 -3.5186 -0.2501
3.3347 -3.5138 -0.2526
3.3555 -3.5071 -0.2529
3.3741 -3.4983 -0.2510
3.3932 -3.4903 -0.2499
3.4313 -3.4744 -0.2476
3.4477 -3.4646 -0.2443
3.4681 -3.4580 -0.2446
3.4946 -3.4555 -0.2499
3.5169 -3.4500 -0.2517
3.5357 -3.4421 -0.2505
3.5562 -3.4354 -0.2508
3.5768 -3.4287 -0.2511
3.5994 -3.4231 -0.2529
3.6220 -3.4175 -0.2546
3.6427 -3.4108 -0.2549
3.6612 -3.4030 -0.2538
3.6818 -3.3962 -0.2541
3.7001 -3.3885 -0.2529
3.7207 -3.3818 -0.2532
2.3743 -3.8821 -0.2552
2.3955 -3.8770 -0.2569
2.4168 -3.8718 -0.2585
2.5735 -3.6576 -0.1357
2.5907 -3.6529 -0.1366
2.6059 -3.6542 -0.1416
2.6237 -3.7812 -0.2438
2.6424 -3.7876 -0.2536
2.6651 -3.7766 -0.2512
2.6866 -3.7713 -0.2529
2.7083 -3.7661 -0.2546
2.7305 -3.7570 -0.2535
2.7525 -3.7499 -0.2538
2.7741 -3.7482 -0.2583
2.7963 -3.7374 -0.2558
2.8183 -3.7302 -0.2562
2.8401 -3.7178 -0.2524
2.8621 -3.7141 -0.2554
2.8839 -3.7052 -0.2544
2.9054 -3.6947 -0.2520
2.9254 -3.6766 -0.2434
2.9492 -3.6822 -0.2540
2.9711 -3.6750 -0.2543
2.9925 -3.6663 -0.2532
3.0157 -3.6641 -0.2577
3.0376 -3.6569 -0.2580
3.0584 -3.6466 -0.2556
3.0789 -3.6363 -0.2531
3.1028 -3.6339 -0.2576
3.1239 -3.6252 -0.2565
3.1425 -3.6120 -0.2513
3.1641 -3.6050 -0.2516
3.1885 -3.6024 -0.2561
3.2122 -3.5982 -0.2592
3.2310 -3.5867 -0.2553
3.2527 -3.5796 -0.2556
3.2745 -3.5726 -0.2560
3.2974 -3.5669 -0.2577
3.3136 -3.5536 -0.2517
3.3409 -3.5527 -0.2583
3.3640 -3.5469 -0.2600
3.3900 -3.5438 -0.2645
3.4091 -3.5340 -0.2620
3.4340 -3.5295 -0.2651
3.4606 -3.5261 -0.2696
3.4748 -3.5126 -0.2630
3.4950 -3.5042 -0.2619
3.5185 -3.4983 -0.2636
3.5404 -3.4912 -0.2639
3.5860 -3.4576 -0.2502
3.6307 -3.4448 -0.2522
3.6603 -3.4423 -0.2582
3.6851 -3.4369 -0.2606
3.7046 -3.4288 -0.2595
3.7207 -3.4191 -0.2563
3.7330 -3.4079 -0.2510
2.5492 -3.6905 -0.1320
2.5705 -3.6754 -0.1264
2.5894 -3.6666 -0.1247
2.6046 -3.6688 -0.1302
2.6182 -3.6779 -0.1403
2.6367 -3.8301 -0.2562
2.8649 -3.7287 -0.2398
2.8875 -3.7249 -0.2427
2.9547 -3.7048 -0.2450
3.0218 -3.6829 -0.2460
3.0455 -3.6797 -0.2496
3.0924 -3.6698 -0.2543
3.1112 -3.6538 -0.2473
3.1998 -3.6231 -0.2473
3.2423 -3.6056 -0.2453
3.2667 -3.6013 -0.2482
3.2867 -3.5912 -0.2459
3.3066 -3.5811 -0.2436
3.3367 -3.5830 -0.2526
3.3604 -3.5770 -0.2542
3.3769 -3.5636 -0.2485
3.4005 -3.5577 -0.2502
3.4228 -3.5504 -0.2505
3.4489 -3.5464 -0.2542
3.4744 -3.5417 -0.2572
3.5038 -3.5150 -0.2451
3.5344 -3.5140 -0.2521
3.5549 -3.5055 -0.2511
3.5754 -3.4971 -0.2501
3.5938 -3.4874 -0.2478
3.6140 -3.4791 -0.2467
3.6341 -3.4707 -0.2457
3.6561 -3.4636 -0.2460
3.6884 -3.4620 -0.2531
3.7150 -3.4569 -0.2561
3.7351 -3.4486 -0.2551
3.7574 -3.4413 -0.2554
3.7752 -3.4319 -0.2530
3.7997 -3.4257 -0.2547
2.3442 -3.9649 -0.2513
2.3672 -3.9592 -0.2528
2.5694 -3.6883 -0.1134
2.5898 -3.6753 -0.1093
2.6079 -3.6685 -0.1089
2.6316 -3.8712 -0.2554
2.6559 -3.8614 -0.2545
2.6795 -3.8555 -0.2561
2.7037 -3.8458 -0.2552
2.7276 -3.8380 -0.2556
2.7517 -3.8275 -0.2540
2.7757 -3.8160 -0.2519
