ply
format ascii 1.0
element vertex 2095
property float x
property float y
property float z
end_header
-4.4202 1.4878 -0.5875
-4.4105 1.5091 -0.5864
-4.4019 1.5324 -0.5866
-4.3922 1.5534 -0.5856
-4.3836 1.5767 -0.5858
-4.3760 1.6022 -0.5873
-4.3699 1.6314 -0.5907
-4.3612 1.6548 -0.5910
-4.8187 0.3066 -0.5772
-4.7364 0.5090 -0.5739
-4.7300 0.5311 -0.5754
-4.6953 0.6201 -0.5749
-4.6788 0.6645 -0.5754
-4.6653 0.6860 -0.5716
-4.6606 0.7086 -0.5745
-4.6490 0.7301 -0.5721
-4.6374 0.7513 -0.5696
-4.6293 0.7732 -0.5699
-4.6245 0.7962 -0.5727
-4.6164 0.8182 -0.5729
-4.6066 0.8397 -0.5718
-4.5984 0.8617 -0.5720
-4.5935 0.8851 -0.5749
-4.5822 0.9057 -0.5725
-4.5709 0.9260 -0.5700
-4.5674 0.9505 -0.5742
-4.5502 0.9670 -0.5665
-4.5362 0.9848 -0.5614
-4.5282 1.0063 -0.5616
-4.5217 1.0289 -0.5631
-4.5142 1.0792 -0.5715
-4.5062 1.1308 -0.5799
-4.4899 1.1449 -0.5722
-4.4858 1.1710 -0.5764
-4.4747 1.2212 -0.5821
-4.4626 1.2387 -0.5783
-4.4582 1.2657 -0.5825
-4.3830 1.4639 -0.5832
-4.3779 1.4926 -0.5874
-4.3477 1.5891 -0.5923
-4.8361 0.1639 -0.5771
-4.8215 0.1884 -0.5732
-4.8136 0.2098 -0.5734
-4.8056 0.2312 -0.5736
-4.7999 0.2518 -0.5752
-4.7940 0.2725 -0.5768
-4.7840 0.2948 -0.5756
-4.7760 0.3162 -0.5758
-4.7722 0.3365 -0.5788
-4.7601 0.3592 -0.5763
-4.7562 0.3796 -0.5792
-4.7503 0.4008 -0.5808
-4.7363 0.4236 -0.5769
-4.7323 0.4444 -0.5798
-4.7224 0.4662 -0.5787
-4.7163 0.4875 -0.5802
-4.7083 0.5091 -0.5805
-4.6985 0.5308 -0.5793
-4.6905 0.5523 -0.5795
-4.6788 0.5739 -0.5770
-4.6746 0.5953 -0.5799
-4.6666 0.6169 -0.5801
-4.6604 0.6385 -0.5817
-4.6560 0.6605 -0.5847
-4.6444 0.6817 -0.5821
-4.6347 0.7029 -0.5810
-4.6171 0.7456 -0.5800
-4.6075 0.7666 -0.5788
-4.5996 0.7880 -0.5791
-4.5900 0.8089 -0.5779
-4.5821 0.8302 -0.5781
-4.5710 0.8503 -0.5756
-4.5710 0.8751 -0.5826
-4.5631 0.8966 -0.5829
-4.5520 0.9165 -0.5803
-4.5411 0.9362 -0.5778
-4.5297 0.9817 -0.5823
-4.5247 1.0053 -0.5853
-4.5181 1.0279 -0.5869
-4.4979 1.0676 -0.5831
-4.4900 1.0891 -0.5834
-4.4861 1.1144 -0.5877
-4.4728 1.1307 -0.5824
-4.4714 1.1591 -0.5895
-4.4634 1.1808 -0.5897
-4.4528 1.1994 -0.5872
-4.4436 1.2194 -0.5860
-4.4381 1.2442 -0.5890
-4.4289 1.2642 -0.5878
-4.4209 1.2857 -0.5880
-4.4141 1.3091 -0.5896
-4.4096 1.3362 -0.5940
-4.3992 1.3542 -0.5914
-4.3878 1.3701 -0.5875
-4.3832 1.3976 -0.5918
-4.3708 1.4111 -0.5865
-4.3618 1.4305 -0.5853
-4.3560 1.4562 -0.5883
-4.3511 1.4843 -0.5927
-4.3431 1.5060 -0.5929
-4.3340 1.5253 -0.5917
-4.3251 1.5446 -0.5905
-4.3161 1.5638 -0.5893
-4.7631 0.2272 -0.5659
-4.7502 0.2496 -0.5625
-4.7534 0.2657 -0.5698
-4.7435 0.3048 -0.5738
-4.7400 0.3241 -0.5768
-4.7323 0.3447 -0.5770
-4.7130 0.3871 -0.5746
-4.7024 0.4083 -0.5726
-4.7017 0.4275 -0.5778
-4.6921 0.4485 -0.5766
-4.6903 0.4682 -0.5811
-4.6217 0.6340 -0.5770
-4.6056 0.6750 -0.5767
-4.5912 0.7162 -0.5778
-4.5334 0.8823 -0.5822
-4.5061 0.9167 -0.5712
-4.4846 1.0042 -0.5806
-4.4749 1.0231 -0.5786
-4.3431 1.4014 -0.5887
-4.3344 1.4199 -0.5875
-4.7548 0.1934 -0.5740
-4.7485 0.2127 -0.5750
-4.7433 0.2317 -0.5766
-4.7327 0.2530 -0.5746
-4.7232 0.2736 -0.5733
-4.7159 0.2934 -0.5735
-4.7055 0.3143 -0.5715
-4.7033 0.3324 -0.5754
-4.6970 0.3519 -0.5763
-4.6896 0.3718 -0.5765
-4.6823 0.3917 -0.5767
-4.6749 0.4116 -0.5769
-4.6675 0.4315 -0.5771
-4.6592 0.4516 -0.5766
-4.6567 0.4707 -0.5804
-4.6493 0.4907 -0.5806
-4.6326 0.5308 -0.5795
-4.6252 0.5507 -0.5797
-4.6160 0.5707 -0.5785
-4.6078 0.5906 -0.5779
-4.6031 0.6105 -0.5803
-4.6001 0.6308 -0.5842
-4.5918 0.6508 -0.5837
-4.5844 0.6708 -0.5839
-4.5753 0.6906 -0.5826
-4.5704 0.7111 -0.5850
-4.5588 0.7302 -0.5815
-4.5498 0.7497 -0.5802
-4.5424 0.7695 -0.5804
-4.5367 0.7900 -0.5821
-4.5293 0.8099 -0.5823
-4.5219 0.8299 -0.5825
-4.5130 0.8491 -0.5812
-4.4952 0.8872 -0.5786
-4.4828 0.9282 -0.5812
-4.4791 0.9505 -0.5851
-4.4681 0.9679 -0.5816
-4.4629 0.9894 -0.5840
-4.4541 1.0082 -0.5827
-4.4461 1.0275 -0.5822
-4.4387 1.0473 -0.5824
-4.4314 1.0672 -0.5825
-4.4154 1.1055 -0.5814
-4.4112 1.1289 -0.5854
-4.4038 1.1489 -0.5856
-4.3977 1.1704 -0.5873
-4.3891 1.1888 -0.5860
-4.3817 1.2087 -0.5861
-4.3743 1.2286 -0.5863
-4.3658 1.2468 -0.5850
-4.3596 1.2685 -0.5867
-4.3550 1.2931 -0.5907
-4.3498 1.3170 -0.5939
-4.3401 1.3333 -0.5911
-4.3311 1.3503 -0.5890
-4.3227 1.3682 -0.5877
-4.3163 1.3903 -0.5894
-4.3089 1.4103 -0.5896
-4.3015 1.4303 -0.5898
-4.2922 1.4457 -0.5870
-4.2867 1.4702 -0.5902
-4.2793 1.4902 -0.5904
-4.7120 0.2097 -0.5680
-4.7082 0.2271 -0.5704
-4.7044 0.2447 -0.5729
-4.6931 0.2656 -0.5700
-4.6892 0.2833 -0.5725
-4.6894 0.2997 -0.5780
-4.6792 0.3200 -0.5759
-4.6711 0.3395 -0.5754
-4.6670 0.3578 -0.5778
-4.6609 0.3767 -0.5788
-4.6337 0.4357 -0.5748
-4.6228 0.4555 -0.5719
-4.6110 0.4752 -0.5682
-4.6040 0.4941 -0.5684
-4.5779 0.5695 -0.5707
-4.5709 0.5884 -0.5709
-4.5666 0.6074 -0.5734
-4.5604 0.6264 -0.5743
-4.5534 0.6455 -0.5745
-4.5429 0.6640 -0.5716
-4.5461 0.6846 -0.5810
-4.5206 0.7412 -0.5777
-4.5103 0.7593 -0.5748
-4.5009 0.7775 -0.5727
-4.4877 0.8156 -0.5739
-4.4845 0.8363 -0.5779
-4.4760 0.8546 -0.5765
-4.4644 0.8712 -0.5721
-4.4552 0.8888 -0.5700
-4.4563 0.9126 -0.5786
-4.4457 0.9292 -0.5750
-4.4379 0.9477 -0.5744
-4.4281 0.9889 -0.5794
-4.4210 1.0079 -0.5796
-4.4146 1.0276 -0.5805
-4.3996 1.0390 -0.5714
-4.3946 1.0598 -0.5739
-4.3896 1.0807 -0.5764
-4.3805 1.1246 -0.5830
-4.3741 1.1445 -0.5840
-4.3652 1.1613 -0.5818
-4.3510 1.1995 -0.5822
-4.3468 1.2229 -0.5863
-4.3403 1.2431 -0.5872
-4.3315 1.2595 -0.5851
-4.3239 1.2778 -0.5845
-4.3157 1.2949 -0.5831
-4.3133 1.3231 -0.5903
-4.3057 1.3414 -0.5897
-4.2747 1.4129 -0.5866
-4.2672 1.4309 -0.5860
-4.2587 1.4465 -0.5838
-3.5767 0.1831 -0.2627
-3.5727 0.1893 -0.2643
-3.5686 0.1955 -0.2659
-3.5618 0.1972 -0.2714
-3.5565 0.2020 -0.2745
-3.5534 0.2105 -0.2746
-3.5496 0.2181 -0.2754
-3.5436 0.2225 -0.2794
-3.5375 0.2272 -0.2833
-3.5324 0.2337 -0.2857
-3.5273 0.2403 -0.2881
-3.5222 0.2471 -0.2904
-3.5176 0.2547 -0.2921
-3.5098 0.2591 -0.2975
-3.5025 0.2645 -0.3023
-3.4977 0.2726 -0.3039
-3.4840 0.2859 -0.3118
-3.4763 0.2924 -0.3165
-3.4706 0.3008 -0.3189
-3.4634 0.3083 -0.3228
-3.4381 0.3176 -0.3423
-3.4340 0.3283 -0.3424
-3.4344 0.3414 -0.3379
-3.4197 0.3596 -0.3451
-3.4039 0.3784 -0.3530
-3.3943 0.3878 -0.3585
-3.3854 0.3977 -0.3633
-3.3695 0.4189 -0.3705
-3.3553 0.4288 -0.3799
-3.3442 0.4398 -0.3862
-3.3380 0.4518 -0.3878
-3.3258 0.4634 -0.3949
-3.3160 0.4756 -0.3997
-3.3060 0.4881 -0.4045
-3.0185 0.7748 -0.5671
-3.0097 0.7938 -0.5688
-2.9997 0.8134 -0.5713
-2.9887 0.8336 -0.5746
-2.9775 0.8540 -0.5779
-2.9685 0.8736 -0.5796
-2.9648 0.8905 -0.5775
-2.9579 0.9089 -0.5776
-3.5800 0.1794 -0.2506
-3.5755 0.1844 -0.2529
-3.5704 0.1885 -0.2559
-3.5663 0.1947 -0.2575
-3.5611 0.1992 -0.2605
-3.5564 0.2048 -0.2628
-3.5516 0.2106 -0.2651
-3.5461 0.2156 -0.2681
-3.5424 0.2234 -0.2690
-3.5374 0.2296 -0.2713
-3.5306 0.2336 -0.2758
-3.5255 0.2402 -0.2781
-3.5203 0.2469 -0.2804
-3.5138 0.2524 -0.2842
-3.5031 0.2668 -0.2889
-3.4977 0.2742 -0.2912
-3.4853 0.2884 -0.2973
-3.4790 0.2958 -0.3004
-3.4713 0.3024 -0.3049
-3.4641 0.3098 -0.3087
-3.4476 0.3114 -0.3223
-3.4365 0.3174 -0.3298
-3.4325 0.3281 -0.3299
-3.4337 0.3415 -0.3248
-3.4175 0.3589 -0.3332
-3.4119 0.3691 -0.3348
-3.4008 0.3774 -0.3416
-3.3936 0.3875 -0.3447
-3.3870 0.3980 -0.3470
-3.3787 0.4082 -0.3509
-3.3704 0.4187 -0.3547
-3.3561 0.4284 -0.3638
-3.3363 0.4508 -0.3738
-3.3274 0.4627 -0.3776
-3.3151 0.4746 -0.3845
-3.3051 0.4870 -0.3891
-3.2950 0.4997 -0.3937
-3.2822 0.5129 -0.4006
-3.2682 0.5265 -0.4082
-3.2587 0.5403 -0.4121
-3.2518 0.5540 -0.4137
-2.9666 0.8394 -0.5678
-2.9542 0.8608 -0.5717
-2.9461 0.8802 -0.5726
-2.9368 0.9003 -0.5743
-2.9286 0.9199 -0.5753
-3.5783 0.1797 -0.2417
-3.5748 0.1867 -0.2424
-3.5692 0.1897 -0.2461
-3.5640 0.1940 -0.2490
-3.5599 0.2003 -0.2505
-3.5557 0.2068 -0.2520
-3.5515 0.2133 -0.2535
-3.5472 0.2200 -0.2550
-3.5405 0.2234 -0.2594
-3.5299 0.2351 -0.2646
-3.5236 0.2401 -0.2682
-3.5144 0.2551 -0.2713
-3.5085 0.2614 -0.2742
-3.5025 0.2679 -0.2772
-3.4964 0.2746 -0.2801
-3.4903 0.2815 -0.2831
-3.4777 0.2960 -0.2890
-3.4707 0.3030 -0.2927
-3.4635 0.3103 -0.2964
-3.4454 0.3109 -0.3108
-3.4357 0.3177 -0.3167
-3.4340 0.3296 -0.3146
-3.4308 0.3406 -0.3140
-3.4261 0.3507 -0.3148
-3.4191 0.3599 -0.3178
-3.4089 0.3681 -0.3236
-3.4009 0.3775 -0.3273
-3.3739 0.4067 -0.3406
-3.3672 0.4177 -0.3429
-3.3595 0.4286 -0.3459
-3.3518 0.4397 -0.3489
-3.3406 0.4506 -0.3548
-3.3318 0.4622 -0.3585
-3.3194 0.4738 -0.3651
-3.3069 0.4859 -0.3717
-3.2951 0.4985 -0.3776
-3.2849 0.5114 -0.3821
-3.2727 0.5248 -0.3880
-3.2586 0.5387 -0.3953
-3.2480 0.5527 -0.3998
-3.2132 0.5840 -0.4189
-3.2088 0.5980 -0.4183
-2.9041 0.9123 -0.5730
-2.8990 0.9308 -0.5717
-3.5731 0.1869 -0.2336
-3.5680 0.1909 -0.2364
-3.5639 0.1971 -0.2378
-3.5598 0.2033 -0.2393
-3.5556 0.2096 -0.2407
-3.5503 0.2143 -0.2435
-3.5454 0.2200 -0.2457
-3.5399 0.2251 -0.2485
-3.5350 0.2312 -0.2507
-3.5248 0.2438 -0.2550
-3.5178 0.2482 -0.2592
-3.5126 0.2550 -0.2613
-3.5073 0.2619 -0.2635
-3.5006 0.2677 -0.2670
-3.4952 0.2750 -0.2692
-3.4897 0.2825 -0.2713
-3.4848 0.2907 -0.2728
-3.4779 0.2973 -0.2763
-3.4708 0.3042 -0.2799
-3.4622 0.3104 -0.2848
-3.4447 0.3113 -0.2980
-3.4357 0.3185 -0.3030
-3.4325 0.3295 -0.3024
-3.4346 0.3431 -0.2969
-3.4262 0.3512 -0.3012
-3.4192 0.3603 -0.3041
-3.4122 0.3696 -0.3069
-3.3995 0.3770 -0.3147
-3.3954 0.3880 -0.3148
-3.3864 0.3975 -0.3190
-3.3782 0.4075 -0.3226
-3.3665 0.4171 -0.3290
-3.3588 0.4279 -0.3318
-3.3511 0.4390 -0.3347
-3.3407 0.4499 -0.3397
-3.3267 0.4609 -0.3475
-3.3160 0.4727 -0.3524
-3.3061 0.4848 -0.3567
-3.2978 0.4973 -0.3596
-3.2614 0.5369 -0.3767
-3.2462 0.5513 -0.3845
-3.2345 0.5657 -0.3895
-3.2059 0.5965 -0.4030
-3.1957 0.6117 -0.4066
-3.1824 0.6279 -0.4123
-3.1591 0.6471 -0.4250
-3.5719 0.1882 -0.2241
-3.5639 0.2002 -0.2268
-3.5586 0.2044 -0.2296
-3.5539 0.2098 -0.2316
-3.5480 0.2135 -0.2350
-3.5431 0.2193 -0.2371
-3.5376 0.2243 -0.2398
-3.5338 0.2320 -0.2405
-3.5306 0.2405 -0.2406
-3.5237 0.2445 -0.2447
-3.5173 0.2495 -0.2480
-3.5114 0.2555 -0.2508
-3.5061 0.2624 -0.2529
-3.5007 0.2694 -0.2549
-3.4953 0.2766 -0.2570
-3.4885 0.2828 -0.2604
-3.4822 0.2898 -0.2631
-3.4752 0.2964 -0.2666
-3.4702 0.3049 -0.2680
-3.4587 0.3090 -0.2754
-3.4336 0.3180 -0.2915
-3.4334 0.3306 -0.2883
-3.4264 0.3517 -0.2878
-3.4225 0.3620 -0.2879
-3.4116 0.3695 -0.2940
-3.4028 0.3783 -0.2981
-3.3932 0.3872 -0.3029
-3.3842 0.3967 -0.3070
-3.3775 0.4071 -0.3091
-3.3683 0.4172 -0.3132
-3.3513 0.4384 -0.3201
-3.3392 0.4490 -0.3262
-3.3286 0.4602 -0.3310
-3.3197 0.4720 -0.3344
-3.2962 0.4961 -0.3454
-3.2823 0.5089 -0.3522
-3.2738 0.5219 -0.3550
-3.2606 0.5354 -0.3611
-3.2500 0.5492 -0.3653
-3.2393 0.5632 -0.3694
-3.2227 0.5785 -0.3776
-3.2097 0.5937 -0.3831
-3.1986 0.6089 -0.3872
-3.1824 0.6256 -0.3947
-3.1660 0.6428 -0.4023
-3.1453 0.6618 -0.4125
-3.1314 0.6793 -0.4180
-3.1236 0.6953 -0.4195
-3.5668 0.1954 -0.2160
-3.5622 0.2004 -0.2180
-3.5592 0.2084 -0.2181
-3.5522 0.2099 -0.2226
-3.5480 0.2163 -0.2239
-3.5426 0.2211 -0.2265
-3.5376 0.2269 -0.2285
-3.5320 0.2320 -0.2311
-3.5289 0.2405 -0.2312
-3.5225 0.2452 -0.2345
-3.5174 0.2517 -0.2364
-3.5109 0.2568 -0.2397
-3.4996 0.2699 -0.2443
-3.4928 0.2758 -0.2476
-3.4880 0.2837 -0.2489
-3.4824 0.2912 -0.2509
-3.4726 0.2955 -0.2568
-3.4690 0.3050 -0.2569
-3.4589 0.3101 -0.2627
-3.4412 0.3108 -0.2749
-3.4359 0.3201 -0.2763
-3.4305 0.3420 -0.2745
-3.4259 0.3518 -0.2753
-3.4197 0.3610 -0.2773
-3.4110 0.3695 -0.2812
-3.3950 0.3878 -0.2878
-3.3844 0.3966 -0.2930
-3.3770 0.4067 -0.2957
-3.3686 0.4168 -0.2990
-3.3576 0.4267 -0.3042
-3.3498 0.4376 -0.3069
-3.3412 0.4486 -0.3102
-3.3289 0.4595 -0.3161
-3.3208 0.4711 -0.3188
-3.3091 0.4828 -0.3240
-3.3000 0.4950 -0.3274
-3.2843 0.5076 -0.3352
-3.2731 0.5205 -0.3398
-3.2588 0.5341 -0.3464
-3.2530 0.5472 -0.3471
-3.2413 0.5612 -0.3517
-3.2267 0.5760 -0.3583
-3.2118 0.5913 -0.3649
-3.2016 0.6062 -0.3682
-3.1844 0.6228 -0.3761
-3.1493 0.6581 -0.3918
-3.1406 0.6739 -0.3939
-3.1236 0.6925 -0.4011
-3.0878 0.7319 -0.4163
-3.5564 0.2067 -0.2105
-3.5511 0.2110 -0.2130
-3.5420 0.2229 -0.2161
-3.5353 0.2261 -0.2199
-3.5315 0.2337 -0.2206
-3.5271 0.2405 -0.2219
-3.5208 0.2452 -0.2250
-3.5163 0.2523 -0.2263
-3.5117 0.2595 -0.2276
-3.5044 0.2641 -0.2313
-3.4991 0.2710 -0.2332
-3.4930 0.2775 -0.2357
-3.4875 0.2847 -0.2377
-3.4806 0.2909 -0.2408
-3.4764 0.2996 -0.2415
-3.4664 0.3041 -0.2471
-3.4391 0.3103 -0.2638
-3.4353 0.3205 -0.2638
-3.4315 0.3308 -0.2639
-3.4331 0.3438 -0.2598
-3.4246 0.3516 -0.2635
-3.4184 0.3608 -0.2654
-3.4114 0.3698 -0.2680
-3.4034 0.3787 -0.2712
-3.3954 0.3878 -0.2743
-3.3839 0.3963 -0.2799
-3.3773 0.4065 -0.2819
-3.3605 0.4268 -0.2882
-3.3484 0.4368 -0.2939
-3.3397 0.4477 -0.2970
-3.3274 0.4585 -0.3027
-3.3193 0.4701 -0.3053
-3.3112 0.4819 -0.3078
-3.2948 0.4938 -0.3159
-3.2864 0.5063 -0.3185
-3.2676 0.5319 -0.3249
-3.2268 0.5741 -0.3419
-3.2169 0.5885 -0.3451
-3.2028 0.6038 -0.3508
-3.1805 0.6215 -0.3614
-3.1513 0.6550 -0.3728
-3.1396 0.6716 -0.3767
-3.1256 0.6891 -0.3818
-3.0866 0.7293 -0.3982
-3.0710 0.7487 -0.4039
-3.0552 0.7686 -0.4096
-3.5554 0.2078 -0.2011
-3.5506 0.2130 -0.2029
-3.5458 0.2184 -0.2047
-3.5410 0.2239 -0.2065
-3.5361 0.2295 -0.2083
-3.5305 0.2345 -0.2107
-3.5261 0.2413 -0.2120
-3.5210 0.2474 -0.2138
-3.5145 0.2522 -0.2168
-3.5100 0.2594 -0.2180
-3.5013 0.2626 -0.2228
-3.4973 0.2709 -0.2234
-3.4926 0.2785 -0.2247
-3.4878 0.2863 -0.2259
-3.4738 0.2987 -0.2319
-3.4681 0.3064 -0.2338
-3.4602 0.3128 -0.2374
-3.4386 0.3108 -0.2515
-3.4340 0.3205 -0.2522
-3.4325 0.3319 -0.2505
-3.4326 0.3441 -0.2477
-3.4258 0.3525 -0.2501
-3.4172 0.3605 -0.2537
-3.4101 0.3694 -0.2562
-3.4013 0.3780 -0.2598
-3.3941 0.3874 -0.2622
-3.3851 0.3965 -0.2658
-3.3768 0.4062 -0.2689
-3.3608 0.4264 -0.2743
-3.3488 0.4363 -0.2797
-3.3322 0.4582 -0.2852
-3.3251 0.4696 -0.2871
-3.3097 0.4808 -0.2943
-3.2960 0.4927 -0.3003
-3.2886 0.5050 -0.3022
-3.2783 0.5176 -0.3058
-3.2640 0.5307 -0.3118
-3.2515 0.5442 -0.3167
-3.2418 0.5578 -0.3197
-3.2300 0.5719 -0.3240
-3.1990 0.6025 -0.3366
-3.1867 0.6179 -0.3409
-3.1661 0.6357 -0.3499
-3.1503 0.6528 -0.3559
-3.1396 0.6690 -0.3590
-3.1204 0.6880 -0.3669
-3.1094 0.7049 -0.3700
-3.0898 0.7251 -0.3778
-3.0774 0.7431 -0.3815
-3.0584 0.7641 -0.3888
-3.0436 0.7838 -0.3937
-3.0208 0.8074 -0.4027
-2.9789 0.8546 -0.4185
-3.5579 0.2020 -0.1912
-3.5537 0.2080 -0.1923
-3.5502 0.2150 -0.1930
-3.5448 0.2194 -0.1953
-3.5393 0.2240 -0.1975
-3.5356 0.2313 -0.1982
-3.5300 0.2362 -0.2005
-3.5244 0.2413 -0.2028
-3.5199 0.2482 -0.2040
-3.5135 0.2529 -0.2068
-3.5082 0.2593 -0.2086
-3.5029 0.2659 -0.2103
-3.4908 0.2783 -0.2149
-3.4860 0.2860 -0.2161
-3.4791 0.2921 -0.2190
-3.4727 0.2990 -0.2213
-3.4685 0.3077 -0.2219
-3.4583 0.3124 -0.2270
-3.4403 0.3127 -0.2377
-3.4327 0.3204 -0.2406
-3.4330 0.3447 -0.2352
-3.4278 0.3538 -0.2364
-3.4184 0.3613 -0.2404
-3.4105 0.3698 -0.2433
-3.4009 0.3779 -0.2473
-3.3928 0.3869 -0.2502
-3.3846 0.3963 -0.2531
-3.3738 0.4052 -0.2577
-3.3680 0.4156 -0.2589
-3.3604 0.4259 -0.2612
-3.3500 0.4359 -0.2653
-3.3423 0.4467 -0.2676
-3.3308 0.4573 -0.2722
-3.3201 0.4684 -0.2763
-3.3083 0.4798 -0.2809
-3.3019 0.4917 -0.2821
-3.2890 0.5038 -0.2873
-3.2787 0.5162 -0.2908
-3.2653 0.5292 -0.2959
-3.2528 0.5425 -0.3006
-3.2421 0.5561 -0.3041
-3.2313 0.5699 -0.3076
-3.2154 0.5849 -0.3139
-3.1890 0.6153 -0.3231
-3.1724 0.6318 -0.3295
-3.1322 0.6817 -0.3429
-3.1063 0.7031 -0.3538
-3.0930 0.7210 -0.3579
-3.0785 0.7396 -0.3625
-3.0628 0.7591 -0.3678
-3.0435 0.7805 -0.3747
-3.0251 0.8019 -0.3811
-2.9595 0.8743 -0.4048
-3.5533 0.2101 -0.1826
-3.5480 0.2143 -0.1848
-3.5444 0.2213 -0.1854
-3.5377 0.2241 -0.1886
-3.5340 0.2314 -0.1892
-3.5297 0.2379 -0.1904
-3.5233 0.2421 -0.1931
-3.5189 0.2489 -0.1942
-3.5138 0.2551 -0.1959
-3.5092 0.2621 -0.1970
-3.5026 0.2672 -0.1997
-3.4973 0.2739 -0.2014
-3.4904 0.2794 -0.2041
-3.4850 0.2864 -0.2058
-3.4773 0.2918 -0.2091
-3.4716 0.2993 -0.2107
-3.4652 0.3063 -0.2129
-3.4414 0.3142 -0.2248
-3.4354 0.3227 -0.2265
-3.4356 0.3348 -0.2239
-3.4311 0.3442 -0.2245
-3.4258 0.3533 -0.2257
-3.4172 0.3611 -0.2290
-3.4093 0.3695 -0.2317
-3.4022 0.3784 -0.2340
-3.3933 0.3871 -0.2372
-3.3860 0.3965 -0.2395
-3.3777 0.4059 -0.2422
-3.3711 0.4160 -0.2439
-3.3591 0.4252 -0.2488
-3.3523 0.4358 -0.2505
-3.3409 0.4459 -0.2549
-3.3294 0.4564 -0.2593
-3.3214 0.4676 -0.2615
-3.3134 0.4790 -0.2638
-3.2986 0.4906 -0.2698
-3.2922 0.5026 -0.2710
-3.2772 0.5150 -0.2770
-3.2667 0.5277 -0.2803
-3.2581 0.5405 -0.2826
-3.2455 0.5540 -0.2870
-3.2297 0.5684 -0.2930
-3.2127 0.5835 -0.2996
-3.2066 0.5970 -0.3002
-3.1768 0.6285 -0.3107
-3.1622 0.6449 -0.3157
-3.1463 0.6620 -0.3212
-3.1161 0.6972 -0.3311
-3.0964 0.7169 -0.3383
-3.0786 0.7366 -0.3443
-3.0662 0.7546 -0.3477
-3.0240 0.7989 -0.3626
-3.0076 0.8199 -0.3676
-3.5476 0.2163 -0.1751
-3.5428 0.2215 -0.1767
-3.5386 0.2277 -0.1778
-3.5330 0.2323 -0.1798
-3.5280 0.2379 -0.1814
-3.5237 0.2445 -0.1825
-3.5172 0.2489 -0.1851
-3.5128 0.2558 -0.1862
-3.5069 0.2613 -0.1882
-3.5009 0.2671 -0.1903
-3.4916 0.2818 -0.1925
-3.4839 0.2868 -0.1956
-3.4791 0.2945 -0.1967
-3.4743 0.3024 -0.1978
-3.4657 0.3076 -0.2014
-3.4508 0.3091 -0.2090
-3.4394 0.3138 -0.2142
-3.4326 0.3218 -0.2163
-3.4337 0.3343 -0.2133
-3.4324 0.3453 -0.2119
-3.4231 0.3524 -0.2155
-3.4169 0.3612 -0.2171
-3.4082 0.3692 -0.2203
-3.4010 0.3781 -0.2224
-3.3938 0.3872 -0.2245
-3.3839 0.3958 -0.2281
-3.3765 0.4054 -0.2303
-3.3707 0.4156 -0.2314
-3.3596 0.4249 -0.2355
-3.3510 0.4350 -0.2382
-3.3406 0.4452 -0.2418
-3.3318 0.4559 -0.2445
-3.3238 0.4669 -0.2466
-3.3139 0.4781 -0.2498
-3.3029 0.4896 -0.2534
-3.2805 0.5136 -0.2608
-3.2701 0.5261 -0.2639
-3.2566 0.5392 -0.2686
-3.2499 0.5519 -0.2698
-3.2321 0.5663 -0.2765
-3.2212 0.5802 -0.2797
-3.2070 0.5950 -0.2844
-3.1948 0.6099 -0.2881
-3.1824 0.6251 -0.2918
-3.1731 0.6398 -0.2940
-3.1196 0.6933 -0.3123
-3.1009 0.7125 -0.3185
-3.0843 0.7315 -0.3238
-3.0685 0.7506 -0.3286
-3.0470 0.7724 -0.3359
-3.0285 0.7936 -0.3417
-3.0122 0.8143 -0.3464
-2.9957 0.8354 -0.3512
-3.5419 0.2226 -0.1676
-3.5376 0.2287 -0.1686
-3.5314 0.2324 -0.1710
-3.5264 0.2380 -0.1725
-3.5234 0.2462 -0.1726
-3.5170 0.2505 -0.1750
-3.5111 0.2557 -0.1770
-3.5073 0.2634 -0.1776
-3.5020 0.2698 -0.1791
-3.4953 0.2749 -0.1815
-3.4906 0.2823 -0.1826
-3.4837 0.2878 -0.1850
-3.4774 0.2943 -0.1870
-3.4711 0.3009 -0.1890
-3.4639 0.3073 -0.1915
-3.4504 0.3097 -0.1978
-3.4391 0.3143 -0.2026
-3.4338 0.3231 -0.2037
-3.4374 0.3369 -0.1995
-3.4236 0.3530 -0.2035
-3.4158 0.3610 -0.2059
-3.4121 0.3709 -0.2060
-3.4042 0.3793 -0.2085
-3.3952 0.3876 -0.2115
-3.3879 0.3968 -0.2135
-3.3771 0.4053 -0.2174
-3.3696 0.4150 -0.2194
-3.3507 0.4344 -0.2254
-3.3439 0.4450 -0.2270
-3.3323 0.4552 -0.2309
-3.3225 0.4660 -0.2339
-3.3126 0.4771 -0.2369
-3.3044 0.4886 -0.2389
-3.2821 0.5123 -0.2459
-3.2707 0.5247 -0.2494
-3.2631 0.5372 -0.2509
-3.2346 0.5643 -0.2603
-3.2206 0.5785 -0.2648
-3.2106 0.5925 -0.2673
-3.1994 0.6069 -0.2704
-3.1839 0.6226 -0.2753
-3.1566 0.6543 -0.2833
-3.1329 0.6737 -0.2917
-3.1067 0.7077 -0.2988
-3.0901 0.7265 -0.3038
-3.0721 0.7462 -0.3092
-3.0596 0.7642 -0.3123
-3.0344 0.7878 -0.3207
-2.9934 0.8328 -0.3332
-2.9720 0.8566 -0.3396
-3.5409 0.2236 -0.1585
-3.5367 0.2297 -0.1595
-3.5318 0.2351 -0.1609
-3.5255 0.2389 -0.1632
-3.5218 0.2462 -0.1638
-3.5167 0.2520 -0.1652
-3.5102 0.2565 -0.1675
-3.5056 0.2634 -0.1685
-3.5011 0.2704 -0.1694
-3.4943 0.2754 -0.1718
-3.4896 0.2827 -0.1727
-3.4820 0.2876 -0.1755
-3.4779 0.2958 -0.1761
-3.4652 0.3091 -0.1798
-3.4371 0.3139 -0.1921
-3.4335 0.3236 -0.1922
-3.4331 0.3351 -0.1905
-3.4295 0.3448 -0.1906
-3.4242 0.3536 -0.1916
-3.4156 0.3611 -0.1944
-3.4111 0.3706 -0.1949
-3.4039 0.3793 -0.1968
-3.3942 0.3872 -0.2001
-3.3868 0.3964 -0.2020
-3.3786 0.4055 -0.2044
-3.3684 0.4144 -0.2076
-3.3590 0.4239 -0.2105
-3.3523 0.4342 -0.2119
-3.3427 0.4442 -0.2147
-3.3348 0.4548 -0.2167
-3.3250 0.4654 -0.2195
-3.3132 0.4762 -0.2232
-3.3041 0.4875 -0.2256
-3.2969 0.4991 -0.2271
-3.2827 0.5111 -0.2317
-3.2703 0.5234 -0.2355
-3.2657 0.5355 -0.2356
-3.2342 0.5627 -0.2459
-3.2232 0.5763 -0.2487
-3.2091 0.5908 -0.2529
-3.1958 0.6056 -0.2567
-3.1676 0.6367 -0.2647
-3.1549 0.6525 -0.2681
-3.1421 0.6686 -0.2714
-3.1038 0.7060 -0.2831
-3.0882 0.7243 -0.2874
-3.0746 0.7422 -0.2907
-3.0587 0.7614 -0.2950
-3.0357 0.7839 -0.3021
-3.0052 0.8239 -0.3097
-2.9826 0.8478 -0.3163
-3.5352 0.2299 -0.1510
-3.5302 0.2352 -0.1523
-3.5253 0.2406 -0.1536
-3.5137 0.2505 -0.1572
-3.5100 0.2579 -0.1577
-3.5054 0.2648 -0.1586
-3.4995 0.2703 -0.1603
-3.4934 0.2760 -0.1621
-3.4873 0.2819 -0.1639
-3.4818 0.2887 -0.1652
-3.4763 0.2956 -0.1666
-3.4691 0.3015 -0.1688
-3.4392 0.3159 -0.1796
-3.4324 0.3236 -0.1814
-3.4345 0.3364 -0.1785
-3.4310 0.3459 -0.1786
-3.4224 0.3531 -0.1812
-3.4154 0.3613 -0.1830
-3.4083 0.3697 -0.1848
-3.4021 0.3786 -0.1862
-3.3940 0.3871 -0.1884
-3.3867 0.3962 -0.1902
-3.3793 0.4054 -0.1920
-3.3709 0.4147 -0.1942
-3.3606 0.4238 -0.1973
-3.3511 0.4335 -0.2000
-3.3443 0.4438 -0.2013
-3.3327 0.4538 -0.2049
-3.3229 0.4644 -0.2075
-3.3149 0.4754 -0.2093
-3.3048 0.4866 -0.2120
-3.2956 0.4980 -0.2143
-3.2824 0.5099 -0.2182
-3.2729 0.5219 -0.2205
-3.2634 0.5343 -0.2227
-3.2497 0.5473 -0.2267
-3.2389 0.5604 -0.2294
-3.2228 0.5747 -0.2342
-3.2128 0.5883 -0.2365
-3.1914 0.6167 -0.2415
-3.1757 0.6325 -0.2459
-3.1448 0.6654 -0.2543
-3.1307 0.6820 -0.2579
-3.1153 0.6995 -0.2619
-3.0998 0.7174 -0.2660
-3.0807 0.7370 -0.2713
-3.0406 0.7787 -0.2824
-3.0243 0.7987 -0.2864
-2.9851 0.8430 -0.2967
-2.9718 0.8629 -0.2994
-3.5294 0.2362 -0.1433
-3.5251 0.2424 -0.1442
-3.5200 0.2479 -0.1455
-3.5098 0.2594 -0.1480
-3.5053 0.2662 -0.1488
-3.4986 0.2709 -0.1509
-3.4910 0.2752 -0.1533
-3.4864 0.2824 -0.1542
-3.4816 0.2898 -0.1551
-3.4754 0.2960 -0.1567
-3.4698 0.3030 -0.1580
-3.4641 0.3102 -0.1593
-3.4457 0.3091 -0.1669
-3.4374 0.3155 -0.1694
-3.4314 0.3237 -0.1706
-3.4352 0.3373 -0.1672
-3.4300 0.3459 -0.1680
-3.4239 0.3541 -0.1693
-3.4170 0.3622 -0.1710
-3.4099 0.3705 -0.1727
-3.4019 0.3786 -0.1748
-3.3947 0.3873 -0.1765
-3.3865 0.3960 -0.1785
-3.3782 0.4049 -0.1806
-3.3699 0.4141 -0.1827
-3.3632 0.4239 -0.1840
-3.3510 0.4329 -0.1877
-3.3432 0.4431 -0.1894
-3.3325 0.4531 -0.1923
-3.3246 0.4638 -0.1940
-3.3175 0.4747 -0.1953
-3.3095 0.4857 -0.1970
-3.2964 0.4969 -0.2008
-3.2831 0.5086 -0.2045
-3.2696 0.5208 -0.2082
-3.2611 0.5331 -0.2099
-3.2514 0.5457 -0.2120
-3.2375 0.5590 -0.2158
-3.2266 0.5724 -0.2183
-3.2124 0.5866 -0.2221
-3.2012 0.6006 -0.2246
-3.1763 0.6302 -0.2305
-3.1636 0.6456 -0.2334
-3.1346 0.6783 -0.2406
-3.1192 0.6956 -0.2443
-3.1037 0.7133 -0.2481
-3.0869 0.7319 -0.2523
-3.0421 0.7749 -0.2643
-3.0305 0.7928 -0.2665
-3.0128 0.8136 -0.2707
-2.9937 0.8354 -0.2753
-2.9793 0.8556 -0.2783
-3.5235 0.2425 -0.1357
-3.5178 0.2472 -0.1372
-3.5134 0.2536 -0.1380
-3.5089 0.2602 -0.1388
-3.5037 0.2661 -0.1400
-3.4970 0.2708 -0.1419
-3.4916 0.2771 -0.1431
-3.4855 0.2829 -0.1447
-3.4808 0.2902 -0.1455
-3.4752 0.2970 -0.1467
-3.4689 0.3033 -0.1482
-3.4609 0.3088 -0.1505
-3.4455 0.3098 -0.1561
-3.4380 0.3166 -0.1581
-3.4312 0.3242 -0.1596
-3.4351 0.3378 -0.1564
-3.4299 0.3463 -0.1572
-3.4238 0.3544 -0.1584
-3.4169 0.3624 -0.1600
-3.4081 0.3699 -0.1623
-3.4001 0.3780 -0.1643
-3.3937 0.3870 -0.1655
-3.3873 0.3961 -0.1667
-3.3799 0.4052 -0.1683
-3.3716 0.4142 -0.1702
-3.3594 0.4227 -0.1737
-3.3499 0.4323 -0.1760
-3.3412 0.4422 -0.1780
-3.3362 0.4528 -0.1784
-3.3244 0.4630 -0.1815
-3.3164 0.4737 -0.1831
-3.3083 0.4847 -0.1847
-3.2942 0.4959 -0.1886
-3.2785 0.5191 -0.1914
-3.2501 0.5443 -0.1988
-3.2414 0.5570 -0.2004
-3.2142 0.5845 -0.2070
-3.2041 0.5982 -0.2090
-3.1895 0.6131 -0.2125
-3.1437 0.6609 -0.2235
-3.1352 0.6757 -0.2247
-3.1232 0.6917 -0.2271
-3.1020 0.7112 -0.2325
-3.0851 0.7297 -0.2365
-3.0715 0.7474 -0.2392
-3.0542 0.7669 -0.2432
-3.0356 0.7874 -0.2475
-3.0179 0.8079 -0.2514
-2.9989 0.8296 -0.2557
-3.5227 0.2434 -0.1268
-3.5184 0.2497 -0.1276
-3.5133 0.2552 -0.1287
-3.5074 0.2602 -0.1301
-3.5036 0.2676 -0.1305
-3.4984 0.2736 -0.1316
-3.4908 0.2777 -0.1338
-3.4869 0.2854 -0.1342
-3.4815 0.2919 -0.1353
-3.4767 0.2992 -0.1360
-3.4600 0.3091 -0.1407
-3.4378 0.3173 -0.1473
-3.4302 0.3242 -0.1491
-3.4350 0.3383 -0.1458
-3.4298 0.3466 -0.1466
-3.4247 0.3551 -0.1473
-3.4151 0.3619 -0.1498
-3.4098 0.3707 -0.1506
-3.4009 0.3784 -0.1528
-3.3955 0.3875 -0.1536
-3.3873 0.3960 -0.1554
-3.3790 0.4047 -0.1572
-3.3697 0.4135 -0.1594
-3.3621 0.4229 -0.1608
-3.3535 0.4324 -0.1627
-3.3430 0.4419 -0.1652
-3.3342 0.4519 -0.1670
-3.3282 0.4625 -0.1678
-3.3173 0.4729 -0.1704
-3.3042 0.4836 -0.1736
-3.2940 0.4948 -0.1758
-3.2857 0.5063 -0.1773
-3.2804 0.5178 -0.1777
-3.2658 0.5300 -0.1813
-3.2541 0.5425 -0.1839
-3.2359 0.5561 -0.1885
-3.2271 0.5689 -0.1900
-3.2192 0.5819 -0.1912
-3.2070 0.5958 -0.1937
-3.1892 0.6112 -0.1981
-3.1662 0.6405 -0.2025
-3.1250 0.6886 -0.2110
-3.1084 0.7063 -0.2146
-3.0732 0.7438 -0.2223
-3.0571 0.7627 -0.2256
-3.0268 0.8008 -0.2315
-3.0102 0.8210 -0.2348
-3.5213 0.2435 -0.1184
-3.5169 0.2497 -0.1191
-3.5132 0.2569 -0.1195
-3.5073 0.2617 -0.1208
-3.4969 0.2735 -0.1229
-3.4938 0.2817 -0.1230
-3.4854 0.2853 -0.1252
-3.4799 0.2918 -0.1263
-3.4752 0.2990 -0.1270
-3.4680 0.3046 -0.1286
-3.4608 0.3104 -0.1303
-3.4428 0.3097 -0.1361
-3.4369 0.3174 -0.1371
-3.4309 0.3253 -0.1381
-3.4333 0.3378 -0.1360
-3.4298 0.3471 -0.1361
-3.4247 0.3555 -0.1368
-3.4151 0.3621 -0.1391
-3.4098 0.3709 -0.1398
-3.4018 0.3788 -0.1415
-3.3964 0.3878 -0.1422
-3.3845 0.3950 -0.1452
-3.3781 0.4042 -0.1462
-3.3697 0.4131 -0.1479
-3.3621 0.4225 -0.1493
-3.3545 0.4321 -0.1507
-3.3458 0.4417 -0.1524
-3.3351 0.4514 -0.1547
-3.3282 0.4618 -0.1558
-3.3172 0.4721 -0.1581
-3.3091 0.4828 -0.1595
-3.2979 0.4938 -0.1618
-3.2876 0.5051 -0.1639
-3.2772 0.5167 -0.1659
-3.2667 0.5286 -0.1679
-3.2560 0.5409 -0.1700
-3.2322 0.5666 -0.1747
-3.2223 0.5797 -0.1764
-3.2100 0.5934 -0.1788
-3.1933 0.6084 -0.1825
-3.1818 0.6227 -0.1845
-3.1692 0.6376 -0.1869
-3.1541 0.6534 -0.1900
-3.1412 0.6691 -0.1924
-3.1102 0.7031 -0.1984
-3.0898 0.7224 -0.2028
-3.0797 0.7385 -0.2042
-3.0672 0.7557 -0.2063
-3.0486 0.7757 -0.2100
-3.0274 0.7973 -0.2144
-3.0010 0.8217 -0.2201
-2.9964 0.8368 -0.2199
-3.5110 0.2561 -0.1114
-3.5073 0.2633 -0.1117
-3.4999 0.2668 -0.1135
-3.4953 0.2735 -0.1142
-3.4908 0.2803 -0.1148
-3.4846 0.2858 -0.1160
-3.4791 0.2922 -0.1170
-3.4736 0.2988 -0.1179
-3.4680 0.3055 -0.1189
-3.4591 0.3102 -0.1210
-3.4419 0.3099 -0.1260
-3.4376 0.3185 -0.1264
-3.4317 0.3263 -0.1273
-3.4324 0.3379 -0.1259
-3.4290 0.3470 -0.1260
-3.4230 0.3550 -0.1270
-3.4169 0.3631 -0.1279
-3.4089 0.3707 -0.1295
-3.4018 0.3788 -0.1307
-3.3946 0.3872 -0.1320
-3.3864 0.3955 -0.1335
-3.3790 0.4043 -0.1348
-3.3715 0.4133 -0.1361
-3.3602 0.4217 -0.1385
-3.3545 0.4316 -0.1392
-3.3458 0.4412 -0.1407
-3.3351 0.4507 -0.1429
-3.3272 0.4609 -0.1442
-3.3162 0.4712 -0.1463
-3.3081 0.4819 -0.1476
-3.2999 0.4928 -0.1489
-3.2896 0.5040 -0.1507
-3.2761 0.5156 -0.1535
-3.2666 0.5273 -0.1551
-3.2517 0.5399 -0.1581
-3.2451 0.5520 -0.1588
-3.2353 0.5646 -0.1604
-3.2243 0.5776 -0.1623
-3.2121 0.5912 -0.1645
-3.2008 0.6049 -0.1664
-3.1805 0.6210 -0.1707
-3.1689 0.6355 -0.1726
-3.1550 0.6510 -0.1750
-3.1409 0.6669 -0.1776
-3.1133 0.6995 -0.1823
-3.0999 0.7162 -0.1845
-3.0680 0.7525 -0.1901
-3.0517 0.7714 -0.1929
-3.0341 0.7913 -0.1961
-2.9994 0.8320 -0.2020
-3.5103 0.2570 -0.1027
-3.5051 0.2625 -0.1035
-3.4984 0.2668 -0.1049
-3.4946 0.2741 -0.1053
-3.4893 0.2802 -0.1061
-3.4846 0.2870 -0.1067
-3.4784 0.2927 -0.1078
-3.4737 0.2999 -0.1084
-3.4697 0.3077 -0.1088
-3.4600 0.3116 -0.1110
-3.4452 0.3127 -0.1147
-3.4342 0.3172 -0.1172
-3.4342 0.3393 -0.1152
-3.4300 0.3479 -0.1156
-3.4213 0.3545 -0.1172
-3.4170 0.3634 -0.1176
-3.4099 0.3712 -0.1187
-3.4001 0.3783 -0.1207
-3.3928 0.3866 -0.1218
-3.3883 0.3959 -0.1222
-3.3800 0.4043 -0.1236
-3.3716 0.4130 -0.1250
-3.3631 0.4220 -0.1264
-3.3565 0.4315 -0.1273
-3.3468 0.4408 -0.1290
-3.3400 0.4507 -0.1299
-3.3262 0.4601 -0.1327
-3.3192 0.4706 -0.1336
-3.3051 0.4809 -0.1363
-3.2979 0.4918 -0.1372
-3.2896 0.5029 -0.1384
-3.2761 0.5144 -0.1409
-3.2697 0.5259 -0.1416
-3.2612 0.5377 -0.1427
-3.2242 0.5760 -0.1490
-3.2108 0.5897 -0.1512
-3.1915 0.6165 -0.1539
-3.1698 0.6332 -0.1581
-3.1582 0.6479 -0.1598
-3.1463 0.6630 -0.1616
-3.1367 0.6777 -0.1628
-3.1212 0.6944 -0.1653
-3.1031 0.7125 -0.1684
-3.0837 0.7315 -0.1718
-3.0500 0.7691 -0.1772
-3.0348 0.7878 -0.1796
-3.0218 0.8059 -0.1813
-3.5081 0.2562 -0.0946
-3.5037 0.2626 -0.0951
-3.4999 0.2697 -0.0954
-3.4947 0.2755 -0.0962
-3.4885 0.2808 -0.0972
-3.4831 0.2869 -0.0980
-3.4785 0.2939 -0.0986
-3.4730 0.3003 -0.0993
-3.4674 0.3069 -0.1001
-3.4402 0.3103 -0.1062
-3.4342 0.3178 -0.1070
-3.4299 0.3265 -0.1073
-3.4326 0.3389 -0.1057
-3.4283 0.3475 -0.1060
-3.4205 0.3545 -0.1073
-3.4144 0.3625 -0.1081
-3.4082 0.3707 -0.1089
-3.3993 0.3780 -0.1104
-3.3929 0.3866 -0.1112
-3.3875 0.3956 -0.1118
-3.3773 0.4034 -0.1135
-3.3708 0.4125 -0.1143
-3.3642 0.4218 -0.1151
-3.3527 0.4304 -0.1171
-3.3460 0.4401 -0.1180
-3.3392 0.4500 -0.1188
-3.3263 0.4594 -0.1210
-3.3193 0.4698 -0.1218
-3.3123 0.4803 -0.1227
-3.3000 0.4908 -0.1247
-3.2907 0.5018 -0.1260
-3.2834 0.5129 -0.1268
-3.2676 0.5247 -0.1296
-3.2580 0.5366 -0.1309
-3.2493 0.5486 -0.1320
-3.2330 0.5618 -0.1347
-3.2241 0.5744 -0.1358
-3.2130 0.5875 -0.1374
-3.2006 0.6013 -0.1392
-3.1754 0.6298 -0.1428
-3.1591 0.6455 -0.1454
-3.1485 0.6601 -0.1467
-3.1366 0.6753 -0.1483
-3.1222 0.6916 -0.1504
-3.1088 0.7079 -0.1522
-3.0917 0.7259 -0.1548
-3.0545 0.7643 -0.1604
-3.0393 0.7829 -0.1625
-3.5037 0.2641 -0.0864
-3.4993 0.2705 -0.0869
-3.4940 0.2762 -0.0875
-3.4879 0.2814 -0.0885
-3.4825 0.2875 -0.0891
-3.4770 0.2937 -0.0898
-3.4715 0.3001 -0.0905
-3.4659 0.3067 -0.0913
-3.4561 0.3106 -0.0930
-3.4410 0.3116 -0.0960
-3.4351 0.3190 -0.0967
-3.4300 0.3271 -0.0972
-3.4336 0.3399 -0.0956
-3.4294 0.3484 -0.0959
-3.4233 0.3561 -0.0966
-3.4146 0.3628 -0.0980
-3.4084 0.3709 -0.0987
-3.4003 0.3785 -0.0998
-3.3940 0.3869 -0.1006
-3.3867 0.3952 -0.1015
-3.3803 0.4040 -0.1022
-3.3709 0.4123 -0.1036
-3.3558 0.4305 -0.1054
-3.3471 0.4397 -0.1066
-3.3393 0.4494 -0.1075
-3.3254 0.4586 -0.1098
-3.3174 0.4688 -0.1107
-3.3093 0.4792 -0.1117
-3.2959 0.4898 -0.1137
-3.2866 0.5008 -0.1149
-3.2687 0.5234 -0.1170
-3.2602 0.5351 -0.1180
-3.2505 0.5470 -0.1191
-3.2374 0.5597 -0.1210
-3.2297 0.5719 -0.1217
-3.2163 0.5853 -0.1236
-3.2073 0.5982 -0.1245
-3.1903 0.6130 -0.1270
-3.1810 0.6265 -0.1280
-3.1636 0.6422 -0.1305
-3.1050 0.7067 -0.1382
-3.0903 0.7237 -0.1400
-3.0754 0.7412 -0.1419
-3.0554 0.7611 -0.1447
-3.0451 0.7775 -0.1457
-3.0222 0.7994 -0.1489
-3.0129 0.8159 -0.1497
-3.4979 0.2705 -0.0786
-3.4933 0.2769 -0.0790
-3.4880 0.2828 -0.0796
-3.4818 0.2881 -0.0804
-3.4771 0.2949 -0.0808
-3.4708 0.3006 -0.0816
-3.4635 0.3059 -0.0826
-3.4545 0.3103 -0.0840
-3.4394 0.3113 -0.0866
-3.4360 0.3202 -0.0867
-3.4310 0.3282 -0.0871
-3.4320 0.3396 -0.0863
-3.4287 0.3484 -0.0864
-3.4226 0.3561 -0.0870
-3.4138 0.3627 -0.0882
-3.4086 0.3711 -0.0887
-3.4015 0.3789 -0.0895
-3.3860 0.3949 -0.0913
-3.3776 0.4031 -0.0923
-3.3721 0.4123 -0.0928
-3.3636 0.4210 -0.0938
-3.3560 0.4301 -0.0946
-3.3463 0.4391 -0.0958
-3.3385 0.4486 -0.0967
-3.3316 0.4585 -0.0973
-3.3237 0.4685 -0.0982
-3.3126 0.4785 -0.0996
-3.3023 0.4889 -0.1008
-3.2931 0.4997 -0.1018
-3.2837 0.5107 -0.1029
-3.2699 0.5221 -0.1046
-3.2603 0.5337 -0.1057
-3.2517 0.5455 -0.1065
-3.2309 0.5702 -0.1088
-3.2175 0.5834 -0.1105
-3.2073 0.5964 -0.1115
-3.1925 0.6106 -0.1133
-3.1706 0.6384 -0.1156
-3.1518 0.6548 -0.1180
-3.1387 0.6701 -0.1195
-3.1278 0.6850 -0.1206
-3.1109 0.7022 -0.1226
-3.0961 0.7190 -0.1242
-3.0800 0.7368 -0.1261
-3.0662 0.7540 -0.1276
-3.0306 0.7927 -0.1317
-3.0188 0.8101 -0.1328
-3.4919 0.2769 -0.0707
-3.4866 0.2827 -0.0712
-3.4836 0.2907 -0.0713
-3.4773 0.2961 -0.0720
-3.4710 0.3017 -0.0727
-3.4646 0.3075 -0.0734
-3.4395 0.3121 -0.0769
-3.4344 0.3199 -0.0773
-3.4311 0.3289 -0.0774
-3.4322 0.3401 -0.0767
-3.4280 0.3485 -0.0770
-3.4220 0.3561 -0.0775
-3.4159 0.3638 -0.0781
-3.4070 0.3706 -0.0791
-3.4008 0.3787 -0.0796
-3.3945 0.3870 -0.0802
-3.3862 0.3949 -0.0811
-3.3798 0.4035 -0.0816
-3.3714 0.4118 -0.0825
-3.3619 0.4202 -0.0836
-3.3562 0.4297 -0.0840
-3.3495 0.4390 -0.0845
-3.3387 0.4481 -0.0857
-3.3229 0.4677 -0.0872
-3.3107 0.4776 -0.0886
-3.3046 0.4881 -0.0890
-3.2975 0.4986 -0.0896
-3.2871 0.5095 -0.0906
-3.2744 0.5207 -0.0920
-3.2637 0.5322 -0.0931
-3.2496 0.5443 -0.0946
-3.2431 0.5560 -0.0951
-3.2310 0.5686 -0.0963
-3.2187 0.5815 -0.0976
-3.2063 0.5948 -0.0988
-3.1764 0.6236 -0.1020
-3.1565 0.6514 -0.1037
-3.1434 0.6665 -0.1049
-3.1120 0.6994 -0.1081
-3.0960 0.7165 -0.1097
-3.0835 0.7328 -0.1108
-3.0660 0.7513 -0.1126
-3.0533 0.7683 -0.1137
-3.4868 0.2841 -0.0626
-3.4814 0.2900 -0.0631
-3.4759 0.2960 -0.0635
-3.4696 0.3015 -0.0641
-3.4631 0.3073 -0.0647
-3.4463 0.3064 -0.0668
-3.4388 0.3124 -0.0676
-3.4346 0.3207 -0.0678
-3.4348 0.3315 -0.0673
-3.4316 0.3402 -0.0674
-3.4274 0.3485 -0.0676
-3.4204 0.3556 -0.0682
-3.4073 0.3708 -0.0693
-3.4001 0.3785 -0.0699
-3.3938 0.3867 -0.0704
-3.3855 0.3946 -0.0711
-3.3782 0.4029 -0.0717
-3.3726 0.4119 -0.0721
-3.3651 0.4206 -0.0727
-3.3545 0.4289 -0.0737
-3.3468 0.4381 -0.0743
-3.3390 0.4475 -0.0750
-3.3290 0.4569 -0.0759
-3.3221 0.4669 -0.0763
-3.3151 0.4770 -0.0768
-3.3060 0.4872 -0.0776
-3.2956 0.4976 -0.0785
-3.2852 0.5084 -0.0794
-3.2713 0.5197 -0.0807
-3.2650 0.5308 -0.0811
-3.2542 0.5425 -0.0820
-3.2433 0.5545 -0.0829
-3.2323 0.5669 -0.0838
-3.2177 0.5800 -0.0851
-3.2099 0.5924 -0.0857
-3.1962 0.6062 -0.0869
-3.1870 0.6193 -0.0875
-3.1707 0.6343 -0.0890
-3.1613 0.6480 -0.0896
-3.1494 0.6625 -0.0906
-3.1338 0.6785 -0.0919
-3.1057 0.7106 -0.0942
-3.0871 0.7288 -0.0959
-3.0531 0.7654 -0.0987
-3.0428 0.7816 -0.0994
-3.4846 0.2833 -0.0545
-3.4800 0.2899 -0.0548
-3.4737 0.2952 -0.0553
-3.4681 0.3014 -0.0556
-3.4643 0.3089 -0.0558
-3.4457 0.3067 -0.0577
-3.4389 0.3132 -0.0582
-3.4330 0.3203 -0.0586
-3.4324 0.3307 -0.0584
-3.4327 0.3413 -0.0580
-3.4277 0.3490 -0.0583
-3.4189 0.3552 -0.0590
-3.4119 0.3625 -0.0595
-3.4057 0.3703 -0.0599
-3.3995 0.3783 -0.0603
-3.3932 0.3865 -0.0607
-3.3868 0.3948 -0.0611
-3.3785 0.4028 -0.0617
-3.3710 0.4112 -0.0622
-3.3644 0.4201 -0.0626
-3.3548 0.4286 -0.0633
-3.3481 0.4378 -0.0637
-3.3414 0.4472 -0.0641
-3.3314 0.4565 -0.0649
-3.3224 0.4661 -0.0655
-3.3165 0.4762 -0.0658
-3.3041 0.4862 -0.0667
-3.2938 0.4966 -0.0675
-3.2822 0.5074 -0.0683
-3.2749 0.5183 -0.0688
-3.2642 0.5296 -0.0695
-3.2545 0.5412 -0.0701
-3.2435 0.5531 -0.0709
-3.2336 0.5652 -0.0715
-3.2236 0.5775 -0.0722
-3.2089 0.5909 -0.0733
-3.1975 0.6041 -0.0740
-3.1883 0.6171 -0.0746
-3.1755 0.6311 -0.0755
-3.1578 0.6468 -0.0768
-3.1483 0.6607 -0.0773
-3.1302 0.6773 -0.0787
-3.1156 0.6933 -0.0797
-3.1033 0.7090 -0.0804
-3.0921 0.7245 -0.0811
-3.0783 0.7411 -0.0820
-3.0606 0.7597 -0.0833
-3.0478 0.7767 -0.0841
-3.4803 0.2912 -0.0464
-3.4748 0.2971 -0.0467
-3.4693 0.3032 -0.0470
-3.4629 0.3088 -0.0473
-3.4374 0.3129 -0.0492
-3.4324 0.3206 -0.0494
-3.4318 0.3308 -0.0492
-3.4322 0.3414 -0.0490
-3.4271 0.3491 -0.0492
-3.4202 0.3561 -0.0496
-3.4141 0.3636 -0.0499
-3.4070 0.3710 -0.0503
-3.4008 0.3789 -0.0506
-3.3926 0.3863 -0.0511
-3.3853 0.3943 -0.0515
-3.3778 0.4024 -0.0519
-3.3704 0.4108 -0.0523
-3.3628 0.4194 -0.0527
-3.3542 0.4280 -0.0532
-3.3475 0.4372 -0.0535
-3.3417 0.4467 -0.0537
-3.3339 0.4561 -0.0542
-3.3238 0.4655 -0.0547
-3.3147 0.4753 -0.0552
-3.3088 0.4854 -0.0555
-3.2952 0.4957 -0.0563
-3.2774 0.5171 -0.0572
-3.2667 0.5282 -0.0578
-3.2592 0.5394 -0.0581
-3.2506 0.5509 -0.0586
-3.2316 0.5639 -0.0597
-3.2138 0.5884 -0.0606
-3.2001 0.6018 -0.0613
-3.1921 0.6144 -0.0617
-3.1805 0.6280 -0.0623
-3.1639 0.6432 -0.0632
-3.1315 0.6747 -0.0651
-3.1193 0.6898 -0.0657
-3.1046 0.7061 -0.0665
-3.0921 0.7219 -0.0671
-3.0771 0.7389 -0.0679
-3.0644 0.7554 -0.0685
-3.0528 0.7717 -0.0691
-3.4743 0.2977 -0.0384
-3.4688 0.3037 -0.0386
-3.4615 0.3086 -0.0389
-3.4368 0.3132 -0.0401
-3.4326 0.3213 -0.0402
-3.4357 0.3336 -0.0400
-3.4316 0.3416 -0.0401
-3.4257 0.3488 -0.0403
-3.4178 0.3553 -0.0406
-3.4126 0.3632 -0.0408
-3.4064 0.3709 -0.0411
-3.4012 0.3791 -0.0412
-3.3940 0.3867 -0.0415
-3.3866 0.3946 -0.0418
-3.3738 0.4114 -0.0423
-3.3642 0.4194 -0.0427
-3.3576 0.4283 -0.0429
-3.3499 0.4371 -0.0432
-3.3401 0.4459 -0.0436
-3.3322 0.4553 -0.0439
-3.3242 0.4648 -0.0442
-3.3151 0.4745 -0.0446
-3.3049 0.4844 -0.0450
-3.2966 0.4947 -0.0453
-3.2883 0.5052 -0.0456
-3.2789 0.5159 -0.0460
-3.2693 0.5269 -0.0463
-3.2528 0.5387 -0.0470
-3.2400 0.5614 -0.0475
-3.2176 0.5861 -0.0483
-3.2015 0.5998 -0.0490
-3.1912 0.6128 -0.0494
-3.1783 0.6266 -0.0499
-3.1642 0.6411 -0.0504
-3.1498 0.6560 -0.0510
-3.1390 0.6702 -0.0514
-3.1232 0.6863 -0.0520
-3.1072 0.7028 -0.0526
-3.0947 0.7184 -0.0531
-3.0822 0.7344 -0.0536
-3.0644 0.7527 -0.0543
-3.4730 0.2976 -0.0303
-3.4683 0.3042 -0.0304
-3.4618 0.3097 -0.0305
-3.4447 0.3084 -0.0310
-3.4397 0.3157 -0.0311
-3.4320 0.3216 -0.0313
-3.4343 0.3333 -0.0312
-3.4320 0.3422 -0.0313
-3.4289 0.3507 -0.0313
-3.4201 0.3566 -0.0316
-3.4130 0.3636 -0.0317
-3.4069 0.3712 -0.0319
-3.3944 0.3868 -0.0322
-3.3861 0.3943 -0.0324
-3.3787 0.4023 -0.0326
-3.3732 0.4110 -0.0327
-3.3647 0.4191 -0.0329
-3.3493 0.4366 -0.0333
-3.3405 0.4454 -0.0335
-3.3326 0.4547 -0.0337
-3.3236 0.4641 -0.0339
-3.3156 0.4738 -0.0341
-3.3085 0.4837 -0.0343
-3.2854 0.5042 -0.0348
-3.2826 0.5146 -0.0349
-3.2589 0.5369 -0.0355
-3.2525 0.5480 -0.0356
-3.2415 0.5597 -0.0359
-3.2304 0.5718 -0.0362
-3.2156 0.5848 -0.0365
-3.2066 0.5971 -0.0367
-3.1975 0.6097 -0.0370
-3.1798 0.6244 -0.0374
-3.1681 0.6381 -0.0377
-3.1525 0.6532 -0.0381
-3.1405 0.6676 -0.0383
-3.1309 0.6816 -0.0386
-3.1161 0.6975 -0.0389
-3.1012 0.7137 -0.0393
-3.0887 0.7295 -0.0396
-3.0735 0.7465 -0.0400
-3.0568 0.7645 -0.0404
-3.4679 0.3047 -0.0222
-3.4614 0.3102 -0.0223
-3.4383 0.3155 -0.0223
-3.4342 0.3234 -0.0224
-3.4347 0.3340 -0.0225
-3.4325 0.3429 -0.0226
-3.4265 0.3499 -0.0227
-3.4196 0.3566 -0.0227
-3.4116 0.3632 -0.0228
-3.4064 0.3711 -0.0228
-3.4012 0.3791 -0.0229
-3.3919 0.3860 -0.0230
-3.3886 0.3949 -0.0231
-3.3822 0.4031 -0.0231
-3.3707 0.4101 -0.0232
-3.3662 0.4191 -0.0233
-3.3565 0.4272 -0.0234
-3.3488 0.4360 -0.0234
-3.3399 0.4448 -0.0235
-3.3321 0.4540 -0.0236
-3.3273 0.4637 -0.0237
-3.3182 0.4731 -0.0238
-3.3079 0.4828 -0.0239
-3.3009 0.4929 -0.0240
-3.2881 0.5031 -0.0240
-3.2809 0.5136 -0.0241
-3.2713 0.5244 -0.0242
-3.2593 0.5356 -0.0243
-3.2507 0.5468 -0.0244
-3.2373 0.5588 -0.0246
-3.2273 0.5708 -0.0247
-3.2160 0.5831 -0.0248
-3.2070 0.5954 -0.0249
-3.1979 0.6078 -0.0250
-3.1838 0.6216 -0.0251
-3.1696 0.6358 -0.0253
-3.1615 0.6487 -0.0254
-3.1507 0.6626 -0.0255
-3.1311 0.6793 -0.0257
-3.1201 0.6938 -0.0258
-3.1091 0.7086 -0.0259
-3.0724 0.7443 -0.0262
-3.0609 0.7602 -0.0264
-3.4627 0.3119 -0.0142
-3.4418 0.3080 -0.0136
-3.4337 0.3237 -0.0137
-3.4352 0.3347 -0.0140
-3.4321 0.3431 -0.0141
-3.4261 0.3500 -0.0140
-3.4220 0.3580 -0.0141
-3.4140 0.3644 -0.0140
-3.4079 0.3718 -0.0140
-3.4007 0.3790 -0.0139
-3.3934 0.3865 -0.0139
-3.3871 0.3944 -0.0139
-3.3807 0.4025 -0.0139
-3.3733 0.4105 -0.0139
-3.3647 0.4185 -0.0138
-3.3581 0.4271 -0.0138
-3.3504 0.4358 -0.0138
-3.3315 0.4533 -0.0136
-3.3257 0.4628 -0.0137
-3.3188 0.4724 -0.0137
-3.3107 0.4821 -0.0137
-3.2992 0.4919 -0.0136
-3.2920 0.5021 -0.0136
-3.2814 0.5125 -0.0135
-3.2707 0.5233 -0.0134
-3.2621 0.5341 -0.0134
-3.2512 0.5455 -0.0134
-3.2389 0.5572 -0.0133
-3.2325 0.5685 -0.0133
-3.2236 0.5803 -0.0133
-3.2074 0.5936 -0.0132
-3.1947 0.6067 -0.0131
-3.1855 0.6194 -0.0131
-3.1774 0.6320 -0.0132
-3.1618 0.6466 -0.0131
-3.1499 0.6607 -0.0130
-3.1327 0.6766 -0.0129
-3.1094 0.7061 -0.0129
-3.0650 0.7559 -0.0127
-3.4597 0.3105 -0.0061
-3.4413 0.3084 -0.0051
-3.4354 0.3150 -0.0050
-3.4313 0.3229 -0.0051
-3.4329 0.3339 -0.0054
-3.4307 0.3428 -0.0056
-3.4247 0.3497 -0.0055
-3.4197 0.3572 -0.0054
-3.4116 0.3636 -0.0052
-3.4065 0.3714 -0.0052
-3.4003 0.3789 -0.0051
-3.3950 0.3869 -0.0050
-3.3803 0.4022 -0.0048
-3.3728 0.4102 -0.0046
-3.3632 0.4179 -0.0044
-3.3576 0.4267 -0.0043
-3.3510 0.4354 -0.0043
-3.3342 0.4530 -0.0039
-3.3285 0.4624 -0.0039
-3.3160 0.4715 -0.0036
-3.3090 0.4812 -0.0035
-3.2975 0.4910 -0.0032
-3.2926 0.5011 -0.0032
-3.2819 0.5114 -0.0030
-3.2712 0.5221 -0.0028
-3.2615 0.5330 -0.0026
-3.2529 0.5440 -0.0025
-3.2418 0.5555 -0.0023
-3.2306 0.5673 -0.0021
-3.2091 0.5917 -0.0017
-3.1976 0.6044 -0.0015
-3.1871 0.6172 -0.0014
-3.1766 0.6303 -0.0012
-3.1490 0.6589 -0.0007
-3.1356 0.6736 -0.0004
-3.1259 0.6875 -0.0003
-3.1123 0.7028 -0.0001
-3.1011 0.7176 0.0000
-3.0833 0.7351 0.0004
-3.0706 0.7511 0.0006
-3.0590 0.7668 0.0007
-3.4359 0.3159 0.0034
-3.4309 0.3232 0.0035
-3.4324 0.3342 0.0030
-3.4313 0.3434 0.0027
-3.4253 0.3503 0.0029
-3.4183 0.3568 0.0032
-3.4142 0.3648 0.0032
-3.4071 0.3717 0.0034
-3.3989 0.3785 0.0038
-3.3946 0.3868 0.0038
-3.3873 0.3943 0.0040
-3.3799 0.4019 0.0043
-3.3745 0.4103 0.0044
-3.3648 0.4179 0.0048
-3.3582 0.4264 0.0049
-3.3526 0.4352 0.0050
-3.3427 0.4436 0.0054
-3.3338 0.4524 0.0057
-3.3291 0.4618 0.0057
-3.3211 0.4711 0.0060
-3.3096 0.4804 0.0064
-3.3037 0.4902 0.0065
-3.2898 0.5001 0.0072
-3.2825 0.5104 0.0073
-3.2752 0.5208 0.0074
-3.2667 0.5314 0.0077
-3.2459 0.5537 0.0084
-3.2359 0.5652 0.0086
-3.2133 0.5893 0.0094
-3.2005 0.6022 0.0098
-3.1889 0.6151 0.0102
-3.1759 0.6286 0.0106
-3.1627 0.6425 0.0111
-3.1507 0.6564 0.0114
-3.1412 0.6698 0.0116
-3.1238 0.6859 0.0123
-3.1101 0.7012 0.0127
-3.1002 0.7155 0.0129
-3.0837 0.7325 0.0135
-3.0683 0.7493 0.0140
-3.4562 0.3097 0.0101
-3.4413 0.3098 0.0115
-3.4354 0.3163 0.0117
-3.4304 0.3235 0.0119
-3.4302 0.3334 0.0115
-3.4299 0.3432 0.0110
-3.4269 0.3514 0.0110
-3.4199 0.3578 0.0113
-3.4128 0.3644 0.0117
-3.4067 0.3717 0.0120
-3.3985 0.3784 0.0124
-3.3942 0.3866 0.0125
-3.3869 0.3940 0.0128
-3.3774 0.4011 0.0134
-3.3730 0.4097 0.0134
-3.3655 0.4177 0.0138
-3.3589 0.4262 0.0140
-3.3479 0.4340 0.0147
-3.3445 0.4433 0.0146
-3.3366 0.4521 0.0150
-3.3276 0.4610 0.0154
-3.3206 0.4703 0.0157
-3.3080 0.4795 0.0164
-3.2987 0.4892 0.0169
-3.2904 0.4992 0.0172
-3.2843 0.5093 0.0174
-3.2759 0.5196 0.0177
-3.2650 0.5303 0.0182
-3.2576 0.5410 0.0185
-3.2453 0.5524 0.0191
-3.2317 0.5643 0.0199
-3.2192 0.5764 0.0205
-3.2114 0.5881 0.0207
-3.1986 0.6009 0.0213
-3.1870 0.6137 0.0219
-3.1802 0.6257 0.0220
-3.1670 0.6394 0.0226
-3.1563 0.6528 0.0230
-3.1442 0.6668 0.0235
-3.1333 0.6808 0.0239
-3.1171 0.6967 0.0248
-3.1033 0.7121 0.0254
-3.0920 0.7270 0.0258
-3.0686 0.7466 0.0271
-3.4418 0.3108 0.0195
-3.4359 0.3172 0.0198
-3.4310 0.3244 0.0200
-3.4336 0.3358 0.0191
-3.4306 0.3439 0.0190
-3.4256 0.3511 0.0192
-3.4206 0.3583 0.0194
-3.4125 0.3645 0.0201
-3.4064 0.3717 0.0204
-3.4002 0.3790 0.0207
-3.3939 0.3865 0.0211
-3.3866 0.3938 0.0215
-3.3791 0.4014 0.0220
-3.3737 0.4097 0.0222
-3.3651 0.4174 0.0228
-3.3596 0.4259 0.0230
-3.3497 0.4339 0.0237
-3.3419 0.4424 0.0242
-3.3373 0.4516 0.0242
-3.3271 0.4603 0.0249
-3.3191 0.4695 0.0254
-3.3110 0.4788 0.0259
-3.3040 0.4885 0.0262
-3.2934 0.4982 0.0269
-3.2874 0.5082 0.0271
-3.2766 0.5185 0.0278
-3.2669 0.5290 0.0283
-3.2571 0.5398 0.0289
-3.2460 0.5510 0.0296
-3.2235 0.5743 0.0310
-3.2170 0.5856 0.0312
-3.2054 0.5979 0.0319
-3.1875 0.6119 0.0332
-3.1783 0.6244 0.0336
-3.1702 0.6368 0.0339
-3.1607 0.6497 0.0343
-3.1448 0.6646 0.0354
-3.1189 0.6938 0.0369
-3.1051 0.7092 0.0377
-3.0758 0.7414 0.0394
-3.4395 0.3100 0.0278
-3.4355 0.3176 0.0279
-3.4306 0.3247 0.0282
-3.4314 0.3350 0.0275
-3.4303 0.3441 0.0270
-3.4253 0.3512 0.0273
-3.4183 0.3576 0.0279
-3.4132 0.3650 0.0281
-3.4061 0.3717 0.0287
-3.3999 0.3789 0.0291
-3.3926 0.3860 0.0297
-3.3862 0.3937 0.0301
-3.3798 0.4014 0.0305
-3.3734 0.4094 0.0310
-3.3648 0.4170 0.0317
-3.3603 0.4257 0.0318
-3.3504 0.4336 0.0327
-3.3426 0.4420 0.0332
-3.3279 0.4597 0.0342
-3.3199 0.4688 0.0348
-3.3117 0.4781 0.0353
-3.3058 0.4876 0.0355
-3.2930 0.4973 0.0367
-3.2846 0.5073 0.0373
-3.2762 0.5174 0.0378
-3.2652 0.5280 0.0387
-3.2602 0.5383 0.0388
-3.2491 0.5494 0.0396
-3.2392 0.5605 0.0403
-3.2291 0.5720 0.0410
-3.2139 0.5845 0.0424
-3.2024 0.5969 0.0432
-3.1907 0.6095 0.0441
-3.1827 0.6216 0.0445
-3.1721 0.6344 0.0451
-3.1575 0.6486 0.0463
-3.1493 0.6613 0.0467
-3.1397 0.6746 0.0472
-3.1260 0.6893 0.0482
-3.1083 0.7058 0.0496
-3.0944 0.7213 0.0506
-3.0830 0.7363 0.0513
-3.0674 0.7530 0.0524
-3.4392 0.3105 0.0358
-3.4371 0.3192 0.0356
-3.4312 0.3256 0.0361
-3.4320 0.3358 0.0352
-3.4300 0.3443 0.0349
-3.4250 0.3514 0.0353
-3.4190 0.3581 0.0358
-3.4119 0.3646 0.0365
-3.4068 0.3721 0.0368
-3.3985 0.3785 0.0376
-3.3933 0.3863 0.0379
-3.3880 0.3941 0.0382
-3.3806 0.4015 0.0389
-3.3731 0.4091 0.0396
-3.3655 0.4169 0.0403
-3.3589 0.4251 0.0408
-3.3501 0.4331 0.0416
-3.3423 0.4415 0.0423
-3.3366 0.4504 0.0426
-3.3321 0.4595 0.0427
-3.3206 0.4682 0.0439
-3.3114 0.4773 0.0448
-3.3055 0.4868 0.0451
-3.2961 0.4964 0.0459
-3.2865 0.5062 0.0468
-3.2793 0.5163 0.0473
-3.2708 0.5265 0.0479
-3.2586 0.5373 0.0491
-3.2487 0.5481 0.0500
-3.2375 0.5594 0.0510
-3.2286 0.5706 0.0516
-3.2196 0.5821 0.0523
-3.2094 0.5940 0.0531
-3.1952 0.6069 0.0545
-3.1885 0.6185 0.0548
-3.1753 0.6318 0.0560
-3.1646 0.6448 0.0568
-3.1526 0.6584 0.0578
-3.1364 0.6735 0.0593
-3.1214 0.6886 0.0607
-3.1116 0.7024 0.0613
-3.0963 0.7183 0.0627
-3.0836 0.7336 0.0637
-3.0748 0.7477 0.0641
-3.4407 0.3121 0.0433
-3.4358 0.3190 0.0436
-3.4299 0.3254 0.0442
-3.4357 0.3382 0.0422
-3.4298 0.3446 0.0427
-3.4238 0.3511 0.0433
-3.4178 0.3578 0.0439
-3.4127 0.3651 0.0443
-3.4055 0.3717 0.0451
-3.3983 0.3785 0.0459
-3.3931 0.3862 0.0462
-3.3878 0.3939 0.0466
-3.3793 0.4010 0.0476
-3.3750 0.4093 0.0477
-3.3663 0.4168 0.0487
-3.3520 0.4330 0.0501
-3.3442 0.4413 0.0509
-3.3363 0.4498 0.0516
-3.3306 0.4587 0.0520
-3.3238 0.4677 0.0525
-3.3134 0.4766 0.0538
-3.3040 0.4859 0.0547
-3.2992 0.4955 0.0549
-3.2921 0.5052 0.0554
-3.2777 0.5153 0.0573
-3.2692 0.5255 0.0580
-3.2570 0.5362 0.0594
-3.2407 0.5577 0.0607
-3.2319 0.5688 0.0615
-3.2204 0.5805 0.0627
-3.2076 0.5927 0.0641
-3.1972 0.6048 0.0650
-3.1893 0.6166 0.0655
-3.1748 0.6301 0.0671
-3.1641 0.6431 0.0681
-3.1533 0.6562 0.0690
-3.1274 0.6846 0.0716
-3.1136 0.6995 0.0729
-3.0983 0.7153 0.0745
-3.0883 0.7295 0.0752
-3.4376 0.3108 0.0517
-3.4336 0.3182 0.0519
-3.4306 0.3263 0.0518
-3.4335 0.3375 0.0503
-3.4296 0.3449 0.0504
-3.4236 0.3513 0.0511
-3.4176 0.3580 0.0518
-3.4104 0.3643 0.0527
-3.4063 0.3721 0.0528
-3.4001 0.3792 0.0535
-3.3949 0.3868 0.0539
-3.3886 0.3941 0.0546
-3.3801 0.4010 0.0557
-3.3683 0.4169 0.0568
-3.3617 0.4249 0.0574
-3.3540 0.4329 0.0583
-3.3451 0.4409 0.0594
-3.3383 0.4495 0.0601
-3.3292 0.4580 0.0612
-3.3223 0.4669 0.0618
-3.3119 0.4758 0.0632
-3.3049 0.4851 0.0639
-3.2990 0.4946 0.0642
-3.2847 0.5043 0.0663
-3.2774 0.5142 0.0670
-3.2615 0.5347 0.0685
-3.2491 0.5456 0.0701
-3.2391 0.5565 0.0712
-3.2327 0.5672 0.0715
-3.2187 0.5793 0.0734
-3.2122 0.5903 0.0737
-3.2044 0.6018 0.0744
-3.1888 0.6150 0.0764
-3.1769 0.6279 0.0777
-3.1688 0.6400 0.0783
-3.1540 0.6541 0.0802
-3.1431 0.6674 0.0812
-3.1335 0.6806 0.0821
-3.0990 0.7127 0.0864
-3.0862 0.7278 0.0877
-3.8201 -0.0845 0.0263
-3.8266 -0.0915 0.0285
-3.8408 -0.1073 0.0333
-3.8552 -0.1502 0.0439
-3.8650 -0.1442 0.0436
-3.8746 -0.1406 0.0437
-3.8844 -0.1510 0.0469
-3.8950 -0.1694 0.0519
-3.9060 -0.1747 0.0541
-4.0457 -0.5285 0.1442
-4.0753 -0.5645 0.1548
-4.1113 -0.6169 0.1696
-4.1454 -0.6512 0.1803
-4.1820 -0.6858 0.1913
-4.2249 -0.7320 0.2054
-4.2672 -0.7680 0.2172
-4.3215 -0.8276 0.2354
-4.3909 -0.9134 0.2606
-4.4581 -0.9812 0.2817
-4.8941 -1.4545 0.4259
-8.3703 -2.6696 1.0195
-8.0435 -2.3567 0.9205
-8.0933 -2.2944 0.9117
-7.8957 -2.0872 0.8480
-3.8194 -0.0824 0.0181
-3.8256 -0.0918 0.0205
-3.8328 -0.0973 0.0222
-3.8642 -0.1405 0.0334
-3.8737 -0.1439 0.0349
-3.8836 -0.1543 0.0377
-3.9051 -0.1731 0.0433
-3.9172 -0.1873 0.0471
-4.0175 -0.4913 0.1153
-4.0757 -0.5688 0.1355
-4.1078 -0.6048 0.1453
-4.1420 -0.6399 0.1551
-4.1799 -0.6795 0.1661
-4.2245 -0.7306 0.1800
-4.2650 -0.7610 0.1895
-4.3279 -0.8427 0.2109
-4.4029 -0.9397 0.2364
-4.4988 -1.0686 0.2699
-4.5643 -1.1166 0.2850
-5.0280 -1.5718 0.4142
-5.1984 -1.6318 0.4407
-8.4672 -2.7120 0.9353
-8.0001 -2.2182 0.7982
-3.8181 -0.0841 0.0105
-3.8325 -0.0915 0.0129
-3.8392 -0.1041 0.0156
-3.8536 -0.1452 0.0239
-3.8632 -0.1439 0.0244
-3.8729 -0.1402 0.0246
-3.8827 -0.1470 0.0265
-3.8932 -0.1605 0.0297
-3.9045 -0.1749 0.0331
-3.9166 -0.1889 0.0364
-3.9936 -0.4692 0.0911
-4.0167 -0.4908 0.0967
