ply
format ascii 1.0
element vertex 2111
property float x
property float y
property float z
end_header
-1.8691 0.6162 -0.5402
-1.9097 0.6349 -0.5471
-1.9316 0.6421 -0.5525
-1.9521 0.6527 -0.5552
-1.9880 0.6830 -0.5528
-2.0078 0.6952 -0.5543
-2.0257 0.7102 -0.5531
-2.0434 0.7252 -0.5519
-2.1185 0.7795 -0.5524
-2.1347 0.7955 -0.5499
-2.1466 0.8149 -0.5434
-2.1664 0.8271 -0.5449
-1.4772 0.3244 -0.5692
-1.4961 0.3402 -0.5680
-1.5150 0.3560 -0.5668
-1.5340 0.3740 -0.5642
-1.5524 0.3852 -0.5657
-1.5710 0.3987 -0.5658
-1.5896 0.4121 -0.5659
-1.6082 0.4256 -0.5660
-1.6267 0.4411 -0.5648
-1.6454 0.4525 -0.5663
-1.6641 0.4639 -0.5678
-1.6828 0.4774 -0.5679
-1.7014 0.4909 -0.5680
-1.7198 0.5063 -0.5668
-1.7384 0.5197 -0.5669
-1.7577 0.5295 -0.5698
-1.7760 0.5448 -0.5685
-1.7956 0.5547 -0.5714
-1.8132 0.5718 -0.5688
-1.8325 0.5835 -0.5703
-1.8505 0.5987 -0.5690
-1.8685 0.6139 -0.5678
-1.8885 0.6241 -0.5707
-1.9064 0.6392 -0.5694
-1.9267 0.6496 -0.5723
-1.9462 0.6616 -0.5738
-1.9641 0.6767 -0.5725
-1.9829 0.6902 -0.5727
-2.0026 0.7024 -0.5742
-2.0203 0.7173 -0.5729
-2.0369 0.7336 -0.5703
-2.0555 0.7471 -0.5704
-2.0707 0.7644 -0.5664
-2.0916 0.7753 -0.5693
-2.1090 0.7900 -0.5681
-2.1301 0.8010 -0.5709
-2.1514 0.8122 -0.5738
-2.1646 0.8302 -0.5684
-2.1846 0.8425 -0.5699
-2.2002 0.8581 -0.5673
-2.2202 0.8705 -0.5688
-2.2356 0.8859 -0.5662
-2.2509 0.9011 -0.5636
-2.2659 0.9163 -0.5609
-2.2859 0.9286 -0.5624
-2.3007 0.9436 -0.5598
-2.3720 1.0165 -0.5466
-2.3827 1.0317 -0.5419
-2.5489 1.1604 -0.5376
-1.6047 0.4614 -0.5670
-1.6226 0.4764 -0.5657
-1.6407 0.4843 -0.5694
-1.6587 0.4973 -0.5695
-1.8375 0.6298 -0.5686
-1.9798 0.7349 -0.5681
-2.1049 0.8254 -0.5690
-2.1570 0.8652 -0.5679
-2.1749 0.8781 -0.5680
-2.1942 0.8900 -0.5696
-2.2331 0.9139 -0.5727
-2.2657 0.9417 -0.5701
-2.2933 0.9712 -0.5639
-2.3110 0.9840 -0.5640
-2.3305 0.9960 -0.5656
-2.3415 1.0113 -0.5607
-2.3610 1.0233 -0.5622
-2.3786 1.0360 -0.5623
-2.3962 1.0488 -0.5624
-2.4116 1.0621 -0.5611
-2.4270 1.0753 -0.5598
-2.4368 1.0898 -0.5549
-2.4564 1.1019 -0.5565
-2.4761 1.1140 -0.5580
-2.4912 1.1270 -0.5567
-2.5086 1.1396 -0.5568
-2.5284 1.1518 -0.5584
-2.5495 1.1640 -0.5606
-2.5695 1.1763 -0.5622
-1.4978 0.4199 -0.5671
-1.5153 0.4346 -0.5658
-1.5326 0.4471 -0.5659
-1.5495 0.4552 -0.5690
-1.5668 0.4677 -0.5691
-1.5842 0.4823 -0.5677
-1.6015 0.4917 -0.5701
-1.6188 0.5042 -0.5702
-1.6360 0.5198 -0.5681
-1.6533 0.5323 -0.5682
-1.6706 0.5448 -0.5683
-1.6881 0.5554 -0.5699
-1.7051 0.5698 -0.5685
-1.7224 0.5823 -0.5687
-1.7396 0.5948 -0.5688
-1.7569 0.6073 -0.5689
-1.7742 0.6198 -0.5690
-1.7927 0.6279 -0.5728
-1.8101 0.6405 -0.5729
-1.8275 0.6531 -0.5731
-1.8455 0.6640 -0.5747
-1.8616 0.6799 -0.5718
-1.8785 0.6932 -0.5712
-1.8959 0.7057 -0.5713
-1.9132 0.7182 -0.5714
-1.9327 0.7271 -0.5753
-1.9483 0.7426 -0.5724
-1.9675 0.7523 -0.5755
-1.9855 0.7642 -0.5764
-1.9998 0.7809 -0.5720
-2.0149 0.7960 -0.5692
-2.0333 0.8072 -0.5708
-2.0481 0.8222 -0.5679
-2.0666 0.8334 -0.5695
-2.0883 0.8418 -0.5748
-2.1090 0.8515 -0.5787
-2.1230 0.8669 -0.5751
-2.1369 0.8822 -0.5715
-2.1541 0.8947 -0.5716
-2.1729 0.9062 -0.5732
-2.1926 0.9172 -0.5755
-2.2076 0.9312 -0.5734
-2.2199 0.9465 -0.5691
-2.2422 0.9563 -0.5737
-2.2578 0.9696 -0.5723
-2.2813 0.9793 -0.5776
-2.2996 0.9915 -0.5785
-2.3143 1.0053 -0.5764
-2.3297 1.0186 -0.5750
-2.3441 1.0321 -0.5729
-2.3544 1.0468 -0.5678
-2.3807 1.0565 -0.5746
-2.3980 1.0690 -0.5747
-2.4154 1.0815 -0.5748
-2.4305 1.0946 -0.5735
-2.4478 1.1071 -0.5736
-2.4673 1.1191 -0.5752
-2.4858 1.1315 -0.5761
-2.5031 1.1440 -0.5762
-2.5205 1.1565 -0.5763
-2.5403 1.1688 -0.5779
-2.5577 1.1814 -0.5780
-2.5751 1.1939 -0.5781
-1.5486 0.4929 -0.5660
-1.5652 0.5050 -0.5661
-1.5819 0.5191 -0.5647
-1.5985 0.5311 -0.5648
-1.6151 0.5400 -0.5672
-1.6317 0.5530 -0.5666
-1.6487 0.5591 -0.5713
-1.7481 0.6363 -0.5681
-1.7641 0.6509 -0.5660
-1.8329 0.6924 -0.5725
-1.8657 0.7182 -0.5712
-1.9145 0.7566 -0.5693
-1.9826 0.8027 -0.5720
-2.1329 0.9115 -0.5731
-2.2879 1.0184 -0.5779
-2.3264 1.0411 -0.5820
-0.8918 1.7461 -0.5535
-0.9036 1.7599 -0.5574
-0.9171 1.7729 -0.5598
-0.9375 1.7818 -0.5553
-0.9475 1.7973 -0.5616
-0.9690 1.8051 -0.5555
-0.9966 1.8316 -0.5603
-1.0144 1.8416 -0.5581
-1.0290 1.8544 -0.5598
-1.0479 1.8632 -0.5560
-1.0800 1.8859 -0.5554
-1.1286 1.9187 -0.5534
-1.1443 1.9303 -0.5535
-1.1630 1.9370 -0.5482
-1.1756 1.9534 -0.5537
-1.1913 1.9650 -0.5538
-1.2374 2.0020 -0.5564
-1.2540 2.0112 -0.5542
-1.2705 2.0204 -0.5520
-1.2844 2.0377 -0.5575
-1.3011 2.0459 -0.5545
-1.3319 2.0717 -0.5570
-1.3483 2.0797 -0.5540
-1.3642 2.0894 -0.5526
-1.3791 2.1065 -0.5573
-1.3949 2.1172 -0.5567
-1.4109 2.1259 -0.5544
-1.4260 2.1482 -0.5631
-1.4419 2.1570 -0.5609
-1.4578 2.1616 -0.5555
-1.4735 2.1721 -0.5548
-1.4894 2.1910 -0.5604
-1.5054 2.2058 -0.5628
-1.5218 2.2240 -0.5676
-1.5369 2.2270 -0.5615
-1.5527 2.2376 -0.5608
-1.5695 2.2572 -0.5663
-1.5843 2.2609 -0.5610
-1.6013 2.2796 -0.5658
-1.6174 2.2925 -0.5667
-1.6339 2.3067 -0.5683
-1.6491 2.3148 -0.5661
-1.6645 2.3242 -0.5646
-0.8845 1.7731 -0.5534
-0.8939 1.7892 -0.5602
-0.9231 1.7933 -0.5476
-0.9378 1.8062 -0.5492
-0.9468 1.8231 -0.5568
-0.9653 1.8336 -0.5547
-0.9822 1.8451 -0.5540
-0.9960 1.8594 -0.5571
-1.0129 1.8709 -0.5565
-1.0293 1.8829 -0.5566
-1.0502 1.8901 -0.5507
-1.0664 1.9021 -0.5508
-1.0815 1.9153 -0.5524
-1.0957 1.9299 -0.5555
-1.1164 1.9358 -0.5489
-1.1269 1.9560 -0.5580
-1.1437 1.9673 -0.5573
-1.1634 1.9736 -0.5514
-1.1784 1.9878 -0.5538
-1.1928 2.0035 -0.5576
-1.2091 2.0156 -0.5577
-1.2255 2.0276 -0.5578
-1.2415 2.0405 -0.5587
-1.2604 2.0452 -0.5521
-1.2758 2.0596 -0.5544
-1.2921 2.0716 -0.5545
-1.3077 2.0862 -0.5569
-1.3242 2.0973 -0.5562
-1.3403 2.1103 -0.5571
-1.3563 2.1241 -0.5587
-1.3726 2.1362 -0.5588
-1.3893 2.1454 -0.5566
-1.4057 2.1554 -0.5552
-1.4215 2.1753 -0.5614
-1.4380 2.1844 -0.5592
-1.4544 2.1934 -0.5571
-1.4707 2.2085 -0.5594
-1.4871 2.2216 -0.5603
-1.5033 2.2305 -0.5581
-1.5196 2.2425 -0.5582
-1.5361 2.2568 -0.5598
-1.5532 2.2755 -0.5644
-1.5684 2.2775 -0.5578
-1.5848 2.2906 -0.5586
-1.6021 2.3085 -0.5625
-1.6192 2.3242 -0.5649
-1.6359 2.3375 -0.5657
-1.6542 2.3582 -0.5711
-0.9132 1.6725 -0.4444
-0.9249 1.6832 -0.4459
-0.8589 1.7901 -0.5541
-0.8719 1.8049 -0.5578
-0.8889 1.8174 -0.5579
-0.9082 1.8285 -0.5558
-0.9570 1.8676 -0.5583
-0.9979 1.8864 -0.5506
-1.0141 1.8994 -0.5515
-1.0482 1.9235 -0.5509
-1.0803 1.9502 -0.5533
-1.1163 1.9716 -0.5499
-1.1308 1.9875 -0.5536
-1.1472 2.0007 -0.5545
-1.1625 2.0161 -0.5575
-1.1794 2.0286 -0.5576
-1.1982 2.0372 -0.5541
-1.2147 2.0504 -0.5549
-1.2303 2.0661 -0.5579
-1.2493 2.0728 -0.5530
-1.2674 2.0810 -0.5495
-1.2821 2.1002 -0.5553
-1.2979 2.1170 -0.5591
-1.3151 2.1286 -0.5585
-1.3319 2.1421 -0.5593
-1.3496 2.1499 -0.5558
-1.3652 2.1718 -0.5631
-1.3829 2.1787 -0.5589
-1.4004 2.1843 -0.5539
-1.4168 2.2037 -0.5591
-1.4337 2.2172 -0.5599
-1.4507 2.2318 -0.5615
-1.4677 2.2360 -0.5558
-1.4845 2.2484 -0.5559
-1.5015 2.2641 -0.5582
-1.5185 2.2787 -0.5598
-1.5358 2.2945 -0.5620
-1.5532 2.3105 -0.5643
-1.5705 2.3254 -0.5659
-1.5872 2.3345 -0.5638
-1.6044 2.3483 -0.5646
-1.6230 2.3692 -0.5698
-1.6402 2.3819 -0.5699
-1.6585 2.3996 -0.5730
-1.6753 2.4099 -0.5716
-0.8635 1.6343 -0.4231
-0.8739 1.6451 -0.4252
-0.8883 1.6547 -0.4246
-0.9132 1.6752 -0.4262
-0.9213 1.6874 -0.4304
-0.8435 1.8016 -0.5443
-0.8443 1.8241 -0.5589
-0.8711 1.8314 -0.5507
-0.8923 1.8417 -0.5474
-0.8996 1.8618 -0.5572
-0.9200 1.8727 -0.5545
-0.9423 1.8817 -0.5498
-0.9571 1.8969 -0.5527
-0.9758 1.9086 -0.5514
-0.9933 1.9215 -0.5515
-1.0107 1.9343 -0.5516
-1.0397 1.9672 -0.5595
-1.0615 1.9749 -0.5540
-1.0795 1.9872 -0.5534
-1.0970 2.0001 -0.5535
-1.1132 2.0151 -0.5557
-1.1299 2.0296 -0.5572
-1.1491 2.0395 -0.5546
-1.1651 2.0555 -0.5575
-1.1820 2.0701 -0.5590
-1.2003 2.0815 -0.5577
-1.2185 2.0928 -0.5564
-1.2349 2.1091 -0.5593
-1.2537 2.1188 -0.5566
-1.2729 2.1256 -0.5519
-1.2899 2.1402 -0.5534
-1.3059 2.1594 -0.5584
-1.3244 2.1678 -0.5550
-1.3412 2.1854 -0.5586
-1.3588 2.1984 -0.5587
-1.3761 2.2133 -0.5602
-1.3941 2.2224 -0.5575
-1.4116 2.2373 -0.5590
-1.4290 2.2544 -0.5620
-1.4644 2.2742 -0.5580
-1.4819 2.2839 -0.5560
-1.4994 2.2969 -0.5561
-1.5169 2.3109 -0.5569
-1.5346 2.3260 -0.5584
-1.5522 2.3390 -0.5586
-1.5706 2.3588 -0.5629
-1.5873 2.3649 -0.5588
-1.6052 2.3802 -0.5603
-1.6237 2.3979 -0.5632
-1.6429 2.4195 -0.5682
-1.6608 2.4327 -0.5683
-0.8338 1.6054 -0.3989
-0.8448 1.6156 -0.4003
-0.8752 1.6475 -0.4065
-0.8895 1.6570 -0.4060
-0.8972 1.6690 -0.4100
-0.9115 1.6785 -0.4094
-0.9168 1.6919 -0.4155
-0.8227 1.8400 -0.5530
-0.8409 1.8534 -0.5532
-0.8569 1.8684 -0.5553
-0.8831 1.8761 -0.5481
-0.8956 1.8938 -0.5535
-0.9152 1.9061 -0.5523
-0.9334 1.9195 -0.5524
-0.9516 1.9329 -0.5525
-0.9643 1.9518 -0.5586
-0.9838 1.9641 -0.5574
-0.9999 1.9802 -0.5602
-1.0243 1.9866 -0.5530
-1.0399 2.0034 -0.5564
-1.0617 2.0120 -0.5519
-1.0789 2.0268 -0.5533
-1.0980 2.0388 -0.5521
-1.1131 2.0574 -0.5569
-1.1290 2.0754 -0.5610
-1.1474 2.0890 -0.5611
-1.1684 2.0971 -0.5566
-1.1867 2.1106 -0.5567
-1.2046 2.1249 -0.5575
-1.2244 2.1342 -0.5543
-1.2412 2.1519 -0.5577
-1.2585 2.1688 -0.5605
-1.2774 2.1806 -0.5593
-1.2963 2.1915 -0.5574
-1.3130 2.2132 -0.5636
-1.3327 2.2194 -0.5583
-1.3517 2.2281 -0.5551
-1.3691 2.2483 -0.5599
-1.3881 2.2549 -0.5553
-1.4058 2.2754 -0.5601
-1.4239 2.2950 -0.5643
-1.4424 2.3066 -0.5630
-1.4609 2.3086 -0.5558
-1.4790 2.3198 -0.5546
-1.4974 2.3408 -0.5594
-1.5161 2.3610 -0.5635
-1.5351 2.3813 -0.5677
-1.5534 2.3927 -0.5664
-1.5717 2.4041 -0.5652
-1.5902 2.4177 -0.5653
-1.6080 2.4266 -0.5628
-1.6279 2.4498 -0.5683
-1.6465 2.4635 -0.5684
-1.6661 2.4821 -0.5712
-1.6836 2.4909 -0.5686
-0.7978 1.5790 -0.3798
-0.8130 1.5881 -0.3786
-0.8226 1.5984 -0.3806
-0.8356 1.6079 -0.3807
-0.8475 1.6178 -0.3814
-0.8595 1.6277 -0.3822
-0.8695 1.6383 -0.3842
-0.8776 1.6496 -0.3874
-0.8927 1.6586 -0.3862
-0.8936 1.6731 -0.3946
-0.9154 1.6796 -0.3890
-0.7961 1.8590 -0.5498
-0.8111 1.8754 -0.5531
-0.8324 1.8879 -0.5513
-0.8586 1.8965 -0.5450
-0.8759 1.9114 -0.5464
-0.8871 1.9314 -0.5536
-0.9094 1.9426 -0.5505
-0.9251 1.9595 -0.5538
-0.9484 1.9692 -0.5495
-0.9649 1.9856 -0.5521
-0.9821 2.0015 -0.5542
-1.0082 2.0069 -0.5460
-1.0180 2.0322 -0.5570
-1.0416 2.0401 -0.5513
-1.0552 2.0618 -0.5585
-1.0762 2.0730 -0.5561
-1.0961 2.0856 -0.5549
-1.1171 2.0958 -0.5518
-1.1317 2.1183 -0.5590
-1.1531 2.1276 -0.5553
-1.1731 2.1392 -0.5535
-1.1904 2.1573 -0.5568
-1.2089 2.1730 -0.5582
-1.2291 2.1837 -0.5558
-1.2488 2.1950 -0.5540
-1.2677 2.2090 -0.5541
-1.2852 2.2293 -0.5587
-1.3056 2.2369 -0.5543
-1.3252 2.2471 -0.5519
-1.3430 2.2677 -0.5565
-1.3618 2.2837 -0.5579
-1.3801 2.3057 -0.5632
-1.3993 2.3199 -0.5633
-1.4185 2.3340 -0.5634
-1.4375 2.3545 -0.5674
-1.4570 2.3581 -0.5611
-1.4759 2.3604 -0.5541
-1.4948 2.3743 -0.5542
-1.5141 2.3960 -0.5589
-1.5335 2.4146 -0.5616
-1.5715 2.4405 -0.5605
-1.5909 2.4569 -0.5619
-1.6097 2.4686 -0.5608
-1.6295 2.4876 -0.5635
-1.6491 2.5042 -0.5649
-1.6684 2.5183 -0.5650
-0.8056 1.5806 -0.3589
-0.8184 1.5900 -0.3589
-0.8256 1.6007 -0.3621
-0.8363 1.6107 -0.3634
-0.8503 1.6200 -0.3628
-0.8579 1.6310 -0.3660
-0.8689 1.6413 -0.3673
-0.8810 1.6512 -0.3680
-0.8940 1.6609 -0.3681
-0.9109 1.6690 -0.3657
-0.9239 1.6786 -0.3658
-0.7502 1.8901 -0.5596
-0.7826 1.8968 -0.5500
-0.8038 1.9103 -0.5489
-0.8206 1.9270 -0.5514
-0.8326 1.9476 -0.5583
-0.8457 1.9681 -0.5646
-0.8739 1.9760 -0.5573
-0.8984 1.9865 -0.5532
-0.9237 1.9955 -0.5478
-0.9362 2.0176 -0.5553
-0.9526 2.0362 -0.5591
-0.9737 2.0496 -0.5580
-0.9947 2.0629 -0.5569
-1.0157 2.0762 -0.5558
-1.0355 2.0909 -0.5559
-1.0536 2.1085 -0.5585
-1.0792 2.1134 -0.5506
-1.0943 2.1364 -0.5575
-1.1150 2.1495 -0.5564
-1.1327 2.1690 -0.5602
-1.1534 2.1821 -0.5591
-1.1763 2.1893 -0.5537
-1.1945 2.2081 -0.5569
-1.2144 2.2228 -0.5571
-1.2337 2.2392 -0.5584
-1.2541 2.2521 -0.5573
-1.2746 2.2640 -0.5556
-1.2921 2.2898 -0.5631
-1.3119 2.3065 -0.5645
-1.3330 2.3146 -0.5603
-1.3535 2.3254 -0.5579
-1.3729 2.3440 -0.5605
-1.3923 2.3659 -0.5650
-1.4122 2.3859 -0.5682
-1.4326 2.3955 -0.5652
-1.4528 2.4051 -0.5623
-1.4729 2.4306 -0.5686
-1.4932 2.4500 -0.5712
-1.5127 2.4471 -0.5614
-1.5328 2.4641 -0.5628
-1.5522 2.4719 -0.5592
-1.5732 2.4971 -0.5649
-1.5922 2.5036 -0.5607
-1.6125 2.5207 -0.5621
-1.6338 2.5439 -0.5665
-1.6543 2.5612 -0.5679
-1.6719 2.5624 -0.5612
-1.6941 2.5884 -0.5669
-0.7974 1.5735 -0.3400
-0.8101 1.5828 -0.3401
-0.8215 1.5923 -0.3408
-0.8308 1.6024 -0.3426
-0.8425 1.6121 -0.3433
-0.8488 1.6233 -0.3469
-0.8606 1.6331 -0.3475
-0.8745 1.6423 -0.3470
-0.8824 1.6535 -0.3500
-0.8954 1.6631 -0.3501
-0.9151 1.6700 -0.3461
-0.7146 1.8875 -0.5437
-0.7310 1.9050 -0.5468
-0.7476 1.9227 -0.5498
-0.7667 1.9389 -0.5511
-0.7888 1.9531 -0.5501
-0.8094 1.9683 -0.5502
-0.8321 1.9818 -0.5486
-0.8527 1.9969 -0.5487
-0.8764 2.0090 -0.5459
-0.8919 2.0291 -0.5507
-0.9113 2.0456 -0.5520
-0.9308 2.0621 -0.5534
-0.9515 2.0774 -0.5535
-0.9679 2.0982 -0.5583
-0.9939 2.1065 -0.5526
-1.0112 2.1268 -0.5568
-1.0506 2.1613 -0.5600
-1.0715 2.1768 -0.5602
-1.0924 2.1922 -0.5603
-1.1197 2.1939 -0.5504
-1.1367 2.2173 -0.5564
-1.1585 2.2301 -0.5548
-1.1798 2.2436 -0.5538
-1.2033 2.2501 -0.5480
-1.2206 2.2759 -0.5552
-1.2423 2.2875 -0.5530
-1.2620 2.3064 -0.5555
-1.2811 2.3292 -0.5603
-1.3020 2.3446 -0.5605
-1.3234 2.3571 -0.5588
-1.3442 2.3725 -0.5589
-1.3647 2.3908 -0.5609
-1.4272 2.4391 -0.5624
-1.4482 2.4492 -0.5596
-1.4691 2.4700 -0.5627
-1.4900 2.4854 -0.5628
-1.5107 2.4953 -0.5600
-1.5725 2.5355 -0.5575
-1.5936 2.5543 -0.5594
-1.6144 2.5696 -0.5595
-1.6355 2.5874 -0.5608
-1.6559 2.6003 -0.5598
-1.6772 2.6181 -0.5611
-0.8122 1.5853 -0.3228
-0.8202 1.5956 -0.3251
-0.8328 1.6049 -0.3252
-0.8411 1.6154 -0.3275
-0.8527 1.6250 -0.3281
-0.8644 1.6347 -0.3288
-0.8751 1.6448 -0.3300
-0.8879 1.6543 -0.3300
-0.8997 1.6641 -0.3307
-0.9193 1.6709 -0.3269
-0.9319 1.6802 -0.3269
-0.6642 1.9202 -0.5506
-0.6859 1.9362 -0.5507
-0.7122 1.9491 -0.5475
-0.7315 1.9665 -0.5493
-0.7449 1.9885 -0.5556
-0.7610 2.0091 -0.5602
-0.7886 2.0207 -0.5559
-0.8124 2.0350 -0.5544
-0.8341 2.0510 -0.5545
-0.8559 2.0671 -0.5546
-0.8777 2.0831 -0.5548
-0.8994 2.0992 -0.5549
-0.9212 2.1152 -0.5551
-0.9445 2.1292 -0.5535
-0.9606 2.1530 -0.5598
-0.9810 2.1714 -0.5616
-1.0030 2.1876 -0.5618
-1.0264 2.2015 -0.5602
-1.0491 2.2162 -0.5593
-1.0734 2.2275 -0.5560
-1.0941 2.2460 -0.5579
-1.1130 2.2688 -0.5625
-1.1377 2.2782 -0.5581
-1.1595 2.2943 -0.5583
-1.1782 2.3201 -0.5646
-1.2018 2.3310 -0.5614
-1.2243 2.3453 -0.5604
-1.2462 2.3615 -0.5605
-1.2664 2.3852 -0.5652
-1.2880 2.4044 -0.5670
-1.3110 2.4148 -0.5638
-1.3330 2.4310 -0.5639
-1.3547 2.4503 -0.5657
-1.3765 2.4697 -0.5676
-1.3985 2.4891 -0.5694
-1.4214 2.4875 -0.5600
-1.4431 2.5089 -0.5629
-1.4650 2.5196 -0.5602
-1.4871 2.5446 -0.5649
-1.5092 2.5642 -0.5667
-1.5313 2.5805 -0.5669
-1.5533 2.5968 -0.5670
-1.5745 2.6037 -0.5626
-1.5975 2.6294 -0.5673
-1.6200 2.6493 -0.5691
-1.6436 2.6754 -0.5738
-1.6631 2.6745 -0.5660
-1.6844 2.6869 -0.5645
-1.7036 2.6890 -0.5584
-0.8234 1.5978 -0.3074
-0.8326 1.6079 -0.3090
-0.8430 1.6177 -0.3102
-0.8556 1.6270 -0.3103
-0.8714 1.6354 -0.3087
-0.8798 1.6460 -0.3109
-0.8854 1.6578 -0.3147
-0.9011 1.6662 -0.3132
-0.9168 1.6744 -0.3117
-0.6476 1.9635 -0.5472
-0.6655 1.9833 -0.5505
-0.6790 2.0065 -0.5571
-0.7065 2.0201 -0.5540
-0.7584 2.0485 -0.5495
-0.7892 2.0580 -0.5433
-0.8096 2.0763 -0.5450
-0.8302 2.0948 -0.5468
-0.8735 2.1300 -0.5486
-0.8977 2.1446 -0.5472
-0.9203 2.1612 -0.5473
-0.9381 2.1843 -0.5523
-0.9534 2.2122 -0.5604
-1.0036 2.2392 -0.5559
-1.0721 2.2898 -0.5564
-1.0939 2.3092 -0.5581
-1.1138 2.3338 -0.5631
-1.1627 2.3599 -0.5585
-1.1848 2.3795 -0.5603
-1.2085 2.3937 -0.5588
-1.2314 2.4106 -0.5590
-1.2773 2.4444 -0.5593
-1.3453 2.5013 -0.5629
-1.3692 2.5089 -0.5583
-1.3917 2.5321 -0.5616
-1.4145 2.5523 -0.5634
-1.4375 2.5725 -0.5651
-1.4837 2.6033 -0.5638
-1.5070 2.6271 -0.5672
-1.5534 2.6613 -0.5675
-1.5985 2.6847 -0.5629
-1.6445 2.7186 -0.5632
-1.6932 2.7677 -0.5700
-0.8198 1.6015 -0.2929
-0.8346 1.6102 -0.2920
-0.8471 1.6194 -0.2921
-0.8678 1.6392 -0.2942
-0.8804 1.6485 -0.2943
-0.8940 1.6574 -0.2939
-0.8986 1.6697 -0.2980
-0.9143 1.6779 -0.2966
-0.5545 1.9922 -0.5599
-0.5845 2.0066 -0.5565
-0.6056 2.0266 -0.5587
-0.6429 2.0352 -0.5503
-0.6743 2.0472 -0.5454
-0.6784 2.0803 -0.5592
-0.7055 2.0959 -0.5573
-0.7297 2.1137 -0.5575
-0.7559 2.1297 -0.5561
-0.7756 2.1520 -0.5598
-0.8023 2.1673 -0.5579
-0.8201 2.1926 -0.5637
-0.8485 2.2057 -0.5603
-0.8766 2.2187 -0.5569
-0.9044 2.2314 -0.5535
-0.9233 2.2565 -0.5587
-0.9537 2.2645 -0.5523
-0.9717 2.2922 -0.5590
-0.9959 2.3101 -0.5592
-1.0185 2.3311 -0.5614
-1.0416 2.3515 -0.5630
-1.0671 2.3670 -0.5617
-1.0903 2.3875 -0.5633
-1.1124 2.4116 -0.5671
-1.1399 2.4207 -0.5621
-1.1634 2.4414 -0.5638
-1.1867 2.4630 -0.5660
-1.2137 2.4707 -0.5606
-1.2371 2.4924 -0.5628
-1.2621 2.5064 -0.5609
-1.2852 2.5312 -0.5646
-1.3100 2.5461 -0.5632
-1.3342 2.5640 -0.5634
-1.3585 2.5820 -0.5635
-1.3831 2.5956 -0.5617
-1.4075 2.6103 -0.5603
-1.4313 2.6390 -0.5655
-1.4557 2.6492 -0.5621
-1.4800 2.6749 -0.5658
-1.5041 2.6849 -0.5624
-1.5286 2.7074 -0.5646
-1.5531 2.7288 -0.5663
-1.5782 2.7551 -0.5700
-1.6018 2.7647 -0.5666
-1.6283 2.7998 -0.5739
-1.6535 2.8217 -0.5756
-1.6749 2.8186 -0.5671
-1.6986 2.8328 -0.5657
-1.7229 2.8507 -0.5659
-0.8367 1.6126 -0.2752
-0.8491 1.6217 -0.2752
-0.8549 1.6328 -0.2782
-0.8717 1.6407 -0.2764
-0.8852 1.6495 -0.2760
-0.8936 1.6601 -0.2779
-0.9031 1.6705 -0.2795
-0.9137 1.6806 -0.2805
-0.5135 2.0206 -0.5514
-0.5298 2.0450 -0.5568
-0.5618 2.0595 -0.5531
-0.6065 2.1015 -0.5573
-0.6401 2.1140 -0.5522
-0.6633 2.1345 -0.5538
-0.6860 2.1556 -0.5558
-0.7161 2.1700 -0.5527
-0.7440 2.1861 -0.5509
-0.7624 2.2120 -0.5563
-0.7814 2.2383 -0.5618
-0.8134 2.2496 -0.5567
-0.8367 2.2713 -0.5587
-0.8664 2.2843 -0.5551
-0.8858 2.3120 -0.5610
-0.9134 2.3278 -0.5592
-0.9408 2.3436 -0.5575
-0.9680 2.3592 -0.5557
-1.0188 2.3966 -0.5560
-1.0482 2.4060 -0.5509
-1.0936 2.4563 -0.5585
-1.1435 2.4976 -0.5607
-1.1672 2.5230 -0.5642
-1.2726 2.5839 -0.5577
-1.2985 2.5996 -0.5564
-1.3491 2.6369 -0.5567
-1.3733 2.6715 -0.5641
-1.3987 2.6937 -0.5657
-1.4246 2.7094 -0.5644
-1.5276 2.7932 -0.5685
-1.5534 2.8123 -0.5686
-1.5788 2.8265 -0.5669
-1.6042 2.8419 -0.5656
-1.6308 2.8694 -0.5691
-1.6573 2.8934 -0.5712
-1.6811 2.8986 -0.5661
-1.7083 2.9265 -0.5696
-1.7341 2.9456 -0.5698
-0.8501 1.6119 -0.2541
-0.8533 1.6233 -0.2577
-0.8634 1.6330 -0.2587
-0.8746 1.6424 -0.2592
-0.8838 1.6526 -0.2607
-0.8952 1.6621 -0.2612
-0.9056 1.6721 -0.2622
-0.9171 1.6817 -0.2627
-0.4527 2.0612 -0.5509
-0.4795 2.0809 -0.5510
-0.5031 2.1029 -0.5530
-0.5269 2.1249 -0.5550
-0.6073 2.1435 -0.5391
-0.6259 2.2126 -0.5615
-0.6558 2.2302 -0.5599
-0.6939 2.2391 -0.5524
-0.7183 2.2615 -0.5544
-0.7475 2.2786 -0.5527
-0.7646 2.3104 -0.5606
-0.7940 2.3275 -0.5590
-0.8280 2.3379 -0.5533
-0.8568 2.3547 -0.5516
-0.8777 2.3836 -0.5572
-0.9005 2.4106 -0.5615
-0.9259 2.4339 -0.5635
-0.9515 2.4573 -0.5655
-0.9820 2.4708 -0.5620
-1.0092 2.4908 -0.5622
-1.0410 2.4995 -0.5564
-1.0636 2.5309 -0.5625
-1.0920 2.5474 -0.5609
-1.1191 2.5673 -0.5611
-1.1462 2.5873 -0.5612
-1.1732 2.6073 -0.5614
-1.2032 2.6147 -0.5557
-1.2267 2.6512 -0.5636
-1.2554 2.6622 -0.5596
-1.2791 2.7046 -0.5698
-1.3077 2.7155 -0.5659
-1.3376 2.7093 -0.5547
-1.3633 2.7418 -0.5603
-1.3895 2.7759 -0.5664
-1.4177 2.7684 -0.5552
-1.4443 2.7971 -0.5590
-1.4712 2.8214 -0.5610
-1.4982 2.8413 -0.5612
-1.5263 2.8870 -0.5714
-1.5534 2.9013 -0.5693
-1.5804 2.9167 -0.5677
-1.6067 2.9270 -0.5642
-1.6338 2.9470 -0.5644
-1.6601 2.9607 -0.5622
-1.6895 2.9971 -0.5684
-1.7186 3.0288 -0.5727
-1.7461 3.0491 -0.5728
-0.8587 1.6245 -0.2401
-0.8730 1.6328 -0.2393
-0.8786 1.6438 -0.2420
-0.8940 1.6517 -0.2408
-0.9020 1.6621 -0.2425
-0.9152 1.6707 -0.2422
-0.4075 2.0928 -0.5388
-0.4387 2.1112 -0.5372
-0.4664 2.1317 -0.5374
-0.4942 2.1522 -0.5376
-0.5486 2.1523 -0.5229
-0.5815 2.1674 -0.5197
-0.5811 2.2105 -0.5360
-0.5803 2.2568 -0.5536
-0.6022 2.2843 -0.5581
-0.6375 2.2989 -0.5540
-0.6970 2.3383 -0.5526
-0.7255 2.3593 -0.5528
-0.7518 2.3832 -0.5547
-0.7803 2.4043 -0.5549
-0.8946 2.4886 -0.5556
-0.9190 2.5180 -0.5601
-0.9518 2.5307 -0.5560
-1.0342 2.6029 -0.5608
-1.0946 2.6361 -0.5569
-1.3216 2.8206 -0.5648
-1.3493 2.8570 -0.5710
-1.3791 2.8687 -0.5673
-1.4087 2.8735 -0.5611
-1.4375 2.8890 -0.5591
-1.4661 2.9272 -0.5657
-1.4953 2.9590 -0.5698
-1.5242 2.9758 -0.5683
-1.5532 2.9972 -0.5684
-1.5808 3.0004 -0.5622
-1.6089 3.0155 -0.5602
-1.6356 3.0192 -0.5544
-1.6624 3.0287 -0.5507
-1.6898 3.0443 -0.5491
-0.8619 1.6262 -0.2237
-0.8684 1.6368 -0.2257
-0.8784 1.6464 -0.2266
-0.8895 1.6558 -0.2271
-0.9006 1.6651 -0.2275
-0.9219 1.6705 -0.2240
-0.9310 1.6806 -0.2253
-0.3149 2.1536 -0.5460
-0.3409 2.1785 -0.5482
-0.3841 2.1920 -0.5420
-0.4297 2.2026 -0.5343
-0.5096 2.1856 -0.5082
-0.5480 2.1978 -0.5028
-0.5181 2.2678 -0.5348
-0.5112 2.3226 -0.5557
-0.5419 2.3452 -0.5559
-0.5757 2.3644 -0.5541
-0.6031 2.3904 -0.5563
-0.6301 2.4172 -0.5589
-0.6708 2.4276 -0.5523
-0.7039 2.4463 -0.5505
-0.7196 2.4890 -0.5615
-0.7505 2.5117 -0.5617
-0.7813 2.5345 -0.5619
-0.8093 2.5621 -0.5645
-0.8430 2.5800 -0.5623
-0.8760 2.5986 -0.5605
-0.9048 2.6255 -0.5627
-0.9398 2.6387 -0.5585
-0.9744 2.6516 -0.5543
-1.0011 2.6839 -0.5589
-1.0317 2.7065 -0.5591
-1.0670 2.7141 -0.5528
-1.0943 2.7469 -0.5574
-1.1220 2.7800 -0.5620
-1.1516 2.8076 -0.5643
-1.1847 2.8194 -0.5600
-1.2143 2.8481 -0.5626
-1.2433 2.8821 -0.5673
-1.2743 2.9050 -0.5675
-1.3065 2.9161 -0.5632
-1.3368 2.9442 -0.5654
-1.3677 2.9670 -0.5656
-1.3988 2.9841 -0.5638
-1.4300 2.9819 -0.5552
-1.4603 3.0100 -0.5574
-1.4910 3.0522 -0.5644
-1.5218 3.0749 -0.5646
-1.5525 3.0975 -0.5648
-1.5832 3.1202 -0.5650
-1.6133 3.1355 -0.5628
-1.6377 3.0994 -0.5440
-1.6612 3.0719 -0.5284
-1.6908 3.0994 -0.5306
-1.7294 3.1843 -0.5506
-1.7582 3.1998 -0.5488
-0.8641 1.6283 -0.2078
-0.8716 1.6384 -0.2094
-0.8814 1.6480 -0.2102
-0.8945 1.6565 -0.2099
-0.9013 1.6673 -0.2118
-0.9186 1.6742 -0.2101
-0.9276 1.6844 -0.2113
-0.2377 2.2057 -0.5407
-0.2839 2.2201 -0.5346
-0.3652 2.2093 -0.5122
-0.4619 2.1832 -0.4813
-0.4972 2.1987 -0.4781
-0.4254 2.3511 -0.5442
-0.4659 2.3671 -0.5399
-0.4978 2.3906 -0.5401
-0.5501 2.4501 -0.5472
-0.5714 2.4867 -0.5542
-0.6111 2.5021 -0.5499
-0.6367 2.5349 -0.5546
-0.6727 2.5544 -0.5525
-0.7146 2.5645 -0.5460
-0.7347 2.6072 -0.5552
-0.7703 2.6264 -0.5532
-0.7974 2.6603 -0.5579
-0.8328 2.6795 -0.5558
-0.9549 2.7986 -0.5660
-0.9798 2.8471 -0.5759
-1.0193 2.8542 -0.5691
-1.0615 2.8482 -0.5573
-1.0909 2.8850 -0.5624
-1.1255 2.9023 -0.5600
-1.1568 2.9336 -0.5628
-1.1933 2.9385 -0.5559
-1.2269 2.9562 -0.5538
-1.2576 2.9928 -0.5585
-1.2910 3.0105 -0.5565
-1.3235 3.0345 -0.5567
-1.3542 3.0861 -0.5663
-1.3880 3.0960 -0.5616
-1.4204 3.1350 -0.5667
-1.4535 3.1663 -0.5692
-1.4869 3.2061 -0.5743
-1.5202 3.2237 -0.5723
-1.5525 3.2254 -0.5653
-1.5859 3.2570 -0.5678
-1.6197 3.2889 -0.5703
-1.6505 3.2896 -0.5633
-1.6797 3.2833 -0.5545
-0.8521 1.6222 -0.1929
-0.8606 1.6319 -0.1940
-0.8737 1.6404 -0.1937
-0.8812 1.6506 -0.1951
-0.8911 1.6602 -0.1959
-0.8979 1.6711 -0.1977
-0.9172 1.6772 -0.1954
-0.9282 1.6864 -0.1958
-0.2250 2.1760 -0.4923
-0.2564 2.1992 -0.4925
-0.3062 2.2102 -0.4852
-0.3968 2.1916 -0.4602
-0.3215 2.3384 -0.5202
-0.2998 2.4078 -0.5455
-0.3644 2.4075 -0.5316
-0.4024 2.4285 -0.5298
-0.4341 2.5150 -0.5488
-0.4645 2.5457 -0.5515
-0.5039 2.5665 -0.5493
-0.5346 2.5974 -0.5519
-0.5697 2.6232 -0.5522
-0.6047 2.6491 -0.5524
-0.6324 2.6859 -0.5574
-0.6678 2.7120 -0.5577
-0.7065 2.7324 -0.5555
-0.7353 2.7700 -0.5605
-0.7739 2.7902 -0.5584
-0.8122 2.8103 -0.5562
-0.8556 2.8178 -0.5491
-0.8904 2.8434 -0.5493
-0.9154 2.8946 -0.5593
-0.9485 2.9272 -0.5619
-0.9840 2.9534 -0.5621
-1.0215 2.9729 -0.5599
-1.0550 3.0058 -0.5626
-1.0887 3.0400 -0.5656
-1.1291 3.0440 -0.5582
-1.1643 3.0700 -0.5584
-1.1983 3.1033 -0.5611
-1.2357 3.1145 -0.5564
-1.2691 3.1555 -0.5615
-1.3044 3.1816 -0.5617
-1.3398 3.2076 -0.5620
-1.3752 3.2337 -0.5622
-1.4105 3.2598 -0.5624
-1.4459 3.2859 -0.5627
-1.4814 3.3297 -0.5681
-1.5166 3.3381 -0.5631
-1.5529 3.3823 -0.5686
-1.5879 3.3988 -0.5660
-1.6250 3.4437 -0.5715
-1.6600 3.4613 -0.5693
-1.6945 3.4775 -0.5667
-1.7229 3.4493 -0.5522
-1.7535 3.4473 -0.5451
-1.7876 3.4725 -0.5453
-0.8533 1.6245 -0.1777
-0.8651 1.6332 -0.1778
-0.8735 1.6430 -0.1788
-0.8832 1.6524 -0.1795
-0.8908 1.6628 -0.1809
-0.8997 1.6729 -0.1819
-0.9148 1.6805 -0.1810
-0.2767 2.1508 -0.4343
-0.2971 2.1788 -0.4379
-0.3365 2.1949 -0.4346
-0.3170 2.2513 -0.4539
-0.2076 2.4312 -0.5244
-0.2385 2.4622 -0.5269
-0.2910 2.4750 -0.5201
-0.3525 2.4779 -0.5089
-0.3476 2.5427 -0.5276
-0.3527 2.6018 -0.5428
-0.3843 2.6358 -0.5459
-0.4120 2.6750 -0.5512
-0.5259 2.7591 -0.5519
-0.5639 2.7871 -0.5522
-0.5978 2.8215 -0.5550
-0.6189 2.8784 -0.5664
-0.6699 2.8853 -0.5584
-0.7228 2.8854 -0.5480
-0.7571 2.9201 -0.5508
-0.7849 2.9702 -0.5591
-0.8136 3.0219 -0.5677
-0.8557 3.0424 -0.5650
-0.9056 3.0391 -0.5544
-0.9460 3.0595 -0.5521
-0.9909 3.0631 -0.5443
-1.0260 3.0985 -0.5471
-1.0575 3.1511 -0.5554
-1.0954 3.1792 -0.5556
-1.1318 3.2154 -0.5584
-1.1684 3.2531 -0.5615
-1.2093 3.2632 -0.5563
-1.2483 3.2825 -0.5540
-1.2853 3.3192 -0.5568
-1.3239 3.3382 -0.5545
-1.3602 3.3945 -0.5628
-1.3995 3.3940 -0.5550
-1.4370 3.4406 -0.5604
-1.4753 3.4888 -0.5661
-1.5149 3.5593 -0.5776
-1.5551 3.6102 -0.5837
-1.5948 3.6395 -0.5839
-1.6319 3.6350 -0.5755
-1.6680 3.6309 -0.5673
-1.6939 3.5451 -0.5388
-1.7219 3.5044 -0.5222
-1.7494 3.4752 -0.5088
-1.7809 3.4819 -0.5045
-0.8510 1.6278 -0.1636
-0.8662 1.6354 -0.1628
-0.8779 1.6441 -0.1629
-0.8852 1.6542 -0.1641
-0.8971 1.6630 -0.1642
-0.9047 1.6733 -0.1655
-0.9166 1.6821 -0.1655
-0.2632 2.2046 -0.4112
-0.2941 2.2273 -0.4114
-0.3018 2.2663 -0.4197
-0.3233 2.3452 -0.4355
-0.2869 2.5418 -0.4909
-0.2040 2.6863 -0.5415
-0.2321 2.7296 -0.5473
-0.2733 2.7600 -0.5476
-0.3207 2.7831 -0.5449
-0.3496 2.8282 -0.5510
-0.3969 2.8511 -0.5484
-0.4325 2.8893 -0.5516
-0.4793 2.9119 -0.5489
-0.5102 2.9585 -0.5550
-0.5567 2.9809 -0.5524
-0.6028 3.0031 -0.5497
-0.6440 3.0335 -0.5500
-0.6852 3.0638 -0.5502
-0.7224 3.1032 -0.5534
-0.7601 3.1428 -0.5566
-0.8088 3.1550 -0.5510
-0.8434 3.2043 -0.5571
-0.8819 3.2446 -0.5604
-0.9267 3.2657 -0.5577
-0.9736 3.2766 -0.5521
-1.0148 3.3070 -0.5523
-1.0538 3.3476 -0.5555
-1.0972 3.3677 -0.5529
-1.1349 3.4193 -0.5590
-1.1766 3.4500 -0.5593
-1.2182 3.4807 -0.5596
-1.2588 3.5225 -0.5628
-1.3015 3.5422 -0.5601
-1.3438 3.5615 -0.5574
-1.3844 3.6152 -0.5636
-1.4260 3.6578 -0.5668
-1.4681 3.6769 -0.5641
-1.5097 3.6958 -0.5614
-1.5504 3.7020 -0.5558
-1.5923 3.7448 -0.5590
-1.6328 3.7628 -0.5563
-1.6654 3.6977 -0.5343
-1.6989 3.6700 -0.5215
-1.7258 3.6031 -0.5001
-1.7464 3.5126 -0.4739
-1.7729 3.4834 -0.4620
-0.8556 1.6290 -0.1480
-0.8684 1.6373 -0.1478
-0.8756 1.6473 -0.1489
-0.8873 1.6560 -0.1490
-0.8937 1.6666 -0.1504
-0.9076 1.6745 -0.1499
-0.9153 1.6850 -0.1510
-0.9221 1.6960 -0.1524
-0.2308 2.1877 -0.3728
0.2166 2.6353 -0.5445
0.1713 2.6687 -0.5448
0.1166 2.6947 -0.5419
0.0807 2.7356 -0.5453
0.0265 2.7612 -0.5425
-0.0272 2.7864 -0.5396
-0.0719 2.8194 -0.5399
-0.1086 2.8608 -0.5433
-0.1458 2.9027 -0.5468
-0.1911 2.9361 -0.5471
-0.2364 2.9695 -0.5474
-0.2747 3.0121 -0.5509
-0.3203 3.0457 -0.5511
-0.3529 3.0985 -0.5578
-0.4052 3.1227 -0.5549
-0.5481 3.2138 -0.5526
-0.5988 3.2368 -0.5497
-0.6344 3.2918 -0.5564
-0.6803 3.3256 -0.5567
-0.7218 3.3706 -0.5602
-0.7594 3.4284 -0.5671
-0.8102 3.4502 -0.5640
-0.8566 3.4844 -0.5643
-0.9062 3.5067 -0.5614
-0.9523 3.5407 -0.5616
-1.0011 3.5623 -0.5587
-1.0395 3.6349 -0.5689
-1.0840 3.6821 -0.5724
-1.1328 3.7037 -0.5695
-1.1862 3.6844 -0.5567
-1.2317 3.7180 -0.5570
-1.2740 3.7923 -0.5669
-1.3204 3.8265 -0.5672
-1.3684 3.8188 -0.5579
-1.4146 3.8241 -0.5517
-1.5052 3.9197 -0.5587
-1.5518 3.9828 -0.5655
-1.5939 3.9420 -0.5496
-1.6310 3.8639 -0.5262
-1.6607 3.7445 -0.4947
-1.6869 3.6380 -0.4666
-1.7137 3.5727 -0.4477
-1.7420 3.5409 -0.4360
-0.8536 1.6204 -0.1316
-0.8651 1.6288 -0.1317
-0.8742 1.6380 -0.1322
-0.8778 1.6491 -0.1339
-0.8850 1.6592 -0.1350
-0.9011 1.6662 -0.1341
-0.9159 1.6736 -0.1335
-0.9202 1.6852 -0.1352
0.2995 2.8446 -0.5402
0.2495 2.8814 -0.5406
0.1996 2.9183 -0.5409
0.1496 2.9551 -0.5412
0.0898 2.9823 -0.5382
0.0401 3.0190 -0.5385
-0.0095 3.0556 -0.5388
-0.0592 3.0922 -0.5391
-0.1088 3.1288 -0.5395
-0.1585 3.1655 -0.5398
-0.2161 3.1910 -0.5368
-0.2502 3.2500 -0.5438
-0.3001 3.2869 -0.5441
-0.3501 3.3237 -0.5444
-0.4001 3.3606 -0.5447
-0.4500 3.3974 -0.5450
-0.5061 3.4218 -0.5420
-0.5614 3.4458 -0.5390
-0.5999 3.5080 -0.5460
-0.6499 3.5448 -0.5463
-0.6899 3.6094 -0.5536
-0.7450 3.6331 -0.5506
-0.9997 3.8028 -0.5486
-1.0523 3.8247 -0.5455
-1.0996 3.8766 -0.5492
-1.1496 3.9134 -0.5495
-1.1978 3.9671 -0.5535
-1.2468 4.0201 -0.5572
-1.2963 4.0747 -0.5611
-1.3465 4.1299 -0.5651
-1.3990 4.1155 -0.5547
-1.5985 4.2276 -0.5490
-1.6370 4.0954 -0.5170
-1.6762 3.6159 -0.4154
-1.7020 3.5431 -0.3971
-1.7401 3.5894 -0.4010
-1.7676 3.5577 -0.3908
-0.8526 1.6232 -0.1177
-0.8604 1.6327 -0.1184
-0.8708 1.6415 -0.1187
-0.8823 1.6500 -0.1188
-0.8938 1.6585 -0.1189
-0.9020 1.6682 -0.1196
-0.9168 1.6755 -0.1190
-0.9262 1.6849 -0.1195
0.4302 3.0383 -0.5273
0.3888 3.0907 -0.5315
0.3728 3.1683 -0.5432
0.3163 3.2100 -0.5436
0.2351 3.2260 -0.5363
0.1219 3.2036 -0.5183
0.0790 3.2560 -0.5223
0.0248 3.2959 -0.5226
0.0015 3.3764 -0.5340
-0.0538 3.4172 -0.5343
-0.0894 3.4873 -0.5423
-0.1550 3.5138 -0.5388
-0.2107 3.5549 -0.5392
-0.2578 3.6115 -0.5434
-0.3139 3.6529 -0.5437
-0.4965 3.7437 -0.5372
-0.5318 3.8355 -0.5490
-0.5620 3.9503 -0.5656
-0.6267 3.9737 -0.5617
-0.7015 3.9606 -0.5501
-0.7527 4.0216 -0.5545
-0.8192 4.0256 -0.5470
-0.8880 4.0106 -0.5358
-0.9537 3.9970 -0.5252
-1.0011 4.0733 -0.5329
-1.1051 4.1926 -0.5411
-1.1560 4.2740 -0.5491
-1.2683 4.3568 -0.5499
-1.4367 4.4810 -0.5509
-1.4930 4.5445 -0.5552
-1.5496 4.5862 -0.5555
-1.6030 4.5599 -0.5442
-1.6689 3.6263 -0.3709
-1.6929 3.5345 -0.3516
-0.8450 1.6164 -0.1031
-0.8539 1.6254 -0.1036
-0.8664 1.6334 -0.1034
-0.8766 1.6421 -0.1037
-0.8823 1.6524 -0.1047
-0.8926 1.6613 -0.1049
-0.9041 1.6698 -0.1050
-0.9135 1.6791 -0.1054
-0.9260 1.6872 -0.1053
-0.2281 2.2039 -0.2595
0.3664 2.9099 -0.4316
0.5451 3.3350 -0.5161
0.4993 3.3958 -0.5206
0.4070 3.4098 -0.5129
0.3607 3.4710 -0.5173
0.3275 3.5494 -0.5258
0.2378 3.5617 -0.5181
0.1763 3.6070 -0.5185
0.1401 3.6877 -0.5270
0.1031 3.7714 -0.5359
0.0035 3.7614 -0.5237
-0.0808 3.7697 -0.5160
-0.1311 3.8337 -0.5204
-0.2028 3.8596 -0.5168
-0.2637 3.9046 -0.5171
-0.3063 3.9900 -0.5257
-0.3504 4.0777 -0.5345
-0.4134 4.1242 -0.5349
-0.4764 4.1706 -0.5353
-0.5469 4.1944 -0.5314
-0.6094 4.2405 -0.5318
-0.8735 4.3544 -0.5211
-0.9507 4.3094 -0.5059
-1.0132 4.3311 -0.5025
-1.0628 4.4424 -0.5143
-1.1175 4.5343 -0.5226
-1.1828 4.5310 -0.5151
-1.2557 4.3934 -0.4862
-1.3122 4.4351 -0.4865
-1.3630 4.6638 -0.5163
-1.4220 4.7859 -0.5287
-1.4835 4.8313 -0.5291
-1.5456 4.9041 -0.5337
-1.6136 5.0953 -0.5558
-1.6800 5.1737 -0.5607
-1.6578 3.5958 -0.3205
-1.6911 3.5922 -0.3164
-1.7212 3.5702 -0.3098
-1.7605 3.6262 -0.3142
-0.8352 1.6102 -0.0891
-0.8502 1.6175 -0.0887
-0.8541 1.6278 -0.0897
-0.8642 1.6365 -0.0899
-0.8744 1.6453 -0.0901
-0.8857 1.6536 -0.0902
-0.8926 1.6637 -0.0909
-0.9073 1.6708 -0.0905
-0.9133 1.6814 -0.0914
-0.9248 1.6899 -0.0914
0.3728 3.4881 -0.4438
-0.9981 4.3695 -0.4356
-1.1025 4.5763 -0.4533
-1.1687 4.5719 -0.4468
-1.2255 4.6670 -0.4541
-1.2841 4.7646 -0.4616
-1.3447 4.8661 -0.4694
-1.4091 4.8568 -0.4624
-1.4714 4.8484 -0.4557
-1.5329 4.8937 -0.4560
-1.5954 4.9670 -0.4600
-1.6513 4.9019 -0.4464
-1.6489 3.5862 -0.2744
-1.6790 3.5540 -0.2675
-1.7154 3.5895 -0.2688
-0.8368 1.6124 -0.0753
-0.8517 1.6196 -0.0750
-0.8567 1.6296 -0.0757
-0.8667 1.6382 -0.0759
-0.8780 1.6465 -0.0759
-0.8869 1.6556 -0.0763
-0.8948 1.6652 -0.0767
-0.9040 1.6744 -0.0770
-0.9132 1.6837 -0.0774
-0.3183 2.1966 -0.1768
-0.3294 2.2296 -0.1795
-0.3379 2.2658 -0.1828
-0.3970 2.3094 -0.1832
-0.4101 2.3452 -0.1861
0.1152 3.7875 -0.3812
-0.9832 4.8743 -0.4182
-1.0751 4.7228 -0.3950
-1.1592 4.5644 -0.3716
-1.2173 4.6334 -0.3748
-1.2702 4.8095 -0.3900
-1.3311 4.9117 -0.3966
-1.5861 5.0711 -0.3952
-1.6451 5.0299 -0.3864
-1.6418 3.5962 -0.2312
-1.7107 3.6197 -0.2286
-0.8337 1.6048 -0.0610
-0.8422 1.6136 -0.0613
-0.8544 1.6214 -0.0613
-0.8594 1.6313 -0.0619
-0.8693 1.6398 -0.0620
-0.8793 1.6485 -0.0622
-0.8982 1.6662 -0.0627
-0.9139 1.6727 -0.0623
-0.4021 2.1462 -0.1325
-0.3733 2.2442 -0.1426
-0.3658 2.2926 -0.1472
-0.4302 2.2862 -0.1429
-0.4041 2.3536 -0.1502
0.6365 3.5477 -0.3128
0.5889 3.6142 -0.3158
0.4203 4.0787 -0.3463
0.2840 4.0361 -0.3348
0.2769 4.1845 -0.3472
0.3387 4.4602 -0.3745
0.2612 4.5174 -0.3750
0.1513 4.5131 -0.3683
0.0172 4.4513 -0.3553
-0.0425 4.5342 -0.3591
-0.1412 4.5305 -0.3531
-0.2477 4.4986 -0.3443
-0.2860 4.6373 -0.3540
-0.3803 4.9051 -0.3717
-0.4755 4.8938 -0.3653
-0.5321 5.0172 -0.3727
-0.6480 4.9043 -0.3563
-0.7668 5.1488 -0.3706
-0.8233 5.3173 -0.3819
-0.9742 4.8625 -0.3341
-1.0689 4.6876 -0.3136
-1.1292 4.7609 -0.3164
-1.1835 4.9215 -0.3272
-1.2377 5.1585 -0.3445
-1.2964 5.4592 -0.3671
-1.3684 5.5926 -0.3745
-1.4440 5.5680 -0.3681
-1.5143 5.3626 -0.3463
-1.6698 3.6222 -0.1873
-1.6940 3.5422 -0.1790
-1.7344 3.6158 -0.1830
-0.8328 1.6075 -0.0478
-0.8425 1.6160 -0.0480
-0.8510 1.6248 -0.0482
-0.8633 1.6325 -0.0482
-0.8707 1.6418 -0.0485
-0.8865 1.6484 -0.0483
-0.8894 1.6594 -0.0489
-0.9017 1.6672 -0.0489
-0.9139 1.6749 -0.0489
-0.4691 2.0727 -0.0928
-0.4685 2.1065 -0.0950
-0.4577 2.1491 -0.0982
-0.4703 2.1773 -0.0995
-0.4132 2.3034 -0.1100
-0.4229 2.3409 -0.1120
0.6319 3.5483 -0.2332
0.2751 4.1795 -0.2592
0.3008 4.3932 -0.2740
0.2765 4.5389 -0.2824
0.1827 4.5651 -0.2803
0.1060 4.6217 -0.2808
-0.0414 4.5255 -0.2685
-0.1269 4.5506 -0.2666
-0.1993 4.6040 -0.2671
-0.2256 4.7815 -0.2774
-0.3230 4.7724 -0.2728
-0.3760 4.8924 -0.2784
-0.4608 4.9145 -0.2763
-0.5443 4.9356 -0.2742
-0.6098 5.0244 -0.2773
-0.7450 5.2063 -0.2834
-0.8452 5.1183 -0.2736
-0.9564 4.9120 -0.2558
-1.0565 4.7051 -0.2383
-1.1223 4.7246 -0.2369
-1.1847 4.7706 -0.2373
-1.2472 4.8167 -0.2377
-1.2976 5.1296 -0.2558
-1.3567 5.4956 -0.2769
-1.4281 5.7532 -0.2906
-1.5028 5.6034 -0.2779
-1.6862 3.5421 -0.1374
-1.7181 3.5492 -0.1366
-0.8371 1.6090 -0.0345
-0.8454 1.6177 -0.0347
-0.8551 1.6261 -0.0348
-0.8611 1.6356 -0.0350
-0.8721 1.6437 -0.0351
-0.8831 1.6518 -0.0352
-0.8907 1.6612 -0.0354
-0.9029 1.6690 -0.0354
-0.9184 1.6753 -0.0353
-0.4557 2.0526 -0.0632
-0.4513 2.0876 -0.0648
-0.4664 2.1115 -0.0655
-0.4820 2.1358 -0.0661
-0.5033 2.1565 -0.0665
-0.5037 2.1937 -0.0681
0.8498 3.8991 -0.1756
0.3219 3.8043 -0.1581
0.1928 3.8995 -0.1590
0.1691 4.0112 -0.1632
0.1162 4.0821 -0.1649
-0.1037 4.3807 -0.1721
-0.1001 4.5997 -0.1816
-0.1355 4.7469 -0.1871
-0.2107 4.8024 -0.1876
-0.2382 4.9959 -0.1952
-0.3611 4.9133 -0.1885
-0.4461 4.9352 -0.1873
-0.5297 4.9561 -0.1861
-0.5692 5.1521 -0.1935
-0.6459 5.2087 -0.1940
-0.9850 4.6498 -0.1614
-1.0636 4.5701 -0.1560
-1.1288 4.5660 -0.1542
-1.6983 3.7336 -0.1040
-1.7340 3.7498 -0.1038
-0.8350 1.6120 -0.0215
-0.8471 1.6197 -0.0216
-0.8567 1.6280 -0.0217
-0.8663 1.6364 -0.0218
-0.8760 1.6448 -0.0219
-0.8798 1.6553 -0.0220
-0.8920 1.6630 -0.0221
-0.8996 1.6725 -0.0222
-0.9185 1.6774 -0.0222
-0.4861 2.1364 -0.0363
-0.4984 2.1634 -0.0368
-0.4044 2.2738 -0.0401
0.7970 3.6082 -0.0808
0.8214 3.8740 -0.0868
0.7496 3.9269 -0.0873
0.1783 3.8772 -0.0807
0.1822 4.0296 -0.0841
0.1294 4.1007 -0.0851
0.0626 4.1499 -0.0855
0.0615 4.3228 -0.0893
0.0464 4.4840 -0.0926
0.0444 4.6884 -0.0971
-0.0172 4.7774 -0.0984
-0.1207 4.7678 -0.0972
-0.1959 4.8233 -0.0977
-0.2352 4.9819 -0.1008
-0.3240 5.0037 -0.1004
-0.4215 4.9897 -0.0991
-0.5241 4.9434 -0.0971
-1.0093 4.4271 -0.0812
-1.0728 4.4265 -0.0806
-1.1417 4.3605 -0.0785
-1.2109 4.2434 -0.0752
-1.2628 4.2817 -0.0756
-1.5248 4.5776 -0.0795
-1.5755 4.5329 -0.0780
-0.8407 1.6130 -0.0086
-0.8488 1.6216 -0.0087
-0.8571 1.6303 -0.0087
-0.8679 1.6383 -0.0088
-0.8751 1.6474 -0.0088
-0.8871 1.6551 -0.0089
-0.8945 1.6644 -0.0090
-0.8985 1.6751 -0.0090
-0.9118 1.6823 -0.0091
-0.4778 2.1820 -0.0071
-0.4066 2.2756 -0.0067
-0.3893 2.3793 -0.0067
0.6352 3.5670 -0.0020
0.6228 3.6680 -0.0021
0.5431 3.8238 -0.0027
0.4275 3.8121 -0.0034
0.3782 3.8808 -0.0037
0.2682 3.8675 -0.0044
0.2182 3.9354 -0.0047
0.2093 4.0700 -0.0049
0.1566 4.1425 -0.0052
0.0892 4.1922 -0.0057
0.0753 4.3421 -0.0059
0.0466 4.4758 -0.0062
0.0157 4.6162 -0.0065
-0.0713 4.6403 -0.0070
-0.0925 4.8215 -0.0073
-0.2055 4.7794 -0.0079
-0.2322 4.9685 -0.0082
-0.3423 4.9217 -0.0088
-0.4646 4.8154 -0.0094
-0.5184 4.9314 -0.0098
-0.6146 4.8885 -0.0103
-0.9322 4.4452 -0.0118
-1.0046 4.4003 -0.0121
-1.0759 4.3352 -0.0125
-1.1528 4.1825 -0.0128
-1.2124 4.1320 -0.0131
-1.2633 4.1515 -0.0134
-1.3107 4.2226 -0.0137
-1.4606 4.3526 -0.0147
-0.8412 1.6153 0.0041
-0.8544 1.6225 0.0040
-0.8650 1.6303 0.0039
-0.8732 1.6389 0.0039
-0.8814 1.6476 0.0039
-0.8898 1.6564 0.0039
-0.8993 1.6648 0.0039
-0.9090 1.6732 0.0039
0.3187 2.5327 0.0464
-0.4728 2.1890 0.0231
-0.4200 2.2686 0.0258
-0.3904 2.3354 0.0277
0.6135 3.5501 0.0725
0.3449 3.8381 0.0725
0.2955 3.9057 0.0728
0.2598 3.9959 0.0739
0.1800 4.0222 0.0727
0.0763 4.0062 0.0702
0.0759 4.1641 0.0733
0.0890 4.3615 0.0775
0.0064 4.3873 0.0763
-0.0995 4.3599 0.0735
-0.1203 4.5159 0.0761
-0.1663 4.6254 0.0773
-0.2374 4.6778 0.0769
-0.3190 4.7003 0.0756
-0.4086 4.6934 0.0736
-0.5199 4.6036 0.0695
-0.5936 4.6253 0.0684
-0.6309 4.7871 0.0708
-1.0864 4.1955 0.0497
-1.1529 4.1092 0.0466
-1.2059 4.1117 0.0455
-1.2438 4.2921 0.0483
-1.5692 5.0467 0.0563
-1.6272 5.0360 0.0549
-0.8495 1.6155 0.0164
-0.8497 1.6262 0.0168
-0.8667 1.6321 0.0165
-0.8736 1.6411 0.0166
-0.8817 1.6498 0.0166
-0.8912 1.6581 0.0166
-0.8984 1.6673 0.0167
0.3560 2.5619 0.0974
-0.4389 2.1800 0.0536
-0.4413 2.2158 0.0550
-0.4146 2.2761 0.0583
-0.4007 2.3302 0.0610
0.5495 3.7142 0.1503
0.5019 3.7808 0.1512
0.4063 3.7897 0.1481
0.3282 3.8171 0.1464
0.2295 3.9503 0.1482
0.1792 4.0189 0.1491
0.0636 3.9821 0.1435
0.0758 4.1594 0.1511
0.0354 4.2548 0.1534
-0.1763 4.5868 0.1591
-0.3158 4.6897 0.1582
-0.4641 4.7636 0.1558
-0.5164 4.8757 0.1584
-0.6251 4.7761 0.1505
-0.7776 4.7888 0.1456
-0.9173 4.4327 0.1264
-1.0786 4.1922 0.1110
-1.1389 4.1579 0.1075
-1.1911 4.1767 0.1063
-1.2381 4.2495 0.1076
-1.4968 5.0189 0.1290
-1.5551 4.9805 0.1254
-1.6109 4.9442 0.1219
-0.8461 1.6188 0.0290
-0.8528 1.6277 0.0292
-0.8634 1.6355 0.0292
-0.8727 1.6437 0.0292
-0.8845 1.6511 0.0290
-0.8927 1.6598 0.0291
-0.9140 1.6754 0.0290
-0.9223 1.6842 0.0291
0.3643 2.5735 0.1474
-0.4451 2.1436 0.0807
-0.4476 2.1773 0.0826
-0.4459 2.2157 0.0850
-0.4551 2.2476 0.0864
0.6555 3.6024 0.2237
0.4823 3.7605 0.2244
0.3883 3.7691 0.2202
0.3117 3.7965 0.2179
0.2919 3.9010 0.2232
0.2708 4.0103 0.2287
0.1781 4.0153 0.2243
0.1544 4.1292 0.2299
0.0755 4.1543 0.2274
0.0231 4.2260 0.2291
-0.0966 4.3474 0.2303
-0.2161 4.2756 0.2199
-0.3080 4.2535 0.2140
-0.3700 4.2992 0.2136
-0.3890 4.4653 0.2226
-0.3813 4.7318 0.2389
-0.4756 4.9917 0.2497
-0.6282 5.0646 0.2463
-0.7207 5.0179 0.2389
-0.8460 4.7706 0.2177
-1.0576 4.2818 0.1778
-1.1247 4.2070 0.1699
-1.1793 4.2090 0.1673
-1.2186 4.3781 0.1754
-1.3008 4.9567 0.2059
-1.3630 4.9736 0.2037
-0.8585 1.6284 0.0412
-0.8740 1.6345 0.0407
-0.8744 1.6454 0.0415
-0.8874 1.6523 0.0412
-0.8955 1.6610 0.0414
-0.9048 1.6692 0.0414
-0.4867 2.1527 0.1071
-0.4641 2.2053 0.1128
0.7488 3.5908 0.3019
0.4631 3.7403 0.2952
0.4006 3.7864 0.2948
0.3381 3.8325 0.2944
0.3044 3.9186 0.2991
0.2409 3.9654 0.2987
0.1267 4.0803 0.3004
0.0504 4.1059 0.2974
0.0361 4.2443 0.3075
-0.0418 4.2684 0.3044
-0.1508 4.2237 0.2937
-0.2436 4.2030 0.2860
-0.3051 4.2483 0.2856
-0.3397 4.3631 0.2925
-0.3763 4.4832 0.2997
-0.4234 4.5832 0.3046
-0.4638 4.7141 0.3124
-0.5590 4.9668 0.3263
-0.9561 4.4849 0.2621
-1.1169 4.2029 0.2292
-1.1714 4.2045 0.2258
-1.2197 4.2601 0.2270
-1.2636 4.3923 0.2347
-1.3185 4.3715 0.2295
-0.8513 1.6221 0.0532
-0.8629 1.6294 0.0530
-0.8669 1.6390 0.0536
-0.8786 1.6463 0.0534
-0.8865 1.6548 0.0536
-0.8946 1.6634 0.0538
-0.9015 1.6726 0.0542
-0.7169 1.9399 0.0953
-0.4295 2.2347 0.1473
-0.3555 2.3329 0.1629
0.7433 3.5909 0.3746
0.5378 3.7116 0.3703
0.5234 3.8148 0.3793
0.3505 3.8498 0.3691
0.3169 3.9362 0.3749
0.2534 3.9831 0.3745
0.1765 4.0090 0.3710
0.0263 4.0594 0.3641
-0.0243 4.1263 0.3667
-0.0640 4.2172 0.3725
-0.1167 4.2869 0.3752
-0.2014 4.2877 0.3686
-0.2742 4.3105 0.3651
-0.3633 4.2878 0.3557
-0.3815 4.4514 0.3705
-0.4281 4.5488 0.3764
-0.4593 4.7045 0.3893
-0.8743 4.5267 0.3388
-0.9559 4.4353 0.3233
-1.1576 4.2543 0.2894
-1.2238 4.1182 0.2706
-1.2736 4.1201 0.2669
-1.3206 4.1547 0.2666
-1.3714 4.0782 0.2550
-0.8532 1.6239 0.0651
-0.8609 1.6322 0.0653
-0.8738 1.6390 0.0649
-0.8803 1.6479 0.0654
-0.8894 1.6560 0.0655
-0.8949 1.6654 0.0661
-0.9054 1.6732 0.0660
-0.7271 1.9358 0.1137
-0.3931 2.3065 0.1887
0.4877 3.7750 0.4445
0.4103 3.8024 0.4405
0.3628 3.8672 0.4437
0.3592 3.9954 0.4585
0.2519 3.9800 0.4467
0.1495 3.9651 0.4353
0.0880 4.0104 0.4349
0.1010 4.1858 0.4568
0.0240 4.2102 0.4525
-0.0515 4.2349 0.4484
-0.1369 4.2357 0.4405
-0.1994 4.2818 0.4401
-0.2519 4.3516 0.4434
-0.3333 4.3509 0.4357
-0.3779 4.4445 0.4426
-0.4408 4.4910 0.4422
-0.4960 4.5627 0.4455
-0.5595 4.6095 0.4451
-0.7132 4.9200 0.4674
-0.8761 4.4745 0.3996
-1.0970 4.2311 0.3502
-1.1476 4.2684 0.3498
-1.2129 4.1478 0.3295
-1.2556 4.2522 0.3378
-1.3046 4.2883 0.3375
-1.3637 4.0606 0.3051
-1.4094 4.0336 0.2976
-1.4908 3.6535 0.2451
-1.5267 3.6691 0.2436
-1.6389 3.8046 0.2491
-0.8615 1.6343 0.0773
-0.8731 1.6415 0.0770
-0.8859 1.6482 0.0766
-0.9002 1.6656 0.0774
-0.4310 2.2794 0.2119
-0.3314 2.4044 0.2397
0.6704 3.6368 0.5161
0.5920 3.6648 0.5115
0.5305 3.7101 0.5111
0.5162 3.8117 0.5235
0.4846 3.8975 0.5319
0.3126 3.9306 0.5179
0.2502 3.9767 0.5175
0.2286 4.0864 0.5302
0.1515 4.1120 0.5255
0.0492 4.2514 0.5336
-0.0506 4.2298 0.5199
-0.1135 4.2762 0.5195
-0.1660 4.3462 0.5234
-0.2591 4.3224 0.5102
-0.3211 4.3681 0.5098
-0.3654 4.4620 0.5179
-0.4284 4.5085 0.5175
-0.4914 4.5549 0.5171
-0.5689 4.5509 0.5082
-0.6608 4.7751 0.5290
-0.7000 4.9385 0.5472
-0.8776 4.4251 0.4578
-0.9413 4.4232 0.4507
-1.1517 4.1596 0.3920
-1.1918 4.2830 0.4046
-1.2180 4.6273 0.4489
-1.2692 4.7384 0.4586
-1.5646 3.9244 0.3154
-1.5980 3.8443 0.3009
-1.6325 3.8263 0.2947
-0.8647 1.6356 0.0887
-0.8775 1.6423 0.0882
-0.8864 1.6502 0.0884
-0.8916 1.6595 0.0892
-0.9006 1.6675 0.0893
-0.4498 2.2674 0.2373
0.6373 3.7176 0.5946
0.5748 3.7637 0.5942
0.5287 3.8292 0.5988
0.4197 3.8179 0.5838
0.3728 3.8826 0.5882
0.3250 3.9480 0.5926
0.2910 4.0360 0.6022
0.2412 4.1042 0.6067
0.1910 4.1741 0.6115
0.1005 4.1765 0.6009
-0.1123 4.2705 0.5898
-0.1849 4.2939 0.5846
-0.2271 4.3866 0.5939
-0.3360 4.3164 0.5698
-0.3530 4.4795 0.5931
-0.4629 4.6235 0.6022
-0.6321 4.5635 0.5724
-0.7107 4.5366 0.5587
-0.7483 4.6794 0.5763
-0.8751 4.3978 0.5172
-0.9522 4.3164 0.4952
-1.0629 3.9901 0.4310
-1.0915 4.1535 0.4529
-1.1361 4.2247 0.4586
-1.1854 4.2611 0.4583
-1.5930 3.9019 0.3530
-1.6258 3.8467 0.3405
-0.8578 1.6293 0.1000
-0.8680 1.6368 0.0999
-0.8742 1.6455 0.1006
-0.8869 1.6521 0.1000
-0.8945 1.6605 0.1005
-0.9072 1.6671 0.0999
-0.5344 2.1338 0.2313
0.7480 3.7258 0.6809
0.7763 3.8717 0.7101
0.6379 3.8387 0.6857
0.5090 3.8084 0.6630
0.4166 3.8158 0.6519
0.3556 3.8608 0.6515
0.2946 3.9058 0.6511
0.2892 4.0325 0.6724
0.2262 4.0790 0.6720
0.1244 4.0617 0.6553
0.0390 4.0654 0.6444
-0.0257 4.2648 0.6704
-0.0544 4.3824 0.6870
-0.1409 4.3814 0.6752
-0.1729 4.5029 0.6920
-0.2379 4.5509 0.6916
-0.2830 4.6531 0.7033
-0.3587 4.6744 0.6968
-0.4154 4.7507 0.7024
-0.8127 5.0437 0.6999
-1.0043 4.3111 0.5467
-1.1540 4.4877 0.5572
-1.1981 4.6346 0.5768
-1.2484 4.7462 0.5894
-1.3057 4.7636 0.5848
-1.5974 4.1544 0.4395
-0.4506 1.2736 0.1124
-0.4430 1.2599 0.1158
-0.4155 1.2302 0.1251
-0.3630 1.1955 0.1398
-0.3465 1.1769 0.1455
-0.3359 1.1579 0.1502
-0.3082 1.1359 0.1585
-0.2891 1.1135 0.1653
-0.2473 1.0642 0.1801
-0.2153 1.0350 0.1902
-0.1788 1.0029 0.2016
-0.0768 0.9236 0.2317
0.0118 0.8355 0.2607
0.2212 0.6900 0.3201
1.6624 -0.2706 0.7222
0.1619 -1.2163 0.5936
0.0463 -1.1369 0.5610
-0.0963 -0.9938 0.5140
-0.2588 -0.7922 0.4548
-0.2675 -0.8801 0.4663
-0.5277 -0.6141 0.3799
-0.5803 -0.5831 0.3659
-0.7035 -0.4472 0.3235
-0.7566 -0.3872 0.3050
-0.7916 -0.3733 0.2966
-0.8315 -0.3381 0.2842
-0.8731 -0.2887 0.2694
-0.9042 -0.2695 0.2609
-0.9349 -0.2460 0.2519
-0.9650 -0.2181 0.2423
-0.4115 1.2326 0.1085
-0.3989 1.2165 0.1127
-0.3908 1.1998 0.1163
-0.3497 1.1798 0.1256
-0.3252 1.1594 0.1323
-0.2643 1.1127 0.1484
-0.2649 1.0916 0.1512
-0.2454 1.0664 0.1577
-0.2090 1.0363 0.1677
-0.1494 0.9989 0.1823
-0.1312 0.9682 0.1894
-0.0833 0.9279 0.2026
-0.0086 0.8445 0.2259
0.0360 0.7960 0.2396
0.1698 0.7115 0.2726
2.1668 -0.3152 0.7332
1.6178 -0.1546 0.6230
1.4755 -0.1720 0.6024
1.0368 -0.9414 0.6359
1.6146 -2.6133 0.9552
0.8312 -1.7182 0.7079
0.4452 -1.5674 0.6254
0.1789 -1.2600 0.5409
0.0326 -1.1278 0.4994
-0.1089 -0.9855 0.4574
-0.2166 -0.8896 0.4271
-0.2671 -0.8970 0.4199
-0.6050 -0.5373 0.3168
-0.7117 -0.4418 0.2867
-0.8028 -0.3566 0.2605
-0.8438 -0.3162 0.2485
-0.9109 -0.2650 0.2307
-0.9427 -0.2361 0.2217
-0.9671 -0.2322 0.2172
-0.4580 1.2786 0.0790
-0.4424 1.2650 0.0829
-0.4235 1.2355 0.0892
-0.3885 1.2022 0.0982
-0.3593 1.1832 0.1047
-0.3514 1.1646 0.1080
-0.3165 1.1421 0.1157
-0.2694 1.1161 0.1256
-0.2652 1.0943 0.1288
-0.2363 1.0674 0.1362
-0.1519 1.0021 0.1561
-0.1408 0.9731 0.1612
-0.0705 0.9271 0.1768
-0.0519 0.8918 0.1837
-0.0157 0.8492 0.1941
0.0535 0.7925 0.2108
0.1860 0.7080 0.2399
1.5522 -0.0339 0.5242
1.3945 -0.0440 0.5030
1.5047 -0.1844 0.5357
1.3589 -2.2904 0.7706
0.8320 -1.7335 0.6281
0.3727 -1.4664 0.5304
0.1744 -1.2675 0.4780
0.0738 -1.2168 0.4576
-0.1283 -0.9643 0.3982
-0.2223 -0.8937 0.3763
-0.2845 -0.8771 0.3654
-0.4028 -0.7311 0.3309
-0.5704 -0.5438 0.2843
-0.6140 -0.5313 0.2766
-0.6770 -0.4608 0.2591
-0.7268 -0.4164 0.2466
-0.8243 -0.3065 0.2194
-0.8555 -0.2957 0.2136
-0.9201 -0.2510 0.1990
-0.9535 -0.2139 0.1898
-0.9776 -0.2098 0.1859
-0.4631 1.2810 0.0622
-0.4367 1.2676 0.0669
-0.4272 1.2531 0.0696
-0.4129 1.2378 0.0730
-0.4059 1.2220 0.0756
-0.3786 1.2043 0.0809
-0.3408 1.1662 0.0896
-0.3213 1.1453 0.0942
-0.2679 1.0974 0.1059
-0.2500 1.0724 0.1108
-0.1903 1.0131 0.1245
-0.0962 0.9365 0.1443
-0.0387 0.8906 0.1563
0.0045 0.8453 0.1665
0.0362 0.8008 0.1752
0.1299 0.7310 0.1942
1.3192 0.0744 0.4110
1.3156 -0.0032 0.4189
1.9246 -0.5007 0.5472
2.1393 -0.7326 0.5985
2.2286 -0.9066 0.6281
2.1269 -0.9679 0.6222
2.0641 -1.0529 0.6236
2.0014 -1.1379 0.6250
1.9033 -1.1960 0.6192
1.9112 -1.3365 0.6352
1.9197 -1.4834 0.6520
1.9666 -1.6713 0.6779
1.5995 -2.6273 0.7353
0.9165 -1.8661 0.5696
0.4400 -1.5917 0.4815
0.2611 -1.4315 0.4423
0.0503 -1.1907 0.3906
-0.5729 -0.5541 0.2456
-0.7280 -0.4310 0.2133
-0.8158 -0.3531 0.1941
-0.8547 -0.3184 0.1856
-0.8953 -0.2696 0.1754
-0.9576 -0.2193 0.1623
-0.9857 -0.1972 0.1565
-0.4691 1.2967 0.0441
-0.4486 1.2701 0.0487
-0.4223 1.2406 0.0542
-0.4087 1.2247 0.0571
-0.3842 1.2072 0.0612
-0.3479 1.1695 0.0685
-0.3186 1.1476 0.0736
-0.3015 1.1257 0.0774
-0.2779 1.1015 0.0821
-0.2364 1.0727 0.0891
-0.2081 1.0441 0.0947
-0.1730 1.0120 0.1013
-0.1462 0.9796 0.1071
-0.0758 0.9338 0.1186
-0.0533 0.8973 0.1244
-0.0168 0.8545 0.1321
0.0480 0.7993 0.1440
0.1333 0.7322 0.1591
1.4519 0.0994 0.3546
1.3648 0.0574 0.3495
1.3205 -0.0026 0.3505
1.3373 -0.0937 0.3607
1.7546 -0.4060 0.4330
2.1173 -0.7180 0.4996
2.1670 -0.8678 0.5187
1.9958 -0.8826 0.5023
1.9004 -0.9412 0.4979
1.8742 -1.0473 0.5050
1.7801 -1.1041 0.5005
1.7526 -1.2119 0.5077
1.5696 -1.1903 0.4867
1.5402 -1.2952 0.4934
1.3970 -1.2955 0.4786
1.4368 -2.4266 0.5879
0.7548 -1.6534 0.4453
-0.5821 -0.5480 0.2039
-0.6350 -0.5111 0.1950
-0.7336 -0.4330 0.1775
-0.8217 -0.3533 0.1610
-0.8638 -0.3071 0.1523
-0.9007 -0.2703 0.1451
-0.9334 -0.2422 0.1391
-0.9599 -0.2328 0.1354
-0.9947 -0.1805 0.1270
-0.4538 1.2726 0.0314
-0.4378 1.2584 0.0339
-0.4329 1.2434 0.0354
-0.4128 1.2274 0.0384
-0.3987 1.2106 0.0409
-0.3726 1.1920 0.0445
-0.3588 1.1731 0.0472
-0.3259 1.1511 0.0517
-0.2870 1.1265 0.0569
-0.2806 1.1046 0.0591
-0.2501 1.0777 0.0638
-0.2161 1.0483 0.0690
-0.1766 1.0154 0.0749
-0.0902 0.9402 0.0880
-0.0602 0.9019 0.0936
0.0225 0.8449 0.1050
0.0968 0.7479 0.1189
1.3718 0.1369 0.2740
1.3278 0.0774 0.2749
1.2839 0.0179 0.2759
1.3634 -0.1045 0.2922
1.3173 -0.1668 0.2932
1.5739 -0.4034 0.3333
1.8983 -0.7025 0.3841
