ply
format ascii 1.0
element vertex 2079
property float x
property float y
property float z
end_header
-0.8687 -0.3594 -0.3273
-0.9944 -0.2526 -0.3093
-1.0626 -0.1664 -0.2939
-1.1191 -0.1076 -0.2837
-1.1766 -0.0309 -0.2700
-1.2203 -0.0014 -0.2652
-1.2587 0.0061 -0.2647
-1.3005 0.0384 -0.2594
-1.4174 0.1613 -0.2380
-1.5149 0.2711 -0.2187
-1.5446 0.2859 -0.2165
-1.6000 0.3309 -0.2090
-1.6263 0.3504 -0.2058
-1.6500 0.3795 -0.2006
-1.6737 0.4008 -0.1970
-1.7169 0.4460 -0.1892
-1.7384 0.4622 -0.1865
-1.7562 0.4880 -0.1818
-1.7764 0.5021 -0.1796
-1.7999 0.5056 -0.1794
-1.8174 0.5235 -0.1763
-1.8311 0.5481 -0.1718
-1.8532 0.5515 -0.1717
-1.8821 0.5869 -0.1654
-1.8993 0.5969 -0.1639
-1.9166 0.6059 -0.1625
-1.9299 0.6206 -0.1600
-1.9480 0.6267 -0.1592
-1.9772 0.6473 -0.1558
-1.9775 0.6759 -0.1502
-1.9913 0.6847 -0.1488
-2.0099 0.6869 -0.1488
-2.0215 0.6975 -0.1470
-2.0357 0.7044 -0.1460
-2.0446 0.7168 -0.1438
-2.0554 0.7264 -0.1422
-2.0683 0.7331 -0.1411
-2.0727 0.7482 -0.1383
-2.0809 0.7586 -0.1364
-2.0954 0.7625 -0.1360
-2.1018 0.7737 -0.1340
-2.1147 0.7785 -0.1333
-0.6995 -0.5277 -0.4092
-0.8675 -0.3484 -0.3730
-0.9932 -0.2423 -0.3523
-1.0516 -0.1905 -0.3421
-1.1083 -0.1349 -0.3310
-1.1639 -0.0716 -0.3182
-1.2082 -0.0461 -0.3136
-1.2501 -0.0277 -0.3105
-1.2989 0.0430 -0.2958
-1.3429 0.1055 -0.2828
-1.3810 0.1423 -0.2755
-1.4165 0.1691 -0.2703
-1.4506 0.1948 -0.2654
-1.5145 0.2616 -0.2519
-1.5440 0.2871 -0.2470
-1.5727 0.3075 -0.2431
-1.6259 0.3541 -0.2339
-1.6523 0.3676 -0.2316
-1.6744 0.3994 -0.2250
-1.6966 0.4233 -0.2201
-1.7405 0.4585 -0.2133
-1.7630 0.4698 -0.2114
-1.7853 0.4801 -0.2096
-1.8013 0.5056 -0.2043
-1.8379 0.5364 -0.1983
-1.8500 0.5626 -0.1926
-1.8689 0.5716 -0.1911
-1.8860 0.5835 -0.1888
-1.9019 0.5963 -0.1864
-1.9188 0.6063 -0.1846
-1.9323 0.6208 -0.1816
-1.9547 0.6204 -0.1823
-1.9683 0.6330 -0.1798
-1.9746 0.6549 -0.1750
-1.9867 0.6675 -0.1725
-1.9980 0.6799 -0.1700
-2.0116 0.6887 -0.1683
-2.0360 0.7079 -0.1646
-2.0391 0.7267 -0.1605
-2.0523 0.7334 -0.1593
-2.0705 0.7346 -0.1595
-2.0759 0.7487 -0.1565
-2.0899 0.7535 -0.1557
-2.0950 0.7666 -0.1529
-2.1043 0.7750 -0.1512
-0.0644 -0.9772 -0.5600
-0.1727 -0.8981 -0.5428
-0.2586 -0.8516 -0.5333
-0.3116 -0.8616 -0.5374
-0.9454 -0.2418 -0.3966
-1.0013 -0.2031 -0.3883
-1.0447 -0.2002 -0.3888
-1.1022 -0.1440 -0.3760
-1.1544 -0.0978 -0.3656
-1.2037 -0.0537 -0.3557
-1.2510 -0.0079 -0.3453
-1.2992 0.0604 -0.3292
-1.3419 0.1137 -0.3167
-1.3781 0.1297 -0.3137
-1.4143 0.1574 -0.3076
-1.4495 0.1956 -0.2988
-1.4826 0.2347 -0.2897
-1.5434 0.2902 -0.2772
-1.5721 0.3116 -0.2726
-1.5987 0.3415 -0.2657
-1.6263 0.3521 -0.2637
-1.6512 0.3761 -0.2583
-1.6743 0.4028 -0.2521
-1.6959 0.4295 -0.2459
-1.7196 0.4418 -0.2434
-1.7611 0.4795 -0.2349
-1.7846 0.4859 -0.2340
-1.8025 0.5065 -0.2292
-1.8207 0.5233 -0.2254
-1.8398 0.5362 -0.2226
-1.8529 0.5604 -0.2168
-1.8721 0.5694 -0.2150
-1.8864 0.5869 -0.2110
-1.9065 0.5921 -0.2102
-1.9248 0.6001 -0.2087
-1.9346 0.6212 -0.2036
-1.9553 0.6235 -0.2036
-1.9714 0.6634 -0.1938
-1.9833 0.6759 -0.1909
-2.0032 0.6772 -0.1912
-2.0164 0.6868 -0.1891
-2.0282 0.6973 -0.1867
-2.0379 0.7096 -0.1838
-2.0544 0.7136 -0.1833
-2.0535 0.7359 -0.1775
-2.0700 0.7389 -0.1772
-2.0800 0.7483 -0.1751
-2.0866 0.7604 -0.1722
-2.1033 0.7625 -0.1721
-2.1118 0.7718 -0.1700
-0.1096 -0.7961 -0.5761
-0.1770 -0.7791 -0.5733
-0.2436 -0.7621 -0.5705
-0.3021 -0.7582 -0.5711
-0.3606 -0.7543 -0.5718
-0.4319 -0.7254 -0.5657
-0.5360 -0.6269 -0.5407
-1.1618 -0.0530 -0.3953
-1.2094 -0.0122 -0.3851
-1.2539 0.0226 -0.3765
-1.2975 0.0641 -0.3660
-1.3371 0.0908 -0.3595
-1.4128 0.1566 -0.3430
-1.4486 0.2033 -0.3307
-1.4815 0.2200 -0.3269
-1.5134 0.2404 -0.3220
-1.5434 0.2810 -0.3113
-1.5728 0.2993 -0.3070
-1.5980 0.3483 -0.2937
-1.6240 0.3702 -0.2882
-1.6464 0.4074 -0.2782
-1.6721 0.4168 -0.2763
-1.6979 0.4234 -0.2752
-1.7410 0.4639 -0.2650
-1.7616 0.4816 -0.2605
-1.8039 0.5066 -0.2546
-1.8416 0.5361 -0.2473
-1.8531 0.5639 -0.2397
-1.8677 0.5822 -0.2349
-1.9215 0.6099 -0.2286
-1.9392 0.6178 -0.2269
-1.9596 0.6211 -0.2266
-1.9666 0.6438 -0.2203
-1.9775 0.6590 -0.2163
-1.9890 0.6723 -0.2128
-2.0027 0.6818 -0.2105
-2.0136 0.6941 -0.2073
-2.0358 0.7159 -0.2018
-2.0564 0.7153 -0.2026
-2.0694 0.7229 -0.2008
-2.0731 0.7396 -0.1961
-2.0841 0.7480 -0.1940
-2.0937 0.7573 -0.1917
-2.1047 0.7648 -0.1899
-2.1064 0.7803 -0.1854
-0.2604 -0.5499 -0.5651
-0.3263 -0.5254 -0.5594
-0.3784 -0.5220 -0.5600
-0.4305 -0.5185 -0.5606
-0.4880 -0.5051 -0.5583
-0.5548 -0.4728 -0.5502
-0.6107 -0.4595 -0.5478
-0.6702 -0.4374 -0.5428
-0.7321 -0.4074 -0.5353
-0.7888 -0.3864 -0.5305
-1.2905 0.0339 -0.4136
-1.3312 0.0606 -0.4065
-1.3732 0.1151 -0.3905
-1.4101 0.1396 -0.3840
-1.4463 0.1755 -0.3738
-1.4805 0.2161 -0.3620
-1.5128 0.2335 -0.3575
-1.5434 0.2710 -0.3466
-1.5714 0.3131 -0.3342
-1.5994 0.3341 -0.3285
-1.6252 0.3626 -0.3203
-1.6505 0.3844 -0.3142
-1.6739 0.4099 -0.3068
-1.6966 0.4325 -0.3004
-1.7411 0.4671 -0.2909
-1.7624 0.4829 -0.2866
-1.7839 0.4958 -0.2832
-1.8050 0.5077 -0.2801
-1.8206 0.5317 -0.2730
-1.8377 0.5492 -0.2680
-1.8595 0.5544 -0.2671
-1.8708 0.5801 -0.2593
-1.8886 0.5908 -0.2565
-1.9187 0.6187 -0.2486
-1.9358 0.6275 -0.2464
-1.9666 0.6478 -0.2410
-1.9783 0.6619 -0.2369
-1.9926 0.6715 -0.2343
-2.0021 0.6865 -0.2299
-2.0303 0.7027 -0.2256
-2.0409 0.7140 -0.2224
-2.0525 0.7234 -0.2198
-2.0620 0.7345 -0.2166
-2.0717 0.7448 -0.2137
-2.0845 0.7514 -0.2120
-2.0866 0.7678 -0.2068
-2.1062 0.7672 -0.2077
-2.1099 0.7808 -0.2035
-2.1241 0.7846 -0.2027
-0.3648 -0.3774 -0.5643
-0.4237 -0.3573 -0.5594
-0.4714 -0.3542 -0.5599
-0.5093 -0.3678 -0.5660
-0.5477 -0.3823 -0.5724
-0.6010 -0.3702 -0.5700
-0.6539 -0.3581 -0.5677
-0.6979 -0.3637 -0.5711
-0.7424 -0.3693 -0.5746
-0.7948 -0.3573 -0.5723
-0.8590 -0.3130 -0.5591
-0.9178 -0.2777 -0.5489
-1.4457 0.1910 -0.4040
-1.4794 0.2085 -0.3991
-1.5122 0.2297 -0.3929
-1.5721 0.3012 -0.3700
-1.5996 0.3316 -0.3604
-1.6256 0.3609 -0.3511
-1.6507 0.3854 -0.3435
-1.6769 0.3976 -0.3401
-1.7005 0.4182 -0.3338
-1.7245 0.4331 -0.3294
-1.7647 0.4795 -0.3147
-1.7855 0.4951 -0.3099
-1.8051 0.5117 -0.3049
-1.8215 0.5337 -0.2978
-1.8395 0.5491 -0.2930
-1.8580 0.5618 -0.2893
-1.8749 0.5762 -0.2848
-1.8930 0.5869 -0.2817
-1.9047 0.6077 -0.2749
-1.9165 0.6265 -0.2687
-1.9398 0.6252 -0.2700
-1.9651 0.6212 -0.2723
-1.9711 0.6454 -0.2641
-1.9777 0.6668 -0.2569
-1.9942 0.6736 -0.2551
-1.9995 0.6939 -0.2482
-2.0222 0.6916 -0.2498
-2.0259 0.7118 -0.2429
-2.0380 0.7212 -0.2400
-2.0537 0.7260 -0.2389
-2.0641 0.7362 -0.2357
-2.0756 0.7446 -0.2332
-2.0877 0.7521 -0.2310
-2.1086 0.7687 -0.2259
-2.1154 0.7796 -0.2224
-2.1278 0.7852 -0.2209
-0.4616 -0.2189 -0.5590
-0.5194 -0.1943 -0.5517
-0.5664 -0.1855 -0.5501
-0.6096 -0.1826 -0.5506
-0.6567 -0.1728 -0.5487
-0.6930 -0.1827 -0.5538
-0.7324 -0.1876 -0.5571
-0.7728 -0.1915 -0.5601
-0.8105 -0.2022 -0.5655
-0.8519 -0.2061 -0.5685
-0.9042 -0.1827 -0.5616
-0.9532 -0.1653 -0.5568
-1.0008 -0.1498 -0.5527
-1.0459 -0.1402 -0.5507
-1.0977 -0.1047 -0.5391
-1.5422 0.2753 -0.4113
-1.5708 0.3140 -0.3976
-1.5991 0.3357 -0.3904
-1.6268 0.3527 -0.3850
-1.6765 0.4023 -0.3680
-1.6979 0.4330 -0.3572
-1.7237 0.4394 -0.3557
-1.7437 0.4653 -0.3466
-1.7670 0.4763 -0.3433
-1.7842 0.5029 -0.3338
-1.8019 0.5239 -0.3265
-1.8250 0.5292 -0.3253
-1.8421 0.5474 -0.3190
-1.8521 0.5783 -0.3077
-1.8780 0.5743 -0.3101
-1.8904 0.5959 -0.3024
-1.9375 0.6331 -0.2900
-1.9645 0.6264 -0.2936
-1.9779 0.6707 -0.2772
-1.9936 0.6783 -0.2749
-2.0018 0.6949 -0.2689
-2.0315 0.7092 -0.2646
-2.0431 0.7194 -0.2612
-2.0548 0.7287 -0.2581
-2.0661 0.7379 -0.2550
-2.0796 0.7445 -0.2530
-2.0881 0.7555 -0.2491
-2.0941 0.7681 -0.2445
-2.1072 0.7737 -0.2429
-2.1150 0.7837 -0.2394
-0.5144 -0.1281 -0.5708
-0.5561 -0.1253 -0.5713
-0.6014 -0.1167 -0.5695
-0.6361 -0.1256 -0.5745
-0.6779 -0.1228 -0.5750
-0.7297 -0.1015 -0.5683
-0.7710 -0.0988 -0.5688
-0.8063 -0.1086 -0.5742
-0.8480 -0.1058 -0.5747
-0.8897 -0.1030 -0.5752
-0.9314 -0.1003 -0.5756
-0.9731 -0.0975 -0.5761
-1.0167 -0.0889 -0.5743
-1.0582 -0.0861 -0.5748
-1.0998 -0.0834 -0.5753
-1.1489 -0.0501 -0.5635
-1.6302 0.3289 -0.4263
-1.6524 0.3791 -0.4065
-1.6757 0.4088 -0.3952
-1.7007 0.4236 -0.3901
-1.7242 0.4411 -0.3838
-1.7654 0.4851 -0.3673
-1.7828 0.5107 -0.3575
-1.8069 0.5151 -0.3566
-1.8576 0.5710 -0.3356
-1.8898 0.6012 -0.3244
-1.9077 0.6109 -0.3212
-1.9473 0.6219 -0.3181
-1.9657 0.6288 -0.3160
-1.9649 0.6625 -0.3022
-1.9819 0.6693 -0.3000
-1.9972 0.6778 -0.2971
-2.0098 0.6889 -0.2930
-2.0234 0.6983 -0.2897
-2.0333 0.7111 -0.2848
-2.0656 0.7423 -0.2732
-2.0817 0.7462 -0.2723
-2.0894 0.7580 -0.2677
-2.1012 0.7653 -0.2652
-2.1144 0.7709 -0.2634
-2.1245 0.7791 -0.2604
-0.5918 -0.0023 -0.5632
-0.6403 0.0158 -0.5571
-0.6782 0.0183 -0.5576
-0.7161 0.0209 -0.5580
-0.7567 0.0282 -0.5564
-0.7945 0.0308 -0.5568
-0.8323 0.0333 -0.5573
-0.8700 0.0358 -0.5577
-0.9035 0.0287 -0.5622
-0.9480 0.0466 -0.5561
-0.9875 0.0539 -0.5545
-1.0232 0.0516 -0.5570
-1.0608 0.0542 -0.5575
-1.0966 0.0510 -0.5603
-1.1344 0.0535 -0.5608
-1.1722 0.0560 -0.5612
-1.2123 0.0689 -0.5571
-1.2497 0.0714 -0.5576
-1.2847 0.0589 -0.5646
-1.7216 0.4548 -0.4069
-1.7471 0.4612 -0.4051
-1.7676 0.4821 -0.3967
-1.7889 0.4975 -0.3907
-1.8031 0.5291 -0.3773
-1.8286 0.5290 -0.3784
-1.8420 0.5559 -0.3670
-1.8813 0.5762 -0.3596
-1.9009 0.5850 -0.3565
-1.9118 0.6080 -0.3467
-1.9262 0.6230 -0.3407
-1.9467 0.6271 -0.3397
-1.9621 0.6384 -0.3353
-1.9751 0.6523 -0.3297
-1.9919 0.6599 -0.3270
-2.0028 0.6746 -0.3209
-2.0107 0.6919 -0.3136
-2.0221 0.7038 -0.3088
-2.0351 0.7131 -0.3052
-2.0571 0.7341 -0.2968
-2.0711 0.7406 -0.2944
-2.0803 0.7515 -0.2900
-2.0926 0.7588 -0.2873
-2.1016 0.7687 -0.2832
-2.1140 0.7751 -0.2809
-2.1230 0.7841 -0.2773
-0.6350 0.0716 -0.5715
-0.6715 0.0740 -0.5720
-0.7110 0.0813 -0.5702
-0.7473 0.0837 -0.5706
-0.7837 0.0861 -0.5711
-0.8200 0.0885 -0.5715
-0.8564 0.0910 -0.5719
-0.8950 0.0982 -0.5701
-0.9334 0.1054 -0.5684
-1.0451 0.1221 -0.5653
-1.3365 0.1794 -0.5506
-1.4073 0.2045 -0.5417
-1.4426 0.2336 -0.5294
-1.7477 0.4629 -0.4334
-1.7882 0.5035 -0.4158
-1.8122 0.5097 -0.4138
-1.8272 0.5366 -0.4017
-1.8503 0.5418 -0.4002
-1.8624 0.5694 -0.3876
-1.8844 0.5746 -0.3861
-1.8993 0.5922 -0.3783
-1.9132 0.6098 -0.3705
-1.9316 0.6184 -0.3672
-1.9530 0.6217 -0.3666
-1.9646 0.6391 -0.3588
-1.9764 0.6547 -0.3519
-1.9913 0.6649 -0.3477
-2.0202 0.6844 -0.3396
-2.0484 0.7020 -0.3325
-2.0495 0.7243 -0.3219
-2.0657 0.7290 -0.3203
-2.0766 0.7390 -0.3160
-2.0816 0.7541 -0.3091
-2.0903 0.7649 -0.3043
-2.1068 0.7678 -0.3036
-2.1164 0.7768 -0.2998
-2.1215 0.7891 -0.2941
-0.6700 0.1788 -0.5584
-0.7061 0.1849 -0.5569
-0.7345 0.1795 -0.5610
-0.7657 0.1779 -0.5632
-0.7966 0.1754 -0.5659
-0.8332 0.1824 -0.5640
-0.8691 0.1885 -0.5625
-0.9047 0.1945 -0.5611
-0.9382 0.1968 -0.5615
-0.9735 0.2028 -0.5600
-1.0069 0.2050 -0.5604
-1.0388 0.2035 -0.5626
-1.0709 0.2020 -0.5649
-1.1058 0.2080 -0.5634
-1.1406 0.2140 -0.5619
-1.1729 0.2125 -0.5642
-1.2074 0.2184 -0.5627
-1.2425 0.2281 -0.5594
-1.2757 0.2303 -0.5598
-1.3089 0.2326 -0.5602
-1.3421 0.2348 -0.5605
-1.3753 0.2370 -0.5609
-1.4085 0.2392 -0.5613
-1.4419 0.2451 -0.5598
-1.4750 0.2519 -0.5579
-1.5079 0.2578 -0.5564
-1.5398 0.2810 -0.5460
-1.6823 0.3841 -0.4999
-1.7830 0.5221 -0.4342
-1.8049 0.5327 -0.4298
-1.8299 0.5344 -0.4301
-1.8533 0.5396 -0.4285
-1.8674 0.5635 -0.4169
-1.8875 0.5731 -0.4130
-1.9016 0.5924 -0.4038
-1.9147 0.6116 -0.3946
-1.9364 0.6149 -0.3939
-1.9581 0.6182 -0.3932
-1.9652 0.6425 -0.3811
-1.9740 0.6624 -0.3714
-1.9894 0.6716 -0.3674
-2.0085 0.6757 -0.3662
-2.0182 0.6910 -0.3588
-2.0210 0.7132 -0.3476
-2.0340 0.7223 -0.3436
-2.0537 0.7237 -0.3438
-2.0652 0.7336 -0.3392
-2.0812 0.7383 -0.3376
-2.0881 0.7516 -0.3311
-2.0961 0.7632 -0.3256
-2.1025 0.7755 -0.3196
-2.1159 0.7810 -0.3174
-2.1171 0.7967 -0.3094
-2.1357 0.7970 -0.3101
-0.6911 0.2173 -0.5754
-0.7238 0.2195 -0.5758
-0.7589 0.2255 -0.5742
-0.7915 0.2277 -0.5746
-0.8240 0.2299 -0.5750
-0.8565 0.2320 -0.5754
-0.8890 0.2342 -0.5758
-0.9215 0.2364 -0.5761
-0.9559 0.2423 -0.5745
-0.9866 0.2407 -0.5769
-1.0191 0.2429 -0.5773
-1.0516 0.2451 -0.5776
-1.0855 0.2510 -0.5760
-1.1193 0.2569 -0.5745
-1.2467 0.2581 -0.5799
-1.4099 0.2763 -0.5778
-1.5674 0.3406 -0.5504
-1.5981 0.3426 -0.5508
-1.6266 0.3600 -0.5427
-1.6561 0.3656 -0.5411
-1.6844 0.3766 -0.5364
-1.9030 0.5944 -0.4286
-1.9182 0.6100 -0.4208
-1.9369 0.6185 -0.4171
-1.9540 0.6287 -0.4123
-1.9754 0.6320 -0.4116
-1.9822 0.6552 -0.3993
-1.9915 0.6731 -0.3900
-2.0114 0.6763 -0.3892
-2.0301 0.7067 -0.3736
-2.0580 0.7231 -0.3660
-2.0696 0.7330 -0.3612
-2.0885 0.7552 -0.3500
-2.0938 0.7692 -0.3426
-2.1086 0.7739 -0.3408
-2.1231 0.7785 -0.3390
-2.1206 0.7974 -0.3286
-2.1311 0.8045 -0.3253
-0.7372 0.2896 -0.5722
-0.7726 0.2983 -0.5690
-0.8114 0.3127 -0.5627
-0.8458 0.3213 -0.5594
-0.8757 0.3233 -0.5597
-0.9041 0.3225 -0.5616
-0.9341 0.3245 -0.5620
-0.9622 0.3227 -0.5644
-0.9970 0.3341 -0.5596
-1.0256 0.3333 -0.5615
-1.0543 0.3325 -0.5634
-1.0867 0.3401 -0.5606
-1.1165 0.3421 -0.5610
-1.1454 0.3413 -0.5629
-1.1754 0.3433 -0.5632
-1.2054 0.3453 -0.5636
-1.2361 0.3501 -0.5623
-1.2660 0.3521 -0.5627
-1.2953 0.3513 -0.5646
-1.3252 0.3533 -0.5649
-1.3556 0.3581 -0.5637
-1.3859 0.3637 -0.5620
-1.4163 0.3739 -0.5576
-1.4456 0.3704 -0.5611
-1.4752 0.3697 -0.5630
-1.5050 0.3717 -0.5634
-1.5347 0.3737 -0.5637
-1.5645 0.3757 -0.5641
-1.5940 0.3803 -0.5628
-1.6237 0.3823 -0.5632
-1.6519 0.3933 -0.5583
-1.7558 0.4472 -0.5323
-1.9197 0.6119 -0.4454
-1.9396 0.6186 -0.4425
-1.9637 0.6184 -0.4438
-1.9820 0.6269 -0.4399
-1.9904 0.6483 -0.4279
-1.9942 0.6738 -0.4133
-2.0067 0.6864 -0.4067
-2.0228 0.6938 -0.4032
-2.0392 0.7004 -0.4003
-2.0445 0.7188 -0.3899
-2.0583 0.7269 -0.3859
-2.0666 0.7402 -0.3787
-2.1006 0.7668 -0.3649
-2.1128 0.7740 -0.3614
-2.1265 0.7794 -0.3590
-2.1310 0.7924 -0.3517
-2.1388 0.8019 -0.3466
-0.7395 0.3392 -0.5764
-0.7710 0.3440 -0.5751
-0.8003 0.3460 -0.5754
-0.8315 0.3508 -0.5741
-0.8608 0.3527 -0.5745
-0.8883 0.3519 -0.5764
-0.9159 0.3510 -0.5784
-0.9516 0.3642 -0.5722
-0.9842 0.3726 -0.5688
-1.0388 0.3700 -0.5732
-1.0667 0.3692 -0.5752
-1.0924 0.3628 -0.5805
-1.1228 0.3675 -0.5792
-1.1561 0.3805 -0.5729
-1.1851 0.3825 -0.5733
-1.5036 0.4343 -0.5583
-1.5316 0.4362 -0.5586
-1.7226 0.4687 -0.5487
-1.7485 0.4758 -0.5457
-1.7673 0.5031 -0.5300
-1.9149 0.6242 -0.4635
-1.9379 0.6258 -0.4638
-1.9620 0.6256 -0.4652
-1.9862 0.6254 -0.4666
-2.0349 0.7094 -0.4176
-2.0649 0.7240 -0.4103
-2.0685 0.7422 -0.3993
-2.1064 0.7654 -0.3871
-2.1123 0.7783 -0.3795
-2.1221 0.7871 -0.3747
-0.7647 0.4138 -0.5626
-0.7884 0.4109 -0.5658
-0.8117 0.4071 -0.5695
-0.8447 0.4165 -0.5653
-0.8740 0.4211 -0.5639
-0.9032 0.4257 -0.5625
-0.9321 0.4303 -0.5611
-0.9576 0.4294 -0.5631
-0.9865 0.4340 -0.5617
-1.0161 0.4404 -0.5592
-1.0394 0.4348 -0.5641
-1.0679 0.4394 -0.5627
-1.0926 0.4357 -0.5664
-1.1188 0.4348 -0.5684
-1.1462 0.4366 -0.5688
-1.1746 0.4412 -0.5674
-1.2020 0.4430 -0.5677
-1.2309 0.4503 -0.5645
-1.2573 0.4494 -0.5666
-1.2846 0.4512 -0.5669
-1.3124 0.4558 -0.5655
-1.3400 0.4603 -0.5641
-1.3667 0.4594 -0.5661
-1.3936 0.4585 -0.5682
-1.4208 0.4603 -0.5685
-1.4482 0.4648 -0.5671
-1.4755 0.4711 -0.5645
-1.5024 0.4783 -0.5613
-1.5294 0.4774 -0.5634
-1.5565 0.4765 -0.5654
-1.5840 0.4739 -0.5686
-1.6106 0.4801 -0.5661
-1.6371 0.4846 -0.5646
-1.6650 0.4820 -0.5678
-1.6916 0.4856 -0.5670
-1.7191 0.4856 -0.5685
-1.7462 0.4874 -0.5688
-1.7666 0.5093 -0.5557
-1.7864 0.5293 -0.5438
-1.8063 0.5458 -0.5343
-1.8283 0.5553 -0.5293
-1.8506 0.5630 -0.5255
-1.8717 0.5724 -0.5206
-1.9163 0.6262 -0.4882
-1.9372 0.6312 -0.4862
-1.9602 0.6327 -0.4864
-1.9819 0.6359 -0.4855
-1.9998 0.6442 -0.4811
-2.0423 0.6792 -0.4608
-2.0477 0.6991 -0.4482
-2.0691 0.7237 -0.4334
-2.0795 0.7351 -0.4266
-2.0859 0.7498 -0.4175
-2.0922 0.7636 -0.4089
-2.1041 0.7715 -0.4044
-2.1146 0.7802 -0.3993
-2.1265 0.7872 -0.3954
-0.8165 0.4547 -0.5687
-0.8429 0.4564 -0.5690
-0.8745 0.4656 -0.5645
-0.9763 0.4680 -0.5687
-1.0288 0.4715 -0.5693
-1.0536 0.4705 -0.5714
-1.0778 0.4677 -0.5747
-1.1022 0.4649 -0.5780
-1.1296 0.4685 -0.5771
-1.1572 0.4730 -0.5756
-1.7058 0.5389 -0.5620
-1.7308 0.5423 -0.5611
-1.7584 0.5380 -0.5657
-1.7834 0.5414 -0.5648
-1.8067 0.5492 -0.5608
-1.8284 0.5594 -0.5550
-1.8528 0.5628 -0.5541
-1.8787 0.5628 -0.5556
-1.8984 0.5747 -0.5486
-1.9239 0.6180 -0.5204
-1.9399 0.6315 -0.5122
-1.9641 0.6313 -0.5137
-1.9885 0.6312 -0.5152
-2.0105 0.6344 -0.5142
-2.0167 0.6578 -0.4986
-2.0864 0.7323 -0.4516
-2.1007 0.7395 -0.4475
-2.1137 0.7474 -0.4429
-2.1197 0.7797 -0.4212
-2.1250 0.7924 -0.4128
-2.1343 0.8169 -0.3966
-0.8262 0.5046 -0.5635
-0.8512 0.5062 -0.5638
-0.8762 0.5079 -0.5641
-0.9011 0.5096 -0.5644
-0.9293 0.5158 -0.5615
-0.9553 0.5193 -0.5606
-0.9772 0.5164 -0.5640
-0.9982 0.5117 -0.5687
-1.0234 0.5134 -0.5689
-1.0500 0.5178 -0.5674
-1.0750 0.5194 -0.5676
-1.1009 0.5229 -0.5667
-1.1259 0.5246 -0.5670
-1.1516 0.5281 -0.5660
-1.1726 0.5198 -0.5732
-1.2008 0.5296 -0.5678
-1.2258 0.5313 -0.5681
-1.2526 0.5392 -0.5640
-1.2752 0.5328 -0.5700
-1.3002 0.5345 -0.5703
-1.3260 0.5397 -0.5680
-1.3524 0.5494 -0.5626
-1.3765 0.5475 -0.5655
-1.4013 0.5491 -0.5657
-1.4259 0.5490 -0.5673
-1.4505 0.5463 -0.5707
-1.4756 0.5541 -0.5666
-1.5004 0.5540 -0.5681
-1.5252 0.5574 -0.5672
-1.5500 0.5591 -0.5675
-1.5747 0.5607 -0.5677
-1.5995 0.5624 -0.5680
-1.6250 0.5597 -0.5715
-1.6494 0.5640 -0.5699
-1.6742 0.5656 -0.5702
-1.7002 0.5630 -0.5736
-1.7247 0.5664 -0.5726
-1.7496 0.5680 -0.5729
-1.7745 0.5697 -0.5732
-1.7977 0.5756 -0.5703
-1.8232 0.5756 -0.5719
-1.8457 0.5824 -0.5684
-1.8720 0.5806 -0.5712
-1.8936 0.5882 -0.5670
-1.9090 0.6059 -0.5552
-1.9243 0.6218 -0.5446
-1.9414 0.6335 -0.5372
-1.9635 0.6367 -0.5362
-2.0024 0.6499 -0.5291
-2.0174 0.6614 -0.5217
-2.0598 0.6941 -0.5007
-2.0791 0.6980 -0.4990
-2.1078 0.7368 -0.4728
-2.1175 0.7480 -0.4654
-0.8894 0.5321 -0.5754
-0.9124 0.5319 -0.5770
-0.9657 0.5416 -0.5730
-1.0203 0.5548 -0.5664
-1.0427 0.5537 -0.5686
-1.0889 0.5533 -0.5718
-1.4759 0.5974 -0.5624
-1.4994 0.6008 -0.5614
-1.5467 0.6004 -0.5645
-1.5698 0.6072 -0.5609
-1.5935 0.6070 -0.5624
-1.6624 0.6186 -0.5580
-1.7110 0.6149 -0.5638
-1.7334 0.6199 -0.5614
-1.7574 0.6197 -0.5630
-1.8044 0.6229 -0.5636
-1.8811 0.6158 -0.5737
-1.9011 0.6241 -0.5686
-1.9186 0.6357 -0.5609
-1.9419 0.6373 -0.5612
-1.9640 0.6405 -0.5601
-1.9849 0.6454 -0.5577
-2.0067 0.6486 -0.5567
-2.0194 0.6634 -0.5463
-2.0426 0.6919 -0.5261
-2.0541 0.7049 -0.5170
-2.0670 0.7153 -0.5099
-2.0801 0.7249 -0.5035
-2.0952 0.7320 -0.4990
-2.1106 0.7383 -0.4953
-2.1144 0.7551 -0.4828
-2.1207 0.7686 -0.4730
-2.1336 0.7755 -0.4685
-2.1592 0.7886 -0.4602
-0.8790 0.5821 -0.5633
-0.9019 0.5837 -0.5636
-0.9235 0.5834 -0.5652
-0.9452 0.5831 -0.5669
-0.9695 0.5865 -0.5658
-0.9925 0.5880 -0.5660
-1.0167 0.5913 -0.5649
-1.0385 0.5911 -0.5666
-1.0615 0.5926 -0.5668
-1.0815 0.5888 -0.5712
-1.1075 0.5957 -0.5674
-1.1314 0.5990 -0.5663
-1.1552 0.6023 -0.5652
-1.1773 0.6021 -0.5668
-1.2003 0.6036 -0.5671
-1.2232 0.6052 -0.5673
-1.2450 0.6031 -0.5703
-1.2681 0.6047 -0.5706
-1.2926 0.6115 -0.5668
-1.3151 0.6113 -0.5684
-1.3376 0.6111 -0.5700
-1.3613 0.6161 -0.5676
-1.3845 0.6194 -0.5665
-1.4301 0.6224 -0.5670
-1.4527 0.6188 -0.5714
-1.4757 0.6203 -0.5716
-1.4987 0.6218 -0.5719
-1.5216 0.6251 -0.5708
-1.5445 0.6283 -0.5697
-1.5675 0.6282 -0.5713
-1.5907 0.6280 -0.5730
-1.6123 0.6381 -0.5663
-1.6350 0.6396 -0.5666
-1.6581 0.6394 -0.5683
-1.6814 0.6392 -0.5699
-1.7042 0.6408 -0.5702
-1.7524 0.6371 -0.5762
-1.7727 0.6453 -0.5710
-1.7948 0.6485 -0.5698
-1.8208 0.6434 -0.5756
-1.8404 0.6516 -0.5704
-1.8614 0.6564 -0.5679
-1.8840 0.6580 -0.5681
-1.9077 0.6578 -0.5698
-1.9369 0.6494 -0.5783
-1.9611 0.6493 -0.5800
-1.9819 0.6541 -0.5775
-2.0074 0.6524 -0.5805
-2.0227 0.6638 -0.5725
-2.0339 0.6792 -0.5609
-2.0938 0.7152 -0.5362
-2.1028 0.7288 -0.5260
-2.1101 0.7431 -0.5151
-2.1706 0.7834 -0.4870
-1.0999 0.6281 -0.5669
-1.1197 0.6251 -0.5707
-1.1450 0.6328 -0.5660
-1.3439 0.6478 -0.5668
-1.4541 0.6595 -0.5645
-1.5863 0.6606 -0.5725
-1.6066 0.6731 -0.5634
-1.6286 0.6728 -0.5651
-1.6515 0.6701 -0.5690
-1.6729 0.6732 -0.5678
-1.7605 0.6791 -0.5688
-1.7824 0.6805 -0.5690
-1.8066 0.6770 -0.5736
-2.0051 0.6903 -0.5759
-2.0177 0.7031 -0.5661
-2.0351 0.7094 -0.5620
-2.0559 0.7117 -0.5615
-2.0735 0.7172 -0.5581
-2.1070 0.7503 -0.5328
-2.1212 0.7572 -0.5280
-2.1499 0.7874 -0.5048
-2.1622 0.7943 -0.4999
-0.9214 0.6452 -0.5656
-0.9442 0.6484 -0.5644
-0.9641 0.6480 -0.5661
-0.9867 0.6513 -0.5649
-1.0080 0.6527 -0.5651
-1.0293 0.6541 -0.5653
-1.0505 0.6555 -0.5656
-1.0707 0.6552 -0.5673
-1.0931 0.6584 -0.5661
-1.1143 0.6598 -0.5663
-1.1365 0.6630 -0.5651
-1.1560 0.6609 -0.5683
-1.1773 0.6623 -0.5685
-1.1975 0.6611 -0.5710
-1.2199 0.6652 -0.5690
-1.2426 0.6701 -0.5663
-1.2632 0.6697 -0.5681
-1.2836 0.6686 -0.5705
-1.3052 0.6709 -0.5700
-1.3266 0.6723 -0.5703
-1.3479 0.6737 -0.5705
-1.3687 0.6725 -0.5730
-1.3904 0.6757 -0.5718
-1.4123 0.6814 -0.5683
-1.4326 0.6726 -0.5774
-1.4544 0.6783 -0.5740
-1.4759 0.6840 -0.5705
-1.4972 0.6871 -0.5693
-1.5187 0.6809 -0.5762
-1.5400 0.6840 -0.5750
-1.5610 0.6896 -0.5715
-1.5820 0.6928 -0.5703
-1.6236 0.6998 -0.5670
-1.6460 0.6953 -0.5725
-1.6678 0.6951 -0.5742
-1.6899 0.6940 -0.5767
-1.7104 0.6979 -0.5747
-1.7305 0.7027 -0.5720
-1.7510 0.7058 -0.5707
-1.7718 0.7080 -0.5702
-1.7957 0.7036 -0.5757
-1.8162 0.7067 -0.5745
-1.8366 0.7098 -0.5732
-1.8578 0.7112 -0.5735
-1.8780 0.7142 -0.5722
-1.9013 0.7124 -0.5754
-1.9214 0.7154 -0.5742
-1.9456 0.7128 -0.5782
-1.9638 0.7183 -0.5747
-1.9837 0.7213 -0.5734
-2.0042 0.7235 -0.5729
-2.0275 0.7225 -0.5754
-2.0472 0.7255 -0.5742
-2.0676 0.7278 -0.5737
-2.0824 0.7356 -0.5679
-2.0935 0.7465 -0.5591
-2.1064 0.7550 -0.5526
-2.1163 0.7659 -0.5438
-2.1407 0.7990 -0.5167
-1.0874 0.6875 -0.5645
-1.1473 0.6890 -0.5675
-1.2089 0.6931 -0.5682
-1.2295 0.6945 -0.5684
-1.2517 0.7002 -0.5648
-1.3531 0.7044 -0.5683
-1.3945 0.7097 -0.5665
-1.4149 0.7111 -0.5667
-1.4557 0.7147 -0.5664
-1.4761 0.7177 -0.5651
-1.4964 0.7216 -0.5630
-1.5165 0.7280 -0.5587
-1.5370 0.7226 -0.5651
-1.5577 0.7206 -0.5684
-1.6183 0.7272 -0.5668
-1.6387 0.7286 -0.5670
-1.7010 0.7285 -0.5716
-1.7409 0.7337 -0.5697
-1.7613 0.7351 -0.5700
-1.7809 0.7381 -0.5686
-1.7995 0.7427 -0.5658
-1.8224 0.7392 -0.5707
-1.8418 0.7422 -0.5694
-1.8631 0.7419 -0.5711
-1.8840 0.7424 -0.5721
-1.9073 0.7398 -0.5763
-1.9483 0.7425 -0.5767
-1.9708 0.7415 -0.5793
-1.9894 0.7453 -0.5772
-2.0962 0.7482 -0.5823
-2.1034 0.7622 -0.5701
-2.1149 0.7714 -0.5625
-2.1231 0.7829 -0.5526
-2.1508 0.7949 -0.5437
-0.8172 2.0832 -0.5571
-0.8594 2.0837 -0.5552
-0.8791 2.0851 -0.5554
-0.8899 2.0949 -0.5641
-0.9115 2.0947 -0.5627
-0.9367 2.0908 -0.5576
-0.9521 2.0968 -0.5624
-0.9825 2.0866 -0.5511
-0.9980 2.0926 -0.5560
-1.2166 2.1030 -0.5537
-1.2381 2.0996 -0.5493
-1.2939 2.1109 -0.5569
-1.3140 2.1107 -0.5556
-1.3337 2.1113 -0.5550
-1.4319 2.1091 -0.5476
-1.4703 2.1118 -0.5480
-1.6077 2.1338 -0.5611
-1.6470 2.1365 -0.5616
-1.6657 2.1354 -0.5595
-1.6853 2.1368 -0.5597
-1.7045 2.1373 -0.5591
-1.7218 2.1336 -0.5547
-1.7463 2.1460 -0.5650
-1.7635 2.1423 -0.5605
-1.7830 2.1436 -0.5608
-1.8025 2.1450 -0.5610
-1.8221 2.1464 -0.5612
-1.8411 2.1469 -0.5606
-1.8623 2.1508 -0.5632
-1.8825 2.1531 -0.5642
-1.9039 2.1571 -0.5668
-1.9269 2.1628 -0.5709
-1.9413 2.1572 -0.5648
-1.9582 2.1551 -0.5619
-1.9748 2.1530 -0.5590
-2.0002 2.1614 -0.5655
-2.0238 2.1671 -0.5696
-2.0387 2.1632 -0.5651
-2.0583 2.1646 -0.5654
-2.0761 2.1642 -0.5640
-2.1028 2.1727 -0.5705
-0.8412 2.1052 -0.5517
-0.8573 2.1105 -0.5556
-0.8850 2.1050 -0.5492
-0.9028 2.1087 -0.5516
-0.9231 2.1102 -0.5519
-0.9412 2.1139 -0.5543
-0.9574 2.1200 -0.5590
-1.0035 2.1166 -0.5535
-1.0256 2.1157 -0.5515
-1.0458 2.1171 -0.5517
-1.0633 2.1225 -0.5557
-1.0883 2.1168 -0.5492
-1.1094 2.1166 -0.5479
-1.1508 2.1170 -0.5462
-1.1671 2.1256 -0.5531
-1.1900 2.1215 -0.5481
-1.2122 2.1180 -0.5438
-1.2300 2.1243 -0.5485
-1.2673 2.1352 -0.5564
-1.3105 2.1283 -0.5479
-1.3316 2.1248 -0.5437
-1.3514 2.1262 -0.5439
-1.3712 2.1276 -0.5441
-1.3905 2.1331 -0.5481
-1.4101 2.1377 -0.5513
-1.4300 2.1416 -0.5537
-1.4500 2.1447 -0.5555
-1.4702 2.1445 -0.5542
-1.4904 2.1484 -0.5567
-1.5099 2.1390 -0.5471
-1.5305 2.1479 -0.5541
-1.5514 2.1551 -0.5596
-1.5711 2.1532 -0.5568
-1.5908 2.1521 -0.5548
-1.6115 2.1560 -0.5572
-1.6312 2.1558 -0.5560
-1.6498 2.1521 -0.5517
-1.6715 2.1586 -0.5564
-1.6925 2.1626 -0.5589
-1.7114 2.1606 -0.5561
-1.7348 2.1697 -0.5631
-1.7520 2.1642 -0.5573
-1.7772 2.1760 -0.5666
-1.7949 2.1722 -0.5623
-1.8119 2.1676 -0.5572
-1.8340 2.1725 -0.5605
-1.8478 2.1635 -0.5516
-1.8705 2.1693 -0.5556
-1.8958 2.1785 -0.5626
-1.9179 2.1825 -0.5651
-1.9331 2.1770 -0.5593
-1.9532 2.1784 -0.5595
-1.9776 2.1851 -0.5643
-1.9979 2.1865 -0.5645
-2.0181 2.1879 -0.5647
-2.0377 2.1885 -0.5642
-2.0579 2.1899 -0.5644
-2.0782 2.1913 -0.5647
-2.1010 2.1954 -0.5672
-2.1196 2.1950 -0.5659
-0.7611 2.1412 -0.5623
-0.7888 2.1373 -0.5575
-0.8015 2.1465 -0.5649
-0.8289 2.1426 -0.5602
-0.8510 2.1433 -0.5597
-0.8770 2.1401 -0.5556
-0.8967 2.1432 -0.5573
-0.9194 2.1431 -0.5561
-0.9638 2.1437 -0.5544
-0.9900 2.1388 -0.5490
-1.0259 2.1497 -0.5566
-1.1361 2.1491 -0.5506
-1.1566 2.1514 -0.5515
-1.3042 2.1567 -0.5488
-1.3661 2.1628 -0.5509
-1.3866 2.1667 -0.5533
-1.4494 2.1669 -0.5504
-1.4701 2.1726 -0.5543
-1.5119 2.1763 -0.5554
-1.5334 2.1837 -0.5607
-1.5543 2.1835 -0.5595
-1.5754 2.1850 -0.5598
-1.5950 2.1797 -0.5542
-1.6159 2.1811 -0.5544
-1.6365 2.1817 -0.5539
-1.6573 2.1832 -0.5542
-1.6803 2.1915 -0.5602
-1.6988 2.1861 -0.5546
-1.7196 2.1876 -0.5549
-1.7408 2.1899 -0.5558
-1.7616 2.1914 -0.5560
-1.7854 2.1989 -0.5614
-1.8109 2.2091 -0.5689
-1.8279 2.2027 -0.5626
-1.8514 2.2086 -0.5664
-1.8710 2.2074 -0.5645
-1.8865 2.2002 -0.5574
-1.9132 2.2104 -0.5649
-1.9331 2.2101 -0.5637
-1.9586 2.2178 -0.5691
-1.9785 2.2175 -0.5678
-1.9990 2.2181 -0.5673
-2.0187 2.2178 -0.5661
-2.0451 2.2255 -0.5715
-2.0555 2.2145 -0.5615
-2.0804 2.2205 -0.5653
-2.1006 2.2210 -0.5649
-2.1147 2.2153 -0.5592
-2.1426 2.2240 -0.5653
-0.7638 2.1650 -0.5562
-0.7918 2.1611 -0.5516
-0.8195 2.1571 -0.5471
-0.8444 2.1555 -0.5446
-0.9217 2.1719 -0.5545
-0.9611 2.1806 -0.5598
-1.0158 2.1692 -0.5479
-1.0644 2.1642 -0.5415
-1.0817 2.1721 -0.5472
-1.1024 2.1753 -0.5488
-1.1249 2.1752 -0.5477
-1.1903 2.1781 -0.5470
-1.2069 2.1919 -0.5576
-1.2333 2.1811 -0.5475
-1.2524 2.1900 -0.5540
-1.2746 2.1899 -0.5528
-1.2966 2.1906 -0.5524
-1.3177 2.1946 -0.5547
-1.3411 2.1878 -0.5480
-1.3846 2.1867 -0.5450
-1.4055 2.1932 -0.5494
-1.4487 2.1895 -0.5443
-1.4914 2.1950 -0.5469
-1.5133 2.2041 -0.5534
-1.5352 2.2082 -0.5557
-1.5552 2.1970 -0.5455
-1.5784 2.2104 -0.5555
-1.6001 2.2119 -0.5557
-1.6228 2.2177 -0.5595
-1.6430 2.2133 -0.5548
-1.6652 2.2165 -0.5564
-1.7085 2.2196 -0.5569
-1.7282 2.2159 -0.5530
-1.7519 2.2226 -0.5574
-1.7728 2.2224 -0.5563
-1.8011 2.2379 -0.5677
-1.8174 2.2280 -0.5588
-1.8391 2.2296 -0.5591
-1.8638 2.2364 -0.5635
-1.8868 2.2397 -0.5652
-1.9003 2.2280 -0.5549
-1.9242 2.2330 -0.5579
-1.9477 2.2372 -0.5603
-1.9694 2.2387 -0.5605
-1.9911 2.2402 -0.5608
-2.0121 2.2409 -0.5603
-2.0360 2.2451 -0.5626
-2.0592 2.2484 -0.5643
-2.0795 2.2481 -0.5631
-2.1061 2.2551 -0.5676
-2.1247 2.2530 -0.5650
-2.1431 2.2509 -0.5624
-2.1683 2.2561 -0.5655
-0.6836 2.1978 -0.5594
-0.7195 2.1884 -0.5505
-0.7316 2.1995 -0.5586
-0.7513 2.2043 -0.5615
-0.7903 2.1908 -0.5492
-0.8575 2.1964 -0.5507
-0.8802 2.1980 -0.5509
-0.9028 2.1996 -0.5512
-0.9202 2.2076 -0.5567
-0.9457 2.2060 -0.5543
-0.9685 2.2076 -0.5546
-0.9878 2.2141 -0.5588
-1.0163 2.2076 -0.5524
-1.0395 2.2083 -0.5520
-1.0651 2.2050 -0.5483
-1.0843 2.2123 -0.5532
-1.1074 2.2131 -0.5528
-1.1288 2.2172 -0.5550
-1.1776 2.2129 -0.5495
-1.2207 2.2211 -0.5540
-1.2909 2.2175 -0.5481
-1.3356 2.2206 -0.5486
-1.4247 2.2337 -0.5549
-1.4475 2.2285 -0.5498
-1.4699 2.2411 -0.5588
-1.4927 2.2427 -0.5590
-1.5154 2.2443 -0.5593
-1.5375 2.2399 -0.5548
-1.5839 2.2508 -0.5614
-1.6060 2.2490 -0.5589
-1.6287 2.2506 -0.5592
-1.6514 2.2522 -0.5594
-1.6761 2.2607 -0.5651
-1.6979 2.2588 -0.5626
-1.7191 2.2561 -0.5595
-1.7475 2.2726 -0.5712
-1.7670 2.2654 -0.5647
-1.7891 2.2652 -0.5636
-1.8110 2.2651 -0.5625
-1.8338 2.2667 -0.5628
-1.8555 2.2665 -0.5617
-1.8802 2.2717 -0.5647
-1.9030 2.2733 -0.5649
-1.9230 2.2704 -0.5618
-1.9521 2.2818 -0.5695
-1.9714 2.2781 -0.5657
-1.9916 2.2761 -0.5632
-2.0137 2.2768 -0.5628
-2.0370 2.2793 -0.5637
-2.0641 2.2863 -0.5680
-2.0929 2.2951 -0.5737
-2.1043 2.2831 -0.5638
-2.1326 2.2911 -0.5688
-2.1555 2.2927 -0.5690
-2.1818 2.2979 -0.5720
-2.2012 2.2959 -0.5695
-0.9244 2.2392 -0.5533
-0.9506 2.2376 -0.5510
-0.9783 2.2335 -0.5468
-1.0182 2.2475 -0.5556
-1.0515 2.2335 -0.5438
-1.0686 2.2458 -0.5523
-1.1245 2.2317 -0.5394
-1.1883 2.2500 -0.5504
-1.2123 2.2499 -0.5494
-1.2606 2.2482 -0.5461
-1.2825 2.2549 -0.5502
-1.3086 2.2447 -0.5415
-1.3297 2.2565 -0.5494
-1.3521 2.2640 -0.5541
-1.3759 2.2631 -0.5525
-1.3990 2.2691 -0.5559
-1.4227 2.2690 -0.5549
-1.4467 2.2544 -0.5430
-1.4698 2.2629 -0.5484
-1.4929 2.2610 -0.5461
-1.5169 2.2756 -0.5560
-1.5408 2.2807 -0.5588
-1.5616 2.2607 -0.5430
-1.5863 2.2728 -0.5510
-1.6111 2.2822 -0.5570
-1.6336 2.2795 -0.5541
-1.6543 2.2707 -0.5466
-1.7039 2.2845 -0.5548
-1.7266 2.2843 -0.5538
-1.7523 2.2922 -0.5586
-1.7748 2.2912 -0.5569
-1.8002 2.2972 -0.5604
-1.8247 2.3007 -0.5619
-1.8492 2.3041 -0.5635
-1.8686 2.2977 -0.5579
-1.8911 2.2976 -0.5569
-1.9172 2.3037 -0.5604
-1.9407 2.3054 -0.5607
-1.9590 2.2989 -0.5551
-1.9860 2.3060 -0.5592
-2.0081 2.3058 -0.5582
-2.0302 2.3057 -0.5572
-2.0549 2.3091 -0.5587
-2.0784 2.3108 -0.5590
-2.0987 2.3088 -0.5566
-2.1252 2.3140 -0.5595
-2.1453 2.3120 -0.5572
-2.1795 2.3256 -0.5659
-2.1997 2.3236 -0.5635
-2.2206 2.3225 -0.5618
-0.6172 2.2666 -0.5571
-0.6450 2.2659 -0.5556
-0.6656 2.2717 -0.5589
-0.7233 2.2680 -0.5540
-0.7450 2.2730 -0.5567
-0.7583 2.2869 -0.5660
-0.8149 2.2839 -0.5618
-0.8429 2.2824 -0.5596
-0.8699 2.2817 -0.5581
-0.8975 2.2802 -0.5559
-0.9181 2.2877 -0.5604
-0.9490 2.2812 -0.5546
-0.9738 2.2830 -0.5549
-1.0007 2.2814 -0.5528
-1.0308 2.2740 -0.5463
-1.0510 2.2832 -0.5521
-1.1283 2.2808 -0.5474
-1.1488 2.2918 -0.5544
-1.1741 2.2918 -0.5534
-1.1981 2.2953 -0.5549
-1.2502 2.2894 -0.5488
-1.2746 2.2911 -0.5490
-1.3231 2.2962 -0.5508
-1.3725 2.2954 -0.5483
-1.3960 2.3048 -0.5541
-1.4453 2.3031 -0.5509
-1.4697 2.3083 -0.5536
-1.4944 2.3178 -0.5594
-1.5188 2.3134 -0.5554
-1.5433 2.3152 -0.5557
-1.5692 2.3274 -0.5633
-1.5934 2.3248 -0.5605
-1.6154 2.3124 -0.5510
-1.6425 2.3265 -0.5599
-1.6660 2.3238 -0.5570
-1.6913 2.3282 -0.5592
-1.7185 2.3379 -0.5650
-1.7424 2.3370 -0.5634
-1.7682 2.3414 -0.5655
-1.7873 2.3288 -0.5559
-1.8161 2.3404 -0.5630
-1.8391 2.3386 -0.5608
-1.8646 2.3421 -0.5623
-1.8893 2.3438 -0.5626
-1.9150 2.3473 -0.5641
-1.9424 2.3536 -0.5675
-1.9656 2.3526 -0.5659
-1.9933 2.3589 -0.5693
-2.0195 2.3625 -0.5708
-2.0362 2.3524 -0.5630
-2.0819 2.3513 -0.5604
-2.1129 2.3613 -0.5663
-2.1392 2.3648 -0.5678
-2.1679 2.3712 -0.5712
-2.1912 2.3711 -0.5702
-2.2161 2.3728 -0.5705
-2.2366 2.3699 -0.5677
-2.2658 2.3763 -0.5711
-0.6018 2.3109 -0.5586
-0.6673 2.3295 -0.5688
-0.7069 2.3183 -0.5598
-0.8418 2.3234 -0.5583
-0.8660 2.3277 -0.5604
-0.9794 2.3217 -0.5522
-1.0147 2.3075 -0.5415
-1.0319 2.3236 -0.5516
-1.0590 2.3229 -0.5502
-1.0905 2.3129 -0.5423
-1.1435 2.3105 -0.5388
-1.1696 2.3097 -0.5373
-1.1894 2.3259 -0.5475
-1.2121 2.3363 -0.5536
-1.2903 2.3374 -0.5516
-1.3171 2.3332 -0.5477
-1.3669 2.3445 -0.5536
-1.3929 2.3429 -0.5515
-1.4440 2.3464 -0.5521
-1.5214 2.3641 -0.5612
-1.5453 2.3448 -0.5473
-1.5989 2.3678 -0.5608
-1.6270 2.3812 -0.5688
-1.6759 2.3706 -0.5599
-1.6999 2.3662 -0.5561
-1.7242 2.3635 -0.5534
-1.7768 2.3716 -0.5569
-1.8049 2.3797 -0.5614
-1.8260 2.3707 -0.5545
-1.8527 2.3752 -0.5566
-1.8801 2.3806 -0.5593
-1.9014 2.3742 -0.5542
-1.9294 2.3805 -0.5575
-1.9533 2.3796 -0.5560
-1.9777 2.3796 -0.5551
-2.0101 2.3923 -0.5625
-2.0316 2.3877 -0.5586
-2.0584 2.3914 -0.5601
-2.0693 2.3729 -0.5472
-2.1082 2.3931 -0.5594
-2.1316 2.3921 -0.5579
-2.1593 2.3967 -0.5600
-2.1864 2.4003 -0.5615
-2.2160 2.4068 -0.5647
-2.2476 2.4151 -0.5692
-2.2805 2.4244 -0.5743
-2.3066 2.4263 -0.5746
-0.6012 2.3446 -0.5501
-0.6146 2.3596 -0.5592
-0.6396 2.3640 -0.5612
-0.6697 2.3635 -0.5598
-0.7035 2.3588 -0.5557
-0.7353 2.3558 -0.5527
-0.7640 2.3560 -0.5519
-0.7876 2.3621 -0.5550
-0.8129 2.3665 -0.5569
-0.8403 2.3684 -0.5572
-0.8695 2.3678 -0.5559
-0.9014 2.3630 -0.5517
-0.9268 2.3675 -0.5537
-0.9571 2.3643 -0.5507
-0.9740 2.3831 -0.5621
-1.0473 2.3521 -0.5399
-1.0662 2.3693 -0.5502
-1.0919 2.3738 -0.5522
-1.1167 2.3808 -0.5558
-1.1458 2.3775 -0.5528
-1.1703 2.3863 -0.5575
-1.1989 2.3839 -0.5550
-1.2279 2.3789 -0.5509
-1.2537 2.3851 -0.5540
-1.3071 2.3915 -0.5562
-1.3337 2.3960 -0.5582
-1.3627 2.3831 -0.5490
-1.3885 2.3946 -0.5554
-1.4145 2.4114 -0.5653
-1.4425 2.3940 -0.5532
-1.4694 2.3976 -0.5547
-1.4968 2.4172 -0.5662
-1.5231 2.4014 -0.5553
-1.5517 2.4211 -0.5668
-1.5788 2.4203 -0.5654
-1.6053 2.4169 -0.5623
-1.6307 2.4090 -0.5564
-1.6597 2.4207 -0.5629
-1.6889 2.4307 -0.5683
-1.7128 2.4200 -0.5607
-1.7407 2.4246 -0.5627
-1.7645 2.4166 -0.5568
-1.7940 2.4257 -0.5616
-1.8261 2.4403 -0.5698
-1.8481 2.4295 -0.5622
-1.8772 2.4360 -0.5653
-1.9008 2.4306 -0.5611
-1.9306 2.4380 -0.5648
-1.9578 2.4399 -0.5651
-1.9817 2.4363 -0.5620
-2.0103 2.4409 -0.5640
-2.0356 2.4400 -0.5626
-2.0966 2.4540 -0.5695
-2.1219 2.4532 -0.5681
-2.1435 2.4476 -0.5638
-2.1625 2.4392 -0.5578
-2.1997 2.4542 -0.5661
-2.2267 2.4561 -0.5664
-2.2627 2.4683 -0.5730
-2.2833 2.4627 -0.5687
-2.3200 2.4750 -0.5753
-2.3376 2.4665 -0.5693
-0.6069 2.4041 -0.5550
-0.6252 2.4169 -0.5621
-0.6597 2.4131 -0.5588
-0.6744 2.4311 -0.5691
-0.7154 2.4197 -0.5610
-0.7548 2.4091 -0.5534
-0.7707 2.4272 -0.5637
-0.8100 2.4157 -0.5556
-0.8637 2.3830 -0.5343
-0.8866 2.3917 -0.5389
-0.9127 2.3962 -0.5407
-0.9452 2.3905 -0.5363
-0.9638 2.4078 -0.5461
-1.0266 2.3989 -0.5388
-1.0493 2.4111 -0.5455
-1.1020 2.4228 -0.5509
-1.1353 2.4118 -0.5432
-1.1613 2.4190 -0.5467
-1.1893 2.4210 -0.5470
-1.3332 2.4053 -0.5331
-1.4692 2.4379 -0.5485
-1.5808 2.4458 -0.5497
-1.6075 2.4397 -0.5452
-1.6651 2.4544 -0.5523
-1.6931 2.4563 -0.5526
-1.7533 2.4739 -0.5613
-1.8051 2.4642 -0.5538
-1.8375 2.4772 -0.5606
-1.8634 2.4736 -0.5577
-1.8929 2.4784 -0.5596
-1.9238 2.4859 -0.5631
-1.9451 2.4740 -0.5554
-1.9836 2.4954 -0.5670
-2.0169 2.5058 -0.5722
-2.0491 2.5134 -0.5758
-2.1816 2.5067 -0.5676
-2.2079 2.5059 -0.5663
-2.3551 2.5215 -0.5711
-0.5151 2.4711 -0.5633
-0.5492 2.4699 -0.5616
-0.5879 2.4636 -0.5570
-0.6237 2.4599 -0.5538
-0.6434 2.4738 -0.5612
-0.6812 2.4675 -0.5565
-0.7164 2.4637 -0.5533
-0.7445 2.4683 -0.5552
-0.7811 2.4619 -0.5505
-0.8091 2.4666 -0.5523
-0.8391 2.4687 -0.5527
-0.8780 2.4571 -0.5450
-0.9076 2.4592 -0.5453
-0.9321 2.4699 -0.5507
-0.9620 2.4719 -0.5510
-0.9842 2.4888 -0.5599
-1.0287 2.4614 -0.5431
-1.0813 2.4803 -0.5523
-1.1144 2.4737 -0.5476
-1.1431 2.4784 -0.5494
-1.1680 2.4954 -0.5583
-1.2016 2.4852 -0.5516
-1.2266 2.5058 -0.5625
-1.2602 2.4929 -0.5543
-1.2924 2.4826 -0.5475
-1.3213 2.4882 -0.5499
-1.3494 2.5019 -0.5568
-1.3781 2.5164 -0.5642
-1.4084 2.5186 -0.5646
-1.4387 2.5207 -0.5649
-1.4690 2.5165 -0.5617
-1.4987 2.5061 -0.5549
-1.5285 2.5081 -0.5552
-1.5585 2.5138 -0.5576
-1.5883 2.5159 -0.5579
-1.6172 2.5117 -0.5547
-1.6485 2.5229 -0.5601
-1.6770 2.5186 -0.5569
-1.7090 2.5298 -0.5623
-1.7382 2.5292 -0.5611
-1.7690 2.5340 -0.5630
-1.7990 2.5361 -0.5633
-1.8256 2.5290 -0.5585
-1.8629 2.5505 -0.5696
-1.8890 2.5424 -0.5643
-1.9135 2.5325 -0.5580
-1.9476 2.5439 -0.5634
-1.9789 2.5488 -0.5653
-2.0039 2.5415 -0.5605
-2.0463 2.5661 -0.5731
-2.0689 2.5551 -0.5663
-2.0931 2.5478 -0.5615
-2.1314 2.5631 -0.5690
-2.1659 2.5718 -0.5729
-2.1983 2.5767 -0.5748
-2.2238 2.5722 -0.5715
-2.2518 2.5715 -0.5703
-2.2841 2.5765 -0.5722
-2.3143 2.5786 -0.5726
-2.3445 2.5807 -0.5729
-2.3664 2.5733 -0.5681
-2.4084 2.5888 -0.5756
-2.4289 2.5804 -0.5703
-0.4666 2.5269 -0.5600
-0.5056 2.5223 -0.5566
-0.5281 2.5348 -0.5626
-0.5761 2.5201 -0.5535
-0.6102 2.5197 -0.5525
-0.6398 2.5245 -0.5542
-0.6738 2.5242 -0.5532
-1.0623 2.5343 -0.5483
-1.3449 2.5442 -0.5462
-1.3747 2.5599 -0.5537
-1.4060 2.5621 -0.5541
-1.4367 2.5878 -0.5669
-1.5630 2.5731 -0.5558
-1.5956 2.5853 -0.5614
-1.7199 2.5841 -0.5575
-1.7568 2.6066 -0.5685
-1.7899 2.6126 -0.5708
-1.8822 2.6091 -0.5665
-1.9379 2.5958 -0.5580
-1.9741 2.6083 -0.5637
-2.0392 2.6165 -0.5664
-2.0731 2.6225 -0.5686
-2.0726 2.5699 -0.5408
-2.1109 2.5853 -0.5479
-2.1899 2.6624 -0.5868
-2.2124 2.6495 -0.5793
-2.2341 2.6365 -0.5719
-2.2611 2.6321 -0.5688
-2.2957 2.6381 -0.5711
-2.3616 2.6455 -0.5733
-2.4607 2.6561 -0.5763
-0.4173 2.5843 -0.5541
-0.4437 2.5944 -0.5585
-0.4851 2.5891 -0.5549
-0.5190 2.5915 -0.5553
-0.5559 2.5904 -0.5539
-0.5955 2.5859 -0.5507
-0.6263 2.5917 -0.5528
-0.6793 2.5690 -0.5403
-0.7274 2.5988 -0.5540
-0.7611 2.6012 -0.5543
-0.8306 2.6024 -0.5533
-0.8641 2.6048 -0.5536
-0.8977 2.6071 -0.5540
-0.9686 2.6039 -0.5507
-0.9953 2.6213 -0.5587
-1.0739 2.5967 -0.5446
-1.1056 2.6026 -0.5468
-1.1306 2.6308 -0.5602
-1.1676 2.6215 -0.5547
-1.3047 2.6092 -0.5454
-1.3370 2.6152 -0.5475
-1.3689 2.6284 -0.5533
-1.4024 2.6271 -0.5519
-1.4355 2.6294 -0.5523
-1.4686 2.6509 -0.5622
-1.5020 2.6450 -0.5584
-1.5355 2.6474 -0.5588
-1.5693 2.6543 -0.5615
-1.6048 2.6723 -0.5696
-1.6382 2.6701 -0.5677
-1.6679 2.6494 -0.5566
-1.7011 2.6517 -0.5570
-1.7334 2.6503 -0.5556
-1.7676 2.6564 -0.5578
-1.8030 2.6661 -0.5618
-1.8352 2.6648 -0.5603
-1.8645 2.6559 -0.5552
-1.9095 2.6891 -0.5707
-1.9403 2.6840 -0.5674
-1.9740 2.6864 -0.5677
-2.0019 2.6765 -0.5622
-2.0333 2.6750 -0.5607
-2.0790 2.7011 -0.5725
-2.1040 2.6873 -0.5651
-2.0879 2.6049 -0.5245
-2.1107 2.5937 -0.5184
-2.1994 2.6867 -0.5625
-2.2461 2.7091 -0.5726
-2.2912 2.7278 -0.5808
-2.3109 2.7100 -0.5715
-2.3446 2.7124 -0.5718
-2.3753 2.7109 -0.5704
-2.4049 2.7084 -0.5684
-2.4489 2.7234 -0.5748
-2.4827 2.7258 -0.5752
-2.5199 2.7320 -0.5774
-2.5503 2.7305 -0.5759
-0.3282 2.6822 -0.5644
-0.4058 2.6831 -0.5632
-0.4580 2.6684 -0.5552
-0.5009 2.6631 -0.5518
-0.5403 2.6612 -0.5501
-0.5989 2.6350 -0.5367
-0.7077 2.6905 -0.5601
-1.2533 2.7159 -0.5602
-1.6105 2.7318 -0.5598
-1.7016 2.6646 -0.5267
-1.7305 2.6482 -0.5185
-1.8186 2.7289 -0.5540
-1.8668 2.7719 -0.5729
-2.0590 2.8084 -0.5857
-2.0817 2.7824 -0.5732
-2.1178 2.7849 -0.5736
-2.1365 2.7559 -0.5597
-2.0859 2.6105 -0.4934
-2.2621 2.7951 -0.5752
-2.2982 2.7976 -0.5756
-2.3283 2.7914 -0.5721
-2.3641 2.7940 -0.5725
-2.4000 2.7965 -0.5729
-2.4463 2.8126 -0.5793
-2.4786 2.8103 -0.5776
-2.5075 2.8040 -0.5740
-2.5349 2.7967 -0.5701
-2.5834 2.8140 -0.5770
-2.6230 2.8204 -0.5792
-0.2771 2.7436 -0.5520
-0.3388 2.7219 -0.5415
-0.3499 2.7533 -0.5548
-0.3923 2.7517 -0.5533
-0.4225 2.7640 -0.5580
-0.4692 2.7571 -0.5542
-0.5118 2.7545 -0.5522
-0.5915 2.7554 -0.5511
-0.6296 2.7581 -0.5515
-0.7119 2.7537 -0.5480
-0.7497 2.7563 -0.5485
-0.7795 2.7733 -0.5552
-0.8230 2.7661 -0.5513
-0.8609 2.7688 -0.5517
-0.9122 2.7427 -0.5395
-0.9841 2.7533 -0.5426
-1.0144 2.7749 -0.5514
-1.0488 2.7876 -0.5562
-1.0900 2.7802 -0.5522
-1.1330 2.7638 -0.5443
-1.1631 2.7956 -0.5574
-1.2404 2.7954 -0.5559
-1.2798 2.7880 -0.5519
-1.3168 2.7962 -0.5547
-1.3564 2.7795 -0.5468
-1.3930 2.7913 -0.5512
-1.4301 2.8088 -0.5580
-1.4680 2.7966 -0.5520
-1.5060 2.8141 -0.5588
-1.5436 2.8121 -0.5572
-1.5819 2.8194 -0.5597
-1.6180 2.8071 -0.5537
-1.6577 2.8248 -0.5605
-1.6922 2.8077 -0.5525
-1.7206 2.7670 -0.5344
-1.7302 2.6572 -0.4869
-1.8030 2.8108 -0.5517
-1.8430 2.8229 -0.5562
-1.8873 2.8464 -0.5654
-1.9270 2.8539 -0.5679
-1.9635 2.8518 -0.5663
-2.0059 2.8650 -0.5712
-2.0443 2.8677 -0.5716
-2.0800 2.8646 -0.5696
-2.1131 2.8567 -0.5655
-2.1105 2.7814 -0.5331
-2.0823 2.6671 -0.4844
-2.2998 2.8652 -0.5656
-2.3478 2.8834 -0.5725
-2.3900 2.8920 -0.5754
-2.4243 2.8888 -0.5734
-2.4589 2.8866 -0.5718
-2.5053 2.9001 -0.5767
-2.5352 2.8920 -0.5726
-2.5733 2.8946 -0.5730
-2.6064 2.8914 -0.5710
-2.6590 2.9109 -0.5784
-2.7018 2.9185 -0.5809
-0.1494 2.8388 -0.5509
-0.2009 2.8312 -0.5470
-0.2359 2.8879 -0.5690
-0.2939 2.8733 -0.5622
-0.3456 2.8647 -0.5579
-0.4009 2.8508 -0.5515
-0.4377 2.8590 -0.5541
-0.4569 2.8913 -0.5666
-0.5157 2.8711 -0.5576
-0.5613 2.8677 -0.5555
-0.6060 2.8652 -0.5537
-0.7261 2.8793 -0.5573
-0.7612 2.8939 -0.5625
-0.8054 2.8914 -0.5608
-0.8522 2.8825 -0.5564
-1.1805 2.9056 -0.5601
-1.2183 2.9260 -0.5676
-1.2617 2.9169 -0.5632
-1.3029 2.9198 -0.5637
-1.3435 2.9292 -0.5667
-1.3842 2.9442 -0.5720
-1.4258 2.9528 -0.5747
-1.4677 2.9314 -0.5655
-1.5089 2.9343 -0.5660
-1.5934 2.9645 -0.5766
-1.6304 2.9250 -0.5602
-1.6677 2.9052 -0.5517
-1.7752 2.7162 -0.4745
-1.9208 2.9632 -0.5705
-1.9600 2.9603 -0.5687
-2.0324 2.9420 -0.5602
-2.0504 2.7393 -0.4790
-2.0657 2.7048 -0.4650
-2.1189 2.7441 -0.4798
-2.2908 2.9218 -0.5477
-2.3514 2.9588 -0.5615
-2.4031 2.9793 -0.5688
-2.4611 3.0077 -0.5791
-2.5025 3.0106 -0.5796
-2.5301 2.9948 -0.5728
-2.5657 2.9907 -0.5706
-2.6680 3.0222 -0.5814
-2.7144 3.0311 -0.5842
-2.7620 3.0410 -0.5873
-2.8038 3.0439 -0.5878
-0.1903 2.9493 -0.5470
-0.2398 2.9461 -0.5451
-0.2837 2.9492 -0.5456
-0.3326 2.9460 -0.5437
-0.3665 2.9616 -0.5489
-0.4105 2.9647 -0.5494
-0.4986 2.9709 -0.5504
-0.5508 2.9614 -0.5461
-0.5983 2.9581 -0.5442
-0.6344 2.9738 -0.5495
-0.6707 2.9905 -0.5551
-0.7721 2.9703 -0.5462
-0.8920 3.0061 -0.5575
-0.9529 2.9632 -0.5409
-0.9958 2.9662 -0.5414
-1.0289 3.0015 -0.5538
-1.0798 2.9787 -0.5447
-1.1213 2.9882 -0.5476
-1.1645 2.9913 -0.5481
-1.2078 2.9943 -0.5486
-1.2491 3.0104 -0.5539
-1.2912 3.0266 -0.5592
-1.3364 3.0165 -0.5548
-1.3800 3.0196 -0.5553
-1.4234 3.0293 -0.5582
-1.4673 3.0257 -0.5563
-1.5107 3.0222 -0.5543
-1.5546 3.0319 -0.5572
-1.5971 3.0216 -0.5529
-1.6403 3.0247 -0.5533
-1.6826 3.0210 -0.5514
-1.7292 3.0441 -0.5592
-1.7742 3.0539 -0.5621
-1.8164 3.0503 -0.5601
-2.0170 2.8266 -0.4750
-2.2469 2.9918 -0.5323
-2.2674 2.9583 -0.5197
-2.2969 2.9434 -0.5138
-2.3297 2.9353 -0.5104
-2.3874 2.9668 -0.5211
-2.4481 3.0003 -0.5325
-2.5737 3.1242 -0.5761
-2.6071 3.1124 -0.5713
-2.6562 3.1225 -0.5743
-2.7002 3.1255 -0.5748
-2.7442 3.1286 -0.5753
-2.7883 3.1317 -0.5757
-2.8323 3.1348 -0.5762
-0.0341 3.0779 -0.5457
-0.0818 3.0812 -0.5462
-0.1156 3.1007 -0.5523
-0.1638 3.1041 -0.5528
-0.2063 3.1147 -0.5559
-0.2548 3.1181 -0.5564
-0.3033 3.1215 -0.5570
-0.3626 3.1095 -0.5522
-0.4686 3.1008 -0.5479
-0.5161 3.1041 -0.5484
-0.5637 3.1075 -0.5490
-0.6112 3.1108 -0.5495
-0.7429 3.1448 -0.5593
-0.7947 3.1399 -0.5570
-0.8427 3.1432 -0.5575
-0.9387 3.1500 -0.5585
-0.9915 3.1375 -0.5537
-1.0413 3.1325 -0.5514
-1.0807 3.1685 -0.5630
-1.1341 3.1475 -0.5553
-1.1871 3.1199 -0.5453
-1.2758 3.1651 -0.5594
-1.3263 3.1373 -0.5494
-1.4668 3.1785 -0.5615
-1.5148 3.1905 -0.5649
-1.5638 3.2101 -0.5709
-1.6108 3.1972 -0.5660
-1.6430 3.0634 -0.5206
-1.6871 3.0665 -0.5211
-1.8416 3.1734 -0.5551
-1.8686 2.8215 -0.4365
-1.9117 2.8435 -0.4434
-1.9527 2.8569 -0.4473
-1.9882 2.8546 -0.4461
-2.0208 2.8464 -0.4430
-2.0555 2.8441 -0.4418
-2.2415 2.9238 -0.4662
-2.2767 2.9205 -0.4647
-2.3085 2.9123 -0.4615
-2.7375 3.2440 -0.5676
-2.8243 3.2986 -0.5849
-2.8800 3.3111 -0.5883
-2.9071 3.2882 -0.5803
-2.9404 3.2744 -0.5753
-3.0031 3.2950 -0.5814
0.1340 3.2125 -0.5385
0.0824 3.2162 -0.5390
0.0307 3.2198 -0.5396
-0.0131 3.2324 -0.5430
-0.0650 3.2361 -0.5436
-0.1169 3.2397 -0.5442
-0.1688 3.2434 -0.5448
-0.2274 3.2379 -0.5425
-0.2790 3.2415 -0.5430
-0.3245 3.2543 -0.5465
-0.3764 3.2580 -0.5471
-0.4450 3.2340 -0.5390
-0.4908 3.2468 -0.5425
-0.5421 3.2504 -0.5430
-0.5935 3.2540 -0.5436
-0.6493 3.2484 -0.5413
-0.6920 3.2705 -0.5476
-0.7436 3.2742 -0.5482
-0.7988 3.2685 -0.5459
-0.8569 3.2534 -0.5407
-0.8984 3.2850 -0.5499
-0.9609 3.2520 -0.5392
-1.0067 3.2735 -0.5452
-1.0600 3.2676 -0.5429
-1.1108 3.2712 -0.5435
-1.1599 3.2842 -0.5469
-1.2082 3.3068 -0.5533
-1.2642 3.2733 -0.5425
-1.3131 3.2950 -0.5486
-1.3625 3.3272 -0.5580
-1.4144 3.3309 -0.5585
-1.5176 3.3190 -0.5538
-1.5690 3.3226 -0.5544
-1.6212 3.3358 -0.5579
-1.6664 3.2834 -0.5414
-1.6929 3.1222 -0.4919
-1.7991 3.0012 -0.4538
-1.8312 2.9670 -0.4431
-1.8570 2.9180 -0.4278
-1.8841 2.8825 -0.4167
-1.9167 2.8694 -0.4124
-1.9560 2.8770 -0.4143
-1.9917 2.8747 -0.4132
-2.0313 2.8823 -0.4151
-2.1410 2.9600 -0.4377
-2.1837 2.9687 -0.4399
-2.2412 2.9344 -0.4289
-2.2636 2.9091 -0.4209
-2.3320 2.9619 -0.4363
-2.6223 3.3591 -0.5546
-2.7052 3.4120 -0.5699
-2.7568 3.4156 -0.5705
-2.8085 3.4192 -0.5710
-2.8601 3.4228 -0.5716
-2.9117 3.4265 -0.5722
-2.9472 3.4098 -0.5667
-2.9983 3.4134 -0.5673
-3.0493 3.4169 -0.5678
-3.1004 3.4205 -0.5684
0.2907 3.4564 -0.5532
0.2427 3.4724 -0.5572
0.1838 3.4765 -0.5579
0.0865 3.4340 -0.5454
0.0291 3.4381 -0.5460
0.0161 3.5008 -0.5632
-0.0345 3.5170 -0.5672
-0.0768 3.5460 -0.5749
-0.1929 3.4662 -0.5519
-0.2654 3.4472 -0.5461
-0.3359 3.4289 -0.5405
-0.3734 3.4663 -0.5505
-0.4243 3.4825 -0.5545
-0.4883 3.4744 -0.5518
-0.5400 3.4906 -0.5558
-0.5928 3.5059 -0.5596
-0.6608 3.4865 -0.5537
-0.7313 3.4567 -0.5449
-0.7714 3.5069 -0.5583
-0.8096 3.5714 -0.5758
-0.8729 3.5633 -0.5730
-0.9387 3.5428 -0.5668
-1.0001 3.5345 -0.5641
-1.0679 3.4919 -0.5518
-1.1165 3.5427 -0.5654
-1.1747 3.5468 -0.5660
-1.2329 3.5509 -0.5666
-1.2899 3.5675 -0.5707
-1.3470 3.5966 -0.5783
-1.4063 3.6008 -0.5789
-1.4655 3.6049 -0.5796
-1.5245 3.5965 -0.5768
-1.5827 3.5880 -0.5740
-1.6401 3.5795 -0.5712
-1.6864 3.4783 -0.5429
-1.7339 3.4275 -0.5285
-1.7789 3.3804 -0.5152
-1.8123 3.2890 -0.4898
-1.9636 2.9092 -0.3839
-2.3801 3.5957 -0.5695
-2.1524 2.9176 -0.3847
-2.1847 2.9092 -0.3821
-2.2347 2.9340 -0.3885
-2.2632 2.9196 -0.3843
-2.7348 3.5520 -0.5545
-2.8373 3.6278 -0.5746
-2.9201 3.6694 -0.5853
-2.9783 3.6735 -0.5860
-3.0178 3.6521 -0.5797
-3.0566 3.6316 -0.5738
-3.0941 3.6111 -0.5678
-3.1303 3.5904 -0.5618
-3.1668 3.5717 -0.5564
0.3581 3.5458 -0.5152
0.3199 3.5757 -0.5223
0.3036 3.6334 -0.5364
0.2517 3.6516 -0.5406
0.1997 3.6709 -0.5450
0.1357 3.6754 -0.5457
0.0717 3.6799 -0.5464
-0.0026 3.6695 -0.5434
-0.0931 3.6330 -0.5338
-0.1643 3.6234 -0.5310
-0.2262 3.6277 -0.5317
-0.3030 3.6058 -0.5259
-0.3501 3.6364 -0.5331
-0.3840 3.6963 -0.5476
-0.4672 3.6593 -0.5380
-0.5417 3.6363 -0.5319
-0.6087 3.6273 -0.5293
-0.6648 3.6449 -0.5332
-0.7264 3.6492 -0.5339
-0.7879 3.6535 -0.5346
-0.8414 3.6855 -0.5421
-0.8964 3.7177 -0.5497
-1.0341 3.6708 -0.5373
-1.1552 3.6930 -0.5420
-1.2172 3.6973 -0.5427
-1.2791 3.7017 -0.5434
-1.3410 3.7060 -0.5441
-1.4030 3.7104 -0.5447
-1.4649 3.7147 -0.5454
-1.5268 3.7191 -0.5461
-1.5872 3.6960 -0.5401
-1.6507 3.7278 -0.5475
-1.6937 3.5632 -0.5068
-1.7334 3.4423 -0.4769
-1.7907 3.4678 -0.4828
-1.7364 2.6144 -0.2735
-1.9287 2.9280 -0.3493
-1.9575 2.9037 -0.3432
-2.4310 3.7280 -0.5427
-2.1986 2.9469 -0.3523
-2.2600 2.9249 -0.3465
-3.0961 3.8576 -0.5704
-3.1589 3.8620 -0.5711
-3.1882 3.8221 -0.5612
-3.2385 3.8120 -0.5584
-3.2880 3.8019 -0.5556
-3.3255 3.7782 -0.5495
0.2815 3.6239 -0.4696
0.2756 3.6979 -0.4856
0.2691 3.7769 -0.5027
0.2630 3.8628 -0.5212
0.3223 4.0471 -0.5614
0.1967 3.9774 -0.5458
0.1122 3.9637 -0.5424
0.0523 3.9876 -0.5474
-0.0093 4.0105 -0.5521
-0.0715 4.0345 -0.5570
-0.1242 4.0785 -0.5663
-0.1986 4.0837 -0.5671
-0.2913 4.0500 -0.5594
-0.3474 4.0942 -0.5688
-0.4218 4.0994 -0.5696
-0.4886 4.1247 -0.5748
-0.5636 4.1300 -0.5756
-0.6512 4.0959 -0.5679
-0.7474 4.0241 -0.5520
-0.8332 3.9751 -0.5410
-0.9033 3.9801 -0.5418
-1.0402 4.0083 -0.5473
-1.1083 4.0308 -0.5519
-1.1836 3.9997 -0.5449
-1.3288 3.9226 -0.5276
-1.4640 3.9487 -0.5327
-1.5340 4.0244 -0.5488
-1.6031 4.0115 -0.5457
-1.6960 3.6037 -0.4571
-1.7455 3.5473 -0.4446
-1.7940 3.5055 -0.4354
-1.7404 2.6396 -0.2482
-1.9457 2.8819 -0.2998
-2.0658 2.9109 -0.3056
-2.0957 2.8973 -0.3025
-2.2847 2.9165 -0.3059
-2.3117 2.9027 -0.3028
-2.3518 2.9104 -0.3043
-3.2600 4.1102 -0.5602
-3.3561 4.1523 -0.5689
-3.3702 4.0826 -0.5538
-3.3578 3.9836 -0.5324
-3.4922 4.0745 -0.5515
-3.4884 3.9927 -0.5338
0.2357 4.0539 -0.4869
-0.2629 3.9732 -0.4707
-0.2996 4.0510 -0.4852
-0.3107 4.1972 -0.5126
-0.3962 4.1815 -0.5095
-0.4644 4.2080 -0.5143
-0.5261 4.2569 -0.5234
-0.5971 4.2846 -0.5284
-0.6758 4.2902 -0.5293
-0.7660 4.2510 -0.5217
-0.8331 4.3012 -0.5310
-0.9541 4.0969 -0.4924
-1.0130 4.1822 -0.5083
-1.0757 4.2727 -0.5252
-1.1479 4.3233 -0.5345
-1.2306 4.2836 -0.5269
-1.3080 4.2890 -0.5277
-1.3847 4.3172 -0.5329
-1.4627 4.3454 -0.5380
-1.5397 4.2835 -0.5262
-1.6118 4.2035 -0.5110
-1.6429 3.6792 -0.4126
-1.6850 3.5239 -0.3833
