ply
format ascii 1.0
element vertex 2103
property float x
property float y
property float z
end_header
-3.5369 3.4502 0.5485
-3.5521 3.4594 0.5024
-3.5671 3.4236 0.4464
-3.5837 3.4800 0.4072
-3.5993 3.4589 0.3528
-3.6149 3.4379 0.2985
-3.6322 3.4633 0.2494
-3.6488 3.4576 0.1954
-3.6700 3.5352 0.1467
-3.7033 3.4902 0.0306
-3.7332 3.6468 -0.0269
-3.7080 2.6257 -0.1889
-3.7186 2.6030 -0.2279
-3.7354 2.6328 -0.2741
-3.7910 2.7260 -0.4281
-3.8136 2.7730 -0.4887
-3.8316 2.7845 -0.5430
-3.8467 2.7761 -0.5927
-3.8419 2.6573 -0.6055
-3.8222 2.4713 -0.5874
-3.8244 2.4099 -0.6088
-3.8131 2.2891 -0.6016
-3.8087 2.2091 -0.6066
-3.8018 2.1242 -0.6048
-3.7929 2.0372 -0.5971
-3.7805 1.9024 -0.5896
-3.7705 1.7941 -0.5838
-3.7663 1.7175 -0.5884
-3.7584 1.6649 -0.5760
-3.7586 1.6395 -0.5827
-3.7585 1.6146 -0.5883
-3.7573 1.5877 -0.5906
-3.7539 1.5565 -0.5872
-3.7555 1.5399 -0.5964
-3.7465 1.4793 -0.5821
-3.7457 1.4601 -0.5842
-3.7430 1.4375 -0.5810
-3.7437 1.4234 -0.5867
-3.7422 1.4051 -0.5862
-3.7394 1.3850 -0.5820
-3.7367 1.3661 -0.5778
-3.7392 1.3579 -0.5878
-3.7371 1.3416 -0.5851
-3.7356 1.3269 -0.5838
-3.7343 1.3132 -0.5828
-3.7328 1.2997 -0.5812
-3.7327 1.2891 -0.5834
-3.7329 1.2793 -0.5864
-3.7309 1.2665 -0.5830
-3.5796 3.5729 0.6381
-3.5944 3.5195 0.5760
-3.6102 3.5141 0.5257
-3.6257 3.4932 0.4717
-3.6432 3.5201 0.4263
-3.6615 3.5486 0.3792
-3.6748 3.4774 0.3162
-3.6916 3.4720 0.2630
-3.7192 3.6198 0.2241
-3.7463 3.7289 0.1749
-3.8142 4.3035 0.1450
-3.7622 2.8361 -0.1511
-3.7621 2.7202 -0.1868
-3.7753 2.7123 -0.2298
-3.7924 2.7299 -0.2766
-3.8088 2.7398 -0.3240
-3.8273 2.7593 -0.3746
-3.8449 2.7700 -0.4253
-3.8647 2.7902 -0.4799
-3.9050 2.8233 -0.5932
-3.8968 2.6999 -0.6064
-3.8695 2.4986 -0.5852
-3.8688 2.4292 -0.6045
-3.8489 2.2845 -0.5885
-3.8416 2.2007 -0.5920
-3.8290 2.0573 -0.5978
-3.8134 1.9217 -0.5920
-3.8015 1.8143 -0.5888
-3.7930 1.7295 -0.5892
-3.7844 1.6782 -0.5787
-3.7826 1.6485 -0.5824
-3.7820 1.6234 -0.5883
-3.7757 1.5851 -0.5808
-3.7727 1.5570 -0.5804
-3.7767 1.5467 -0.5958
-3.7707 1.5140 -0.5877
-3.7671 1.4881 -0.5846
-3.7617 1.4596 -0.5768
-3.7630 1.4467 -0.5850
-3.7568 1.4046 -0.5788
-3.7580 1.3931 -0.5861
-3.7528 1.3704 -0.5773
-3.7541 1.3601 -0.5844
-3.7540 1.3478 -0.5880
-3.7501 1.3297 -0.5816
-3.7484 1.3159 -0.5807
-3.7478 1.3043 -0.5825
-3.7466 1.2923 -0.5827
-3.7453 1.2806 -0.5822
-3.7465 1.2728 -0.5884
-3.6347 3.5016 0.6305
-3.6541 3.5772 0.6012
-3.6698 3.5560 0.5465
-3.6924 3.6529 0.5161
-3.7089 3.6307 0.4588
-3.7331 3.7177 0.4196
-3.8355 4.4653 0.3988
-3.8239 2.8354 -0.1854
-3.8397 2.8369 -0.2319
-3.8479 2.7915 -0.2733
-3.8639 2.7928 -0.3205
-3.9339 2.8091 -0.5226
-3.9496 2.8006 -0.5725
-3.9496 2.7254 -0.6013
-3.9088 2.4287 -0.5924
-3.9049 2.3575 -0.6078
-3.8883 2.2449 -0.6011
-3.8556 2.0430 -0.5806
-3.8544 2.0001 -0.5931
-3.8480 1.9437 -0.5956
-3.8307 1.8575 -0.5766
-3.8319 1.8303 -0.5907
-3.8193 1.7390 -0.5880
-3.8120 1.6941 -0.5831
-3.8079 1.6601 -0.5840
-3.8082 1.6381 -0.5931
-3.8027 1.6035 -0.5898
-3.7927 1.5417 -0.5836
-3.7889 1.4985 -0.5886
-3.7854 1.4751 -0.5871
-3.7812 1.4514 -0.5837
-3.7779 1.4304 -0.5818
-3.7771 1.4149 -0.5853
-3.7745 1.3968 -0.5844
-3.7729 1.3812 -0.5855
-3.7710 1.3658 -0.5859
-3.7660 1.3458 -0.5785
-3.7650 1.3331 -0.5804
-3.7635 1.3199 -0.5808
-3.7631 1.3090 -0.5838
-3.7598 1.2943 -0.5796
-3.7615 1.2870 -0.5873
-3.7583 1.2734 -0.5831
-3.7045 3.7285 0.7019
-3.7185 3.6702 0.6357
-3.7400 3.7200 0.5956
-3.7628 3.7734 0.5536
-3.8764 2.9622 -0.1350
-3.8665 2.8139 -0.1723
-3.8899 2.8545 -0.2219
-3.8990 2.8172 -0.2647
-3.9159 2.8194 -0.3125
-3.9394 2.8508 -0.3664
-3.9691 2.9054 -0.4278
-3.9983 2.9526 -0.4913
-4.0269 2.9916 -0.5565
-4.0357 2.9482 -0.6012
-3.9579 2.4615 -0.5928
-3.9253 2.2503 -0.5926
-3.8739 1.9713 -0.5681
-3.8832 1.9641 -0.5980
-3.8697 1.8941 -0.5902
-3.8585 1.8343 -0.5846
-3.8529 1.7919 -0.5872
-3.8508 1.7605 -0.5952
-3.8421 1.7144 -0.5905
-3.8326 1.6471 -0.5928
-3.8307 1.6220 -0.5985
-3.8194 1.5781 -0.5854
-3.8132 1.5470 -0.5814
-3.8157 1.5344 -0.5941
-3.8088 1.5043 -0.5876
-3.8017 1.4600 -0.5867
-3.8012 1.4448 -0.5922
-3.7946 1.4195 -0.5843
-3.7920 1.4020 -0.5845
-3.7891 1.3849 -0.5839
-3.7860 1.3680 -0.5825
-3.7846 1.3542 -0.5843
-3.7806 1.3372 -0.5803
-3.7801 1.3260 -0.5840
-3.7766 1.3110 -0.5807
-3.7769 1.3015 -0.5855
-3.7725 1.2863 -0.5798
-3.7730 1.2778 -0.5849
-4.2891 5.8288 0.3051
-3.9381 2.9408 -0.1697
-3.9427 2.8816 -0.2127
-3.9626 2.8941 -0.2620
-3.9735 2.8658 -0.3070
-3.9867 2.8479 -0.3533
-4.0490 2.9495 -0.4766
-4.0788 2.9878 -0.5408
-4.0869 2.9444 -0.5854
-4.0419 2.6594 -0.6033
-4.0030 2.4260 -0.6121
-3.9621 2.2128 -0.6050
-3.9372 2.1027 -0.5908
-3.9201 2.0201 -0.5847
-3.9065 1.9204 -0.5969
-3.8872 1.8164 -0.5952
-3.8750 1.7624 -0.5883
-3.8692 1.7255 -0.5907
-3.8554 1.6520 -0.5891
-3.8417 1.5851 -0.5844
-3.8315 1.5148 -0.5915
-3.8222 1.4826 -0.5815
-3.8177 1.4603 -0.5801
-3.8133 1.4391 -0.5786
-3.8141 1.4271 -0.5869
-3.8097 1.4073 -0.5846
-3.8079 1.3922 -0.5871
-3.8044 1.3752 -0.5859
-3.8026 1.3613 -0.5880
-3.7963 1.3414 -0.5802
-3.7941 1.3281 -0.5808
-3.7948 1.3190 -0.5873
-3.7913 1.3048 -0.5847
-3.7876 1.2908 -0.5813
-4.0066 2.9512 -0.2069
-4.0149 2.9119 -0.2518
-4.0283 2.8938 -0.2985
-4.0557 2.9281 -0.3538
-4.1331 3.0651 -0.4878
-4.1874 3.1774 -0.5726
-4.1949 3.1282 -0.6209
-4.1006 2.7012 -0.6040
-4.0356 2.4065 -0.5925
-4.0000 2.2228 -0.5988
-3.9769 2.1242 -0.5912
-3.9567 2.0383 -0.5846
-3.9041 1.7994 -0.5754
-3.9006 1.7678 -0.5838
-3.9004 1.7443 -0.5964
-3.8884 1.6977 -0.5900
-3.8746 1.6494 -0.5794
-3.8507 1.5183 -0.5880
-3.8465 1.4961 -0.5890
-3.8357 1.4506 -0.5853
-3.8335 1.4214 -0.5958
-3.8250 1.3966 -0.5863
-3.8201 1.3781 -0.5834
-3.8180 1.3642 -0.5856
-3.8163 1.3511 -0.5882
-3.8107 1.3336 -0.5829
-3.8054 1.3170 -0.5777
-3.8036 1.3054 -0.5794
-3.8045 1.2973 -0.5862
-3.8019 1.2854 -0.5859
-4.0985 6.6001 1.9415
-4.0730 3.0925 -0.1546
-4.0658 2.9915 -0.1979
-4.2538 3.1369 -0.6073
-4.1523 2.7180 -0.5961
-4.0764 2.4125 -0.5832
-4.0179 2.1467 -0.5918
-4.0061 2.0849 -0.5987
-3.9711 1.9441 -0.5925
-3.9372 1.8189 -0.5798
-3.9218 1.7420 -0.5865
-3.9085 1.6752 -0.5924
-3.8996 1.6397 -0.5906
-3.8903 1.6050 -0.5872
-3.8704 1.5226 -0.5853
-3.8671 1.5026 -0.5889
-3.8601 1.4776 -0.5857
-3.8593 1.4629 -0.5927
-3.8512 1.4379 -0.5865
-3.8463 1.4186 -0.5856
-3.8444 1.4040 -0.5893
-3.8353 1.3804 -0.5799
-3.8318 1.3649 -0.5802
-3.8331 1.3561 -0.5889
-3.8287 1.3405 -0.5869
-3.8252 1.3265 -0.5864
-3.8193 1.3101 -0.5807
-3.8183 1.2999 -0.5843
-3.8177 1.2906 -0.5887
-4.8139 5.7293 -0.1631
-4.4646 3.7323 -0.5943
-4.4413 3.5821 -0.6344
-4.3332 3.2023 -0.6084
-4.2995 3.0454 -0.6263
-4.1672 2.5888 -0.5893
-4.1465 2.4912 -0.6010
-4.0636 2.1777 -0.5961
-4.0336 2.0779 -0.5852
-4.0153 2.0080 -0.5845
-3.9721 1.8403 -0.5850
-3.9608 1.7951 -0.5858
-3.9483 1.7498 -0.5840
-3.9432 1.7198 -0.5908
-3.9274 1.6718 -0.5819
-3.9131 1.6113 -0.5853
-3.9027 1.5618 -0.5916
-3.8948 1.5341 -0.5896
-3.8757 1.4771 -0.5783
-3.8751 1.4632 -0.5861
-3.8743 1.4494 -0.5934
-3.8680 1.4284 -0.5910
-3.8608 1.4071 -0.5866
-3.8561 1.3898 -0.5861
-3.8501 1.3714 -0.5827
-3.8472 1.3576 -0.5845
-3.8412 1.3405 -0.5805
-3.8397 1.3292 -0.5842
-3.8357 1.3154 -0.5831
-3.8352 1.3058 -0.5880
-4.8220 5.9829 0.3121
-4.8373 5.8757 0.1968
-4.8864 5.8958 0.0875
-4.8666 5.6690 -0.0252
-4.8482 5.4586 -0.1297
-4.7338 4.9407 -0.2124
-4.9080 5.3779 -0.3380
-4.9048 5.2348 -0.4326
-4.9340 5.1954 -0.5343
-4.5075 3.6586 -0.5608
-4.5341 3.6530 -0.6318
-4.3937 3.2112 -0.5945
-4.3512 3.0409 -0.6097
-4.2724 2.7892 -0.5913
-4.2330 2.6449 -0.5956
-4.1089 2.2388 -0.5738
-4.1143 2.2164 -0.6034
-4.0661 2.0827 -0.5778
-4.0564 2.0335 -0.5885
-4.0222 1.9127 -0.5889
-3.9939 1.8128 -0.5892
-3.9669 1.7233 -0.5854
-3.9467 1.6520 -0.5854
-3.9334 1.5971 -0.5913
-3.9246 1.5679 -0.5901
-3.9133 1.5361 -0.5845
-3.9049 1.5096 -0.5821
-3.9004 1.4898 -0.5851
-3.8952 1.4695 -0.5864
-3.8891 1.4489 -0.5859
-3.8879 1.4353 -0.5926
-3.8779 1.4109 -0.5849
-3.8728 1.3935 -0.5844
-3.8710 1.3808 -0.5891
-3.8649 1.3632 -0.5862
-3.8591 1.3468 -0.5835
-3.8574 1.3354 -0.5874
-3.8518 1.3201 -0.5843
-3.8486 1.3078 -0.5849
-3.8477 1.2984 -0.5895
-4.8779 6.0876 0.5643
-4.8751 5.9152 0.4396
-4.8096 5.5267 0.3044
-4.8543 5.5412 0.2056
-4.8839 5.5013 0.1026
-4.8789 5.2196 -0.1001
-4.8768 5.0884 -0.1947
-5.0379 5.4490 -0.3158
-5.0869 5.4623 -0.4260
-4.9594 4.9768 -0.4829
-4.9400 4.8113 -0.5614
-4.6143 3.6848 -0.6200
-4.4294 3.1009 -0.6107
-4.3146 2.7307 -0.6108
-4.2661 2.5781 -0.6079
-4.2035 2.4024 -0.5880
-4.1675 2.2905 -0.5849
-4.1360 2.1927 -0.5821
-4.1047 2.0995 -0.5761
-4.0916 2.0455 -0.5851
-4.0725 1.9824 -0.5862
-4.0653 1.9438 -0.5981
-4.0279 1.8306 -0.5925
-4.0084 1.7761 -0.5860
-4.0000 1.7422 -0.5912
-3.9659 1.6510 -0.5770
-3.9626 1.6291 -0.5855
-3.9390 1.5628 -0.5780
-3.9363 1.5445 -0.5855
-3.9218 1.4971 -0.5859
-3.9167 1.4775 -0.5884
-3.9120 1.4590 -0.5908
-3.9034 1.4363 -0.5870
-3.8981 1.4185 -0.5877
-3.8902 1.3980 -0.5837
-3.8850 1.3816 -0.5836
-3.8828 1.3690 -0.5878
-3.8773 1.3531 -0.5864
-3.8728 1.3388 -0.5862
-3.8695 1.3262 -0.5876
-3.8640 1.3118 -0.5851
-3.8623 1.3016 -0.5887
-4.8787 5.8333 0.6592
-4.8451 5.5685 0.5264
-4.8433 5.4254 0.4153
-4.7732 5.0628 0.2912
-4.7733 4.9442 0.1954
-4.7989 4.9097 0.1062
-4.9521 5.1408 -0.0750
-4.9481 5.0135 -0.1681
-5.0238 5.1127 -0.2698
-5.0687 5.1209 -0.3707
-5.0454 4.9476 -0.4546
-5.0395 4.8260 -0.5385
-4.6957 3.7169 -0.6078
-4.4997 3.1373 -0.6048
-4.3422 2.6929 -0.5852
-4.3227 2.6089 -0.6061
-4.2633 2.4476 -0.5936
-4.1839 2.2223 -0.5848
-4.1688 2.1628 -0.5963
-4.0842 1.9301 -0.5810
-4.0575 1.8398 -0.5898
-4.0468 1.8015 -0.5950
-4.0307 1.7561 -0.5930
-4.0017 1.6753 -0.5887
-3.9936 1.6464 -0.5923
-3.9815 1.6130 -0.5904
-3.9685 1.5795 -0.5862
-3.9638 1.5586 -0.5919
-3.9369 1.4959 -0.5777
-3.9362 1.4824 -0.5869
-3.9206 1.4395 -0.5841
-3.9187 1.4260 -0.5904
-3.9103 1.4055 -0.5868
-3.9041 1.3882 -0.5860
-3.8984 1.3719 -0.5854
-3.8978 1.3615 -0.5922
-3.8877 1.3416 -0.5840
-3.8847 1.3296 -0.5866
-3.8823 1.3185 -0.5897
-3.8818 1.3096 -0.5958
-5.0280 5.9715 0.7031
-4.9528 5.5844 0.5511
-4.8726 5.2008 0.4140
-4.8848 5.1204 0.3173
-4.8287 4.8386 0.2097
-4.8944 4.9238 0.1282
-4.9199 4.8892 0.0390
-5.0058 5.0207 -0.0508
-5.1175 5.2125 -0.1500
-5.0757 4.9919 -0.2390
-5.1376 5.0443 -0.3396
-5.1652 5.0071 -0.4357
-5.2302 5.0602 -0.5430
-4.7687 3.7276 -0.5911
-4.4069 2.6915 -0.6216
-4.3189 2.4807 -0.5941
-4.2333 2.2521 -0.5872
-4.2159 2.1903 -0.5988
-4.1792 2.0973 -0.5917
-4.1530 2.0260 -0.5908
-4.1145 1.9370 -0.5760
-4.1117 1.9096 -0.5927
-4.0857 1.8464 -0.5854
-4.0741 1.8079 -0.5909
-4.0455 1.7269 -0.5925
-4.0219 1.6752 -0.5809
-4.0177 1.6529 -0.5901
-4.0067 1.6219 -0.5906
-3.9712 1.5321 -0.5836
-3.9603 1.4928 -0.5912
-3.9580 1.4778 -0.5985
-3.9425 1.4480 -0.5874
-3.9337 1.4270 -0.5848
-3.9268 1.4085 -0.5841
-3.9182 1.3791 -0.5889
-3.9105 1.3616 -0.5858
-3.9103 1.3521 -0.5933
-3.9029 1.3358 -0.5898
-3.8953 1.3199 -0.5855
-5.4386 0.5640 0.2653
-5.4253 0.5874 0.2658
-5.3998 0.6109 0.2639
-5.2645 0.7480 0.2556
-5.2290 0.7683 0.2513
-5.2099 0.7905 0.2505
-5.1896 0.8123 0.2495
-5.1695 0.8340 0.2484
-5.1530 0.8564 0.2482
-5.1097 0.8984 0.2453
-5.1034 0.9234 0.2474
-5.0836 0.9447 0.2464
-5.0639 0.9659 0.2453
-5.0325 0.9826 0.2414
-5.0342 1.0115 0.2457
-5.0146 1.0325 0.2446
-4.9757 1.0446 0.2385
-4.9627 1.0678 0.2391
-4.9357 1.0840 0.2359
-4.9325 1.1124 0.2391
-4.9163 1.1342 0.2389
-4.8908 1.1503 0.2360
-4.8748 1.1719 0.2357
-4.8589 1.1935 0.2355
-4.8402 1.2132 0.2345
-4.8287 1.2380 0.2355
-4.8016 1.2507 0.2319
-4.7725 1.2956 0.2322
-4.7502 1.3110 0.2298
-4.7282 1.3260 0.2275
-4.7250 1.3986 0.2368
-4.7155 1.4280 0.2389
-6.2401 4.4113 0.9503
-6.1316 4.4125 0.9288
-6.0063 4.3738 0.8985
-5.9474 4.4535 0.8976
-5.8697 4.4941 0.8876
-5.4373 0.5595 0.2376
-5.4335 0.5829 0.2398
-5.3730 0.6299 0.2347
-5.3332 0.6764 0.2332
-5.3250 0.7003 0.2346
-5.2950 0.7226 0.2319
-5.2629 0.7441 0.2288
-5.2274 0.7646 0.2249
-5.2010 0.7857 0.2227
-5.1904 0.8092 0.2236
-5.1714 0.8313 0.2229
-5.1474 0.8784 0.2243
-5.1216 0.8987 0.2222
-5.0982 0.9193 0.2205
-5.0817 0.9416 0.2202
-5.0500 0.9588 0.2166
-5.0305 0.9797 0.2156
-5.0064 1.0271 0.2171
-4.9880 1.0483 0.2164
-4.9496 1.0599 0.2108
-4.9435 1.0865 0.2130
-4.9390 1.1146 0.2156
-4.9141 1.1318 0.2132
-4.8904 1.1491 0.2111
-4.8744 1.1708 0.2108
-4.8628 1.1956 0.2118
-4.8467 1.2174 0.2116
-4.8236 1.2340 0.2094
-4.8034 1.2522 0.2080
-4.7792 1.2667 0.2054
-4.7650 1.2895 0.2056
-4.7493 1.3108 0.2054
-4.7272 1.3260 0.2033
-4.7282 1.4035 0.2129
-4.7103 1.4239 0.2122
-4.6897 1.4409 0.2106
-6.1584 4.4797 0.8479
-5.9877 4.3590 0.8023
-5.8898 4.3614 0.7849
-5.8140 4.4017 0.7762
-6.1178 5.2727 0.9377
-5.4813 0.5300 0.2145
-5.4400 0.5548 0.2105
-5.4402 0.5782 0.2131
-5.3848 0.6022 0.2067
-5.3835 0.6259 0.2091
-5.3752 0.6498 0.2103
-5.3330 0.6723 0.2060
-5.3029 0.6948 0.2035
-5.2934 0.7186 0.2046
-5.2849 0.7428 0.2058
-5.2516 0.7642 0.2028
-5.2273 0.7863 0.2012
-5.2031 0.8080 0.1997
-5.1685 0.8275 0.1962
-5.1519 0.8501 0.1960
-5.1260 0.8704 0.1940
-5.1163 0.8945 0.1950
-5.1119 0.9205 0.1971
-5.0798 0.9385 0.1939
-5.0719 0.9638 0.1953
-5.0238 1.0033 0.1919
-4.9909 1.0478 0.1914
-4.9685 1.0673 0.1899
-4.9501 1.0884 0.1892
-4.9203 1.1032 0.1860
-4.9279 1.1385 0.1910
-4.9086 1.1592 0.1902
-4.8693 1.1668 0.1846
-4.8577 1.1916 0.1854
-4.8442 1.2153 0.1858
-4.8307 1.2391 0.1862
-4.7958 1.2462 0.1814
-4.7800 1.2677 0.1811
-4.7706 1.2949 0.1826
-4.7269 1.3267 0.1790
-4.7230 1.3994 0.1862
-4.7052 1.4198 0.1855
-4.6903 1.4436 0.1857
-6.2751 4.5071 0.7732
-6.1625 4.5067 0.7549
-6.0111 4.4239 0.7215
-5.8911 4.3859 0.6981
-5.7780 4.3497 0.6759
-5.9113 4.8465 0.7512
-5.4576 0.5264 0.1829
-5.4482 0.5499 0.1838
-5.4401 0.5736 0.1849
-5.3995 0.5978 0.1814
-5.3700 0.6214 0.1794
-5.3566 0.6450 0.1797
-5.3224 0.6677 0.1770
-5.3014 0.6908 0.1762
-5.2968 0.7150 0.1778
-5.2906 0.7396 0.1792
-5.2328 0.7836 0.1751
-5.2013 0.8044 0.1726
-5.1879 0.8280 0.1729
-5.1570 0.8481 0.1704
-5.1573 0.8748 0.1730
-5.1167 0.8918 0.1688
-5.0944 0.9128 0.1676
-5.0713 0.9333 0.1663
-5.0666 0.9596 0.1681
-5.0562 0.9844 0.1689
-5.0155 0.9979 0.1644
-4.9917 1.0464 0.1656
-4.9613 1.0622 0.1628
-4.9450 1.0843 0.1625
-4.9172 1.1002 0.1601
-4.9095 1.1269 0.1615
-4.8960 1.1506 0.1618
-4.8597 1.1599 0.1575
-4.8509 1.1863 0.1587
-4.8444 1.2150 0.1605
-4.8349 1.2422 0.1617
-4.8068 1.2550 0.1589
-4.7799 1.2678 0.1563
-4.7655 1.2909 0.1564
-4.7480 1.3110 0.1558
-4.7320 1.3326 0.1556
-4.7304 1.3692 0.1588
-4.7163 1.3936 0.1591
-5.9115 4.4491 0.6156
-5.8327 4.4888 0.6082
-5.3218 5.9126 0.6693
-5.4645 0.5213 0.1557
-5.4344 0.5458 0.1539
-5.4290 0.5693 0.1551
-5.3993 0.5934 0.1534
-5.3856 0.6172 0.1536
-5.3641 0.6410 0.1529
-5.3298 0.6640 0.1505
-5.3162 0.6877 0.1507
-5.3226 0.7133 0.1535
-5.3049 0.7373 0.1533
-5.2835 0.7608 0.1525
-5.2466 0.7820 0.1497
-5.2185 0.8038 0.1480
-5.2082 0.8285 0.1487
-5.1943 0.8527 0.1489
-5.1883 0.8789 0.1503
-5.1282 0.8919 0.1439
-5.0947 0.9102 0.1413
-5.0661 0.9291 0.1393
-5.0613 0.9554 0.1408
-5.0341 1.0029 0.1412
-5.0082 1.0219 0.1396
-4.9915 1.0444 0.1393
-4.9729 1.0660 0.1388
-4.9505 1.0856 0.1376
-4.9340 1.1079 0.1373
-4.9174 1.1302 0.1371
-4.8798 1.1398 0.1332
-4.8547 1.1558 0.1314
-4.8418 1.2128 0.1344
-4.8230 1.2329 0.1337
-4.8092 1.2569 0.1339
-4.7945 1.2804 0.1340
-4.7653 1.2911 0.1312
-4.7343 1.2989 0.1281
-4.7308 1.3324 0.1303
-4.7171 1.3960 0.1337
-4.6963 1.4133 0.1325
-6.3682 4.7057 0.5981
-6.1228 4.4751 0.5498
-5.8543 4.3566 0.5076
-5.7774 4.3959 0.5013
-5.2514 5.3700 0.5143
-5.1547 5.3032 0.4971
-5.0964 5.3821 0.4963
-5.0273 5.4108 0.4901
-4.9504 5.3927 0.4793
-5.4234 0.5648 0.1262
-5.4150 0.5887 0.1269
-5.3932 0.6129 0.1262
-5.3585 0.6365 0.1242
-5.3282 0.6598 0.1226
-5.3145 0.6836 0.1227
-5.2971 0.7072 0.1224
-5.2919 0.7321 0.1235
-5.2585 0.7540 0.1215
-5.2255 0.7754 0.1195
-5.2237 0.8012 0.1210
-5.1993 0.8235 0.1199
-5.1923 0.8490 0.1209
-5.1612 0.8696 0.1190
-5.1328 0.8901 0.1174
-5.1157 0.9133 0.1172
-5.0624 0.9533 0.1143
-5.0550 0.9793 0.1152
-5.0381 1.0023 0.1150
-5.0151 1.0227 0.1140
-4.9813 1.0380 0.1115
-4.9676 1.0618 0.1116
-4.9453 1.0814 0.1106
-4.9259 1.1022 0.1100
-4.9039 1.1213 0.1089
-4.8957 1.1484 0.1099
-4.8711 1.1656 0.1085
-4.8381 1.1764 0.1058
-4.8384 1.2099 0.1080
-4.8220 1.2320 0.1077
-4.8040 1.2528 0.1072
-4.7804 1.2687 0.1058
-4.7539 1.2814 0.1039
-4.7457 1.3103 0.1050
-4.7280 1.3306 0.1045
-4.7060 1.3462 0.1032
-5.8169 4.3034 0.4079
-5.8338 4.5412 0.4250
-5.8726 4.8460 0.4487
-5.7695 4.8373 0.4376
-5.3958 5.6448 0.4515
-5.2194 5.3047 0.4115
-5.1363 5.2885 0.4019
-5.0780 5.3674 0.4010
-4.9991 5.3491 0.3918
-4.9514 5.4744 0.3950
-5.4354 0.5135 0.0963
-5.4491 0.5358 0.0986
-5.4594 0.5591 0.1006
-5.4319 0.5839 0.0995
-5.4098 0.6085 0.0989
-5.3866 0.6328 0.0982
-5.3647 0.6571 0.0976
-5.3291 0.6804 0.0959
-5.3164 0.7047 0.0960
-5.2900 0.7280 0.0950
-5.2651 0.7511 0.0941
-5.2630 0.7770 0.0952
-5.2334 0.7992 0.0939
-5.2042 0.8210 0.0926
-5.1833 0.8439 0.0920
-5.1659 0.8675 0.0918
-5.1485 0.8911 0.0915
-5.0836 0.9292 0.0881
-5.0698 0.9532 0.0881
-5.0528 0.9762 0.0879
-5.0358 0.9992 0.0876
-5.0188 1.0222 0.0874
-4.9760 1.0339 0.0844
-4.9702 1.0613 0.0853
-4.9477 1.0811 0.0844
-4.9235 1.0996 0.0834
-4.9015 1.1188 0.0825
-4.8823 1.1394 0.0820
-4.8740 1.1666 0.0826
-4.8575 1.1890 0.0824
-4.8358 1.2076 0.0815
-4.8169 1.2279 0.0810
-4.7914 1.2428 0.0796
-4.7825 1.2708 0.0803
-4.7591 1.2866 0.0792
-4.7429 1.3085 0.0789
-4.7245 1.3281 0.0784
-5.8741 4.6537 0.3380
-5.9617 5.0782 0.3663
-5.9639 5.3361 0.3793
-5.8058 5.2057 0.3598
-5.8026 5.4656 0.3725
-5.7989 5.7440 0.3860
-5.3753 5.6285 0.3454
-5.1880 5.2411 0.3108
-5.1179 5.2739 0.3067
-5.0382 5.2574 0.2993
-4.9712 5.2877 0.2953
-4.9239 5.4120 0.2976
-5.4943 0.5049 0.0715
-5.4814 0.5294 0.0716
-5.4256 0.5555 0.0690
-5.4037 0.5798 0.0685
-5.3859 0.6039 0.0683
-5.3642 0.6280 0.0678
-5.3540 0.6524 0.0680
-5.3411 0.6769 0.0680
-5.3182 0.7008 0.0674
-5.2930 0.7243 0.0667
-5.2667 0.7475 0.0659
-5.2609 0.7730 0.0664
-5.2349 0.7959 0.0656
-5.2022 0.8172 0.0643
-5.1846 0.8409 0.0640
-5.1861 0.8688 0.0651
-5.1364 0.8850 0.0626
-5.1191 0.9085 0.0623
-5.1049 0.9329 0.0623
-5.0939 0.9584 0.0625
-5.0599 0.9762 0.0610
-5.0304 0.9949 0.0598
-5.0104 1.0167 0.0594
-4.9787 1.0331 0.0580
-4.9513 1.0508 0.0569
-4.9424 1.0769 0.0573
-4.9099 1.0910 0.0557
-4.9073 1.1209 0.0566
-4.8907 1.1434 0.0564
-4.8661 1.1608 0.0554
-4.8496 1.1830 0.0552
-4.8332 1.2053 0.0550
-4.8142 1.2257 0.0545
-4.7888 1.2407 0.0534
-4.7726 1.2626 0.0532
-4.7587 1.2867 0.0532
-4.7447 1.3109 0.0531
-4.7156 1.3203 0.0517
-5.8757 4.4700 0.2321
-5.3430 5.2595 0.2265
-5.2160 5.1015 0.2132
-5.1457 5.1331 0.2100
-5.0880 5.2112 0.2091
-5.0516 5.3856 0.2129
-5.0032 5.5163 0.2144
-4.9245 5.4959 0.2088
-5.4939 0.4999 0.0419
-5.4473 0.5262 0.0404
-5.4293 0.5506 0.0402
-5.4020 0.5752 0.0395
-5.3984 0.5994 0.0399
-5.3803 0.6238 0.0396
-5.3660 0.6484 0.0395
-5.3392 0.6725 0.0388
-5.3261 0.6973 0.0388
-5.3116 0.7220 0.0387
-5.2767 0.7447 0.0377
-5.2399 0.7665 0.0366
-5.2374 0.7926 0.0370
-5.2196 0.8168 0.0367
-5.1904 0.8387 0.0359
-5.1694 0.8619 0.0355
-5.1583 0.8874 0.0356
-5.1341 0.9096 0.0350
-5.1027 0.9294 0.0341
-5.0915 0.9550 0.0341
-5.0678 0.9766 0.0336
-5.0413 0.9967 0.0329
-5.0170 1.0172 0.0323
-5.0097 1.0447 0.0325
-4.9400 1.0741 0.0302
-4.9148 1.1240 0.0301
-4.8926 1.1435 0.0296
-4.8732 1.1645 0.0292
-4.8496 1.1824 0.0286
-4.8331 1.2048 0.0283
-4.8140 1.2253 0.0280
-4.7950 1.2457 0.0276
-4.7738 1.2640 0.0270
-4.7574 1.2861 0.0268
-4.7525 1.3190 0.0272
-4.7083 1.3140 0.0253
-5.7713 6.0786 0.1606
-5.5341 5.6496 0.1426
-5.3529 5.3463 0.1293
-5.1976 5.0868 0.1180
-5.1393 5.1657 0.1171
-5.0698 5.1967 0.1149
-4.9921 5.1827 0.1114
-4.9450 5.3060 0.1118
-4.8967 5.4309 0.1123
-5.5072 0.4939 0.0122
-5.4845 0.5193 0.0119
-5.4567 0.5448 0.0114
-5.4108 0.5704 0.0106
-5.3784 0.6193 0.0101
-5.3515 0.6436 0.0097
-5.3422 0.6684 0.0096
-5.3118 0.6921 0.0091
-5.3144 0.7182 0.0092
-5.2878 0.7420 0.0088
-5.2308 0.7616 0.0077
-5.2132 0.7854 0.0074
-5.2174 0.8129 0.0076
-5.1814 0.8336 0.0070
-5.1893 0.8630 0.0072
-5.1495 0.8821 0.0065
-5.1178 0.9023 0.0060
-5.1109 0.9291 0.0059
-5.0995 0.9549 0.0058
-5.0890 0.9814 0.0057
-5.0550 0.9995 0.0051
-5.0334 1.0217 0.0047
-5.0013 1.0391 0.0041
-4.9402 1.1043 0.0032
-4.9177 1.1243 0.0028
-4.8980 1.1457 0.0025
-4.8732 1.1636 0.0021
-4.8538 1.1846 0.0017
-4.8303 1.2025 0.0013
-4.8137 1.2249 0.0011
-4.7947 1.2455 0.0008
-4.7758 1.2659 0.0005
-4.7616 1.2903 0.0003
-4.7359 1.3041 -0.0002
-4.7158 1.3226 -0.0005
-4.7293 1.4176 0.0001
-5.5686 5.8178 0.0333
-5.3184 5.2789 0.0263
-5.1792 5.0721 0.0227
-5.1322 5.1966 0.0223
-5.0626 5.2299 0.0210
-4.9939 5.2602 0.0197
-4.9176 5.2450 0.0182
-4.8698 5.3689 0.0177
-5.5067 0.4888 -0.0182
-5.4364 0.5650 -0.0190
-5.4037 0.5901 -0.0192
-5.3905 0.6149 -0.0195
-5.3721 0.6398 -0.0198
-5.3327 0.6637 -0.0200
-5.3183 0.6884 -0.0203
-5.3170 0.7143 -0.0206
-5.2654 0.7357 -0.0208
-5.2475 0.7600 -0.0211
-5.2423 0.7860 -0.0214
-5.2276 0.8111 -0.0217
-5.2016 0.8341 -0.0219
-5.1549 0.8523 -0.0221
-5.1471 0.8785 -0.0224
-5.1337 0.9036 -0.0227
-5.1117 0.9265 -0.0229
-5.0877 0.9485 -0.0231
-5.0670 0.9713 -0.0234
-5.0190 1.0137 -0.0238
-5.0075 1.0398 -0.0241
-4.9814 1.0594 -0.0243
-4.9669 1.0842 -0.0246
-4.9496 1.1077 -0.0249
-4.9204 1.1246 -0.0250
-4.9033 1.1478 -0.0253
-4.8922 1.1749 -0.0256
-4.8613 1.1891 -0.0257
-4.8393 1.2085 -0.0259
-4.8150 1.2257 -0.0261
-4.7983 1.2484 -0.0264
-4.7792 1.2691 -0.0266
-4.7586 1.2882 -0.0268
-4.7307 1.3000 -0.0269
-4.7063 1.3141 -0.0270
-4.7238 1.4132 -0.0282
-5.6796 5.9018 -0.0833
-5.4912 5.6153 -0.0796
-5.2577 5.1166 -0.0733
-5.1849 5.1494 -0.0736
-5.0803 5.0454 -0.0722
-5.0334 5.1676 -0.0736
-4.9469 5.1099 -0.0728
-4.9180 5.3238 -0.0754
-5.5103 0.4834 -0.0489
-5.4543 0.5351 -0.0490
-5.4071 0.5610 -0.0487
-5.3890 0.5856 -0.0489
-5.3758 0.6103 -0.0493
-5.3576 0.6350 -0.0496
-5.3184 0.6588 -0.0494
-5.3126 0.6838 -0.0499
-5.2741 0.7067 -0.0497
-5.2763 0.7329 -0.0505
-5.2582 0.7574 -0.0508
-5.2400 0.7820 -0.0510
-5.2140 0.8052 -0.0511
-5.1960 0.8296 -0.0513
-5.1856 0.8556 -0.0518
-5.1567 0.8776 -0.0518
-5.1387 0.9019 -0.0521
-5.1103 0.9232 -0.0520
-5.0790 0.9431 -0.0518
-5.0675 0.9690 -0.0523
-5.0399 0.9892 -0.0522
-5.0194 1.0117 -0.0524
-5.0212 1.0436 -0.0533
-4.9940 1.0634 -0.0533
-4.9670 1.0826 -0.0532
-4.9523 1.1077 -0.0535
-4.9348 1.1314 -0.0538
-4.9120 1.1519 -0.0539
-4.8946 1.1755 -0.0541
-4.8771 1.1991 -0.0544
-4.8464 1.2131 -0.0541
-4.8122 1.2234 -0.0536
-4.7882 1.2404 -0.0535
-4.7700 1.2616 -0.0537
-4.7549 1.2854 -0.0540
-4.7345 1.3044 -0.0541
-4.7225 1.4135 -0.0568
-5.8597 4.3267 -0.1641
-5.9001 4.6224 -0.1733
-5.4874 5.6584 -0.1928
-5.2654 5.1977 -0.1748
-5.1911 5.2312 -0.1741
-5.0413 4.9442 -0.1627
-4.9950 5.0635 -0.1649
-4.9293 5.0958 -0.1643
-4.8908 5.2629 -0.1681
-5.4066 0.5563 -0.0786
-5.3973 0.5808 -0.0793
-5.3927 0.6057 -0.0802
-5.3605 0.6305 -0.0798
-5.3372 0.6552 -0.0799
-5.3105 0.6795 -0.0797
-5.2887 0.7038 -0.0798
-5.2623 0.7275 -0.0797
-5.2524 0.7529 -0.0804
-5.2343 0.7774 -0.0806
-5.2083 0.8007 -0.0805
-5.1825 0.8236 -0.0804
-5.1799 0.8510 -0.0815
-5.1510 0.8731 -0.0811
-5.1288 0.8963 -0.0812
-5.1109 0.9205 -0.0814
-5.0868 0.9428 -0.0813
-5.0751 0.9689 -0.0820
-5.0572 0.9932 -0.0822
-5.0168 1.0085 -0.0811
-5.0089 1.0363 -0.0820
-4.9884 1.0589 -0.0821
-4.9615 1.0782 -0.0817
-4.9586 1.1095 -0.0830
-4.9355 1.1305 -0.0829
-4.9117 1.1507 -0.0827
-4.8916 1.1728 -0.0828
-4.8666 1.1913 -0.0825
-4.8435 1.2106 -0.0823
-4.7901 1.2419 -0.0813
-4.7663 1.2587 -0.0809
-4.7481 1.2799 -0.0811
-4.7375 1.3080 -0.0818
-4.6903 1.3001 -0.0794
-5.8806 4.3919 -0.2687
-5.5600 5.9640 -0.3236
-5.3638 5.6134 -0.2994
-5.2108 5.3681 -0.2818
-5.1354 5.4001 -0.2798
-5.0852 5.5380 -0.2837
-5.0224 5.6230 -0.2846
-4.9813 5.8221 -0.2915
-4.9276 5.9697 -0.2956
-5.5238 0.4717 -0.1118
-5.5457 0.4947 -0.1146
-5.4804 0.5237 -0.1120
-5.4054 0.5759 -0.1102
-5.3731 0.6011 -0.1095
-5.3634 0.6261 -0.1104
-5.3534 0.6514 -0.1113
-5.3228 0.6759 -0.1107
-5.2996 0.7005 -0.1106
-5.2894 0.7261 -0.1115
-5.2432 0.7479 -0.1097
-5.2286 0.7729 -0.1103
-5.2104 0.7974 -0.1105
-5.1956 0.8225 -0.1111
-5.1589 0.8433 -0.1099
-5.1378 0.8668 -0.1099
-5.1021 0.9151 -0.1104
-5.0843 0.9393 -0.1107
-5.0694 0.9644 -0.1112
-5.0417 0.9851 -0.1106
-5.0336 1.0129 -0.1117
-5.0100 1.0347 -0.1115
-4.9950 1.0600 -0.1120
-4.9744 1.0828 -0.1120
-4.9476 1.1022 -0.1114
-4.9326 1.1275 -0.1119
-4.9149 1.1515 -0.1122
-4.8947 1.1738 -0.1122
-4.8745 1.1959 -0.1122
-4.8512 1.2156 -0.1118
-4.8241 1.2320 -0.1110
-4.8037 1.2528 -0.1109
-4.7842 1.2741 -0.1109
-4.7521 1.3226 -0.1117
-4.7032 1.3141 -0.1079
-6.0522 4.3296 -0.3801
-5.8426 4.1384 -0.3545
-5.7831 4.2189 -0.3554
-5.4271 6.2892 -0.4567
-5.2082 5.7783 -0.4112
-5.0654 5.5222 -0.3862
-4.9916 5.5525 -0.3831
-4.9504 5.7490 -0.3922
-4.8968 5.8928 -0.3973
-5.5342 0.4902 -0.1463
-5.5147 0.5166 -0.1465
-5.4553 0.5447 -0.1434
-5.4312 0.5706 -0.1433
-5.4223 0.5962 -0.1444
-5.3986 0.6483 -0.1463
-5.3068 0.6968 -0.1419
-5.3046 0.7234 -0.1437
-5.2617 0.7461 -0.1416
-5.2262 0.7688 -0.1402
-5.2248 0.7960 -0.1422
-5.2140 0.8223 -0.1433
-5.1793 0.8441 -0.1418
-5.1695 0.8708 -0.1430
-5.1248 0.8891 -0.1404
-5.1068 0.9135 -0.1407
-5.0817 0.9357 -0.1402
-5.0847 0.9669 -0.1429
-5.0361 0.9806 -0.1396
-5.0183 1.0046 -0.1398
-5.0139 1.0342 -0.1417
-5.0024 1.0615 -0.1428
-4.9743 1.0810 -0.1418
-4.9510 1.1025 -0.1414
-4.9296 1.1246 -0.1412
-4.9119 1.1486 -0.1414
-4.8916 1.1710 -0.1413
-4.8714 1.1932 -0.1413
-4.8514 1.2153 -0.1412
-4.8306 1.2367 -0.1410
-4.8131 1.2604 -0.1412
-4.7910 1.2802 -0.1408
-4.7713 1.3017 -0.1407
-4.7422 1.3141 -0.1390
-5.8048 4.0868 -0.4472
-5.8021 4.2808 -0.4619
-5.9494 4.8108 -0.5158
-5.6288 5.9652 -0.5761
-5.5335 5.9965 -0.5700
-5.4405 6.0263 -0.5640
-5.2692 5.7310 -0.5260
-5.1333 5.5292 -0.4983
-5.0120 5.3498 -0.4737
-4.9412 5.3816 -0.4698
-4.8904 5.5142 -0.4755
-4.8209 5.5443 -0.4716
-5.4891 0.5129 -0.1764
-5.4889 0.5382 -0.1788
-5.4404 0.5654 -0.1759
-5.4262 0.5913 -0.1767
-5.4217 0.6175 -0.1787
-5.3974 0.6436 -0.1784
-5.3351 0.6944 -0.1762
-5.2890 0.7451 -0.1758
-5.2656 0.7701 -0.1755
-5.2545 0.7968 -0.1768
-5.1743 0.8686 -0.1745
-5.1268 0.9161 -0.1737
-5.1003 0.9386 -0.1728
-5.0750 0.9610 -0.1721
-5.0510 0.9835 -0.1715
-5.0194 1.0028 -0.1698
-5.0176 1.0337 -0.1725
-4.9902 1.0540 -0.1713
-4.9750 1.0796 -0.1720
-4.9507 1.1008 -0.1713
-4.9063 1.1441 -0.1704
-4.8886 1.1681 -0.1707
-4.8708 1.1921 -0.1709
-4.8482 1.2126 -0.1703
-4.8282 1.2347 -0.1701
-4.8075 1.2560 -0.1698
-4.7931 1.2823 -0.1707
-4.7636 1.2954 -0.1686
-4.7485 1.3209 -0.1693
-4.7268 1.3401 -0.1687
-4.7227 1.3774 -0.1717
-4.7180 1.4156 -0.1748
-4.6981 1.4375 -0.1746
-6.4518 3.8490 -0.5970
-6.4141 3.9768 -0.6047
-6.2944 3.9883 -0.5924
-6.2295 4.0761 -0.5934
-6.2149 4.2465 -0.6077
-6.0530 4.1710 -0.5825
-5.8645 4.0280 -0.5480
-5.8243 4.1459 -0.5546
-5.8217 4.3451 -0.5730
-5.8190 4.5578 -0.5926
-5.2912 5.2017 -0.5939
-5.1878 5.1359 -0.5762
-5.1387 5.2693 -0.5832
-5.0536 5.2523 -0.5721
-4.9823 5.2851 -0.5672
-4.8938 5.2208 -0.5512
-4.8268 5.2512 -0.5466
-4.7851 5.4265 -0.5584
-5.4433 0.5351 -0.2056
-5.4582 0.5599 -0.2104
-5.4350 0.5863 -0.2101
-5.4155 0.6126 -0.2104
-5.3864 0.6386 -0.2094
-5.3671 0.6647 -0.2097
-5.3525 0.6912 -0.2106
-5.3285 0.7170 -0.2103
-5.2865 0.7407 -0.2072
-5.2765 0.7675 -0.2088
-5.2485 0.7920 -0.2078
-5.2469 0.8207 -0.2107
-5.1838 0.8381 -0.2041
-5.1684 0.8639 -0.2049
-5.1467 0.8883 -0.2047
-5.1169 0.9103 -0.2031
-5.0841 0.9613 -0.2043
-5.0579 0.9835 -0.2033
-5.0205 1.0009 -0.2001
-5.0053 1.0263 -0.2009
-4.9809 1.0478 -0.2000
-4.9575 1.0694 -0.1992
-4.9451 1.0963 -0.2005
-4.9332 1.1239 -0.2020
-4.9067 1.1432 -0.2006
-4.8830 1.1636 -0.1996
-4.8628 1.1860 -0.1994
-4.8427 1.2082 -0.1991
-4.8227 1.2303 -0.1989
-4.8074 1.2559 -0.1996
-4.7898 1.2798 -0.1999
-4.7625 1.2950 -0.1979
-4.7567 1.3295 -0.2010
-4.7213 1.3774 -0.2015
-4.7150 1.4142 -0.2047
-4.6970 1.4385 -0.2050
-5.9417 3.4811 -0.5992
-5.7930 3.7370 -0.6075
-5.6483 3.8249 -0.5977
-5.6410 3.9975 -0.6159
-5.6005 4.1089 -0.6227
-5.5279 4.1505 -0.6176
-5.4714 4.2271 -0.6184
-5.4433 4.3780 -0.6314
-5.3856 4.4560 -0.6322
-5.3017 4.4567 -0.6210
-5.2451 4.5332 -0.6218
-5.2005 4.6500 -0.6287
-5.1434 4.7273 -0.6296
-5.0754 4.7628 -0.6243
-5.0188 4.8393 -0.6252
-4.9623 4.9158 -0.6260
-4.9149 5.0365 -0.6330
-4.8491 5.0689 -0.6277
-4.7621 4.9723 -0.6053
-5.4620 0.5546 -0.2437
-5.4325 0.5813 -0.2425
-5.4289 0.6077 -0.2453
-5.3803 0.6338 -0.2409
-5.3468 0.6593 -0.2389
-5.3464 0.6863 -0.2423
-5.3351 0.7132 -0.2439
-5.3031 0.7383 -0.2421
-5.2749 0.7633 -0.2408
-5.2425 0.7873 -0.2388
-5.2322 0.8144 -0.2406
-5.2046 0.8386 -0.2393
-5.1825 0.8636 -0.2390
-5.1594 0.8882 -0.2385
-5.1151 0.9068 -0.2339
-5.0997 0.9326 -0.2348
-5.0851 0.9589 -0.2358
-5.0560 0.9803 -0.2340
-5.0271 1.0011 -0.2321
-5.0034 1.0234 -0.2311
-4.9697 1.0409 -0.2281
-4.9456 1.0950 -0.2312
-4.9189 1.1145 -0.2294
-4.9095 1.1437 -0.2317
-4.8890 1.1665 -0.2314
-4.8653 1.1870 -0.2302
-4.8419 1.2072 -0.2291
-4.8242 1.2312 -0.2294
-4.8041 1.2533 -0.2291
-4.7842 1.2753 -0.2287
-4.7644 1.2972 -0.2284
-4.7332 1.3080 -0.2248
-4.6987 1.3548 -0.2253
-4.6959 1.4394 -0.2357
-5.6494 2.8042 -0.5615
-5.6176 2.8836 -0.5666
-5.5723 2.9449 -0.5673
-5.5269 3.0063 -0.5679
-5.4580 3.0286 -0.5599
-5.3909 3.1904 -0.5700
-5.3319 3.3790 -0.5848
-5.3027 3.6529 -0.6152
-5.2430 3.6923 -0.6108
-5.1553 3.6543 -0.5921
-5.1367 3.7966 -0.6074
-5.0795 3.8344 -0.6031
-5.0494 3.9543 -0.6137
-5.0097 4.0493 -0.6196
-4.9778 4.1767 -0.6309
-4.9042 4.1508 -0.6159
-4.8558 4.2163 -0.6166
-4.8006 4.2513 -0.6124
-4.7106 4.4128 -0.6188
-4.6622 4.4783 -0.6195
-5.4362 0.5762 -0.2761
-5.4033 0.6028 -0.2739
-5.3970 0.6293 -0.2767
-5.3879 0.6563 -0.2789
-5.3635 0.6828 -0.2784
-5.3026 0.7062 -0.2707
-5.2835 0.7320 -0.2710
-5.2644 0.7579 -0.2712
-5.2409 0.7831 -0.2706
-5.2176 0.8082 -0.2700
-5.2156 0.8371 -0.2739
-5.1838 0.8604 -0.2715
-5.1606 0.8852 -0.2709
-5.1118 0.9333 -0.2690
-5.0069 1.0227 -0.2629
-4.9732 1.0404 -0.2594
-4.9579 1.0660 -0.2603
-4.9434 1.0922 -0.2615
-4.9158 1.1115 -0.2593
-4.9072 1.1412 -0.2620
-4.8858 1.1636 -0.2614
-4.8621 1.1841 -0.2601
-4.8474 1.2106 -0.2613
-4.8318 1.2367 -0.2622
-4.8138 1.2611 -0.2625
-4.7905 1.2810 -0.2612
-4.7704 1.3033 -0.2607
-4.7363 1.3118 -0.2558
-5.5614 2.6945 -0.6072
-5.4427 2.7618 -0.5953
-5.2843 3.0071 -0.6022
-5.2420 3.0644 -0.6029
-5.1661 3.1982 -0.6085
-5.1319 3.2757 -0.6136
-5.0889 3.3338 -0.6142
-4.9529 3.4867 -0.6117
-4.9171 3.5663 -0.6168
-4.8546 3.5574 -0.6041
-4.8188 3.6370 -0.6092
-4.7764 3.6943 -0.6098
-4.7341 3.7515 -0.6105
-4.6970 3.8328 -0.6156
-4.6593 3.9150 -0.6206
-4.6258 4.0243 -0.6304
-4.5867 4.1100 -0.6358
-5.4300 0.5713 -0.3081
-5.4261 0.5978 -0.3116
-5.3908 0.6244 -0.3087
-5.3664 0.6508 -0.3080
-5.3515 0.6775 -0.3093
-5.3273 0.7037 -0.3086
-5.2864 0.7281 -0.3042
-5.2716 0.7547 -0.3054
-5.2610 0.7820 -0.3077
-5.2491 0.8095 -0.3098
-5.2053 0.8314 -0.3043
-5.1663 0.8532 -0.2998
-5.1518 0.9103 -0.3062
-5.1137 0.9309 -0.3017
-5.0841 0.9530 -0.2992
-5.0616 0.9770 -0.2985
-5.0260 0.9959 -0.2942
-4.9892 1.0456 -0.2948
-4.9673 1.0687 -0.2940
-4.9403 1.0890 -0.2918
-4.8386 1.2039 -0.2896
-4.8238 1.2304 -0.2909
-4.7982 1.2487 -0.2886
-4.7827 1.2746 -0.2896
-4.7554 1.2903 -0.2866
-4.7399 1.3162 -0.2876
-4.7043 1.4539 -0.3028
-5.2821 2.4264 -0.5806
-5.2295 2.4521 -0.5739
-5.1934 2.5010 -0.5745
-5.1572 2.5499 -0.5750
-5.1283 2.6117 -0.5792
-5.0990 2.6742 -0.5833
-5.0692 2.7373 -0.5875
-5.0460 2.8159 -0.5955
-4.9955 2.8370 -0.5886
-4.9713 2.9169 -0.5967
-4.9403 2.9833 -0.6011
-4.8651 3.0850 -0.6022
-4.8442 3.1866 -0.6145
-4.8005 3.2212 -0.6112
-4.7523 3.2376 -0.6039
-4.7147 3.2885 -0.6045
-4.6726 3.3211 -0.6011
-4.6396 3.3902 -0.6056
-4.6057 3.4587 -0.6098
-4.5758 3.5497 -0.6185
-4.5339 3.5820 -0.6152
-5.4494 0.5657 -0.3459
-5.3994 0.5930 -0.3394
-5.3668 0.6193 -0.3366
-5.3649 0.6460 -0.3411
-5.3327 0.6719 -0.3383
-5.3132 0.6982 -0.3386
-5.3016 0.7253 -0.3408
-5.2743 0.7508 -0.3392
-5.2462 0.7759 -0.3373
-5.2226 0.8014 -0.3364
-5.2192 0.8303 -0.3409
-5.1883 0.8543 -0.3381
-5.1457 0.9055 -0.3376
-5.0969 0.9230 -0.3295
-5.0728 0.9783 -0.3340
-5.0370 0.9976 -0.3293
-4.9981 1.0146 -0.3234
-4.9771 1.0382 -0.3228
-4.9651 1.0658 -0.3251
-4.9432 1.0889 -0.3242
-4.9041 1.1370 -0.3239
-4.8532 1.1412 -0.3130
-4.8620 1.1826 -0.3225
-4.8306 1.1977 -0.3180
-4.8181 1.2259 -0.3202
-4.8054 1.2544 -0.3225
-4.7895 1.2808 -0.3236
-4.7499 1.2859 -0.3154
-4.7413 1.3185 -0.3193
-5.2431 2.2815 -0.6095
-5.2158 2.3394 -0.6137
-5.1248 2.4011 -0.6039
-5.0904 2.4476 -0.6044
-5.0560 2.4942 -0.6049
-5.0156 2.5295 -0.6020
-4.9872 2.5873 -0.6060
-4.9183 2.6805 -0.6070
-4.8787 2.7147 -0.6041
-4.8445 2.7609 -0.6046
-4.8199 2.8331 -0.6120
-4.7852 2.8799 -0.6125
-4.7554 2.9413 -0.6168
-4.7160 2.9736 -0.6135
-4.6814 3.0204 -0.6141
-4.6430 3.0530 -0.6111
-4.6050 3.0850 -0.6082
-4.5708 3.1313 -0.6087
-4.5366 3.1776 -0.6092
-4.5083 3.2546 -0.6166
-4.4767 3.3184 -0.6209
-4.4447 3.3827 -0.6252
-5.4431 0.5607 -0.3786
-5.4327 0.5876 -0.3813
-5.3984 0.6147 -0.3780
-5.3785 0.6416 -0.3783
-5.3391 0.6676 -0.3734
-5.3195 0.6942 -0.3737
-5.3143 0.7220 -0.3779
-5.2802 0.7473 -0.3743
-5.2790 0.7763 -0.3797
-5.2590 0.8032 -0.3800
-5.2433 0.8309 -0.3816
-5.2069 0.8545 -0.3770
-5.1710 0.8774 -0.3724
-5.1476 0.9027 -0.3715
-5.1165 0.9256 -0.3681
-5.0973 0.9515 -0.3684
-5.0639 0.9725 -0.3641
-5.0589 1.0034 -0.3689
-4.9689 1.0658 -0.3584
-4.9409 1.0860 -0.3553
-4.9318 1.1160 -0.3590
-4.8984 1.1324 -0.3537
-4.8688 1.1500 -0.3497
-4.8539 1.1765 -0.3512
-4.8405 1.2042 -0.3533
-4.8223 1.2289 -0.3536
-4.8041 1.2535 -0.3539
-4.7714 1.2657 -0.3479
-4.7350 1.2731 -0.3402
-4.7454 1.3233 -0.3528
-5.0515 2.0292 -0.5717
-5.0269 2.0769 -0.5750
-4.9920 2.1097 -0.5726
-4.9622 2.1500 -0.5731
-4.9372 2.1983 -0.5763
-4.9170 2.2561 -0.5827
-4.8823 2.2886 -0.5803
-4.8475 2.3197 -0.5777
-4.8176 2.3601 -0.5781
-4.7921 2.4106 -0.5817
-4.7621 2.4513 -0.5821
-4.7439 2.5224 -0.5917
-4.7208 2.5841 -0.5981
-4.6899 2.6259 -0.5986
-4.6418 2.6140 -0.5839
-4.6217 2.6878 -0.5935
-4.5911 2.7291 -0.5940
-4.5544 2.7468 -0.5881
-4.5241 2.7877 -0.5886
-4.5022 2.8655 -0.5985
-4.4689 2.8945 -0.5958
-4.4454 2.9728 -0.6054
-4.4168 3.0291 -0.6094
-4.3856 3.0714 -0.6099
-5.3043 0.6887 -0.4031
-5.2937 0.7158 -0.4060
-5.2697 0.7419 -0.4050
-5.2528 0.7982 -0.4126
-5.2329 0.8252 -0.4129
-5.1915 0.8477 -0.4062
-5.1759 0.8751 -0.4078
-5.1296 0.8948 -0.3991
-5.1182 0.9229 -0.4021
-5.0989 0.9491 -0.4024
-5.0580 0.9678 -0.3950
-5.0418 0.9944 -0.3963
-5.0065 1.0135 -0.3905
-4.9914 1.0403 -0.3921
-4.9823 1.0702 -0.3961
-4.9565 1.0923 -0.3937
-4.9285 1.1127 -0.3903
-4.8868 1.1244 -0.3812
-4.8526 1.1389 -0.3748
-4.8727 1.1882 -0.3911
-4.8348 1.1997 -0.3830
-4.8279 1.2328 -0.3883
-4.8065 1.2554 -0.3873
-4.7881 1.2803 -0.3875
-4.7550 1.2917 -0.3807
-4.7418 1.3207 -0.3834
-4.8167 2.1738 -0.5903
-4.7923 2.2195 -0.5935
-4.7322 2.2880 -0.5916
-4.7108 2.3425 -0.5975
-4.6575 2.4290 -0.6014
-4.6064 2.5252 -0.6081
-4.5806 2.5745 -0.6116
-4.5516 2.6137 -0.6120
-4.5171 2.6317 -0.6063
-4.4936 2.6922 -0.6129
-4.4646 2.7314 -0.6133
-4.4356 2.7706 -0.6138
-4.4044 2.7984 -0.6111
-4.3776 2.8491 -0.6146
-4.3449 2.8647 -0.6089
-4.9476 1.1216 -0.4316
-4.8644 1.1820 -0.4204
-4.8482 1.2087 -0.4218
-4.8161 1.2237 -0.4155
-4.7831 1.2367 -0.4085
-4.7723 1.2671 -0.4125
-4.7668 1.3030 -0.4193
-4.7429 1.3227 -0.4166
-4.8938 1.7576 -0.5657
-4.8763 1.8018 -0.5709
-4.8550 1.8417 -0.5738
-4.8335 1.8820 -0.5767
-4.8042 1.9104 -0.5746
-4.7825 1.9510 -0.5775
-4.7570 1.9855 -0.5779
-4.7315 2.0200 -0.5783
-4.7092 2.0612 -0.5812
-4.6867 2.1027 -0.5842
-4.6610 2.1375 -0.5846
-4.6353 2.1723 -0.5850
-4.6119 2.2134 -0.5876
-4.5861 2.2483 -0.5879
-4.5602 2.2833 -0.5883
-4.5396 2.3349 -0.5942
-4.5205 2.3940 -0.6024
-4.4874 2.4055 -0.5950
-4.4551 2.4161 -0.5876
-4.4293 2.4509 -0.5880
-4.4092 2.5114 -0.5962
-4.3848 2.5554 -0.5992
-4.3521 2.5554 -0.5892
-4.3264 2.5902 -0.5896
-4.3034 2.6434 -0.5952
-4.2787 2.6879 -0.5981
-5.2276 0.7864 -0.4730
-5.2044 0.8429 -0.4797
-4.7794 1.2735 -0.4491
-4.8520 1.7077 -0.5843
-4.6619 1.9743 -0.5895
-4.5777 2.1384 -0.6036
-4.5282 2.2054 -0.6044
-4.5100 2.2598 -0.6123
-4.4827 2.2858 -0.6099
-4.4559 2.3127 -0.6079
-4.4293 2.3393 -0.6058
-4.4046 2.3727 -0.6062
-4.3798 2.4062 -0.6066
-4.3551 2.4397 -0.6070
-4.3288 2.4643 -0.6045
-4.3056 2.5066 -0.6077
-4.2809 2.5401 -0.6081
-5.1182 0.9460 -0.5136
-5.0982 0.9730 -0.5139
-5.0674 0.9960 -0.5092
-4.7630 1.4874 -0.5356
-4.7424 1.5153 -0.5359
-4.7548 1.5859 -0.5597
-4.7504 1.6386 -0.5727
-4.7311 1.6724 -0.5751
-4.7089 1.7024 -0.5754
-4.6868 1.7324 -0.5758
-4.6621 1.7580 -0.5740
-4.6425 1.7923 -0.5764
-4.6156 1.8131 -0.5726
-4.6028 1.8617 -0.5813
-4.5826 1.8967 -0.5838
-4.5628 1.9329 -0.5866
-4.5423 1.9684 -0.5891
-4.5135 1.9824 -0.5827
-4.4912 2.0126 -0.5830
-4.4689 2.0428 -0.5833
-4.4483 2.0785 -0.5858
-4.4278 2.1155 -0.5887
-4.4068 2.1517 -0.5911
-4.3857 2.1881 -0.5936
-4.3660 2.2319 -0.5986
-4.3391 2.2434 -0.5921
-4.3139 2.2603 -0.5878
-4.2928 2.2982 -0.5907
-4.2703 2.3286 -0.5910
-4.2467 2.3512 -0.5888
-4.2234 2.3749 -0.5870
-5.4220 0.5617 -0.5534
-5.3607 0.6167 -0.5461
-5.3361 0.6438 -0.5447
-5.2674 0.7243 -0.5420
-5.2517 0.7518 -0.5441
-5.2276 0.7782 -0.5426
-5.2199 0.8072 -0.5482
-5.2048 0.8353 -0.5507
-5.1797 0.8616 -0.5488
-5.1722 0.8919 -0.5549
-5.1357 0.9150 -0.5476
-5.0969 0.9364 -0.5391
-5.0726 0.9616 -0.5372
-5.0575 0.9898 -0.5397
-5.0449 1.0192 -0.5435
-5.0216 1.0446 -0.5421
-4.9873 1.0646 -0.5348
-4.9745 1.0943 -0.5386
-4.9516 1.1191 -0.5372
-4.9289 1.1437 -0.5357
-4.9125 1.1720 -0.5378
-4.8999 1.2031 -0.5420
-4.8734 1.2249 -0.5383
-4.8399 1.2409 -0.5302
-4.7390 1.2798 -0.5029
-4.7309 1.3141 -0.5099
-4.7390 1.4129 -0.5422
-4.7126 1.4316 -0.5375
-4.6998 1.4660 -0.5428
-4.6971 1.5145 -0.5560
-4.4408 1.9728 -0.5927
-4.3856 2.0924 -0.6068
-4.3652 2.1277 -0.6094
-4.3420 2.1514 -0.6074
-4.2951 2.1931 -0.6017
-4.2736 2.2223 -0.6021
-4.2520 2.2514 -0.6024
-4.2314 2.2871 -0.6050
-4.2105 2.3230 -0.6076
-5.4060 0.5049 -0.5666
-5.3863 0.5315 -0.5669
-5.3713 0.5580 -0.5690
-5.3515 0.5848 -0.5693
-5.3317 0.6115 -0.5696
-5.3075 0.6382 -0.5681
-5.2922 0.6650 -0.5702
-5.2724 0.6918 -0.5705
-5.2526 0.7186 -0.5708
-5.2287 0.7448 -0.5692
-5.2090 0.7715 -0.5695
-5.1893 0.7982 -0.5698
-5.1735 0.8256 -0.5720
-5.1616 0.8540 -0.5760
-5.1340 0.8791 -0.5726
-5.1142 0.9058 -0.5729
-5.1056 0.9359 -0.5788
-5.0820 0.9617 -0.5772
-5.0585 0.9874 -0.5756
-5.0202 1.0070 -0.5661
-4.9946 1.0307 -0.5631
-4.9753 1.0570 -0.5633
-4.9592 1.0848 -0.5655
-4.9365 1.1094 -0.5639
-4.9227 1.1388 -0.5675
-4.9063 1.1671 -0.5697
-4.8936 1.1981 -0.5742
-4.8702 1.2221 -0.5722
-4.8367 1.2382 -0.5635
-4.8089 1.2575 -0.5581
-4.7821 1.2768 -0.5532
-4.7652 1.3043 -0.5549
-4.7515 1.3350 -0.5590
-4.7324 1.3609 -0.5592
-4.7133 1.3867 -0.5595
-4.6967 1.4154 -0.5617
-4.6775 1.4414 -0.5620
-4.6514 1.4583 -0.5566
-4.6543 1.5142 -0.5754
-4.6325 1.5375 -0.5738
-4.6109 1.5607 -0.5722
-4.5898 1.5846 -0.5710
-4.5719 1.6135 -0.5728
-4.5543 1.6434 -0.5750
-4.5389 1.6780 -0.5795
-4.5192 1.7047 -0.5798
-4.4974 1.7266 -0.5777
-4.4777 1.7531 -0.5780
-4.4632 1.7927 -0.5845
-4.4404 1.8114 -0.5810
-4.4236 1.8464 -0.5851
-4.4010 1.8647 -0.5816
-4.3826 1.8957 -0.5838
-4.3640 1.9269 -0.5860
-4.3466 1.9629 -0.5901
-4.3288 1.9992 -0.5943
-4.3100 2.0323 -0.5970
-4.2857 2.0391 -0.5891
-4.2630 2.0513 -0.5837
-4.2458 2.0930 -0.5897
-4.2236 2.1047 -0.5842
-4.2046 2.1365 -0.5865
-4.1868 2.1791 -0.5925
-5.2355 0.6063 -0.5624
-5.1351 0.7574 -0.5690
-5.1094 0.7814 -0.5658
-5.0949 0.8072 -0.5681
-5.0695 0.8308 -0.5649
-5.0289 0.8797 -0.5635
-4.8667 1.1052 -0.5679
-4.8537 1.1335 -0.5717
-4.8055 1.1759 -0.5647
-4.7799 1.1952 -0.5600
-4.7639 1.2214 -0.5618
-4.7457 1.2460 -0.5621
-4.7255 1.2688 -0.5608
-4.7074 1.2934 -0.5611
-4.6937 1.3225 -0.5649
-4.6798 1.3520 -0.5687
-4.6445 1.3571 -0.5549
-4.6266 1.3813 -0.5552
-4.6127 1.4108 -0.5589
-4.6064 1.4514 -0.5698
-4.5858 1.4731 -0.5680
-4.5639 1.4921 -0.5648
-4.5492 1.5226 -0.5686
-4.5348 1.5542 -0.5729
-4.5211 1.5880 -0.5782
-4.5044 1.6168 -0.5805
-4.4857 1.6421 -0.5808
-4.4242 1.7039 -0.5745
-4.4095 1.7391 -0.5799
-4.2479 1.9974 -0.5956
-4.2313 2.0381 -0.6019
-4.2106 2.0540 -0.5982
-4.1889 2.0605 -0.5908
-5.2640 0.4825 -0.5662
-5.2500 0.5061 -0.5680
-5.2323 0.5300 -0.5683
-5.2181 0.5538 -0.5701
-5.1969 0.5778 -0.5688
-5.1792 0.6018 -0.5691
-5.1582 0.6256 -0.5678
-5.1471 0.6498 -0.5712
-5.1262 0.6736 -0.5699
-5.1116 0.6978 -0.5717
-5.0908 0.7214 -0.5704
-5.0731 0.7453 -0.5707
-5.0584 0.7697 -0.5725
-5.0447 0.7944 -0.5748
-5.0230 0.8177 -0.5730
-5.0024 0.8410 -0.5717
-4.9847 0.8650 -0.5720
-4.9670 0.8889 -0.5722
-4.9520 0.9137 -0.5741
-4.9316 0.9368 -0.5728
-4.9140 0.9607 -0.5730
-4.8937 0.9835 -0.5717
-4.8786 1.0085 -0.5736
-4.8609 1.0325 -0.5738
-4.8384 1.0538 -0.5709
-4.8255 1.0803 -0.5744
-4.8055 1.1028 -0.5730
-4.7924 1.1297 -0.5765
-4.7776 1.1557 -0.5788
-4.7620 1.1814 -0.5807
-4.7350 1.1983 -0.5741
-4.7174 1.2221 -0.5744
-4.6930 1.2399 -0.5693
-4.6775 1.2654 -0.5712
-4.6664 1.2957 -0.5767
-4.6468 1.3176 -0.5754
-4.6292 1.3414 -0.5757
-4.6133 1.3674 -0.5775
-4.5996 1.3966 -0.5815
-4.5763 1.4130 -0.5765
-4.5587 1.4369 -0.5767
-4.5410 1.4607 -0.5770
-4.5219 1.4821 -0.5757
-4.5043 1.5059 -0.5759
-4.4834 1.5235 -0.5725
-4.4691 1.5534 -0.5764
-4.4542 1.5828 -0.5799
-4.4419 1.6190 -0.5871
-4.4188 1.6306 -0.5804
-4.4011 1.6546 -0.5807
-4.3845 1.6815 -0.5826
-4.3657 1.7024 -0.5812
-4.3490 1.7295 -0.5831
-4.3304 1.7503 -0.5818
-4.3148 1.7819 -0.5857
-4.2958 1.8015 -0.5839
-4.2800 1.8336 -0.5879
-4.2629 1.8613 -0.5898
-4.2426 1.8735 -0.5847
-4.2236 1.8902 -0.5817
-4.2054 1.9103 -0.5804
-4.1889 1.9417 -0.5839
-4.1717 1.9695 -0.5857
-4.1546 1.9987 -0.5881
-5.1782 0.5070 -0.5662
-5.0874 0.6433 -0.5727
-5.0737 0.6664 -0.5746
-5.0474 0.6885 -0.5699
-5.0107 0.7336 -0.5687
-4.9910 0.7558 -0.5673
-4.9692 0.8034 -0.5744
-4.8863 0.8899 -0.5661
-4.8670 0.9115 -0.5647
-4.8173 0.9787 -0.5654
-4.8032 1.0023 -0.5673
-4.7930 1.0282 -0.5720
-4.7300 1.0878 -0.5633
-4.7136 1.1101 -0.5636
-4.6971 1.1324 -0.5638
-4.6683 1.1804 -0.5676
-4.5920 1.3001 -0.5750
-4.5608 1.3048 -0.5613
-4.5506 1.3351 -0.5677
-4.5341 1.3574 -0.5679
-4.5192 1.3821 -0.5699
-4.4965 1.3948 -0.5634
-4.4846 1.4245 -0.5687
-4.4652 1.4417 -0.5656
-4.4552 1.4762 -0.5736
-4.4045 1.5418 -0.5733
-4.3157 1.7145 -0.5944
-4.2967 1.7312 -0.5913
-4.2641 1.7843 -0.5952
-4.1953 1.8774 -0.5962
-4.1776 1.8969 -0.5947
-4.1604 1.9201 -0.5950
-5.1396 0.4853 -0.5692
-5.1235 0.5070 -0.5694
-5.1167 0.5281 -0.5743
-5.1040 0.5498 -0.5763
-5.0844 0.5719 -0.5748
-5.0593 0.5939 -0.5704
-5.0553 0.6157 -0.5770
-5.0391 0.6377 -0.5772
-5.0165 0.6593 -0.5740
-4.9983 0.6809 -0.5731
-4.9842 0.7029 -0.5745
-4.9681 0.7247 -0.5747
-4.9549 0.7470 -0.5767
-4.9446 0.7699 -0.5804
-4.9178 0.7898 -0.5743
-4.9017 0.8116 -0.5745
-4.8856 0.8334 -0.5748
-4.8713 0.8557 -0.5762
-4.8552 0.8775 -0.5764
-4.8347 0.8978 -0.5738
-4.8229 0.9212 -0.5769
-4.8051 0.9423 -0.5760
-4.7824 0.9611 -0.5716
-4.7818 0.9902 -0.5828
-4.7407 1.0294 -0.5769
-4.6777 1.1176 -0.5791
-4.6678 1.1444 -0.5845
-4.6401 1.1566 -0.5749
-4.6261 1.1800 -0.5769
-4.6119 1.2036 -0.5789
-4.5940 1.2235 -0.5774
-4.5761 1.2432 -0.5758
-4.5441 1.2865 -0.5763
-4.5253 1.3044 -0.5736
-4.5137 1.3320 -0.5786
-4.4977 1.3537 -0.5788
-4.4816 1.3754 -0.5790
-4.4631 1.3930 -0.5764
-4.4496 1.4189 -0.5795
-4.4358 1.4449 -0.5827
-4.4236 1.4748 -0.5882
-4.4048 1.4913 -0.5849
-4.3874 1.5104 -0.5834
-4.3736 1.5380 -0.5872
-4.3574 1.5600 -0.5874
-4.3390 1.5759 -0.5841
-4.3222 1.5956 -0.5832
-4.3077 1.6227 -0.5864
-4.2900 1.6392 -0.5837
-4.2745 1.6632 -0.5851
-4.2600 1.6917 -0.5889
-4.2438 1.7137 -0.5891
-4.2268 1.7321 -0.5876
-4.2100 1.7505 -0.5861
-4.1934 1.7699 -0.5851
-4.1768 1.7879 -0.5836
-4.1612 1.8134 -0.5856
-4.1459 1.8416 -0.5888
-4.1293 1.8596 -0.5873
-5.0477 0.5484 -0.5756
-5.0090 0.5904 -0.5719
-4.9827 0.6111 -0.5661
-4.9750 0.6319 -0.5705
-4.9629 0.6527 -0.5726
-4.9291 0.6940 -0.5712
-4.8985 0.7354 -0.5717
-4.8861 0.7567 -0.5737
-4.8726 0.7778 -0.5752
-4.8004 0.8578 -0.5688
-4.7852 0.8783 -0.5690
-4.7053 0.9790 -0.5671
-4.6925 1.0008 -0.5692
-4.6725 1.0486 -0.5782
-4.6029 1.1250 -0.5718
-4.5890 1.1468 -0.5732
-4.5604 1.1899 -0.5755
-4.5421 1.2073 -0.5727
-4.5269 1.2278 -0.5729
-4.5157 1.2533 -0.5774
-4.4803 1.2880 -0.5724
-4.4610 1.3023 -0.5677
-4.4499 1.3290 -0.5728
-4.4392 1.3569 -0.5785
-4.4238 1.3776 -0.5788
-4.3338 1.5068 -0.5832
-4.3030 1.5485 -0.5837
-4.2918 1.5830 -0.5919
-4.1334 1.7751 -0.5850
-5.0189 0.5077 -0.5709
-5.0043 0.5276 -0.5711
-4.9964 0.5471 -0.5751
-4.9771 0.5673 -0.5728
-4.9701 0.5871 -0.5774
-4.9520 0.6072 -0.5758
-4.9372 0.6272 -0.5760
-4.9255 0.6473 -0.5781
-4.9076 0.6672 -0.5764
-4.8908 0.6870 -0.5754
-4.8740 0.7068 -0.5743
-4.8613 0.7270 -0.5758
-4.8465 0.7469 -0.5760
-4.8336 0.7673 -0.5775
-4.8170 0.7869 -0.5765
-4.8004 0.8064 -0.5754
-4.7875 0.8268 -0.5769
-4.7562 0.8662 -0.5761
-4.7398 0.8854 -0.5751
-4.7137 0.9267 -0.5780
-4.7061 0.9501 -0.5840
-4.6880 0.9687 -0.5816
-4.6694 0.9866 -0.5787
-4.6531 1.0056 -0.5776
-4.6347 1.0232 -0.5747
-4.6287 1.0490 -0.5825
-4.6075 1.0644 -0.5770
-4.5881 1.0804 -0.5728
-4.5808 1.1064 -0.5800
-4.5648 1.1252 -0.5790
-4.5513 1.1463 -0.5805
-4.5298 1.1593 -0.5737
-4.5260 1.1909 -0.5854
-4.5059 1.2049 -0.5798
-4.4872 1.2199 -0.5756
-4.4590 1.2609 -0.5773
-4.4490 1.2877 -0.5833
-4.4312 1.3029 -0.5797
-4.4194 1.3277 -0.5837
-4.4028 1.3443 -0.5814
-4.3898 1.3677 -0.5842
-4.3742 1.3860 -0.5831
-4.3603 1.4078 -0.5846
-4.3447 1.4259 -0.5835
-4.3299 1.4459 -0.5838
-4.3159 1.4678 -0.5853
-4.3011 1.4878 -0.5855
-4.2863 1.5078 -0.5857
-4.2768 1.5456 -0.5968
-4.2609 1.5628 -0.5951
-4.2439 1.5755 -0.5909
-4.2290 1.5957 -0.5911
-4.2123 1.6079 -0.5868
-4.1975 1.6279 -0.5870
-4.1827 1.6479 -0.5873
-4.1672 1.6631 -0.5849
-4.1528 1.6855 -0.5864
-4.1380 1.7055 -0.5866
-4.1243 1.7343 -0.5914
-4.1094 1.7545 -0.5916
-4.9598 0.5094 -0.5640
-4.9481 0.5280 -0.5655
-4.9410 0.5465 -0.5697
-4.9336 0.5652 -0.5738
-4.9053 0.6034 -0.5743
-4.7809 0.7543 -0.5680
-4.7286 0.8309 -0.5715
-4.7163 0.8504 -0.5730
-4.6837 0.8624 -0.5587
-4.6800 0.8850 -0.5668
-4.6580 0.9002 -0.5604
-4.6538 0.9233 -0.5686
-4.6446 0.9446 -0.5728
-4.5967 0.9976 -0.5681
-4.5759 1.0404 -0.5751
-4.5592 1.0572 -0.5727
-4.5439 1.0750 -0.5716
-4.5248 1.0891 -0.5665
-4.5008 1.1303 -0.5709
-4.4719 1.1666 -0.5700
-4.4513 1.1769 -0.5622
-4.4398 1.1983 -0.5650
-4.4292 1.2214 -0.5692
-4.4164 1.2416 -0.5708
-4.4054 1.2652 -0.5750
-4.3896 1.2808 -0.5725
-4.3766 1.3013 -0.5741
-4.3618 1.3185 -0.5729
-4.3512 1.3443 -0.5785
-4.3372 1.3633 -0.5787
-4.3239 1.3842 -0.5803
-4.3106 1.4051 -0.5818
-4.2858 1.4532 -0.5889
-4.2418 1.5069 -0.5869
-4.2232 1.5088 -0.5764
-4.2114 1.5365 -0.5819
-4.1850 1.5838 -0.5877
-4.1285 1.6632 -0.5899
-4.9411 0.4904 -0.5701
-4.9300 0.5084 -0.5717
-4.9164 0.5268 -0.5719
-4.9051 0.5449 -0.5735
-4.8893 0.5634 -0.5723
-4.8736 0.5818 -0.5711
-4.8623 0.6000 -0.5727
-4.8529 0.6184 -0.5756
-4.8373 0.6368 -0.5745
-4.8278 0.6554 -0.5774
-4.8141 0.6738 -0.5776
-4.8025 0.6925 -0.5792
-4.7810 0.7099 -0.5739
-4.7751 0.7295 -0.5796
-4.7633 0.7484 -0.5812
-4.7478 0.7665 -0.5800
-4.7323 0.7846 -0.5788
-4.7169 0.8025 -0.5777
-4.7015 0.8204 -0.5765
-4.6744 0.8571 -0.5769
-4.6641 0.8768 -0.5799
-4.6201 0.9306 -0.5777
-4.6065 0.9489 -0.5779
-4.5915 0.9664 -0.5767
-4.5794 0.9857 -0.5783
-4.5616 1.0011 -0.5744
-4.5536 1.0234 -0.5801
-4.5386 1.0408 -0.5789
-4.5264 1.0602 -0.5805
-4.4425 1.1679 -0.5790
-4.4175 1.2075 -0.5821
-4.4009 1.2213 -0.5782
-4.3748 1.2595 -0.5800
-4.3631 1.2812 -0.5830
-4.3486 1.2978 -0.5818
-4.3367 1.3197 -0.5848
-4.3263 1.3454 -0.5905
-4.3079 1.3529 -0.5824
-4.2973 1.3789 -0.5881
-4.2850 1.4013 -0.5911
-4.2699 1.4160 -0.5886
-4.2555 1.4325 -0.5874
-4.2400 1.4448 -0.5834
-4.2276 1.4674 -0.5864
-4.2140 1.4858 -0.5866
-4.1993 1.4998 -0.5840
-4.1867 1.5227 -0.5870
-4.1735 1.5435 -0.5886
-4.1590 1.5573 -0.5860
-4.1447 1.5709 -0.5834
-4.1315 1.5917 -0.5850
-4.1188 1.6175 -0.5894
-4.1049 1.6334 -0.5882
-4.0915 1.6545 -0.5898
-4.8844 0.4935 -0.5602
-4.8611 0.5278 -0.5620
-4.8562 0.5446 -0.5671
-4.8444 0.5620 -0.5681
-4.8336 0.5794 -0.5697
-4.8111 0.5970 -0.5635
-4.8077 0.6145 -0.5701
-4.7608 0.6851 -0.5744
-4.7478 0.7027 -0.5746
-4.6947 0.7731 -0.5747
-4.6393 0.8423 -0.5726
-4.6247 0.8592 -0.5713
-4.5655 0.9249 -0.5649
-4.5616 0.9475 -0.5737
-4.5515 0.9669 -0.5768
-4.5385 0.9845 -0.5770
-4.5254 1.0021 -0.5772
-4.5111 1.0186 -0.5759
-4.5039 1.0412 -0.5826
-4.4895 1.0578 -0.5814
