ply
format ascii 1.0
element vertex 2106
property float x
property float y
property float z
end_header
-1.7974 2.2129 -0.6048
-1.8127 2.2113 -0.6015
-1.8240 2.2087 -0.6029
0.6054 3.1828 0.6665
0.6008 3.0983 0.4306
0.6467 3.0890 0.3773
0.6086 3.0572 0.3101
0.3806 2.9784 0.2228
0.5538 2.9997 0.1804
0.7553 3.0246 0.1313
0.6688 2.9812 0.0598
0.6284 2.9488 -0.0075
0.5069 2.8999 -0.0735
0.5304 2.8818 -0.1386
0.5133 2.8552 -0.2035
0.4761 2.8249 -0.2669
0.6502 2.8319 -0.3505
0.5229 2.7855 -0.4058
0.4847 2.7551 -0.4691
0.3714 2.6902 -0.5851
0.1138 2.6330 -0.5941
-0.1386 2.5808 -0.5916
-0.2461 2.5492 -0.6171
-0.4961 2.5051 -0.5934
-0.7216 2.4531 -0.6067
-0.9300 2.4103 -0.6040
-1.0789 2.3777 -0.6077
-1.1596 2.3633 -0.6005
-1.2120 2.3510 -0.6041
-1.2768 2.3396 -0.5978
-1.3177 2.3294 -0.6024
-1.3508 2.3199 -0.6098
-1.4053 2.3115 -0.6011
-1.4826 2.2966 -0.5974
-1.5067 2.2894 -0.6034
-1.5350 2.2829 -0.6048
-1.5939 2.2720 -0.6007
-1.6411 2.2621 -0.6006
-1.6828 2.2535 -0.6004
-1.7194 2.2456 -0.6009
-1.7510 2.2384 -0.6027
-1.7636 2.2345 -0.6059
-1.7818 2.2323 -0.6015
-1.8094 2.2268 -0.6007
-1.8199 2.2235 -0.6036
-1.8333 2.2214 -0.6017
-1.8442 2.2189 -0.6024
-1.8512 2.2152 -0.6086
0.3910 3.3072 0.9644
0.5732 3.3570 0.9832
0.5417 3.3082 0.8641
0.7507 3.3619 0.8760
0.6069 3.2924 0.7739
0.5162 3.2229 0.6357
0.7707 3.2845 0.6392
0.7081 3.2432 0.5631
0.7132 3.2233 0.5021
0.7413 3.2098 0.4440
0.7457 3.1888 0.3804
0.7509 3.1676 0.3160
0.7329 3.1398 0.2480
0.7388 3.1183 0.1821
0.7206 3.0902 0.1136
0.6564 3.0506 0.0433
0.5736 3.0072 -0.0250
0.5349 2.9752 -0.0907
0.6028 2.9677 -0.1589
0.5421 2.9307 -0.2239
0.5038 2.8992 -0.2885
0.4265 2.8602 -0.3479
0.4894 2.8491 -0.4230
0.0386 2.6813 -0.5981
-0.2124 2.6237 -0.5924
-0.9564 2.4414 -0.6085
-1.1241 2.4044 -0.6006
-1.2413 2.3760 -0.6023
-1.2850 2.3639 -0.6071
-1.3227 2.3528 -0.6132
-1.3871 2.3422 -0.5999
-1.4228 2.3328 -0.6025
-1.4554 2.3241 -0.6054
-1.4947 2.3161 -0.6014
-1.5211 2.3085 -0.6051
-1.5473 2.3015 -0.6077
-1.5740 2.2949 -0.6083
-1.6298 2.2837 -0.6025
-1.6537 2.2785 -0.6009
-1.6816 2.2744 -0.5938
-1.6874 2.2681 -0.6080
-1.7098 2.2641 -0.6041
-1.7294 2.2602 -0.6019
-1.7430 2.2558 -0.6054
-1.7565 2.2516 -0.6082
-1.7885 2.2451 -0.6050
-1.8023 2.2419 -0.6048
-1.8159 2.2390 -0.6040
-1.8285 2.2361 -0.6036
-1.8425 2.2339 -0.6003
-1.8502 2.2303 -0.6055
-1.8594 2.2272 -0.6081
0.4958 3.3408 0.7892
0.9237 3.4346 0.7312
0.9566 3.4236 0.6731
0.9121 3.3857 0.5963
0.7474 3.3086 0.4978
0.8999 3.3359 0.4591
0.7116 3.2533 0.3630
0.6721 3.2190 0.2929
0.6759 3.1980 0.2282
0.7042 3.1838 0.1644
0.6860 3.1558 0.0959
0.7145 3.1406 0.0288
0.6960 3.1120 -0.0408
0.6086 3.0655 -0.1093
0.6134 3.0434 -0.1782
0.5125 2.9721 -0.3093
0.4530 2.9352 -0.3714
0.4973 2.9216 -0.4460
-0.0186 2.7304 -0.6057
-0.2381 2.6723 -0.6055
-0.3808 2.6304 -0.6171
-0.5730 2.5835 -0.6051
-1.0276 2.4670 -0.5927
-1.0696 2.4506 -0.6084
-1.1203 2.4340 -0.6175
-1.2044 2.4156 -0.6060
-1.3105 2.3875 -0.6060
-1.4058 2.3638 -0.6011
-1.4260 2.3541 -0.6138
-1.4943 2.3440 -0.5901
-1.5128 2.3356 -0.6006
-1.5450 2.3276 -0.5991
-1.5690 2.3200 -0.6025
-1.5953 2.3130 -0.6026
-1.6195 2.3065 -0.6029
-1.6393 2.3001 -0.6061
-1.6838 2.2891 -0.6039
-1.7061 2.2842 -0.6007
-1.7232 2.2793 -0.6018
-1.7392 2.2747 -0.6030
-1.7527 2.2700 -0.6063
-1.7692 2.2660 -0.6051
-1.7847 2.2622 -0.6041
-1.8120 2.2550 -0.6040
-1.8254 2.2518 -0.6030
-1.8325 2.2475 -0.6101
-1.8622 2.2432 -0.5994
-1.8675 2.2390 -0.6076
0.7902 3.4648 0.6885
0.8951 3.4825 0.6488
0.8268 3.4355 0.5677
0.8324 3.4155 0.5026
0.7953 3.3580 0.3623
0.7767 3.3292 0.2921
0.7826 3.3084 0.2243
0.7395 3.2717 0.1518
0.6735 3.2282 0.0792
0.6151 3.1652 -0.0589
0.6651 3.1566 -0.1289
0.6702 3.1344 -0.2002
0.6280 3.0991 -0.2692
0.6094 3.0703 -0.3394
0.4811 3.0138 -0.3960
0.3871 2.9217 -0.5901
0.2382 2.8659 -0.6263
-0.1014 2.7727 -0.6062
-0.4432 2.6685 -0.6174
-0.7441 2.5833 -0.6076
-0.9420 2.5245 -0.6093
-1.1201 2.4755 -0.5992
-1.2428 2.4393 -0.5996
-1.3383 2.4101 -0.6030
-1.3732 2.3978 -0.6091
-1.4234 2.3851 -0.6027
-1.4908 2.3643 -0.6059
-1.5547 2.3461 -0.6041
-1.5835 2.3380 -0.6030
-1.6053 2.3304 -0.6065
-1.6317 2.3233 -0.6044
-1.6553 2.3167 -0.6033
-1.6770 2.3105 -0.6028
-1.6944 2.3046 -0.6055
-1.7147 2.2991 -0.6038
-1.7348 2.2941 -0.6011
-1.7467 2.2887 -0.6068
-1.7655 2.2844 -0.6033
-1.7908 2.2752 -0.6086
-1.8067 2.2714 -0.6057
-1.8231 2.2682 -0.6010
-1.8310 2.2638 -0.6073
-1.8463 2.2610 -0.6022
-1.8547 2.2570 -0.6066
-1.8660 2.2540 -0.6059
0.8285 3.5592 0.6890
0.8593 3.5502 0.6305
0.8156 3.5114 0.5546
0.7257 3.4554 0.4715
0.7548 3.4450 0.4105
0.8733 3.4208 0.2175
0.8799 3.3996 0.1455
0.6386 3.2943 0.0614
0.7392 3.3052 -0.0053
0.7951 3.2998 -0.0776
0.8011 3.2776 -0.1521
0.7560 3.2393 -0.2251
0.6861 3.1941 -0.2949
0.6439 3.1577 -0.3649
0.8266 3.1848 -0.4634
0.9473 3.1916 -0.5628
0.3934 2.9954 -0.6157
0.2238 2.9305 -0.6468
-0.2059 2.8068 -0.5997
-0.4057 2.7430 -0.5973
-0.5216 2.7010 -0.6115
-0.7703 2.6194 -0.6152
-0.8418 2.5919 -0.6288
-0.9492 2.5591 -0.6227
-1.1198 2.5065 -0.6147
-1.2475 2.4663 -0.6116
-1.3631 2.4322 -0.6015
-1.4409 2.4061 -0.6043
-1.4692 2.3951 -0.6101
-1.5150 2.3833 -0.6007
-1.5365 2.3739 -0.6082
-1.5628 2.3647 -0.6105
-1.6219 2.3476 -0.6043
-1.6422 2.3400 -0.6073
-1.6606 2.3329 -0.6109
-1.7128 2.3201 -0.5984
-1.7305 2.3142 -0.5989
-1.7431 2.3085 -0.6041
-1.7603 2.3032 -0.6031
-1.7750 2.2982 -0.6041
-1.7887 2.2933 -0.6054
-1.8000 2.2885 -0.6091
-1.8296 2.2805 -0.6043
-1.8411 2.2765 -0.6051
-1.8517 2.2726 -0.6065
-1.8652 2.2694 -0.6029
-1.8741 2.2657 -0.6055
0.9456 3.6914 0.7082
0.8992 3.6499 0.6291
0.8295 3.5992 0.5464
0.8106 3.5699 0.4751
0.7196 3.5117 0.3925
0.7243 3.4923 0.3260
0.8294 3.5115 0.2694
0.9432 3.5322 0.2077
1.0088 3.5329 0.1367
1.0466 3.5221 0.0605
1.0254 3.4893 -0.0194
1.1280 3.4998 -0.1007
0.9831 3.4238 -0.1793
0.8769 3.3627 -0.2539
0.7499 3.2962 -0.3224
0.7557 3.2735 -0.4004
0.8700 3.2840 -0.4949
1.0273 3.3051 -0.6038
0.6210 3.1587 -0.6130
0.3200 3.0488 -0.6244
-0.2438 2.8542 -0.6102
-0.5349 2.7463 -0.6263
-0.8019 2.6538 -0.6205
-1.0102 2.5831 -0.6117
-1.1117 2.5510 -0.5997
-1.1539 2.5320 -0.6127
-1.3339 2.4708 -0.6052
-1.4196 2.4403 -0.6060
-1.4693 2.4254 -0.5977
-1.5321 2.4022 -0.6007
-1.5525 2.3925 -0.6086
-1.5884 2.3820 -0.6019
-1.6122 2.3730 -0.6037
-1.6382 2.3643 -0.6021
-1.6820 2.3488 -0.6022
-1.6983 2.3418 -0.6062
-1.7199 2.3351 -0.6033
-1.7358 2.3288 -0.6055
-1.7538 2.3228 -0.6043
-1.7684 2.3171 -0.6059
-1.7852 2.3118 -0.6039
-1.7965 2.3066 -0.6080
-1.8143 2.3020 -0.6024
-1.8245 2.2972 -0.6063
-1.8390 2.2930 -0.6033
-1.8511 2.2889 -0.6029
-1.8630 2.2850 -0.6019
-1.8733 2.2812 -0.6025
-1.8807 2.2770 -0.6073
0.8065 3.7146 0.6647
0.7152 3.6528 0.5780
0.7691 3.6566 0.5232
0.7503 3.6276 0.4524
0.6844 3.5783 0.3745
0.6660 3.5497 0.3049
1.0959 3.5570 -0.2065
1.0737 3.5227 -0.2903
1.0201 3.4772 -0.3711
0.8237 3.3828 -0.4329
0.3392 3.1940 -0.4424
0.4262 3.1788 -0.6001
0.1765 3.0780 -0.6161
-0.0465 2.9894 -0.6260
-0.3048 2.8941 -0.6137
-0.6167 2.7732 -0.6175
-0.8577 2.6814 -0.6156
-1.1724 2.5597 -0.6185
-1.3114 2.5110 -0.6037
-1.3648 2.4916 -0.6002
-1.3944 2.4773 -0.6095
-1.4837 2.4458 -0.6009
-1.5153 2.4331 -0.6025
-1.5625 2.4115 -0.6137
-1.6004 2.3998 -0.6046
-1.6280 2.3899 -0.6024
-1.6757 2.3722 -0.6003
-1.6881 2.3648 -0.6090
-1.7112 2.3571 -0.6053
-1.7255 2.3502 -0.6100
-1.7428 2.3434 -0.6104
-1.7636 2.3370 -0.6053
-1.7795 2.3310 -0.6049
-1.7953 2.3254 -0.6036
-1.8116 2.3201 -0.6005
-1.8203 2.3148 -0.6069
-1.8340 2.3099 -0.6055
-1.8483 2.3054 -0.6023
-1.8566 2.3007 -0.6072
-1.8698 2.2967 -0.6039
-1.8814 2.2928 -0.6021
-1.8922 2.2890 -0.6009
0.7464 3.7704 0.6406
0.6127 3.6865 0.5455
0.6400 3.6802 0.4868
0.7146 3.6953 0.4341
0.6958 3.6663 0.3634
0.7748 3.6815 0.3047
0.9578 3.6952 0.0976
0.9368 3.6628 0.0184
1.1184 3.6631 -0.2315
1.1289 3.6411 -0.3194
1.0731 3.5931 -0.4024
1.0505 3.5580 -0.4878
0.4522 3.2893 -0.5563
0.3091 3.2166 -0.6006
0.1107 3.1272 -0.6244
-0.1974 3.0043 -0.6080
-0.5339 2.8623 -0.6159
-0.8000 2.7525 -0.6138
-1.1691 2.6030 -0.6020
-1.2840 2.5547 -0.6040
-1.3595 2.5191 -0.6183
-1.4664 2.4799 -0.6011
-1.5104 2.4636 -0.5945
-1.5374 2.4512 -0.5988
-1.5543 2.4408 -0.6098
-1.5847 2.4287 -0.6082
-1.6083 2.4181 -0.6109
-1.6347 2.4076 -0.6094
-1.6835 2.3885 -0.6055
-1.6996 2.3805 -0.6100
-1.7239 2.3721 -0.6043
-1.7411 2.3647 -0.6052
-1.7596 2.3576 -0.6035
-1.7740 2.3510 -0.6054
-1.7890 2.3447 -0.6057
-1.8031 2.3387 -0.6062
-1.8199 2.3330 -0.6020
-1.8328 2.3276 -0.6020
-1.8427 2.3224 -0.6057
-1.8546 2.3175 -0.6056
-1.8664 2.3128 -0.6049
-1.8794 2.3085 -0.6013
-1.8874 2.3040 -0.6051
-1.8959 2.2998 -0.6074
-1.9051 2.2958 -0.6081
0.8034 3.9049 0.7116
0.6878 3.8257 0.6170
0.6694 3.7972 0.5474
0.6509 3.7686 0.4778
0.6088 3.7284 0.4042
0.5690 3.6896 0.3321
0.6179 3.6938 0.2716
0.6932 3.7095 0.2103
0.9178 3.7710 0.0771
0.8691 3.7260 -0.0026
0.9719 3.7249 -0.1641
1.0752 3.7449 -0.2535
1.0526 3.7099 -0.3390
1.0624 3.6883 -0.4281
1.4411 3.8161 -0.5701
0.5053 3.3916 -0.5919
0.2750 3.2811 -0.6180
0.0957 3.1933 -0.6447
-0.2498 3.0475 -0.6152
-0.6249 2.8830 -0.6047
-1.1807 2.6327 -0.6116
-1.3121 2.5767 -0.6023
-1.3964 2.5372 -0.6085
-1.4336 2.5198 -0.6114
-1.4719 2.5027 -0.6111
-1.5478 2.4709 -0.6041
-1.5789 2.4574 -0.6027
-1.6009 2.4461 -0.6076
-1.6557 2.4231 -0.6027
-1.6782 2.4131 -0.6024
-1.6928 2.4046 -0.6091
-1.7141 2.3956 -0.6076
-1.7343 2.3871 -0.6058
-1.7671 2.3719 -0.6073
-1.7873 2.3646 -0.6017
-1.7955 2.3584 -0.6104
-1.8260 2.3459 -0.6065
-1.8352 2.3403 -0.6117
-1.8500 2.3348 -0.6079
-1.8652 2.3296 -0.6023
-1.8768 2.3247 -0.6014
-1.8848 2.3199 -0.6055
-1.8947 2.3154 -0.6059
-1.9058 2.3112 -0.6033
-1.9148 2.3070 -0.6038
0.7180 3.9467 0.6806
0.6070 3.8675 0.5884
0.5889 3.8394 0.5199
0.5707 3.8113 0.4514
0.5526 3.7832 0.3829
0.5789 3.7782 0.3206
0.5604 3.7496 0.2509
0.5639 3.7322 0.1833
0.6374 3.7492 0.1190
0.8358 3.7818 -0.1017
0.8716 3.7760 -0.1831
1.0094 3.7917 -0.3611
1.0188 3.7709 -0.4504
0.3391 3.4072 -0.5844
0.1145 3.2934 -0.6059
-0.3249 3.0802 -0.6151
-0.6392 2.9284 -0.6190
-0.8880 2.8105 -0.6141
-1.0946 2.7154 -0.6004
-1.2061 2.6581 -0.6138
-1.3281 2.6014 -0.6077
-1.4204 2.5574 -0.6069
-1.5335 2.5039 -0.6042
-1.5630 2.4894 -0.6054
-1.6177 2.4630 -0.6061
-1.6413 2.4514 -0.6073
-1.6693 2.4393 -0.6027
-1.6885 2.4293 -0.6053
-1.7112 2.4191 -0.6028
-1.7306 2.4099 -0.6025
-1.7489 2.4012 -0.6021
-1.7597 2.3939 -0.6096
-1.7813 2.3855 -0.6029
-1.7932 2.3786 -0.6073
-1.8077 2.3716 -0.6073
-1.8193 2.3652 -0.6104
-1.8356 2.3586 -0.6059
-1.8482 2.3526 -0.6057
-1.8654 2.3467 -0.5973
-1.8715 2.3415 -0.6055
-1.8836 2.3363 -0.6034
-1.8921 2.3314 -0.6063
-1.9046 2.3267 -0.6019
-1.9129 2.3222 -0.6039
-1.9211 2.3178 -0.6054
0.6305 4.0020 0.7137
0.6823 4.0145 0.6623
0.5939 3.9454 0.5756
0.5756 3.9171 0.5066
0.5361 3.8769 0.4337
0.5390 3.8605 0.3685
0.5207 3.8322 0.2995
0.5024 3.8039 0.2305
0.4635 3.7645 0.1597
0.4883 3.7592 0.0937
0.6058 3.8015 0.0286
0.7358 3.8484 -0.0436
0.8235 3.8717 -0.1227
0.8309 3.8532 -0.2039
0.8963 3.8629 -0.2909
0.9043 3.8434 -0.3769
0.7947 3.7673 -0.4495
0.3449 3.4924 -0.6112
0.0162 3.3252 -0.6064
-0.1895 3.2169 -0.6166
-0.5828 3.0175 -0.6085
-0.6933 2.9580 -0.6189
-0.9185 2.8425 -0.6191
-1.0261 2.7893 -0.6115
-1.1110 2.7466 -0.6088
-1.3154 2.6444 -0.5994
-1.4382 2.5787 -0.6092
-1.4791 2.5582 -0.6074
-1.5219 2.5379 -0.6016
-1.5426 2.5247 -0.6110
-1.5765 2.5082 -0.6080
-1.6021 2.4944 -0.6102
-1.6568 2.4675 -0.6061
-1.6782 2.4562 -0.6072
-1.6964 2.4460 -0.6105
-1.7159 2.4358 -0.6112
-1.7372 2.4256 -0.6084
-1.7583 2.4159 -0.6044
-1.7733 2.4077 -0.6064
-1.8040 2.3919 -0.6063
-1.8205 2.3844 -0.6031
-1.8312 2.3778 -0.6070
-1.8444 2.3712 -0.6063
-1.8562 2.3650 -0.6070
-1.8704 2.3589 -0.6027
-1.8805 2.3533 -0.6043
-1.8884 2.3480 -0.6088
-1.9034 2.3427 -0.6002
-1.9117 2.3378 -0.6025
-1.9180 2.3330 -0.6080
-1.9287 2.3285 -0.6046
0.6840 4.1402 0.7855
0.6888 4.1257 0.7211
0.5559 4.0267 0.6215
0.4741 3.9600 0.5387
0.4563 3.9325 0.4718
0.3977 3.8808 0.3976
0.4209 3.8777 0.3380
0.4652 3.8863 0.2790
0.5116 3.8952 0.2172
0.4716 3.8543 0.1453
0.4310 3.8134 0.0746
0.4127 3.7851 0.0055
0.5494 3.8415 -0.0635
0.6018 3.8503 -0.1385
0.6823 3.8730 -0.2190
0.7408 3.8827 -0.3032
0.7260 3.8312 -0.4668
0.1907 3.5024 -0.6029
-0.6324 3.0500 -0.6114
-1.0800 2.8074 -0.6032
-1.1901 2.7427 -0.6203
-1.2593 2.7061 -0.6157
-1.3316 2.6694 -0.6049
-1.4207 2.6200 -0.6075
-1.4615 2.5977 -0.6072
-1.4970 2.5780 -0.6085
-1.5281 2.5603 -0.6110
-1.5612 2.5425 -0.6099
-1.5837 2.5286 -0.6160
-1.6174 2.5117 -0.6103
-1.6392 2.4988 -0.6137
-1.6682 2.4843 -0.6085
-1.7118 2.4607 -0.6077
-1.7316 2.4500 -0.6072
-1.7526 2.4394 -0.6040
-1.7824 2.4219 -0.6085
-1.8012 2.4128 -0.6040
-1.8148 2.4051 -0.6052
-1.8282 2.3976 -0.6057
-1.8428 2.3902 -0.6035
-1.8539 2.3836 -0.6056
-1.8621 2.3776 -0.6114
-1.8788 2.3707 -0.6027
-1.8867 2.3651 -0.6075
-1.8984 2.3593 -0.6051
-1.9081 2.3540 -0.6055
-1.9195 2.3487 -0.6019
-1.9269 2.3438 -0.6049
-1.9349 2.3391 -0.6063
0.4720 4.0923 0.7159
0.5840 4.1493 0.6843
0.4168 4.0249 0.5783
0.3604 3.9730 0.5038
0.4017 3.9834 0.4504
0.4452 3.9944 0.3946
0.4918 4.0066 0.3362
0.4947 3.9912 0.2692
0.5205 3.9893 0.2034
0.4575 3.9336 0.1289
0.4180 3.8924 0.0577
0.3778 3.8511 -0.0123
0.3811 3.8354 -0.0815
0.4484 3.8559 -0.1540
0.7280 3.9745 -0.3263
0.8572 4.0020 -0.5128
0.1026 3.5387 -0.6076
-0.3332 3.2819 -0.6204
-0.6795 3.0820 -0.6146
-0.9179 2.9436 -0.6131
-1.2164 2.7676 -0.6223
-1.3485 2.6939 -0.6099
-1.4458 2.6386 -0.6049
-1.4774 2.6188 -0.6104
-1.5194 2.5955 -0.6058
-1.5809 2.5593 -0.6074
-1.6069 2.5437 -0.6096
-1.6347 2.5278 -0.6082
-1.6629 2.5123 -0.6046
-1.6804 2.5008 -0.6101
-1.7056 2.4871 -0.6061
-1.7225 2.4764 -0.6096
-1.7486 2.4633 -0.6014
-1.7578 2.4554 -0.6115
-1.7797 2.4443 -0.6053
-1.7921 2.4359 -0.6097
-1.8227 2.4185 -0.6080
-1.8380 2.4103 -0.6053
-1.8477 2.4035 -0.6100
-1.8612 2.3961 -0.6080
-1.8746 2.3891 -0.6052
-1.8845 2.3828 -0.6071
-1.8942 2.3768 -0.6085
-1.9064 2.3706 -0.6048
-1.9147 2.3652 -0.6074
-1.9246 2.3597 -0.6061
-1.9351 2.3544 -0.6029
-1.9411 2.3497 -0.6079
0.2675 4.0381 0.6495
0.3857 4.0742 0.4996
0.3887 4.0606 0.4372
0.4322 4.0736 0.3806
0.4566 4.0732 0.3182
0.4813 4.0726 0.2537
0.4406 4.0295 0.1809
0.4012 3.9876 0.1094
0.4035 3.9720 0.0406
0.4278 3.9699 -0.0290
0.4089 3.9406 -0.1004
0.4120 3.9248 -0.1726
0.5298 3.9774 -0.2541
0.6084 4.0050 -0.3394
0.6928 4.0345 -0.4312
0.6712 4.0011 -0.5126
0.8516 4.0832 -0.6315
0.3618 3.7841 -0.6181
0.1408 3.6416 -0.6422
-0.1083 3.4868 -0.6461
-0.3950 3.3153 -0.6238
-0.7098 3.1210 -0.6233
-0.9598 2.9691 -0.6132
-1.3724 2.7150 -0.6101
-1.4581 2.6618 -0.6112
-1.5078 2.6334 -0.6023
-1.5338 2.6156 -0.6091
-1.5974 2.5767 -0.6074
-1.6267 2.5591 -0.6057
-1.6533 2.5429 -0.6046
-1.6723 2.5300 -0.6094
-1.7004 2.5142 -0.6033
-1.7382 2.4902 -0.6058
-1.7750 2.4679 -0.6043
-1.8073 2.4481 -0.6034
-1.8193 2.4399 -0.6069
-1.8366 2.4304 -0.6019
-1.8476 2.4229 -0.6049
-1.8565 2.4160 -0.6104
-1.8830 2.4009 -0.6053
-1.8927 2.3945 -0.6070
-1.9036 2.3880 -0.6060
-1.9144 2.3818 -0.6044
-1.9243 2.3759 -0.6034
-1.9329 2.3704 -0.6042
-1.9413 2.3651 -0.6046
-1.9497 2.3599 -0.6045
-1.7518 2.6728 0.1083
-1.7538 2.6689 0.0974
-1.7538 2.6665 0.0870
-1.7558 2.6625 0.0760
-1.7549 2.6607 0.0657
-1.7560 2.6574 0.0546
-1.7531 2.6568 0.0445
-1.7526 2.6519 0.0223
-1.7509 2.6504 0.0112
-1.7484 2.6494 -0.0001
-1.7469 2.6476 -0.0117
0.4192 4.0216 -0.1934
0.5149 4.0648 -0.2754
0.4947 4.0335 -0.3518
0.5232 4.0325 -0.4348
0.4780 3.9855 -0.5085
0.4340 3.9395 -0.5809
0.1435 3.7459 -0.5962
0.0025 3.6450 -0.6330
-0.2100 3.5040 -0.6415
-0.4650 3.3413 -0.6237
-0.6475 3.2238 -0.6160
-0.7249 3.1680 -0.6378
-0.8434 3.0905 -0.6379
-0.9789 3.0053 -0.6230
-1.0962 2.9320 -0.6083
-1.1561 2.8910 -0.6162
-1.3552 2.7633 -0.6053
-1.3882 2.7394 -0.6154
-1.4750 2.6829 -0.6140
-1.6034 2.5983 -0.6168
-1.6403 2.5764 -0.6073
-1.6629 2.5611 -0.6095
-1.7114 2.5303 -0.6055
-1.7274 2.5187 -0.6103
-1.7487 2.5054 -0.6077
-1.7739 2.4910 -0.5987
-1.7856 2.4819 -0.6049
-1.8006 2.4718 -0.6060
-1.8161 2.4618 -0.6054
-1.8313 2.4522 -0.6039
-1.8430 2.4440 -0.6065
-1.8578 2.4350 -0.6034
-1.8691 2.4273 -0.6047
-1.8765 2.4209 -0.6116
-1.8926 2.4123 -0.6032
-1.8997 2.4063 -0.6092
-1.9135 2.3988 -0.6024
-1.9210 2.3930 -0.6064
-1.9320 2.3866 -0.6029
-1.9398 2.3810 -0.6048
-1.9487 2.3754 -0.6038
-1.9558 2.3703 -0.6061
-1.7735 2.6667 0.0795
-1.7606 2.6742 0.0733
-1.7509 2.6791 0.0654
-1.7511 2.6765 0.0544
-1.7552 2.6709 0.0423
-1.7545 2.6689 0.0313
-1.7500 2.6696 0.0208
-1.7532 2.6646 0.0087
-1.7499 2.6644 -0.0026
-1.7531 2.6594 -0.0149
-1.7518 2.6576 -0.0268
-1.7523 2.6545 -0.0391
-1.7538 2.6506 -0.0516
-1.7544 2.6473 -0.0641
-1.7487 2.6483 -0.0770
-1.7468 2.6467 -0.0902
-1.7467 2.6437 -0.1036
-1.7449 2.6418 -0.1173
-1.7414 2.6410 -0.1316
-1.7424 2.6372 -0.1456
-1.7417 2.6344 -0.1600
-0.7919 3.1844 -0.6317
-0.9319 3.0903 -0.6193
-1.0239 3.0264 -0.6207
-1.1313 2.9549 -0.6084
-1.1887 2.9135 -0.6162
-1.2610 2.8645 -0.6118
-1.3252 2.8210 -0.6076
-1.3845 2.7811 -0.6023
-1.4093 2.7607 -0.6170
-1.4527 2.7307 -0.6166
-1.4985 2.7002 -0.6115
-1.5347 2.6753 -0.6111
-1.5710 2.6509 -0.6080
-1.5966 2.6323 -0.6120
-1.6254 2.6125 -0.6112
-1.6531 2.5937 -0.6096
-1.6761 2.5776 -0.6107
-1.7044 2.5594 -0.6046
-1.7168 2.5486 -0.6140
-1.7416 2.5328 -0.6083
-1.7564 2.5215 -0.6128
-1.7758 2.5087 -0.6105
-1.7969 2.4954 -0.6045
-1.8143 2.4840 -0.6018
-1.8379 2.4662 -0.6086
-1.8552 2.4556 -0.6022
-1.8640 2.4482 -0.6080
-1.8752 2.4402 -0.6091
-1.8862 2.4325 -0.6097
-1.9084 2.4175 -0.6079
-1.9208 2.4100 -0.6033
-1.9294 2.4037 -0.6048
-1.9408 2.3969 -0.5999
-1.9473 2.3915 -0.6041
-1.9549 2.3859 -0.6054
-1.9613 2.3807 -0.6089
-1.7891 2.6734 0.0928
-1.7860 2.6738 0.0843
-1.7849 2.6726 0.0747
-1.7869 2.6689 0.0641
-1.7878 2.6659 0.0538
-1.7878 2.6637 0.0435
-1.7822 2.6659 0.0345
-1.7795 2.6656 0.0243
-1.7759 2.6660 0.0141
-1.7799 2.6606 0.0024
-1.7496 2.6811 -0.0049
-1.7511 2.6774 -0.0172
-1.7471 2.6777 -0.0292
-1.7423 2.6785 -0.0416
-1.7511 2.6692 -0.0546
-1.7456 2.6705 -0.0675
-1.7490 2.6651 -0.0806
-1.7525 2.6598 -0.0937
-1.7533 2.6563 -0.1070
-1.7499 2.6558 -0.1210
-1.7483 2.6539 -0.1351
-1.7518 2.6484 -0.1486
-1.7478 2.6480 -0.1638
-1.7464 2.6458 -0.1787
-1.7442 2.6441 -0.1943
-1.7388 2.6443 -0.2112
-1.7393 2.6406 -0.2266
-1.7375 2.6384 -0.2432
-1.7365 2.6355 -0.2598
-1.7260 2.6386 -0.2811
-1.7261 2.6348 -0.2982
-1.2864 2.8875 -0.6136
-1.3618 2.8352 -0.6009
-1.3981 2.8069 -0.6093
-1.4587 2.7650 -0.5980
-1.4803 2.7463 -0.6119
-1.5224 2.7164 -0.6083
-1.5667 2.6858 -0.5998
-1.5849 2.6701 -0.6110
-1.6231 2.6440 -0.6028
-1.6421 2.6285 -0.6103
-1.6672 2.6102 -0.6103
-1.6954 2.5907 -0.6053
-1.7100 2.5783 -0.6130
-1.7543 2.5471 -0.6078
-1.8080 2.5088 -0.6040
-1.8199 2.4992 -0.6084
-1.8361 2.4879 -0.6055
-1.8534 2.4765 -0.5997
-1.8765 2.4591 -0.6023
-1.8844 2.4520 -0.6084
-1.8959 2.4438 -0.6077
-1.9053 2.4365 -0.6097
-1.9171 2.4285 -0.6067
-1.9280 2.4211 -0.6041
-1.9376 2.4143 -0.6032
-1.9460 2.4080 -0.6041
-1.9559 2.4015 -0.6009
-1.9616 2.3962 -0.6058
-1.9702 2.3903 -0.6041
-1.8059 2.6700 0.0669
-1.8078 2.6665 0.0567
-1.8039 2.6677 0.0480
-1.7972 2.6711 0.0397
-1.7982 2.6682 0.0292
-1.7965 2.6675 0.0191
-1.7929 2.6682 0.0092
-1.7876 2.6702 -0.0009
-1.7870 2.6683 -0.0120
-1.7856 2.6672 -0.0232
-1.7751 2.6729 -0.0340
-1.7667 2.6770 -0.0457
-1.7700 2.6719 -0.0581
-1.7583 2.6783 -0.0708
-1.7486 2.6830 -0.0843
-1.7452 2.6828 -0.0981
-1.7488 2.6772 -0.1115
-1.7412 2.6800 -0.1265
-1.7441 2.6749 -0.1404
-1.7418 2.6736 -0.1554
-1.7439 2.6690 -0.1698
-1.7476 2.6633 -0.1838
-1.7431 2.6633 -0.2003
-1.7453 2.6586 -0.2151
-1.7491 2.6527 -0.2295
-1.7481 2.6501 -0.2457
-1.7447 2.6491 -0.2633
-1.7455 2.6452 -0.2795
-1.7416 2.6443 -0.2983
-1.7386 2.6427 -0.3171
-1.7381 2.6394 -0.3351
-1.7323 2.6394 -0.3566
-1.3842 2.8566 -0.6026
-1.4095 2.8340 -0.6178
-1.4588 2.7969 -0.6138
-1.5052 2.7622 -0.6086
-1.5451 2.7322 -0.6054
-1.5808 2.7052 -0.6030
-1.6080 2.6837 -0.6057
-1.6264 2.6677 -0.6148
-1.6564 2.6453 -0.6113
-1.6797 2.6272 -0.6124
-1.7041 2.6088 -0.6108
-1.7273 2.5913 -0.6085
-1.7722 2.5584 -0.6006
-1.7798 2.5500 -0.6129
-1.7946 2.5381 -0.6153
-1.8151 2.5237 -0.6089
-1.8313 2.5117 -0.6067
-1.8441 2.5015 -0.6083
-1.8567 2.4916 -0.6092
-1.8729 2.4804 -0.6034
-1.8802 2.4732 -0.6109
-1.8947 2.4631 -0.6055
-1.9054 2.4549 -0.6057
-1.9135 2.4478 -0.6096
-1.9262 2.4392 -0.6042
-1.9341 2.4325 -0.6071
-1.9424 2.4258 -0.6085
-1.9529 2.4186 -0.6046
-1.9604 2.4125 -0.6062
-1.9677 2.4066 -0.6074
-1.9778 2.4000 -0.6018
-1.8065 2.6842 0.0657
-1.8083 2.6807 0.0554
-1.8130 2.6747 0.0442
-1.8074 2.6776 0.0357
-1.8029 2.6795 0.0266
-1.7966 2.6828 0.0173
-1.7950 2.6821 0.0069
-1.7953 2.6797 -0.0042
-1.7848 2.6862 -0.0140
-1.7852 2.6836 -0.0257
-1.7848 2.6816 -0.0374
-1.7818 2.6817 -0.0492
-1.7772 2.6831 -0.0613
-1.7744 2.6829 -0.0739
-1.7657 2.6874 -0.0872
-1.7666 2.6841 -0.1003
-1.7658 2.6821 -0.1139
-1.7608 2.6833 -0.1282
-1.7519 2.6875 -0.1439
-1.7497 2.6863 -0.1589
-1.7444 2.6875 -0.1750
-1.7416 2.6866 -0.1910
-1.7430 2.6825 -0.2062
-1.7373 2.6837 -0.2240
-1.7364 2.6811 -0.2406
-1.7404 2.6750 -0.2556
-1.7405 2.6716 -0.2723
-1.7437 2.6660 -0.2878
-1.7416 2.6642 -0.3061
-1.7456 2.6579 -0.3215
-1.7452 2.6547 -0.3395
-1.7433 2.6525 -0.3588
-1.4107 2.8744 -0.6013
-1.4510 2.8411 -0.6048
-1.4987 2.8034 -0.6000
-1.5189 2.7844 -0.6137
-1.5532 2.7565 -0.6144
-1.5940 2.7249 -0.6068
-1.6545 2.6815 -0.5780
-1.6862 2.6570 -0.5722
-1.6795 2.6564 -0.6031
-1.7017 2.6382 -0.6043
-1.7208 2.6221 -0.6073
-1.7357 2.6088 -0.6139
-1.7543 2.5935 -0.6149
-1.7772 2.5761 -0.6090
-1.7933 2.5628 -0.6103
-1.8098 2.5496 -0.6098
-1.8285 2.5354 -0.6047
-1.8407 2.5249 -0.6078
-1.8552 2.5135 -0.6063
-1.8706 2.5018 -0.6021
-1.8822 2.4922 -0.6029
-1.8924 2.4835 -0.6051
-1.9049 2.4740 -0.6026
-1.9136 2.4663 -0.6058
-1.9245 2.4578 -0.6040
-1.9341 2.4501 -0.6040
-1.9412 2.4435 -0.6079
-1.9528 2.4352 -0.6021
-1.9687 2.4222 -0.6029
-1.9826 2.4104 -0.6058
-1.8326 2.6755 0.0564
-1.8277 2.6782 0.0485
-1.8249 2.6790 0.0397
-1.8240 2.6780 0.0302
-1.8231 2.6770 0.0205
-1.8186 2.6791 0.0113
-1.8098 2.6850 0.0024
-1.8085 2.6821 -0.0191
-1.8045 2.6835 -0.0298
-1.8067 2.6796 -0.0414
-1.8063 2.6778 -0.0528
-1.8025 2.6789 -0.0645
-1.7962 2.6820 -0.0767
-1.7671 2.7041 -0.0908
-1.7723 2.6973 -0.1038
-1.7783 2.6899 -0.1166
-1.7709 2.6934 -0.1312
-1.7720 2.6900 -0.1450
-1.7755 2.6845 -0.1584
-1.7686 2.6874 -0.1744
-1.7690 2.6844 -0.1890
-1.7687 2.6819 -0.2041
-1.7519 2.6923 -0.2253
-1.7542 2.6875 -0.2406
-1.7495 2.6881 -0.2588
-1.7527 2.6826 -0.2741
-1.7452 2.6851 -0.2948
-1.7410 2.6851 -0.3146
-1.7429 2.6804 -0.3315
-1.7433 2.6767 -0.3494
-1.4092 2.9114 -0.6189
-1.4620 2.8675 -0.6131
-1.5032 2.8325 -0.6125
-1.5346 2.8050 -0.6170
-1.5782 2.7694 -0.6088
-1.5988 2.7501 -0.6182
-1.7142 2.6629 -0.5587
-1.7224 2.6532 -0.5734
-1.7179 2.6518 -0.6018
-1.7340 2.6370 -0.6075
-1.7559 2.6188 -0.6052
-1.7760 2.6020 -0.6032
-1.8129 2.5714 -0.5990
-1.8208 2.5627 -0.6094
-1.8374 2.5491 -0.6068
-1.8512 2.5373 -0.6069
-1.8630 2.5269 -0.6091
-1.8740 2.5170 -0.6116
-1.8903 2.5046 -0.6044
-1.9032 2.4941 -0.6013
-1.9125 2.4857 -0.6038
-1.9211 2.4778 -0.6069
-1.9301 2.4699 -0.6083
-1.9418 2.4608 -0.6037
-1.9500 2.4536 -0.6052
-1.9671 2.4392 -0.6044
-1.9815 2.4265 -0.6067
-1.8442 2.6790 0.0517
-1.8403 2.6810 0.0437
-1.8384 2.6812 0.0348
-1.8338 2.6839 0.0264
-1.8321 2.6838 0.0170
-1.8313 2.6828 0.0071
-1.8323 2.6801 -0.0032
-1.8263 2.6838 -0.0127
-1.8274 2.6809 -0.0234
-1.8242 2.6820 -0.0339
-1.8203 2.6836 -0.0447
-1.8199 2.6820 -0.0560
-1.8161 2.6834 -0.0675
-1.8116 2.6854 -0.0795
-1.8114 2.6834 -0.0916
-1.8113 2.6814 -0.1039
-1.8038 2.6858 -0.1174
-1.7973 2.6892 -0.1314
-1.7950 2.6889 -0.1453
-1.7887 2.6918 -0.1604
-1.7875 2.6904 -0.1748
-1.7870 2.6883 -0.1893
-1.7836 2.6887 -0.2051
-1.7794 2.6895 -0.2217
-1.7724 2.6927 -0.2400
-1.7678 2.6937 -0.2580
-1.7633 2.6944 -0.2765
-1.3450 3.0104 -0.6109
-1.4454 2.9262 -0.5784
-1.4504 2.9170 -0.6066
-1.4886 2.8822 -0.6096
-1.5200 2.8532 -0.6155
-1.7172 2.6929 -0.5236
-1.7260 2.6825 -0.5378
-1.7288 2.6766 -0.5579
-1.7316 2.6705 -0.5781
-1.7312 2.6668 -0.6022
-1.7419 2.6552 -0.6137
-1.7666 2.6342 -0.6073
-1.7864 2.6168 -0.6051
-1.8171 2.5889 -0.6083
-1.8493 2.5608 -0.6043
-1.8623 2.5491 -0.6050
-1.8988 2.5164 -0.6048
-1.9064 2.5086 -0.6109
-1.9185 2.4983 -0.6082
-1.9309 2.4880 -0.6036
-1.9414 2.4790 -0.6015
-1.9468 2.4728 -0.6090
-1.9587 2.4634 -0.6024
-1.9666 2.4562 -0.6033
-1.9754 2.4486 -0.6013
-1.9820 2.4423 -0.6037
-1.9895 2.4356 -0.6032
-1.8482 2.6894 0.0494
-1.8490 2.6871 0.0400
-1.8454 2.6892 0.0317
-1.8463 2.6868 0.0220
-1.8427 2.6887 0.0131
-1.8384 2.6913 0.0041
-1.8394 2.6886 -0.0062
-1.8370 2.6893 -0.0162
-1.8347 2.6898 -0.0264
-1.8342 2.6886 -0.0371
-1.8294 2.6913 -0.0478
-1.8265 2.6922 -0.0590
-1.8253 2.6914 -0.0705
-1.8243 2.6906 -0.0822
-1.8191 2.6934 -0.0946
-1.8149 2.6953 -0.1073
-1.8084 2.6992 -0.1208
-1.8093 2.6963 -0.1337
-1.8102 2.6933 -0.1468
-1.8096 2.6917 -0.1603
-1.8028 2.6955 -0.1759
-1.7866 2.7052 -0.2100
-1.7834 2.7055 -0.2265
-1.7856 2.7011 -0.2411
-1.7826 2.7011 -0.2583
-1.2406 3.1510 -0.6183
-1.3182 3.0797 -0.6096
-1.3544 3.0437 -0.6224
-1.4248 2.9799 -0.6090
-1.4589 2.9466 -0.6171
-1.5380 2.8724 -0.6174
-1.7344 2.7040 -0.5206
-1.7071 2.7175 -0.5952
-1.7265 2.6988 -0.5987
-1.7606 2.6655 -0.6068
-1.7810 2.6467 -0.6046
-1.7986 2.6302 -0.6045
-1.8092 2.6189 -0.6126
-1.8294 2.6011 -0.6063
-1.8462 2.5858 -0.6031
-1.8580 2.5742 -0.6063
-1.8804 2.5524 -0.6116
-1.8946 2.5397 -0.6079
-1.9073 2.5282 -0.6052
-1.9159 2.5195 -0.6091
-1.9277 2.5089 -0.6061
-1.9410 2.4976 -0.5991
-1.9481 2.4903 -0.6035
-1.9566 2.4821 -0.6041
-1.9672 2.4730 -0.5995
-1.9728 2.4668 -0.6050
-1.9815 2.4590 -0.6029
-1.9870 2.4531 -0.6078
-1.9955 2.4456 -0.6047
-2.0018 2.4395 -0.6063
-1.8360 2.7180 0.0617
-1.8306 2.7221 0.0539
-1.8371 2.7126 0.0326
-1.8381 2.7100 0.0225
-1.8418 2.7048 0.0117
-1.8385 2.7066 0.0023
-1.8370 2.7066 -0.0078
-1.8365 2.7056 -0.0182
-1.8360 2.7045 -0.0288
-1.8380 2.7008 -0.0398
-1.8343 2.7029 -0.0507
-1.8306 2.7048 -0.0619
-1.8205 2.7130 -0.0737
-1.8220 2.7097 -0.0857
-1.8138 2.7158 -0.0986
-1.8090 2.7185 -0.1119
-1.8251 2.7011 -0.1225
-1.8315 2.6932 -0.1340
-1.8284 2.6942 -0.1474
-1.8262 2.6943 -0.1610
-0.5850 3.8489 -0.5911
-0.5886 3.8368 -0.6486
-1.0569 3.3827 -0.6090
-1.1214 3.3176 -0.6207
-1.1936 3.2462 -0.6239
-1.2461 3.1933 -0.6338
-1.3893 3.0551 -0.6169
-1.4466 2.9998 -0.6107
-1.5398 2.9094 -0.6025
-1.5633 2.8848 -0.6128
-1.7434 2.7211 -0.5252
-1.7078 2.7433 -0.6101
-1.7308 2.7208 -0.6093
-1.7739 2.6790 -0.6059
-1.7928 2.6606 -0.6050
-1.8046 2.6479 -0.6121
-1.8223 2.6309 -0.6100
-1.8391 2.6147 -0.6077
-1.8527 2.6012 -0.6088
-1.8833 2.5722 -0.6020
-1.8910 2.5635 -0.6094
-1.9038 2.5513 -0.6074
-1.9174 2.5386 -0.6025
-1.9275 2.5286 -0.6030
-1.9369 2.5192 -0.6040
-1.9467 2.5097 -0.6034
-1.9552 2.5012 -0.6044
-1.9642 2.4925 -0.6037
-1.9725 2.4843 -0.6037
-1.9822 2.4754 -0.5995
-1.9902 2.4677 -0.5984
-1.9960 2.4615 -0.6018
-2.0028 2.4547 -0.6023
-1.8332 2.7365 0.0617
-1.8342 2.7341 0.0517
-1.8370 2.7298 0.0411
-1.8380 2.7273 0.0310
-1.8409 2.7229 0.0203
-1.8324 2.7304 0.0120
-1.8353 2.7259 0.0010
-1.8374 2.7223 -0.0099
-1.8378 2.7205 -0.0206
-1.8340 2.7229 -0.0310
-1.8303 2.7252 -0.0419
-1.8152 2.7392 -0.0529
-1.7940 2.7576 -0.0779
-1.7829 2.7670 -0.0918
-1.8359 2.7097 -0.1124
-1.8438 2.7001 -0.1236
-1.8484 2.6938 -0.1350
-1.8546 2.6859 -0.1459
-1.8485 2.6903 -0.1600
-0.7529 3.7546 -0.6110
-0.8582 3.6448 -0.6222
-0.9450 3.5539 -0.6346
-1.0551 3.4413 -0.6299
-1.1497 3.3446 -0.6255
-1.2193 3.2726 -0.6285
-1.2815 3.2084 -0.6313
-1.3796 3.1110 -0.6061
-1.4626 3.0243 -0.6163
-1.5078 2.9781 -0.6140
-1.5563 2.9294 -0.6055
-1.5721 2.9109 -0.6219
-1.7221 2.7582 -0.6102
-1.7646 2.7147 -0.6096
-1.7804 2.6979 -0.6136
-1.8026 2.6759 -0.6078
-1.8364 2.6414 -0.6056
-1.8644 2.6125 -0.6064
-1.8876 2.5880 -0.6105
-1.9015 2.5743 -0.6071
-1.9151 2.5609 -0.6028
-1.9335 2.5413 -0.6074
-1.9438 2.5309 -0.6062
-1.9545 2.5203 -0.6032
-1.9629 2.5116 -0.6041
-1.9717 2.5026 -0.6033
-1.9783 2.4954 -0.6066
-1.9863 2.4872 -0.6060
-1.9947 2.4789 -0.6037
-2.0005 2.4724 -0.6071
-1.8341 2.7516 0.0605
-1.8382 2.7432 0.0295
-1.8368 2.7435 0.0197
-1.8198 2.7596 0.0017
-1.8094 2.7695 -0.0080
-1.8051 2.7728 -0.0192
-1.8034 2.7731 -0.0310
-1.7977 2.7778 -0.0430
-1.7945 2.7796 -0.0555
-1.7891 2.7838 -0.0684
-1.7766 2.7955 -0.0823
-1.8653 2.6964 -0.1122
-1.8698 2.6902 -0.1231
-1.8651 2.6937 -0.1357
-1.8650 2.6922 -0.1478
-1.8643 2.6915 -0.1603
-0.7859 3.7936 -0.6206
-0.8960 3.6742 -0.6279
-0.9606 3.6021 -0.6489
-1.1685 3.3802 -0.6351
-1.2825 3.2608 -0.6108
-1.3975 3.1369 -0.6119
-1.4502 3.0806 -0.6096
-1.5013 3.0262 -0.6044
-1.5296 2.9946 -0.6137
-1.5648 2.9566 -0.6152
-1.7137 2.7971 -0.6102
-1.7425 2.7671 -0.6030
-1.7749 2.7310 -0.6127
-1.7971 2.7078 -0.6079
-1.8147 2.6889 -0.6073
-1.8279 2.6741 -0.6115
-1.8496 2.6520 -0.6019
-1.8606 2.6396 -0.6069
-1.8748 2.6244 -0.6057
-1.8861 2.6120 -0.6084
-1.8971 2.5999 -0.6104
-1.9096 2.5867 -0.6087
-1.9197 2.5756 -0.6104
-1.9302 2.5643 -0.6104
-1.9421 2.5520 -0.6065
-1.9581 2.5341 -0.6120
-1.9689 2.5230 -0.6072
-1.9766 2.5146 -0.6086
-1.9851 2.5056 -0.6072
-1.9940 2.4965 -0.6041
-2.0003 2.4894 -0.6065
-2.0070 2.4821 -0.6074
-2.0149 2.4740 -0.6039
-1.8076 2.7999 0.0787
-1.8098 2.7962 0.0675
-1.8111 2.7935 0.0565
-1.8142 2.7887 0.0449
-1.8113 2.7909 0.0348
-1.8102 2.7909 0.0240
-1.8091 2.7909 0.0129
-1.8065 2.7926 0.0018
-1.8080 2.7895 -0.0101
-1.8039 2.7928 -0.0216
-1.7983 2.7979 -0.0334
-1.7944 2.8008 -0.0458
-1.7882 2.8063 -0.0587
-1.7775 2.8169 -0.0722
-1.7756 2.8174 -0.0862
-1.8763 2.7011 -0.1143
-1.8837 2.6916 -0.1244
-1.8813 2.6930 -0.1363
-1.8820 2.6909 -0.1479
-1.8783 2.6936 -0.1609
-0.9319 3.7041 -0.6339
-1.1551 3.4549 -0.6193
-1.2531 3.3461 -0.6073
-1.2994 3.2928 -0.6194
-1.4153 3.1627 -0.6178
-1.5193 3.0469 -0.6076
-1.5811 2.9763 -0.6182
-1.7845 2.7607 -0.5018
-1.7484 2.7889 -0.6123
-1.7727 2.7622 -0.6075
-1.7906 2.7419 -0.6089
-1.8249 2.7033 -0.6092
-1.8581 2.6665 -0.6051
-1.8684 2.6543 -0.6108
-1.8840 2.6371 -0.6068
-1.8972 2.6224 -0.6055
-1.9043 2.6135 -0.6140
-1.9302 2.5852 -0.6067
-1.9400 2.5741 -0.6075
-1.9516 2.5615 -0.6033
-1.9590 2.5528 -0.6072
-1.9688 2.5420 -0.6050
-1.9760 2.5337 -0.6080
-1.9874 2.5217 -0.5999
-1.9919 2.5158 -0.6078
-2.0001 2.5068 -0.6057
-2.0058 2.4999 -0.6094
-2.0152 2.4902 -0.6025
-2.0211 2.4833 -0.6040
-2.0261 2.4773 -0.6079
-1.8259 2.7948 0.0611
-1.8289 2.7902 0.0499
-1.8260 2.7927 0.0403
-1.8273 2.7901 0.0293
-1.8303 2.7854 0.0178
-1.8309 2.7836 0.0069
-1.8241 2.7906 -0.0031
-1.8248 2.7886 -0.0146
-1.7859 2.8310 -0.0486
-1.7855 2.8301 -0.0620
-1.7766 2.8391 -0.0760
-1.7695 2.8460 -0.0906
-1.8938 2.6976 -0.1151
-1.8966 2.6933 -0.1257
-1.8935 2.6958 -0.1376
-1.8920 2.6964 -0.1496
-1.8927 2.6945 -0.1611
-1.0177 3.6763 -0.6164
-1.0797 3.6019 -0.6338
-1.1832 3.4813 -0.6242
-1.2673 3.3832 -0.6183
-1.3196 3.3210 -0.6260
-1.3798 3.2506 -0.6246
-1.4382 3.1825 -0.6198
-1.4924 3.1195 -0.6136
-1.5704 3.0279 -0.6144
-1.5935 2.9998 -0.6245
-1.7932 2.7771 -0.5062
-1.7489 2.8195 -0.6030
-1.7849 2.7767 -0.6085
-1.8013 2.7571 -0.6112
-1.8175 2.7380 -0.6128
-1.8385 2.7141 -0.6060
-1.8490 2.7010 -0.6131
-1.8767 2.6684 -0.6139
-1.8905 2.6524 -0.6125
-1.9029 2.6378 -0.6121
-1.9178 2.6209 -0.6060
-1.9277 2.6091 -0.6078
-1.9360 2.5990 -0.6122
-1.9501 2.5832 -0.6035
-1.9600 2.5717 -0.6023
-1.9668 2.5633 -0.6071
-1.9740 2.5545 -0.6104
-1.9825 2.5446 -0.6099
-1.9923 2.5336 -0.6052
-1.9967 2.5276 -0.6132
-2.0043 2.5187 -0.6123
-2.0123 2.5096 -0.6097
-2.0205 2.5004 -0.6053
-2.0256 2.4941 -0.6094
-2.0314 2.4872 -0.6105
-1.8329 2.8048 0.0679
-1.8392 2.7960 0.0558
-1.8405 2.7936 0.0453
-1.8442 2.7880 0.0340
-1.8447 2.7866 0.0236
-1.8476 2.7820 0.0125
-1.8489 2.7795 0.0017
-1.8454 2.7829 -0.0085
-1.8500 2.7763 -0.0201
-1.8498 2.7756 -0.0311
-1.7770 2.8630 -0.0517
-1.7792 2.8592 -0.0656
-1.7691 2.8703 -0.0801
-1.9115 2.6919 -0.1264
-1.9068 2.6956 -0.1497
-1.9089 2.6921 -0.1605
-1.1556 3.5762 -0.6155
-1.2279 3.4872 -0.6195
-1.3030 3.3955 -0.6163
-1.3431 3.3452 -0.6303
-1.4041 3.2707 -0.6267
-1.4428 3.2227 -0.6351
-1.5134 3.1378 -0.6152
-1.5745 3.0645 -0.5973
-1.5887 3.0455 -0.6158
-1.7592 2.8374 -0.6073
-1.7765 2.8158 -0.6112
-1.7918 2.7967 -0.6163
-1.8307 2.7496 -0.6108
-1.8451 2.7317 -0.6128
-1.8615 2.7118 -0.6104
-1.8744 2.6958 -0.6123
-1.8871 2.6802 -0.6133
-1.9134 2.6483 -0.6101
-1.9259 2.6332 -0.6076
-1.9372 2.6195 -0.6063
-1.9477 2.6066 -0.6053
-1.9669 2.5832 -0.6044
-1.9755 2.5727 -0.6047
-1.9825 2.5638 -0.6079
-1.9913 2.5532 -0.6060
-1.9967 2.5461 -0.6118
-2.0066 2.5345 -0.6052
-2.0131 2.5264 -0.6065
-2.0196 2.5184 -0.6075
-2.0309 2.5042 -0.6121
-1.8531 2.7943 0.0303
-1.8617 2.7824 0.0180
-1.8661 2.7759 0.0069
-1.8674 2.7736 -0.0035
-1.8726 2.7662 -0.0146
-1.8676 2.7719 -0.0243
-1.8728 2.7644 -0.0355
-1.8633 2.7716 -0.1036
-1.9198 2.6985 -0.1177
-1.9203 2.6971 -0.1282
-1.9222 2.6939 -0.1385
-1.9249 2.6897 -0.1486
-1.9234 2.6909 -0.1602
-1.7819 2.8633 -0.2775
-1.1980 3.5854 -0.6133
-1.2253 3.5485 -0.6414
-1.3098 3.4412 -0.6318
-1.3974 3.3307 -0.6134
-1.4390 3.2769 -0.6208
-1.4851 3.2179 -0.6218
-1.6301 3.0366 -0.5666
-1.6437 3.0180 -0.5833
-1.6426 3.0173 -0.6136
-1.7713 2.8531 -0.6094
-1.8039 2.8109 -0.6172
-1.8387 2.7665 -0.6160
-1.8723 2.7240 -0.6102
-1.9016 2.6870 -0.6053
-1.9096 2.6762 -0.6126
-1.9247 2.6574 -0.6060
-1.9425 2.6341 -0.6129
-1.9559 2.6176 -0.6056
-1.9660 2.6047 -0.6037
-1.9723 2.5963 -0.6099
-1.9803 2.5860 -0.6113
-1.9895 2.5743 -0.6087
-1.9977 2.5639 -0.6078
-2.0039 2.5557 -0.6112
-2.0118 2.5458 -0.6093
-2.0196 2.5360 -0.6069
-2.0259 2.5279 -0.6077
-2.0326 2.5194 -0.6069
-2.0378 2.5125 -0.6095
-2.0439 2.5048 -0.6091
-1.9038 2.7444 0.0244
-1.9056 2.7409 0.0063
-1.8955 2.7523 -0.0296
-1.8998 2.7461 -0.0399
-1.8979 2.7480 -0.0499
-1.8743 2.7770 -0.0942
-1.8839 2.7636 -0.1048
-1.9365 2.6916 -0.1386
-1.9363 2.6912 -0.1493
-1.9341 2.6935 -0.1609
-1.8084 2.8555 -0.2549
-1.8098 2.8527 -0.2713
-1.2389 3.5939 -0.6110
-1.2883 3.5273 -0.6242
-1.3447 3.4520 -0.6294
-1.4070 3.3691 -0.6260
-1.4600 3.2986 -0.6244
-1.6524 3.0474 -0.5351
-1.6627 3.0326 -0.5541
-1.6687 3.0233 -0.5767
-1.7866 2.8645 -0.6071
-1.8147 2.8263 -0.6196
-1.8580 2.7695 -0.6040
-1.8819 2.7373 -0.6117
-1.8954 2.7194 -0.6113
-1.9086 2.7018 -0.6101
-1.9235 2.6822 -0.6041
-1.9328 2.6697 -0.6077
-1.9448 2.6539 -0.6048
-1.9547 2.6407 -0.6051
-1.9639 2.6284 -0.6058
-1.9730 2.6163 -0.6059
-1.9795 2.6072 -0.6109
-1.9906 2.5929 -0.6043
-1.9978 2.5832 -0.6061
-2.0054 2.5731 -0.6062
-2.0115 2.5647 -0.6094
-2.0192 2.5546 -0.6073
-2.0247 2.5470 -0.6110
-2.0322 2.5372 -0.6080
-2.0383 2.5291 -0.6083
-2.0451 2.5202 -0.6056
-2.0494 2.5142 -0.6104
-1.9110 2.7500 0.0213
-1.9119 2.7484 0.0124
-1.9122 2.7473 -0.0055
-1.9131 2.7455 -0.0148
-1.9111 2.7480 -0.0238
-1.9098 2.7493 -0.0332
-1.9147 2.7421 -0.0432
-1.9143 2.7422 -0.0529
-1.9132 2.7433 -0.0628
-1.8909 2.7730 -0.0960
-1.9472 2.6934 -0.1293
-1.9490 2.6905 -0.1390
-1.9522 2.6857 -0.1482
-1.9473 2.6920 -0.1605
-1.8181 2.8664 -0.2749
-1.3845 3.4537 -0.6228
-1.4430 3.3726 -0.6198
-1.4801 3.3207 -0.6284
-1.6862 3.0392 -0.5215
-1.7973 2.8812 -0.6106
-1.8191 2.8511 -0.6061
-1.8303 2.8351 -0.6149
-1.8653 2.7867 -0.6099
-1.8785 2.7684 -0.6120
-1.8935 2.7477 -0.6096
-1.9031 2.7341 -0.6153
-1.9318 2.6947 -0.6059
-1.9409 2.6819 -0.6094
-1.9623 2.6522 -0.6065
-1.9794 2.6285 -0.6092
-1.9872 2.6175 -0.6108
-1.9963 2.6050 -0.6086
-2.0025 2.5962 -0.6126
-2.0121 2.5831 -0.6068
-2.0190 2.5736 -0.6075
-2.0270 2.5626 -0.6041
-2.0380 2.5470 -0.6095
-2.0429 2.5402 -0.6136
-2.0488 2.5320 -0.6136
-1.9453 2.6261 -0.6071
-1.8504 2.7917 0.0466
-1.8546 2.7850 0.0355
-1.8587 2.7783 0.0245
-1.8621 2.7729 0.0138
-1.8668 2.7651 0.0029
-1.8688 2.7620 -0.0074
-1.8729 2.7555 -0.0180
-1.8736 2.7546 -0.0282
-1.8737 2.7547 -0.0384
-1.8758 2.7515 -0.0489
-1.8466 2.8025 -0.0831
-1.9141 2.6884 -0.1185
-1.9166 2.6844 -0.1282
-1.9186 2.6814 -0.1382
-1.9165 2.6853 -0.1497
-1.9162 2.6862 -0.1610
-1.9126 2.6927 -0.1741
-1.8204 2.8528 -0.2513
-1.8199 2.8543 -0.2689
-1.4571 3.4855 -0.6136
-1.5495 3.3275 -0.6106
-1.7339 3.0085 -0.4928
-1.7403 2.9983 -0.5125
-1.8115 2.8798 -0.6036
-1.8256 2.8558 -0.6068
-1.8364 2.8375 -0.6143
-1.8560 2.8037 -0.6043
-1.8680 2.7833 -0.6066
-1.8782 2.7662 -0.6113
-1.8893 2.7472 -0.6128
-1.9010 2.7271 -0.6115
-1.9133 2.7060 -0.6075
-1.9222 2.6909 -0.6100
-1.9324 2.6734 -0.6079
-1.9421 2.6568 -0.6060
-1.9508 2.6419 -0.6053
-1.9568 2.6319 -0.6113
-1.9673 2.6137 -0.6029
-1.9727 2.6047 -0.6090
-1.9807 2.5909 -0.6057
-1.9868 2.5804 -0.6075
-1.9945 2.5671 -0.6029
-1.9998 2.5582 -0.6061
-2.0050 2.5495 -0.6088
-2.0116 2.5381 -0.6050
-2.0177 2.5275 -0.6019
-2.0217 2.5209 -0.6073
-2.0279 2.5101 -0.6019
-2.0317 2.5038 -0.6067
-1.8887 2.7458 0.0298
-1.8899 2.7441 0.0205
-1.8858 2.7523 0.0034
-1.8878 2.7493 -0.0066
-1.8892 2.7474 -0.0165
-1.8924 2.7421 -0.0267
-1.8919 2.7435 -0.0366
-1.8952 2.7382 -0.0469
-1.8948 2.7395 -0.0571
-1.8698 2.7848 -0.0679
-1.8662 2.7919 -0.0798
-1.8799 2.7680 -0.0906
-1.8875 2.7549 -0.1012
-1.9258 2.6873 -0.1158
-1.9283 2.6833 -0.1256
-1.9292 2.6823 -0.1358
-1.9278 2.6853 -0.1471
-1.9272 2.6871 -0.1585
-1.9298 2.6830 -0.1687
-1.8383 2.8519 -0.2639
-1.4799 3.5123 -0.6164
-1.5427 3.3991 -0.6018
-1.5774 3.3374 -0.6073
-1.8515 2.8393 -0.4694
-1.8558 2.8325 -0.4860
-1.8575 2.8361 -0.6069
-1.8782 2.7998 -0.6189
-1.9057 2.7501 -0.6107
-1.9169 2.7300 -0.6096
-1.9264 2.7131 -0.6112
-1.9382 2.6916 -0.6055
-1.9462 2.6774 -0.6084
-1.9555 2.6608 -0.6067
-1.9642 2.6452 -0.6052
-1.9710 2.6331 -0.6081
-1.9783 2.6200 -0.6084
-1.9855 2.6071 -0.6081
-1.9910 2.5976 -0.6128
-2.0003 2.5803 -0.6023
-2.0064 2.5694 -0.6025
-2.0118 2.5599 -0.6045
-2.0177 2.5494 -0.6037
-2.0234 2.5391 -0.6024
-2.0281 2.5307 -0.6044
-2.0325 2.5230 -0.6073
-2.0387 2.5116 -0.6007
-2.0421 2.5058 -0.6069
-1.8979 2.7482 0.0413
-1.8992 2.7467 0.0322
-1.9010 2.7439 0.0227
-1.9036 2.7399 0.0130
-1.9036 2.7405 0.0039
-1.9037 2.7411 -0.0053
-1.9050 2.7393 -0.0150
-1.9076 2.7352 -0.0250
-1.9060 2.7389 -0.0344
-1.9069 2.7381 -0.0445
-1.9066 2.7393 -0.0546
-1.8870 2.7780 -0.0766
-1.8894 2.7743 -0.0881
-1.8946 2.7654 -0.0993
-1.9358 2.6892 -0.1136
-1.9383 2.6852 -0.1234
-1.9403 2.6822 -0.1333
-1.9402 2.6832 -0.1441
-1.9391 2.6861 -0.1556
-1.9407 2.6839 -0.1662
-1.8545 2.8533 -0.2603
-1.4933 3.5603 -0.6282
-1.5961 3.3661 -0.6134
-1.8130 2.9493 -0.4941
-1.8520 2.8738 -0.4668
-1.8645 2.8509 -0.4727
-1.8672 2.8472 -0.4922
-1.8464 2.8952 -0.6052
-1.8587 2.8725 -0.6104
-1.8715 2.8486 -0.6132
-1.8882 2.8168 -0.6063
-1.8974 2.7999 -0.6131
-1.9201 2.7574 -0.6137
-1.9325 2.7336 -0.6085
-1.9420 2.7159 -0.6094
-1.9502 2.7006 -0.6123
-1.9577 2.6870 -0.6165
-1.9685 2.6661 -0.6093
-1.9765 2.6511 -0.6090
-1.9840 2.6370 -0.6091
-1.9919 2.6219 -0.6064
-1.9985 2.6096 -0.6073
-2.0046 2.5982 -0.6087
-2.0126 2.5826 -0.6017
-2.0176 2.5735 -0.6055
-2.0231 2.5633 -0.6065
-2.0295 2.5510 -0.6022
-2.0344 2.5418 -0.6035
-2.0392 2.5328 -0.6043
-2.0440 2.5240 -0.6048
-2.0474 2.5180 -0.6114
-2.0533 2.5062 -0.6031
-1.9065 2.7527 0.0445
-1.9084 2.7499 0.0350
-1.9097 2.7483 0.0257
-1.9123 2.7443 0.0159
-1.9136 2.7426 0.0065
-1.9109 2.7489 -0.0020
-1.9152 2.7414 -0.0125
-1.9149 2.7429 -0.0219
-1.9170 2.7399 -0.0320
-1.9191 2.7368 -0.0421
-1.9178 2.7403 -0.0521
-1.9183 2.7404 -0.0624
-1.9162 2.7458 -0.0731
-1.9039 2.7712 -0.0851
-1.9032 2.7739 -0.0970
-1.9463 2.6901 -0.1113
-1.9488 2.6861 -0.1210
-1.9508 2.6831 -0.1309
-1.9524 2.6811 -0.1411
-1.9510 2.6850 -0.1527
-1.9512 2.6858 -0.1640
-1.4932 3.6374 -0.6088
-1.5666 3.4901 -0.5876
-1.5751 3.4767 -0.6206
-1.6323 3.3617 -0.6025
-1.6439 3.3414 -0.6283
-1.8389 2.9408 -0.4828
-1.8729 2.8712 -0.4597
-1.8840 2.8500 -0.4668
-1.8868 2.8464 -0.4862
-1.8499 2.9314 -0.6037
-1.8668 2.8978 -0.6012
-1.8775 2.8774 -0.6088
-1.9022 2.8291 -0.6130
-1.9149 2.8038 -0.6114
-1.9266 2.7804 -0.6103
-1.9381 2.7575 -0.6081
-1.9493 2.7350 -0.6048
-1.9577 2.7187 -0.6076
-1.9668 2.7006 -0.6069
-1.9742 2.6863 -0.6101
-1.9835 2.6675 -0.6059
-1.9909 2.6530 -0.6067
-1.9994 2.6356 -0.6018
-2.0039 2.6276 -0.6107
-2.0121 2.6108 -0.6042
-2.0167 2.6024 -0.6113
-2.0240 2.5874 -0.6056
-2.0291 2.5776 -0.6084
-2.0353 2.5650 -0.6049
-2.0404 2.5550 -0.6056
-2.0451 2.5458 -0.6070
-2.0504 2.5350 -0.6042
-2.0554 2.5250 -0.6022
-2.0592 2.5179 -0.6062
-2.0631 2.5104 -0.6087
-1.9111 2.7656 0.0497
-1.9154 2.7580 0.0389
-1.9174 2.7551 0.0293
-1.9209 2.7505 0.0100
-1.9222 2.7502 -0.0091
-1.9237 2.7483 -0.0191
-1.9258 2.7453 -0.0292
-1.9274 2.7433 -0.0393
-1.9290 2.7413 -0.0496
-1.9286 2.7435 -0.0599
-1.9292 2.7435 -0.0705
-1.9208 2.7626 -0.0820
-1.9187 2.7686 -0.0938
-1.9559 2.6931 -0.1091
-1.9594 2.6870 -0.1186
-1.9614 2.6841 -0.1286
-1.9625 2.6831 -0.1389
-1.9623 2.6850 -0.1501
-1.9626 2.6858 -0.1613
-1.8903 2.8485 -0.2505
-1.5112 3.6883 -0.6189
-1.6087 3.4843 -0.6147
-1.6459 3.4068 -0.6161
-1.6809 3.3335 -0.6154
-1.8728 2.9126 -0.4590
-1.8871 2.8830 -0.4624
-1.8953 2.8675 -0.4740
-1.8668 2.9446 -0.6083
-1.8976 2.8799 -0.6050
-1.9204 2.8331 -0.6110
-1.9334 2.8054 -0.6073
-1.9413 2.7901 -0.6154
-1.9546 2.7612 -0.6068
-1.9652 2.7387 -0.6037
-1.9726 2.7237 -0.6084
-1.9805 2.7076 -0.6108
-1.9893 2.6890 -0.6086
-1.9989 2.6681 -0.6016
-2.0051 2.6557 -0.6055
-2.0116 2.6421 -0.6068
-2.0178 2.6295 -0.6086
-2.0236 2.6177 -0.6109
-2.0309 2.6017 -0.6050
-2.0370 2.5886 -0.6027
-2.0417 2.5794 -0.6067
-2.0482 2.5649 -0.5998
-2.0520 2.5578 -0.6064
-2.0573 2.5462 -0.6031
-2.0612 2.5388 -0.6079
-2.0664 2.5271 -0.6022
-2.0703 2.5194 -0.6050
-2.0744 2.5108 -0.6049
-1.9173 2.7762 0.0545
-1.9200 2.7720 0.0443
-1.9226 2.7679 0.0341
-1.9225 2.7695 0.0250
-1.9279 2.7626 -0.0052
-1.9327 2.7538 -0.0161
-1.9364 2.7473 -0.0266
-1.9380 2.7454 -0.0368
-1.9392 2.7444 -0.0470
-1.9394 2.7456 -0.0573
-1.9412 2.7435 -0.0679
-1.9386 2.7509 -0.0789
-1.9339 2.7633 -0.0907
-1.9664 2.6940 -0.1068
-1.9703 2.6869 -0.1162
-1.9724 2.6839 -0.1260
-1.9727 2.6850 -0.1367
-1.9740 2.6839 -0.1472
-1.9740 2.6858 -0.1586
-1.5470 3.7039 -0.6145
-1.6024 3.5803 -0.6071
-1.6345 3.5111 -0.6175
-1.6778 3.4143 -0.6108
-1.7051 3.3550 -0.6180
-1.8967 2.9039 -0.4481
-1.9048 2.8881 -0.4604
-1.9080 2.8842 -0.4805
-1.9077 2.8894 -0.5076
-1.8895 2.9449 -0.6020
-1.8979 2.9286 -0.6155
-1.9095 2.9038 -0.6205
-1.9244 2.8701 -0.6156
-1.9385 2.8378 -0.6098
-1.9520 2.8070 -0.6031
-1.9584 2.7947 -0.6146
-1.9693 2.7701 -0.6113
-1.9802 2.7452 -0.6060
-1.9892 2.7251 -0.6047
-1.9961 2.7104 -0.6090
-2.0039 2.6932 -0.6088
-2.0122 2.6742 -0.6050
-2.0189 2.6596 -0.6061
-2.0254 2.6454 -0.6066
-2.0352 2.6209 -0.5897
-2.0478 2.5921 -0.5833
-2.0493 2.5922 -0.6043
-2.0540 2.5823 -0.6073
-2.0597 2.5690 -0.6028
-2.0643 2.5589 -0.6037
-2.0697 2.5461 -0.5980
-2.0735 2.5381 -0.6015
-2.0778 2.5286 -0.6009
-2.0813 2.5215 -0.6051
-2.0849 2.5140 -0.6077
-1.9213 2.7910 0.0697
-1.9240 2.7868 0.0593
-1.9267 2.7825 0.0489
-1.9289 2.7795 0.0388
-1.9475 2.7483 -0.0241
-1.9473 2.7508 -0.0340
-1.9505 2.7454 -0.0445
-1.9508 2.7488 -0.0653
-1.9513 2.7497 -0.0762
-1.9829 2.6849 -0.1237
-1.9842 2.6839 -0.1340
-1.9860 2.6819 -0.1442
-1.9853 2.6857 -0.1559
-1.6872 3.4642 -0.5492
-1.6940 3.4548 -0.5828
-1.9236 2.8906 -0.4567
-1.9285 2.8825 -0.4739
-1.9337 2.8736 -0.4903
-1.9388 2.8647 -0.5067
-1.9185 2.9336 -0.6133
-1.9337 2.8969 -0.6079
-1.9441 2.8734 -0.6125
-1.9580 2.8395 -0.6054
-1.9758 2.7993 -0.6137
-1.9868 2.7723 -0.6082
-1.9941 2.7561 -0.6134
-2.0128 2.7104 -0.6035
-2.0188 2.6973 -0.6091
-2.0264 2.6789 -0.6064
-2.0545 2.6030 -0.5565
-2.0587 2.5942 -0.5621
-2.0623 2.5875 -0.5706
-2.0631 2.5908 -0.5969
-2.0669 2.5834 -0.6044
-2.0722 2.5701 -0.6000
-2.0758 2.5629 -0.6069
-2.0809 2.5500 -0.6014
-2.0845 2.5426 -0.6063
-2.0888 2.5319 -0.6034
-2.0927 2.5225 -0.6025
-2.0960 2.5155 -0.6065
-1.9342 2.7902 0.0624
-1.9381 2.7852 0.0423
-1.9572 2.7526 -0.0214
-1.9608 2.7486 -0.0419
-1.9618 2.7487 -0.0522
-1.9632 2.7476 -0.0628
-1.9647 2.7465 -0.0735
-1.9956 2.6828 -0.1313
-1.9947 2.6878 -0.1428
-1.9958 2.6877 -0.1537
-1.9302 2.8837 -0.2856
-1.9220 2.9115 -0.3155
-1.9221 2.9165 -0.3376
-1.9281 2.9049 -0.3526
-1.9345 2.8981 -0.3906
-1.9345 2.9041 -0.4154
-1.9396 2.8952 -0.4320
-1.9442 2.8880 -0.4497
-1.9527 2.8689 -0.4591
-1.9629 2.8443 -0.4637
-1.9716 2.8243 -0.4704
-1.9787 2.8087 -0.4795
-1.9892 2.7820 -0.4785
-1.9965 2.7654 -0.4847
-2.0021 2.7538 -0.4947
-2.0267 2.7196 -0.6099
-2.0333 2.7036 -0.6121
-2.0405 2.6851 -0.6097
-2.0628 2.6151 -0.5507
-2.0669 2.6061 -0.5567
-2.0715 2.5953 -0.5592
-2.0748 2.5892 -0.5689
-2.0772 2.5876 -0.5862
-2.0798 2.5845 -0.6015
-2.0835 2.5772 -0.6088
-2.0887 2.5622 -0.6005
-2.0920 2.5558 -0.6084
-2.0964 2.5436 -0.6037
-2.1000 2.5351 -0.6059
-2.1038 2.5251 -0.6039
-2.1070 2.5181 -0.6079
-1.9436 2.7960 0.0662
-1.9495 2.7862 0.0449
-1.9527 2.7807 0.0341
-1.9572 2.7717 0.0228
-1.9608 2.7652 0.0120
-1.9644 2.7586 0.0014
-1.9666 2.7556 -0.0088
-1.9680 2.7547 -0.0187
-1.9698 2.7527 -0.0290
-1.9717 2.7507 -0.0393
-1.9744 2.7464 -0.0498
-1.9783 2.7388 -0.0603
-1.9782 2.7421 -0.0708
-1.9798 2.7410 -0.0815
-1.9814 2.7398 -0.0924
-2.0015 2.6907 -0.1092
-2.0048 2.6846 -0.1187
-2.0065 2.6827 -0.1287
-2.0070 2.6847 -0.1396
-2.0071 2.6876 -0.1511
-2.0083 2.6874 -0.1621
-1.9437 2.8965 -0.2859
-1.9439 2.9019 -0.3069
-1.9434 2.9098 -0.3298
-1.9478 2.9029 -0.3468
-1.9496 2.9040 -0.3678
-1.9515 2.9050 -0.3893
-1.9483 2.9225 -0.4206
-1.9541 2.9116 -0.4367
-1.9572 2.9093 -0.4580
-1.9599 2.9087 -0.4808
-2.0095 2.7706 -0.4640
-2.0145 2.7605 -0.4755
-2.0203 2.7473 -0.4838
-2.0275 2.7289 -0.4865
-2.0330 2.7162 -0.4938
-2.0390 2.7014 -0.4982
-2.0453 2.6846 -0.4995
-2.0493 2.6770 -0.5103
-2.0692 2.6283 -0.5262
-2.0722 2.6239 -0.5395
-2.0751 2.6202 -0.5538
-2.0805 2.6046 -0.5497
-2.0836 2.5997 -0.5616
-2.0862 2.5974 -0.5779
-2.0894 2.5918 -0.5888
-2.0921 2.5894 -0.6054
-2.0965 2.5771 -0.6037
-2.1004 2.5669 -0.6049
-2.1041 2.5580 -0.6080
-2.1081 2.5458 -0.6034
-2.1118 2.5356 -0.6020
-2.1182 2.5202 -0.6080
-1.9531 2.7988 0.0786
-1.9586 2.7902 0.0576
-1.9622 2.7836 0.0466
-1.9662 2.7758 0.0354
-1.9676 2.7750 0.0257
-1.9720 2.7661 0.0145
-1.9751 2.7607 0.0040
-1.9777 2.7565 -0.0063
-1.9780 2.7591 -0.0159
-1.9835 2.7470 -0.0270
-1.9869 2.7406 -0.0374
-1.9888 2.7386 -0.0475
-1.9907 2.7365 -0.0578
-1.9912 2.7388 -0.0682
-1.9917 2.7409 -0.0789
-1.9937 2.7386 -0.0897
-2.0117 2.6926 -0.1070
-2.0146 2.6876 -0.1166
-2.0167 2.6846 -0.1265
-2.0180 2.6846 -0.1371
-2.0189 2.6856 -0.1480
-2.0197 2.6874 -0.1594
-2.0177 2.6978 -0.1736
-1.8044 3.4426 -0.5505
-1.9743 2.9205 -0.4596
-1.9782 2.9163 -0.4803
-1.9801 2.9197 -0.5066
-1.9601 3.0081 -0.5971
-1.9795 2.9579 -0.6140
-2.0210 2.8364 -0.6096
-2.0789 2.6365 -0.5137
-2.0821 2.6315 -0.5261
-2.0854 2.6258 -0.5375
-2.0880 2.6241 -0.5548
-2.0914 2.6177 -0.5652
-2.0947 2.6126 -0.5776
-2.0971 2.6127 -0.5986
-2.1008 2.6043 -0.6057
-2.1050 2.5918 -0.6047
-2.1089 2.5813 -0.6065
-2.1129 2.5686 -0.6032
-2.1162 2.5608 -0.6089
-2.1197 2.5509 -0.6093
-2.1233 2.5389 -0.6044
-2.1266 2.5282 -0.6013
-1.9784 2.7702 0.0458
-1.9794 2.7708 0.0367
-1.9817 2.7678 0.0267
-1.9851 2.7613 0.0160
-1.9889 2.7536 0.0053
-1.9935 2.7438 -0.0055
-1.9949 2.7431 -0.0152
-1.9972 2.7401 -0.0252
-1.9994 2.7371 -0.0352
-2.0006 2.7373 -0.0451
-2.0022 2.7364 -0.0553
-2.0035 2.7365 -0.0656
-2.0042 2.7387 -0.0762
-2.0053 2.7396 -0.0871
-2.0219 2.6946 -0.1047
-2.0257 2.6864 -0.1140
-2.0279 2.6835 -0.1239
-2.0286 2.6856 -0.1347
-2.0295 2.6875 -0.1458
-2.0306 2.6883 -0.1570
-2.0319 2.6891 -0.1684
-1.8325 3.4500 -0.5082
-1.8384 3.4455 -0.5429
-1.8387 3.4628 -0.5880
-1.8650 3.3799 -0.5868
-1.9968 2.9240 -0.4797
-2.0005 2.9214 -0.5020
-1.9894 3.0012 -0.6137
-2.0002 2.9680 -0.6156
-2.0208 2.9033 -0.6150
-2.0300 2.8743 -0.6146
-2.0392 2.8442 -0.6114
-2.0466 2.8224 -0.6145
-2.0619 2.7725 -0.6096
-2.0677 2.7563 -0.6148
-2.0739 2.7368 -0.6149
-2.0859 2.6975 -0.6105
-2.0919 2.6757 -0.6030
-2.0967 2.6618 -0.6052
-2.1012 2.6481 -0.6069
-2.1100 2.6203 -0.6062
-2.1143 2.6055 -0.6027
-2.1180 2.5948 -0.6051
-2.1216 2.5842 -0.6071
-2.1253 2.5715 -0.6039
-2.1286 2.5619 -0.6061
-2.1319 2.5508 -0.6042
-2.1350 2.5422 -0.6067
-2.1380 2.5326 -0.6063
-2.1409 2.5238 -0.6068
-1.9890 2.7649 0.0646
-1.9911 2.7621 0.0551
-1.9933 2.7592 0.0455
-1.9966 2.7528 0.0351
-1.9976 2.7535 0.0262
-2.0002 2.7494 0.0163
-2.0039 2.7419 0.0058
-2.0057 2.7402 -0.0037
-2.0079 2.7372 -0.0135
-2.0084 2.7399 -0.0228
-2.0094 2.7414 -0.0325
-2.0117 2.7383 -0.0427
-2.0130 2.7385 -0.0528
-2.0132 2.7429 -0.0631
-2.0131 2.7482 -0.0739
-2.0144 2.7491 -0.0849
-2.0166 2.7468 -0.0959
-2.0334 2.6924 -0.1021
