ply
format ascii 1.0
element vertex 2098
property float x
property float y
property float z
end_header
-3.5546 2.4636 -0.3290
-3.5545 2.4598 -0.3417
-3.5538 2.4595 -0.3571
-3.5529 2.4600 -0.3735
-3.5514 2.4595 -0.4066
-3.5449 2.4853 -0.4654
-3.5437 2.4861 -0.4859
-3.5423 2.4884 -0.5085
-3.5410 2.4896 -0.5307
-3.5404 2.4874 -0.5500
-3.5393 2.4818 -0.5887
-3.5401 2.4716 -0.5995
-3.5410 2.4616 -0.6101
-3.5439 2.4421 -0.6076
-3.5470 2.4217 -0.6022
-3.5492 2.4059 -0.6021
-3.5511 2.3918 -0.6035
-3.5528 2.3787 -0.6055
-3.5548 2.3645 -0.6047
-3.5571 2.3493 -0.6010
-3.5584 2.3390 -0.6048
-3.5594 2.3300 -0.6106
-3.5612 2.3175 -0.6088
-3.5633 2.3041 -0.6040
-3.5641 2.2963 -0.6100
-3.5659 2.2845 -0.6067
-3.5670 2.2759 -0.6094
-3.4855 3.3360 0.2534
-3.4855 3.3287 0.2310
-3.4867 3.3103 0.2062
-3.4844 3.3234 0.1876
-3.4837 3.3225 0.1658
-3.4834 3.3174 0.1429
-3.4827 3.3162 0.1203
-3.4807 3.3252 0.0986
-3.4803 3.3209 0.0748
-3.4824 3.2945 0.0487
-3.4808 3.3003 0.0254
-3.4795 3.3032 0.0012
-3.4767 3.3196 -0.0232
-3.4776 3.3032 -0.0490
-3.4766 3.3028 -0.0749
-3.4758 3.3009 -0.1012
-3.4749 3.3001 -0.1280
-3.5684 2.4975 -0.1708
-3.5682 2.4956 -0.1822
-3.5679 2.4936 -0.1937
-3.5681 2.4884 -0.2043
-3.5681 2.4853 -0.2156
-3.5679 2.4832 -0.2275
-3.5674 2.4830 -0.2403
-3.5676 2.4777 -0.2512
-3.5675 2.4743 -0.2630
-3.5658 2.4828 -0.2809
-3.5660 2.4773 -0.2921
-3.5663 2.4717 -0.3034
-3.5654 2.4738 -0.3193
-3.5649 2.4728 -0.3337
-3.5641 2.4746 -0.3503
-3.5642 2.4697 -0.3627
-3.5629 2.4696 -0.3954
-3.5624 2.4689 -0.4119
-3.5568 2.4961 -0.4719
-3.5553 2.5004 -0.4957
-3.5547 2.4994 -0.5153
-3.5537 2.5007 -0.5377
-3.5518 2.5018 -0.5832
-3.5526 2.4915 -0.5942
-3.5537 2.4789 -0.6022
-3.5563 2.4582 -0.5991
-3.5575 2.4461 -0.6061
-3.5586 2.4342 -0.6128
-3.5669 2.3680 -0.6022
-3.5681 2.3566 -0.6052
-3.5695 2.3448 -0.6066
-3.5724 2.3207 -0.6056
-3.5742 2.3071 -0.6006
-3.5751 2.2981 -0.6039
-3.5759 2.2898 -0.6081
-3.5770 2.2805 -0.6095
-3.5778 2.2726 -0.6132
-3.5082 3.3391 0.2452
-3.5077 3.3375 0.2241
-3.5069 3.3399 0.2036
-3.5059 3.3434 0.1828
-3.5070 3.3249 0.1578
-3.5065 3.3240 0.1357
-3.5069 3.3122 0.1118
-3.5054 3.3217 0.0903
-3.5042 3.3268 0.0676
-3.5024 3.3381 0.0448
-3.5023 3.3322 0.0201
-3.5013 3.3351 -0.0045
-3.5018 3.3225 -0.0300
-3.5015 3.3175 -0.0556
-3.4993 3.3321 -0.0818
-3.4990 3.3278 -0.1083
-3.4984 3.3257 -0.1354
-3.4969 3.3330 -0.1637
-3.5601 2.6917 -0.1563
-3.5779 2.5084 -0.1630
-3.5780 2.5044 -0.1738
-3.5780 2.5015 -0.1849
-3.5774 2.5039 -0.1977
-3.5771 2.5029 -0.2098
-3.5769 2.5019 -0.2221
-3.5766 2.5007 -0.2346
-3.5763 2.5005 -0.2478
-3.5766 2.4940 -0.2585
-3.5767 2.4895 -0.2701
-3.5760 2.4921 -0.2852
-3.5753 2.4944 -0.3008
-3.5755 2.4888 -0.3124
-3.5750 2.4898 -0.3279
-3.5735 2.4943 -0.3620
-3.5740 2.4865 -0.3729
-3.5742 2.4805 -0.3850
-3.5741 2.4773 -0.3992
-3.5693 2.5085 -0.4604
-3.5684 2.5114 -0.4824
-3.5676 2.5132 -0.5041
-3.5671 2.5123 -0.5238
-3.5666 2.5111 -0.5439
-3.5664 2.5082 -0.5626
-3.5659 2.5068 -0.5833
-3.5657 2.5035 -0.6026
-3.5680 2.4807 -0.5983
-3.5699 2.4621 -0.5978
-3.5712 2.4478 -0.6016
-3.5742 2.4161 -0.6025
-3.5758 2.4004 -0.6015
-3.5766 2.3906 -0.6086
-3.5782 2.3747 -0.6053
-3.5800 2.3585 -0.6002
-3.5811 2.3467 -0.6013
-3.5818 2.3377 -0.6069
-3.5831 2.3250 -0.6048
-3.5842 2.3138 -0.6046
-3.5852 2.3035 -0.6053
-3.5868 2.2858 -0.6108
-3.5877 2.2766 -0.6118
-3.5287 3.3662 0.2425
-3.5286 3.3618 0.2206
-3.5282 3.3614 0.1992
-3.5273 3.3678 0.1787
-3.5278 3.3560 0.1547
-3.5266 3.3660 0.1338
-3.5268 3.3580 0.1098
-3.5269 3.3500 0.0857
-3.5263 3.3525 0.0624
-3.5268 3.3402 0.0375
-3.5266 3.3358 0.0131
-3.5263 3.3338 -0.0116
-3.5240 3.3572 -0.0362
-3.5230 3.3634 -0.0622
-3.5241 3.3429 -0.0884
-3.5252 3.3226 -0.1143
-3.5239 3.3332 -0.1418
-3.5877 2.5143 -0.1657
-3.5879 2.5091 -0.1762
-3.5875 2.5107 -0.1885
-3.5873 2.5110 -0.2007
-3.5870 2.5111 -0.2133
-3.5870 2.5090 -0.2253
-3.5866 2.5078 -0.2511
-3.5868 2.5023 -0.2622
-3.5865 2.5030 -0.2763
-3.5867 2.4974 -0.2876
-3.5863 2.4989 -0.3027
-3.5855 2.5041 -0.3203
-3.5856 2.5003 -0.3333
-3.5850 2.5032 -0.3505
-3.5849 2.5011 -0.3651
-3.5853 2.4932 -0.3760
-3.5856 2.4863 -0.3874
-3.5850 2.4896 -0.4066
-3.5817 2.5168 -0.4646
-3.5806 2.5243 -0.4906
-3.5804 2.5227 -0.5093
-3.5802 2.5201 -0.5274
-3.5796 2.5225 -0.5510
-3.5793 2.5173 -0.5898
-3.5799 2.5061 -0.5998
-3.5812 2.4894 -0.6029
-3.5865 2.4218 -0.6037
-3.5876 2.4074 -0.6047
-3.5890 2.3903 -0.6007
-3.5897 2.3801 -0.6061
-3.5909 2.3657 -0.6043
-3.5921 2.3510 -0.6007
-3.5927 2.3420 -0.6061
-3.5939 2.3279 -0.6014
-3.5943 2.3212 -0.6099
-3.5952 2.3101 -0.6093
-3.5960 2.2998 -0.6096
-3.5968 2.2897 -0.6095
-3.5974 2.2811 -0.6116
-3.5574 2.3183 -0.6014
-3.5575 2.3124 -0.6110
-3.5662 3.4079 0.2622
-3.5669 3.4312 0.2456
-3.5673 3.4190 0.2206
-3.5675 3.3916 0.1927
-3.5678 3.3754 0.1673
-3.5684 3.3865 0.1462
-3.5691 3.3944 0.1239
-3.5697 3.3980 0.1003
-3.5702 3.3974 0.0757
-3.5706 3.3886 0.0501
-3.5711 3.3850 0.0246
-3.5718 3.3876 -0.0010
-3.5725 3.4001 -0.0269
-3.5730 3.3907 -0.0539
-3.5734 3.3774 -0.0810
-3.5742 3.3901 -0.1091
-3.5749 3.3901 -0.1375
-3.5639 2.6833 -0.1543
-3.5610 2.4959 -0.1597
-3.5613 2.4976 -0.1716
-3.5615 2.4948 -0.1825
-3.5617 2.4930 -0.1939
-3.5619 2.4901 -0.2050
-3.5621 2.4882 -0.2166
-3.5635 2.4826 -0.2796
-3.5642 2.4856 -0.3095
-3.5661 2.4796 -0.3992
-3.5697 2.5206 -0.5288
-3.5701 2.5195 -0.5491
-3.5705 2.5166 -0.5680
-3.5711 2.5193 -0.5934
-3.5709 2.5024 -0.5972
-3.5705 2.4818 -0.5956
-3.5702 2.4632 -0.5951
-3.5700 2.4465 -0.5958
-3.5698 2.4316 -0.5980
-3.5697 2.4200 -0.6038
-3.5691 2.3879 -0.6000
-3.5689 2.3741 -0.6000
-3.5684 2.3460 -0.5958
-3.5684 2.3384 -0.6036
-3.5682 2.3256 -0.6014
-3.5679 2.3138 -0.6000
-3.5678 2.3034 -0.6006
-3.5678 2.2951 -0.6047
-3.5676 2.2857 -0.6059
-3.5915 3.4525 0.2819
-3.5921 3.4485 0.2584
-3.5918 3.4153 0.2285
-3.5931 3.4070 0.1811
-3.5943 3.4229 0.1601
-3.5952 3.4275 0.1366
-3.5958 3.4187 0.1108
-3.5961 3.4058 0.0844
-3.5975 3.4228 0.0606
-3.5982 3.4173 0.0342
-3.5995 3.4308 0.0084
-3.5999 3.4173 -0.0193
-3.6003 3.4038 -0.0469
-3.6020 3.4261 -0.0749
-3.6026 3.4172 -0.1035
-3.6041 3.4311 -0.1334
-3.5718 2.5038 -0.1716
-3.5724 2.5074 -0.1846
-3.5726 2.5032 -0.1957
-3.5729 2.5023 -0.2079
-3.5736 2.4989 -0.2324
-3.5742 2.5018 -0.2469
-3.5743 2.4963 -0.2582
-3.5747 2.4949 -0.2713
-3.5753 2.4973 -0.2867
-3.5758 2.4986 -0.3019
-3.5764 2.4997 -0.3175
-3.5768 2.4987 -0.3323
-3.5774 2.5004 -0.3491
-3.5778 2.4981 -0.3639
-3.5778 2.4893 -0.3743
-3.5782 2.4870 -0.3893
-3.5827 2.5303 -0.4786
-3.5835 2.5329 -0.5013
-3.5842 2.5327 -0.5221
-3.5852 2.5381 -0.5491
-3.5858 2.5358 -0.5692
-3.5866 2.5365 -0.5931
-3.5861 2.5194 -0.5977
-3.5852 2.4969 -0.5954
-3.5849 2.4820 -0.6006
-3.5834 2.4438 -0.5975
-3.5827 2.4267 -0.5968
-3.5826 2.4166 -0.6048
-3.5819 2.3987 -0.6007
-3.5805 2.3590 -0.6033
-3.5794 2.3316 -0.5984
-3.5790 2.3209 -0.5999
-3.5789 2.3123 -0.6048
-3.5783 2.2995 -0.6005
-3.5781 2.2913 -0.6047
-3.5777 2.2808 -0.6033
-3.5776 2.2734 -0.6083
-3.6177 3.4528 0.2686
-3.6199 3.4786 0.2510
-3.6205 3.4710 0.2256
-3.6200 3.4406 0.1958
-3.6213 3.4451 0.1723
-3.6232 3.4625 0.1502
-3.6241 3.4583 0.1241
-3.6240 3.4359 0.0957
-3.6263 3.4586 0.0719
-3.6272 3.4539 0.0446
-3.6283 3.4540 0.0173
-3.6295 3.4539 -0.0106
-3.6305 3.4498 -0.0391
-3.6339 3.4883 -0.0683
-3.6335 3.4592 -0.0978
-3.6339 3.4447 -0.1275
-3.6356 3.4504 -0.1585
-3.5828 2.5172 -0.1612
-3.5833 2.5163 -0.1731
-3.5836 2.5131 -0.1847
-3.5841 2.5131 -0.1973
-3.5847 2.5140 -0.2105
-3.5851 2.5116 -0.2229
-3.5857 2.5113 -0.2362
-3.5860 2.5077 -0.2486
-3.5865 2.5071 -0.2623
-3.5869 2.5034 -0.2749
-3.5876 2.5046 -0.2901
-3.5886 2.5095 -0.3077
-3.5891 2.5074 -0.3220
-3.5900 2.5100 -0.3394
-3.5907 2.5104 -0.3560
-3.5909 2.5042 -0.3687
-3.5913 2.5008 -0.3834
-3.5920 2.5009 -0.4008
-3.5994 2.5456 -0.5153
-3.6003 2.5450 -0.5366
-3.6027 2.5497 -0.5872
-3.6022 2.5356 -0.5961
-3.6008 2.5121 -0.5940
-3.5999 2.4938 -0.5963
-3.5990 2.4766 -0.5989
-3.5977 2.4559 -0.5959
-3.5970 2.4409 -0.5990
-3.5956 2.4118 -0.6036
-3.5945 2.3947 -0.6008
-3.5935 2.3795 -0.5994
-3.5931 2.3686 -0.6040
-3.5921 2.3533 -0.6003
-3.5911 2.3389 -0.5971
-3.5906 2.3281 -0.5991
-3.5901 2.3175 -0.6008
-3.5896 2.3071 -0.6020
-3.5895 2.2999 -0.6092
-3.5885 2.2868 -0.6033
-3.5879 2.2770 -0.6034
-3.5875 2.2685 -0.6057
-3.6429 3.4613 0.3030
-3.6445 3.4664 0.2812
-3.6454 3.4617 0.2567
-3.6472 3.4703 0.2347
-3.6491 3.4799 0.2121
-3.6499 3.4719 0.1857
-3.6497 3.4494 0.1569
-3.6536 3.4867 0.1366
-3.6540 3.4729 0.1084
-3.6555 3.4731 0.0816
-3.6555 3.4542 0.0527
-3.6584 3.4741 0.0264
-3.6585 3.4549 -0.0029
-3.6618 3.4787 -0.0311
-3.6630 3.4739 -0.0608
-3.6643 3.4701 -0.0910
-3.6667 3.4803 -0.1222
-3.6025 2.6317 -0.1539
-3.5943 2.5219 -0.1605
-3.5948 2.5197 -0.1724
-3.5954 2.5196 -0.1850
-3.5956 2.5141 -0.1963
-3.5963 2.5149 -0.2096
-3.5973 2.5176 -0.2239
-3.5977 2.5139 -0.2364
-3.5983 2.5133 -0.2501
-3.5988 2.5105 -0.2633
-3.6002 2.5165 -0.2807
-3.6003 2.5096 -0.2924
-3.6012 2.5104 -0.3082
-3.6022 2.5120 -0.3248
-3.6025 2.5077 -0.3385
-3.6037 2.5099 -0.3563
-3.6058 2.5127 -0.3928
-3.6063 2.5089 -0.4081
-3.6172 2.5636 -0.5342
-3.6184 2.5642 -0.5578
-3.6189 2.5580 -0.5755
-3.6198 2.5550 -0.5966
-3.6176 2.5288 -0.5931
-3.6146 2.4890 -0.5953
-3.6133 2.4712 -0.5971
-3.6105 2.4351 -0.5966
-3.6089 2.4169 -0.5942
-3.6080 2.4033 -0.5972
-3.6069 2.3886 -0.5976
-3.6054 2.3647 -0.6043
-3.6042 2.3508 -0.6030
-3.6030 2.3366 -0.6000
-3.6022 2.3251 -0.6010
-3.6008 2.3108 -0.5956
-3.6004 2.3024 -0.6005
-3.5994 2.2910 -0.5989
-3.5988 2.2817 -0.6007
-3.5986 2.2748 -0.6074
-3.5977 2.2647 -0.6058
-3.6737 3.5159 0.3270
-3.6749 3.5122 0.3021
-3.6749 3.4934 0.2735
-3.6757 3.4854 0.2474
-3.6781 3.4945 0.2243
-3.6798 3.4954 0.1991
-3.6819 3.5011 0.1741
-3.6858 3.4884 0.0917
-3.6885 3.4980 0.0647
-3.6884 3.4786 0.0348
-3.6928 3.5046 0.0072
-3.6932 3.4899 -0.0230
-3.6972 3.5110 -0.0531
-3.6946 3.4651 -0.0837
-3.7009 3.5078 -0.1162
-3.6066 2.5296 -0.1604
-3.6061 2.5186 -0.1706
-3.6077 2.5181 -0.1962
-3.6081 2.5145 -0.2084
-3.6089 2.5140 -0.2217
-3.6099 2.5154 -0.2361
-3.6114 2.5196 -0.2520
-3.6125 2.5216 -0.2675
-3.6142 2.5273 -0.2852
-3.6144 2.5211 -0.2979
-3.6155 2.5216 -0.3140
-3.6162 2.5191 -0.3290
-3.6179 2.5239 -0.3485
-3.6190 2.5239 -0.3658
-3.6202 2.5245 -0.3840
-3.6210 2.5223 -0.4007
-3.6332 2.5791 -0.5050
-3.6360 2.5784 -0.5506
-3.6377 2.5794 -0.5756
-3.6386 2.5752 -0.5963
-3.6332 2.5236 -0.5918
-3.6320 2.5075 -0.5978
-3.6298 2.4864 -0.5971
-3.6265 2.4513 -0.6004
-3.6236 2.4196 -0.6039
-3.6213 2.3998 -0.5981
-3.6203 2.3872 -0.6018
-3.6187 2.3722 -0.6007
-3.6165 2.3542 -0.5935
-3.6156 2.3431 -0.5966
-3.6142 2.3303 -0.5959
-3.6135 2.3202 -0.5993
-3.6123 2.3085 -0.5988
-3.6109 2.2965 -0.5966
-3.6100 2.2864 -0.5975
-3.6091 2.2766 -0.5981
-3.6084 2.2681 -0.6008
-3.6076 2.2592 -0.6020
-3.7053 3.5176 0.2891
-3.7097 3.5244 0.2400
-3.7107 3.5156 0.2123
-3.7143 3.5311 0.1885
-3.7181 3.5473 0.1636
-3.7180 3.5277 0.1331
-3.7197 3.5244 0.1045
-3.7219 3.5245 0.0757
-3.7242 3.5256 0.0465
-3.7265 3.5264 0.0166
-3.7282 3.5220 -0.0141
-3.6266 2.5971 -0.1579
-3.6203 2.5366 -0.1731
-3.6202 2.5287 -0.1844
-3.6220 2.5274 -0.2112
-3.6228 2.5256 -0.2246
-3.6243 2.5287 -0.2401
-3.6245 2.5227 -0.2525
-3.6288 2.5357 -0.2887
-3.6307 2.5323 -0.3197
-3.6327 2.5370 -0.3392
-3.6338 2.5359 -0.3561
-3.6352 2.5364 -0.3744
-3.6369 2.5385 -0.3942
-3.6386 2.5403 -0.4146
-3.6549 2.5951 -0.5444
-3.6563 2.5934 -0.5673
-3.6577 2.5906 -0.5899
-3.6542 2.5631 -0.5882
-3.6535 2.5503 -0.6000
-3.6471 2.5008 -0.5949
-3.6450 2.4821 -0.5969
-3.6429 2.4638 -0.5982
-3.6397 2.4408 -0.5921
-3.6381 2.4261 -0.5956
-3.6346 2.3955 -0.5978
-3.6332 2.3823 -0.6006
-3.6310 2.3661 -0.5976
-3.6299 2.3548 -0.6014
-3.6278 2.3398 -0.5981
-3.6271 2.3302 -0.6033
-3.6250 2.3159 -0.5988
-3.6239 2.3055 -0.6008
-3.6223 2.2935 -0.5987
-3.6208 2.2824 -0.5973
-3.6202 2.2743 -0.6018
-3.6193 2.2658 -0.6047
-3.6176 2.2542 -0.5994
-4.1054 6.0173 0.1680
-4.2286 6.6621 -0.1895
-3.6424 2.6113 -0.1582
-3.6408 2.5930 -0.1694
-3.6413 2.5887 -0.1830
-3.6367 2.5460 -0.2013
-3.6377 2.5450 -0.2153
-3.6384 2.5418 -0.2290
-3.6395 2.5405 -0.2435
-3.6419 2.5470 -0.2613
-3.6440 2.5512 -0.2790
-3.6448 2.5475 -0.2937
-3.6462 2.5475 -0.3105
-3.6538 2.5555 -0.3872
-3.6551 2.5536 -0.4054
-3.6714 2.6060 -0.5082
-3.6771 2.6131 -0.5630
-3.6800 2.6165 -0.5918
-3.6765 2.5910 -0.5940
-3.6706 2.5461 -0.5999
-3.6667 2.5206 -0.5973
-3.6635 2.4986 -0.5971
-3.6551 2.4403 -0.5970
-3.6525 2.4229 -0.5970
-3.6493 2.4031 -0.5922
-3.6468 2.3793 -0.6026
-3.6444 2.3639 -0.6008
-3.6413 2.3463 -0.5940
-3.6401 2.3359 -0.5985
-3.6381 2.3227 -0.5969
-3.6361 2.3097 -0.5948
-3.6353 2.3012 -0.6004
-3.6336 2.2899 -0.5996
-3.6319 2.2788 -0.5984
-3.6306 2.2691 -0.5991
-3.6281 2.2509 -0.6008
-4.2129 6.3935 0.6418
-4.2510 6.5364 0.4939
-4.2305 6.3519 0.3867
-4.2126 6.1372 0.1990
-4.2152 6.0522 0.0247
-4.2301 6.0913 -0.0625
-4.2842 6.3596 -0.1585
-3.6569 2.6045 -0.1695
-3.6569 2.5969 -0.1829
-3.6526 2.5593 -0.2034
-3.6526 2.5519 -0.2161
-3.6561 2.5549 -0.2477
-3.6625 2.5626 -0.3003
-3.6683 2.5655 -0.3557
-3.6707 2.5681 -0.3763
-3.6725 2.5678 -0.3958
-3.7033 2.6300 -0.6078
-3.6961 2.5919 -0.5987
-3.6929 2.5701 -0.6033
-3.6787 2.4910 -0.5932
-3.6750 2.4616 -0.6063
-3.6703 2.4376 -0.5991
-3.6664 2.4168 -0.5944
-3.6649 2.4046 -0.6006
-3.6626 2.3899 -0.6023
-3.6520 2.3301 -0.5954
-3.6503 2.3188 -0.5974
-3.6475 2.3048 -0.5931
-3.6466 2.2963 -0.5987
-3.6449 2.2856 -0.5993
-3.6432 2.2752 -0.5994
-3.6425 2.2677 -0.6053
-3.6405 2.2572 -0.6033
-4.2872 6.1383 0.3904
-4.2849 5.9309 0.0443
-4.2935 5.9279 -0.0409
-4.3178 6.0052 -0.1293
-3.6750 2.6209 -0.1704
-3.6752 2.6139 -0.1846
-3.6685 2.5680 -0.2043
-3.6696 2.5655 -0.2188
-3.6778 2.5782 -0.2719
-3.6802 2.5806 -0.2902
-3.6822 2.5809 -0.3082
-3.6838 2.5792 -0.3256
-3.7269 2.6491 -0.6011
-3.7210 2.6186 -0.6010
-3.7176 2.5971 -0.6077
-3.7067 2.5419 -0.6044
-3.7022 2.5182 -0.6042
-3.6932 2.4730 -0.6014
-3.6893 2.4529 -0.6007
-3.6814 2.4141 -0.5967
-3.6751 2.3815 -0.5960
-3.6704 2.3547 -0.5997
-3.6654 2.3284 -0.6001
-3.6626 2.3148 -0.5978
-3.6604 2.3032 -0.5983
-3.6585 2.2924 -0.5994
-3.6570 2.2830 -0.6025
-3.6548 2.2721 -0.6015
-3.6526 2.2614 -0.6001
-3.6494 2.2434 -0.6022
-4.4233 6.3556 0.4419
-4.3679 5.8898 0.0655
-4.3858 5.9258 -0.0191
-4.3956 5.9223 -0.1067
-3.6963 2.6459 -0.1728
-3.6956 2.6345 -0.1869
-3.6913 2.5853 -0.2397
-3.6976 2.5939 -0.2771
-3.7015 2.6005 -0.2979
-3.7097 2.6049 -0.3579
-3.7528 2.6723 -0.5962
-3.7438 2.6234 -0.6092
-3.7244 2.5366 -0.6033
-3.7188 2.5117 -0.6017
-3.7137 2.4887 -0.6006
-3.7104 2.4711 -0.6045
-3.7019 2.4323 -0.6038
-3.6970 2.4118 -0.5997
-3.6861 2.3629 -0.5969
-3.6837 2.3503 -0.5996
-3.6803 2.3356 -0.5976
-3.6779 2.3236 -0.5993
-3.6747 2.3101 -0.5971
-3.6734 2.3009 -0.6022
-3.6704 2.2885 -0.6000
-3.6683 2.2780 -0.6009
-3.6656 2.2667 -0.5988
-3.6637 2.2572 -0.5999
-3.6630 2.2504 -0.6069
-4.6239 6.9205 0.7326
-4.6128 6.8134 0.6218
-4.5553 6.5019 0.4881
-4.5914 6.6074 0.4079
-4.4061 5.7480 0.2426
-4.4073 5.7083 0.1612
-4.5179 6.1324 0.0977
-4.5091 6.0454 0.0053
-4.5105 6.0011 -0.0855
-4.5016 5.9154 -0.1751
-3.7136 2.6488 -0.1709
-3.7141 2.6424 -0.1863
-3.7100 2.6191 -0.1978
-3.7125 2.6041 -0.2445
-3.7154 2.6062 -0.2628
-3.7200 2.6136 -0.2839
-3.7221 2.6124 -0.3022
-3.7351 2.6288 -0.3705
-3.7823 2.7018 -0.5945
-3.7766 2.6743 -0.6011
-3.7611 2.6103 -0.6009
-3.7489 2.5580 -0.6040
-3.7436 2.5348 -0.6062
-3.7364 2.5072 -0.6016
-3.7251 2.4622 -0.5989
-3.7203 2.4424 -0.5986
-3.7150 2.4218 -0.5955
-3.6998 2.3583 -0.5966
-3.6969 2.3453 -0.5985
-3.6934 2.3313 -0.5977
-3.6911 2.3199 -0.6006
-3.6876 2.3066 -0.5985
-3.6849 2.2952 -0.5993
-3.6831 2.2856 -0.6030
-3.6796 2.2731 -0.5992
-3.6772 2.2629 -0.5997
-3.6754 2.2540 -0.6021
-3.6736 2.2452 -0.6043
-3.6714 2.2362 -0.6047
-4.7688 6.9984 0.6820
-4.6017 6.2674 0.4876
-4.6143 6.2675 0.4007
-4.4776 5.6354 0.1792
-4.6071 6.0883 0.1206
-4.6198 6.0865 0.0298
-4.6211 6.0412 -0.0630
-4.5785 5.8334 -0.1518
-3.7333 2.6586 -0.1701
-3.7336 2.6509 -0.1858
-3.7294 2.6286 -0.1980
-3.7308 2.6251 -0.2143
-3.7368 2.6280 -0.2508
-3.7406 2.6314 -0.2705
-3.7576 2.6474 -0.3583
-3.7653 2.6508 -0.4048
-3.8047 2.7299 -0.5309
-3.8080 2.7275 -0.5580
-3.8197 2.7472 -0.6027
-3.8131 2.7182 -0.6107
-3.8026 2.6798 -0.6091
-3.7860 2.6167 -0.6110
-3.7682 2.5537 -0.6041
-3.7567 2.5172 -0.5916
-3.7557 2.5061 -0.6055
-3.7469 2.4773 -0.5976
-3.7413 2.4566 -0.5975
-3.7327 2.4218 -0.6018
-3.7218 2.3842 -0.5964
-3.7155 2.3573 -0.6024
-3.7105 2.3407 -0.5984
-3.7058 2.3252 -0.5945
-3.7032 2.3139 -0.5975
-3.6991 2.3002 -0.5944
-3.6951 2.2810 -0.6024
-3.6919 2.2697 -0.6011
-3.6884 2.2581 -0.5981
-3.6861 2.2487 -0.5994
-3.6844 2.2405 -0.6028
-3.6827 2.2324 -0.6059
-4.7672 6.5564 0.6474
-4.6963 6.0442 0.1434
-4.7354 6.1301 0.0553
-4.7636 6.1754 -0.0390
-4.7382 6.0376 -0.1342
-3.7574 2.6788 -0.1710
-3.7497 2.6464 -0.1825
-3.7882 2.6854 -0.3536
-3.7901 2.6806 -0.3743
-3.8187 2.7247 -0.4733
-3.8380 2.7511 -0.5470
-3.8413 2.7473 -0.5745
-3.8432 2.7402 -0.6001
-3.8332 2.7045 -0.6028
-3.8257 2.6757 -0.6090
-3.8149 2.6400 -0.6074
-3.8058 2.6088 -0.6075
-3.7966 2.5783 -0.6061
-3.7832 2.5393 -0.5935
-3.7716 2.4965 -0.5997
-3.7646 2.4735 -0.5985
-3.7600 2.4556 -0.6021
-3.7533 2.4342 -0.5997
-3.7473 2.4146 -0.5981
-3.7412 2.3955 -0.5955
-3.7375 2.3810 -0.5986
-3.7290 2.3513 -0.6000
-3.7249 2.3373 -0.6002
-3.7205 2.3230 -0.5987
-3.7122 2.2965 -0.5958
-3.7101 2.2869 -0.6001
-3.7066 2.2754 -0.5995
-3.7038 2.2651 -0.6006
-3.7006 2.2546 -0.6001
-3.6978 2.2448 -0.6004
-3.6956 2.2362 -0.6026
-3.6924 2.2264 -0.6007
-4.9414 6.7786 0.7158
-4.6764 5.6944 0.2302
-4.7234 5.8007 0.1548
-4.8001 5.9973 0.0759
-4.8150 5.9946 -0.0164
-4.8446 6.0362 -0.1112
-3.7859 2.6977 -0.1902
-3.7872 2.6922 -0.2081
-3.7878 2.6847 -0.2256
-3.7936 2.6911 -0.2472
-3.7976 2.6925 -0.2682
-3.8017 2.6937 -0.2897
-3.8129 2.7031 -0.3377
-3.8304 2.7156 -0.4162
-3.8428 2.7348 -0.4529
-3.8483 2.7367 -0.4814
-3.8612 2.7553 -0.5216
-3.8664 2.7554 -0.5517
-3.8684 2.7482 -0.5774
-3.8695 2.7385 -0.6015
-3.8632 2.7129 -0.6128
-3.8348 2.6301 -0.6023
-3.8260 2.6014 -0.6047
-3.8168 2.5727 -0.6050
-3.7977 2.5158 -0.6001
-3.7920 2.4958 -0.6042
-3.7848 2.4735 -0.6042
-3.7612 2.4061 -0.5926
-3.7524 2.3760 -0.5979
-3.7459 2.3579 -0.5938
-3.7385 2.3320 -0.5990
-3.7348 2.3195 -0.6008
-3.7307 2.3067 -0.6009
-3.7263 2.2937 -0.5993
-3.7222 2.2816 -0.5982
-3.7195 2.2717 -0.6011
-3.7157 2.2605 -0.6001
-3.7120 2.2497 -0.5985
-3.7078 2.2386 -0.5951
-3.7065 2.2314 -0.6012
-3.7031 2.2217 -0.5994
-5.1181 6.9666 0.7824
-4.8720 6.0454 0.3726
-4.7236 5.5517 0.2422
-4.8760 5.9111 0.0973
-4.9211 5.9927 0.0077
-4.7284 5.3930 -0.0833
-4.7409 5.3851 -0.1656
-3.8089 2.7057 -0.1890
-3.8114 2.7027 -0.2079
-3.8153 2.7033 -0.2281
-3.8273 2.7137 -0.2731
-3.8339 2.7197 -0.2972
-3.8375 2.7182 -0.3195
-3.8458 2.7171 -0.3667
-3.8621 2.7436 -0.4044
-3.8679 2.7458 -0.4321
-3.8798 2.7606 -0.4679
-3.8912 2.7740 -0.5048
-3.9098 2.7764 -0.6003
-3.8825 2.6969 -0.6029
-3.8704 2.6618 -0.6042
-3.8614 2.6333 -0.6091
-3.8399 2.5718 -0.6088
-3.8281 2.5405 -0.6046
-3.8175 2.5120 -0.6010
-3.8015 2.4661 -0.6009
-3.7960 2.4484 -0.6050
-3.7887 2.4280 -0.6041
-3.7807 2.4068 -0.6004
-3.7729 2.3868 -0.5965
-3.7463 2.3117 -0.5944
-3.7427 2.3001 -0.5967
-3.7394 2.2893 -0.5995
-3.7358 2.2782 -0.6008
-3.7299 2.2645 -0.5947
-3.7281 2.2564 -0.6007
-3.7253 2.2470 -0.6029
-3.7204 2.2355 -0.5985
-3.7179 2.2270 -0.6009
-3.7158 2.2191 -0.6043
-4.7740 5.6439 0.6560
-4.8470 5.8145 0.6135
-4.9891 6.1788 0.5928
-4.8623 5.7683 0.4493
-4.8015 5.5523 0.3438
-4.7360 5.3273 0.2453
-4.7476 5.3185 0.1703
-4.7383 5.2521 0.0912
-4.6884 5.0782 0.0110
-3.8400 2.7401 -0.1724
-3.8391 2.7283 -0.1904
-3.8564 2.7392 -0.2566
-3.8606 2.7386 -0.2790
-3.8684 2.7456 -0.3046
-3.8706 2.7400 -0.3265
-3.9142 2.7878 -0.4542
-3.9212 2.7903 -0.4851
-3.9568 2.8227 -0.6019
-3.9433 2.7837 -0.6082
-3.9106 2.6978 -0.6070
-3.8989 2.6651 -0.6108
-3.8825 2.6246 -0.6052
-3.8640 2.5817 -0.5941
-3.8607 2.5659 -0.6075
-3.8385 2.5093 -0.6034
-3.8287 2.4843 -0.6019
-3.8209 2.4631 -0.6032
-3.8128 2.4418 -0.6026
-3.8050 2.4216 -0.6019
-3.7839 2.3673 -0.5992
-3.7781 2.3518 -0.5994
-3.7734 2.3383 -0.6017
-3.7651 2.3203 -0.5944
-3.7593 2.3060 -0.5922
-3.7570 2.2966 -0.5988
-3.7473 2.2719 -0.5967
-3.7446 2.2626 -0.6009
-3.7407 2.2521 -0.6013
-3.7352 2.2401 -0.5964
-3.7341 2.2332 -0.6042
-3.7267 2.2143 -0.6029
-4.9990 6.0100 0.7593
-4.8671 5.5201 0.4408
-4.7986 5.2987 0.3379
-4.7672 5.1773 0.2532
-4.8120 5.2526 0.1874
-4.7801 5.1318 0.1059
-4.8031 5.1497 0.0325
-4.7930 5.0850 -0.0440
-3.9160 2.8739 -0.1661
-3.8909 2.8056 -0.1793
-3.8779 2.7658 -0.1944
-3.8954 2.7726 -0.2636
-3.9033 2.7783 -0.2893
-3.9486 2.8242 -0.4134
-3.9653 2.8445 -0.4528
-3.9677 2.8364 -0.4798
-3.9795 2.8457 -0.5169
-3.9891 2.8503 -0.5530
-3.9895 2.8376 -0.5792
-3.9911 2.8270 -0.6070
-3.9746 2.7844 -0.6114
-3.9420 2.7028 -0.6146
-3.9157 2.6468 -0.5985
-3.8909 2.5845 -0.6014
-3.8789 2.5552 -0.6013
-3.8656 2.5246 -0.5975
-3.8611 2.5084 -0.6079
-3.8495 2.4816 -0.6045
-3.8396 2.4581 -0.6030
-3.8343 2.4418 -0.6093
-3.8209 2.4145 -0.5988
-3.8081 2.3812 -0.6027
-3.7944 2.3483 -0.6015
-3.7878 2.3327 -0.6002
-3.7803 2.3165 -0.5961
-3.7749 2.3033 -0.5962
-3.7691 2.2899 -0.5946
-3.7654 2.2793 -0.5976
-3.7587 2.2656 -0.5925
-3.7571 2.2578 -0.6002
-3.7539 2.2483 -0.6030
-3.7489 2.2373 -0.6007
-3.7464 2.2291 -0.6050
-4.8373 5.2141 0.4204
-4.8274 5.1512 0.3426
-4.8071 5.0636 0.2633
-4.7671 4.9304 0.1826
-4.7488 4.8509 0.1098
-4.7893 4.9087 0.0441
-4.8328 4.9713 -0.0260
-4.8449 4.9601 -0.1001
-4.9294 5.1100 -0.1818
-3.9299 2.8357 -0.1802
-3.9218 2.8077 -0.1987
-3.9505 2.8202 -0.2999
-3.9597 2.8263 -0.3285
-3.9746 2.8428 -0.3622
-3.9847 2.8493 -0.3938
-4.0113 2.8856 -0.4401
-4.0219 2.8915 -0.4752
-4.0356 2.9023 -0.5144
-4.0507 2.9001 -0.5843
-4.0283 2.8338 -0.6139
-3.9880 2.7411 -0.6156
-3.9480 2.6537 -0.6085
-3.9145 2.5809 -0.6024
-3.9072 2.5597 -0.6110
-3.8958 2.5331 -0.6123
-3.8759 2.4951 -0.5981
-3.8680 2.4750 -0.6024
-3.8478 2.4302 -0.6002
-3.8391 2.4104 -0.5999
-3.8298 2.3905 -0.5977
-3.8228 2.3739 -0.5989
-3.8131 2.3544 -0.5938
-3.8083 2.3414 -0.5980
-3.8013 2.3260 -0.5968
-3.7952 2.3121 -0.5967
-3.7890 2.2985 -0.5960
-3.7851 2.2876 -0.5998
-3.7776 2.2732 -0.5945
-3.7737 2.2629 -0.5972
-3.7711 2.2542 -0.6028
-3.7663 2.2435 -0.6023
-3.7596 2.2313 -0.5966
-3.7571 2.2232 -0.6010
-3.7501 2.2058 -0.6037
-4.9215 5.2060 0.4433
-4.8765 5.0641 0.3539
-4.8554 4.9787 0.2757
-4.8565 4.9440 0.2044
-4.7674 4.7110 0.1198
-4.8271 4.8061 0.0589
-4.8489 4.8168 -0.0099
-4.9172 4.9244 -0.0816
-4.9423 4.9384 -0.1577
-3.9570 2.8372 -0.1765
-3.9960 2.8647 -0.2835
-4.0215 2.8860 -0.3466
-4.0457 2.9022 -0.4141
-4.0550 2.9046 -0.4476
-4.0821 2.9366 -0.4967
-4.1205 2.9861 -0.5585
-4.1374 2.9981 -0.6044
-4.1035 2.9274 -0.6022
-4.0592 2.8281 -0.6124
-4.0082 2.7236 -0.6049
-3.9753 2.6512 -0.6103
-3.9401 2.5789 -0.6052
-3.9224 2.5442 -0.5998
-3.9113 2.5193 -0.6025
-3.8955 2.4888 -0.5965
-3.8886 2.4707 -0.6034
-3.8799 2.4506 -0.6063
-3.8673 2.4263 -0.6018
-3.8380 2.3672 -0.5960
-3.8311 2.3517 -0.5975
-3.8232 2.3356 -0.5963
-3.8107 2.3081 -0.5983
-3.8042 2.2946 -0.5978
-3.7977 2.2814 -0.5965
-3.7917 2.2690 -0.5957
-3.7834 2.2488 -0.6009
-3.7779 2.2377 -0.5994
-3.7728 2.2274 -0.5984
-3.7696 2.2189 -0.6017
-3.7640 2.2086 -0.5985
-4.9470 5.0292 0.3719
-4.9247 4.9445 0.2934
-4.9146 4.8863 0.2198
-4.9156 4.8518 0.1491
-4.8631 4.7082 0.0730
-4.8743 4.6956 0.0056
-4.9416 4.7938 -0.0630
-5.0291 4.9278 -0.1395
-5.0434 4.9160 -0.2173
-4.0126 2.8901 -0.1799
-4.0223 2.8955 -0.2066
-4.0290 2.8951 -0.2331
-4.0353 2.8935 -0.2601
-4.0425 2.8934 -0.2882
-4.0673 2.9096 -0.3523
-4.0741 2.9073 -0.3827
-4.2292 3.0947 -0.6157
-4.1843 3.0080 -0.6107
-4.1427 2.9289 -0.6044
-4.0682 2.7762 -0.6137
-4.0359 2.7174 -0.6033
-4.0018 2.6463 -0.6102
-3.9873 2.6154 -0.6141
-3.9702 2.5819 -0.6132
-3.9404 2.5232 -0.6125
-3.9115 2.4687 -0.6072
-3.8906 2.4263 -0.6089
-3.8778 2.4033 -0.6044
-3.8671 2.3832 -0.6020
-3.8538 2.3609 -0.5940
-3.8475 2.3467 -0.5974
-3.8397 2.3312 -0.5974
-3.8299 2.3141 -0.5927
-3.8220 2.2995 -0.5909
-3.8152 2.2862 -0.5904
-3.8089 2.2738 -0.5902
-3.8055 2.2643 -0.5957
-3.8012 2.2541 -0.5986
-3.7973 2.2446 -0.6023
-3.7915 2.2337 -0.6009
-3.7851 2.2226 -0.5979
-3.7812 2.2138 -0.6000
-3.7773 2.2052 -0.6018
-3.7724 2.1960 -0.6007
-5.3658 5.7900 0.6774
-4.9919 4.9797 0.4537
-4.9144 4.7865 0.3583
-4.9368 4.7963 0.2964
-4.9491 4.7850 0.2303
-4.9726 4.7950 0.1649
-4.9398 4.6961 0.0911
-4.9746 4.7266 0.0246
-4.9874 4.7143 -0.0454
-5.0772 4.8045 -0.1945
-4.4356 3.3967 -0.6119
-4.3282 3.1928 -0.6198
-4.2229 3.0029 -0.6086
-4.1850 2.9327 -0.6081
-4.1512 2.8700 -0.6076
-4.1230 2.8168 -0.6093
-4.0954 2.7657 -0.6087
-4.0461 2.6754 -0.6063
-4.0256 2.6373 -0.6063
-4.0088 2.6047 -0.6086
-3.9676 2.5333 -0.5988
-3.9512 2.5040 -0.5964
-3.9384 2.4796 -0.5976
-3.9240 2.4541 -0.5952
-3.9020 2.4124 -0.5966
-3.8928 2.3943 -0.5986
-3.8826 2.3755 -0.5980
-3.8712 2.3562 -0.5946
-3.8651 2.3426 -0.5991
-3.8543 2.3247 -0.5947
-3.8482 2.3118 -0.5978
-3.8389 2.2963 -0.5944
-3.8365 2.2873 -0.6032
-3.8240 2.2698 -0.5921
-3.8174 2.2577 -0.5915
-3.8139 2.2486 -0.5966
-3.8098 2.2391 -0.6003
-3.8037 2.2283 -0.5991
-3.7959 2.2166 -0.5938
-3.7934 2.2090 -0.5995
-3.7888 2.2001 -0.6002
-3.7853 2.1921 -0.6029
-5.4147 5.6718 0.6844
-5.1264 5.0710 0.4944
-5.0499 4.8873 0.3964
-4.9590 4.6800 0.3021
-4.9819 4.6883 0.2403
-4.9395 4.5760 0.1658
-5.0541 4.7493 0.1136
-5.0932 4.7826 0.0455
-5.0438 4.6586 -0.0280
-5.0572 4.6458 -0.0985
-5.1786 4.8171 -0.1779
-5.3551 5.0753 -0.2751
-5.7967 5.7652 -0.4328
-4.7370 3.8074 -0.6430
-4.5214 3.4394 -0.6267
-4.3948 3.2163 -0.6305
-4.3345 3.1136 -0.6259
-4.2857 3.0290 -0.6243
-4.1860 2.8645 -0.6060
-4.1243 2.7571 -0.6053
-4.0765 2.6724 -0.6077
-4.0643 2.6457 -0.6184
-4.0401 2.6055 -0.6142
-3.9986 2.5365 -0.6078
-3.9847 2.5108 -0.6104
-3.9648 2.4794 -0.6037
-3.9469 2.4512 -0.5982
-3.9346 2.4294 -0.5987
-3.9137 2.3912 -0.6019
-3.9030 2.3726 -0.6017
-3.8900 2.3524 -0.5969
-3.8847 2.3398 -0.6035
-3.8717 2.3207 -0.5966
-3.8637 2.3064 -0.5971
-3.8562 2.2929 -0.5978
-3.8487 2.2798 -0.5978
-3.8400 2.2662 -0.5950
-3.8353 2.2559 -0.5988
-3.8255 2.2421 -0.5924
-3.8229 2.2340 -0.5994
-3.8165 2.2233 -0.5983
-3.8105 2.2132 -0.5978
-3.8057 2.2042 -0.5990
-3.8004 2.1950 -0.5986
-3.7966 2.1871 -0.6014
-5.6499 5.9053 0.7652
-5.4065 5.4136 0.5852
-5.2288 5.0512 0.4474
-5.2008 4.9627 0.3642
-5.3083 5.1126 0.3124
-5.2473 4.9666 0.2229
-5.3269 5.0631 0.1561
-5.4896 5.2958 0.0886
-5.5723 5.3883 0.0041
-5.5523 5.3091 -0.0865
-5.5536 5.2653 -0.1763
-5.7883 5.5925 -0.2902
-5.6475 5.1771 -0.6501
-5.4068 4.7742 -0.6650
-5.0839 4.2629 -0.6279
-4.9030 3.9693 -0.6208
-4.7755 3.7593 -0.6222
-4.6965 3.6222 -0.6367
-4.5444 3.3891 -0.6040
-4.4873 3.2902 -0.6141
-4.4210 3.1818 -0.6132
-4.3188 3.0126 -0.6158
-4.2237 2.8615 -0.6060
-4.1912 2.8073 -0.6076
-4.1225 2.6990 -0.5989
-4.1098 2.6718 -0.6112
-4.0811 2.6273 -0.6060
-4.0637 2.5965 -0.6104
-3.9844 2.4714 -0.6004
-3.9698 2.4475 -0.6003
-3.9603 2.4291 -0.6057
-3.9457 2.4064 -0.6032
-3.9299 2.3832 -0.5978
-3.9204 2.3664 -0.6002
-3.9080 2.3475 -0.5973
-3.8984 2.3315 -0.5979
-3.8877 2.3150 -0.5957
-3.8787 2.3004 -0.5954
-3.8709 2.2871 -0.5962
-3.8625 2.2737 -0.5954
-3.8563 2.2624 -0.5978
-3.8496 2.2509 -0.5987
-3.8405 2.2381 -0.5946
-3.8338 2.2273 -0.5942
-3.8270 2.2167 -0.5931
-3.8226 2.2079 -0.5960
-3.8176 2.1990 -0.5973
-3.8143 2.1913 -0.6018
-3.8109 2.1837 -0.6059
-5.8429 6.0357 0.8279
-5.6081 5.5803 0.6474
-5.6304 5.5727 0.5648
-5.6317 5.5289 0.4750
-5.5705 5.3814 0.3717
-5.3384 4.9181 0.1675
-5.6159 5.3200 0.1138
-5.6383 5.3097 0.0257
-5.6841 5.3348 -0.0642
-5.7084 5.3249 -0.1570
-6.1302 5.7422 -0.6180
-5.6922 5.0662 -0.6148
-5.1764 4.2655 -0.6197
-5.0341 4.0382 -0.6339
-4.8616 3.7769 -0.6228
-4.7461 3.5977 -0.6240
-4.4923 3.2050 -0.6238
-4.3216 2.9433 -0.6191
-4.2324 2.8091 -0.6116
-4.1543 2.6946 -0.5989
-4.1303 2.6561 -0.6018
-4.1134 2.6260 -0.6095
-4.0983 2.5985 -0.6175
-4.0694 2.5578 -0.6098
-4.0423 2.5201 -0.6015
-4.0131 2.4718 -0.6077
-3.9689 2.4124 -0.5899
-3.9644 2.3996 -0.6013
-3.9485 2.3773 -0.5969
-3.9427 2.3641 -0.6053
-3.9316 2.3468 -0.6055
-3.9174 2.3275 -0.6003
-3.9075 2.3121 -0.6002
-3.8963 2.2962 -0.5975
-3.8869 2.2821 -0.5966
-3.8775 2.2684 -0.5949
-3.8693 2.2560 -0.5945
-3.8647 2.2462 -0.5996
-3.8476 2.2225 -0.5944
-3.8436 2.2138 -0.5990
-3.8359 2.2033 -0.5965
-3.8319 2.1951 -0.6002
-3.8248 2.1854 -0.5977
-3.8231 2.1789 -0.6055
-5.6739 5.4589 0.5741
-5.5742 5.1696 0.2920
-5.3803 4.8307 0.1824
-5.7475 5.3452 0.1401
-5.7488 5.3009 0.0493
-5.8466 5.3980 -0.0407
-5.9000 5.4267 -0.1372
-6.0708 5.6203 -0.2467
-5.9070 5.1903 -0.6219
-5.3925 4.4247 -0.6500
-5.1547 4.0829 -0.6394
-4.9339 3.7723 -0.6161
-4.8652 3.6589 -0.6420
-4.6827 3.4100 -0.6073
-4.6095 3.2993 -0.6150
-4.5091 3.1597 -0.6013
-4.4524 3.0745 -0.6058
-4.4085 3.0063 -0.6140
-4.3658 2.9413 -0.6194
-4.3108 2.8645 -0.6123
-4.2581 2.7925 -0.6025
-4.2356 2.7544 -0.6129
-4.1965 2.7001 -0.6073
-4.1285 2.6066 -0.5961
-4.1134 2.5801 -0.6046
-4.0907 2.5473 -0.6043
-4.0712 2.5182 -0.6054
-4.0523 2.4904 -0.6056
-4.0125 2.4356 -0.5991
-3.9972 2.4134 -0.5990
-3.9850 2.3943 -0.6016
-3.9741 2.3767 -0.6047
-3.9550 2.3532 -0.5962
-3.9472 2.3390 -0.6015
-3.9355 2.3224 -0.6008
-3.9177 2.3018 -0.5902
-3.9123 2.2906 -0.5966
-3.9044 2.2779 -0.5988
-3.8873 2.2527 -0.5992
-3.8781 2.2403 -0.5973
-3.8701 2.2290 -0.5968
-3.8640 2.2190 -0.5988
-3.8561 2.2083 -0.5971
-3.8494 2.1986 -0.5969
-3.8451 2.1904 -0.6008
-3.8384 2.1812 -0.5996
-3.8348 2.1738 -0.6039
-5.9556 5.7167 0.6543
-5.9570 5.6700 0.5584
-5.8805 5.5071 0.4457
-5.7412 5.2551 0.3280
-5.3892 4.7006 0.1923
-5.7215 5.1383 0.1515
-5.8860 5.3261 0.0747
-5.8873 5.2809 -0.0181
-5.8887 5.2357 -0.1108
-5.9155 5.2247 -0.2051
-6.0244 5.3218 -0.3097
-6.0287 5.1784 -0.6038
-5.2443 4.0821 -0.6316
-5.1015 3.8787 -0.6443
-4.9266 3.6434 -0.6324
-4.7802 3.4480 -0.6196
-4.6856 3.3167 -0.6209
-4.5209 3.0924 -0.6153
-4.4574 3.0052 -0.6143
-4.4117 2.9394 -0.6198
-4.3195 2.8123 -0.6197
-4.2304 2.6956 -0.6074
-4.1948 2.6483 -0.6037
-4.1784 2.6204 -0.6141
-4.1498 2.5820 -0.6119
-4.1237 2.5471 -0.6100
-4.0943 2.5103 -0.6027
-4.0830 2.4900 -0.6119
-4.0601 2.4605 -0.6077
-4.0423 2.4361 -0.6074
-4.0219 2.4103 -0.6027
-4.0138 2.3949 -0.6111
-3.9933 2.3704 -0.6037
-3.9774 2.3501 -0.6004
-3.9673 2.3346 -0.6034
-3.9519 2.3159 -0.5987
-3.9398 2.2999 -0.5972
-3.9323 2.2874 -0.6013
-3.9163 2.2698 -0.5924
-3.9093 2.2585 -0.5959
-3.9017 2.2470 -0.5978
-3.8935 2.2355 -0.5981
-3.8878 2.2257 -0.6020
-3.8815 2.2158 -0.6043
-3.8739 2.2055 -0.6039
-3.8610 2.1928 -0.5939
-3.8579 2.1854 -0.6001
-3.8503 2.1760 -0.5979
-6.3421 6.7561 2.0644
-6.2757 6.5899 1.9075
-5.9943 5.5912 0.6620
-5.8950 5.3554 0.4522
-5.7370 5.0890 0.3336
-5.5452 4.7824 0.2225
-5.6979 4.9510 0.1619
-5.8765 5.1483 0.0913
-5.8778 5.1049 0.0023
-5.9280 5.1250 -0.0872
-5.9293 5.0807 -0.1780
-6.0628 5.2030 -0.2803
-6.3126 5.3582 -0.6175
-5.9359 4.8592 -0.6320
-5.2960 4.0347 -0.6108
-5.0550 3.7011 -0.6485
-4.7669 3.3357 -0.6275
-4.6499 3.1897 -0.6143
-4.5367 3.0521 -0.5943
-4.5040 3.0002 -0.6123
-4.4519 2.9304 -0.6159
-4.3429 2.7921 -0.6080
-4.3199 2.7557 -0.6209
-4.2670 2.6925 -0.6090
-4.2083 2.6139 -0.6130
-4.1394 2.5312 -0.5989
-4.1059 2.4822 -0.6094
-4.0781 2.4499 -0.6014
-4.0542 2.4217 -0.5955
-4.0313 2.3862 -0.6066
-4.0087 2.3612 -0.5978
-4.0009 2.3472 -0.6052
-3.9817 2.3259 -0.5977
-3.9705 2.3106 -0.5991
-3.9545 2.2926 -0.5935
-3.9460 2.2799 -0.5967
-3.9327 2.2646 -0.5927
-3.9262 2.2537 -0.5973
-3.9170 2.2416 -0.5974
-3.9070 2.2295 -0.5959
-3.8991 2.2187 -0.5966
-3.8946 2.2100 -0.6022
-3.8860 2.1995 -0.6008
-3.8767 2.1890 -0.5976
-3.8721 2.1809 -0.6018
-3.8662 2.1725 -0.6032
-3.8596 2.1639 -0.6030
-5.9319 5.2889 0.5518
-5.9332 5.2459 0.4638
-5.7542 4.9635 0.3427
-5.5655 4.6750 0.2337
-5.7361 4.8576 0.1778
-5.9384 5.0742 0.1116
-6.0409 5.1582 0.0272
-6.1244 5.2149 -0.0647
-6.0703 5.1012 -0.1574
-5.9435 4.9024 -0.2405
-6.0730 5.0107 -0.3429
-6.1018 4.9973 -0.4397
-6.0490 4.8896 -0.5234
-5.5613 4.2210 -0.6536
-5.2817 3.8852 -0.6342
-5.1422 3.7068 -0.6459
-4.6386 3.0981 -0.6186
-4.5867 3.0285 -0.6295
-4.4850 2.9140 -0.6075
-4.3782 2.7833 -0.6047
-4.3078 2.6921 -0.6129
-4.2846 2.6587 -0.6224
-4.2248 2.5957 -0.6007
-4.1769 2.5332 -0.6073
-4.1179 2.4658 -0.5963
-4.1015 2.4434 -0.6005
-4.0830 2.4202 -0.6014
-4.0488 2.3775 -0.6021
-4.0331 2.3580 -0.6021
-4.0159 2.3382 -0.5994
-4.0043 2.3225 -0.6020
-3.9871 2.3038 -0.5969
-3.9741 2.2883 -0.5959
-3.9666 2.2764 -0.6012
-3.9529 2.2613 -0.5975
-3.9440 2.2493 -0.5995
-3.9345 2.2372 -0.5999
-3.9214 2.2238 -0.5946
-3.9132 2.2132 -0.5955
-3.9084 2.2045 -0.6011
-3.9002 2.1944 -0.6009
-3.8871 2.1825 -0.5924
-3.8852 2.1757 -0.6011
-3.8769 2.1665 -0.5991
-3.8722 2.1590 -0.6025
-6.0442 5.2363 0.4913
-5.9465 5.0676 0.3840
-5.8784 4.9394 0.2882
-5.7330 4.7187 0.1886
-5.9035 4.8859 0.1241
-6.1578 5.1470 0.0512
-6.1875 5.1351 -0.0414
-6.2179 5.1231 -0.1359
-6.0802 4.9183 -0.2218
-6.1355 4.9350 -0.3170
-6.2235 4.9381 -0.5151
-6.1673 4.8303 -0.5980
-6.0611 4.6722 -0.6649
-5.5981 4.1495 -0.6256
-5.4118 3.9241 -0.6397
-5.2680 3.7477 -0.6554
-5.0300 3.4842 -0.6249
-4.9073 3.3400 -0.6257
-4.8101 3.2243 -0.6294
-4.7151 3.1140 -0.6272
-4.6142 3.0018 -0.6153
-4.5332 2.9109 -0.6073
-4.4750 2.8428 -0.6072
-4.3843 2.7343 -0.6117
-4.2991 2.6367 -0.6074
-4.2522 2.5867 -0.5974
-4.2238 2.5526 -0.5990
-4.1480 2.4631 -0.6003
-4.1317 2.4413 -0.6057
-4.1148 2.4197 -0.6092
-4.0891 2.3929 -0.6028
-4.0613 2.3656 -0.5924
-4.0572 2.3541 -0.6055
-4.0323 2.3301 -0.5952
-4.0133 2.3025 -0.6058
-3.9933 2.2833 -0.5974
-3.9820 2.2696 -0.5984
-3.9684 2.2550 -0.5958
-3.9643 2.2457 -0.6046
-3.9479 2.2306 -0.5965
-3.9437 2.2218 -0.6043
-3.9302 2.2089 -0.5984
-3.9210 2.1983 -0.5979
-3.9032 2.1785 -0.5960
-3.8976 2.1702 -0.5992
-3.8912 2.1620 -0.6008
-3.8856 2.1542 -0.6032
-5.9566 4.9804 0.4747
-5.8268 4.7819 0.3672
-5.9375 4.8324 0.2232
-5.9160 4.7661 0.1391
-6.0851 4.9173 0.0661
-6.2493 5.0572 -0.0185
-6.1941 4.9496 -0.1102
-6.3739 5.0990 -0.2105
-6.2247 4.8909 -0.2942
-6.2260 4.8461 -0.3860
-6.2560 4.8310 -0.4822
-6.0432 4.5682 -0.5342
-5.8832 4.3655 -0.5834
-5.7231 4.1682 -0.6216
-5.4758 3.8924 -0.6233
-5.3270 3.7185 -0.6403
-5.0992 3.4762 -0.6185
-4.6950 3.0220 -0.6280
-4.5400 2.8547 -0.6179
-4.4524 2.7669 -0.5989
-4.4217 2.7272 -0.6100
-4.3821 2.6817 -0.6130
-4.3484 2.6420 -0.6174
-4.1992 2.4848 -0.6002
-4.1728 2.4560 -0.5990
-4.1500 2.4306 -0.5993
-4.1082 2.3843 -0.5989
-4.0965 2.3678 -0.6058
-4.0767 2.3470 -0.6035
-4.0561 2.3263 -0.5990
-4.0347 2.3059 -0.5922
-4.0237 2.2919 -0.5959
-4.0105 2.2771 -0.5962
-4.0003 2.2642 -0.5991
-3.9878 2.2506 -0.5986
-3.9798 2.2395 -0.6029
-3.9555 2.2146 -0.5989
-3.9430 2.2025 -0.5951
-3.9357 2.1930 -0.5978
-3.9232 2.1818 -0.5925
-3.9181 2.1737 -0.5974
-3.9100 2.1647 -0.5973
-3.9057 2.1573 -0.6025
-3.8983 2.1491 -0.6027
-5.9915 4.8460 0.4035
-5.7834 4.5314 0.2148
-6.1433 4.8467 0.0863
-6.1711 4.8329 0.0007
-6.2535 4.8757 -0.0873
-6.2837 4.8617 -0.1784
-6.1483 4.6783 -0.2587
-6.0493 4.5359 -0.3340
-5.9806 4.4267 -0.4069
-6.0517 4.4550 -0.4999
-5.9830 4.3480 -0.5682
-5.6022 3.9180 -0.6241
-4.7283 2.9995 -0.6161
-4.5804 2.8445 -0.6136
-4.5388 2.7956 -0.6236
-4.4566 2.7176 -0.6063
-4.4303 2.6833 -0.6191
-4.3748 2.6290 -0.6107
-4.3338 2.5867 -0.6088
-4.2778 2.5235 -0.6168
-4.2367 2.4848 -0.6076
-4.2109 2.4571 -0.6084
-4.1767 2.4251 -0.6002
-4.1304 2.3775 -0.5977
-4.1199 2.3620 -0.6064
-4.0955 2.3393 -0.6006
-4.0621 2.3041 -0.6004
-4.0356 2.2745 -0.6035
-4.0212 2.2599 -0.6025
-4.0122 2.2481 -0.6068
-3.9977 2.2343 -0.6040
-3.9825 2.2206 -0.5993
-3.9719 2.2093 -0.5995
-3.9597 2.1977 -0.5969
-3.9491 2.1871 -0.5957
-3.9446 2.1791 -0.6022
-3.9324 2.1686 -0.5976
-3.9256 2.1602 -0.5999
-3.9142 2.1506 -0.5950
-3.9089 2.1432 -0.5986
-6.3036 5.1079 0.5577
-5.9385 4.5841 0.2439
-6.0053 4.6155 0.1731
-6.0996 4.6732 0.0998
-5.9419 4.4713 0.0128
-5.9219 4.4125 -0.0642
-5.8815 4.3344 -0.1391
-5.9241 4.3381 -0.2169
-5.9041 4.2806 -0.2912
-5.8848 4.2246 -0.3642
-6.2093 4.4860 -0.4917
-6.4705 4.6797 -0.6276
-5.7194 3.9299 -0.6204
-4.6847 2.8994 -0.6058
-4.4730 2.6942 -0.5916
-4.4584 2.6694 -0.6119
-4.3268 2.5406 -0.6053
-4.2994 2.5110 -0.6097
-4.2752 2.4842 -0.6147
-4.2391 2.4510 -0.6087
-4.2157 2.4264 -0.6109
-4.1866 2.3993 -0.6068
-4.1655 2.3776 -0.6079
-4.1380 2.3531 -0.6017
-4.1232 2.3361 -0.6060
-4.0832 2.2984 -0.6011
-4.0603 2.2792 -0.5938
-4.0534 2.2680 -0.6022
-4.0377 2.2532 -0.6004
-4.0308 2.2426 -0.6076
-4.0111 2.2269 -0.5995
-3.9986 2.2148 -0.5986
-3.9884 2.2039 -0.6000
-3.9814 2.1945 -0.6047
-3.9539 2.1719 -0.5948
-3.9461 2.1631 -0.5966
-3.9406 2.1553 -0.6013
-3.9304 2.1463 -0.5988
-3.9234 2.1385 -0.6003
-6.7146 5.4613 0.7525
-6.1759 4.7539 0.3667
-5.8683 4.3990 0.2440
-5.7064 4.2001 0.1552
-5.7074 4.1673 0.0878
-5.8152 4.2027 -0.0463
-5.8736 4.2222 -0.1184
-6.6985 4.7527 -0.6290
-6.2948 4.3616 -0.6413
-5.4134 3.5278 -0.6277
-4.9983 3.1281 -0.6354
-4.6306 2.7840 -0.6222
-4.5423 2.7076 -0.6067
-4.4043 2.5747 -0.6091
-4.3598 2.5343 -0.6052
-4.3267 2.5020 -0.6066
-4.2903 2.4688 -0.6036
-4.2637 2.4423 -0.6057
-4.2095 2.3914 -0.6044
-4.1594 2.3458 -0.6000
-4.1433 2.3286 -0.6037
-4.1280 2.3122 -0.6072
-4.1119 2.2960 -0.6089
-4.0826 2.2744 -0.5964
-4.0746 2.2628 -0.6042
-4.0535 2.2461 -0.5974
-4.0439 2.2346 -0.6020
-4.0318 2.2225 -0.6033
-4.0164 2.2095 -0.5999
-4.0035 2.1978 -0.5985
-3.9938 2.1877 -0.6003
-3.9817 2.1770 -0.5985
-3.9728 2.1678 -0.6001
-3.9639 2.1588 -0.6011
-3.9534 2.1496 -0.5994
-3.9437 2.1410 -0.5981
-3.9332 2.1325 -0.5951
-5.8586 4.3565 0.3918
-5.7525 4.2162 0.3039
-5.7710 4.2006 0.2394
-5.8808 4.2722 0.1834
-5.8627 4.2196 0.1113
-7.0315 4.9013 -0.6446
-6.5882 4.4905 -0.6617
-5.8013 3.7868 -0.6413
-5.3618 3.3904 -0.6366
-5.2747 3.2994 -0.6606
-4.7970 2.8933 -0.6061
-4.6631 2.7679 -0.6139
-4.5797 2.6977 -0.6031
-4.5441 2.6600 -0.6139
-4.4408 2.5686 -0.6092
-4.3609 2.4967 -0.6081
-4.2951 2.4372 -0.6077
-4.2660 2.4109 -0.6074
-4.2276 2.3807 -0.5980
-4.1902 2.3428 -0.6061
-4.1545 2.3078 -0.6112
-4.1278 2.2873 -0.6038
-4.1103 2.2715 -0.6038
-4.0945 2.2568 -0.6044
-4.0787 2.2426 -0.6041
-4.0603 2.2280 -0.6001
-4.0453 2.2151 -0.5987
-4.0269 2.2014 -0.5926
-4.0220 2.1928 -0.6009
-4.0087 2.1817 -0.5990
-3.9987 2.1720 -0.6003
-3.9904 2.1630 -0.6031
-3.9779 2.1532 -0.6001
-3.9705 2.1450 -0.6029
-3.9579 2.1359 -0.5985
-3.9513 2.1284 -0.6014
-5.7814 4.2159 0.4465
-5.8704 4.2685 0.3981
-5.8902 4.2529 0.3328
-6.2489 4.0765 -0.6385
-5.9043 3.7816 -0.6334
-5.4260 3.3721 -0.6264
-5.1184 3.1072 -0.6248
-4.9162 2.9294 -0.6314
-4.7857 2.8261 -0.6127
-4.6818 2.7432 -0.5990
-4.6366 2.6992 -0.6089
-4.5912 2.6564 -0.6161
-4.4780 2.5621 -0.6093
-4.4265 2.5203 -0.6040
-4.4061 2.4966 -0.6161
-4.3203 2.4282 -0.6046
-4.2551 2.3747 -0.5990
-4.2132 2.3356 -0.6050
-4.1857 2.3140 -0.6005
-4.1660 2.2966 -0.6014
-4.1515 2.2819 -0.6058
-4.1352 2.2669 -0.6078
-4.1068 2.2477 -0.5970
-4.1001 2.2373 -0.6062
-4.0820 2.2231 -0.6034
-4.0701 2.2115 -0.6060
-4.0564 2.1997 -0.6060
-4.0418 2.1880 -0.6042
-4.0263 2.1764 -0.6005
-4.0178 2.1673 -0.6041
-3.9911 2.1473 -0.5980
-3.9843 2.1395 -0.6020
-3.9775 2.1318 -0.6056
-3.9690 2.1240 -0.6064
-5.9714 3.7484 -0.6162
-5.8795 3.6503 -0.6612
-5.3757 3.2494 -0.6347
-5.1718 3.0909 -0.6164
-5.0520 2.9917 -0.6178
-4.9364 2.8986 -0.6140
-4.7459 2.7463 -0.6053
-4.7189 2.7138 -0.6259
-4.6208 2.6418 -0.6086
-4.5643 2.5956 -0.6082
-4.5256 2.5606 -0.6147
-4.4727 2.5191 -0.6104
-4.4330 2.4860 -0.6115
-4.2839 2.3689 -0.6004
-4.2619 2.3490 -0.6041
-4.2354 2.3278 -0.6030
-4.1941 2.2923 -0.6061
-4.1657 2.2725 -0.5991
-4.1481 2.2574 -0.6003
-4.1305 2.2428 -0.6005
-4.1138 2.2290 -0.6005
-4.0997 2.2166 -0.6022
-4.0865 2.2048 -0.6041
-4.0706 2.1926 -0.6023
-4.0520 2.1801 -0.5968
-4.0441 2.1710 -0.6020
-4.0354 2.1619 -0.6058
-4.0212 2.1518 -0.6028
-4.0080 2.1422 -0.6002
-3.9992 2.1340 -0.6021
-3.9922 2.1264 -0.6058
-3.9825 2.1185 -0.6057
-6.6590 4.1769 -0.6475
-5.9076 3.5943 -0.6358
-5.6538 3.3976 -0.6319
-5.4044 3.2106 -0.6152
-5.1244 2.9899 -0.6181
-4.9015 2.8177 -0.6134
-4.7420 2.6928 -0.6135
-4.6621 2.6336 -0.6068
-4.6133 2.5928 -0.6119
-4.5191 2.5170 -0.6160
-4.4710 2.4806 -0.6136
-4.4275 2.4476 -0.6113
-4.3840 2.4158 -0.6067
-4.3339 2.3824 -0.5952
-4.3187 2.3652 -0.6057
-4.2888 2.3424 -0.6045
-4.2671 2.3237 -0.6080
-4.2344 2.3013 -0.6015
-4.1970 2.2781 -0.5895
-4.1909 2.2671 -0.6018
-4.1755 2.2531 -0.6058
-4.1519 2.2368 -0.6014
-4.1310 2.2220 -0.5983
-4.1221 2.2114 -0.6054
-4.0984 2.1968 -0.5976
-4.0857 2.1859 -0.5996
-4.0777 2.1765 -0.6057
-4.0622 2.1655 -0.6035
-4.0431 2.1541 -0.5964
-4.0322 2.1450 -0.5975
-4.0306 2.1382 -0.6086
-4.0133 2.1283 -0.6012
-4.0070 2.1210 -0.6061
-3.9979 2.1133 -0.6072
-6.8418 4.2004 -0.6435
-5.9712 3.5629 -0.6196
-5.5870 3.2660 -0.6403
-5.1920 2.9836 -0.6158
-4.9490 2.8059 -0.6085
-4.7937 2.6873 -0.6140
-4.7257 2.6360 -0.6151
-4.6690 2.5922 -0.6182
-4.5601 2.5112 -0.6177
-4.4194 2.4105 -0.6093
-4.3859 2.3850 -0.6103
-4.3223 2.3482 -0.5888
-4.3104 2.3334 -0.6008
-4.2890 2.3153 -0.6052
-4.2649 2.2967 -0.6062
-4.2221 2.2634 -0.6090
-4.1894 2.2439 -0.5991
-4.1698 2.2294 -0.5989
-4.1531 2.2163 -0.6002
-4.1373 2.2039 -0.6015
-4.1262 2.1931 -0.6064
-4.1056 2.1803 -0.6015
-4.0926 2.1698 -0.6030
-4.0720 2.1579 -0.5961
-4.0666 2.1499 -0.6040
-4.0564 2.1410 -0.6065
-4.0395 2.1312 -0.6011
-4.0293 2.1229 -0.6023
-4.0210 2.1153 -0.6052
-4.0079 2.1072 -0.6019
-6.9282 4.1576 -0.6214
-6.6421 3.9375 -0.6550
-6.1123 3.5782 -0.6203
-5.6404 3.2396 -0.6266
-5.2706 2.9818 -0.6163
-5.0183 2.8049 -0.6114
-4.9266 2.7390 -0.6128
-4.8358 2.6760 -0.6098
-4.7882 2.6362 -0.6217
-4.6934 2.5755 -0.6084
-4.5768 2.4939 -0.6058
-4.4716 2.4232 -0.5976
-4.4193 2.3788 -0.6121
-4.3636 2.3464 -0.5977
-4.2950 2.2915 -0.6100
-4.2260 2.2505 -0.5938
-4.2156 2.2386 -0.6028
-4.1898 2.2226 -0.5981
-4.1745 2.2102 -0.6013
-4.1535 2.1966 -0.5985
-4.1382 2.1850 -0.5999
-4.1171 2.1724 -0.5951
-4.1115 2.1639 -0.6041
-4.0914 2.1525 -0.5984
-4.0819 2.1437 -0.6026
-4.0714 2.1349 -0.6052
-4.0570 2.1258 -0.6031
-4.0534 2.1187 -0.6119
-4.0331 2.1093 -0.6020
-6.9146 -1.1118 0.7485
-6.6438 -0.8220 0.6812
-6.5979 -0.7155 0.6694
-5.8247 0.1295 0.4773
-5.8119 0.1894 0.4738
-5.2031 0.8195 0.3227
-4.7583 1.3557 0.2118
-4.7552 1.3826 0.2109
-5.1711 1.8741 0.3082
-5.1645 1.9101 0.3064
-5.6720 2.2698 0.4266
-5.8985 2.5351 0.4796
-5.9496 2.6192 0.4914
-6.9222 -1.1353 0.6767
-6.7423 -0.9148 0.6360
-6.5594 -0.7008 0.5946
-6.4747 -0.5683 0.5752
-5.9903 -0.0420 0.4658
-5.8720 0.0900 0.4391
-5.8337 0.1671 0.4302
-5.6690 0.3169 0.3932
-5.5810 0.4152 0.3734
-5.5087 0.5008 0.3570
-5.3434 0.6714 0.3197
-5.2372 0.7616 0.2960
-5.2117 0.8110 0.2901
-5.0309 0.9898 0.2494
-5.1620 1.8733 0.2716
-5.1555 1.9093 0.2699
-5.3172 2.0010 0.3045
-5.4937 2.1065 0.3422
-5.5634 2.1802 0.3569
-5.7017 2.2860 0.3863
-5.8490 2.4596 0.4171
-7.8164 4.1393 0.8339
-7.7683 4.2168 0.8228
-7.6285 -1.8266 0.7446
-6.8216 -0.9938 0.5815
-6.6741 -0.8036 0.5513
-6.6042 -0.6783 0.5368
-6.3784 -0.4444 0.4911
-5.8224 0.1124 0.3788
-5.7314 0.2213 0.3603
-5.6274 0.3335 0.3392
-5.5598 0.4199 0.3254
-5.4546 0.5670 0.3039
-5.3126 0.6809 0.2754
-5.2466 0.7520 0.2620
-5.2026 0.8102 0.2530
-5.1620 0.8648 0.2447
-4.7074 1.3588 0.1526
-5.1820 1.8807 0.2406
-5.1926 1.9227 0.2423
-5.8010 2.3867 0.3567
-5.9512 2.5722 0.3844
-6.1434 2.7321 0.4205
-7.7726 -1.9709 0.6782
-6.9913 -1.1458 0.5383
-6.9050 -0.9976 0.5224
-6.7484 -0.8009 0.4941
-6.0319 -0.0910 0.3662
-5.6157 0.3325 0.2919
-5.5135 0.4389 0.2736
-5.4527 0.5616 0.2622
-5.3520 0.6556 0.2443
-5.2054 0.8041 0.2181
-5.1585 0.8617 0.2096
-5.1440 1.8718 0.1985
-5.1492 1.9114 0.1990
-5.9389 2.5121 0.3280
-5.9508 2.5778 0.3295
-6.0962 2.7141 0.3530
-7.1192 -1.2664 0.4798
-5.4510 0.5117 0.2206
-5.4029 0.5812 0.2129
-5.3788 0.6363 0.2089
-5.2266 0.7896 0.1853
-5.1388 0.8655 0.1718
-5.1349 1.8710 0.1619
-5.1571 1.9159 0.1647
-5.9658 2.5302 0.2766
-5.9640 2.5903 0.2757
-6.0653 2.7045 0.2894
-6.8640 3.2957 0.4000
-5.7037 0.2629 0.2113
-5.4164 0.5240 0.1740
-5.4000 0.5763 0.1715
-5.3609 0.6392 0.1661
-5.2690 0.7254 0.1542
-5.2107 0.7917 0.1464
-5.1568 0.8533 0.1393
-4.7348 1.3520 0.0834
-4.7372 1.3786 0.0834
-5.1543 1.8783 0.1287
-5.1763 1.9239 0.1308
-5.9106 2.5096 0.2135
-5.9360 2.5822 0.2158
-5.5597 0.3896 0.1471
-5.4788 0.4823 0.1384
-5.4281 0.5548 0.1328
-5.3806 0.6231 0.1275
-4.7315 1.3511 0.0575
-4.7360 1.3776 0.0577
-4.7246 1.4054 0.0563
-8.3187 2.1633 0.3915
-5.1514 1.8793 0.0919
-5.1669 1.9231 0.0929
-5.9100 2.5149 0.1575
-5.6170 0.2989 0.1061
-5.5962 0.3603 0.1040
-5.5382 0.4416 0.0989
-5.4000 0.6069 0.0873
-4.7375 1.3219 0.0325
-4.7251 1.3505 0.0313
-4.7295 1.3770 0.0313
-5.1307 1.8752 0.0537
-5.9226 2.5265 0.1016
-7.9468 4.3183 0.2227
-5.6035 0.3479 0.0569
-5.5267 0.4407 0.0523
-5.4309 0.5397 0.0468
-5.3893 0.6060 0.0441
-5.3435 0.6722 0.0413
-5.3126 0.7292 0.0392
-4.7393 1.3201 0.0064
-4.7186 1.3499 0.0051
-4.7261 1.3762 0.0051
-4.7201 1.4037 0.0045
-5.1556 1.8843 0.0179
-5.9226 2.5322 0.0439
-5.6726 0.2983 0.0104
-5.5805 0.4023 0.0073
-5.4958 0.4975 0.0045
-5.3871 0.6007 0.0012
-5.3111 0.6822 -0.0013
-5.3171 0.7214 -0.0017
-4.7244 1.3207 -0.0205
-4.7235 1.3480 -0.0208
-4.7289 1.3747 -0.0211
-4.7188 1.4028 -0.0217
-5.1895 1.8553 -0.0190
-5.1821 1.8939 -0.0197
-5.9661 2.4961 -0.0133
-5.9214 2.5374 -0.0147
-5.6716 0.2903 -0.0403
-5.5874 0.3905 -0.0410
-5.3593 0.6522 -0.0428
-4.7209 1.3197 -0.0470
-4.7108 1.3482 -0.0473
-4.7193 1.3745 -0.0477
-4.7215 1.4016 -0.0481
-5.1307 1.8809 -0.0582
-5.9807 2.5084 -0.0739
-5.9940 2.5785 -0.0750
-5.8992 0.0857 -0.0966
-5.7829 0.2141 -0.0945
-5.6897 0.3230 -0.0929
-5.5083 0.4759 -0.0888
-4.7195 1.3184 -0.0738
-4.7166 1.3461 -0.0741
-4.7240 1.3728 -0.0747
-5.1641 1.8520 -0.0972
-5.1750 1.8958 -0.0982
-5.9656 2.5071 -0.1349
-5.9788 2.5772 -0.1364
-5.4684 0.5377 -0.1351
-4.7109 1.3181 -0.1004
-4.7070 1.3459 -0.1005
-4.7143 1.3725 -0.1014
-5.1917 1.8611 -0.1387
-5.2035 1.9062 -0.1401
-5.9505 2.5058 -0.1959
-5.9196 2.5543 -0.1947
-5.5794 0.4209 -0.1906
-4.7296 1.3137 -0.1292
-4.7034 1.3450 -0.1274
-4.7137 1.3714 -0.1288
-5.2208 1.8706 -0.1824
-5.1995 1.9071 -0.1811
-5.8788 2.4780 -0.2513
-5.8631 2.5323 -0.2508
-5.9385 0.0292 -0.2771
-5.7315 0.2176 -0.2560
-5.5478 0.4308 -0.2381
-4.7228 1.3131 -0.1566
-4.6989 1.3442 -0.1543
-4.7101 1.3705 -0.1561
-5.1967 1.8660 -0.2218
-5.1955 1.9080 -0.2224
-5.9668 2.4599 -0.3225
-5.8918 2.4897 -0.3142
-5.8623 2.5380 -0.3116
-7.4104 3.6302 -0.5123
-8.0710 4.3976 -0.6032
-5.9239 0.0279 -0.3365
-5.8409 0.1398 -0.3264
-5.5650 0.4130 -0.2912
-5.5432 0.4754 -0.2892
-4.7191 1.3120 -0.1844
-4.6983 1.3428 -0.1819
-5.1936 1.8670 -0.2636
-5.1854 1.9071 -0.2631
-6.9121 2.7911 -0.5307
-5.9662 2.4651 -0.3870
-5.9495 2.5227 -0.3856
-7.3481 3.5000 -0.6072
-7.3450 3.6044 -0.6086
-7.1543 3.5931 -0.5806
-7.3786 3.8392 -0.6178
-7.1844 3.8155 -0.5890
-7.2554 3.9678 -0.6022
-7.4507 4.2160 -0.6351
-7.4474 4.3239 -0.6366
-7.3626 4.3670 -0.6250
-7.4409 4.5398 -0.6396
-7.5675 4.7586 -0.6620
-7.5641 4.8703 -0.6636
-7.4736 4.9025 -0.6510
-7.5959 5.3627 -0.6772
-6.0765 -0.1478 -0.4217
-5.9959 -0.0303 -0.4099
-5.7885 0.1627 -0.3775
-5.7263 0.2569 -0.3684
-5.6341 0.3651 -0.3544
-4.7055 1.3405 -0.2112
-4.7195 1.3670 -0.2141
-5.1903 1.8680 -0.3057
-5.1891 1.9103 -0.3063
-5.9361 2.4573 -0.4470
-5.8621 2.4872 -0.4346
-6.9403 3.1878 -0.6359
-7.0016 3.3171 -0.6491
-6.9347 3.3743 -0.6385
-6.9008 3.4483 -0.6340
-6.9610 3.5816 -0.6470
-6.9262 3.6541 -0.6424
-6.9233 3.7473 -0.6436
-6.9524 3.8642 -0.6509
-6.9177 3.9339 -0.6462
-6.9467 4.0526 -0.6535
-6.9756 4.1731 -0.6609
-6.9727 4.2682 -0.6622
-7.0352 4.4215 -0.6760
-6.9669 4.4585 -0.6648
-6.9640 4.5536 -0.6661
-6.9611 4.6487 -0.6674
-5.8516 0.1126 -0.4484
-5.7009 0.2630 -0.4207
-4.7607 1.3021 -0.2503
-4.7135 1.3380 -0.2414
-4.7127 1.3665 -0.2418
-4.7236 1.3941 -0.2446
-5.1928 1.8706 -0.3495
-5.2052 1.9174 -0.3529
-5.9227 2.3919 -0.5083
-5.8626 2.4300 -0.4968
-5.8898 2.5062 -0.5039
-6.2721 2.8396 -0.5883
-6.4396 3.0101 -0.6257
-6.3080 3.0126 -0.5990
-6.3472 3.1141 -0.6090
-6.3448 3.1910 -0.6101
-6.3425 3.2678 -0.6111
-6.3613 3.3598 -0.6168
-6.3810 3.4537 -0.6227
-6.3566 3.5147 -0.6189
-6.3130 3.5590 -0.6109
-6.2897 3.6177 -0.6074
-6.3495 3.7471 -0.6221
-6.4809 3.9442 -0.6528
-6.4784 4.0256 -0.6539
-6.4530 4.0852 -0.6499
-6.4277 4.1434 -0.6459
-6.3596 4.1567 -0.6323
-6.2583 -0.4392 -0.5932
-6.2004 -0.3272 -0.5820
-5.8659 0.0334 -0.5117
-5.8114 0.1279 -0.5010
-5.7967 0.1951 -0.4990
-5.7205 0.2975 -0.4834
