ply
format ascii 1.0
element vertex 2089
property float x
property float y
property float z
end_header
-2.8660 4.0191 -0.6346
-2.8172 3.8618 -0.6294
-2.7877 3.7549 -0.6355
-2.7258 3.5487 -0.6338
-2.6929 3.4487 -0.6257
-2.6640 3.3612 -0.6183
-2.6543 3.3148 -0.6289
-2.6354 3.2529 -0.6277
-2.6139 3.1886 -0.6214
-2.5911 3.1249 -0.6114
-2.5777 3.0606 -0.6265
-2.5456 2.9704 -0.6126
-2.5434 2.9500 -0.6228
-2.5170 2.8635 -0.6212
-2.5091 2.8380 -0.6203
-2.5014 2.8137 -0.6190
-2.4902 2.7856 -0.6115
-2.4900 2.7731 -0.6208
-2.4820 2.7509 -0.6172
-2.4782 2.7348 -0.6198
-2.4691 2.7127 -0.6132
-2.4632 2.6952 -0.6113
-2.4571 2.6684 -0.6161
-2.4517 2.6531 -0.6140
-2.4516 2.6439 -0.6208
-2.4446 2.6279 -0.6151
-2.4424 2.6172 -0.6177
-2.4395 2.6060 -0.6186
-2.3103 3.1970 0.2349
-2.3464 3.3126 0.2385
-2.2716 2.8695 0.0630
-2.2744 2.8635 0.0509
-2.2771 2.8575 0.0388
-2.2802 2.8527 0.0270
-2.2854 2.8560 0.0164
-2.2904 2.8579 0.0053
-2.2945 2.8563 -0.0065
-2.2990 2.8558 -0.0183
-2.2939 2.8232 -0.0323
-2.2925 2.8042 -0.0446
-2.2951 2.7985 -0.0559
-2.2977 2.7928 -0.0672
-2.3014 2.7903 -0.0786
-2.3114 2.7926 -0.1022
-2.3163 2.7930 -0.1144
-2.3205 2.7913 -0.1265
-2.3263 2.7935 -0.1395
-2.3310 2.7927 -0.1522
-2.9319 4.0603 -0.6357
-2.8693 3.8807 -0.6247
-2.8426 3.7845 -0.6361
-2.7985 3.6570 -0.6293
-2.7675 3.5610 -0.6295
-2.7404 3.4768 -0.6301
-2.6874 3.3210 -0.6239
-2.6665 3.2580 -0.6226
-2.6462 3.1987 -0.6200
-2.6396 3.1652 -0.6308
-2.6166 3.1055 -0.6215
-2.5943 3.0494 -0.6111
-2.5893 3.0231 -0.6201
-2.5815 2.9932 -0.6248
-2.5622 2.9471 -0.6137
-2.5615 2.9303 -0.6260
-2.5483 2.8958 -0.6207
-2.5373 2.8659 -0.6175
-2.5287 2.8403 -0.6168
-2.5101 2.7900 -0.6109
-2.5069 2.7739 -0.6160
-2.4994 2.7531 -0.6143
-2.4873 2.7168 -0.6134
-2.4774 2.6853 -0.6141
-2.4773 2.6756 -0.6219
-2.4673 2.6556 -0.6128
-2.4644 2.6438 -0.6154
-2.4615 2.6322 -0.6175
-2.4584 2.6208 -0.6191
-2.4539 2.6083 -0.6179
-2.2795 2.8683 0.0759
-2.2828 2.8647 0.0645
-2.2859 2.8599 0.0527
-2.2880 2.8516 0.0403
-2.2913 2.8480 0.0289
-2.2977 2.8548 0.0190
-2.3008 2.8499 0.0070
-2.3049 2.8484 -0.0045
-2.3045 2.8324 -0.0175
-2.3076 2.8276 -0.0293
-2.3066 2.8107 -0.0416
-2.3092 2.8050 -0.0531
-2.3111 2.7971 -0.0645
-2.3136 2.7914 -0.0758
-2.3189 2.7931 -0.0875
-2.3243 2.7947 -0.0995
-2.3298 2.7961 -0.1117
-2.3349 2.7965 -0.1242
-2.3401 2.7967 -0.1369
-2.3458 2.7978 -0.1500
-2.3580 2.8137 -0.1665
-3.0426 4.2386 -0.6229
-3.0004 4.1027 -0.6366
-2.8688 3.7546 -0.6135
-2.8504 3.6834 -0.6298
-2.8079 3.5697 -0.6235
-2.7664 3.4626 -0.6140
-2.7520 3.4085 -0.6252
-2.7208 3.3272 -0.6187
-2.7069 3.2788 -0.6265
-2.6811 3.2123 -0.6205
-2.6566 3.1506 -0.6135
-2.6541 3.1262 -0.6285
-2.6207 3.0366 -0.6237
-2.6034 2.9936 -0.6183
-2.5850 2.9506 -0.6102
-2.5779 2.9250 -0.6148
-2.5676 2.8960 -0.6146
-2.5472 2.8412 -0.6117
-2.5483 2.8295 -0.6245
-2.5297 2.7819 -0.6198
-2.5248 2.7645 -0.6229
-2.5178 2.7453 -0.6224
-2.5063 2.7216 -0.6145
-2.5014 2.7060 -0.6159
-2.5001 2.6947 -0.6225
-2.4923 2.6769 -0.6186
-2.4823 2.6575 -0.6106
-2.4818 2.6482 -0.6176
-2.4760 2.6340 -0.6155
-2.4699 2.6201 -0.6127
-2.4705 2.6125 -0.6206
-2.2937 2.8753 0.0803
-2.2948 2.8634 0.0667
-2.2962 2.8527 0.0538
-2.2992 2.8480 0.0422
-2.3029 2.8456 0.0311
-2.3055 2.8397 0.0193
-2.3096 2.8385 0.0082
-2.3112 2.8292 -0.0040
-2.3119 2.8178 -0.0161
-2.3129 2.8076 -0.0279
-2.3170 2.8063 -0.0390
-2.3176 2.7951 -0.0506
-2.3197 2.7884 -0.0618
-2.3267 2.7946 -0.0731
-2.3309 2.7931 -0.0847
-2.3373 2.7968 -0.0967
-2.3425 2.7972 -0.1089
-2.3482 2.7986 -0.1214
-2.3553 2.8029 -0.1347
-2.3639 2.8100 -0.1489
-3.0468 4.1867 -0.5405
-3.0809 4.2104 -0.6013
-2.9938 3.9527 -0.6262
-2.8940 3.6924 -0.6229
-2.8721 3.6204 -0.6358
-2.8214 3.5008 -0.6227
-2.7881 3.4158 -0.6199
-2.7644 3.3502 -0.6226
-2.7334 3.2752 -0.6162
-2.7255 3.2398 -0.6294
-2.6850 3.1351 -0.6272
-2.6615 3.0810 -0.6200
-2.6459 3.0403 -0.6195
-2.6167 2.9660 -0.6168
-2.6085 2.9395 -0.6213
-2.5982 2.9110 -0.6224
-2.5816 2.8754 -0.6146
-2.5724 2.8504 -0.6152
-2.5702 2.8349 -0.6242
-2.5617 2.8122 -0.6244
-2.5445 2.7689 -0.6225
-2.5308 2.7321 -0.6230
-2.5162 2.6967 -0.6200
-2.5099 2.6808 -0.6192
-2.5068 2.6686 -0.6229
-2.5001 2.6533 -0.6207
-2.4919 2.6371 -0.6156
-2.4855 2.6231 -0.6130
-2.4845 2.6143 -0.6188
-2.3044 2.8692 0.0813
-2.3056 2.8585 0.0681
-2.3079 2.8514 0.0561
-2.3116 2.8491 0.0451
-2.3135 2.8409 0.0329
-2.3157 2.8339 0.0210
-2.3155 2.8201 0.0083
-2.3172 2.8121 -0.0033
-2.3169 2.7986 -0.0154
-2.3197 2.7942 -0.0263
-2.3221 2.7886 -0.0373
-2.3229 2.7787 -0.0484
-2.3265 2.7765 -0.0592
-2.3311 2.7763 -0.0701
-2.3348 2.7740 -0.0811
-2.3690 2.8050 -0.1318
-3.1326 4.2567 -0.5448
-3.1457 4.2362 -0.5951
-3.1357 4.1727 -0.6322
-3.0598 3.9908 -0.6269
-2.9528 3.7273 -0.6262
-2.8633 3.5139 -0.6192
-2.8191 3.4142 -0.6101
-2.7920 3.3458 -0.6116
-2.7737 3.2936 -0.6183
-2.7514 3.2371 -0.6196
-2.7181 3.1467 -0.6274
-2.6897 3.0873 -0.6173
-2.6743 3.0481 -0.6184
-2.6415 2.9711 -0.6145
-2.6326 2.9445 -0.6192
-2.6117 2.9034 -0.6090
-2.6066 2.8833 -0.6161
-2.6006 2.8627 -0.6216
-2.5802 2.8138 -0.6203
-2.5619 2.7703 -0.6186
-2.5526 2.7496 -0.6167
-2.5445 2.7307 -0.6156
-2.5375 2.7135 -0.6155
-2.5365 2.7027 -0.6233
-2.5243 2.6814 -0.6148
-2.5237 2.6718 -0.6226
-2.5086 2.6408 -0.6168
-2.5041 2.6286 -0.6177
-2.4994 2.6167 -0.6180
-2.3151 2.8642 0.0825
-2.3169 2.8559 0.0701
-2.3175 2.8442 0.0570
-2.3181 2.8325 0.0442
-2.3231 2.8211 0.0215
-2.3243 2.8120 0.0097
-2.3241 2.7995 -0.0023
-2.3235 2.7861 -0.0141
-2.3262 2.7818 -0.0248
-2.3295 2.7786 -0.0353
-2.3313 2.7720 -0.0461
-2.3332 2.7655 -0.0567
-2.3373 2.7645 -0.0673
-2.3391 2.7580 -0.0779
-2.3453 2.7611 -0.0889
-2.3485 2.7577 -0.0997
-2.3489 2.7482 -0.1100
-2.3570 2.7445 -0.1321
-3.1447 4.0585 -0.6369
-3.0855 3.9184 -0.6399
-3.0056 3.7495 -0.6241
-2.9052 3.5260 -0.6152
-2.8631 3.4333 -0.6104
-2.8385 3.3707 -0.6160
-2.8179 3.3163 -0.6227
-2.7841 3.2447 -0.6161
-2.7736 3.2088 -0.6277
-2.7231 3.1004 -0.6192
-2.7074 3.0618 -0.6215
-2.6913 3.0239 -0.6220
-2.6753 2.9875 -0.6214
-2.6641 2.9582 -0.6246
-2.6340 2.8935 -0.6197
-2.6229 2.8675 -0.6203
-2.6049 2.8344 -0.6117
-2.6013 2.8183 -0.6194
-2.5935 2.7981 -0.6214
-2.5806 2.7732 -0.6164
-2.5715 2.7531 -0.6156
-2.5636 2.7349 -0.6156
-2.5605 2.7217 -0.6213
-2.5422 2.6854 -0.6154
-2.5296 2.6564 -0.6153
-2.5286 2.6471 -0.6222
-2.5155 2.6279 -0.6113
-5.0847 1.5729 0.4266
-4.9715 1.6246 0.4096
-4.9344 1.6657 0.4070
-5.1636 1.6830 0.4561
-5.0802 1.7310 0.4448
-5.3206 1.9024 0.5148
-2.9956 2.4032 0.0987
-2.9833 2.4121 0.0972
-2.9466 2.4364 0.0927
-2.9389 2.4503 0.0928
-2.9332 2.4672 0.0936
-2.9356 2.4978 0.0978
-2.9325 2.5207 0.1000
-2.9407 2.5645 0.1070
-2.8411 2.4863 0.0771
-2.8241 2.4763 0.0724
-2.7505 2.4226 0.0508
-2.7458 2.4357 0.0514
-2.7428 2.4545 0.0531
-4.9041 1.6251 0.3535
-4.9361 1.6579 0.3630
-5.0703 1.6832 0.3906
-5.0304 1.7268 0.3879
-5.0812 1.7646 0.4014
-5.1368 1.8049 0.4161
-5.1813 1.8485 0.4291
-5.1811 1.8949 0.4340
-5.9123 2.4213 0.6265
-5.8411 2.4831 0.6200
-5.9651 2.5822 0.6537
-7.2080 3.6553 1.0002
-2.9436 2.1578 0.0479
-2.9379 2.5331 0.0875
-2.9493 2.5837 0.0950
-2.7447 2.4105 0.0384
-2.7415 2.4275 0.0396
-2.7368 2.4407 0.0402
-5.0740 1.6747 0.3434
-5.0856 1.7145 0.3491
-5.0452 1.7589 0.3467
-5.2948 1.7898 0.3909
-5.2793 1.8377 0.3929
-5.2802 1.8860 0.3977
-5.5017 1.9922 0.4444
-5.4088 2.0440 0.4340
-5.8533 2.4768 0.5487
-5.7059 2.5231 0.5287
-3.0335 2.1533 0.0517
-3.0082 2.1545 0.0477
-2.9817 2.1537 0.0432
-2.9558 2.1518 0.0388
-2.9314 2.1496 0.0345
-2.9156 2.1521 0.0321
-2.8923 2.1482 0.0279
-2.8756 2.1481 0.0251
-2.7400 2.4012 0.0268
-2.7372 2.4193 0.0281
-2.7355 2.4419 0.0300
-5.2208 1.8783 0.3339
-5.2533 1.9270 0.3426
-5.5292 1.9840 0.3873
-5.5333 2.0410 0.3926
-5.4773 2.0958 0.3890
-5.6540 2.1692 0.4207
-5.7318 2.2411 0.4378
-5.6916 2.3032 0.4371
-5.5601 2.3517 0.4220
-5.8641 2.4702 0.4758
-3.0029 2.1511 0.0346
-2.9737 2.1486 0.0302
-2.8903 2.1468 0.0180
-2.8745 2.1474 0.0157
-2.7391 2.3325 0.0113
-2.7382 2.3755 0.0147
-2.7366 2.3958 0.0161
-2.7355 2.4191 0.0179
-2.7329 2.4390 0.0191
-2.7993 2.7499 0.0543
-5.2904 1.8690 0.2881
-5.2251 1.9187 0.2834
-5.5951 2.1556 0.3458
-5.6011 2.2190 0.3509
-5.8798 2.3177 0.3924
-5.6366 2.3548 0.3647
-5.9033 2.4682 0.4057
-5.9892 2.6422 0.4283
-7.2887 3.0351 0.6172
-2.9919 2.1446 0.0209
-2.9676 2.1447 0.0178
-2.9547 2.1508 0.0167
-2.9314 2.1495 0.0137
-2.9148 2.1515 0.0117
-2.8776 2.1500 0.0070
-2.8228 2.1401 -0.0005
-2.7360 2.2878 -0.0011
-2.7306 2.2941 -0.0014
-2.7357 2.3728 0.0047
-2.7354 2.4243 0.0082
-2.7945 2.7420 0.0374
-5.3465 1.8594 0.2375
-5.2793 1.9104 0.2334
-5.6451 2.3477 0.2955
-5.8059 2.4434 0.3175
-5.9286 2.5412 0.3356
-6.0657 2.6499 0.3559
-2.9533 2.1497 0.0053
-2.9407 2.1555 0.0043
-2.8881 2.1584 -0.0009
-2.8203 2.1381 -0.0091
-2.7347 2.2877 -0.0097
-2.7264 2.2868 -0.0106
-2.7328 2.3688 -0.0054
-2.7350 2.4006 -0.0034
-5.2509 1.9021 0.1737
-5.1861 1.9517 0.1704
-5.5341 2.2587 0.2120
-5.9278 2.4545 0.2528
-6.0321 2.5517 0.2654
-3.0445 2.1571 0.0020
-2.9751 2.1632 -0.0035
-2.9164 2.1665 -0.0082
-2.7342 2.2709 -0.0189
-2.7300 2.2794 -0.0189
-2.7416 2.4554 -0.0106
-2.7337 2.4598 -0.0111
-2.7279 2.4708 -0.0111
-5.2391 1.8937 0.1158
-5.2066 1.9438 0.1152
-6.0937 2.4719 0.1844
-6.0786 2.5512 0.1857
-3.0417 2.1396 -0.0121
-3.0351 2.1517 -0.0122
-3.0327 2.1824 -0.0115
-2.7444 2.4402 -0.0220
-2.7365 2.4446 -0.0223
-2.7292 2.4502 -0.0226
-2.7219 2.4556 -0.0229
-2.7154 2.4637 -0.0231
-5.2609 1.8850 0.0593
-5.2441 1.9358 0.0593
-6.1933 2.5626 0.1057
-3.0655 2.1044 -0.0249
-3.0540 2.1144 -0.0253
-3.0446 2.1252 -0.0255
-3.0343 2.1353 -0.0258
-3.0287 2.1478 -0.0258
-3.0239 2.1609 -0.0258
-3.0281 2.1794 -0.0254
-3.0292 2.1968 -0.0251
-3.0534 2.2494 -0.0234
-2.7342 2.2764 -0.0357
-2.7496 2.4327 -0.0329
-2.7335 2.4404 -0.0335
-2.7254 2.4433 -0.0337
-2.7182 2.4486 -0.0340
-2.7118 2.4566 -0.0341
-5.2315 1.8767 0.0003
-5.2320 1.9273 0.0003
-6.1751 2.5497 0.0169
-6.5835 2.7188 0.0242
-3.0588 2.1009 -0.0385
-3.0455 2.1100 -0.0388
-3.0361 2.1206 -0.0390
-3.0268 2.1311 -0.0391
-3.0250 2.1454 -0.0392
-3.0212 2.1589 -0.0392
-3.0252 2.1774 -0.0392
-3.0263 2.1948 -0.0391
-3.0236 2.2104 -0.0392
-3.0418 2.2412 -0.0389
-3.0525 2.2685 -0.0387
-2.7671 2.4309 -0.0438
-2.7567 2.4300 -0.0440
-2.7473 2.4311 -0.0442
-2.7386 2.4331 -0.0444
-2.7300 2.4349 -0.0445
-2.7228 2.4404 -0.0446
-2.7156 2.4457 -0.0448
-2.7079 2.4481 -0.0449
-5.2195 1.8683 -0.0580
-5.1710 1.9186 -0.0585
-3.0521 2.0974 -0.0519
-3.0427 2.1081 -0.0520
-3.0353 2.1196 -0.0522
-3.0279 2.1310 -0.0523
-3.0250 2.1449 -0.0525
-3.0211 2.1585 -0.0527
-3.0215 2.1749 -0.0529
-3.0251 2.1939 -0.0532
-3.0224 2.2095 -0.0534
-3.0329 2.2349 -0.0539
-3.0437 2.2824 -0.0546
-2.7621 2.4220 -0.0554
-2.7454 2.4307 -0.0555
-2.7371 2.4341 -0.0555
-2.7278 2.4333 -0.0554
-2.7209 2.4401 -0.0555
-2.7127 2.4414 -0.0555
-2.7060 2.4480 -0.0556
-5.2078 1.9102 -0.1177
-5.1915 1.9616 -0.1188
-6.2077 2.5359 -0.1628
-6.2282 2.6282 -0.1661
-3.0638 2.0864 -0.0654
-3.0513 2.0962 -0.0653
-3.0410 2.1066 -0.0653
-3.0335 2.1181 -0.0655
-3.0252 2.1291 -0.0656
-3.0228 2.1590 -0.0664
-3.0169 2.1718 -0.0666
-3.0292 2.1961 -0.0676
-3.0288 2.2136 -0.0681
-3.0331 2.2351 -0.0689
-3.0411 2.2603 -0.0698
-3.0421 2.2813 -0.0705
-2.7632 2.4300 -0.0673
-2.7528 2.4291 -0.0670
-2.7443 2.4328 -0.0669
-2.7348 2.4325 -0.0667
-2.7267 2.4356 -0.0665
-2.7180 2.4359 -0.0663
-2.7102 2.4385 -0.0662
-2.7042 2.4478 -0.0663
-5.1957 1.9017 -0.1767
-5.1961 1.9533 -0.1790
-6.2611 2.5350 -0.2574
-6.1384 2.6011 -0.2543
-3.0649 2.0859 -0.0791
-3.0525 2.0958 -0.0789
-3.0364 2.1039 -0.0785
-3.0299 2.1157 -0.0787
-3.0243 2.1281 -0.0790
-3.0259 2.1443 -0.0797
-3.0254 2.1600 -0.0804
-3.0255 2.1765 -0.0811
-3.0254 2.1935 -0.0819
-3.0376 2.2194 -0.0836
-3.0342 2.2358 -0.0842
-3.0404 2.2599 -0.0856
-3.0484 2.2866 -0.0871
-2.7990 2.1325 -0.0680
-2.7954 2.4327 -0.0810
-2.7842 2.4333 -0.0805
-2.7710 2.4275 -0.0796
-2.7621 2.4319 -0.0793
-2.7509 2.4286 -0.0786
-2.7424 2.4324 -0.0784
-2.7333 2.4334 -0.0780
-2.7165 2.4370 -0.0773
-2.7090 2.4410 -0.0771
-2.7026 2.4490 -0.0771
-5.2174 1.8929 -0.2382
-5.1839 1.9446 -0.2388
-6.3928 2.5467 -0.3622
-6.1904 2.6015 -0.3507
-3.0631 2.0843 -0.0928
-3.0507 2.0942 -0.0925
-3.0403 2.1047 -0.0924
-3.0327 2.1163 -0.0925
-3.0280 2.1293 -0.0929
-3.0243 2.1589 -0.0944
-3.0270 2.1771 -0.0957
-3.0267 2.1941 -0.0967
-3.0388 2.2200 -0.0991
-3.0443 2.2429 -0.1008
-3.0501 2.2673 -0.1027
-2.8091 2.4409 -0.0954
-2.7970 2.4410 -0.0945
-2.7844 2.4384 -0.0934
-2.7597 2.4301 -0.0912
-2.7522 2.4379 -0.0911
-2.7409 2.4332 -0.0900
-2.7322 2.4356 -0.0895
-2.7225 2.4337 -0.0887
-2.7149 2.4380 -0.0884
-2.7085 2.4461 -0.0884
-2.7001 2.4461 -0.0878
-5.2051 1.8843 -0.2979
-5.2759 1.9369 -0.3086
-6.3731 2.5327 -0.4583
-6.1715 2.5881 -0.4430
-3.0632 2.0833 -0.1068
-3.0403 2.1039 -0.1061
-3.0346 2.1164 -0.1065
-3.0307 2.1299 -0.1071
-3.0285 2.1608 -0.1092
-3.0206 2.1730 -0.1094
-3.0432 2.2228 -0.1152
-3.0501 2.2470 -0.1177
-3.0597 2.2746 -0.1207
-3.0678 2.3026 -0.1235
-3.0675 2.3251 -0.1252
-2.8237 2.4491 -0.1109
-2.8108 2.4489 -0.1097
-2.7911 2.4313 -0.1065
-2.7818 2.4365 -0.1060
-2.7722 2.4404 -0.1053
-2.7606 2.4380 -0.1040
-2.7306 2.4364 -0.1010
-2.7217 2.4373 -0.1002
-2.7137 2.4404 -0.0997
-2.7062 2.4446 -0.0993
-2.6995 2.4513 -0.0991
-5.2443 1.8749 -0.3638
-5.1924 1.9275 -0.3623
-3.0546 2.0939 -0.1210
-3.0404 2.1031 -0.1201
-3.0374 2.1169 -0.1210
-3.0306 2.1292 -0.1212
-3.0273 2.1434 -0.1221
-3.0221 2.1569 -0.1227
-3.0195 2.1719 -0.1237
-3.0558 2.2511 -0.1352
-3.0877 2.3187 -0.1451
-3.0869 2.3419 -0.1470
-2.8418 2.4625 -0.1285
-2.8214 2.4482 -0.1247
-2.8085 2.4480 -0.1232
-2.7959 2.4473 -0.1216
-2.7841 2.4473 -0.1202
-2.7713 2.4432 -0.1183
-2.7552 2.4279 -0.1150
-2.7474 2.4345 -0.1146
-2.7369 2.4324 -0.1132
-2.7301 2.4411 -0.1132
-2.7219 2.4446 -0.1125
-2.7125 2.4427 -0.1112
-2.7050 2.4470 -0.1107
-2.6976 2.4511 -0.1102
-5.3031 1.8649 -0.4349
-5.2316 1.9189 -0.4303
-5.3059 1.9748 -0.4468
-5.6770 2.0484 -0.5080
-6.2579 2.4930 -0.6383
-6.1336 2.5614 -0.6276
-5.9160 2.6067 -0.6011
-3.0565 2.0937 -0.1356
-3.0382 2.1166 -0.1354
-3.0349 2.1307 -0.1364
-3.0333 2.1459 -0.1378
-3.0208 2.1724 -0.1387
-3.0279 2.1941 -0.1420
-3.0262 2.2113 -0.1436
-3.1380 2.3854 -0.1780
-3.1326 2.4082 -0.1796
-3.1270 2.4313 -0.1813
-2.8618 2.4775 -0.1479
-2.8448 2.4729 -0.1450
-2.8269 2.4643 -0.1415
-2.8095 2.4548 -0.1380
-2.7762 2.4318 -0.1308
-2.7658 2.4333 -0.1295
-2.7557 2.4345 -0.1281
-2.7461 2.4365 -0.1270
-2.7376 2.4406 -0.1262
-2.7299 2.4469 -0.1257
-2.7196 2.4430 -0.1238
-2.7119 2.4476 -0.1232
-2.7040 2.4507 -0.1224
-2.6975 2.4589 -0.1223
-5.9333 1.7774 -0.5962
-5.2026 1.9100 -0.4892
-5.4342 2.0284 -0.5425
-5.6203 2.1017 -0.5827
-5.6847 2.2456 -0.6110
-5.4958 2.2938 -0.5850
-5.5976 2.3800 -0.6126
-5.6042 2.4562 -0.6229
-5.4620 2.5045 -0.6048
-3.0556 2.0924 -0.1499
-3.0468 2.1041 -0.1499
-3.0417 2.1174 -0.1506
-3.0330 2.1291 -0.1506
-3.0339 2.1457 -0.1527
-3.0328 2.1618 -0.1545
-3.0213 2.1723 -0.1538
-3.0290 2.1946 -0.1578
-3.1651 2.3540 -0.2000
-3.1475 2.3669 -0.1986
-3.1316 2.3806 -0.1976
-3.1213 2.4270 -0.2015
-3.1091 2.4441 -0.2015
-2.8710 2.4996 -0.1681
-2.8468 2.4812 -0.1618
-2.8039 2.4463 -0.1504
-2.7865 2.4336 -0.1459
-2.7754 2.4345 -0.1441
-2.7654 2.4373 -0.1428
-2.7544 2.4363 -0.1408
-2.7472 2.4456 -0.1407
-2.7371 2.4450 -0.1390
-2.7279 2.4465 -0.1376
-2.7179 2.4439 -0.1356
-2.7102 2.4486 -0.1349
-2.7036 2.4570 -0.1348
-2.6961 2.4614 -0.1340
-5.7683 1.6532 -0.6283
-5.7284 1.7147 -0.6290
-5.6646 1.7773 -0.6252
-5.4507 1.8426 -0.5929
-5.3343 1.9005 -0.5783
-5.2796 1.9562 -0.5754
-5.4030 2.0790 -0.6161
-5.3642 2.1388 -0.6168
-5.3461 2.2007 -0.6218
-5.3071 2.2609 -0.6225
-5.2881 2.3241 -0.6275
-5.2291 2.3813 -0.6239
-5.1706 2.4375 -0.6203
-3.0583 2.0925 -0.1653
-3.0513 2.1051 -0.1656
-3.0416 2.1165 -0.1653
-3.0345 2.1291 -0.1657
-3.0362 2.1462 -0.1684
-3.0324 2.1611 -0.1697
-3.0284 2.1761 -0.1710
-3.0293 2.1945 -0.1736
-3.1891 2.3452 -0.2251
-3.1664 2.3552 -0.2221
-3.1563 2.3743 -0.2228
-3.1379 2.3865 -0.2209
-3.1220 2.4003 -0.2197
-3.1092 2.4165 -0.2195
-3.0964 2.4327 -0.2192
-3.0885 2.4538 -0.2206
-3.0051 2.5377 -0.2160
-2.9854 2.5413 -0.2127
-2.9757 2.5598 -0.2133
-2.9671 2.5803 -0.2145
-2.9525 2.5903 -0.2130
-2.8310 2.4521 -0.1706
-2.7966 2.4336 -0.1615
-2.7874 2.4406 -0.1607
-2.7641 2.4390 -0.1559
-2.7535 2.4392 -0.1539
-2.7443 2.4426 -0.1526
-2.7354 2.4457 -0.1513
-2.7259 2.4461 -0.1495
-2.7176 2.4498 -0.1484
-2.7092 2.4521 -0.1471
-2.7025 2.4606 -0.1470
-2.6947 2.4638 -0.1459
-5.3366 1.7818 -0.6297
-5.1428 1.8925 -0.6044
-5.0449 1.9440 -0.5909
-5.0118 1.9950 -0.5915
-5.0098 2.0478 -0.5992
-4.9916 2.1007 -0.6034
-4.9579 2.1528 -0.6040
-4.9391 2.2066 -0.6081
-4.9514 2.2659 -0.6199
-4.8567 2.3088 -0.6058
-4.7802 2.3523 -0.5958
-3.0728 2.0814 -0.1818
-3.0712 2.0963 -0.1837
-3.0521 2.1045 -0.1808
-3.0432 2.1164 -0.1807
-3.0352 2.1288 -0.1808
-3.0341 2.1446 -0.1830
-3.0320 2.1604 -0.1850
-3.0329 2.1784 -0.1880
-3.0344 2.1974 -0.1912
-3.1761 2.3360 -0.2433
-3.1645 2.3539 -0.2436
-3.1505 2.3701 -0.2430
-3.1330 2.3829 -0.2411
-3.1237 2.4026 -0.2421
-3.1100 2.4183 -0.2416
-3.0951 2.4325 -0.2405
-3.0782 2.4443 -0.2386
-3.0603 2.4543 -0.2362
-3.0465 2.4683 -0.2354
-3.0361 2.4862 -0.2358
-3.0225 2.5000 -0.2350
-3.0115 2.5170 -0.2352
-3.0005 2.5340 -0.2354
-2.9884 2.5492 -0.2351
-2.9751 2.5625 -0.2342
-2.9631 2.5775 -0.2339
-2.9522 2.5943 -0.2341
-2.8078 2.4350 -0.1782
-2.7869 2.4442 -0.1750
-2.7636 2.4429 -0.1697
-2.7430 2.4444 -0.1655
-2.7326 2.4428 -0.1630
-2.7248 2.4493 -0.1623
-2.7162 2.4520 -0.1608
-2.7078 2.4543 -0.1593
-2.7005 2.4603 -0.1586
-5.1339 1.6859 -0.6322
-4.9819 1.7440 -0.6051
-5.0091 1.7885 -0.6192
-4.9916 1.8367 -0.6231
-4.9323 1.8859 -0.6170
-4.8726 1.9339 -0.6106
-4.8697 1.9825 -0.6182
-4.8107 2.0293 -0.6118
-4.8070 2.0791 -0.6193
-4.7617 2.1260 -0.6163
-4.7571 2.1772 -0.6238
-4.7653 2.2316 -0.6351
-4.7065 2.2765 -0.6284
-4.6748 2.3254 -0.6289
-3.0839 2.0841 -0.2004
-3.0636 2.0925 -0.1969
-3.0546 2.1046 -0.1968
-3.0447 2.1163 -0.1964
-3.0384 2.1296 -0.1971
-3.0366 2.1624 -0.2022
-3.0305 2.1947 -0.2062
-3.1734 2.3341 -0.2647
-3.1633 2.3532 -0.2655
-3.1433 2.3647 -0.2625
-3.1288 2.3800 -0.2616
-3.1173 2.3977 -0.2618
-3.1009 2.4107 -0.2600
-3.0707 2.4378 -0.2573
-3.0595 2.4551 -0.2575
-3.0451 2.4685 -0.2562
-3.0302 2.4810 -0.2547
-3.0185 2.4972 -0.2546
-3.0063 2.5125 -0.2543
-2.9983 2.5337 -0.2559
-2.9821 2.5428 -0.2535
-2.9711 2.5597 -0.2537
-2.9640 2.5830 -0.2559
-2.9498 2.5943 -0.2544
-2.8083 2.4404 -0.1938
-2.7873 2.4499 -0.1903
-2.7735 2.4447 -0.1860
-2.7594 2.4365 -0.1812
-2.7489 2.4368 -0.1787
-2.7409 2.4439 -0.1780
-2.7308 2.4435 -0.1754
-2.7238 2.4526 -0.1753
-2.7158 2.4579 -0.1742
-2.7079 2.4629 -0.1732
-4.7400 1.6734 -0.5860
-4.7346 1.7132 -0.5920
-4.7537 1.7520 -0.6044
-4.7375 1.7945 -0.6080
-4.6746 1.8391 -0.5993
-4.6366 1.8819 -0.5971
-4.5978 1.9243 -0.5945
-4.5704 1.9665 -0.5950
-4.5331 2.0082 -0.5928
-4.5471 2.0532 -0.6049
-4.5407 2.0981 -0.6116
-4.4915 2.1390 -0.6059
-4.4533 2.1804 -0.6034
-4.4062 2.2198 -0.5980
-4.3889 2.2639 -0.6016
-4.3425 2.3022 -0.5962
-3.0689 2.0934 -0.2142
-3.0552 2.1040 -0.2124
-3.0479 2.1169 -0.2129
-3.0424 2.1308 -0.2140
-3.0359 2.1443 -0.2148
-3.0335 2.1602 -0.2171
-3.0276 2.1745 -0.2182
-3.1628 2.3531 -0.2879
-3.1458 2.3671 -0.2859
-3.1290 2.3807 -0.2839
-3.1153 2.3966 -0.2832
-3.1038 2.4144 -0.2834
-3.0943 2.4343 -0.2846
-3.0814 2.4507 -0.2842
-3.0646 2.4625 -0.2819
-3.0474 2.4733 -0.2792
-3.0330 2.4868 -0.2779
-3.0188 2.5000 -0.2765
-3.0059 2.5146 -0.2757
-2.9931 2.5291 -0.2750
-2.9832 2.5479 -0.2758
-2.9704 2.5623 -0.2751
-2.9594 2.5793 -0.2753
-2.9474 2.5944 -0.2748
-2.8236 2.4490 -0.2144
-2.8119 2.4530 -0.2120
-2.8000 2.4556 -0.2093
-2.7837 2.4458 -0.2030
-2.7696 2.4395 -0.1981
-2.7584 2.4392 -0.1950
-2.7479 2.4397 -0.1923
-2.7398 2.4469 -0.1914
-2.7315 2.4527 -0.1903
-2.7227 2.4558 -0.1885
-2.7134 2.4561 -0.1860
-2.7055 2.4612 -0.1849
-2.6978 2.4661 -0.1837
-2.6899 2.4695 -0.1822
-4.6381 1.7144 -0.6169
-4.5917 1.7564 -0.6117
-4.5762 1.7960 -0.6152
-4.5500 1.8363 -0.6157
-4.5045 1.8770 -0.6105
-4.4505 1.9168 -0.6027
-4.4439 1.9566 -0.6088
-4.4455 1.9976 -0.6176
-4.4280 2.0385 -0.6208
-4.3836 2.0774 -0.6156
-4.3408 2.1155 -0.6107
-4.3316 2.1576 -0.6165
-4.3321 2.2021 -0.6257
-4.2796 2.2378 -0.6175
-3.0834 2.0817 -0.2321
-3.0612 2.1054 -0.2304
-3.0529 2.1183 -0.2305
-3.0472 2.1323 -0.2317
-3.0405 2.1460 -0.2325
-3.0363 2.1612 -0.2344
-3.0279 2.1743 -0.2345
-3.0347 2.1968 -0.2411
-3.1649 2.3281 -0.3063
-3.1570 2.3489 -0.3082
-3.1438 2.3658 -0.3078
-3.1262 2.3790 -0.3052
-3.1111 2.3937 -0.3038
-3.1030 2.4148 -0.3057
-3.0887 2.4299 -0.3045
-3.0772 2.4477 -0.3047
-3.0617 2.4611 -0.3029
-3.0471 2.4749 -0.3014
-3.0320 2.4878 -0.2995
-3.0147 2.4971 -0.2963
-3.0048 2.5159 -0.2972
-2.9925 2.5314 -0.2967
-2.9813 2.5486 -0.2969
-2.9697 2.5648 -0.2968
-2.9559 2.5773 -0.2953
-2.9449 2.5944 -0.2955
-2.7993 2.4590 -0.2249
-2.7835 2.4504 -0.2185
-2.7682 2.4410 -0.2120
-2.7585 2.4454 -0.2101
-2.7468 2.4425 -0.2060
-2.7384 2.4486 -0.2048
-2.7297 2.4533 -0.2032
-2.7206 2.4553 -0.2009
-2.6963 2.4684 -0.1963
-2.6889 2.4745 -0.1954
-4.4084 1.7295 -0.5977
-4.3932 1.7650 -0.6006
-4.3615 1.8018 -0.5985
-4.3300 1.8383 -0.5964
-4.3067 1.8743 -0.5969
-4.2990 1.9103 -0.6023
-4.2986 1.9471 -0.6103
-4.2366 1.9824 -0.5981
-4.2434 2.0203 -0.6087
-4.2111 2.0562 -0.6062
-4.1812 2.0920 -0.6045
-4.1638 2.1292 -0.6071
-4.1402 2.1657 -0.6075
-4.1245 2.2037 -0.6109
-4.0664 2.2329 -0.5986
-3.0728 2.0928 -0.2476
-3.0644 2.1058 -0.2477
-3.0542 2.1180 -0.2471
-3.0493 2.1325 -0.2488
-3.0459 2.1481 -0.2511
-3.0448 2.1653 -0.2546
-3.0321 2.1763 -0.2529
-3.0339 2.1960 -0.2578
-3.1583 2.3234 -0.3260
-3.1512 2.3447 -0.3284
-3.1424 2.3652 -0.3301
-3.1270 2.3803 -0.3285
-3.1125 2.3958 -0.3272
-3.1023 2.4151 -0.3282
-3.0926 2.4351 -0.3295
-3.0776 2.4497 -0.3279
-3.0627 2.4640 -0.3262
-3.0474 2.4773 -0.3242
-3.0334 2.4919 -0.3230
-3.0172 2.5031 -0.3202
-3.0024 2.5155 -0.3182
-2.9912 2.5328 -0.3184
-2.9817 2.5527 -0.3197
-2.7917 2.4453 -0.2348
-2.7782 2.4419 -0.2297
-2.7663 2.4413 -0.2257
-2.7458 2.4454 -0.2200
-2.7369 2.4504 -0.2183
-2.7282 2.4551 -0.2165
-2.7194 2.4584 -0.2144
-2.7104 2.4602 -0.2119
-2.7025 2.4655 -0.2105
-2.6953 2.4732 -0.2099
-4.3594 1.6950 -0.6186
-4.3594 1.7276 -0.6263
-4.3212 1.7642 -0.6217
-4.2906 1.8337 -0.6276
-4.2383 1.8698 -0.6179
-4.2024 1.9046 -0.6137
-4.1848 1.9746 -0.6242
-4.1279 2.0076 -0.6122
-4.1256 2.0436 -0.6200
-4.0489 2.1089 -0.6088
-4.0459 2.1459 -0.6166
-3.9885 2.2122 -0.6123
-3.0868 2.0968 -0.2700
-3.0772 2.1099 -0.2698
-3.0659 2.1222 -0.2688
-3.0556 2.1347 -0.2681
-3.0478 2.1484 -0.2687
-3.0458 2.1653 -0.2720
-3.0394 2.1802 -0.2733
-3.0307 2.1937 -0.2735
-3.1724 2.3333 -0.3562
-3.1574 2.3496 -0.3549
-3.1432 2.3662 -0.3539
-3.1228 2.3773 -0.3494
-3.1083 2.3928 -0.3480
-3.1000 2.4140 -0.3502
-3.0863 2.4301 -0.3492
-3.0733 2.4467 -0.3486
-3.0585 2.4610 -0.3469
-3.0501 2.4826 -0.3491
-3.0354 2.4967 -0.3473
-3.0208 2.5105 -0.3455
-3.0076 2.5258 -0.3445
-2.9962 2.5434 -0.3447
-2.9858 2.5628 -0.3457
-2.9759 2.5832 -0.3471
-2.9629 2.5982 -0.3462
-2.9519 2.6168 -0.3468
-2.8262 2.4680 -0.2674
-2.7889 2.4433 -0.2485
-2.7763 2.4422 -0.2439
-2.7660 2.4460 -0.2412
-2.7552 2.4473 -0.2377
-2.7454 2.4504 -0.2350
-2.7267 2.4570 -0.2301
-2.7185 2.4628 -0.2286
-2.7079 2.4585 -0.2239
-2.7009 2.4676 -0.2236
-2.6934 2.4740 -0.2225
-4.2169 1.6766 -0.6053
-4.1903 1.7093 -0.6036
-4.1815 1.7398 -0.6081
-4.1994 1.7684 -0.6221
-4.1528 1.8029 -0.6134
-4.1136 1.8360 -0.6071
-4.0581 1.8689 -0.5947
-4.0435 1.9000 -0.5971
-4.0462 1.9316 -0.6062
-4.0083 1.9628 -0.5999
-3.9933 1.9945 -0.6024
-3.9781 2.0264 -0.6048
-3.9576 2.0580 -0.6052
-3.9483 2.0911 -0.6102
-3.9226 2.1222 -0.6085
-3.8961 2.1529 -0.6063
-3.8756 2.1845 -0.6067
-3.8456 2.2138 -0.6029
-3.8299 2.2465 -0.6054
-3.0662 2.1214 -0.2859
-3.0567 2.1345 -0.2856
-3.0547 2.1512 -0.2891
-3.0524 2.1683 -0.2926
-3.0491 2.1853 -0.2957
-3.0400 2.1993 -0.2959
-3.0403 2.2193 -0.3011
-3.1575 2.3498 -0.3787
-3.1425 2.3661 -0.3772
-3.1270 2.3815 -0.3753
-3.1103 2.3954 -0.3726
-3.0958 2.4110 -0.3711
-3.0840 2.4291 -0.3713
-3.0749 2.4499 -0.3732
-3.0600 2.4645 -0.3713
-3.0501 2.4848 -0.3728
-3.0354 2.4991 -0.3709
-3.0219 2.5147 -0.3698
-3.0103 2.5326 -0.3700
-2.9964 2.5472 -0.3685
-2.9860 2.5668 -0.3696
-2.9754 2.5864 -0.3707
-2.9607 2.5989 -0.3683
-2.9447 2.6083 -0.3647
-2.8038 2.4531 -0.2719
-2.7899 2.4508 -0.2661
-2.7756 2.4456 -0.2594
-2.7653 2.4496 -0.2565
-2.7540 2.4499 -0.2524
-2.7332 2.4514 -0.2449
-2.7252 2.4587 -0.2438
-2.7160 2.4610 -0.2409
-2.7076 2.4655 -0.2389
-2.6996 2.4709 -0.2373
-2.6913 2.4736 -0.2348
-4.1719 1.6768 -0.6285
-4.1457 1.7087 -0.6266
-4.1079 1.7417 -0.6204
-4.0985 1.7714 -0.6247
-4.0624 1.8035 -0.6189
-4.0528 1.8335 -0.6232
-3.8841 2.0785 -0.6222
-3.0988 2.1163 -0.3151
-3.0734 2.1236 -0.3067
-3.0586 2.1345 -0.3038
-3.0531 2.1497 -0.3057
-3.0572 2.1703 -0.3130
-3.0561 2.1890 -0.3177
-3.0492 2.2047 -0.3192
-3.0476 2.2240 -0.3239
-3.1504 2.3728 -0.4062
-3.1170 2.4024 -0.4008
-3.1023 2.4183 -0.3992
-3.0883 2.4348 -0.3980
-3.0726 2.4490 -0.3956
-3.0532 2.4586 -0.3904
-3.0501 2.4870 -0.3969
-3.0293 2.4938 -0.3903
-3.0223 2.5180 -0.3942
-3.0066 2.5304 -0.3912
-2.9950 2.5484 -0.3914
-2.9844 2.5681 -0.3925
-2.9717 2.5843 -0.3919
-2.9585 2.5995 -0.3907
-2.9435 2.6109 -0.3877
-2.9315 2.6277 -0.3875
-2.8013 2.4520 -0.2867
-2.7858 2.4456 -0.2787
-2.7768 2.4544 -0.2775
-2.7679 2.4630 -0.2762
-2.7572 2.4660 -0.2727
-2.7454 2.4639 -0.2674
-2.7268 2.4724 -0.2622
-2.6971 2.4692 -0.2493
-2.6906 2.4809 -0.2499
-2.6853 2.4992 -0.2528
-4.0274 1.6670 -0.6038
-4.0140 1.6943 -0.6060
-3.9957 1.7225 -0.6063
-3.9821 1.7502 -0.6085
-3.9742 1.7775 -0.6131
-3.9408 1.8071 -0.6073
-3.9271 1.8351 -0.6095
-3.8954 1.8638 -0.6043
-3.8860 1.8917 -0.6083
-3.8591 1.9199 -0.6049
-3.8452 1.9480 -0.6071
-3.8396 1.9768 -0.6131
-3.8264 2.0055 -0.6158
-3.7864 2.0319 -0.6062
-3.7723 2.0604 -0.6085
-3.7541 2.0885 -0.6088
-3.7281 2.1152 -0.6054
-3.7176 2.1447 -0.6095
-3.7070 2.1746 -0.6136
-3.6849 2.2019 -0.6120
-3.0872 2.1285 -0.3321
-3.0621 2.1354 -0.3232
-3.0647 2.1548 -0.3300
-3.0628 2.1728 -0.3345
-3.0630 2.1925 -0.3403
-3.0662 2.2362 -0.3545
-3.1652 2.3851 -0.4408
-3.1456 2.3986 -0.4363
-3.1277 2.4129 -0.4327
-3.0918 2.4397 -0.4250
-3.0778 2.4563 -0.4238
-3.0608 2.4692 -0.4202
-3.0501 2.4891 -0.4214
-3.0351 2.5037 -0.4192
-3.0204 2.5181 -0.4170
-3.0063 2.5331 -0.4153
-2.9918 2.5471 -0.4131
-2.9817 2.5676 -0.4148
-2.9700 2.5857 -0.4150
-2.9568 2.6011 -0.4138
-2.9451 2.6191 -0.4140
-2.8299 2.4582 -0.3172
-2.8051 2.4663 -0.3088
-2.7944 2.4729 -0.3061
-2.7700 2.4753 -0.2962
-2.7567 2.4707 -0.2891
-2.7452 2.4700 -0.2840
-2.7350 2.4722 -0.2802
-2.7242 2.4706 -0.2750
-2.7154 2.4756 -0.2728
-2.7049 2.4718 -0.2671
-2.6977 2.4813 -0.2667
-2.6897 2.4868 -0.2649
-2.6814 2.4896 -0.2621
-3.9721 1.6706 -0.6165
-3.9450 1.6993 -0.6129
-3.9417 1.7243 -0.6191
-3.9017 1.7793 -0.6178
-3.8932 1.8057 -0.6221
-3.8699 1.8599 -0.6282
-3.8564 1.8874 -0.6305
-3.8223 1.9151 -0.6234
-3.7910 1.9700 -0.6260
-3.7609 1.9965 -0.6204
-3.7392 2.0233 -0.6187
-3.7257 2.0509 -0.6210
-3.7080 2.0780 -0.6213
-3.6827 2.1038 -0.6177
-3.6515 2.1587 -0.6203
-3.6127 2.1802 -0.6091
-3.0721 2.1391 -0.3471
-3.0630 2.1533 -0.3473
-3.0698 2.1759 -0.3575
-3.0722 2.1973 -0.3652
-3.0794 2.2227 -0.3765
-3.0724 2.2401 -0.3786
-3.0771 2.2661 -0.3889
-3.1535 2.3762 -0.4583
-3.1410 2.3954 -0.4585
-3.1259 2.4122 -0.4568
-3.1095 2.4275 -0.4540
-3.0926 2.4419 -0.4506
-3.0753 2.4553 -0.4468
-3.0620 2.4725 -0.4460
-3.0493 2.4904 -0.4458
-3.0296 2.4991 -0.4394
-3.0166 2.5159 -0.4386
-3.0042 2.5333 -0.4383
-2.9903 2.5482 -0.4365
-2.9806 2.5697 -0.4387
-2.9724 2.5941 -0.4425
-2.9610 2.6134 -0.4432
-2.8367 2.4774 -0.3437
-2.8117 2.4876 -0.3353
-2.7843 2.4866 -0.3224
-2.7697 2.4808 -0.3139
-2.7571 2.4787 -0.3074
-2.7459 2.4794 -0.3024
-2.7366 2.4854 -0.3000
-2.7240 2.4782 -0.2920
-2.7149 2.4822 -0.2890
-2.7035 2.4749 -0.2815
-2.6959 2.4832 -0.2806
-2.6897 2.4978 -0.2823
-2.6815 2.5021 -0.2798
-3.8492 1.7319 -0.6125
-3.8362 1.7570 -0.6144
-3.8001 1.7846 -0.6058
-3.7917 1.8091 -0.6097
-3.7707 1.8348 -0.6079
-3.7665 1.8595 -0.6140
-3.7608 1.8848 -0.6195
-3.7291 1.9106 -0.6125
-3.7126 1.9360 -0.6128
-3.7003 1.9616 -0.6152
-3.6765 1.9867 -0.6118
-3.6561 2.0117 -0.6100
-3.6337 2.0363 -0.6072
-3.6204 2.0618 -0.6091
-3.5886 2.0844 -0.6009
-3.5877 2.1122 -0.6097
-3.5741 2.1380 -0.6115
-3.5642 2.1650 -0.6155
-3.5387 2.1878 -0.6105
-3.5223 2.2130 -0.6108
-3.5034 2.2373 -0.6096
-3.0787 2.1413 -0.3698
-3.0685 2.1553 -0.3694
-3.0743 2.1777 -0.3797
-3.0727 2.2182 -0.3922
-3.0635 2.2341 -0.3929
-3.0770 2.2660 -0.4101
-3.1600 2.3526 -0.4793
-3.1518 2.3752 -0.4827
-3.1379 2.3934 -0.4819
-3.1240 2.4115 -0.4810
-3.1063 2.4256 -0.4770
-3.0888 2.4394 -0.4730
-3.0734 2.4549 -0.4705
-3.0612 2.4736 -0.4708
-3.0491 2.4924 -0.4710
-3.0346 2.5081 -0.4691
-3.0185 2.5214 -0.4656
-3.0005 2.5310 -0.4599
-2.9881 2.5485 -0.4596
-2.9779 2.5692 -0.4614
-2.9670 2.5893 -0.4627
-2.9551 2.6076 -0.4629
-2.8694 2.5169 -0.3910
-2.8520 2.5157 -0.3821
-2.8271 2.4948 -0.3630
-2.8110 2.4914 -0.3540
-2.7701 2.4885 -0.3330
-2.7447 2.4831 -0.3188
-2.7207 2.4739 -0.3040
-2.7123 2.4804 -0.3020
-2.7039 2.4866 -0.2999
-2.6955 2.4914 -0.2974
-3.8051 1.7110 -0.6164
-3.7963 1.7344 -0.6200
-3.7838 1.7585 -0.6219
-3.7678 1.7832 -0.6222
-3.7552 1.8076 -0.6242
-3.7325 1.8327 -0.6212
-3.7276 1.8568 -0.6270
-3.7071 1.8817 -0.6251
-3.6709 1.9066 -0.6149
-3.6751 1.9312 -0.6257
-3.6497 1.9556 -0.6210
-3.6369 1.9803 -0.6229
-3.5862 2.0273 -0.6130
-3.5677 2.0510 -0.6116
-3.5789 2.0796 -0.6274
-3.5629 2.1043 -0.6277
-3.4767 2.1963 -0.6150
-3.0876 2.1445 -0.3948
-3.0732 2.1569 -0.3916
-3.0700 2.1748 -0.3962
-3.0697 2.1949 -0.4031
-3.0645 2.2128 -0.4066
-3.0636 2.2339 -0.4135
-3.1621 2.3261 -0.4968
-3.1597 2.3526 -0.5048
-3.1486 2.3731 -0.5062
-3.1360 2.3925 -0.5064
-3.1221 2.4107 -0.5055
-3.1122 2.4326 -0.5080
-3.0958 2.4481 -0.5049
-3.0808 2.4646 -0.5029
-3.0622 2.4768 -0.4975
-3.0423 2.4863 -0.4904
-3.0261 2.4998 -0.4867
-3.0091 2.5113 -0.4819
-2.9961 2.5280 -0.4810
-2.9838 2.5454 -0.4806
-2.9725 2.5645 -0.4814
-2.9602 2.5818 -0.4811
-2.9430 2.5902 -0.4751
-2.8822 2.5121 -0.4162
-2.8672 2.5172 -0.4102
-2.8525 2.5219 -0.4042
-2.8314 2.5102 -0.3892
-2.8144 2.5053 -0.3786
-2.7991 2.5027 -0.3698
-2.7817 2.4919 -0.3569
-2.7715 2.4994 -0.3543
-2.7436 2.4867 -0.3354
-2.7187 2.4744 -0.3181
-2.7096 2.4785 -0.3149
-2.7018 2.4872 -0.3139
-2.6944 2.4971 -0.3134
-3.7310 1.7391 -0.6190
-3.7054 1.7639 -0.6141
-3.7006 1.7859 -0.6196
-3.6754 1.8102 -0.6146
-3.6670 1.8329 -0.6184
-3.6606 1.8558 -0.6233
-3.6153 1.8802 -0.6074
-3.6248 1.9028 -0.6209
-3.6003 1.9261 -0.6160
-3.5822 1.9491 -0.6145
-3.5672 1.9722 -0.6148
-3.5472 1.9949 -0.6122
-3.5373 2.0185 -0.6154
-3.5116 2.0401 -0.6092
-3.4997 2.0634 -0.6113
-3.5008 2.0894 -0.6214
-3.4727 2.1098 -0.6136
-3.4479 2.1303 -0.6074
-3.4349 2.1536 -0.6089
-3.4280 2.1788 -0.6144
-3.4131 2.2018 -0.6146
-3.0817 2.1603 -0.4172
-3.0751 2.1769 -0.4198
-3.0631 2.1907 -0.4182
-3.0601 2.2098 -0.4236
-3.0724 2.2396 -0.4414
-3.1590 2.3239 -0.5200
-3.1580 2.3515 -0.5295
-3.1468 2.3721 -0.5309
-3.1328 2.3904 -0.5300
-3.1189 2.4086 -0.5291
-3.1050 2.4268 -0.5281
-3.0899 2.4435 -0.5260
-3.0762 2.4614 -0.5251
-3.0613 2.4778 -0.5229
-3.0443 2.4912 -0.5185
-3.0125 2.5190 -0.5113
-2.9988 2.5353 -0.5097
-2.9868 2.5538 -0.5099
-2.9738 2.5707 -0.5090
-2.9598 2.5857 -0.5068
-2.9455 2.5997 -0.5041
-2.8497 2.4857 -0.4095
-2.8259 2.5029 -0.4028
-2.8107 2.5020 -0.3941
-2.7808 2.4960 -0.3755
-2.7663 2.4908 -0.3656
-2.7533 2.4881 -0.3574
-2.7391 2.4791 -0.3463
-2.7180 2.4807 -0.3353
-2.7087 2.4838 -0.3313
-2.7008 2.4927 -0.3303
-2.6933 2.5027 -0.3298
-3.6415 1.7679 -0.6100
-3.6544 1.7867 -0.6248
-3.6576 1.8075 -0.6348
-3.6106 1.8543 -0.6256
-3.5789 1.8774 -0.6162
-3.5645 1.8996 -0.6164
-3.5584 1.9218 -0.6216
-3.5409 1.9441 -0.6200
-3.5214 1.9661 -0.6172
-3.5120 1.9886 -0.6205
-3.5025 2.0114 -0.6238
-3.4937 2.0346 -0.6278
-3.4810 2.0574 -0.6292
-3.4449 2.0760 -0.6155
-3.4398 2.1000 -0.6219
-3.0964 2.1667 -0.4486
-3.0887 2.1835 -0.4506
-3.0817 2.2008 -0.4532
-3.0782 2.2206 -0.4589
-3.1562 2.3504 -0.5545
-3.1422 2.3688 -0.5535
-3.1295 2.3883 -0.5537
-3.1169 2.4078 -0.5539
-3.1017 2.4248 -0.5517
-3.0891 2.4442 -0.5519
-3.0729 2.4596 -0.5485
-3.0604 2.4788 -0.5487
-3.0479 2.4981 -0.5489
-3.0320 2.5129 -0.5455
-3.0164 2.5274 -0.5420
-3.0030 2.5448 -0.5410
-2.9892 2.5613 -0.5394
-2.9749 2.5768 -0.5371
-2.8335 2.4901 -0.4215
-2.8180 2.4897 -0.4124
-2.7912 2.4941 -0.3985
-2.7759 2.4886 -0.3875
-2.7350 2.4726 -0.3576
-2.7261 2.4799 -0.3553
-2.6999 2.4993 -0.3476
-2.7098 2.6584 -0.4150
-3.6226 1.7277 -0.6122
-3.6055 1.7493 -0.6105
-3.5953 1.7699 -0.6127
-3.5782 1.7914 -0.6110
-3.5834 1.8106 -0.6220
-3.5640 1.8325 -0.6191
-3.5297 1.8550 -0.6074
-3.5268 1.8755 -0.6139
-3.5257 1.8964 -0.6218
-3.5036 1.9178 -0.6170
-3.4878 1.9389 -0.6160
-3.4670 1.9597 -0.6118
-3.4514 1.9805 -0.6107
-3.4515 2.0029 -0.6199
-3.4348 2.0238 -0.6182
-3.4079 2.0430 -0.6096
-3.3990 2.0647 -0.6130
-3.3872 2.0861 -0.6145
-3.3798 2.1087 -0.6192
-3.3537 2.1265 -0.6106
-3.3445 2.1487 -0.6140
-3.3351 2.1712 -0.6174
-3.3114 2.1885 -0.6100
-3.1093 2.1722 -0.4799
-3.0912 2.1841 -0.4737
-3.0810 2.1999 -0.4739
-3.0745 2.2179 -0.4773
-3.1530 2.3482 -0.5783
-3.1416 2.3689 -0.5799
-3.1289 2.3885 -0.5801
-3.1136 2.4057 -0.5778
-3.0996 2.4240 -0.5767
-3.0845 2.4409 -0.5744
-3.0719 2.4603 -0.5746
-3.0582 2.4784 -0.5735
-3.0445 2.4963 -0.5725
-3.0309 2.5141 -0.5714
-3.0173 2.5318 -0.5704
-3.0038 2.5495 -0.5693
-2.9893 2.5654 -0.5670
-2.9789 2.5878 -0.5698
-2.9617 2.5984 -0.5636
-2.8330 2.4944 -0.4425
-2.8010 2.4894 -0.4209
-2.7827 2.4775 -0.4050
-2.7710 2.4812 -0.3993
-2.7568 2.4759 -0.3885
-2.7375 2.4896 -0.3823
-2.7278 2.4950 -0.3785
-2.7200 2.5071 -0.3787
-2.7119 2.5180 -0.3782
-2.7064 2.6560 -0.4312
-2.6951 2.6559 -0.4242
-3.5806 1.7130 -0.6080
-3.5562 1.7712 -0.6173
-3.5340 1.7927 -0.6123
-3.5209 1.8130 -0.6125
-3.4292 1.9545 -0.6142
-3.3813 2.0141 -0.6090
-3.3720 2.0347 -0.6118
-3.3442 2.0745 -0.6110
-3.3094 2.1123 -0.6048
-3.1207 2.1557 -0.5022
-3.0977 2.1657 -0.4918
-3.0890 2.1823 -0.4933
-3.0750 2.1960 -0.4901
-3.0766 2.2189 -0.5010
-3.0857 2.2478 -0.5192
-3.1391 2.3099 -0.5801
-3.1538 2.3491 -0.6063
-3.1356 2.3645 -0.6012
-3.1176 2.3795 -0.5961
-3.1115 2.4048 -0.6030
-3.0975 2.4232 -0.6019
-3.0848 2.4428 -0.6021
-3.0673 2.4571 -0.5970
-3.0524 2.4737 -0.5946
-3.0422 2.4959 -0.5975
-3.0296 2.5153 -0.5977
-3.0170 2.5347 -0.5979
-3.0024 2.5510 -0.5955
-2.9868 2.5654 -0.5917
-2.9754 2.5862 -0.5933
-2.9620 2.6038 -0.5922
-2.9449 2.6142 -0.5857
-2.9264 2.6205 -0.5765
-2.8020 2.4980 -0.4441
-2.7896 2.5028 -0.4382
-2.7765 2.5040 -0.4303
-2.7507 2.5026 -0.4131
-2.7288 2.5077 -0.4013
-2.7216 2.5236 -0.4034
-3.5609 1.6791 -0.6075
-3.5555 1.6968 -0.6118
-3.5210 1.7374 -0.6068
-3.5154 1.7556 -0.6112
-3.4961 1.7760 -0.6073
-3.4858 1.7949 -0.6089
-3.4711 1.8145 -0.6077
-3.4630 1.8333 -0.6107
-3.4568 1.8523 -0.6151
-3.4505 1.8715 -0.6194
-3.4295 1.8913 -0.6142
-3.4169 1.9107 -0.6144
-3.3922 1.9299 -0.6063
-3.3877 1.9494 -0.6121
-3.3751 1.9688 -0.6123
-3.3626 1.9881 -0.6125
-3.3538 2.0080 -0.6155
-3.3375 2.0268 -0.6130
-3.3195 2.0452 -0.6091
-3.2999 2.0849 -0.6137
-3.2873 2.1042 -0.6139
-3.2680 2.1215 -0.6086
-3.2448 2.1605 -0.6105
-3.1065 2.1484 -0.5119
-3.0839 2.1582 -0.5010
-3.0754 2.1745 -0.5025
-3.0705 2.1929 -0.5076
-3.0750 2.2175 -0.5216
-3.0803 2.2440 -0.5371
-3.1241 2.2993 -0.5915
-3.1272 2.3292 -0.6070
-3.1189 2.3515 -0.6113
-3.1130 2.3763 -0.6185
-3.0966 2.3921 -0.6146
-3.0692 2.4281 -0.6123
-3.0521 2.4420 -0.6069
-3.0398 2.4610 -0.6071
-3.0308 2.4842 -0.6115
-3.0239 2.5106 -0.6187
-3.0071 2.5239 -0.6134
-2.9937 2.5415 -0.6122
-2.9843 2.5654 -0.6166
-2.9718 2.5847 -0.6169
-2.9593 2.6039 -0.6171
-2.9468 2.6232 -0.6173
-2.8389 2.5188 -0.4977
-2.8191 2.5098 -0.4804
-2.8044 2.5106 -0.4707
-2.7878 2.5046 -0.4569
-2.7679 2.5258 -0.4530
-2.7424 2.6802 -0.5051
-2.7143 2.6668 -0.4802
-2.6990 2.6464 -0.4606
-2.6880 2.6475 -0.4538
-3.5035 1.7042 -0.6058
-3.4698 1.7593 -0.6079
-3.4433 1.8315 -0.6231
-3.4267 1.8508 -0.6204
-3.4113 1.8699 -0.6185
-3.4022 1.8887 -0.6209
-3.3899 1.9076 -0.6211
-3.3756 1.9265 -0.6199
-3.3565 1.9451 -0.6151
-3.3550 1.9645 -0.6232
-3.2757 2.0557 -0.6100
-3.1034 2.1260 -0.5214
-3.0855 2.1381 -0.5143
-3.0763 2.1537 -0.5152
-3.0626 2.1671 -0.5118
-3.0698 2.1920 -0.5286
-3.0741 2.2166 -0.5432
-3.0955 2.2539 -0.5758
-3.1017 2.2834 -0.5941
-3.1112 2.3173 -0.6167
-3.0991 2.3359 -0.6169
-3.0883 2.3556 -0.6186
-3.0424 2.4015 -0.6076
-3.0329 2.4224 -0.6108
-3.0238 2.4442 -0.6146
-3.0079 2.4578 -0.6097
-2.9998 2.4812 -0.6150
-2.9889 2.5012 -0.6167
-2.9758 2.5182 -0.6155
-2.9663 2.5407 -0.6193
-2.9519 2.5552 -0.6159
-2.9408 2.5754 -0.6176
-2.9216 2.5800 -0.6062
-2.8337 2.5125 -0.5123
-2.8134 2.5016 -0.4929
-2.7995 2.5042 -0.4843
-2.7860 2.5063 -0.4758
-2.7627 2.5172 -0.4644
-2.7762 2.7168 -0.5677
-2.7589 2.7060 -0.5504
-2.7418 2.6917 -0.5316
-2.7255 2.6762 -0.5128
-2.7113 2.6668 -0.4984
-2.6969 2.6515 -0.4811
-2.6848 2.6452 -0.4695
-3.4685 1.7081 -0.6080
-3.4569 1.7259 -0.6082
-3.4453 1.7438 -0.6084
-3.4337 1.7617 -0.6086
-3.4176 1.7803 -0.6059
-3.4061 1.7981 -0.6061
-3.3902 1.8164 -0.6033
-3.3852 1.8335 -0.6080
-3.3789 1.8509 -0.6119
-3.3662 1.8689 -0.6114
-3.3556 1.8868 -0.6123
-3.3581 1.9047 -0.6229
-3.3373 1.9228 -0.6165
-3.3129 1.9404 -0.6070
-3.3042 1.9584 -0.6094
-3.2879 1.9758 -0.6059
-3.2764 1.9935 -0.6061
-3.2741 2.0125 -0.6138
-3.2598 2.0300 -0.6118
-3.2464 2.0475 -0.6105
-3.2331 2.0650 -0.6092
-3.2250 2.0837 -0.6124
-3.2067 2.0996 -0.6067
-3.1050 2.1061 -0.5347
-3.0740 2.1320 -0.5246
-3.0604 2.1453 -0.5210
-3.0552 2.1626 -0.5257
-3.0550 2.1831 -0.5356
-3.0803 2.2201 -0.5724
-3.0885 2.2741 -0.6050
-3.0805 2.2942 -0.6090
-3.0710 2.3135 -0.6114
-3.0549 2.3274 -0.6064
-3.0479 2.3491 -0.6119
-3.0370 2.3675 -0.6128
-3.0255 2.3852 -0.6130
-3.0151 2.4043 -0.6147
-3.0036 2.4222 -0.6149
-2.9903 2.4379 -0.6129
-2.9777 2.4542 -0.6116
-2.9663 2.4720 -0.6118
-2.9563 2.4920 -0.6143
-2.9408 2.5034 -0.6085
-2.9327 2.5268 -0.6140
-2.9180 2.5387 -0.6089
-2.9101 2.5632 -0.6151
-2.8614 2.5422 -0.5688
-2.8115 2.5030 -0.5126
-2.7961 2.5018 -0.5007
-2.7827 2.5040 -0.4918
-2.7713 2.5107 -0.4867
-2.7618 2.5223 -0.4854
-2.7532 2.5370 -0.4863
-2.7678 2.6960 -0.5751
-2.7558 2.7067 -0.5715
-2.7398 2.6973 -0.5550
-2.7219 2.6737 -0.5302
-2.7072 2.6607 -0.5130
-2.6956 2.6616 -0.5048
-2.6819 2.6455 -0.4868
-3.4058 1.7630 -0.6132
-3.3867 1.7816 -0.6080
-3.3810 1.7981 -0.6120
-3.3676 1.8157 -0.6107
-3.3564 1.8330 -0.6109
-3.3309 1.8677 -0.6090
-3.2964 1.9194 -0.6088
-3.2823 1.9365 -0.6067
-3.2741 1.9538 -0.6093
-3.2490 1.9879 -0.6073
-3.2324 2.0042 -0.6029
-3.2322 2.0231 -0.6124
-3.2139 2.0389 -0.6064
-3.1969 2.0744 -0.6115
-3.1774 2.0892 -0.6039
-3.0820 2.0964 -0.5339
-3.0684 2.1097 -0.5302
-3.0581 2.1241 -0.5296
-3.0485 2.1388 -0.5298
-3.0517 2.1601 -0.5431
-3.0857 2.2229 -0.6017
-3.0782 2.2421 -0.6057
-3.0720 2.2625 -0.6114
-3.0589 2.2781 -0.6092
-3.0498 2.2968 -0.6118
-3.0329 2.3090 -0.6050
-3.0288 2.3323 -0.6137
-3.0140 2.3459 -0.6093
-2.9982 2.3579 -0.6033
-2.9924 2.3806 -0.6105
-2.9736 2.4190 -0.6155
-2.9619 2.4355 -0.6150
-2.9507 2.4527 -0.6152
-2.9401 2.4706 -0.6162
-2.9240 2.4800 -0.6086
-2.9144 2.4994 -0.6111
-2.9020 2.5140 -0.6090
-2.8901 2.5292 -0.6076
-2.8779 2.5435 -0.6055
-2.8575 2.5395 -0.5877
-2.8324 2.5214 -0.5590
-2.8103 2.5063 -0.5341
-2.7917 2.4965 -0.5148
-2.7773 2.4956 -0.5032
-2.7661 2.5022 -0.4979
-2.7582 2.5189 -0.5004
-2.7494 2.5326 -0.5006
-2.7666 2.7044 -0.6020
-2.7324 2.6771 -0.5616
-2.7190 2.6747 -0.5500
-2.7046 2.6632 -0.5329
-2.6895 2.6419 -0.5103
-2.6783 2.6406 -0.5011
-2.2385 0.9327 -0.6028
-2.2260 0.9428 -0.6076
-2.2044 0.9804 -0.6057
-2.1836 1.0198 -0.6023
-2.1715 1.0337 -0.6047
-2.1503 1.0707 -0.6028
-2.1183 1.1243 -0.6011
-2.0941 1.1538 -0.6053
-2.0410 1.2426 -0.6025
-2.0285 1.2573 -0.6049
-2.0163 1.2729 -0.6067
-2.0068 1.2919 -0.6046
-1.9986 1.3121 -0.6009
-1.9882 1.3296 -0.6003
-1.9784 1.3476 -0.5990
-1.9644 1.3614 -0.6030
-1.9552 1.3800 -0.6009
-1.9417 1.3946 -0.6042
-1.9314 1.4120 -0.6036
-1.9217 1.4299 -0.6022
-1.9066 1.4439 -0.6070
-1.9025 1.4653 -0.5995
-1.8873 1.4795 -0.6043
-1.8777 1.4972 -0.6030
-1.8608 1.5110 -0.6093
-1.8588 1.5322 -0.6003
-1.8448 1.5476 -0.6036
-1.8338 1.5645 -0.6038
-1.8276 1.5830 -0.5993
-1.8126 1.5984 -0.6034
-1.8033 1.6156 -0.6020
-1.7898 1.6318 -0.6045
-1.7788 1.6486 -0.6047
-1.7687 1.6656 -0.6041
-1.7551 1.6819 -0.6066
-1.7432 1.6987 -0.6076
-1.7303 1.7154 -0.6093
-1.7155 1.7320 -0.6126
-1.7101 1.7494 -0.6081
-1.6990 1.7663 -0.6083
-1.6880 1.7831 -0.6085
-1.6800 1.8000 -0.6064
-1.6669 1.8169 -0.6081
-1.6580 1.8336 -0.6068
-1.6480 1.8504 -0.6062
-1.6360 1.8673 -0.6072
-1.6218 1.8845 -0.6097
-1.6206 1.8999 -0.6029
-1.6075 1.9170 -0.6046
-1.5988 1.9333 -0.6033
-1.5890 1.9498 -0.6027
-1.5782 1.9664 -0.6029
-1.5673 1.9831 -0.6030
-1.5552 2.0000 -0.6040
-1.5515 2.0148 -0.5995
-1.5334 2.0334 -0.6044
-2.2150 0.9101 -0.6069
-2.2026 0.9245 -0.6093
-2.1904 0.9401 -0.6110
-2.1813 0.9677 -0.6046
-2.1677 0.9779 -0.6099
-2.1567 0.9978 -0.6087
-2.1450 1.0156 -0.6089
-2.1338 1.0344 -0.6083
-2.1222 1.0521 -0.6085
-2.1106 1.0699 -0.6087
-2.0911 1.1134 -0.6025
-2.0758 1.1232 -0.6093
-2.0109 1.2363 -0.6039
-1.9639 1.3052 -0.6061
-1.8739 1.4217 -0.6179
-1.8671 1.4428 -0.6129
-1.8569 1.4614 -0.6116
-1.8475 1.4803 -0.6096
-1.8315 1.4957 -0.6142
-1.8237 1.5152 -0.6107
-1.7975 1.5493 -0.6141
-1.7851 1.5668 -0.6150
-1.7776 1.5859 -0.6115
-1.7627 1.6026 -0.6147
-1.7545 1.6212 -0.6119
-1.7482 1.6400 -0.6077
-1.7359 1.6574 -0.6086
-1.7244 1.6749 -0.6088
-1.6853 1.7272 -0.6131
-1.6738 1.7448 -0.6133
-1.6566 1.7802 -0.6092
-1.6392 1.7978 -0.6139
-1.6368 1.8151 -0.6074
-1.6337 1.8321 -0.6016
-1.6214 1.8494 -0.6025
-1.6165 1.8660 -0.5983
-1.6107 1.8825 -0.5947
-1.5930 1.9005 -0.5994
-1.5851 1.9171 -0.5973
-1.5807 1.9330 -0.5930
-1.5628 1.9513 -0.5977
-1.5528 1.9682 -0.5972
-1.5440 1.9847 -0.5959
-1.5305 2.0023 -0.5975
-1.5181 2.0197 -0.5985
-1.5106 2.0358 -0.5964
-2.1557 0.9506 -0.6057
-2.0972 1.0462 -0.6039
-2.0408 1.1433 -0.5999
-2.0280 1.1598 -0.6015
-2.0162 1.1780 -0.6018
-2.0043 1.1961 -0.6020
-1.9817 1.2339 -0.6009
-1.9677 1.2492 -0.6040
-1.9581 1.2701 -0.6013
-1.9492 1.2914 -0.5980
-1.9386 1.3106 -0.5968
-1.9213 1.3232 -0.6034
-1.9095 1.3414 -0.6036
-1.8976 1.3595 -0.6038
-1.8871 1.3787 -0.6026
-1.8773 1.3983 -0.6006
-1.8655 1.4164 -0.6008
-1.8516 1.4330 -0.6032
-1.8412 1.4520 -0.6020
-1.8302 1.4705 -0.6014
-1.8162 1.4874 -0.6038
-1.7990 1.5029 -0.6090
-1.7909 1.5229 -0.6056
-1.7775 1.5404 -0.6073
-1.7648 1.5583 -0.6082
-1.7529 1.5766 -0.6084
-1.7469 1.5965 -0.6036
-1.7360 1.6148 -0.6031
-1.7181 1.6314 -0.6083
-1.7062 1.6496 -0.6085
-1.6979 1.6684 -0.6058
-1.6879 1.6868 -0.6046
-1.6771 1.7049 -0.6041
-1.6586 1.7224 -0.6093
-1.6506 1.7408 -0.6066
-1.6437 1.7591 -0.6032
-1.6270 1.7770 -0.6070
-1.6182 1.7951 -0.6051
-1.6084 1.8131 -0.6038
-1.5998 1.8309 -0.6019
-1.5902 1.8486 -0.6007
-1.5786 1.8665 -0.6009
-1.5691 1.8841 -0.5996
-1.5552 1.9023 -0.6013
-1.5357 1.9214 -0.6065
-1.5296 1.9384 -0.6031
-1.5168 1.9565 -0.6040
-1.5062 1.9742 -0.6035
-1.4992 1.9911 -0.6008
-1.4912 2.0080 -0.5988
-1.4904 2.0229 -0.5925
-1.4741 2.0418 -0.5956
-2.1646 0.8720 -0.6079
-2.1509 0.8868 -0.6109
-2.1376 0.9040 -0.6124
-2.1257 0.9254 -0.6113
-2.1124 0.9426 -0.6129
-2.0998 0.9619 -0.6131
-2.0872 0.9813 -0.6133
-2.0769 1.0063 -0.6094
-2.0557 1.0527 -0.6037
-2.0433 1.0717 -0.6039
-2.0162 1.1055 -0.6078
-2.0047 1.1262 -0.6066
-1.9882 1.1389 -0.6123
-1.9777 1.1612 -0.6098
-1.9621 1.1759 -0.6141
-1.9538 1.2009 -0.6089
-1.9301 1.2404 -0.6079
-1.9153 1.2569 -0.6109
-1.8959 1.3005 -0.6051
-1.8250 1.3889 -0.6151
-1.8153 1.4099 -0.6126
-1.8043 1.4299 -0.6114
-1.7955 1.4511 -0.6082
-1.7336 1.5459 -0.6093
-1.7195 1.5643 -0.6109
-1.7173 1.5863 -0.6028
-1.6964 1.6028 -0.6099
-1.6743 1.6196 -0.6177
-1.6636 1.6392 -0.6165
-1.6437 1.6571 -0.6223
-1.6422 1.6780 -0.6142
-1.6316 1.6973 -0.6130
-1.6202 1.7165 -0.6126
-1.6009 1.7351 -0.6176
-1.5993 1.7547 -0.6102
-1.5829 1.7735 -0.6132
-1.5766 1.7925 -0.6093
-1.5561 1.8300 -0.6069
-1.5368 1.8843 -0.5964
-1.5315 1.9018 -0.5925
-1.5008 1.9396 -0.5971
-1.4980 1.9562 -0.5917
-1.4861 1.9744 -0.5919
-1.4718 1.9932 -0.5935
-1.4599 2.0115 -0.5937
-1.4480 2.0297 -0.5939
-1.4385 2.0473 -0.5927
-2.1558 0.8555 -0.5937
-2.1391 0.8607 -0.6024
-2.0868 0.9378 -0.6046
-2.0746 0.9596 -0.6035
-2.0372 1.0216 -0.6022
-2.0243 1.0412 -0.6024
-1.9995 1.0823 -0.6016
-1.9097 1.2198 -0.6031
-1.8981 1.2408 -0.6020
-1.8890 1.2641 -0.5983
-1.8423 1.3153 -0.6075
-1.8327 1.3377 -0.6044
-1.8254 1.3614 -0.5994
-1.8127 1.3809 -0.5996
-1.8072 1.4049 -0.5932
-1.7829 1.4172 -0.6040
-1.7701 1.4368 -0.6042
-1.7649 1.4603 -0.5978
-1.7476 1.4774 -0.6020
-1.7365 1.4976 -0.6009
-1.7238 1.5171 -0.6011
-1.7077 1.5353 -0.6040
-1.6916 1.5538 -0.6069
-1.6805 1.5739 -0.6058
-1.6694 1.5940 -0.6047
-1.6567 1.6136 -0.6049
-1.6475 1.6338 -0.6024
-1.6275 1.6520 -0.6080
-1.6165 1.6719 -0.6069
-1.6018 1.6913 -0.6084
-1.5967 1.7117 -0.6033
-1.5742 1.7305 -0.6102
-1.5673 1.7504 -0.6064
-1.5626 1.7701 -0.6013
-1.5417 1.7895 -0.6068
-1.5331 1.8090 -0.6044
-1.5141 1.8287 -0.6086
-1.5098 1.8477 -0.6035
-1.5015 1.8667 -0.6011
-1.4933 1.8856 -0.5986
-1.4763 1.9054 -0.6015
-1.4659 1.9244 -0.6004
-1.4579 1.9429 -0.5979
-1.4408 1.9629 -0.6008
-1.4305 1.9817 -0.5997
-1.4180 2.0009 -0.5999
-1.4006 2.0213 -0.6028
-1.3855 2.0412 -0.6043
-1.3778 2.0593 -0.6019
-2.1278 0.8367 -0.5916
-2.1073 0.8333 -0.6056
-2.0907 0.8446 -0.6115
-2.0777 0.8676 -0.6104
-2.0633 0.8865 -0.6119
-2.0524 0.9142 -0.6078
-2.0360 0.9283 -0.6124
-2.0232 0.9511 -0.6114
-2.0047 0.9620 -0.6185
-1.9941 0.9893 -0.6144
-1.9813 1.0120 -0.6133
-1.9710 1.0388 -0.6092
-1.9595 1.0628 -0.6069
-1.9449 1.0819 -0.6084
-1.9314 1.1027 -0.6086
-1.9190 1.1249 -0.6076
-1.8937 1.1683 -0.6062
-1.8514 1.2282 -0.6087
-1.8367 1.2477 -0.6102
-1.8231 1.2684 -0.6105
-1.8203 1.2981 -0.6006
-1.8008 1.3136 -0.6065
-1.7874 1.3341 -0.6067
-1.7690 1.3513 -0.6114
-1.7591 1.3743 -0.6085
-1.7486 1.3967 -0.6062
-1.7299 1.4143 -0.6108
-1.7272 1.4405 -0.6022
-1.7029 1.4556 -0.6113
-1.6967 1.4794 -0.6058
-1.6890 1.5022 -0.6016
-1.6515 1.5391 -0.6103
-1.6415 1.5608 -0.6080
-1.6165 1.6022 -0.6072
-1.5777 1.6410 -0.6159
-1.5830 1.6646 -0.6034
-1.5659 1.6844 -0.6062
-1.5477 1.7043 -0.6096
-1.5323 1.7247 -0.6111
-1.5209 1.7453 -0.6101
-1.5004 1.7657 -0.6148
-1.4869 1.7864 -0.6150
-1.4860 1.8068 -0.6076
-1.4580 1.8669 -0.6012
-1.4537 1.8861 -0.5963
-1.4474 1.9052 -0.5927
-1.4368 1.9246 -0.5916
-1.4296 1.9435 -0.5887
-1.4040 1.9654 -0.5959
-1.3910 1.9853 -0.5962
-1.3708 2.0068 -0.6002
-1.3577 2.0268 -0.6005
-1.3446 2.0469 -0.6007
-2.0956 0.8105 -0.5925
-2.0800 0.8264 -0.5958
-2.0632 0.8394 -0.6008
-1.9774 0.9645 -0.6047
-1.9690 0.9965 -0.5977
-1.9492 1.0076 -0.6052
-1.9422 1.0406 -0.5970
-1.9284 1.0618 -0.5972
-1.9007 1.1042 -0.5977
-1.8759 1.1502 -0.5951
-1.8252 1.2040 -0.6049
-1.8144 1.2284 -0.6021
-1.7991 1.2486 -0.6036
-1.7831 1.2683 -0.6056
-1.7746 1.2940 -0.6010
-1.7116 1.3746 -0.6081
-1.6968 1.4244 -0.5982
-1.6636 1.4641 -0.6029
-1.6497 1.4853 -0.6032
-1.6177 1.5264 -0.6067
-1.6054 1.5483 -0.6057
-1.5836 1.5675 -0.6115
-1.5664 1.6129 -0.6046
-1.5497 1.6336 -0.6067
-1.5405 1.6557 -0.6039
-1.5315 1.6775 -0.6011
-1.5177 1.6986 -0.6013
-1.4990 1.7193 -0.6046
-1.4851 1.7405 -0.6048
-1.4815 1.7620 -0.5989
-1.4678 1.7829 -0.5992
-1.4383 1.8042 -0.6086
-1.4372 1.8250 -0.6015
-1.4267 1.8459 -0.5999
-1.4020 1.8678 -0.6063
-1.4015 1.8876 -0.5991
-1.3901 1.9082 -0.5981
-1.3822 1.9283 -0.5953
-1.3686 1.9491 -0.5955
-1.3527 1.9703 -0.5970
-1.3356 1.9918 -0.5991
-1.3195 2.0132 -0.6005
-1.3034 2.0346 -0.6020
-1.2897 2.0556 -0.6022
-1.2760 2.0766 -0.6025
-2.0521 0.7574 -0.6069
-2.0342 0.7719 -0.6117
-2.0193 0.7948 -0.6120
-2.0076 0.8255 -0.6076
-1.9894 0.8405 -0.6125
-1.9757 0.8662 -0.6110
-1.9568 0.8808 -0.6165
-1.9520 0.9235 -0.6041
-1.9334 0.9391 -0.6089
-1.9161 0.9575 -0.6120
-1.9079 0.9910 -0.6048
-1.8905 1.0096 -0.6079
-1.8725 1.0275 -0.6117
-1.8576 1.0503 -0.6119
-1.8130 1.1186 -0.6127
-1.8000 1.1434 -0.6112
-1.7833 1.1642 -0.6132
-1.7684 1.1869 -0.6135
-1.7522 1.2085 -0.6149
-1.7332 1.2280 -0.6186
-1.7238 1.2553 -0.6142
-1.6962 1.3023 -0.6130
-1.6814 1.3250 -0.6132
-1.6494 1.3691 -0.6155
-1.6393 1.3943 -0.6123
-1.6349 1.4219 -0.6050
-1.6138 1.4413 -0.6099
-1.6016 1.4649 -0.6084
-1.5654 1.5075 -0.6135
-1.5576 1.5322 -0.6091
