ply
format ascii 1.0
element vertex 2082
property float x
property float y
property float z
end_header
-4.7927 1.2493 -0.0551
-4.7739 1.2704 -0.0553
-4.7412 1.3165 -0.0559
-4.7125 1.3269 -0.0556
-4.7359 1.4350 -0.0593
-5.8509 4.3276 -0.1703
-5.8758 5.8785 -0.2167
-5.4801 5.5961 -0.1993
-5.2517 5.1046 -0.1795
-5.1813 5.1385 -0.1789
-5.0793 5.0369 -0.1736
-5.0449 5.2053 -0.1778
-4.9887 5.2844 -0.1788
-4.8961 5.1786 -0.1736
-5.5296 0.4903 -0.0819
-5.4860 0.5186 -0.0812
-5.4621 0.5452 -0.0813
-5.4282 0.5719 -0.0810
-5.4246 0.5980 -0.0820
-5.3825 0.6239 -0.0813
-5.3143 0.7008 -0.0817
-5.3123 0.7281 -0.0829
-5.2778 0.7522 -0.0824
-5.2505 0.7766 -0.0823
-5.2045 0.7975 -0.0811
-5.1912 0.8233 -0.0817
-5.1853 0.8509 -0.0827
-5.1631 0.8752 -0.0828
-5.1337 0.8973 -0.0825
-5.1098 0.9205 -0.0824
-5.0922 0.9453 -0.0828
-5.0706 0.9687 -0.0829
-5.0530 0.9934 -0.0832
-5.0229 1.0131 -0.0827
-5.0179 1.0429 -0.0839
-4.9845 1.0602 -0.0831
-4.9535 1.1108 -0.0840
-4.9274 1.1301 -0.0837
-4.9076 1.1527 -0.0839
-4.8845 1.1730 -0.0837
-4.8624 1.1935 -0.0837
-4.8455 1.2173 -0.0840
-4.7967 1.2528 -0.0834
-4.7801 1.2762 -0.0837
-4.7590 1.2954 -0.0836
-4.7358 1.3123 -0.0833
-4.7050 1.3206 -0.0823
-4.7351 1.4360 -0.0889
-4.7108 1.4527 -0.0886
-5.8511 4.3519 -0.2711
-5.5698 5.9573 -0.3311
-5.3302 5.4431 -0.2971
-5.2129 5.3192 -0.2862
-5.1786 5.5094 -0.2932
-5.1175 5.5955 -0.2944
-5.0447 5.6261 -0.2925
-4.9952 5.7677 -0.2967
-5.5491 0.4579 -0.1140
-5.5181 0.4858 -0.1136
-5.4991 0.5127 -0.1139
-5.5016 0.5387 -0.1157
-5.4610 0.5663 -0.1147
-5.3948 0.6195 -0.1135
-5.3990 0.6466 -0.1154
-5.3801 0.6734 -0.1158
-5.3247 0.6974 -0.1135
-5.2627 0.7465 -0.1123
-5.2367 0.7709 -0.1120
-5.2187 0.7963 -0.1124
-5.1930 0.8202 -0.1121
-5.1568 0.8416 -0.1110
-5.1174 0.8901 -0.1113
-5.1040 0.9160 -0.1120
-5.0864 0.9408 -0.1123
-5.0618 0.9632 -0.1120
-5.0306 0.9828 -0.1111
-5.0134 1.0071 -0.1114
-5.0055 1.0355 -0.1127
-4.9732 1.0532 -0.1116
-4.9561 1.0774 -0.1119
-4.9305 1.1308 -0.1134
-4.9071 1.1515 -0.1131
-4.8814 1.1703 -0.1125
-4.8644 1.1943 -0.1128
-4.8506 1.2207 -0.1135
-4.8302 1.2424 -0.1135
-4.8132 1.2664 -0.1138
-4.7846 1.2805 -0.1127
-4.7746 1.3104 -0.1139
-4.7415 1.3187 -0.1122
-4.7062 1.3231 -0.1101
-4.7118 1.4562 -0.1186
-5.9534 4.3741 -0.3809
-5.8316 4.3368 -0.3704
-5.4058 6.1377 -0.4518
-5.2408 5.8392 -0.4224
-5.1221 5.6913 -0.4054
-5.0363 5.6660 -0.3981
-5.0201 5.9882 -0.4167
-5.4928 0.5078 -0.1459
-5.4687 0.5348 -0.1458
-5.4497 0.5616 -0.1462
-5.4276 0.6153 -0.1483
-5.3892 0.6417 -0.1469
-5.3513 0.6674 -0.1455
-5.3327 0.6937 -0.1458
-5.3048 0.7191 -0.1453
-5.2953 0.7463 -0.1465
-5.2677 0.7713 -0.1460
-5.2249 0.7936 -0.1438
-5.1871 0.8156 -0.1421
-5.1693 0.8408 -0.1425
-5.1398 0.8633 -0.1415
-5.1335 0.8912 -0.1431
-5.0982 0.9115 -0.1415
-5.0937 0.9404 -0.1433
-5.0630 0.9611 -0.1422
-5.0386 0.9834 -0.1417
-5.0278 1.0107 -0.1428
-5.0158 1.0380 -0.1439
-4.9981 1.0629 -0.1442
-4.9622 1.0788 -0.1422
-4.9422 1.1019 -0.1422
-4.9187 1.1229 -0.1417
-4.9015 1.1471 -0.1420
-4.8792 1.1681 -0.1416
-4.8646 1.1939 -0.1423
-4.8474 1.2181 -0.1426
-4.8326 1.2442 -0.1433
-4.8154 1.2684 -0.1436
-4.7882 1.2841 -0.1424
-4.7645 1.3020 -0.1416
-5.4349 5.9528 -0.5617
-5.2407 5.5554 -0.5135
-5.1260 5.4248 -0.4930
-5.0655 5.5100 -0.4942
-5.0050 5.5952 -0.4953
-5.5134 0.5012 -0.1807
-5.4726 0.5295 -0.1787
-5.4485 0.5566 -0.1785
-5.4552 0.5832 -0.1818
-5.4455 0.6106 -0.1833
-5.4021 0.6374 -0.1809
-5.3358 0.6621 -0.1757
-5.3262 0.7168 -0.1797
-5.2801 0.7405 -0.1767
-5.2839 0.7696 -0.1798
-5.2431 0.7927 -0.1774
-5.1591 0.8354 -0.1719
-5.1382 0.8598 -0.1718
-5.1390 0.8896 -0.1747
-5.1138 0.9130 -0.1740
-5.0918 0.9371 -0.1738
-5.0700 0.9609 -0.1736
-5.0522 0.9860 -0.1739
-5.0315 1.0100 -0.1738
-5.0006 1.0294 -0.1721
-4.9923 1.0584 -0.1739
-4.9565 1.0744 -0.1713
-4.8984 1.1443 -0.1713
-4.8845 1.1707 -0.1722
-4.8671 1.1952 -0.1725
-4.8417 1.2137 -0.1714
-4.8190 1.2337 -0.1707
-4.8074 1.2621 -0.1720
-4.7879 1.2844 -0.1719
-4.7753 1.3125 -0.1731
-4.7421 1.3214 -0.1702
-4.7366 1.3567 -0.1729
-4.7305 1.3928 -0.1756
-4.7178 1.4226 -0.1769
-4.7023 1.4497 -0.1777
-6.3413 3.7400 -0.5779
-6.3849 3.9740 -0.6047
-6.3209 4.0640 -0.6059
-6.2316 4.1143 -0.6005
-6.0514 4.0093 -0.5703
-6.0133 4.1316 -0.5774
-5.9744 4.2567 -0.5848
-5.8519 4.2232 -0.5678
-5.7928 4.3066 -0.5689
-5.7522 4.4306 -0.5759
-5.7493 4.6460 -0.5957
-5.2875 5.1538 -0.5910
-5.2008 5.1403 -0.5800
-5.1416 5.2237 -0.5811
-5.0711 5.2578 -0.5763
-5.0017 5.2902 -0.5715
-4.9539 5.4228 -0.5785
-5.4918 0.4973 -0.2112
-5.4977 0.5231 -0.2149
-5.4583 0.5512 -0.2126
-5.4391 0.5784 -0.2130
-5.4198 0.6055 -0.2133
-5.3768 0.6320 -0.2104
-5.3766 0.6595 -0.2134
-5.3389 0.6853 -0.2111
-5.3063 0.7108 -0.2094
-5.3190 0.7406 -0.2145
-5.2599 0.7624 -0.2088
-5.2413 0.7887 -0.2092
-5.2270 0.8156 -0.2102
-5.1808 0.8364 -0.2062
-5.1584 0.8611 -0.2058
-5.1474 0.8886 -0.2073
-5.1220 0.9124 -0.2065
-5.0502 0.9829 -0.2045
-5.0285 1.0066 -0.2041
-4.9810 1.0513 -0.2026
-4.9571 1.0731 -0.2017
-4.9334 1.0944 -0.2008
-4.9307 1.1272 -0.2041
-4.9071 1.1485 -0.2032
-4.8813 1.1679 -0.2018
-4.8720 1.1980 -0.2039
-4.8385 1.2111 -0.2007
-4.8166 1.2317 -0.2000
-4.8063 1.2615 -0.2019
-4.7846 1.2819 -0.2012
-4.7674 1.3061 -0.2015
-4.7502 1.3303 -0.2018
-4.7200 1.3831 -0.2035
-4.7141 1.4205 -0.2068
-4.7128 1.4648 -0.2115
-5.3884 4.4618 -0.6343
-5.3461 4.5794 -0.6415
-5.2643 4.5786 -0.6302
-5.2092 4.6562 -0.6313
-5.1428 4.6934 -0.6263
-5.0883 4.7703 -0.6273
-5.0545 4.9321 -0.6406
-5.0089 5.0544 -0.6478
-4.9527 5.1335 -0.6489
-4.8876 5.1672 -0.6437
-5.4913 0.5181 -0.2476
-5.4471 0.5465 -0.2441
-5.4474 0.5732 -0.2476
-5.3979 0.6005 -0.2431
-5.3788 0.6273 -0.2435
-5.3843 0.6552 -0.2479
-5.3557 0.6819 -0.2467
-5.3172 0.7075 -0.2438
-5.3027 0.7347 -0.2449
-5.2582 0.7583 -0.2408
-5.2439 0.7852 -0.2419
-5.1822 0.8332 -0.2381
-5.1566 0.8574 -0.2371
-5.1382 0.9138 -0.2413
-5.1127 0.9378 -0.2403
-5.0161 0.9994 -0.2326
-5.0122 1.0303 -0.2359
-4.9540 1.0699 -0.2316
-4.9251 1.0886 -0.2294
-4.9163 1.1179 -0.2317
-4.8955 1.1405 -0.2312
-4.8896 1.1725 -0.2343
-4.8719 1.1974 -0.2347
-4.8519 1.2205 -0.2344
-4.8179 1.2328 -0.2305
-4.8060 1.2614 -0.2323
-4.7737 1.2730 -0.2286
-4.7567 1.2971 -0.2289
-4.7375 1.3190 -0.2286
-4.7204 1.3430 -0.2289
-5.6161 2.9069 -0.5712
-5.5347 2.9131 -0.5590
-5.5035 2.9927 -0.5641
-5.4715 3.0733 -0.5692
-5.4506 3.1755 -0.5788
-5.3953 3.2179 -0.5754
-5.3401 3.2584 -0.5717
-5.3278 3.3859 -0.5859
-5.3372 3.5691 -0.6107
-5.2584 3.5598 -0.5969
-5.2032 3.6003 -0.5932
-5.1672 3.6883 -0.5986
-5.1502 3.8325 -0.6142
-5.1224 3.9547 -0.6253
-5.0478 3.9361 -0.6109
-5.0184 4.0588 -0.6218
-4.9713 4.1252 -0.6227
-4.9402 4.2536 -0.6341
-4.8922 4.3212 -0.6350
-4.8024 4.2021 -0.6054
-4.7508 4.2375 -0.6017
-4.6886 4.2133 -0.5886
-5.4653 0.5406 -0.2807
-5.4567 0.5679 -0.2831
-5.4311 0.5956 -0.2823
-5.3879 0.6228 -0.2783
-5.3780 0.6502 -0.2804
-5.3391 0.6764 -0.2770
-5.3301 0.7041 -0.2794
-5.3009 0.7303 -0.2777
-5.3048 0.7600 -0.2827
-5.2464 0.7817 -0.2751
-5.2488 0.8119 -0.2799
-5.1961 0.8324 -0.2731
-5.1815 0.8596 -0.2744
-5.1401 0.9113 -0.2742
-5.1214 0.9376 -0.2745
-5.1182 0.9690 -0.2785
-5.0271 1.0015 -0.2664
-4.9962 1.0214 -0.2636
-4.9748 1.0448 -0.2630
-4.9668 1.0745 -0.2658
-4.9429 1.0965 -0.2646
-4.9217 1.1197 -0.2640
-4.8847 1.1330 -0.2591
-4.8756 1.1627 -0.2617
-4.8581 1.1874 -0.2620
-4.8351 1.2080 -0.2608
-4.8231 1.2367 -0.2627
-4.8078 1.2632 -0.2637
-4.7733 1.2732 -0.2588
-4.7655 1.3060 -0.2621
-4.7411 1.3236 -0.2601
-5.4831 2.7261 -0.5990
-5.4421 2.7838 -0.5998
-5.1646 3.2067 -0.6096
-5.0903 3.3433 -0.6156
-4.9997 3.4390 -0.6127
-4.9311 3.5995 -0.6232
-4.8893 3.6584 -0.6240
-4.8411 3.6943 -0.6202
-4.7996 3.7528 -0.6210
-4.7581 3.8113 -0.6218
-4.7165 3.8697 -0.6226
-4.6750 3.9282 -0.6234
-4.6382 4.0120 -0.6287
-5.4685 0.5087 -0.3111
-5.4699 0.5352 -0.3157
-5.4503 0.5629 -0.3160
-5.4306 0.5906 -0.3164
-5.4051 0.6182 -0.3155
-5.3716 0.6453 -0.3129
-5.3385 0.6718 -0.3103
-5.3238 0.6992 -0.3117
-5.2946 0.7254 -0.3098
-5.2809 0.7529 -0.3114
-5.2564 0.7792 -0.3105
-5.2637 0.8106 -0.3171
-5.2181 0.8330 -0.3112
-5.1949 0.8591 -0.3106
-5.1799 0.8869 -0.3119
-5.1608 0.9138 -0.3123
-5.1309 0.9375 -0.3099
-5.0966 0.9591 -0.3062
-5.0637 0.9803 -0.3028
-5.0004 1.0211 -0.2961
-4.9824 1.0464 -0.2965
-4.9548 1.0670 -0.2940
-4.9336 1.0902 -0.2933
-4.8873 1.1336 -0.2907
-4.8294 1.2036 -0.2899
-4.8173 1.2322 -0.2920
-4.8126 1.2673 -0.2967
-4.7823 1.2815 -0.2927
-4.7648 1.3061 -0.2930
-4.7333 1.3171 -0.2882
-5.2914 2.3604 -0.5730
-5.2564 2.4097 -0.5737
-5.2214 2.4590 -0.5744
-5.1936 2.5198 -0.5784
-5.1584 2.5694 -0.5790
-5.1164 2.6069 -0.5763
-5.0950 2.6820 -0.5840
-5.0596 2.7319 -0.5847
-5.0114 2.7548 -0.5783
-4.9640 2.7763 -0.5719
-4.9352 2.8387 -0.5759
-4.9119 2.9166 -0.5837
-4.8881 2.9969 -0.5917
-4.8524 3.0471 -0.5923
-4.8220 3.1133 -0.5967
-4.7966 3.1976 -0.6050
-4.7454 3.1978 -0.5943
-4.6918 3.1815 -0.5805
-4.6570 3.2305 -0.5812
-4.6302 3.3134 -0.5889
-4.6147 3.4538 -0.6084
-4.5823 3.5245 -0.6130
-4.5420 3.5562 -0.6097
-5.4087 0.5857 -0.3458
-5.3846 0.6130 -0.3451
-5.3790 0.6408 -0.3487
-5.3742 0.6691 -0.3527
-5.3264 0.6950 -0.3461
-5.3071 0.7223 -0.3465
-5.2746 0.7480 -0.3436
-5.2597 0.7757 -0.3450
-5.2615 0.8063 -0.3509
-5.2035 0.8266 -0.3410
-5.1815 0.8527 -0.3406
-5.1696 0.8810 -0.3429
-5.1674 0.9124 -0.3479
-5.1247 0.9327 -0.3416
-5.1287 0.9668 -0.3487
-5.0680 0.9793 -0.3367
-4.9766 1.0418 -0.3266
-4.9673 1.0714 -0.3297
-4.9312 1.0875 -0.3242
-4.9193 1.1158 -0.3265
-4.8608 1.1517 -0.3192
-4.8291 1.2031 -0.3210
-4.8245 1.2377 -0.3262
-4.8038 1.2603 -0.3254
-4.7693 1.2707 -0.3192
-4.7591 1.3017 -0.3223
-4.7318 1.3168 -0.3187
-5.1442 2.3500 -0.5998
-5.0913 2.4660 -0.6082
-5.0578 2.5132 -0.6089
-5.0243 2.5604 -0.6095
-4.9966 2.6194 -0.6136
-4.9573 2.6549 -0.6108
-4.8232 2.8437 -0.6133
-4.7850 2.8776 -0.6104
-4.7469 2.9097 -0.6073
-4.7184 2.9714 -0.6117
-4.6932 3.0468 -0.6193
-4.6594 3.0943 -0.6199
-4.6257 3.1417 -0.6205
-4.5851 3.1592 -0.6142
-4.5518 3.2061 -0.6148
-4.5215 3.2686 -0.6189
-4.4880 3.3159 -0.6196
-5.4728 0.5244 -0.3855
-5.4469 0.5525 -0.3844
-5.4177 0.5805 -0.3823
-5.3875 0.6082 -0.3800
-5.3680 0.6356 -0.3804
-5.3440 0.6629 -0.3795
-5.3390 0.6913 -0.3838
-5.3007 0.7173 -0.3790
-5.2770 0.7441 -0.3782
-5.2619 0.7719 -0.3797
-5.2425 0.7993 -0.3801
-5.2149 0.8250 -0.3780
-5.2078 0.8547 -0.3821
-5.1844 0.8812 -0.3812
-5.1571 0.9064 -0.3791
-5.1253 0.9298 -0.3755
-5.0996 0.9545 -0.3737
-5.0956 0.9865 -0.3790
-5.0681 1.0103 -0.3766
-5.0247 1.0270 -0.3686
-5.0203 1.0596 -0.3739
-4.9944 1.0828 -0.3718
-4.9561 1.0989 -0.3651
-4.9134 1.1112 -0.3565
-4.8955 1.1364 -0.3568
-4.8720 1.1580 -0.3550
-4.8629 1.1890 -0.3587
-4.8388 1.2098 -0.3566
-4.8210 1.2349 -0.3569
-4.8009 1.2582 -0.3563
-4.7759 1.2770 -0.3535
-4.7604 1.3037 -0.3548
-4.7358 1.3219 -0.3520
-5.0834 2.0084 -0.5769
-5.0489 2.0421 -0.5746
-5.0148 2.0754 -0.5723
-4.9859 2.1160 -0.5729
-4.9571 2.1566 -0.5734
-4.9330 2.2054 -0.5768
-4.9087 2.2545 -0.5802
-4.8795 2.2955 -0.5807
-4.8552 2.3463 -0.5844
-4.8347 2.4064 -0.5909
-4.7966 2.4288 -0.5855
-4.7630 2.4596 -0.5829
-4.7339 2.5007 -0.5834
-4.7163 2.5732 -0.5932
-4.6867 2.6149 -0.5937
-4.6502 2.6350 -0.5882
-4.6174 2.6647 -0.5856
-4.5853 2.6952 -0.5833
-4.5652 2.7696 -0.5928
-4.5538 2.8845 -0.6124
-4.5148 2.8900 -0.6034
-4.4796 2.9067 -0.5976
-4.4572 2.9859 -0.6074
-4.4295 3.0414 -0.6112
-5.3173 0.7144 -0.4185
-5.2878 0.7411 -0.4159
-5.2471 0.7658 -0.4096
-5.2320 0.7936 -0.4113
-5.2250 0.8231 -0.4156
-5.1761 0.8445 -0.4064
-5.1571 0.8713 -0.4067
-5.1381 0.8981 -0.4071
-5.1431 0.9320 -0.4158
-5.1085 0.9545 -0.4108
-5.0893 0.9816 -0.4112
-5.0619 1.0054 -0.4085
-5.0428 1.0323 -0.4089
-5.0141 1.0548 -0.4055
-4.9952 1.0813 -0.4059
-4.9628 1.1009 -0.4009
-4.9284 1.1183 -0.3949
-4.9101 1.1440 -0.3952
-4.8982 1.1739 -0.3982
-4.8594 1.1860 -0.3898
-4.8467 1.2152 -0.3925
-4.8346 1.2454 -0.3956
-4.8054 1.2621 -0.3908
-4.7823 1.2831 -0.3888
-4.7546 1.2992 -0.3844
-4.7369 1.3241 -0.3847
-4.8873 2.0511 -0.5836
-4.8603 2.0891 -0.5841
-4.8373 2.1346 -0.5873
-4.8185 2.1888 -0.5936
-4.7911 2.2275 -0.5941
-4.7433 2.3209 -0.6007
-4.7229 2.3775 -0.6070
-4.6143 2.5452 -0.6122
-4.5831 2.5744 -0.6096
-4.5552 2.6138 -0.6101
-4.5300 2.6639 -0.6138
-4.5072 2.7254 -0.6205
-4.4763 2.7542 -0.6179
-4.4457 2.7826 -0.6154
-4.4198 2.8338 -0.6190
-4.3916 2.8736 -0.6195
-4.9828 1.1096 -0.4433
-4.8092 1.2258 -0.4167
-4.7914 1.2509 -0.4170
-4.7736 1.2760 -0.4173
-4.7537 1.2992 -0.4166
-4.7291 1.3176 -0.4133
-4.8985 1.7773 -0.5728
-4.8738 1.8120 -0.5733
-4.8532 1.8524 -0.5763
-4.8075 1.9282 -0.5798
-4.7790 1.9569 -0.5777
-4.7508 1.9853 -0.5756
-4.7295 2.0266 -0.5786
-4.7081 2.0681 -0.5817
-4.6864 2.1100 -0.5847
-4.6584 2.1381 -0.5826
-4.6365 2.1803 -0.5857
-4.6144 2.2229 -0.5887
-4.5893 2.2582 -0.5892
-4.5642 2.2935 -0.5897
-4.5392 2.3288 -0.5902
-4.5117 2.3561 -0.5880
-4.4845 2.3831 -0.5859
-4.4597 2.4181 -0.5863
-4.4348 2.4531 -0.5868
-4.4138 2.5054 -0.5925
-4.3887 2.5407 -0.5930
-4.3637 2.5760 -0.5934
-4.3433 2.6388 -0.6018
-4.3164 2.6653 -0.5996
-4.7480 1.5299 -0.5056
-4.6010 2.1061 -0.6013
-4.3793 2.3780 -0.5953
-4.3559 2.4110 -0.5957
-4.3338 2.4518 -0.5986
-4.3131 2.5019 -0.6042
-5.2838 0.6982 -0.5124
-5.2643 0.7257 -0.5127
-5.2448 0.7532 -0.5131
-5.1154 0.8826 -0.5012
-5.1088 0.9128 -0.5070
-5.0970 0.9421 -0.5107
-5.0740 0.9681 -0.5094
-5.0197 1.0510 -0.5121
-4.9970 1.0766 -0.5108
-4.7182 1.3524 -0.4844
-4.7359 1.5180 -0.5356
-4.7600 1.6041 -0.5676
-4.7508 1.6507 -0.5769
-4.7264 1.6770 -0.5752
-4.7049 1.7072 -0.5756
-4.6861 1.7418 -0.5781
-4.6645 1.7722 -0.5785
-4.6213 1.8330 -0.5793
-4.6044 1.8729 -0.5840
-4.5875 1.9143 -0.5890
-4.5566 1.9241 -0.5805
-4.5330 1.9494 -0.5788
-4.5155 1.9901 -0.5835
-4.4957 2.0260 -0.5860
-4.4722 2.0511 -0.5843
-4.4505 2.0816 -0.5847
-4.4288 2.1121 -0.5851
-4.4088 2.1484 -0.5876
-4.3870 2.1790 -0.5880
-4.3653 2.2096 -0.5884
-4.3422 2.2341 -0.5867
-4.3231 2.2771 -0.5914
-4.3001 2.3015 -0.5897
-4.2784 2.3321 -0.5901
-4.2566 2.3627 -0.5905
-5.4249 0.5267 -0.5543
-5.4004 0.5550 -0.5529
-5.3703 0.5831 -0.5493
-5.3606 0.6110 -0.5536
-5.3407 0.6390 -0.5540
-5.3067 0.6662 -0.5487
-5.2956 0.6946 -0.5526
-5.2621 0.7211 -0.5472
-5.2477 0.7493 -0.5498
-5.2362 0.7782 -0.5537
-5.2034 0.8039 -0.5483
-5.1927 0.8332 -0.5527
-5.1408 0.8857 -0.5476
-5.1250 0.9142 -0.5498
-5.0870 0.9361 -0.5413
-5.0595 0.9604 -0.5377
-5.0520 0.9916 -0.5438
-5.0292 1.0174 -0.5424
-5.0168 1.0476 -0.5463
-4.9940 1.0733 -0.5449
-4.9747 1.1005 -0.5452
-4.9449 1.1219 -0.5398
-4.9106 1.1399 -0.5317
-4.8572 1.2215 -0.5346
-4.7681 1.3152 -0.5270
-4.7496 1.3413 -0.5274
-4.7285 1.3647 -0.5259
-4.7201 1.4020 -0.5334
-4.7063 1.4341 -0.5374
-4.6940 1.4689 -0.5427
-4.6849 1.5088 -0.5507
-4.3863 2.0850 -0.6013
-4.3223 2.1672 -0.6002
-4.3002 2.1903 -0.5984
-4.2817 2.2323 -0.6033
-4.2618 2.2682 -0.6060
-5.4321 0.4423 -0.5689
-5.4176 0.4691 -0.5712
-5.4029 0.4961 -0.5734
-5.3695 0.5242 -0.5682
-5.3503 0.5514 -0.5685
-5.3355 0.5784 -0.5708
-5.3162 0.6056 -0.5711
-5.2969 0.6329 -0.5715
-5.2732 0.6599 -0.5700
-5.2582 0.6873 -0.5722
-5.2253 0.7132 -0.5665
-5.2154 0.7413 -0.5711
-5.1962 0.7684 -0.5714
-5.1769 0.7955 -0.5718
-5.1537 0.8219 -0.5703
-5.1297 0.8478 -0.5683
-5.1068 0.8738 -0.5668
-5.0962 0.9030 -0.5713
-5.0724 0.9286 -0.5694
-5.0460 0.9531 -0.5660
-5.0306 0.9811 -0.5682
-5.0081 1.0065 -0.5667
-4.9959 1.0363 -0.5708
-4.9734 1.0616 -0.5693
-4.9487 1.0855 -0.5663
-4.9297 1.1122 -0.5667
-4.9045 1.1351 -0.5632
-4.8857 1.1616 -0.5636
-4.8729 1.1922 -0.5677
-4.8592 1.2226 -0.5714
-4.8235 1.2366 -0.5609
-4.7567 1.3496 -0.5680
-4.7404 1.3788 -0.5702
-4.7164 1.4000 -0.5668
-4.6854 1.4121 -0.5576
-4.6877 1.4640 -0.5746
-4.6710 1.4939 -0.5769
-4.6284 1.5413 -0.5738
-4.6137 1.5747 -0.5780
-4.5946 1.6016 -0.5783
-4.5754 1.6285 -0.5787
-4.5563 1.6554 -0.5790
-4.5451 1.6981 -0.5875
-4.5221 1.7178 -0.5841
-4.4990 1.7362 -0.5801
-4.4799 1.7631 -0.5805
-4.4592 1.7860 -0.5789
-4.4436 1.8222 -0.5836
-4.4288 1.8619 -0.5897
-4.4108 1.8936 -0.5920
-4.3887 1.9121 -0.5885
-4.3668 1.9303 -0.5850
-4.3500 1.9666 -0.5892
-4.3307 1.9938 -0.5896
-4.3103 2.0162 -0.5880
-4.2900 2.0384 -0.5865
-4.2708 2.0655 -0.5868
-4.2505 2.0862 -0.5848
-4.2332 2.1247 -0.5895
-4.2155 2.1623 -0.5937
-5.2967 0.4987 -0.5642
-5.1160 0.7532 -0.5675
-4.9761 0.9268 -0.5624
-4.9556 0.9510 -0.5613
-4.8216 1.1569 -0.5695
-4.8088 1.1859 -0.5733
-4.7800 1.2030 -0.5661
-4.7572 1.2241 -0.5629
-4.7354 1.2455 -0.5603
-4.7178 1.2703 -0.5606
-4.7067 1.3015 -0.5660
-4.6755 1.3565 -0.5701
-4.6431 1.3645 -0.5584
-4.6297 1.3943 -0.5622
-4.6098 1.4161 -0.5606
-4.6017 1.4541 -0.5695
-4.5861 1.4825 -0.5718
-4.5718 1.5135 -0.5757
-4.5503 1.5329 -0.5725
-4.5343 1.5616 -0.5748
-4.5211 1.5958 -0.5802
-4.4294 1.7204 -0.5804
-4.2712 1.9714 -0.5926
-4.2131 2.0297 -0.5860
-4.1924 2.0369 -0.5792
-5.2609 0.4508 -0.5652
-5.2508 0.4743 -0.5687
-5.2382 0.4982 -0.5711
-5.2278 0.5222 -0.5745
-5.1990 0.5473 -0.5696
-5.1783 0.5717 -0.5684
-5.1578 0.5959 -0.5672
-5.1439 0.6202 -0.5690
-5.1202 0.6442 -0.5662
-5.1168 0.6692 -0.5733
-5.0891 0.6927 -0.5684
-5.0719 0.7169 -0.5688
-5.0548 0.7411 -0.5691
-5.0376 0.7653 -0.5694
-5.0233 0.7900 -0.5713
-5.0061 0.8143 -0.5716
-4.9889 0.8385 -0.5719
-4.9781 0.8645 -0.5759
-4.9608 0.8890 -0.5763
-4.9319 0.9095 -0.5698
-4.9112 0.9324 -0.5680
-4.8942 0.9564 -0.5683
-4.8805 0.9819 -0.5707
-4.8741 1.0111 -0.5779
-4.8362 1.0582 -0.5764
-4.8120 1.0784 -0.5720
-4.7994 1.1054 -0.5755
-4.7777 1.1266 -0.5727
-4.7606 1.1507 -0.5730
-4.7527 1.1820 -0.5802
-4.7284 1.2007 -0.5752
-4.7113 1.2249 -0.5755
-4.6894 1.2448 -0.5721
-4.6724 1.2688 -0.5725
-4.6553 1.2928 -0.5728
-4.6426 1.3217 -0.5768
-4.6332 1.3551 -0.5840
-4.6065 1.3678 -0.5759
-4.5893 1.3920 -0.5762
-4.5739 1.4184 -0.5781
-4.5567 1.4426 -0.5784
-4.5411 1.4693 -0.5803
-4.5208 1.4885 -0.5775
-4.5066 1.5178 -0.5810
-4.4866 1.5367 -0.5781
-4.4694 1.5608 -0.5784
-4.4549 1.5906 -0.5820
-4.4377 1.6148 -0.5823
-4.4217 1.6421 -0.5842
-4.4021 1.6603 -0.5813
-4.3838 1.6814 -0.5800
-4.3688 1.7119 -0.5836
-4.3526 1.7394 -0.5855
-4.3366 1.7681 -0.5880
-4.3171 1.7847 -0.5845
-4.2991 1.8055 -0.5832
-4.2835 1.8367 -0.5868
-4.2688 1.8729 -0.5925
-4.2490 1.8854 -0.5874
-4.2297 1.8985 -0.5829
-4.2126 1.9227 -0.5832
-4.1960 1.9506 -0.5852
-4.1788 1.9748 -0.5855
-5.1498 0.5224 -0.5693
-5.0874 0.6149 -0.5721
-5.0709 0.6381 -0.5724
-5.0450 0.6607 -0.5678
-5.0256 0.6835 -0.5665
-4.9901 0.7289 -0.5654
-4.9798 0.7526 -0.5690
-4.9605 0.7751 -0.5677
-4.8801 0.8621 -0.5595
-4.8237 0.9554 -0.5657
-4.8027 0.9759 -0.5627
-4.7842 0.9972 -0.5613
-4.7706 1.0210 -0.5633
-4.7108 1.1145 -0.5678
-4.6904 1.1340 -0.5648
-4.6785 1.1600 -0.5684
-4.6658 1.1856 -0.5715
-4.6443 1.2036 -0.5674
-4.6334 1.2313 -0.5721
-4.5960 1.2715 -0.5683
-4.5734 1.2864 -0.5624
-4.5575 1.3088 -0.5627
-4.5461 1.3372 -0.5675
-4.5333 1.3645 -0.5711
-4.5172 1.3872 -0.5714
-4.5011 1.4099 -0.5717
-4.4849 1.4327 -0.5720
-4.4645 1.4476 -0.5673
-4.4499 1.4728 -0.5693
-4.4379 1.5036 -0.5746
-4.4217 1.5264 -0.5749
-4.4030 1.5434 -0.5719
-4.3293 1.6781 -0.5846
-4.2308 1.8168 -0.5865
-4.2131 1.8325 -0.5834
-4.1980 1.8630 -0.5871
-5.1267 0.4773 -0.5715
-5.1179 0.4989 -0.5752
-5.0987 0.5214 -0.5738
-5.0773 0.5438 -0.5712
-5.0639 0.5659 -0.5727
-5.0514 0.5880 -0.5747
-5.0357 0.6102 -0.5750
-5.0167 0.6322 -0.5735
-4.9927 0.6539 -0.5692
-4.9915 0.6770 -0.5776
-4.9676 0.6984 -0.5733
-4.9569 0.7211 -0.5764
-4.9382 0.7429 -0.5750
-4.9311 0.7666 -0.5805
-4.9124 0.7883 -0.5791
-4.8864 0.8082 -0.5730
-4.8781 0.8321 -0.5779
-4.8623 0.8543 -0.5782
-4.8395 0.8742 -0.5739
-4.7968 0.9420 -0.5777
-4.7590 0.9831 -0.5736
-4.7457 1.0063 -0.5756
-4.7107 1.0479 -0.5733
-4.6952 1.0698 -0.5736
-4.6854 1.0959 -0.5786
-4.6732 1.1207 -0.5818
-4.6444 1.1322 -0.5710
-4.6343 1.1586 -0.5759
-4.6227 1.1842 -0.5797
-4.6070 1.2063 -0.5800
-4.5926 1.2297 -0.5815
-4.5720 1.2464 -0.5771
-4.5553 1.2669 -0.5762
-4.5397 1.2888 -0.5765
-4.5253 1.3122 -0.5780
-4.4931 1.3545 -0.5774
-4.4775 1.3764 -0.5777
-4.4630 1.4000 -0.5791
-4.4464 1.4202 -0.5783
-4.4318 1.4439 -0.5797
-4.4175 1.4686 -0.5818
-4.4053 1.4980 -0.5868
-4.3883 1.5174 -0.5853
-4.3781 1.5532 -0.5938
-4.3569 1.5616 -0.5859
-4.3444 1.5929 -0.5915
-4.3286 1.6153 -0.5918
-4.3118 1.6344 -0.5903
-4.2969 1.6599 -0.5924
-4.2754 1.6611 -0.5815
-4.2627 1.6944 -0.5877
-4.2477 1.7200 -0.5897
-4.2307 1.7363 -0.5871
-4.2151 1.7583 -0.5874
-4.1994 1.7804 -0.5877
-4.1837 1.8025 -0.5880
-4.1689 1.8310 -0.5912
-4.1547 1.8648 -0.5968
-5.0619 0.4799 -0.5672
-5.0528 0.5003 -0.5704
-5.0378 0.5214 -0.5707
-4.9947 0.5640 -0.5640
-4.9766 0.5848 -0.5625
-4.9694 0.6056 -0.5670
-4.9599 0.6266 -0.5703
-4.9481 0.6478 -0.5724
-4.9249 0.6683 -0.5678
-4.9131 0.6895 -0.5699
-4.8883 0.7092 -0.5642
-4.8765 0.7303 -0.5663
-4.8656 0.7518 -0.5690
-4.7941 0.8571 -0.5722
-4.7766 0.8772 -0.5706
-4.7453 0.9182 -0.5700
-4.7237 0.9639 -0.5766
-4.6467 1.0677 -0.5762
-4.6189 1.1114 -0.5786
-4.6006 1.1296 -0.5758
-4.5890 1.1536 -0.5791
-4.5690 1.1696 -0.5745
-4.5498 1.1859 -0.5705
-4.5393 1.2114 -0.5751
-4.5020 1.2837 -0.5839
-4.4779 1.2919 -0.5737
-4.4615 1.3103 -0.5722
-4.3932 1.4248 -0.5809
-4.3783 1.4458 -0.5812
-4.3354 1.5138 -0.5851
-4.3186 1.5298 -0.5823
-4.2305 1.6616 -0.5871
-4.2016 1.7099 -0.5908
-4.1865 1.7311 -0.5910
-4.1555 1.7672 -0.5885
-5.0163 0.4807 -0.5701
-5.0066 0.5004 -0.5729
-4.9877 0.5210 -0.5706
-4.9734 0.5412 -0.5709
-4.9558 0.5615 -0.5693
-4.9491 0.5814 -0.5740
-4.9326 0.6017 -0.5730
-4.9161 0.6218 -0.5720
-4.9018 0.6420 -0.5722
-4.8936 0.6626 -0.5763
-4.8752 0.6825 -0.5740
-4.8608 0.7027 -0.5743
-4.8446 0.7226 -0.5733
-4.8388 0.7442 -0.5793
-4.8216 0.7640 -0.5776
-4.8072 0.7843 -0.5779
-4.7909 0.8041 -0.5769
-4.7748 0.8239 -0.5759
-4.7622 0.8446 -0.5775
-4.7444 0.8637 -0.5752
-4.7301 0.8838 -0.5755
-4.7232 0.9071 -0.5814
-4.6872 0.9443 -0.5763
-4.6548 0.9824 -0.5736
-4.6420 1.0034 -0.5752
-4.6299 1.0249 -0.5773
-4.6220 1.0497 -0.5833
-4.5978 1.0626 -0.5747
-4.5836 1.0826 -0.5750
-4.5681 1.1015 -0.5739
-4.5622 1.1293 -0.5825
-4.5478 1.1496 -0.5828
-4.5365 1.1731 -0.5862
-4.5190 1.1902 -0.5833
-4.5034 1.2091 -0.5823
-4.4851 1.2243 -0.5781
-4.4758 1.2511 -0.5841
-4.4640 1.2752 -0.5876
-4.4470 1.2916 -0.5847
-4.4306 1.3087 -0.5824
-4.4215 1.3380 -0.5897
-4.4038 1.3525 -0.5855
-4.3884 1.3711 -0.5845
-4.3723 1.3877 -0.5822
-4.3605 1.4134 -0.5863
-4.3473 1.4365 -0.5885
-4.3317 1.4540 -0.5868
-4.3173 1.4743 -0.5871
-4.3029 1.4946 -0.5874
-4.2895 1.5180 -0.5896
-4.2757 1.5405 -0.5911
-4.2606 1.5587 -0.5901
-4.2441 1.5713 -0.5859
-4.2293 1.5893 -0.5848
-4.2149 1.6094 -0.5851
-4.2006 1.6296 -0.5854
-4.1863 1.6497 -0.5857
-4.1728 1.6748 -0.5885
-4.1585 1.6950 -0.5888
-4.1441 1.7153 -0.5890
-4.1294 1.7329 -0.5880
-4.9595 0.4832 -0.5646
-4.9550 0.5014 -0.5701
-4.9320 0.5398 -0.5732
-4.8865 0.5979 -0.5714
-4.8665 0.6171 -0.5677
-4.8550 0.6364 -0.5692
-4.8258 0.6954 -0.5779
-4.7830 0.7318 -0.5679
-4.7638 0.7498 -0.5642
-4.7503 0.7688 -0.5644
-4.7404 0.7887 -0.5673
-4.7234 0.8068 -0.5649
-4.7030 0.8236 -0.5599
-4.6896 0.8663 -0.5710
-4.6662 0.8813 -0.5633
-4.6560 0.9017 -0.5662
-4.6305 0.9405 -0.5680
-4.6125 0.9569 -0.5643
-4.5991 0.9758 -0.5646
-4.5929 0.9995 -0.5714
-4.5765 1.0166 -0.5690
-4.5657 1.0378 -0.5720
-4.5468 1.0525 -0.5669
-4.5346 1.0726 -0.5685
-4.5173 1.0880 -0.5647
-4.4894 1.1244 -0.5639
-4.4784 1.1459 -0.5668
-4.4695 1.1703 -0.5724
-4.4538 1.1865 -0.5700
-4.4457 1.2128 -0.5769
-4.4279 1.2260 -0.5718
-4.4048 1.2705 -0.5777
-4.3864 1.2814 -0.5712
-4.3729 1.3004 -0.5715
-4.3638 1.3281 -0.5784
-4.3536 1.3545 -0.5841
-4.3374 1.3684 -0.5803
-4.3229 1.3858 -0.5792
-4.1913 1.6025 -0.5959
-4.1773 1.6222 -0.5962
-4.1638 1.6443 -0.5978
-4.1342 1.6725 -0.5922
-4.9584 0.4452 -0.5732
-4.9475 0.4635 -0.5748
-4.9319 0.4825 -0.5737
-4.9187 0.5012 -0.5739
-4.9032 0.5201 -0.5728
-4.8856 0.5390 -0.5703
-4.8768 0.5573 -0.5733
-4.8614 0.5760 -0.5722
-4.8503 0.5945 -0.5738
-4.8371 0.6132 -0.5740
-4.8259 0.6319 -0.5757
-4.8147 0.6507 -0.5773
-4.8014 0.6694 -0.5775
-4.7842 0.6876 -0.5750
-4.7691 0.7060 -0.5739
-4.7578 0.7249 -0.5755
-4.7446 0.7435 -0.5758
-4.7295 0.7617 -0.5746
-4.7181 0.7807 -0.5763
-4.7032 0.7989 -0.5751
-4.6785 0.8366 -0.5770
-4.6585 0.8766 -0.5830
-4.6256 0.9111 -0.5780
-4.6139 0.9305 -0.5796
-4.5845 0.9660 -0.5774
-4.5727 0.9855 -0.5790
-4.5609 1.0052 -0.5806
-4.5545 1.0291 -0.5878
-4.5384 1.0458 -0.5853
-4.5041 1.0763 -0.5775
-4.4515 1.1504 -0.5784
-4.4099 1.2029 -0.5764
-4.3999 1.2260 -0.5808
-4.3877 1.2462 -0.5825
-4.3754 1.2665 -0.5841
-4.3621 1.2851 -0.5844
-4.3515 1.3090 -0.5888
-4.3407 1.3332 -0.5932
-4.3232 1.3430 -0.5865
-4.3122 1.3673 -0.5909
-4.2959 1.3785 -0.5856
-4.2826 1.3971 -0.5858
-4.2700 1.4178 -0.5875
-4.2555 1.4324 -0.5849
-4.2435 1.4552 -0.5880
-4.2313 1.4782 -0.5910
-4.2180 1.4970 -0.5913
-4.2052 1.5181 -0.5929
-4.1903 1.5301 -0.5890
-4.1761 1.5441 -0.5864
-4.1629 1.5627 -0.5867
-4.1501 1.5838 -0.5883
-4.1375 1.6074 -0.5914
-4.1242 1.6262 -0.5916
-4.1112 1.6475 -0.5933
-4.8998 0.4506 -0.5627
-4.8850 0.4685 -0.5616
-4.8747 0.5021 -0.5713
-4.8576 0.5203 -0.5687
-4.8417 0.5383 -0.5668
-4.8443 0.5553 -0.5770
-4.8293 0.5734 -0.5758
-4.8071 0.5914 -0.5696
-4.7997 0.6093 -0.5734
-4.7890 0.6272 -0.5751
-4.7713 0.6449 -0.5717
-4.7567 0.6625 -0.5705
-4.7479 0.6807 -0.5736
-4.7333 0.6983 -0.5724
-4.7126 0.7348 -0.5765
-4.6972 0.7522 -0.5746
-4.6574 0.8052 -0.5739
-4.6448 0.8230 -0.5741
-4.6106 0.8550 -0.5667
-4.5997 0.8732 -0.5684
-4.5926 0.8935 -0.5736
-4.5732 0.9077 -0.5674
-4.5599 0.9500 -0.5794
-4.5386 0.9622 -0.5710
-4.5309 0.9834 -0.5762
-4.5230 1.0048 -0.5815
-4.4822 1.0564 -0.5794
-4.4610 1.0657 -0.5695
-4.4467 1.0814 -0.5676
-4.4360 1.1009 -0.5700
-4.4286 1.1246 -0.5767
-4.4187 1.1458 -0.5805
-4.4018 1.1579 -0.5750
-4.3892 1.1756 -0.5752
-4.3665 1.2150 -0.5793
-4.3529 1.2312 -0.5781
-4.2805 1.3464 -0.5861
-4.2289 1.4162 -0.5856
-4.2161 1.4342 -0.5858
-4.2045 1.4565 -0.5889
-4.1657 1.5082 -0.5882
-4.1519 1.5203 -0.5848
-4.1394 1.5393 -0.5858
-4.1274 1.5621 -0.5889
-4.1149 1.5826 -0.5906
-4.8816 0.4497 -0.5749
-4.8623 0.4681 -0.5707
-4.8535 0.4849 -0.5731
-4.8424 0.5020 -0.5741
-4.8268 0.5196 -0.5721
-4.8146 0.5368 -0.5723
-4.8013 0.5541 -0.5718
-4.7933 0.5712 -0.5750
-4.7831 0.5884 -0.5767
-4.7677 0.6057 -0.5747
-4.7535 0.6229 -0.5735
-4.7432 0.6403 -0.5752
-4.7290 0.6574 -0.5739
-4.7216 0.6751 -0.5779
-4.7074 0.6922 -0.5766
-4.6914 0.7089 -0.5739
-4.6819 0.7266 -0.5763
-4.6697 0.7439 -0.5766
-4.6583 0.7613 -0.5775
-4.6512 0.7801 -0.5822
-4.6329 0.7957 -0.5772
-4.6148 0.8109 -0.5723
-4.6092 0.8305 -0.5784
-4.5937 0.8465 -0.5757
-4.5799 0.8629 -0.5744
-4.5754 0.8839 -0.5821
-4.5601 0.8997 -0.5794
-4.5522 0.9195 -0.5841
-4.5312 0.9316 -0.5754
-4.5151 0.9718 -0.5848
-4.5027 0.9892 -0.5850
-4.4845 1.0018 -0.5785
-4.4780 1.0241 -0.5855
-4.4656 1.0415 -0.5857
-4.4368 1.0719 -0.5809
-4.4251 1.0898 -0.5819
-4.4128 1.1071 -0.5821
-4.4016 1.1258 -0.5839
-4.3861 1.1388 -0.5796
-4.3744 1.1568 -0.5806
-4.3598 1.1701 -0.5770
-4.3514 1.1936 -0.5833
-4.3378 1.2084 -0.5813
-4.3264 1.2273 -0.5830
-4.3133 1.2429 -0.5817
-4.3040 1.2663 -0.5872
-4.2900 1.2800 -0.5844
-4.2774 1.2964 -0.5839
-4.2677 1.3203 -0.5894
-4.2553 1.3377 -0.5896
-4.2400 1.3462 -0.5831
-4.2305 1.3726 -0.5901
-4.2170 1.3858 -0.5873
-4.2052 1.4053 -0.5891
-4.1916 1.4173 -0.5855
-4.1801 1.4379 -0.5880
-4.1682 1.4575 -0.5897
-4.1559 1.4748 -0.5900
-4.1431 1.4899 -0.5887
-4.1316 1.5120 -0.5920
-4.1197 1.5331 -0.5945
-4.1073 1.5506 -0.5947
-4.0942 1.5617 -0.5911
-4.8472 0.4373 -0.5678
-4.8319 0.4544 -0.5657
-4.8203 0.4708 -0.5659
-4.8154 0.4863 -0.5707
-4.8014 0.5032 -0.5694
-4.7863 0.5200 -0.5673
-4.7681 0.5370 -0.5629
-4.7619 0.5530 -0.5670
-4.7576 0.5692 -0.5726
-4.7448 0.5858 -0.5720
-4.7361 0.6024 -0.5746
-4.7075 0.6354 -0.5712
-4.6977 0.6521 -0.5729
-4.6831 0.6684 -0.5708
-4.6685 0.6845 -0.5687
-4.6522 0.7002 -0.5651
-4.6406 0.7166 -0.5653
-4.6335 0.7339 -0.5694
-4.6192 0.7497 -0.5673
-4.6084 0.7663 -0.5683
-4.5959 0.7824 -0.5677
-4.5802 0.7974 -0.5641
-4.5727 0.8151 -0.5682
-4.5611 0.8315 -0.5684
-4.5502 0.8482 -0.5694
-4.5401 0.8654 -0.5711
-4.5262 0.8806 -0.5690
-4.5109 0.8949 -0.5654
-4.4987 0.9107 -0.5648
-4.4920 0.9302 -0.5705
-4.4783 0.9451 -0.5684
-4.4701 0.9640 -0.5725
-4.4584 0.9805 -0.5727
-4.4276 1.0340 -0.5788
-4.4117 1.0462 -0.5736
-4.4035 1.0666 -0.5784
-4.3889 1.0798 -0.5748
-4.3772 1.0963 -0.5750
-4.3624 1.1084 -0.5705
-4.3554 1.1314 -0.5778
-4.3431 1.1472 -0.5772
-4.3291 1.1597 -0.5735
-4.3183 1.1778 -0.5753
-4.3093 1.1992 -0.5802
-4.3000 1.2209 -0.5851
-4.2894 1.2403 -0.5876
-4.2529 1.2887 -0.5868
-4.2400 1.3026 -0.5846
-4.2272 1.3162 -0.5825
-4.2151 1.3318 -0.5820
-4.2028 1.3463 -0.5806
-4.1941 1.3745 -0.5894
-4.1824 1.3924 -0.5904
-4.1583 1.4249 -0.5901
-4.1341 1.4561 -0.5890
-3.7374 0.0229 -0.3224
-3.7307 0.0308 -0.3233
-3.7243 0.0399 -0.3234
-3.7181 0.0499 -0.3228
-3.7117 0.0589 -0.3229
-3.7040 0.0639 -0.3260
-3.6966 0.0701 -0.3284
-3.6890 0.0764 -0.3309
-3.6817 0.0838 -0.3325
-3.6751 0.0931 -0.3326
-3.6685 0.1023 -0.3327
-3.6607 0.1090 -0.3352
-3.6523 0.1150 -0.3383
-3.6469 0.1269 -0.3362
-3.6388 0.1339 -0.3386
-3.6312 0.1418 -0.3402
-3.6244 0.1512 -0.3403
-3.6166 0.1593 -0.3420
-3.6093 0.1681 -0.3429
-3.6014 0.1763 -0.3445
-3.5929 0.1839 -0.3470
-3.5844 0.1917 -0.3494
-3.5786 0.2026 -0.3480
-3.5705 0.2111 -0.3496
-3.5635 0.2208 -0.3498
-3.5528 0.2273 -0.3545
-3.5464 0.2377 -0.3539
-3.5400 0.2480 -0.3532
-3.5126 0.2736 -0.3605
-3.4975 0.2933 -0.3616
-3.4873 0.3019 -0.3648
-3.4770 0.3106 -0.3680
-3.4371 0.3354 -0.3854
-3.4428 0.3501 -0.3731
-3.4262 0.3704 -0.3750
-3.4086 0.3907 -0.3775
-3.3993 0.4009 -0.3792
-3.3890 0.4111 -0.3817
-3.3795 0.4215 -0.3834
-3.3719 0.4321 -0.3835
-3.3663 0.4429 -0.3821
-3.3547 0.4534 -0.3853
-3.3343 0.4748 -0.3895
-3.3235 0.4858 -0.3919
-3.3136 0.4968 -0.3936
-3.3025 0.5080 -0.3961
-3.2925 0.5192 -0.3978
-3.2791 0.5309 -0.4018
-3.2666 0.5426 -0.4051
-3.2632 0.5531 -0.4021
-3.2529 0.5647 -0.4038
-3.2449 0.5758 -0.4040
-3.2297 0.5885 -0.4088
-3.2180 0.6007 -0.4113
-3.7285 0.0303 -0.3119
-3.7220 0.0393 -0.3120
-3.7159 0.0493 -0.3114
-3.7092 0.0573 -0.3122
-3.7015 0.0623 -0.3153
-3.6950 0.0714 -0.3154
-3.6875 0.0776 -0.3177
-3.6820 0.0896 -0.3156
-3.6740 0.0950 -0.3187
-3.6671 0.1033 -0.3195
-3.6593 0.1099 -0.3219
-3.6522 0.1183 -0.3227
-3.6443 0.1252 -0.3251
-3.6371 0.1337 -0.3259
-3.6304 0.1431 -0.3260
-3.6223 0.1503 -0.3284
-3.6165 0.1612 -0.3270
-3.6077 0.1678 -0.3301
-3.5851 0.1937 -0.3334
-3.5765 0.2015 -0.3358
-3.5696 0.2111 -0.3359
-3.5627 0.2208 -0.3360
-3.5539 0.2288 -0.3384
-3.5463 0.2380 -0.3392
-3.5380 0.2467 -0.3409
-3.5289 0.2551 -0.3432
-3.5212 0.2645 -0.3441
-3.5141 0.2744 -0.3442
-3.5049 0.2830 -0.3466
-3.4955 0.2918 -0.3489
-3.4868 0.3011 -0.3505
-3.4757 0.3095 -0.3544
-3.4629 0.3174 -0.3597
-3.4391 0.3351 -0.3682
-3.4407 0.3484 -0.3601
-3.4376 0.3599 -0.3565
-3.4260 0.3691 -0.3604
-3.4195 0.3796 -0.3598
-3.4085 0.3893 -0.3629
-3.3964 0.3990 -0.3668
-3.3879 0.4094 -0.3676
-3.3785 0.4198 -0.3693
-3.3700 0.4303 -0.3702
-3.3594 0.4407 -0.3725
-3.3538 0.4515 -0.3712
-3.3441 0.4621 -0.3728
-3.3344 0.4728 -0.3744
-3.3236 0.4837 -0.3768
-3.3170 0.4944 -0.3762
-3.3038 0.5056 -0.3801
-3.2939 0.5167 -0.3818
-3.2849 0.5278 -0.3826
-3.2726 0.5393 -0.3858
-3.2601 0.5511 -0.3889
-3.2556 0.5616 -0.3868
-3.2465 0.5729 -0.3877
-3.2386 0.5840 -0.3879
-3.2222 0.5970 -0.3933
-3.7340 0.0275 -0.2961
-3.7142 0.0508 -0.2986
-3.7076 0.0587 -0.2994
-3.7006 0.0656 -0.3010
-3.6941 0.0746 -0.3011
-3.6863 0.0798 -0.3040
-3.6795 0.0879 -0.3049
-3.6719 0.0942 -0.3071
-3.6665 0.1061 -0.3051
-3.6592 0.1134 -0.3066
-3.6518 0.1209 -0.3082
-3.6439 0.1276 -0.3104
-3.6368 0.1360 -0.3113
-3.6302 0.1453 -0.3114
-3.6226 0.1531 -0.3129
-3.6149 0.1609 -0.3145
-3.6072 0.1689 -0.3160
-3.6015 0.1796 -0.3147
-3.5932 0.1870 -0.3170
-3.5687 0.2111 -0.3223
-3.5618 0.2207 -0.3224
-3.5544 0.2298 -0.3233
-3.5462 0.2383 -0.3248
-3.5393 0.2480 -0.3250
-3.5303 0.2562 -0.3272
-3.5220 0.2650 -0.3288
-3.5150 0.2748 -0.3289
-3.5050 0.2829 -0.3319
-3.4965 0.2920 -0.3335
-3.4784 0.3100 -0.3373
-3.4633 0.3168 -0.3446
-3.4403 0.3345 -0.3521
-3.4396 0.3470 -0.3465
-3.4348 0.3580 -0.3444
-3.4310 0.3691 -0.3417
-3.4220 0.3789 -0.3432
-3.4129 0.3887 -0.3448
-3.4019 0.3984 -0.3478
-3.3898 0.4081 -0.3516
-3.3700 0.4286 -0.3554
-3.3634 0.4391 -0.3548
-3.3529 0.4496 -0.3571
-3.3422 0.4601 -0.3595
-3.3367 0.4708 -0.3581
-3.3259 0.4815 -0.3604
-3.3151 0.4924 -0.3628
-3.3008 0.5036 -0.3672
-3.2920 0.5146 -0.3681
-3.2830 0.5256 -0.3690
-3.2752 0.5366 -0.3691
-3.2674 0.5475 -0.3692
-3.2549 0.5592 -0.3723
-3.2458 0.5704 -0.3731
-3.2355 0.5820 -0.3747
-3.2252 0.5936 -0.3763
-3.7384 0.0193 -0.2842
-3.7328 0.0315 -0.2823
-3.7258 0.0369 -0.2844
-3.7192 0.0446 -0.2852
-3.7126 0.0524 -0.2860
-3.7060 0.0602 -0.2868
-3.6994 0.0680 -0.2876
-3.6920 0.0740 -0.2898
-3.6845 0.0800 -0.2919
-3.6785 0.0900 -0.2914
-3.6720 0.0990 -0.2915
-3.6652 0.1071 -0.2923
-3.6592 0.1170 -0.2917
-3.6510 0.1226 -0.2946
-3.6436 0.1300 -0.2960
-3.6361 0.1376 -0.2975
-3.6300 0.1475 -0.2970
-3.6139 0.1614 -0.3013
-3.5922 0.1873 -0.3037
-3.5844 0.1954 -0.3052
-3.5777 0.2048 -0.3053
-3.5685 0.2118 -0.3082
-3.5442 0.2371 -0.3127
-3.5276 0.2544 -0.3157
-3.5207 0.2641 -0.3158
-3.5130 0.2734 -0.3167
-3.5060 0.2832 -0.3168
-3.4968 0.2917 -0.3190
-3.4890 0.3012 -0.3198
-3.4820 0.3110 -0.3199
-3.4677 0.3179 -0.3263
-3.4410 0.3465 -0.3308
-3.4363 0.3574 -0.3289
-3.4291 0.3675 -0.3290
-3.4219 0.3776 -0.3291
-3.4101 0.3868 -0.3327
-3.4009 0.3968 -0.3342
-3.3907 0.4067 -0.3364
-3.3785 0.4165 -0.3400
-3.3625 0.4373 -0.3410
-3.3560 0.4478 -0.3404
-3.3455 0.4583 -0.3427
-3.3369 0.4688 -0.3435
-3.3272 0.4794 -0.3450
-3.3164 0.4902 -0.3472
-3.3077 0.5009 -0.3481
-3.3023 0.5114 -0.3468
-3.2902 0.5225 -0.3497
-3.2802 0.5335 -0.3513
-3.2714 0.5445 -0.3521
-3.2464 0.5678 -0.3580
-3.2337 0.5797 -0.3609
-3.2221 0.5915 -0.3631
-3.2179 0.6018 -0.3612
-3.7375 0.0257 -0.2692
-3.7311 0.0332 -0.2700
-3.7241 0.0386 -0.2720
-3.7176 0.0462 -0.2728
-3.7108 0.0529 -0.2742
-3.6972 0.0674 -0.2764
-3.6905 0.0753 -0.2772
-3.6838 0.0832 -0.2780
-3.6767 0.0902 -0.2794
-3.6695 0.0973 -0.2808
-3.6631 0.1063 -0.2809
-3.6567 0.1153 -0.2810
-3.6498 0.1235 -0.2818
-3.6424 0.1309 -0.2833
-3.6350 0.1383 -0.2847
-3.6285 0.1474 -0.2848
-3.6215 0.1558 -0.2856
-3.6063 0.1712 -0.2884
-3.5991 0.1797 -0.2892
-3.5908 0.1869 -0.2913
-3.5830 0.1950 -0.2928
-3.5775 0.2056 -0.2916
-3.5690 0.2131 -0.2937
-3.5597 0.2201 -0.2964
-3.5536 0.2302 -0.2959
-3.5468 0.2396 -0.2960
-3.5291 0.2556 -0.3002
-3.5139 0.2739 -0.3018
-3.5071 0.2835 -0.3019
-3.4986 0.2923 -0.3034
-3.4886 0.3005 -0.3061
-3.4816 0.3103 -0.3063
-3.4698 0.3181 -0.3104
-3.4421 0.3333 -0.3213
-3.4371 0.3565 -0.3142
-3.4209 0.3761 -0.3158
-3.4091 0.3853 -0.3193
-3.4027 0.3956 -0.3187
-3.3936 0.4055 -0.3202
-3.3853 0.4156 -0.3210
-3.3750 0.4256 -0.3231
-3.3667 0.4358 -0.3239
-3.3552 0.4460 -0.3267
-3.3478 0.4564 -0.3269
-3.3372 0.4668 -0.3290
-3.3307 0.4773 -0.3285
-3.3189 0.4880 -0.3313
-3.3092 0.4986 -0.3328
-3.3016 0.5092 -0.3329
-3.2906 0.5202 -0.3350
-3.2807 0.5311 -0.3365
-3.2660 0.5428 -0.3407
-3.2607 0.5533 -0.3395
-3.2541 0.5639 -0.3389
-3.2379 0.5763 -0.3438
-3.2301 0.5872 -0.3439
-3.7292 0.0339 -0.2585
-3.7225 0.0403 -0.2598
-3.7166 0.0501 -0.2593
-3.7101 0.0576 -0.2600
-3.7030 0.0632 -0.2620
-3.6964 0.0709 -0.2628
-3.6895 0.0776 -0.2642
-3.6754 0.0914 -0.2669
-3.6694 0.1013 -0.2664
-3.6627 0.1092 -0.2671
-3.6563 0.1181 -0.2672
-3.6491 0.1253 -0.2686
-3.6418 0.1325 -0.2700
-3.6349 0.1407 -0.2707
-3.6270 0.1473 -0.2727
-3.6205 0.1564 -0.2729
-3.6135 0.1647 -0.2736
-3.6059 0.1724 -0.2750
-3.5977 0.1794 -0.2770
-3.5894 0.1866 -0.2790
-3.5833 0.1965 -0.2785
-3.5676 0.2126 -0.2813
-3.5597 0.2207 -0.2827
-3.5529 0.2301 -0.2828
-3.5449 0.2384 -0.2842
-3.5375 0.2473 -0.2849
-3.5293 0.2558 -0.2863
-3.5203 0.2639 -0.2884
-3.5120 0.2726 -0.2898
-3.5044 0.2817 -0.2905
-3.4960 0.2906 -0.2919
-3.4890 0.3002 -0.2920
-3.4813 0.3096 -0.2928
-3.4719 0.3183 -0.2948
-3.4499 0.3224 -0.3064
-3.4410 0.3320 -0.3079
-3.4449 0.3457 -0.2997
-3.4378 0.3556 -0.2998
-3.4271 0.3647 -0.3025
-3.4190 0.3745 -0.3033
-3.4109 0.3843 -0.3040
-3.4037 0.3944 -0.3041
-3.3936 0.4041 -0.3062
-3.3864 0.4142 -0.3063
-3.3752 0.4240 -0.3090
-3.3668 0.4342 -0.3098
-3.3616 0.4445 -0.3086
-3.3491 0.4546 -0.3120
-3.3396 0.4649 -0.3134
-3.3278 0.4754 -0.3161
-3.3204 0.4858 -0.3162
-3.3085 0.4966 -0.3189
-3.3009 0.5071 -0.3191
-3.2934 0.5176 -0.3192
-3.2824 0.5286 -0.3213
-3.2724 0.5395 -0.3227
-3.2660 0.5500 -0.3222
-3.2572 0.5609 -0.3230
-3.2496 0.5715 -0.3231
-3.2407 0.5824 -0.3239
-3.7340 0.0283 -0.2458
-3.7207 0.0410 -0.2484
-3.7145 0.0496 -0.2485
-3.7081 0.0571 -0.2492
-3.7012 0.0637 -0.2505
-3.6947 0.0713 -0.2512
-3.6881 0.0790 -0.2519
-3.6815 0.0868 -0.2526
-3.6760 0.0974 -0.2516
-3.6690 0.1043 -0.2529
-3.6606 0.1085 -0.2560
-3.6547 0.1182 -0.2555
-3.6475 0.1254 -0.2568
-3.6407 0.1334 -0.2575
-3.6338 0.1415 -0.2583
-3.6265 0.1489 -0.2596
-3.6200 0.1578 -0.2597
-3.6131 0.1661 -0.2604
-3.6056 0.1736 -0.2618
-3.5980 0.1812 -0.2631
-3.5926 0.1917 -0.2620
-3.5832 0.1974 -0.2651
-3.5754 0.2053 -0.2665
-3.5590 0.2208 -0.2697
-3.5517 0.2295 -0.2705
-3.5450 0.2389 -0.2706
-3.5376 0.2477 -0.2713
-3.5288 0.2556 -0.2733
-3.5199 0.2636 -0.2752
-3.5109 0.2717 -0.2772
-3.5040 0.2813 -0.2773
-3.4979 0.2912 -0.2768
-3.4811 0.3089 -0.2795
-3.4709 0.3172 -0.2820
-3.4496 0.3215 -0.2926
-3.4416 0.3313 -0.2933
-3.4413 0.3436 -0.2885
-3.4368 0.3543 -0.2868
-3.4289 0.3640 -0.2876
-3.4199 0.3735 -0.2889
-3.4110 0.3831 -0.2903
-3.4057 0.3934 -0.2892
-3.3986 0.4033 -0.2893
-3.3885 0.4129 -0.2913
-3.3774 0.4226 -0.2938
-3.3701 0.4327 -0.2940
-3.3629 0.4428 -0.2941
-3.3504 0.4528 -0.2973
-3.3431 0.4630 -0.2974
-3.3347 0.4733 -0.2982
-3.3241 0.4837 -0.3002
-3.3014 0.5049 -0.3047
-3.2962 0.5152 -0.3036
-3.2876 0.5257 -0.3044
-3.2619 0.5483 -0.3102
-3.2579 0.5583 -0.3085
-3.2417 0.5705 -0.3130
-3.2403 0.5800 -0.3100
-3.2301 0.5911 -0.3114
-3.7258 0.0365 -0.2352
-3.7191 0.0427 -0.2364
-3.7121 0.0480 -0.2383
-3.7063 0.0577 -0.2378
-3.6998 0.0652 -0.2385
-3.6937 0.0738 -0.2386
-3.6868 0.0804 -0.2399
-3.6791 0.0852 -0.2423
-3.6732 0.0949 -0.2418
-3.6678 0.1055 -0.2408
-3.6607 0.1123 -0.2420
-3.6536 0.1193 -0.2433
-3.6455 0.1246 -0.2457
-3.6397 0.1343 -0.2453
-3.6324 0.1415 -0.2465
-3.6260 0.1504 -0.2466
-3.6186 0.1577 -0.2479
-3.6117 0.1659 -0.2486
-3.6047 0.1741 -0.2493
-3.5977 0.1824 -0.2500
-3.5836 0.1991 -0.2514
-3.5759 0.2069 -0.2527
-3.5682 0.2147 -0.2539
-3.5590 0.2215 -0.2564
-3.5458 0.2399 -0.2566
-3.5357 0.2465 -0.2596
-3.5283 0.2554 -0.2603
-3.5202 0.2638 -0.2616
-3.5142 0.2736 -0.2612
-3.5044 0.2813 -0.2636
-3.5008 0.2924 -0.2614
-3.4901 0.2998 -0.2644
-3.4808 0.3082 -0.2663
-3.4494 0.3206 -0.2788
-3.4422 0.3306 -0.2790
-3.4385 0.3418 -0.2767
-3.4307 0.3633 -0.2729
-3.4246 0.3733 -0.2724
-3.4157 0.3827 -0.2737
-3.4068 0.3922 -0.2750
-3.3978 0.4018 -0.2763
-3.3897 0.4116 -0.2770
-3.3786 0.4211 -0.2795
-3.3673 0.4308 -0.2820
-3.3601 0.4410 -0.2821
-3.3497 0.4510 -0.2840
-3.3413 0.4612 -0.2847
-3.3341 0.4714 -0.2849
-3.3234 0.4817 -0.2868
-3.3161 0.4920 -0.2869
-3.3088 0.5022 -0.2870
-3.3003 0.5126 -0.2877
-3.2859 0.5237 -0.2914
-3.2737 0.5347 -0.2939
-3.2698 0.5447 -0.2923
-3.2574 0.5560 -0.2948
-3.2348 0.5785 -0.2986
-3.7313 0.0346 -0.2212
-3.7242 0.0383 -0.2235
-3.7176 0.0445 -0.2247
-3.7119 0.0541 -0.2242
-3.6978 0.0647 -0.2278
-3.6906 0.0702 -0.2295
-3.6844 0.0789 -0.2296
-3.6778 0.0865 -0.2303
-3.6720 0.0962 -0.2298
-3.6658 0.1048 -0.2299
-3.6596 0.1135 -0.2301
-3.6525 0.1204 -0.2313
-3.6458 0.1282 -0.2319
-3.6391 0.1361 -0.2326
-3.6324 0.1440 -0.2333
-3.6235 0.1488 -0.2361
-3.6167 0.1569 -0.2368
-3.6097 0.1650 -0.2375
-3.6022 0.1725 -0.2387
-3.5952 0.1808 -0.2393
-3.5894 0.1905 -0.2389
-3.5812 0.1974 -0.2407
-3.5741 0.2058 -0.2413
-3.5689 0.2161 -0.2404
-3.5598 0.2228 -0.2427
-3.5526 0.2313 -0.2434
-3.5454 0.2399 -0.2440
-3.5367 0.2475 -0.2458
-3.5286 0.2557 -0.2470
-3.5198 0.2635 -0.2488
-3.5109 0.2714 -0.2506
-3.5026 0.2800 -0.2518
-3.4974 0.2903 -0.2508
-3.4891 0.2989 -0.2521
-3.4807 0.3076 -0.2533
-3.4730 0.3167 -0.2540
-3.4509 0.3204 -0.2642
-3.4429 0.3300 -0.2648
-3.4385 0.3408 -0.2633
-3.4404 0.3533 -0.2578
-3.4317 0.3625 -0.2591
-3.4210 0.3713 -0.2614
-3.4130 0.3809 -0.2621
-3.4089 0.3912 -0.2606
-3.3990 0.4006 -0.2624
-3.3870 0.4098 -0.2653
-3.3829 0.4200 -0.2637
-3.3625 0.4394 -0.2674
-3.3543 0.4493 -0.2680
-3.3429 0.4593 -0.2704
-3.3345 0.4695 -0.2711
-3.3228 0.4797 -0.2735
-3.3155 0.4900 -0.2736
-3.3082 0.5002 -0.2737
-3.3009 0.5104 -0.2739
-3.2901 0.5210 -0.2757
-3.2779 0.5319 -0.2781
-3.2643 0.5525 -0.2778
-3.2394 0.5751 -0.2826
-3.7287 0.0319 -0.2118
-3.7225 0.0391 -0.2125
-3.7162 0.0463 -0.2131
-3.7098 0.0537 -0.2137
-3.7038 0.0621 -0.2138
-3.6981 0.0716 -0.2134
-3.6918 0.0790 -0.2140
-3.6846 0.0844 -0.2157
-3.6778 0.0909 -0.2169
-3.6712 0.0985 -0.2175
-3.6647 0.1061 -0.2181
-3.6568 0.1110 -0.2203
-3.6519 0.1224 -0.2189
-3.6448 0.1292 -0.2200
-3.6382 0.1370 -0.2207
-3.6310 0.1441 -0.2218
-3.6237 0.1512 -0.2230
-3.6174 0.1600 -0.2231
-3.6095 0.1665 -0.2248
-3.6020 0.1738 -0.2259
-3.5957 0.1827 -0.2261
-3.5887 0.1909 -0.2267
-3.5741 0.2068 -0.2285
-3.5651 0.2132 -0.2307
-3.5586 0.2223 -0.2308
-3.5507 0.2302 -0.2320
-3.5435 0.2388 -0.2327
-3.5370 0.2479 -0.2328
-3.5297 0.2565 -0.2334
-3.5046 0.2809 -0.2375
-3.4956 0.2890 -0.2392
-3.4897 0.2987 -0.2388
-3.4822 0.3077 -0.2394
-3.4721 0.3157 -0.2417
-3.4516 0.3199 -0.2503
-3.4428 0.3291 -0.2515
-3.4402 0.3404 -0.2489
-3.4386 0.3518 -0.2459
-3.4317 0.3614 -0.2460
-3.4161 0.3803 -0.2473
-3.4101 0.3901 -0.2469
-3.4002 0.3994 -0.2486
-3.3903 0.4087 -0.2503
-3.3822 0.4184 -0.2510
-3.3773 0.4284 -0.2500
-3.3629 0.4377 -0.2539
-3.3569 0.4477 -0.2535
-3.3487 0.4576 -0.2542
-3.3383 0.4675 -0.2559
-3.3278 0.4776 -0.2576
-3.3184 0.4878 -0.2588
-3.3077 0.4982 -0.2606
-3.2992 0.5084 -0.2612
-3.2872 0.5191 -0.2635
-3.2823 0.5291 -0.2626
-3.2761 0.5392 -0.2622
-3.2688 0.5494 -0.2623
-3.2615 0.5597 -0.2624
-3.2504 0.5706 -0.2642
-3.7210 0.0410 -0.2010
-3.7153 0.0504 -0.2007
-3.7091 0.0576 -0.2013
-3.7018 0.0616 -0.2033
-3.6955 0.0690 -0.2039
-3.6898 0.0784 -0.2036
-3.6830 0.0848 -0.2047
-3.6766 0.0923 -0.2053
-3.6701 0.0998 -0.2059
-3.6632 0.1064 -0.2070
-3.6566 0.1140 -0.2076
-3.6368 0.1372 -0.2094
-3.6296 0.1441 -0.2105
-3.6234 0.1528 -0.2106
-3.6166 0.1607 -0.2112
-3.6104 0.1694 -0.2113
-3.6030 0.1766 -0.2124
-3.5956 0.1840 -0.2135
-3.5875 0.1907 -0.2151
-3.5805 0.1989 -0.2158
-3.5722 0.2058 -0.2174
-3.5658 0.2147 -0.2175
-3.5567 0.2213 -0.2196
-3.5503 0.2303 -0.2197
-3.5438 0.2394 -0.2198
-3.5366 0.2479 -0.2205
-3.5287 0.2559 -0.2216
-3.5214 0.2645 -0.2222
-3.5133 0.2727 -0.2233
-3.5060 0.2814 -0.2239
-3.4986 0.2902 -0.2245
-3.4904 0.2986 -0.2257
-3.4829 0.3075 -0.2263
-3.4737 0.3158 -0.2279
-3.4532 0.3198 -0.2361
-3.4396 0.3511 -0.2324
-3.4365 0.3616 -0.2305
-3.4260 0.3702 -0.2327
-3.4172 0.3793 -0.2338
-3.4074 0.3884 -0.2355
-3.4015 0.3982 -0.2351
-3.3886 0.4070 -0.2382
-3.3826 0.4169 -0.2378
-3.3736 0.4265 -0.2390
-3.3666 0.4363 -0.2391
-3.3606 0.4461 -0.2387
-3.3482 0.4558 -0.2414
-3.3356 0.4657 -0.2441
-3.3284 0.4757 -0.2442
-3.3156 0.4860 -0.2469
-3.3095 0.4960 -0.2465
-3.3023 0.5061 -0.2466
-3.2879 0.5169 -0.2498
-3.2867 0.5264 -0.2474
-3.2745 0.5372 -0.2495
-3.2672 0.5474 -0.2497
-3.2587 0.5578 -0.2503
-3.2488 0.5685 -0.2515
-3.2415 0.5787 -0.2516
-3.7254 0.0347 -0.1897
-3.7198 0.0441 -0.1893
-3.7140 0.0523 -0.1894
-3.7068 0.0561 -0.1914
-3.7012 0.0655 -0.1910
-3.6956 0.0749 -0.1907
-3.6889 0.0811 -0.1917
-3.6822 0.0874 -0.1928
-3.6758 0.0947 -0.1933
-3.6694 0.1021 -0.1939
-3.6625 0.1087 -0.1950
-3.6560 0.1162 -0.1955
-3.6495 0.1238 -0.1961
-3.6425 0.1305 -0.1972
-3.6215 0.1521 -0.1999
-3.6153 0.1607 -0.2000
-3.6074 0.1671 -0.2015
-3.6018 0.1765 -0.2011
-3.5931 0.1824 -0.2031
-3.5875 0.1918 -0.2028
-3.5799 0.1993 -0.2038
-3.5723 0.2068 -0.2049
-3.5660 0.2156 -0.2050
-3.5576 0.2227 -0.2065
-3.5499 0.2304 -0.2076
-3.5442 0.2400 -0.2072
-3.5370 0.2484 -0.2078
-3.5299 0.2568 -0.2084
-3.5212 0.2643 -0.2099
-3.5123 0.2720 -0.2115
-3.5050 0.2807 -0.2121
-3.4977 0.2894 -0.2127
-3.4812 0.3062 -0.2148
-3.4728 0.3148 -0.2159
-3.4540 0.3194 -0.2227
-3.4435 0.3277 -0.2247
-3.4357 0.3372 -0.2253
-3.4398 0.3502 -0.2197
-3.4339 0.3599 -0.2193
-3.4253 0.3689 -0.2204
-3.4146 0.3776 -0.2225
-3.4097 0.3875 -0.2216
-3.4019 0.3969 -0.2222
-3.3930 0.4062 -0.2233
-3.3841 0.4156 -0.2244
-3.3751 0.4251 -0.2255
-3.3671 0.4347 -0.2261
-3.3558 0.4443 -0.2281
-3.3487 0.4541 -0.2282
-3.3362 0.4639 -0.2308
-3.3313 0.4738 -0.2299
-3.3231 0.4837 -0.2305
-3.3114 0.4939 -0.2326
-3.3007 0.5042 -0.2342
-3.2875 0.5148 -0.2367
-3.2839 0.5246 -0.2354
-3.2779 0.5345 -0.2350
-3.2707 0.5446 -0.2352
-3.2584 0.5555 -0.2372
-3.2460 0.5666 -0.2393
-3.2413 0.5764 -0.2385
-3.7309 0.0334 -0.1767
-3.7246 0.0391 -0.1777
-3.7182 0.0449 -0.1787
-3.7123 0.0531 -0.1788
-3.7058 0.0591 -0.1798
-3.7003 0.0684 -0.1795
-3.6937 0.0744 -0.1804
-3.6870 0.0806 -0.1814
-3.6799 0.0858 -0.1829
-3.6739 0.0942 -0.1830
-3.6679 0.1026 -0.1831
-3.6611 0.1090 -0.1841
-3.6537 0.1146 -0.1855
-3.6481 0.1240 -0.1852
-3.6421 0.1325 -0.1853
-3.6340 0.1375 -0.1872
-3.6274 0.1452 -0.1877
-3.6207 0.1529 -0.1883
-3.6151 0.1623 -0.1879
-3.6073 0.1686 -0.1894
-3.6011 0.1772 -0.1895
-3.5925 0.1829 -0.1914
-3.5869 0.1924 -0.1910
-3.5781 0.1983 -0.1929
-3.5731 0.2085 -0.1922
-3.5656 0.2159 -0.1932
-3.5593 0.2247 -0.1933
-3.5509 0.2317 -0.1947
-3.5431 0.2395 -0.1957
-3.5289 0.2562 -0.1969
-3.5232 0.2657 -0.1965
-3.5137 0.2727 -0.1984
-3.5073 0.2817 -0.1985
-3.4976 0.2890 -0.2005
-3.4894 0.2973 -0.2015
-3.4837 0.3069 -0.2011
-3.4737 0.3145 -0.2031
-3.4610 0.3214 -0.2063
-3.4435 0.3269 -0.2119
-3.4385 0.3372 -0.2111
-3.4399 0.3492 -0.2071
-3.4351 0.3592 -0.2063
-3.4236 0.3674 -0.2087
-3.4197 0.3775 -0.2075
-3.4120 0.3867 -0.2081
-3.4033 0.3958 -0.2091
-3.3955 0.4051 -0.2097
-3.3835 0.4141 -0.2120
-3.3745 0.4235 -0.2131
-3.3633 0.4329 -0.2150
-3.3552 0.4426 -0.2156
-3.3482 0.4523 -0.2157
-3.3401 0.4621 -0.2163
-3.3286 0.4720 -0.2182
-3.3238 0.4818 -0.2175
-3.3145 0.4917 -0.2185
-3.3074 0.5016 -0.2186
-3.2967 0.5118 -0.2201
-3.2788 0.5322 -0.2217
-3.2691 0.5426 -0.2228
-3.2606 0.5528 -0.2234
-3.2522 0.5632 -0.2239
-3.7229 0.0400 -0.1673
-3.7168 0.0469 -0.1678
-3.7104 0.0527 -0.1687
-3.7042 0.0598 -0.1692
-3.6994 0.0713 -0.1681
-3.6932 0.0783 -0.1686
-3.6855 0.0812 -0.1708
-3.6796 0.0894 -0.1709
-3.6729 0.0957 -0.1718
-3.6665 0.1030 -0.1723
-3.6546 0.1196 -0.1726
-3.6472 0.1252 -0.1739
-3.6412 0.1336 -0.1740
-3.6347 0.1411 -0.1745
-3.6271 0.1470 -0.1759
-3.6216 0.1563 -0.1756
-3.6150 0.1640 -0.1761
-3.6072 0.1701 -0.1775
-3.5999 0.1771 -0.1784
-3.5932 0.1850 -0.1789
-3.5857 0.1922 -0.1799
-3.5789 0.2002 -0.1804
-3.5734 0.2095 -0.1801
-3.5651 0.2162 -0.1815
-3.5589 0.2250 -0.1816
-3.5505 0.2319 -0.1830
-3.5443 0.2407 -0.1831
-3.5365 0.2484 -0.1840
-3.5223 0.2651 -0.1851
-3.5136 0.2725 -0.1865
-3.5064 0.2810 -0.1870
-3.4983 0.2891 -0.1880
-3.4910 0.2977 -0.1885
-3.4829 0.3060 -0.1895
-3.4755 0.3147 -0.1900
-3.4436 0.3261 -0.1991
-3.4413 0.3372 -0.1971
-3.4410 0.3486 -0.1943
-3.4344 0.3580 -0.1944
-3.4268 0.3670 -0.1950
-3.4201 0.3764 -0.1951
-3.4104 0.3852 -0.1965
-3.4047 0.3947 -0.1962
-3.3970 0.4040 -0.1967
-3.3860 0.4129 -0.1985
-3.3771 0.4222 -0.1995
-3.3692 0.4317 -0.2001
-3.3602 0.4411 -0.2010
-3.3533 0.4507 -0.2012
-3.3442 0.4603 -0.2021
-3.3384 0.4700 -0.2018
-3.3246 0.4799 -0.2045
-3.3188 0.4896 -0.2042
-3.3070 0.4996 -0.2061
-3.3012 0.5094 -0.2058
-3.2893 0.5197 -0.2076
-3.2760 0.5304 -0.2099
-3.2714 0.5400 -0.2091
-3.2519 0.5609 -0.2111
-3.2460 0.5707 -0.2108
-3.7212 0.0409 -0.1569
-3.7152 0.0478 -0.1574
-3.7091 0.0547 -0.1579
-3.7029 0.0617 -0.1584
-3.6968 0.0687 -0.1589
-3.6902 0.0747 -0.1597
-3.6836 0.0807 -0.1606
-3.6781 0.0900 -0.1603
-3.6714 0.0962 -0.1612
-3.6655 0.1044 -0.1613
-3.6592 0.1117 -0.1618
-3.6528 0.1191 -0.1623
-3.6459 0.1255 -0.1632
-3.6394 0.1330 -0.1637
-3.6329 0.1405 -0.1642
-3.6264 0.1480 -0.1647
-3.6209 0.1572 -0.1644
-3.6132 0.1632 -0.1657
-3.6066 0.1709 -0.1662
-3.5993 0.1778 -0.1671
-3.5932 0.1864 -0.1672
-3.5859 0.1935 -0.1681
-3.5778 0.2000 -0.1694
-3.5716 0.2086 -0.1695
-3.5627 0.2147 -0.1712
-3.5579 0.2246 -0.1705
-3.5524 0.2339 -0.1702
-3.5426 0.2397 -0.1723
-3.5355 0.2479 -0.1728
-3.5293 0.2567 -0.1729
-3.5199 0.2634 -0.1746
-3.5135 0.2723 -0.1747
-3.5055 0.2803 -0.1756
-3.4983 0.2888 -0.1761
-3.4919 0.2977 -0.1762
-3.4829 0.3055 -0.1775
-3.4765 0.3145 -0.1776
-3.4620 0.3204 -0.1813
