ply
format ascii 1.0
element vertex 2082
property float x
property float y
property float z
end_header
-4.9278 0.5626 -0.5914
-4.9630 0.5974 -0.5920
-4.9983 0.6322 -0.5927
-5.0414 0.6628 -0.5961
-5.0930 0.6896 -0.6023
-5.1287 0.7250 -0.6030
-5.1561 0.7641 -0.6009
-5.1745 0.8064 -0.5959
-4.9034 1.1718 -0.4518
-4.8425 1.2444 -0.4215
-4.8154 1.2766 -0.4080
-4.8159 1.3027 -0.4024
-4.7475 1.3371 -0.3788
-4.7795 1.3566 -0.3820
-4.7810 1.3795 -0.3773
-4.7591 1.4035 -0.3669
-4.7679 1.4242 -0.3644
-3.6401 0.1208 -0.4192
-3.9225 -0.1943 -0.5680
-3.9749 -0.2358 -0.5916
-4.0214 -0.2458 -0.6059
-4.0612 -0.2291 -0.6122
-4.0925 -0.1862 -0.6098
-4.1239 -0.1445 -0.6078
-4.1581 -0.1107 -0.6085
-4.1923 -0.0770 -0.6091
-4.2265 -0.0432 -0.6097
-4.2566 -0.0014 -0.6074
-4.3029 0.0097 -0.6166
-4.3418 0.0362 -0.6202
-4.3673 0.0853 -0.6149
-4.3884 0.1394 -0.6072
-4.4128 0.1863 -0.6022
-4.4463 0.2194 -0.6028
-4.4751 0.2584 -0.6007
-4.5823 0.4163 -0.5901
-4.6638 0.4662 -0.5990
-4.7026 0.4940 -0.6023
-4.7690 0.5595 -0.6035
-4.8949 0.6946 -0.6033
-5.0725 0.9421 -0.5891
-4.8048 1.2557 -0.4444
-4.7924 1.2847 -0.4342
-4.7340 1.3429 -0.4051
-4.7512 1.3640 -0.4044
-4.7524 1.3864 -0.3993
-4.7428 1.4090 -0.3914
-3.8686 -0.1572 -0.5909
-3.9031 -0.1415 -0.5964
-3.9382 -0.1254 -0.6020
-3.9718 -0.1015 -0.6050
-4.0055 -0.0774 -0.6081
-4.0323 -0.0324 -0.6037
-4.0556 0.0197 -0.5964
-4.0842 0.0559 -0.5949
-4.1207 0.0735 -0.6004
-4.1638 0.0790 -0.6110
-4.1923 0.1164 -0.6091
-4.2173 0.1596 -0.6046
-4.2451 0.1963 -0.6027
-4.2721 0.2336 -0.6004
-4.3030 0.2642 -0.6010
-4.3230 0.3104 -0.5943
-4.3535 0.3405 -0.5949
-4.3882 0.3655 -0.5980
-4.4103 0.4059 -0.5935
-4.4363 0.4409 -0.5915
-4.4666 0.4708 -0.5921
-4.4968 0.5006 -0.5926
-4.5271 0.5305 -0.5932
-4.5573 0.5604 -0.5937
-4.5926 0.5861 -0.5968
-4.6230 0.6161 -0.5974
-4.6434 0.6535 -0.5932
-4.6736 0.6832 -0.5938
-4.7085 0.7098 -0.5965
-4.7446 0.7362 -0.5996
-4.7809 0.7628 -0.6027
-4.8114 0.7930 -0.6033
-4.8242 0.8321 -0.5965
-4.8543 0.8618 -0.5971
-4.8844 0.8916 -0.5976
-4.9202 0.9190 -0.6004
-4.7478 1.3452 -0.4396
-4.7775 1.3653 -0.4426
-4.7706 1.3889 -0.4344
-4.7491 1.4127 -0.4221
-3.8126 -0.0942 -0.6023
-3.8418 -0.0653 -0.6028
-3.8726 -0.0428 -0.6057
-3.9056 -0.0272 -0.6112
-3.9371 -0.0041 -0.6140
-3.9649 0.0313 -0.6122
-3.9945 0.0605 -0.6128
-4.0241 0.0898 -0.6133
-4.0487 0.1312 -0.6089
-4.0728 0.1721 -0.6044
-4.0994 0.2062 -0.6026
-4.1257 0.2401 -0.6009
-4.1573 0.2635 -0.6037
-4.1925 0.2812 -0.6093
-4.2278 0.3003 -0.6144
-4.2510 0.3389 -0.6103
-4.2835 0.3632 -0.6132
-4.3162 0.3876 -0.6160
-4.3497 0.4115 -0.6193
-4.3751 0.4458 -0.6171
-4.3971 0.4833 -0.6130
-4.4469 0.5497 -0.6090
-4.4718 0.5821 -0.6072
-4.4880 0.6218 -0.6007
-4.5926 0.7408 -0.5981
-4.6208 0.7687 -0.5986
-4.6540 0.7936 -0.6015
-4.7729 0.9032 -0.6060
-4.7958 0.9338 -0.6041
-4.9254 1.0776 -0.6020
-4.9420 1.1085 -0.5981
-4.7736 1.3216 -0.4861
-4.7674 1.3470 -0.4769
-4.7637 1.3710 -0.4689
-4.7385 1.3960 -0.4542
-4.7366 1.4177 -0.4473
-3.7246 -0.0031 -0.5898
-3.7555 -0.0000 -0.5988
-3.7839 0.0202 -0.6018
-3.8097 0.0536 -0.5998
-3.8425 0.0573 -0.6093
-3.8748 0.0670 -0.6168
-3.9044 0.0885 -0.6197
-3.9287 0.1281 -0.6153
-3.9453 0.1876 -0.6023
-3.9707 0.2191 -0.6007
-3.9935 0.2561 -0.5967
-4.0247 0.2726 -0.6017
-4.0517 0.2993 -0.6022
-4.0788 0.3260 -0.6027
-4.1108 0.3433 -0.6078
-4.1404 0.3660 -0.6103
-4.1573 0.4101 -0.6021
-4.1843 0.4367 -0.6026
-4.2139 0.4595 -0.6052
-4.2437 0.4824 -0.6078
-4.2650 0.5166 -0.6041
-4.2854 0.5510 -0.6000
-4.3059 0.5843 -0.5964
-4.3261 0.6173 -0.5927
-4.3524 0.6433 -0.5932
-4.3746 0.6731 -0.5912
-4.4050 0.6952 -0.5941
-4.4384 0.7153 -0.5988
-4.4686 0.7386 -0.6014
-4.5028 0.7593 -0.6061
-4.5218 0.7912 -0.6024
-4.5445 0.8200 -0.6008
-4.5710 0.8462 -0.6012
-4.5975 0.8724 -0.6017
-4.6283 0.8963 -0.6043
-4.6505 0.9248 -0.6027
-4.6725 0.9531 -0.6011
-4.6943 0.9812 -0.5995
-4.7347 1.0015 -0.6063
-4.7613 1.0278 -0.6067
-4.7781 1.0574 -0.6030
-4.7995 1.0851 -0.6014
-4.8258 1.1111 -0.6019
-4.8521 1.1371 -0.6024
-4.8414 1.1722 -0.5880
-4.7712 1.2188 -0.5507
-4.7681 1.3266 -0.5163
-4.7620 1.3518 -0.5065
-4.7752 1.3741 -0.5039
-4.7639 1.3981 -0.4928
-5.1486 1.4496 -0.6017
-5.2071 1.4748 -0.6129
-5.2612 1.5009 -0.6224
-3.7103 0.0535 -0.6066
-3.7380 0.0680 -0.6115
-3.7629 0.0991 -0.6098
-3.7888 0.1247 -0.6102
-3.8147 0.1503 -0.6107
-3.8420 0.1707 -0.6134
-3.8680 0.1964 -0.6139
-3.8924 0.2271 -0.6121
-3.9183 0.2527 -0.6126
-3.9442 0.2783 -0.6131
-3.9683 0.3085 -0.6114
-3.9941 0.3340 -0.6119
-4.0220 0.3550 -0.6145
-4.0518 0.3728 -0.6190
-4.0778 0.3986 -0.6194
-4.0997 0.4318 -0.6160
-4.1256 0.4574 -0.6164
-4.1540 0.4791 -0.6191
-4.1822 0.5017 -0.6213
-4.2033 0.5342 -0.6179
-4.2292 0.5598 -0.6183
-4.2432 0.5996 -0.6099
-4.2688 0.6248 -0.6104
-4.3645 0.7311 -0.6083
-4.3963 0.7508 -0.6128
-4.4254 0.7732 -0.6154
-4.4405 0.8062 -0.6097
-4.4589 0.8360 -0.6061
-4.5152 0.9214 -0.5972
-4.5475 0.9417 -0.6017
-4.5759 0.9645 -0.6040
-4.6053 0.9871 -0.6067
-4.6258 1.0138 -0.6049
-4.7921 1.2183 -0.5945
-4.7672 1.3310 -0.5483
-4.7683 1.3554 -0.5406
-4.7818 1.3778 -0.5378
-3.6407 0.1139 -0.5989
-3.6660 0.1273 -0.6035
-3.6873 0.1702 -0.5961
-3.7134 0.1806 -0.6021
-3.7393 0.1946 -0.6067
-3.7636 0.2186 -0.6072
-3.7910 0.2290 -0.6136
-3.8120 0.2665 -0.6081
-3.8351 0.2944 -0.6066
-3.8565 0.3272 -0.6029
-3.8805 0.3509 -0.6033
-3.9059 0.3708 -0.6056
-3.9300 0.3946 -0.6061
-3.9525 0.4219 -0.6047
-3.9764 0.4456 -0.6051
-3.9970 0.4762 -0.6018
-4.0190 0.5032 -0.6004
-4.0447 0.5233 -0.6027
-4.0685 0.5469 -0.6031
-4.0923 0.5704 -0.6035
-4.1203 0.5878 -0.6077
-4.1493 0.6048 -0.6124
-4.1706 0.6323 -0.6105
-4.1829 0.6702 -0.6015
-4.2066 0.6936 -0.6020
-4.2302 0.7170 -0.6024
-4.2481 0.7462 -0.5986
-4.2662 0.7744 -0.5953
-4.2895 0.7974 -0.5957
-4.3129 0.8205 -0.5961
-4.3420 0.8390 -0.6003
-4.3842 0.8485 -0.6126
-4.4020 0.8764 -0.6092
-4.4164 0.9061 -0.6040
-4.4327 0.9338 -0.6001
-4.4561 0.9569 -0.6006
-4.4761 0.9818 -0.5991
-4.4994 1.0048 -0.5995
-4.5263 1.0263 -0.6019
-4.5579 1.0459 -0.6066
-4.5768 1.0710 -0.6046
-4.6003 1.0942 -0.6051
-4.6238 1.1174 -0.6055
-4.6522 1.1391 -0.6083
-4.6627 1.1662 -0.6025
-4.6860 1.1892 -0.6030
-4.7135 1.2113 -0.6053
-4.7370 1.2344 -0.6057
-4.7527 1.2590 -0.6028
-4.7450 1.2873 -0.5898
-4.7350 1.3147 -0.5763
-4.7411 1.3387 -0.5700
-4.7466 1.3621 -0.5637
-4.7527 1.3849 -0.5578
-4.9426 1.4427 -0.6077
-4.9875 1.4652 -0.6163
-5.0060 1.4887 -0.6148
-5.0230 1.5119 -0.6128
-5.0412 1.5350 -0.6113
-3.6071 0.1379 -0.6137
-3.6317 0.1482 -0.6195
-3.6552 0.1714 -0.6199
-3.6780 0.1990 -0.6184
-3.6994 0.2342 -0.6134
-3.7218 0.2614 -0.6119
-3.7467 0.2758 -0.6162
-3.7699 0.2988 -0.6166
-3.7911 0.3299 -0.6131
-3.8142 0.3527 -0.6136
-3.8337 0.3873 -0.6081
-3.8604 0.3984 -0.6144
-3.8835 0.4212 -0.6148
-3.9080 0.4404 -0.6172
-3.9266 0.4741 -0.6117
-3.9480 0.5002 -0.6102
-3.9919 0.5488 -0.6090
-4.0147 0.5713 -0.6095
-4.0375 0.5938 -0.6099
-4.0603 0.6163 -0.6103
-4.0773 0.6472 -0.6053
-4.0961 0.6747 -0.6022
-4.1123 0.7047 -0.5971
-4.1386 0.7218 -0.6010
-4.1652 0.7391 -0.6049
-4.2353 0.8033 -0.6082
-4.2776 0.8502 -0.6070
-4.2979 0.8741 -0.6059
-4.3144 0.9006 -0.6023
-4.5120 1.0997 -0.6045
-4.5670 1.1400 -0.6108
-4.6896 1.2752 -0.6077
-4.7074 1.2979 -0.6061
-4.7082 1.3472 -0.5876
-4.7145 1.3699 -0.5814
-4.7321 1.3911 -0.5803
-4.7531 1.4119 -0.5807
-4.7851 1.4321 -0.5856
-3.6158 0.2524 -0.6071
-3.6375 0.2739 -0.6075
-3.6566 0.3143 -0.5992
-3.6775 0.3387 -0.5980
-3.6983 0.3631 -0.5968
-3.7209 0.3778 -0.6003
-3.7449 0.3876 -0.6064
-3.7674 0.4060 -0.6084
-3.7863 0.4373 -0.6036
-3.8108 0.4489 -0.6092
-3.8315 0.4732 -0.6080
-3.8518 0.4983 -0.6063
-3.8734 0.5196 -0.6067
-3.8938 0.5436 -0.6056
-3.9137 0.5683 -0.6039
-3.9339 0.5920 -0.6027
-3.9583 0.6073 -0.6067
-3.9798 0.6286 -0.6071
-3.9980 0.6554 -0.6039
-4.0159 0.6819 -0.6006
-4.0407 0.6976 -0.6047
-4.0604 0.7209 -0.6035
-4.0818 0.7420 -0.6039
-4.1007 0.7658 -0.6022
-4.1202 0.7888 -0.6010
-4.1413 0.8097 -0.6014
-4.1670 0.8262 -0.6054
-4.1837 0.8515 -0.6021
-4.2028 0.8742 -0.6009
-4.2239 0.8951 -0.6013
-4.2400 0.9198 -0.5980
-4.2609 0.9406 -0.5984
-4.2819 0.9613 -0.5988
-4.3083 0.9785 -0.6029
-4.3374 0.9946 -0.6086
-4.3554 1.0174 -0.6068
-4.3716 1.0411 -0.6040
-4.3867 1.0648 -0.6007
-4.4051 1.0868 -0.5995
-4.4260 1.1074 -0.5999
-4.4533 1.1255 -0.6040
-4.4799 1.1443 -0.6076
-4.4954 1.1671 -0.6048
-4.5096 1.1900 -0.6014
-4.5434 1.2070 -0.6087
-4.5717 1.2261 -0.6129
-4.5961 1.2464 -0.6148
-4.6143 1.2682 -0.6136
-4.6281 1.2907 -0.6103
-4.6460 1.3121 -0.6091
-4.6559 1.3346 -0.6041
-4.6688 1.3790 -0.5915
-4.6821 1.3998 -0.5887
-4.7263 1.4397 -0.5910
-4.7605 1.5001 -0.5808
-4.7921 1.5199 -0.5861
-3.5826 0.3116 -0.6012
-3.6038 0.3249 -0.6048
-3.6449 0.3656 -0.6055
-3.6849 0.4127 -0.6030
-3.7060 0.4298 -0.6050
-3.7266 0.4500 -0.6054
-3.7456 0.4764 -0.6025
-3.7668 0.4936 -0.6045
-3.7846 0.5225 -0.6000
-3.8049 0.5425 -0.6004
-3.8272 0.5570 -0.6040
-3.8486 0.5744 -0.6060
-3.8702 0.5920 -0.6081
-3.8872 0.6201 -0.6035
-3.9051 0.6453 -0.6006
-3.9279 0.6603 -0.6042
-3.9714 0.6958 -0.6083
-3.9889 0.7206 -0.6054
-4.0296 0.7608 -0.6061
-4.1055 0.8471 -0.6026
-4.1199 0.8727 -0.5980
-4.1478 0.8851 -0.6050
-4.1639 0.9086 -0.6021
-4.1841 0.9285 -0.6024
-4.2042 0.9484 -0.6028
-4.2444 0.9881 -0.6035
-4.2645 1.0079 -0.6039
-4.2846 1.0278 -0.6043
-4.3022 1.0490 -0.6030
-4.3223 1.0688 -0.6034
-4.3423 1.0886 -0.6037
-4.3878 1.1260 -0.6078
-4.4079 1.1459 -0.6082
-4.4655 1.2066 -0.6076
-4.4856 1.2265 -0.6080
-4.5027 1.2471 -0.6067
-4.5995 1.3466 -0.6068
-4.6071 1.3678 -0.6010
-4.6234 1.3877 -0.5997
-4.6337 1.4080 -0.5955
-4.6532 1.4273 -0.5959
-4.6861 1.4460 -0.6024
-4.6923 1.4659 -0.5966
-4.7119 1.4852 -0.5970
-4.7314 1.5045 -0.5973
-4.7471 1.5238 -0.5960
-3.5534 0.3609 -0.5974
-3.5735 0.3696 -0.6029
-3.5928 0.3924 -0.6015
-3.6126 0.4082 -0.6036
-3.6308 0.4375 -0.5988
-3.6494 0.4620 -0.5963
-3.6701 0.4725 -0.6012
-3.6883 0.4980 -0.5981
-3.7097 0.5079 -0.6036
-3.7299 0.5241 -0.6057
-3.7524 0.5326 -0.6124
-3.7713 0.5550 -0.6110
-3.7876 0.5849 -0.6051
-3.8081 0.6013 -0.6072
-3.8245 0.6288 -0.6023
-3.8471 0.6400 -0.6079
-3.8613 0.6714 -0.6002
-3.8813 0.6887 -0.6017
-3.9164 0.7333 -0.5978
-3.9392 0.7459 -0.6027
-3.9600 0.7627 -0.6048
-3.9778 0.7841 -0.6034
-3.9972 0.8032 -0.6038
-4.0137 0.8258 -0.6013
-4.0312 0.8468 -0.5999
-4.0492 0.8671 -0.5991
-4.0665 0.8879 -0.5977
-4.0886 0.9036 -0.6009
-4.1130 0.9176 -0.6059
-4.1309 0.9379 -0.6051
-4.1481 0.9586 -0.6037
-4.1673 0.9776 -0.6041
-4.1865 0.9965 -0.6044
-4.2035 1.0171 -0.6030
-4.2249 1.0345 -0.6051
-4.2418 1.0549 -0.6037
-4.2634 1.0724 -0.6058
-4.2801 1.0927 -0.6044
-4.2992 1.1116 -0.6048
-4.3236 1.1282 -0.6087
-4.3402 1.1483 -0.6072
-4.3621 1.1663 -0.6094
-4.3786 1.1863 -0.6080
-4.3949 1.2062 -0.6065
-4.4141 1.2251 -0.6069
-4.4332 1.2440 -0.6072
-4.4473 1.2642 -0.6047
-4.4694 1.2823 -0.6068
-4.4885 1.3012 -0.6071
-4.5130 1.3191 -0.6104
-4.5376 1.3372 -0.6137
-4.5547 1.3566 -0.6129
-4.5706 1.3760 -0.6115
-4.6090 1.4140 -0.6122
-4.6282 1.4330 -0.6125
-4.6377 1.4524 -0.6082
-4.6568 1.4712 -0.6085
-4.6721 1.4901 -0.6071
-4.6911 1.5088 -0.6074
-4.7204 1.5278 -0.6125
-4.7434 1.5468 -0.6146
-3.5468 0.3994 -0.6065
-3.5843 0.4365 -0.6072
-3.6035 0.4518 -0.6093
-3.6212 0.4791 -0.6049
-3.7312 0.5977 -0.6021
-3.7506 0.6132 -0.6043
-3.8442 0.7033 -0.6072
-3.8588 0.7301 -0.6015
-3.8979 0.7625 -0.6052
-3.9878 0.8575 -0.6038
-4.0062 0.8757 -0.6042
-4.0461 0.9089 -0.6079
-4.0646 0.9272 -0.6082
-4.0767 0.9515 -0.6025
-4.0983 0.9667 -0.6059
-4.1168 0.9849 -0.6062
-4.1387 1.0004 -0.6096
-4.1757 1.0370 -0.6103
-4.1927 1.0563 -0.6094
-4.2273 1.0941 -0.6082
-4.2441 1.1132 -0.6073
-4.2765 1.1515 -0.6050
-4.2886 1.1721 -0.6010
-4.3131 1.1876 -0.6056
-4.3360 1.2040 -0.6090
-4.3911 1.2585 -0.6100
-4.4015 1.2787 -0.6055
-4.4248 1.2955 -0.6089
-4.4463 1.3130 -0.6111
-4.4562 1.3327 -0.6065
-4.4776 1.3502 -0.6087
-4.4981 1.3679 -0.6102
-4.5268 1.4049 -0.6066
-4.5473 1.4227 -0.6081
-4.5631 1.4409 -0.6072
-4.5729 1.4592 -0.6032
-4.5787 1.4773 -0.5974
-4.6182 1.5126 -0.5999
-4.6541 1.5307 -0.6089
-3.5213 0.4495 -0.5981
-3.5393 0.4611 -0.6015
-3.5567 0.4844 -0.5987
-3.5749 0.4963 -0.6022
-3.5925 0.5161 -0.6013
-3.6112 0.5260 -0.6060
-3.6286 0.5469 -0.6044
-3.6470 0.5614 -0.6066
-3.6629 0.5894 -0.6007
-3.6802 0.6089 -0.5997
-3.6991 0.6214 -0.6032
-3.7179 0.6351 -0.6060
-3.7365 0.6498 -0.6083
-3.7509 0.6787 -0.6010
-3.7714 0.6879 -0.6070
-3.7862 0.7136 -0.6017
-3.8064 0.7250 -0.6064
-3.8208 0.7503 -0.6011
-3.8376 0.7693 -0.6001
-3.8589 0.7794 -0.6061
-3.8754 0.7993 -0.6046
-3.8880 0.8253 -0.5979
-3.9089 0.8373 -0.6027
-3.9285 0.8518 -0.6055
-3.9477 0.8671 -0.6078
-3.9591 0.8930 -0.6005
-3.9766 0.9104 -0.6008
-3.9981 0.9231 -0.6056
-4.0188 0.9373 -0.6091
-4.0322 0.9592 -0.6050
-4.0486 0.9778 -0.6040
-4.0675 0.9940 -0.6056
-4.0837 1.0126 -0.6046
-4.0992 1.0316 -0.6031
-4.1153 1.0499 -0.6021
-4.1380 1.0637 -0.6069
-4.1518 1.0835 -0.6040
-4.1647 1.1036 -0.6005
-4.1821 1.1208 -0.6008
-4.2085 1.1333 -0.6082
-4.2261 1.1508 -0.6085
-4.2360 1.1716 -0.6031
-4.2517 1.1896 -0.6021
-4.2727 1.2054 -0.6050
-4.3095 1.2393 -0.6069
-4.3270 1.2566 -0.6072
-4.3514 1.2721 -0.6121
-4.3621 1.2913 -0.6079
-4.3796 1.3086 -0.6082
-4.4002 1.3253 -0.6105
-4.4178 1.3427 -0.6108
-4.4300 1.3609 -0.6079
-4.4927 1.4117 -0.6146
-4.5080 1.4294 -0.6137
-4.5174 1.4472 -0.6095
-4.5349 1.4645 -0.6098
-4.5499 1.4818 -0.6088
-4.5674 1.4991 -0.6092
-4.5848 1.5163 -0.6095
-4.5933 1.5333 -0.6053
-4.6132 1.5505 -0.6069
-3.5497 0.5309 -0.5988
-3.5840 0.5600 -0.6020
-3.6181 0.5937 -0.6026
-3.6345 0.6147 -0.6003
-3.6514 0.6315 -0.6006
-3.6693 0.6442 -0.6036
-3.7038 0.6759 -0.6055
-3.7389 0.7069 -0.6081
-3.7566 0.7220 -0.6097
-3.7732 0.7408 -0.6087
-3.8063 0.7772 -0.6074
-3.8747 0.8447 -0.6086
-3.8917 0.8616 -0.6089
-3.9490 0.9426 -0.5970
-3.9691 0.9552 -0.6012
-3.9907 0.9667 -0.6068
-4.0076 0.9835 -0.6072
-4.0246 1.0002 -0.6075
-4.0429 1.0158 -0.6091
-4.0558 1.0360 -0.6054
-4.0658 1.0580 -0.5991
-4.0853 1.0724 -0.6021
-4.0962 1.0929 -0.5971
-4.1159 1.1074 -0.6000
-4.1325 1.1239 -0.6003
-4.1460 1.1422 -0.5980
-4.1675 1.1561 -0.6023
-4.1859 1.1718 -0.6039
-4.1976 1.1906 -0.6002
-4.2229 1.2035 -0.6072
-4.2380 1.2208 -0.6062
-4.2511 1.2387 -0.6038
-4.2697 1.2546 -0.6055
-4.2941 1.2689 -0.6111
-4.3032 1.2877 -0.6061
-4.3200 1.3043 -0.6064
-4.3995 1.3877 -0.6052
-4.4095 1.4049 -0.6015
-4.4306 1.4208 -0.6045
-4.4449 1.4374 -0.6035
-4.4685 1.4535 -0.6078
-4.4805 1.4702 -0.6054
-4.4850 1.4868 -0.5990
-4.4990 1.5031 -0.5979
-4.5104 1.5192 -0.5955
-4.5343 1.5356 -0.5999
-3.5105 0.5438 -0.5969
-3.5269 0.5575 -0.5985
-3.5434 0.5690 -0.6015
-3.5593 0.5919 -0.5978
-3.5753 0.6102 -0.5967
-3.5920 0.6219 -0.5997
-3.6083 0.6380 -0.6000
-3.6246 0.6540 -0.6003
-3.6405 0.6722 -0.5992
-3.6563 0.6902 -0.5982
-3.6739 0.7003 -0.6026
-3.6917 0.7107 -0.6070
-3.7065 0.7326 -0.6032
-3.7234 0.7469 -0.6048
-3.7398 0.7630 -0.6051
-3.7581 0.7739 -0.6095
-3.7725 0.7954 -0.6057
-3.7896 0.8099 -0.6074
-3.8052 0.8277 -0.6063
-3.8240 0.8390 -0.6107
-3.8371 0.8616 -0.6056
-3.8543 0.8762 -0.6072
-3.8679 0.8969 -0.6034
-3.8831 0.9144 -0.6023
-3.9014 0.9276 -0.6054
-3.9166 0.9450 -0.6043
-3.9318 0.9624 -0.6032
-3.9502 0.9758 -0.6063
-3.9642 0.9944 -0.6038
-3.9840 1.0068 -0.6083
-4.0041 1.0194 -0.6127
-4.0192 1.0368 -0.6116
-4.0303 1.0574 -0.6064
-4.0493 1.0713 -0.6095
-4.0642 1.0884 -0.6084
-4.0790 1.1055 -0.6073
-4.0938 1.1225 -0.6062
-4.1084 1.1394 -0.6051
-4.1278 1.1537 -0.6082
-4.1635 1.1842 -0.6115
-4.1765 1.2018 -0.6091
-4.1927 1.2179 -0.6094
-4.2019 1.2366 -0.6041
-4.2161 1.2531 -0.6030
-4.2377 1.2672 -0.6075
-4.2539 1.2832 -0.6078
-4.2720 1.2986 -0.6095
-4.2843 1.3156 -0.6070
-4.2963 1.3324 -0.6045
-4.3093 1.3488 -0.6027
-4.3326 1.3634 -0.6079
-4.3573 1.3962 -0.6036
-4.3743 1.4118 -0.6046
-4.3994 1.4269 -0.6104
-4.4109 1.4432 -0.6079
-4.4317 1.4588 -0.6110
-4.4407 1.4750 -0.6071
-4.4568 1.4909 -0.6074
-4.4753 1.5067 -0.6091
-4.4913 1.5226 -0.6094
-4.5024 1.5383 -0.6069
-3.4747 0.5628 -0.5909
-3.4902 0.5709 -0.5954
-3.5057 0.5910 -0.5929
-3.5209 0.6145 -0.5882
-3.5525 0.6325 -0.5966
-3.5686 0.6424 -0.6004
-3.6163 0.6848 -0.6041
-3.6638 0.7305 -0.6057
-3.6801 0.7442 -0.6074
-3.6951 0.7626 -0.6056
-3.7554 0.8318 -0.6010
-3.7750 0.8380 -0.6091
-3.8216 0.8864 -0.6086
-3.8833 0.9509 -0.6076
-3.8959 0.9706 -0.6036
-3.9421 1.0175 -0.6037
-3.9619 1.0286 -0.6090
-3.9776 1.0442 -0.6093
-3.9946 1.0586 -0.6110
-4.0090 1.0752 -0.6099
-4.0234 1.0918 -0.6088
-4.0391 1.1073 -0.6090
-4.0519 1.1248 -0.6065
-4.0549 1.1481 -0.5945
-4.0716 1.1623 -0.5962
-4.0830 1.1795 -0.5929
-4.1079 1.1897 -0.6018
-4.1241 1.2045 -0.6028
-4.1396 1.2198 -0.6031
-4.1568 1.2344 -0.6048
-4.1643 1.2527 -0.5986
-4.1797 1.2678 -0.5989
-4.2097 1.2783 -0.6108
-4.2429 1.3279 -0.6015
-4.2583 1.3431 -0.6018
-4.2777 1.3575 -0.6049
-4.2838 1.3743 -0.5987
-4.2969 1.3897 -0.5975
-4.3273 1.4029 -0.6080
-4.3274 1.4198 -0.5981
-4.3392 1.4351 -0.5962
-4.3635 1.4495 -0.6023
-4.3812 1.4645 -0.6040
-4.3906 1.4799 -0.6007
-4.4035 1.4950 -0.5995
-4.4187 1.5100 -0.5998
-4.4401 1.5252 -0.6037
-4.4542 1.5403 -0.6032
-3.4713 0.5894 -0.5981
-3.4864 0.6019 -0.5999
-3.5015 0.6168 -0.6001
-3.5166 0.6318 -0.6004
-3.5316 0.6490 -0.5992
-3.5464 0.6684 -0.5966
-3.5614 0.6832 -0.5968
-3.5768 0.6948 -0.5993
-3.5925 0.7044 -0.6033
-3.6080 0.7173 -0.6050
-3.6220 0.7394 -0.6001
-3.6372 0.7533 -0.6012
-3.6527 0.7663 -0.6029
-3.6664 0.7870 -0.5988
-3.6835 0.7943 -0.6049
-3.6992 0.8074 -0.6067
-3.7132 0.8260 -0.6040
-3.7277 0.8427 -0.6028
-3.7452 0.8516 -0.6083
-3.7600 0.8675 -0.6078
-3.7764 0.8801 -0.6103
-3.7904 0.8976 -0.6084
-3.8060 0.9118 -0.6094
-3.8221 0.9253 -0.6111
-3.8342 0.9456 -0.6062
-3.8479 0.9627 -0.6043
-3.8644 0.9755 -0.6068
-3.8796 0.9904 -0.6071
-3.8920 1.0087 -0.6036
-3.9081 1.0222 -0.6054
-3.9278 1.0321 -0.6116
-3.9424 1.0478 -0.6112
-3.9515 1.0686 -0.6040
-3.9684 1.0818 -0.6065
-3.9802 1.0993 -0.6030
-3.9992 1.1110 -0.6078
-4.0294 1.1408 -0.6083
-4.0422 1.1571 -0.6064
-4.0588 1.1711 -0.6082
-4.0833 1.2036 -0.6035
-4.0982 1.2184 -0.6037
-4.1165 1.2317 -0.6070
-4.1324 1.2462 -0.6080
-4.1474 1.2610 -0.6083
-4.1651 1.2749 -0.6108
-4.1728 1.2921 -0.6051
-4.1878 1.3069 -0.6054
-4.2027 1.3216 -0.6057
-4.3279 1.4548 -0.6021
-4.3686 1.4986 -0.6006
-4.3857 1.5132 -0.6024
-4.4004 1.5277 -0.6027
-3.4683 0.6266 -0.5974
-3.4829 0.6469 -0.5939
-3.4973 0.6588 -0.5957
-3.5118 0.6731 -0.5959
-3.5263 0.6863 -0.5970
-3.5405 0.7050 -0.5942
-3.5552 0.7160 -0.5967
-3.5707 0.7207 -0.6039
-3.5997 0.7517 -0.6029
-3.6143 0.7661 -0.6031
-3.6283 0.7835 -0.6011
-3.6592 0.8046 -0.6078
-3.7321 0.8790 -0.6076
-3.7629 0.9047 -0.6112
-3.7903 0.9377 -0.6079
-3.8071 0.9484 -0.6120
-3.8223 0.9622 -0.6130
-3.8347 0.9804 -0.6095
-3.8489 0.9956 -0.6090
-3.8640 1.0094 -0.6100
-3.8750 1.0284 -0.6049
-3.8878 1.0447 -0.6028
-3.9256 1.0643 -0.6149
-3.9349 1.0841 -0.6083
-3.9438 1.1035 -0.6016
-3.9641 1.1129 -0.6088
-3.9712 1.1330 -0.6006
-3.9891 1.1447 -0.6047
-3.9978 1.1628 -0.5988
-4.0165 1.1742 -0.6037
-4.0309 1.1885 -0.6039
-4.0492 1.2006 -0.6081
-4.0614 1.2162 -0.6060
-4.0710 1.2327 -0.6016
-4.0786 1.2498 -0.5957
-4.0954 1.2628 -0.5983
-4.1192 1.2733 -0.6071
-4.1372 1.2864 -0.6105
-4.1481 1.3019 -0.6076
-4.1570 1.3178 -0.6032
-4.1685 1.3327 -0.6011
-4.1799 1.3474 -0.5991
-4.2000 1.3603 -0.6040
-4.2267 1.3889 -0.6030
-4.2431 1.4028 -0.6048
-4.2477 1.4181 -0.5980
-4.2685 1.4314 -0.6030
-4.2861 1.4453 -0.6056
-4.2948 1.4598 -0.6019
-4.3044 1.4740 -0.5991
-4.3150 1.4881 -0.5970
-4.3399 1.5020 -0.6043
-4.3517 1.5161 -0.6030
-4.3647 1.5301 -0.6025
-4.3802 1.5442 -0.6035
-2.4741 1.6463 -0.5940
-2.4815 1.6603 -0.5988
-2.5029 1.6741 -0.5945
-2.5139 1.6882 -0.5971
-2.5283 1.7022 -0.5974
-2.5340 1.7169 -0.6037
-2.5540 1.7305 -0.6002
-2.5695 1.7444 -0.5997
-2.5922 1.7572 -0.5938
-2.6106 1.7704 -0.5910
-2.6278 1.7836 -0.5890
-2.6332 1.7992 -0.5962
-2.6476 1.8131 -0.5964
-2.6703 1.8248 -0.5898
-2.6863 1.8380 -0.5885
-2.6879 1.8557 -0.5995
-2.7050 1.8687 -0.5975
-2.7236 1.8810 -0.5939
-2.7386 1.8945 -0.5934
-2.7545 1.9075 -0.5921
-2.7671 1.9220 -0.5939
-2.7860 1.9334 -0.5896
-2.7948 1.9500 -0.5952
-2.8076 1.9647 -0.5970
-2.8262 1.9758 -0.5926
-2.8397 1.9900 -0.5937
-2.8465 2.0092 -0.6024
-2.8680 2.0175 -0.5942
-2.8822 2.0312 -0.5945
-2.8952 2.0461 -0.5963
-2.9124 2.0570 -0.5927
-2.9271 2.0701 -0.5922
-2.9379 2.0874 -0.5970
-2.9564 2.0962 -0.5911
-2.9704 2.1098 -0.5914
-2.9850 2.1227 -0.5909
-3.0861 2.0950 -0.5066
-3.1019 2.0988 -0.4991
-3.1168 2.1030 -0.4923
-3.1276 2.1157 -0.4941
-3.1401 2.1244 -0.4919
-3.1525 2.1329 -0.4898
-3.1650 2.1405 -0.4869
-3.1758 2.1532 -0.4887
-3.1859 2.1687 -0.4928
-3.1958 2.1863 -0.4984
-3.2689 2.2193 -0.4739
-3.2809 2.2172 -0.4648
-3.2920 2.2200 -0.4595
-3.3028 2.2248 -0.4558
-3.3133 2.2349 -0.4560
-3.3237 2.2530 -0.4616
-3.3343 2.2678 -0.4650
-3.3450 2.2793 -0.4660
-3.3557 2.2897 -0.4661
-3.3663 2.2988 -0.4656
-3.3771 2.3104 -0.4665
-3.3877 2.3195 -0.4660
-2.4591 1.6647 -0.5912
-2.4635 1.6793 -0.5981
-2.5385 1.7358 -0.5889
-2.5585 1.7494 -0.5854
-2.5710 1.7639 -0.5872
-2.5948 1.7765 -0.5808
-2.6023 1.7919 -0.5863
-2.6179 1.8058 -0.5858
-2.6268 1.8213 -0.5905
-2.6434 1.8351 -0.5893
-2.6590 1.8490 -0.5888
-2.6736 1.8632 -0.5891
-2.7021 1.8919 -0.5904
-2.7126 1.9078 -0.5943
-2.7339 1.9192 -0.5887
-2.7493 1.9330 -0.5882
-2.7615 1.9483 -0.5907
-2.7762 1.9625 -0.5910
-2.7908 1.9767 -0.5912
-2.8055 1.9909 -0.5915
-2.8181 2.0065 -0.5940
-2.8361 2.0183 -0.5905
-2.8488 2.0340 -0.5930
-2.8635 2.0482 -0.5933
-2.8720 2.0680 -0.6010
-2.8934 2.0760 -0.5931
-2.9127 2.0855 -0.5874
-2.9211 2.1063 -0.5959
-2.9368 2.1193 -0.5947
-2.9551 2.1289 -0.5897
-2.9706 2.1416 -0.5885
-2.9837 2.1577 -0.5910
-2.9973 2.1732 -0.5927
-3.0197 2.1742 -0.5795
-3.0879 2.1237 -0.5044
-3.1084 2.1181 -0.4882
-3.1362 2.1301 -0.4788
-3.1493 2.1370 -0.4753
-3.1613 2.1463 -0.4740
-3.1741 2.1529 -0.4705
-3.1828 2.1729 -0.4782
-3.1919 2.1933 -0.4859
-3.1987 2.2263 -0.5034
-3.2097 2.2439 -0.5082
-3.2223 2.2538 -0.5069
-3.2530 2.2293 -0.4719
-3.2657 2.2266 -0.4623
-3.2784 2.2181 -0.4489
-3.2895 2.2220 -0.4446
-3.3004 2.2244 -0.4395
-3.3108 2.2323 -0.4382
-3.3212 2.2411 -0.4376
-3.3316 2.2627 -0.4454
-3.3423 2.2812 -0.4509
-3.3532 2.2975 -0.4549
-3.3639 2.3067 -0.4543
-3.3747 2.3171 -0.4545
-3.3855 2.3288 -0.4554
-2.3974 1.6546 -0.5965
-2.4165 1.6696 -0.5947
-2.4261 1.6848 -0.5985
-2.4417 1.6999 -0.5988
-2.4629 1.7146 -0.5955
-2.4729 1.7300 -0.5994
-2.4992 1.7439 -0.5926
-2.5209 1.7580 -0.5886
-2.5424 1.7718 -0.5846
-2.5545 1.7870 -0.5870
-2.5727 1.8011 -0.5852
-2.5820 1.8171 -0.5897
-2.5953 1.8323 -0.5914
-2.6172 1.8453 -0.5867
-2.6195 1.8639 -0.5970
-2.6457 1.8753 -0.5887
-2.6626 1.8894 -0.5875
-2.6735 1.9057 -0.5914
-2.6887 1.9205 -0.5917
-2.7040 1.9353 -0.5919
-2.7232 1.9481 -0.5887
-2.7368 1.9636 -0.5904
-2.7558 1.9761 -0.5871
-2.7694 1.9916 -0.5888
-2.7810 2.0086 -0.5926
-2.7962 2.0234 -0.5929
-2.8108 2.0387 -0.5939
-2.8300 2.0503 -0.5899
-2.8400 2.0693 -0.5959
-2.8541 2.0852 -0.5976
-2.8754 2.0942 -0.5907
-2.8888 2.1107 -0.5932
-2.9096 2.1192 -0.5862
-2.9235 2.1350 -0.5880
-2.9359 2.1529 -0.5918
-2.9461 2.1743 -0.5993
-2.9657 2.1829 -0.5931
-2.9790 2.2004 -0.5963
-2.9973 2.2100 -0.5915
-3.1150 2.1377 -0.4770
-3.1324 2.1359 -0.4656
-3.1461 2.1411 -0.4607
-3.1594 2.1469 -0.4566
-3.1712 2.1561 -0.4554
-3.1804 2.1743 -0.4614
-3.1864 2.2068 -0.4783
-3.1944 2.2355 -0.4915
-3.2034 2.2629 -0.5034
-3.2178 2.2652 -0.4963
-3.2871 2.2217 -0.4283
-3.2980 2.2230 -0.4227
-3.3083 2.2318 -0.4221
-3.3187 2.2406 -0.4216
-3.3289 2.2634 -0.4298
-3.3397 2.2854 -0.4373
-3.3507 2.3066 -0.4441
-3.3617 2.3196 -0.4457
-3.3726 2.3301 -0.4459
-2.4092 1.7060 -0.5950
-2.4253 1.7215 -0.5953
-2.4436 1.7369 -0.5942
-2.4628 1.7520 -0.5925
-2.4896 1.7838 -0.5965
-2.5348 1.8123 -0.5882
-2.5516 1.8274 -0.5878
-2.5587 1.8449 -0.5942
-2.5784 1.8593 -0.5918
-2.5962 1.8741 -0.5907
-2.6244 1.9061 -0.5940
-2.6545 1.9377 -0.5960
-2.6738 1.9516 -0.5935
-2.6913 1.9662 -0.5924
-2.7215 1.9978 -0.5944
-2.7426 2.0100 -0.5899
-2.7598 2.0243 -0.5888
-2.7769 2.0386 -0.5877
-2.7885 2.0568 -0.5921
-2.8096 2.0679 -0.5869
-2.8272 2.0813 -0.5851
-2.8371 2.1016 -0.5916
-2.8511 2.1186 -0.5940
-2.8675 2.1333 -0.5936
-2.8833 2.1486 -0.5938
-2.9001 2.1626 -0.5927
-2.9148 2.1792 -0.5944
-2.9306 2.1945 -0.5947
-2.9450 2.2119 -0.5971
-2.9650 2.2207 -0.5911
-2.9807 2.2359 -0.5914
-3.1128 2.1395 -0.4596
-3.1305 2.1366 -0.4480
-3.1507 2.1245 -0.4294
-3.1797 2.1233 -0.4124
-3.1915 2.1288 -0.4091
-3.2005 2.2655 -0.4858
-3.2140 2.2727 -0.4826
-3.2740 2.2145 -0.4141
-3.2851 2.2159 -0.4087
-3.2956 2.2225 -0.4068
-3.3059 2.2313 -0.4063
-3.3162 2.2401 -0.4057
-3.3264 2.2523 -0.4073
-3.3367 2.2718 -0.4131
-3.3474 2.2915 -0.4190
-3.3582 2.3055 -0.4213
-3.3689 2.3170 -0.4222
-2.3098 1.6644 -0.5981
-2.3314 1.6806 -0.5958
-2.3482 1.6968 -0.5961
-2.3696 1.7128 -0.5937
-2.3908 1.7286 -0.5914
-2.4096 1.7444 -0.5904
-2.4262 1.7605 -0.5907
-2.4406 1.7768 -0.5923
-2.4509 1.7940 -0.5966
-2.4635 1.8109 -0.5995
-2.4985 1.8235 -0.5880
-2.5209 1.8380 -0.5844
-2.5198 1.8583 -0.5965
-2.5365 1.8744 -0.5968
-2.5476 1.8923 -0.6011
-2.5753 1.9050 -0.5935
-2.5990 1.9184 -0.5885
-2.6336 1.9495 -0.5878
-2.6499 1.9653 -0.5881
-2.6598 1.9844 -0.5937
-2.6795 1.9987 -0.5913
-2.7029 2.0107 -0.5857
-2.7267 2.0219 -0.5793
-2.7384 2.0403 -0.5836
-2.7503 2.0590 -0.5879
-2.7618 2.0784 -0.5928
-2.7743 2.0976 -0.5971
-2.7908 2.1136 -0.5974
-2.8156 2.1222 -0.5891
-2.8264 2.1433 -0.5954
-2.8429 2.1593 -0.5957
-2.8628 2.1715 -0.5920
-2.8781 2.1886 -0.5936
-2.8934 2.2059 -0.5953
-2.9099 2.2218 -0.5956
-2.9225 2.2435 -0.6012
-2.9438 2.2522 -0.5948
-2.9593 2.2696 -0.5965
-3.1384 2.1136 -0.4118
-3.1542 2.1112 -0.4020
-3.1651 2.1205 -0.4015
-3.1919 2.1216 -0.3878
-3.2010 2.1352 -0.3907
-3.2116 2.2722 -0.4632
-3.2712 2.2186 -0.4008
-3.2828 2.2155 -0.3929
-3.2932 2.2221 -0.3910
-3.3034 2.2320 -0.3912
-3.3137 2.2395 -0.3900
-3.3238 2.2482 -0.3895
-3.3340 2.2580 -0.3897
-3.3441 2.2678 -0.3899
-3.3542 2.2764 -0.3894
-3.3641 2.2836 -0.3883
-2.3458 1.7368 -0.5918
-2.3754 1.7523 -0.5852
-2.3859 1.7697 -0.5893
-2.4325 1.8207 -0.5934
-2.4498 1.8375 -0.5937
-2.4741 1.8527 -0.5896
-2.4971 1.8678 -0.5861
-2.5180 1.8833 -0.5839
-2.5397 1.8983 -0.5811
-2.5502 1.9168 -0.5858
-2.5654 1.9340 -0.5874
-2.5945 1.9692 -0.5918
-2.6337 2.0001 -0.5886
-2.6579 2.0128 -0.5832
-2.6779 2.0274 -0.5810
-2.6865 2.0488 -0.5883
-2.7134 2.0868 -0.5953
-2.7292 2.1046 -0.5969
-2.7492 2.1191 -0.5947
-2.7931 2.1437 -0.5857
-2.8020 2.1679 -0.5943
-2.8192 2.1845 -0.5946
-2.8707 2.2343 -0.5956
-2.8899 2.2481 -0.5933
-2.9060 2.2661 -0.5949
-2.9250 2.2797 -0.5927
-2.9429 2.2947 -0.5917
-3.1237 2.1087 -0.3990
-3.1374 2.1125 -0.3940
-3.1922 2.1618 -0.3931
-3.2085 2.2064 -0.4090
-3.2686 2.2215 -0.3867
-3.2799 2.2218 -0.3811
-3.2907 2.2250 -0.3774
-3.3011 2.2291 -0.3743
-3.3113 2.2377 -0.3738
-3.3213 2.2475 -0.3740
-3.3314 2.2548 -0.3729
-3.3415 2.2658 -0.3738
-3.3516 2.2780 -0.3752
-3.3616 2.2865 -0.3748
-2.2654 1.6923 -0.5796
-2.2643 1.7105 -0.5896
-2.2858 1.7277 -0.5881
-2.2981 1.7456 -0.5914
-2.3051 1.7644 -0.5978
-2.3343 1.7807 -0.5921
-2.3503 1.7985 -0.5936
-2.3727 1.8154 -0.5916
-2.3866 1.8337 -0.5943
-2.4067 1.8508 -0.5934
-2.4178 1.8700 -0.5980
-2.4547 1.8827 -0.5868
-2.4591 1.9039 -0.5956
-2.4744 1.9224 -0.5978
-2.5055 1.9356 -0.5896
-2.5342 1.9489 -0.5827
-2.5571 1.9639 -0.5794
-2.5635 1.9857 -0.5876
-2.5797 2.0038 -0.5891
-2.6082 2.0157 -0.5816
-2.6314 2.0297 -0.5776
-2.6434 2.0498 -0.5822
-2.6594 2.0678 -0.5837
-2.6652 2.0927 -0.5938
-2.6796 2.1126 -0.5972
-2.7012 2.1275 -0.5945
-2.7157 2.1476 -0.5979
-2.7358 2.1634 -0.5964
-2.7582 2.1767 -0.5924
-2.7730 2.1970 -0.5958
-2.7951 2.2100 -0.5918
-2.8049 2.2363 -0.6007
-2.8269 2.2492 -0.5968
-2.8459 2.2652 -0.5959
-2.8638 2.2826 -0.5962
-2.8842 2.2963 -0.5935
-2.9011 2.3150 -0.5950
-3.1243 2.1042 -0.3788
-3.1764 2.1184 -0.3610
-3.1799 2.2003 -0.4016
-3.1897 2.2182 -0.4061
-3.2779 2.2191 -0.3641
-3.2989 2.2263 -0.3577
-3.3091 2.2289 -0.3541
-3.3190 2.2373 -0.3537
-3.3289 2.2456 -0.3533
-3.3387 2.2564 -0.3541
-3.3486 2.2671 -0.3549
-3.3590 2.2868 -0.3600
-3.3691 2.2978 -0.3608
-2.2536 1.7546 -0.5873
-2.2970 1.8112 -0.5953
-2.3160 1.8296 -0.5956
-2.3476 1.8456 -0.5890
-2.3725 1.8625 -0.5859
-2.3932 1.8800 -0.5851
-2.4069 1.8994 -0.5883
-2.4472 1.9348 -0.5873
-2.4659 1.9529 -0.5876
-2.4818 1.9720 -0.5897
-2.5006 1.9901 -0.5901
-2.5262 2.0052 -0.5858
-2.5490 2.0212 -0.5832
-2.6168 2.0966 -0.5892
-2.6392 2.1122 -0.5866
-2.6628 2.1265 -0.5829
-2.6692 2.1534 -0.5931
-2.6934 2.1672 -0.5888
-2.7732 2.2334 -0.5849
-2.7875 2.2558 -0.5894
-2.8049 2.2751 -0.5909
-2.8218 2.2951 -0.5930
-2.8394 2.3146 -0.5945
-2.8566 2.3349 -0.5966
-3.1422 2.0944 -0.3486
-3.1559 2.0954 -0.3429
-3.1640 2.1106 -0.3466
-3.1699 2.1333 -0.3551
-3.1770 2.3288 -0.4476
-3.1931 2.3286 -0.4401
-3.2639 2.2231 -0.3562
-3.2756 2.2187 -0.3487
-3.2863 2.2217 -0.3453
-3.2968 2.2222 -0.3407
-3.3067 2.2305 -0.3403
-3.3166 2.2365 -0.3387
-3.3264 2.2448 -0.3383
-3.3362 2.2555 -0.3391
-3.3460 2.2649 -0.3393
-3.3558 2.2744 -0.3394
-3.3656 2.2839 -0.3396
-2.1330 1.7496 -0.6072
-2.2101 1.7849 -0.5904
-2.2475 1.8237 -0.5923
-2.2642 1.8435 -0.5943
-2.2810 1.8634 -0.5963
-2.3123 1.8802 -0.5906
-2.3290 1.9001 -0.5926
-2.3656 1.9147 -0.5836
-2.3667 1.9391 -0.5944
-2.4103 1.9506 -0.5810
-2.4240 1.9713 -0.5847
-2.4586 2.0109 -0.5882
-2.4825 2.0279 -0.5858
-2.4875 2.0536 -0.5955
-2.5189 2.0669 -0.5881
-2.5409 2.0845 -0.5868
-2.5628 2.1019 -0.5855
-2.5799 2.1222 -0.5875
-2.5911 2.1466 -0.5940
-2.6130 2.1641 -0.5927
-2.6326 2.1831 -0.5931
-2.6557 2.1993 -0.5906
-2.6739 2.2194 -0.5921
-2.6948 2.2372 -0.5914
-2.7181 2.2524 -0.5884
-2.7339 2.2750 -0.5921
-2.7505 2.2972 -0.5952
-2.7701 2.3162 -0.5956
-2.7848 2.3415 -0.6010
-2.8152 2.3464 -0.5902
-2.8305 2.3711 -0.5950
-3.1530 2.0992 -0.3300
-3.1608 2.1153 -0.3342
-3.1697 2.1288 -0.3366
-3.1797 2.1397 -0.3374
-3.1884 2.1555 -0.3409
-3.2614 2.2250 -0.3417
-3.2845 2.2154 -0.3273
-3.2945 2.2226 -0.3264
-3.3044 2.2298 -0.3254
-3.3142 2.2381 -0.3250
-3.3240 2.2451 -0.3241
-3.3337 2.2545 -0.3243
-3.3434 2.2639 -0.3244
-3.3532 2.2734 -0.3246
-2.1241 1.7778 -0.5911
-2.1552 1.7967 -0.5868
-2.1659 1.8182 -0.5919
-2.1999 1.8363 -0.5860
-2.2317 1.8782 -0.5915
-2.2618 1.8962 -0.5872
-2.2855 1.9154 -0.5860
-2.3296 1.9544 -0.5851
-2.3558 1.9724 -0.5824
-2.3706 1.9942 -0.5859
-2.3993 2.0109 -0.5815
-2.4277 2.0272 -0.5772
-2.4629 2.0687 -0.5811
-2.4782 2.0909 -0.5846
-2.5010 2.1093 -0.5834
-2.5119 2.1347 -0.5901
-2.5278 2.1575 -0.5937
-2.5530 2.1745 -0.5909
-2.7230 2.3280 -0.5891
-2.7451 2.3457 -0.5879
-2.7621 2.3696 -0.5915
-2.7842 2.3872 -0.5902
-2.8046 2.4070 -0.5906
-3.0969 2.0885 -0.3324
-3.1104 2.0929 -0.3289
-3.1308 2.0817 -0.3157
-3.1427 2.0870 -0.3132
-3.1505 2.1020 -0.3166
-3.1622 2.1072 -0.3141
-3.1715 2.1187 -0.3153
-3.1807 2.1312 -0.3171
-3.1896 2.1448 -0.3195
-3.2467 2.2298 -0.3335
-3.2588 2.2279 -0.3278
-3.2820 2.2182 -0.3141
-3.2922 2.2219 -0.3116
-3.3021 2.2290 -0.3107
-3.3118 2.2384 -0.3109
-3.3216 2.2454 -0.3100
-3.3313 2.2523 -0.3091
-3.3409 2.2604 -0.3087
-3.3504 2.2659 -0.3072
-2.0225 1.7703 -0.5944
-2.0493 1.7912 -0.5928
-2.0714 1.8126 -0.5932
-2.0845 1.8353 -0.5976
-2.1156 1.8554 -0.5940
-2.1485 1.8747 -0.5895
-2.1809 1.8937 -0.5849
-2.1953 1.9164 -0.5888
-2.2314 1.9338 -0.5822
-2.2530 1.9547 -0.5826
-2.2774 1.9747 -0.5815
-2.2960 1.9964 -0.5834
-2.3148 2.0183 -0.5853
-2.3575 2.0310 -0.5743
-2.3813 2.0503 -0.5731
-2.3936 2.0747 -0.5785
-2.4123 2.0965 -0.5804
-2.4278 2.1203 -0.5843
-2.4354 2.1488 -0.5932
-2.4660 2.1647 -0.5881
-2.4953 2.1807 -0.5835
-2.5008 2.2122 -0.5944
-2.5352 2.2243 -0.5863
-2.5595 2.2429 -0.5847
-2.5740 2.2693 -0.5901
-2.5908 2.2944 -0.5940
-2.6125 2.3154 -0.5944
-2.6279 2.3428 -0.5998
-2.6474 2.3666 -0.6023
-2.6754 2.3812 -0.5976
-2.7070 2.3907 -0.5894
-2.7285 2.4115 -0.5898
-2.7521 2.4294 -0.5882
-2.7751 2.4479 -0.5871
-3.1082 2.0651 -0.3019
-3.1203 2.0706 -0.2995
-3.1315 2.0777 -0.2982
-3.1402 2.0899 -0.2999
-3.1501 2.0995 -0.3001
-3.1618 2.1045 -0.2977
-3.1719 2.1131 -0.2974
-3.1814 2.1235 -0.2981
-3.1901 2.1370 -0.3003
-3.2797 2.2187 -0.2999
-3.2898 2.2235 -0.2980
-3.2997 2.2318 -0.2977
-3.3095 2.2388 -0.2968
-3.3191 2.2482 -0.2970
-3.3288 2.2538 -0.2956
-3.3384 2.2593 -0.2942
-3.3478 2.2634 -0.2923
-3.3571 2.2687 -0.2910
-1.9129 1.7614 -0.5960
-1.9507 1.7828 -0.5909
-1.9786 1.8049 -0.5894
-2.0064 1.8267 -0.5880
-2.0205 1.8505 -0.5922
-2.0571 1.8707 -0.5870
-2.0758 1.8939 -0.5893
-2.1793 1.9803 -0.5858
-2.2061 2.0013 -0.5843
-2.2518 2.0455 -0.5852
-2.3273 2.1085 -0.5826
-2.3396 2.1355 -0.5887
-2.3785 2.1493 -0.5801
-2.3978 2.1730 -0.5825
-2.4941 2.2562 -0.5803
-2.5165 2.2779 -0.5807
-2.5666 2.3592 -0.5944
-2.5870 2.3839 -0.5967
-2.6238 2.3918 -0.5866
-2.6572 2.4016 -0.5784
-2.7098 2.3871 -0.5540
-2.7327 2.4054 -0.5529
-2.7538 2.4259 -0.5533
-2.7818 2.4366 -0.5475
-3.1196 2.0700 -0.2843
-3.1310 2.0761 -0.2825
-3.1412 2.0847 -0.2822
-3.1520 2.0914 -0.2810
-3.1624 2.0989 -0.2802
-3.1811 2.1196 -0.2815
-3.1891 2.1348 -0.2846
-3.2550 2.2226 -0.2951
-3.2662 2.2234 -0.2914
-3.2771 2.2227 -0.2872
-3.2874 2.2263 -0.2849
-3.2973 2.2333 -0.2841
-3.3071 2.2403 -0.2833
-3.3167 2.2497 -0.2835
-3.3264 2.2553 -0.2822
-3.3360 2.2620 -0.2814
-3.3455 2.2687 -0.2806
-3.3549 2.2753 -0.2798
-1.8664 1.7972 -0.5887
-1.9108 1.8187 -0.5817
-1.9259 1.8435 -0.5857
-1.9594 1.8657 -0.5826
-1.9792 1.8900 -0.5848
-2.0035 1.9136 -0.5853
-2.0279 1.9371 -0.5857
-2.0701 1.9564 -0.5786
-2.0848 1.9821 -0.5830
-2.1090 2.0055 -0.5835
-2.1252 2.0314 -0.5875
-2.1535 2.0537 -0.5862
-2.1739 2.0786 -0.5884
-2.2020 2.1007 -0.5870
-2.2262 2.1242 -0.5875
-2.2470 2.1493 -0.5897
-2.2748 2.1711 -0.5884
-2.3101 2.1888 -0.5830
-2.3613 2.2334 -0.5821
-2.3687 2.2672 -0.5920
-2.3899 2.2928 -0.5942
-2.4173 2.3143 -0.5928
-2.4570 2.3260 -0.5839
-2.4838 2.3469 -0.5825
-2.5048 2.3724 -0.5847
-2.5147 2.4086 -0.5946
-2.5332 2.4379 -0.5991
-2.6669 2.3909 -0.5373
-2.6963 2.4029 -0.5319
-2.7217 2.4186 -0.5291
-2.7502 2.4297 -0.5236
-2.7745 2.4456 -0.5213
-3.1068 2.0641 -0.2714
-3.1175 2.0720 -0.2706
-3.1298 2.0763 -0.2681
-3.1415 2.0812 -0.2660
-3.1522 2.0878 -0.2648
-3.1635 2.0924 -0.2627
-3.1745 2.0968 -0.2606
-3.1824 2.1107 -0.2631
-3.1901 2.1257 -0.2660
-3.1980 2.1411 -0.2689
-3.2054 2.2803 -0.3171
-3.2517 2.2311 -0.2837
-3.2633 2.2297 -0.2793
-3.2746 2.2266 -0.2744
-3.2854 2.2231 -0.2696
-3.2952 2.2301 -0.2688
-3.3050 2.2345 -0.2672
-3.3146 2.2412 -0.2664
-3.3241 2.2504 -0.2666
-3.3335 2.2532 -0.2644
-3.3429 2.2610 -0.2641
-3.3523 2.2714 -0.2648
-1.7093 1.7912 -0.5983
-1.7288 1.8178 -0.6013
-1.7686 1.8422 -0.5972
-1.8009 1.8671 -0.5956
-1.8557 1.8882 -0.5857
-1.8973 1.9106 -0.5804
-2.0146 2.0062 -0.5765
-2.0309 2.0335 -0.5807
-2.0636 2.0895 -0.5896
-2.0705 2.1218 -0.5984
-2.1109 2.1417 -0.5926
-2.2554 2.2215 -0.5748
-2.2880 2.2416 -0.5715
-2.3024 2.2721 -0.5774
-2.3308 2.2945 -0.5762
-2.3638 2.3559 -0.5868
-2.4468 2.4248 -0.5844
-2.5009 2.4708 -0.5832
-2.5110 2.5113 -0.5939
-2.5338 2.5397 -0.5964
-2.5716 2.5507 -0.5884
-3.1075 2.0611 -0.2552
-3.1303 2.0729 -0.2521
-3.1414 2.0785 -0.2506
-3.1550 2.0776 -0.2460
-3.1639 2.0875 -0.2466
-3.1739 2.0946 -0.2459
-3.1834 2.1026 -0.2457
-3.1906 2.1185 -0.2488
-3.1994 2.1296 -0.2499
-3.2493 2.2329 -0.2695
-3.2612 2.2291 -0.2645
-3.2732 2.2177 -0.2569
-3.2835 2.2199 -0.2545
-3.2935 2.2207 -0.2516
-3.3030 2.2286 -0.2513
-3.3124 2.2364 -0.2511
-3.3218 2.2430 -0.2504
-3.3311 2.2520 -0.2506
-3.3405 2.2611 -0.2507
-3.3498 2.2701 -0.2509
-1.6706 1.8310 -0.5820
-1.6852 1.8594 -0.5867
-1.7201 1.8854 -0.5849
-1.7729 1.9081 -0.5769
-1.7935 1.9359 -0.5797
-1.8034 1.9660 -0.5865
-1.8311 1.9929 -0.5870
-1.8759 2.0156 -0.5813
-1.8981 2.0436 -0.5837
-1.9195 2.0721 -0.5866
-1.9472 2.0989 -0.5871
-1.9964 2.1181 -0.5790
-2.0083 2.1503 -0.5857
-2.0680 2.2016 -0.5848
-2.0909 2.2303 -0.5872
-2.1185 2.2570 -0.5878
-2.1555 2.2786 -0.5839
-2.2046 2.2926 -0.5742
-2.2191 2.3261 -0.5806
-2.2582 2.3446 -0.5752
-2.2733 2.3786 -0.5816
-2.2921 2.4109 -0.5864
-2.3150 2.4408 -0.5893
-2.3345 2.4739 -0.5942
-2.3664 2.4970 -0.5923
-2.4048 2.5136 -0.5865
-2.4531 2.5191 -0.5743
-2.4452 2.5811 -0.5962
-2.4902 2.5885 -0.5856
-2.5263 2.6041 -0.5801
-2.6063 2.5629 -0.5440
-2.6531 2.5579 -0.5289
-3.1196 2.0637 -0.2379
-3.1308 2.0694 -0.2365
-3.1430 2.0722 -0.2338
-3.1542 2.0766 -0.2320
-3.1645 2.0826 -0.2310
-3.1739 2.0905 -0.2307
-3.1837 2.0974 -0.2301
-3.1915 2.1102 -0.2319
-3.2474 2.2313 -0.2541
-3.2586 2.2319 -0.2511
-3.2712 2.2169 -0.2427
-3.2814 2.2191 -0.2405
-3.2912 2.2234 -0.2390
-3.3008 2.2276 -0.2375
-3.3102 2.2353 -0.2373
-3.3195 2.2444 -0.2375
-3.3288 2.2534 -0.2376
-3.3381 2.2624 -0.2378
-3.3473 2.2687 -0.2372
-1.6316 1.9054 -0.5730
-1.6539 1.9348 -0.5757
-1.6686 1.9659 -0.5809
-1.7048 1.9932 -0.5793
-1.7775 2.0466 -0.5757
-1.8004 2.0766 -0.5784
-1.8225 2.1072 -0.5814
-1.8650 2.1314 -0.5773
-1.9059 2.1554 -0.5734
-1.9638 2.2115 -0.5745
-2.0400 2.3008 -0.5805
-2.0579 2.3351 -0.5858
-2.0873 2.3636 -0.5863
-2.1225 2.3886 -0.5843
-2.1462 2.4206 -0.5874
-2.1905 2.4388 -0.5809
-2.2345 2.5061 -0.5890
-2.2776 2.5232 -0.5825
-2.3357 2.5795 -0.5836
-2.3608 2.6115 -0.5864
-2.3777 2.6527 -0.5939
-2.4229 2.6638 -0.5852
-2.6129 2.5538 -0.5024
-3.1096 2.0538 -0.2235
-3.1230 2.0551 -0.2203
-3.1318 2.0649 -0.2208
-3.1427 2.0703 -0.2195
-3.1633 2.0824 -0.2176
-3.1741 2.0863 -0.2159
-3.1827 2.0960 -0.2164
-3.1914 2.1057 -0.2170
-3.1978 2.1237 -0.2205
-3.2047 2.1420 -0.2241
-3.2451 2.2319 -0.2397
-3.2566 2.2313 -0.2365
-3.2683 2.2244 -0.2314
-3.2788 2.2242 -0.2285
-3.2891 2.2212 -0.2249
-3.2986 2.2277 -0.2243
-3.3079 2.2355 -0.2241
-3.3172 2.2444 -0.2242
-3.3265 2.2521 -0.2240
-3.3357 2.2584 -0.2234
-1.4840 1.9352 -0.5740
-1.5156 1.9658 -0.5745
-1.5709 1.9918 -0.5681
-1.6020 2.0219 -0.5687
-1.6332 2.0521 -0.5692
-1.6419 2.0881 -0.5769
-1.6734 2.1186 -0.5774
-1.6978 2.1514 -0.5804
-1.7578 2.1728 -0.5715
-1.7889 2.2029 -0.5721
-1.8065 2.2383 -0.5774
-1.8313 2.2715 -0.5803
-1.8759 2.2963 -0.5762
-1.9071 2.3266 -0.5768
-1.9260 2.3632 -0.5821
-1.9576 2.3938 -0.5827
-1.9832 2.4278 -0.5856
-2.0265 2.4514 -0.5814
-2.0749 2.4707 -0.5749
-2.1004 2.5046 -0.5778
-2.1100 2.5506 -0.5879
-2.1575 2.5690 -0.5813
-2.1734 2.6120 -0.5891
-2.2101 2.6383 -0.5873
-2.2465 2.6644 -0.5855
-2.2779 2.6948 -0.5860
-2.3230 2.7109 -0.5794
-2.3672 2.7262 -0.5728
-2.6168 2.5482 -0.4637
-3.1100 2.0513 -0.2088
-3.1220 2.0551 -0.2069
-3.1321 2.0622 -0.2063
-3.1425 2.0683 -0.2055
-3.1543 2.0706 -0.2032
-3.1647 2.0754 -0.2020
-3.1742 2.0820 -0.2014
-3.1837 2.0886 -0.2009
-3.1916 2.1002 -0.2021
-3.1978 2.1180 -0.2054
-3.2423 2.2371 -0.2268
-3.2536 2.2376 -0.2242
-3.2661 2.2248 -0.2177
-3.2767 2.2232 -0.2147
-3.2865 2.2275 -0.2134
-3.2963 2.2304 -0.2118
-3.3057 2.2368 -0.2113
-3.3150 2.2419 -0.2104
-3.3242 2.2456 -0.2092
-3.3333 2.2518 -0.2086
-1.2547 1.9399 -0.5798
-1.3105 1.9703 -0.5749
-1.4505 2.0622 -0.5667
-1.5448 2.1204 -0.5602
-1.5780 2.1526 -0.5608
-1.6445 2.2170 -0.5620
-1.6608 2.2553 -0.5679
-1.7032 2.2844 -0.5657
-1.6889 2.3366 -0.5819
-1.7148 2.3737 -0.5853
-1.7732 2.3958 -0.5779
-1.8287 2.4178 -0.5710
-1.8483 2.4579 -0.5766
-1.8753 2.4947 -0.5797
-1.9019 2.5323 -0.5832
-2.1172 2.6033 -0.5530
-2.1039 2.6724 -0.5731
-2.1308 2.7104 -0.5765
-2.1359 2.7696 -0.5901
-2.1582 2.8149 -0.5964
-2.1988 2.8424 -0.5942
-2.2499 2.8574 -0.5866
-3.1206 2.0559 -0.1939
-3.1311 2.0621 -0.1931
-3.1422 2.0663 -0.1917
-3.1536 2.0693 -0.1899
-3.1640 2.0741 -0.1888
-3.1734 2.0806 -0.1883
-3.1832 2.0861 -0.1875
-3.1909 2.0976 -0.1886
-3.1982 2.1112 -0.1904
-3.2057 2.1251 -0.1922
-3.2516 2.2369 -0.2098
-3.2634 2.2299 -0.2054
-3.2743 2.2259 -0.2020
-3.2847 2.2240 -0.1992
-3.2942 2.2280 -0.1981
-3.3037 2.2306 -0.1966
-3.3129 2.2368 -0.1961
-3.3220 2.2456 -0.1963
-3.3310 2.2544 -0.1965
-3.3400 2.2605 -0.1960
-1.1128 1.9688 -0.5643
-1.1144 2.0103 -0.5734
-1.1404 2.0488 -0.5769
-1.2351 2.0739 -0.5636
-1.2719 2.1096 -0.5642
-1.2757 2.1532 -0.5734
-1.3023 2.1923 -0.5769
-1.3671 2.2683 -0.5811
-1.4558 2.2876 -0.5676
-1.5305 2.3093 -0.5575
-1.5754 2.3408 -0.5556
-1.5757 2.3904 -0.5668
-1.6123 2.4258 -0.5675
-1.6397 2.4657 -0.5710
-1.6764 2.5013 -0.5717
-1.7044 2.5417 -0.5752
-1.8111 2.5930 -0.5654
-2.0796 2.6358 -0.5211
-2.0585 2.7127 -0.5428
-1.9930 2.8345 -0.5835
-2.0442 2.8574 -0.5784
-2.0674 2.9065 -0.5849
-2.1302 2.9154 -0.5743
-2.1845 2.9307 -0.5668
-3.0936 2.0519 -0.1851
-3.1063 2.0549 -0.1833
-3.1188 2.0576 -0.1814
-3.1319 2.0583 -0.1789
-3.1417 2.0651 -0.1785
-3.1534 2.0671 -0.1766
-3.1621 2.0756 -0.1767
-3.1723 2.0802 -0.1757
-3.1814 2.0876 -0.1756
-3.1884 2.1011 -0.1772
-3.1963 2.1127 -0.1783
-3.2046 2.1234 -0.1790
-3.2132 2.1330 -0.1795
-3.2494 2.2374 -0.1958
-3.2613 2.2302 -0.1918
-3.2727 2.2213 -0.1875
-3.2826 2.2229 -0.1859
-3.2922 2.2269 -0.1849
-3.3015 2.2306 -0.1838
-3.3106 2.2394 -0.1840
-3.3197 2.2455 -0.1835
-3.3287 2.2543 -0.1837
-3.3378 2.2630 -0.1839
-0.8760 2.1068 -0.5819
-0.9181 2.1476 -0.5826
-0.9884 2.1821 -0.5771
-1.0709 2.2123 -0.5684
-1.0446 2.2701 -0.5850
-1.0729 2.3150 -0.5891
-1.1811 2.3352 -0.5737
-1.3117 2.3971 -0.5629
-1.3637 2.4313 -0.5606
-1.3689 2.4848 -0.5706
-1.3983 2.5293 -0.5744
-1.4613 2.5582 -0.5690
-1.5126 2.5917 -0.5666
-1.7176 2.6559 -0.5428
-1.7295 2.7103 -0.5519
-1.7410 2.7671 -0.5614
-1.8808 3.0127 -0.5866
-1.9548 3.0199 -0.5747
-2.0401 3.0112 -0.5576
-3.1064 2.0531 -0.1695
-3.1174 2.0584 -0.1686
-3.1310 2.0581 -0.1661
-3.1416 2.0630 -0.1652
-3.1528 2.0658 -0.1638
-3.1630 2.0703 -0.1628
-3.1720 2.0777 -0.1627
-3.1792 2.0900 -0.1640
-3.1866 2.1025 -0.1652
-3.1965 2.1068 -0.1643
-3.2063 2.1109 -0.1634
-3.2467 2.2414 -0.1828
-3.2588 2.2330 -0.1789
-3.2703 2.2240 -0.1750
-3.2804 2.2243 -0.1732
-3.2900 2.2282 -0.1723
-3.2994 2.2306 -0.1711
-3.3084 2.2394 -0.1713
-3.3175 2.2468 -0.1712
-3.3265 2.2555 -0.1713
-3.3355 2.2642 -0.1715
-0.5711 2.1208 -0.5726
-0.6538 2.1589 -0.5664
-0.8278 2.2285 -0.5515
-0.8721 2.2715 -0.5523
-0.9317 2.3102 -0.5499
-0.9757 2.3528 -0.5508
-0.9599 2.4147 -0.5646
-0.9897 2.4638 -0.5689
-1.0352 2.5079 -0.5697
-1.0955 2.5460 -0.5671
-1.1407 2.5897 -0.5679
-1.1859 2.6335 -0.5688
-1.2580 2.6641 -0.5629
-1.3153 2.7006 -0.5605
-1.3721 2.7367 -0.5580
-1.4639 2.7511 -0.5461
-1.6232 2.7199 -0.5150
-1.7288 2.7153 -0.4973
-1.9522 2.8070 -0.4785
-2.0101 2.8239 -0.4724
-1.9974 2.9050 -0.4893
-2.0060 2.9702 -0.4999
-2.2016 2.9118 -0.4580
-3.1051 2.0540 -0.1567
-3.1185 2.0547 -0.1548
-3.1402 2.0636 -0.1529
-3.1518 2.0654 -0.1514
-3.1616 2.0708 -0.1508
-3.1691 2.0821 -0.1517
-3.1791 2.0864 -0.1509
-3.1903 2.0864 -0.1491
-3.1987 2.0945 -0.1493
-3.2119 2.1723 -0.1614
-3.2438 2.2478 -0.1702
-3.2561 2.2381 -0.1665
-3.2671 2.2352 -0.1642
-3.2777 2.2319 -0.1619
-3.2875 2.2333 -0.1606
-3.2969 2.2370 -0.1598
-3.3061 2.2445 -0.1597
-3.3152 2.2520 -0.1596
-3.3242 2.2594 -0.1595
0.0283 2.1118 -0.5885
-0.1270 2.1489 -0.5730
-0.5791 2.3562 -0.5438
-0.6972 2.4460 -0.5420
-0.6703 2.5182 -0.5575
-0.7011 2.5740 -0.5623
-0.7520 2.6232 -0.5632
-0.7849 2.6797 -0.5678
-0.8722 2.7137 -0.5612
-0.9227 2.7626 -0.5621
-0.9899 2.8032 -0.5594
-1.0565 2.8431 -0.5566
-1.1223 2.8823 -0.5538
-1.2749 2.8690 -0.5305
-1.8265 2.8452 -0.4500
-1.9204 2.8365 -0.4355
-1.9937 2.8407 -0.4260
-2.0301 2.8759 -0.4267
-2.0464 2.9312 -0.4334
-3.1053 2.0521 -0.1434
-3.1172 2.0555 -0.1423
-3.1292 2.0576 -0.1410
-3.1402 2.0614 -0.1401
-3.1517 2.0630 -0.1388
-3.1607 2.0703 -0.1387
-3.1707 2.0745 -0.1380
-3.1798 2.0806 -0.1377
-3.1905 2.0815 -0.1364
-3.2003 2.0842 -0.1354
-3.2055 2.1029 -0.1378
-3.2095 2.1285 -0.1414
-3.2151 2.1503 -0.1441
-3.2268 2.2680 -0.1616
-3.2511 2.2616 -0.1572
-0.3317 2.4313 -0.5143
-0.3853 2.4832 -0.5153
-2.1392 2.8398 -0.3573
-2.5097 2.5676 -0.2746
-3.1050 2.0511 -0.1306
-3.1168 2.0543 -0.1297
-3.1284 2.0573 -0.1287
-3.1411 2.0572 -0.1272
-3.1492 2.0664 -0.1275
-3.1597 2.0697 -0.1267
-3.1693 2.0749 -0.1263
-3.1809 2.0738 -0.1248
-3.1908 2.0765 -0.1240
-3.1993 2.0833 -0.1240
-3.2110 2.1166 -0.1273
-3.2176 2.1326 -0.1288
-3.2275 2.2509 -0.1444
-3.2373 2.2631 -0.1449
-3.2480 2.2693 -0.1445
-3.2583 2.2766 -0.1443
-3.2677 2.2939 -0.1457
-3.2776 2.3076 -0.1464
-3.2873 2.3266 -0.1480
-3.2975 2.3420 -0.1490
-3.3081 2.3468 -0.1484
-3.3185 2.3514 -0.1478
-3.3288 2.3559 -0.1472
-0.0503 2.1871 -0.4376
-1.7128 2.6194 -0.3252
-1.7148 2.6768 -0.3319
-2.0589 2.8521 -0.3191
-2.3315 2.7060 -0.2743
-3.0907 2.0503 -0.1194
-3.1053 2.0492 -0.1178
-3.1171 2.0523 -0.1170
-3.1286 2.0551 -0.1162
-3.1385 2.0606 -0.1159
-3.1509 2.0601 -0.1146
-3.1592 2.0682 -0.1148
-3.1814 2.0689 -0.1127
-3.1902 2.0746 -0.1125
-3.1985 2.0813 -0.1125
-3.2041 2.0978 -0.1139
-3.2103 2.1135 -0.1152
-3.2150 2.1859 -0.1235
-3.2202 2.2159 -0.1267
-3.2295 2.2276 -0.1272
-3.2388 2.2394 -0.1277
-3.2484 2.2501 -0.1280
-3.2581 2.2595 -0.1282
-3.2676 2.2715 -0.1287
-3.2774 2.2810 -0.1289
-3.2871 2.2918 -0.1292
-3.2970 2.2999 -0.1292
-3.3065 2.3188 -0.1306
-3.3164 2.3284 -0.1308
-3.3263 2.3477 -0.1321
-1.7205 2.6196 -0.2738
-1.7054 2.6874 -0.2819
-1.6808 2.7655 -0.2917
-2.1121 2.8034 -0.2612
-3.0900 2.0502 -0.1069
-3.1149 2.0547 -0.1053
-3.1278 2.0547 -0.1043
-3.1386 2.0582 -0.1038
-3.1483 2.0634 -0.1036
-3.1612 2.0605 -0.1022
-3.1709 2.0644 -0.1018
-3.1805 2.0680 -0.1015
-3.1896 2.0726 -0.1012
-3.1972 2.0814 -0.1015
-3.2007 2.1448 -0.1076
-3.2068 2.1647 -0.1092
-3.2139 2.1827 -0.1104
-3.2219 2.1975 -0.1113
-3.2306 2.2101 -0.1119
-3.2401 2.2179 -0.1119
-3.2493 2.2282 -0.1122
-3.2576 2.2460 -0.1133
-3.2671 2.2552 -0.1135
-3.2767 2.2631 -0.1135
-3.2856 2.2801 -0.1146
-3.2952 2.2894 -0.1147
-3.3048 2.2987 -0.1149
-3.3144 2.3094 -0.1152
-3.3240 2.3214 -0.1157
0.7859 2.2087 -0.3423
0.2542 2.2650 -0.3147
0.4172 2.3632 -0.3326
0.7567 2.5069 -0.3649
0.8104 2.6012 -0.3758
0.7399 2.6695 -0.3771
0.5899 2.7163 -0.3719
-1.6945 2.6402 -0.2272
-1.7223 2.6812 -0.2288
-1.6617 2.7829 -0.2408
-1.7008 2.8207 -0.2415
-1.7121 2.8795 -0.2456
-1.8829 2.8790 -0.2352
-1.9927 2.8502 -0.2262
-2.0913 2.8247 -0.2182
-2.1536 2.8288 -0.2147
-3.0910 2.0474 -0.0942
-3.1024 2.0515 -0.0938
-3.1142 2.0544 -0.0933
-3.1271 2.0543 -0.0925
-3.1369 2.0596 -0.0924
-3.1510 2.0550 -0.0911
-3.1592 2.0629 -0.0913
-3.1701 2.0636 -0.0907
-3.1770 2.0745 -0.0912
-3.1840 2.0855 -0.0916
-3.1900 2.1377 -0.0955
-3.1982 2.1485 -0.0959
-3.2065 2.1593 -0.0963
-3.2149 2.1703 -0.0967
-3.2222 2.1872 -0.0976
-3.2312 2.1959 -0.0978
-3.2397 2.2084 -0.0983
-3.2487 2.2185 -0.0986
-3.2578 2.2273 -0.0987
-3.2664 2.2413 -0.0993
-3.2756 2.2515 -0.0996
-3.2848 2.2605 -0.0998
-3.2939 2.2721 -0.1002
-3.3031 2.2825 -0.1005
-3.3122 2.3011 -0.1014
-3.3218 2.3005 -0.1008
0.5593 2.6392 -0.2712
0.7291 2.7695 -0.2864
-2.8088 2.1190 -0.0982
-2.2575 2.7257 -0.1589
-2.4047 2.6855 -0.1503
-2.4912 2.6417 -0.1440
-3.1007 2.0531 -0.0820
-3.1150 2.0513 -0.0812
-3.1254 2.0558 -0.0811
-3.1390 2.0533 -0.0804
-3.1490 2.0573 -0.0802
-3.1575 2.0642 -0.0803
-3.1609 2.0844 -0.0814
-3.1697 2.0915 -0.0815
-3.1820 2.1219 -0.0828
-3.1890 2.1358 -0.0834
-3.1978 2.1442 -0.0836
-3.2062 2.1538 -0.0838
-3.2139 2.1670 -0.0843
-3.2221 2.1791 -0.0847
-3.2314 2.1853 -0.0847
-3.2400 2.1950 -0.0850
-3.2489 2.2036 -0.0851
-3.2568 2.2198 -0.0858
-3.2652 2.2336 -0.0863
-3.2746 2.2398 -0.0863
-3.2833 2.2525 -0.0867
-3.2922 2.2640 -0.0871
-3.3013 2.2742 -0.0873
-3.3104 2.2858 -0.0876
-0.2243 2.3256 -0.1485
0.5016 2.6391 -0.1788
0.7470 2.7897 -0.1909
0.4551 2.9697 -0.1919
0.5012 3.0805 -0.1977
0.4916 3.4938 -0.2152
-1.6761 2.6610 -0.1292
-2.7812 2.0937 -0.0792
-2.8222 2.1077 -0.0789
-3.0876 2.0507 -0.0703
-3.1017 2.0500 -0.0699
-3.1257 2.0534 -0.0695
-3.1369 2.0556 -0.0693
-3.1447 2.0646 -0.0695
-3.1513 2.0767 -0.0699
-3.1596 2.0847 -0.0700
-3.1660 2.0981 -0.0705
-3.1738 2.1084 -0.0707
-3.1823 2.1167 -0.0709
-3.1904 2.1260 -0.0711
-3.1971 2.1410 -0.0716
-3.2055 2.1505 -0.0718
-3.2133 2.1624 -0.0721
-3.2218 2.1721 -0.0723
-3.2303 2.1817 -0.0726
-3.2390 2.1902 -0.0727
-3.2472 2.2024 -0.0731
-3.2557 2.2135 -0.0733
-3.2644 2.2233 -0.0736
-3.2728 2.2372 -0.0740
-3.2819 2.2432 -0.0740
-3.2909 2.2504 -0.0741
-3.2995 2.2659 -0.0746
-3.3086 2.2718 -0.0746
-3.3175 2.2847 -0.0750
-0.1781 2.2276 -0.0768
-0.2286 2.2764 -0.0777
-0.2114 2.3403 -0.0794
-0.0156 2.4498 -0.0829
0.4522 2.7216 -0.0918
0.6332 3.4609 -0.1104
0.5196 3.6356 -0.1140
-2.7526 2.0473 -0.0599
-2.7634 2.0850 -0.0607
-2.8037 2.0766 -0.0603
-2.8309 2.0771 -0.0602
-2.8489 2.0844 -0.0603
-3.0979 2.0553 -0.0584
-3.1122 2.0533 -0.0583
-3.1232 2.0567 -0.0583
-3.1315 2.0648 -0.0585
-3.1417 2.0689 -0.0585
-3.1500 2.0770 -0.0587
-3.1583 2.0850 -0.0588
-3.1655 2.0963 -0.0590
-3.1735 2.1054 -0.0592
-3.1815 2.1147 -0.0594
