ply
format ascii 1.0
element vertex 2120
property float x
property float y
property float z
end_header
-2.1156 2.3548 -0.5647
-2.1342 2.3668 -0.5722
-2.1550 2.3748 -0.5764
-2.1791 2.3746 -0.5739
-2.2046 2.3695 -0.5675
-2.2257 2.3775 -0.5717
-2.2458 2.3906 -0.5798
-2.2680 2.3971 -0.5827
-2.2921 2.3952 -0.5789
-2.3159 2.3933 -0.5751
-2.3389 2.3947 -0.5740
-2.3614 2.4012 -0.5769
-2.3837 2.4129 -0.5837
-2.4070 2.4126 -0.5812
-2.4299 2.4071 -0.5748
-2.4533 2.4275 -0.5883
-2.4760 2.4220 -0.5818
-2.4992 2.4269 -0.5834
-2.5230 2.4353 -0.5876
-2.5451 2.4315 -0.5825
-2.5661 2.4240 -0.5747
-2.5912 2.4377 -0.5829
-2.6147 2.4427 -0.5844
-2.6332 2.4297 -0.5726
-2.6432 2.3923 -0.5428
-2.6634 2.3916 -0.5404
-2.6822 2.3882 -0.5359
-2.7011 2.3856 -0.5321
-2.7259 2.3976 -0.5389
-2.7570 2.4225 -0.5551
-2.7931 2.4550 -0.5767
-2.8205 2.4673 -0.5835
-2.8425 2.4686 -0.5824
-2.8654 2.4717 -0.5826
-2.8894 2.4767 -0.5842
-2.9147 2.4836 -0.5870
-2.9366 2.4849 -0.5859
-2.9609 2.4899 -0.5874
-2.9867 2.4969 -0.5903
-3.0043 2.4924 -0.5852
-3.0244 2.4917 -0.5827
-3.0375 2.4823 -0.5742
-3.0422 2.4631 -0.5590
-3.0528 2.4525 -0.5498
-3.0684 2.4486 -0.5453
-1.6164 2.3388 -0.5723
-1.7756 2.3701 -0.5807
-1.8048 2.3680 -0.5765
-1.8227 2.3783 -0.5824
-1.8502 2.3777 -0.5794
-1.8769 2.3779 -0.5771
-1.9021 2.3796 -0.5761
-1.9273 2.3813 -0.5750
-1.9550 2.3790 -0.5708
-1.9751 2.3878 -0.5754
-2.0769 2.3886 -0.5668
-2.1019 2.3886 -0.5645
-2.1903 2.4171 -0.5773
-2.2159 2.4146 -0.5731
-2.2377 2.4253 -0.5790
-2.2867 2.4260 -0.5750
-2.3090 2.4386 -0.5822
-2.3333 2.4401 -0.5811
-2.3579 2.4374 -0.5769
-2.3810 2.4527 -0.5860
-2.4294 2.4533 -0.5820
-2.4535 2.4583 -0.5835
-2.4772 2.4563 -0.5798
-2.5021 2.4692 -0.5871
-2.5257 2.4681 -0.5841
-2.5495 2.4696 -0.5830
-2.5732 2.4711 -0.5820
-2.5983 2.4798 -0.5860
-2.6211 2.4777 -0.5824
-2.6298 2.4259 -0.5436
-2.6440 2.4026 -0.5253
-2.6628 2.3973 -0.5197
-2.6847 2.4021 -0.5212
-2.7052 2.4031 -0.5201
-2.7280 2.4097 -0.5228
-2.7535 2.4219 -0.5294
-2.7867 2.4490 -0.5463
-2.8133 2.4604 -0.5522
-2.8388 2.4692 -0.5563
-2.8679 2.4835 -0.5642
-2.8993 2.5009 -0.5740
-2.9298 2.5155 -0.5819
-2.9536 2.5187 -0.5821
-2.9711 2.5124 -0.5759
-2.9946 2.5156 -0.5761
-3.0050 2.5005 -0.5641
-3.0194 2.4921 -0.5566
-3.0339 2.4845 -0.5497
-3.0462 2.4749 -0.5416
-3.0538 2.4602 -0.5302
-3.0703 2.4573 -0.5265
-1.6362 2.3752 -0.5681
-1.6490 2.3893 -0.5768
-1.6675 2.3988 -0.5818
-1.6953 2.4000 -0.5802
-1.7206 2.4034 -0.5804
-1.7474 2.4053 -0.5795
-1.7676 2.4142 -0.5839
-1.7979 2.4122 -0.5799
-1.8310 2.4062 -0.5729
-1.8534 2.4128 -0.5755
-1.8796 2.4146 -0.5745
-1.9127 2.4068 -0.5663
-1.9345 2.4142 -0.5695
-1.9618 2.4135 -0.5667
-1.9854 2.4185 -0.5681
-2.0077 2.4259 -0.5714
-2.0347 2.4252 -0.5686
-2.1068 2.4395 -0.5723
-2.1316 2.4428 -0.5725
-2.1578 2.4420 -0.5697
-2.1830 2.4437 -0.5687
-2.2046 2.4572 -0.5762
-2.2276 2.4682 -0.5818
-2.2521 2.4742 -0.5839
-2.2793 2.4674 -0.5768
-2.3049 2.4665 -0.5740
-2.3299 2.4682 -0.5730
-2.3541 2.4776 -0.5775
-2.3790 2.4810 -0.5777
-2.4038 2.4879 -0.5803
-2.4288 2.4895 -0.5793
-2.4542 2.5062 -0.5887
-2.4793 2.5052 -0.5859
-2.5041 2.5042 -0.5831
-2.5294 2.5094 -0.5845
-2.5529 2.5021 -0.5774
-2.5794 2.5145 -0.5837
-2.6055 2.5224 -0.5870
-2.6307 2.5259 -0.5872
-2.6479 2.4230 -0.5142
-2.6692 2.4242 -0.5132
-2.6900 2.4244 -0.5115
-2.7118 2.4274 -0.5117
-2.7293 2.4201 -0.5052
-2.7554 2.4333 -0.5121
-2.7763 2.4344 -0.5111
-2.8013 2.4440 -0.5156
-2.8287 2.4573 -0.5225
-2.8599 2.4765 -0.5331
-2.9092 2.5253 -0.5628
-2.9501 2.5563 -0.5809
-2.9706 2.5530 -0.5768
-2.9838 2.5390 -0.5659
-2.9926 2.5200 -0.5520
-3.0058 2.5087 -0.5430
-3.0137 2.4914 -0.5302
-3.0303 2.4866 -0.5255
-3.0484 2.4601 -0.5055
-3.0648 2.4571 -0.5020
-1.5852 2.4255 -0.5768
-1.6021 2.4375 -0.5834
-1.6312 2.4388 -0.5819
-1.6514 2.4486 -0.5867
-1.6844 2.4461 -0.5824
-1.7147 2.4458 -0.5797
-1.7432 2.4470 -0.5782
-1.7696 2.4506 -0.5784
-1.7959 2.4542 -0.5787
-1.8613 2.4446 -0.5670
-1.8825 2.4545 -0.5719
-1.9068 2.4605 -0.5738
-1.9329 2.4641 -0.5740
-1.9644 2.4586 -0.5679
-2.0903 2.4829 -0.5737
-2.1955 2.4928 -0.5717
-2.2191 2.5049 -0.5777
-2.2447 2.5110 -0.5797
-2.2968 2.5199 -0.5813
-2.3503 2.5166 -0.5748
-2.3760 2.5245 -0.5779
-2.4021 2.5254 -0.5764
-2.4281 2.5378 -0.5825
-2.4542 2.5370 -0.5798
-2.5067 2.5468 -0.5820
-2.5340 2.5594 -0.5881
-2.5591 2.5539 -0.5825
-2.5867 2.5648 -0.5874
-2.6084 2.5465 -0.5736
-2.6262 2.5171 -0.5527
-2.6527 2.5269 -0.5571
-2.6984 2.4554 -0.5062
-2.7162 2.4463 -0.4987
-2.7365 2.4446 -0.4960
-2.7569 2.4439 -0.4939
-2.7739 2.4365 -0.4876
-2.7998 2.4480 -0.4931
-2.8291 2.4652 -0.5021
-2.8614 2.4864 -0.5134
-2.9085 2.5318 -0.5395
-2.9482 2.5611 -0.5556
-2.9644 2.5509 -0.5476
-2.9873 2.5195 -0.5250
-2.9968 2.5032 -0.5134
-3.0199 2.4798 -0.4962
-3.0310 2.4689 -0.4881
-3.0454 2.4629 -0.4830
-3.0625 2.4608 -0.4802
-1.5270 2.4827 -0.5868
-1.5757 2.4679 -0.5739
-1.6098 2.4654 -0.5698
-1.6620 2.4752 -0.5719
-1.6811 2.4877 -0.5782
-1.7087 2.4914 -0.5784
-1.7322 2.5000 -0.5820
-1.7753 2.4853 -0.5696
-1.8025 2.4891 -0.5698
-1.8260 2.4976 -0.5734
-1.8504 2.5054 -0.5763
-1.8840 2.5002 -0.5705
-1.9153 2.4973 -0.5664
-1.9398 2.5051 -0.5693
-1.9669 2.5088 -0.5696
-1.9975 2.5059 -0.5654
-2.0173 2.5237 -0.5750
-2.0512 2.5132 -0.5659
-2.0752 2.5236 -0.5705
-2.1013 2.5298 -0.5724
-2.1252 2.5429 -0.5788
-2.1813 2.5461 -0.5765
-2.2100 2.5447 -0.5734
-2.2350 2.5579 -0.5797
-2.2638 2.5547 -0.5755
-2.2907 2.5610 -0.5774
-2.3184 2.5621 -0.5760
-2.3456 2.5658 -0.5762
-2.3729 2.5696 -0.5765
-2.4000 2.5759 -0.5784
-2.4274 2.5717 -0.5736
-2.4548 2.5852 -0.5800
-2.4820 2.5871 -0.5791
-2.5103 2.6008 -0.5855
-2.5364 2.5919 -0.5779
-2.5636 2.5956 -0.5782
-2.5922 2.6066 -0.5829
-2.6118 2.5727 -0.5602
-2.6255 2.5238 -0.5287
-2.6567 2.5512 -0.5434
-2.6880 2.5742 -0.5553
-2.7162 2.5843 -0.5595
-2.7224 2.4702 -0.4878
-2.7401 2.4610 -0.4807
-2.7591 2.4564 -0.4765
-2.7782 2.4528 -0.4727
-2.7991 2.4539 -0.4718
-2.8195 2.4540 -0.4703
-2.8487 2.4704 -0.4784
-2.9017 2.5276 -0.5100
-2.9446 2.5629 -0.5287
-2.9601 2.5516 -0.5205
-2.9840 2.5219 -0.5001
-2.9976 2.5113 -0.4925
-3.0327 2.4777 -0.4689
-1.4616 2.5174 -0.5801
-1.4820 2.5292 -0.5856
-1.5226 2.5230 -0.5790
-1.5352 2.5427 -0.5897
-1.5810 2.5310 -0.5796
-1.6124 2.5326 -0.5782
-1.6460 2.5318 -0.5754
-1.6799 2.5301 -0.5720
-1.7128 2.5292 -0.5691
-1.7354 2.5404 -0.5740
-1.7578 2.5524 -0.5795
-1.7851 2.5589 -0.5813
-1.8160 2.5604 -0.5800
-1.8506 2.5561 -0.5750
-2.0630 2.5581 -0.5610
-2.0969 2.5466 -0.5518
-2.1189 2.5657 -0.5615
-2.1681 2.5967 -0.5762
-2.1968 2.6007 -0.5765
-2.2255 2.6046 -0.5768
-2.2526 2.6173 -0.5823
-2.2825 2.6151 -0.5788
-2.3120 2.6137 -0.5759
-2.3398 2.6265 -0.5815
-2.3687 2.6304 -0.5817
-2.3977 2.6308 -0.5799
-2.4558 2.6531 -0.5888
-2.4852 2.6607 -0.5912
-2.5127 2.6438 -0.5793
-2.5422 2.6541 -0.5832
-2.5697 2.6488 -0.5782
-2.5993 2.6583 -0.5816
-2.6233 2.5240 -0.5009
-2.6513 2.5404 -0.5085
-2.6851 2.5738 -0.5258
-2.7155 2.5914 -0.5340
-2.7573 2.6394 -0.5592
-2.7809 2.6327 -0.5536
-2.7721 2.4939 -0.4725
-2.7793 2.4626 -0.4536
-2.8013 2.4656 -0.4537
-2.8234 2.4686 -0.4539
-2.8480 2.4764 -0.4568
-2.9060 2.5428 -0.4917
-2.9439 2.5695 -0.5047
-2.9606 2.5601 -0.4980
-2.9834 2.5282 -0.4776
-3.0024 2.5254 -0.4746
-3.0126 2.5106 -0.4651
-3.0352 2.4876 -0.4500
-3.0426 2.4724 -0.4405
-1.4133 2.5660 -0.5774
-1.4378 2.5757 -0.5811
-1.4781 2.5712 -0.5759
-1.5829 2.5701 -0.5683
-1.6130 2.5742 -0.5686
-1.6388 2.5831 -0.5718
-1.6663 2.5905 -0.5741
-1.7146 2.5726 -0.5609
-1.7379 2.5849 -0.5662
-1.7721 2.5832 -0.5629
-1.7936 2.5988 -0.5702
-1.8331 2.5888 -0.5620
-1.8522 2.6095 -0.5722
-1.8809 2.6162 -0.5739
-1.9428 2.6219 -0.5730
-1.9742 2.6235 -0.5718
-2.0043 2.6276 -0.5720
-2.0931 2.5617 -0.5296
-2.1099 2.5966 -0.5478
-2.1540 2.6507 -0.5748
-2.1811 2.6671 -0.5821
-2.2124 2.6678 -0.5804
-2.2434 2.6693 -0.5791
-2.2738 2.6734 -0.5794
-2.3041 2.6776 -0.5797
-2.3339 2.6880 -0.5835
-2.3659 2.6706 -0.5717
-2.4256 2.6941 -0.5807
-2.4559 2.6946 -0.5790
-2.4862 2.6988 -0.5793
-2.5156 2.6937 -0.5745
-2.5448 2.6914 -0.5712
-2.5790 2.7250 -0.5876
-2.6072 2.7153 -0.5803
-2.6350 2.7073 -0.5740
-2.6210 2.5241 -0.4734
-2.6484 2.5387 -0.4797
-2.6830 2.5760 -0.4981
-2.7156 2.6013 -0.5099
-2.7538 2.6392 -0.5284
-2.7780 2.6343 -0.5241
-2.7715 2.5002 -0.4502
-2.7791 2.4695 -0.4326
-2.7979 2.4657 -0.4293
-2.8143 2.4579 -0.4239
-2.8369 2.4628 -0.4251
-2.8569 2.4628 -0.4238
-2.8842 2.4756 -0.4290
-2.9600 2.5667 -0.4744
-2.9760 2.5571 -0.4680
-2.9887 2.5434 -0.4596
-2.9990 2.5276 -0.4501
-3.0112 2.5156 -0.4427
-3.0385 2.4985 -0.4314
-3.0356 2.4700 -0.4158
-1.2952 2.6424 -0.5903
-1.3430 2.6343 -0.5831
-1.3935 2.6229 -0.5740
-1.4154 2.6368 -0.5799
-1.4380 2.6509 -0.5858
-1.4709 2.6554 -0.5861
-1.5193 2.6437 -0.5770
-1.5576 2.6416 -0.5736
-1.6765 2.6267 -0.5584
-1.7128 2.6244 -0.5549
-1.7413 2.6319 -0.5571
-1.7637 2.6487 -0.5644
-1.8324 2.6480 -0.5598
-1.8286 2.7115 -0.5931
-1.8749 2.6922 -0.5801
-1.9782 2.6917 -0.5734
-2.0314 2.6450 -0.5459
-2.0727 2.6205 -0.5305
-2.0864 2.6690 -0.5549
-2.1046 2.7126 -0.5765
-2.1624 2.7461 -0.5903
-2.1944 2.7541 -0.5925
-2.2313 2.7372 -0.5814
-2.2624 2.7487 -0.5855
-2.2957 2.7460 -0.5819
-2.3262 2.7684 -0.5917
-2.3609 2.7439 -0.5768
-2.3926 2.7519 -0.5790
-2.4246 2.7709 -0.5869
-2.4569 2.7716 -0.5853
-2.4899 2.7871 -0.5913
-2.5213 2.7768 -0.5839
-2.5552 2.7960 -0.5918
-2.5874 2.7967 -0.5902
-2.6238 2.8237 -0.6019
-2.6210 2.5335 -0.4512
-2.6455 2.5368 -0.4514
-2.6795 2.5734 -0.4683
-2.7149 2.6084 -0.4843
-2.7521 2.6437 -0.5004
-2.7843 2.6609 -0.5073
-2.8001 2.6347 -0.4927
-2.7763 2.4705 -0.4088
-2.7884 2.4530 -0.3989
-2.8043 2.4451 -0.3938
-2.8170 2.4322 -0.3863
-2.8409 2.4410 -0.3894
-2.8646 2.4488 -0.3920
-2.9066 2.4865 -0.4090
-2.9696 2.5545 -0.4404
-2.9821 2.5407 -0.4325
-2.9970 2.5317 -0.4269
-3.0091 2.5197 -0.4199
-3.0340 2.4993 -0.4077
-3.0334 2.4736 -0.3944
-1.3119 2.6694 -0.5658
-1.3376 2.6812 -0.5700
-1.3793 2.6786 -0.5664
-1.4055 2.6905 -0.5706
-1.4394 2.6951 -0.5709
-1.4733 2.6997 -0.5712
-1.5140 2.6970 -0.5675
-1.5383 2.7123 -0.5736
-1.6557 2.6601 -0.5414
-1.7164 2.6269 -0.5218
-1.7337 2.6495 -0.5318
-1.7284 2.7069 -0.5600
-1.7681 2.7012 -0.5550
-1.8257 2.7238 -0.5626
-1.9961 2.7360 -0.5588
-2.0641 2.6485 -0.5122
-2.0554 2.7635 -0.5687
-2.1540 2.7843 -0.5732
-2.1877 2.7889 -0.5735
-2.2243 2.7782 -0.5661
-2.2575 2.7828 -0.5664
-2.2892 2.7991 -0.5726
-2.3225 2.8073 -0.5746
-2.3559 2.8165 -0.5772
-2.3905 2.7972 -0.5658
-2.4235 2.8211 -0.5755
-2.4575 2.8377 -0.5817
-2.4909 2.8303 -0.5761
-2.5250 2.8395 -0.5787
-2.5597 2.8517 -0.5826
-2.5920 2.8441 -0.5770
-2.6265 2.8534 -0.5796
-2.6208 2.5420 -0.4283
-2.6463 2.5491 -0.4303
-2.6755 2.5688 -0.4382
-2.7405 2.6191 -0.4590
-2.7736 2.6412 -0.4678
-2.7669 2.4568 -0.3784
-2.7776 2.4371 -0.3682
-2.8037 2.4508 -0.3734
-2.8222 2.4487 -0.3713
-2.8453 2.4555 -0.3733
-2.8732 2.4704 -0.3789
-2.8994 2.4814 -0.3827
-2.9788 2.5429 -0.4081
-2.9950 2.5359 -0.4038
-3.0028 2.5176 -0.3944
-3.0168 2.5094 -0.3896
-3.0249 2.4939 -0.3816
-3.0288 2.4741 -0.3718
-3.0471 2.4739 -0.3706
-1.2754 2.7461 -0.5656
-1.2940 2.7673 -0.5742
-1.3221 2.7804 -0.5787
-1.3708 2.7731 -0.5728
-1.3993 2.7863 -0.5772
-1.4576 2.7673 -0.5655
-1.4832 2.7838 -0.5716
-1.5124 2.7971 -0.5761
-1.5521 2.7978 -0.5744
-1.6248 2.7548 -0.5510
-1.7261 2.6673 -0.5059
-1.8012 2.8411 -0.5808
-1.8506 2.8209 -0.5690
-1.8847 2.8293 -0.5710
-1.9088 2.8604 -0.5838
-2.0586 2.6690 -0.4890
-2.0265 2.8533 -0.5743
-2.0611 2.8626 -0.5767
-2.0959 2.8720 -0.5791
-2.1344 2.8680 -0.5753
-2.1655 2.8955 -0.5861
-2.2021 2.9005 -0.5864
-2.2402 2.8964 -0.5825
-2.2789 2.8831 -0.5744
-2.3117 2.9201 -0.5895
-2.3485 2.9251 -0.5898
-2.3860 2.9116 -0.5817
-2.4222 2.9212 -0.5841
-2.4586 2.9262 -0.5844
-2.4952 2.9358 -0.5869
-2.5322 2.9455 -0.5893
-2.5688 2.9505 -0.5896
-2.6048 2.9508 -0.5878
-2.6185 2.5419 -0.4015
-2.6419 2.5413 -0.4000
-2.6686 2.5533 -0.4040
-2.7071 2.6023 -0.4242
-2.7355 2.6136 -0.4278
-2.7331 2.4813 -0.3679
-2.7458 2.4616 -0.3583
-2.7540 2.4349 -0.3457
-2.7760 2.4407 -0.3472
-2.8002 2.4505 -0.3504
-2.8200 2.4513 -0.3497
-2.8463 2.4642 -0.3541
-2.8634 2.4600 -0.3513
-2.8915 2.4750 -0.3566
-2.9728 2.5410 -0.3822
-2.9902 2.5359 -0.3790
-3.0007 2.5215 -0.3719
-3.0095 2.5060 -0.3644
-3.0205 2.4945 -0.3586
-3.0346 2.4880 -0.3549
-1.2431 2.8246 -0.5613
-1.2669 2.8438 -0.5682
-1.3610 2.8360 -0.5604
-1.3823 2.8595 -0.5692
-1.4474 2.8843 -0.5765
-1.7130 2.6929 -0.4829
-1.7499 2.6904 -0.4800
-1.7596 2.7293 -0.4959
-1.7477 2.8073 -0.5294
-1.7617 2.9216 -0.5769
-1.8103 2.9076 -0.5687
-2.0030 2.9283 -0.5680
-2.0409 2.9335 -0.5683
-2.0762 2.9486 -0.5730
-2.1120 2.9638 -0.5776
-2.1482 2.9800 -0.5827
-2.1929 2.9542 -0.5696
-2.2348 2.9346 -0.5593
-2.2726 2.9351 -0.5577
-2.3073 2.9651 -0.5687
-2.3452 2.9703 -0.5690
-2.3825 2.9904 -0.5757
-2.4209 2.9909 -0.5740
-2.4588 2.9858 -0.5700
-2.4974 3.0061 -0.5767
-2.5357 3.0113 -0.5770
-2.5752 3.0270 -0.5817
-2.6123 3.0218 -0.5777
-2.6534 3.0433 -0.5847
-2.6390 2.5391 -0.3729
-2.6654 2.5512 -0.3767
-2.6971 2.5789 -0.3868
-2.7305 2.6078 -0.3974
-2.7237 2.4645 -0.3373
-2.7402 2.4555 -0.3327
-2.7548 2.4434 -0.3269
-2.7750 2.4453 -0.3267
-2.7917 2.4400 -0.3237
-2.8168 2.4519 -0.3274
-2.8342 2.4487 -0.3252
-2.8473 2.4383 -0.3202
-2.8740 2.4522 -0.3248
-2.9411 2.5307 -0.3546
-2.9709 2.5451 -0.3592
-2.9868 2.5379 -0.3554
-3.0001 2.5275 -0.3504
-3.0104 2.5139 -0.3442
-3.0214 2.5023 -0.3387
-3.0340 2.4937 -0.3345
-1.1171 2.9548 -0.5766
-1.1699 2.9497 -0.5723
-1.2220 2.9445 -0.5680
-1.2322 2.9837 -0.5828
-1.2896 2.9726 -0.5760
-1.3314 2.9783 -0.5763
-1.3593 3.0010 -0.5839
-1.3970 3.0128 -0.5868
-1.4306 3.0306 -0.5923
-1.8008 2.7893 -0.4818
-1.8290 2.8054 -0.4868
-1.8531 2.8313 -0.4959
-2.0509 3.0454 -0.5705
-2.0889 3.0628 -0.5756
-2.1276 3.0804 -0.5807
-2.1758 3.0510 -0.5672
-2.2382 2.9160 -0.5118
-2.2728 2.9349 -0.5176
-2.3087 2.9502 -0.5219
-2.3464 2.9449 -0.5182
-2.3797 3.0496 -0.5576
-2.4191 3.1201 -0.5833
-2.4610 3.1381 -0.5885
-2.5027 3.1382 -0.5866
-2.5450 3.1496 -0.5892
-2.5885 3.1688 -0.5947
-2.6318 3.1813 -0.5977
-2.6744 3.1871 -0.5981
-2.6332 2.5251 -0.3418
-2.6623 2.5489 -0.3498
-2.6970 2.5876 -0.3634
-2.7268 2.6058 -0.3691
-2.7201 2.4623 -0.3135
-2.7311 2.4402 -0.3044
-2.7485 2.4360 -0.3020
-2.7688 2.4387 -0.3021
-2.7877 2.4385 -0.3012
-2.8043 2.4341 -0.2988
-2.8249 2.4379 -0.2993
-2.8329 2.4191 -0.2917
-2.8644 2.4423 -0.2993
-2.9525 2.5564 -0.3398
-2.9729 2.5554 -0.3385
-2.9889 2.5481 -0.3350
-3.0023 2.5377 -0.3303
-3.0113 2.5219 -0.3238
-3.0169 2.5028 -0.3161
-3.0334 2.4994 -0.3140
-1.1170 3.0129 -0.5526
-1.1426 3.0373 -0.5603
-1.2694 3.0613 -0.5638
-1.3031 3.0802 -0.5692
-1.4018 3.0794 -0.5650
-1.8458 2.8534 -0.4661
-1.8753 2.8717 -0.4715
-1.9155 2.8677 -0.4684
-1.9635 2.8428 -0.4576
-1.9790 2.9001 -0.4775
-2.0107 2.9197 -0.4833
-2.0340 2.9695 -0.5002
-2.0753 2.9647 -0.4968
-2.1173 2.9542 -0.4914
-2.1624 2.9251 -0.4791
-2.2042 2.9023 -0.4693
-2.2386 2.9165 -0.4730
-2.2787 2.8896 -0.4617
-2.3121 2.9132 -0.4688
-2.3414 3.0162 -0.5046
-2.3727 3.2261 -0.5786
-2.4616 3.2306 -0.5767
-2.5049 3.2156 -0.5695
-2.5486 3.2216 -0.5699
-2.5939 3.2420 -0.5754
-2.6372 3.2413 -0.5734
-2.6326 2.5314 -0.3191
-2.6915 2.5785 -0.3336
-2.7219 2.5997 -0.3400
-2.7420 2.5892 -0.3354
-2.7119 2.4480 -0.2860
-2.7276 2.4387 -0.2820
-2.7440 2.4323 -0.2791
-2.7599 2.4259 -0.2762
-2.7778 2.4246 -0.2750
-2.7975 2.4273 -0.2751
-2.8112 2.4187 -0.2715
-2.9493 2.5584 -0.3161
-2.9696 2.5574 -0.3149
-2.9808 2.5427 -0.3092
-2.9974 2.5088 -0.2963
-3.0133 2.5043 -0.2941
-3.0304 2.5019 -0.2925
-0.9320 3.2106 -0.5780
-0.9741 3.2250 -0.5812
-1.0090 3.2480 -0.5875
-1.0735 3.2385 -0.5821
-1.1231 3.2453 -0.5825
-1.1861 3.2357 -0.5771
-1.2285 3.2511 -0.5806
-1.2600 3.2822 -0.5897
-1.3335 3.2558 -0.5784
-1.3662 3.2871 -0.5875
-1.6536 3.0644 -0.5041
-1.7972 2.9583 -0.4642
-1.8924 2.8427 -0.4229
-1.9275 2.8475 -0.4232
-1.9780 2.9100 -0.4419
-2.0013 2.9545 -0.4556
-2.1517 2.9798 -0.4585
-2.1989 2.9354 -0.4422
-2.2403 2.9084 -0.4319
-2.2719 2.9453 -0.4429
-2.3176 3.3728 -0.5814
-2.3663 3.3795 -0.5818
-2.4149 3.3947 -0.5850
-2.4636 3.3927 -0.5826
-2.5127 3.4081 -0.5859
-2.5616 3.4147 -0.5863
-2.6105 3.4214 -0.5868
-2.6570 3.4105 -0.5815
-2.6273 2.5188 -0.2903
-2.6585 2.5528 -0.3004
-2.6861 2.5691 -0.3047
-2.7160 2.5904 -0.3106
-2.7193 2.4249 -0.2562
-2.7378 2.4245 -0.2554
-2.7566 2.4252 -0.2550
-2.7733 2.4217 -0.2532
-2.7887 2.4161 -0.2509
-2.8019 2.4074 -0.2475
-2.8123 2.3944 -0.2429
-2.8471 2.4250 -0.2517
-2.9637 2.5551 -0.2901
-2.9883 2.5307 -0.2812
-2.9990 2.5177 -0.2766
-3.0089 2.5047 -0.2720
-3.0211 2.4958 -0.2686
-0.8223 3.3978 -0.5851
-0.8771 3.4052 -0.5856
-0.9236 3.4222 -0.5891
-1.5789 3.4062 -0.5635
-1.9307 2.9387 -0.4133
-1.9393 3.0221 -0.4378
-1.9823 3.3152 -0.5236
-2.1571 2.9600 -0.4124
-2.2004 2.9311 -0.4024
-2.2400 2.9133 -0.3959
-2.2738 2.9314 -0.4002
-2.3090 3.4962 -0.5671
-2.3612 3.4936 -0.5647
-2.6055 2.5298 -0.2702
-2.6276 2.5290 -0.2693
-2.6562 2.5532 -0.2756
-2.6875 2.5826 -0.2833
-2.7169 2.6021 -0.2882
-2.7012 2.4336 -0.2386
-2.7163 2.4241 -0.2352
-2.7325 2.4185 -0.2331
-2.7519 2.4212 -0.2332
-2.7645 2.4094 -0.2293
-2.7809 2.4068 -0.2280
-2.7905 2.3916 -0.2232
-2.8112 2.3983 -0.2246
-2.8417 2.4219 -0.2306
-2.9585 2.5538 -0.2661
-2.9862 2.5344 -0.2595
-2.9925 2.5150 -0.2535
-3.0006 2.4996 -0.2487
-3.0086 2.4852 -0.2441
-3.0206 2.4772 -0.2414
-0.5607 3.5466 -0.5749
-0.6094 3.5660 -0.5787
-0.6694 3.5742 -0.5792
-0.7395 3.5711 -0.5765
-0.7788 3.6027 -0.5839
-0.8689 3.5751 -0.5740
-1.7292 2.6154 -0.2933
-1.7477 2.6335 -0.2976
-1.1058 3.6074 -0.5760
-1.1651 3.6155 -0.5766
-1.2092 3.6478 -0.5840
-1.2617 3.6686 -0.5881
-1.3291 3.6642 -0.5850
-1.4020 3.6478 -0.5786
-1.9429 2.9155 -0.3677
-1.8545 3.2612 -0.4626
-1.8567 3.3999 -0.4997
-1.9097 3.3984 -0.4978
-1.9550 3.4231 -0.5032
-2.2018 2.9275 -0.3637
-2.2418 2.9047 -0.3565
-2.2778 2.9008 -0.3545
-2.4442 2.5629 -0.2594
-2.4681 2.5545 -0.2565
-2.4936 2.5755 -0.2614
-2.5173 2.5699 -0.2593
-2.5412 2.5693 -0.2584
-2.5647 2.5676 -0.2573
-2.6080 2.5511 -0.2517
-2.6279 2.5392 -0.2480
-2.6532 2.5505 -0.2503
-2.6830 2.5760 -0.2563
-2.7140 2.6017 -0.2623
-2.7056 2.4524 -0.2226
-2.7285 2.4155 -0.2121
-2.7444 2.4109 -0.2104
-2.7571 2.3999 -0.2071
-2.7737 2.3983 -0.2062
-2.7884 2.3935 -0.2045
-2.8090 2.4002 -0.2057
-2.8274 2.4027 -0.2059
-2.9757 2.5253 -0.2346
-2.9882 2.5153 -0.2316
-2.9977 2.5020 -0.2278
-3.0049 2.4864 -0.2234
-0.5105 3.7594 -0.5650
-0.6009 3.7403 -0.5583
-0.6774 3.7351 -0.5552
-1.7264 2.6258 -0.2661
-1.0615 3.7875 -0.5586
-1.1467 3.8777 -0.5780
-1.2043 3.9022 -0.5825
-1.2945 3.8664 -0.5718
-1.9974 3.4722 -0.4613
-2.2512 2.8468 -0.3062
-2.2842 2.8513 -0.3065
-2.5808 2.5371 -0.2247
-2.6029 2.5362 -0.2239
-2.6249 2.5353 -0.2232
-2.6461 2.5323 -0.2220
-2.6796 2.5732 -0.2309
-2.7088 2.5939 -0.2351
-2.7253 2.4144 -0.1920
-2.7402 2.4076 -0.1900
-2.7565 2.4050 -0.1890
-2.7690 2.3949 -0.1863
-2.7851 2.3931 -0.1855
-2.8056 2.3999 -0.1866
-2.8221 2.3992 -0.1861
-2.8422 2.4049 -0.1869
-2.9772 2.5343 -0.2146
-2.9950 2.5318 -0.2136
-3.0017 2.5140 -0.2092
-0.0904 4.0486 -0.5665
-0.1649 4.0588 -0.5672
-0.2565 4.0505 -0.5637
-0.3304 4.0606 -0.5643
-0.4043 4.0706 -0.5650
-1.7209 2.6399 -0.2395
-1.7460 2.6493 -0.2409
-0.9286 4.0066 -0.5412
-0.9217 4.1413 -0.5695
-0.9614 4.2100 -0.5831
-1.0589 4.1808 -0.5751
-1.1435 4.1715 -0.5714
-1.2174 4.1816 -0.5721
-2.0403 2.8646 -0.2802
-2.0666 2.8949 -0.2860
-1.9687 3.5992 -0.4353
-2.2508 2.8518 -0.2733
-2.2852 2.8446 -0.2712
-2.6027 2.5445 -0.2021
-2.6436 2.5312 -0.1985
-2.6728 2.5580 -0.2035
-2.7062 2.5942 -0.2104
-2.7082 2.4232 -0.1746
-2.7239 2.4175 -0.1731
-2.7397 2.4127 -0.1718
-2.7507 2.3984 -0.1686
-2.7654 2.3934 -0.1672
-2.7863 2.4012 -0.1685
-2.8045 2.4037 -0.1686
-2.8198 2.4009 -0.1677
-2.8348 2.3980 -0.1668
-2.8607 2.4134 -0.1695
-2.9745 2.5368 -0.1931
-2.9929 2.5353 -0.1924
-3.0004 2.5185 -0.1888
-3.0132 2.5104 -0.1868
-3.0247 2.5011 -0.1846
-1.7065 2.6239 -0.2072
-1.7329 2.6305 -0.2080
-1.7510 2.6490 -0.2110
-2.0125 2.8492 -0.2431
-2.0447 2.8576 -0.2441
-1.8939 3.6748 -0.3942
-1.9390 3.7308 -0.4036
-2.2511 2.8528 -0.2399
-2.2876 2.8259 -0.2345
-2.5844 2.5772 -0.1848
-2.6016 2.5486 -0.1794
-2.6217 2.5394 -0.1774
-2.6454 2.5466 -0.1783
-2.6710 2.5601 -0.1803
-2.7000 2.5830 -0.1840
-2.7080 2.4295 -0.1561
-2.7182 2.4099 -0.1524
-2.7314 2.3997 -0.1504
-2.7472 2.3969 -0.1496
-2.7628 2.3941 -0.1489
-2.7995 2.4001 -0.1494
-2.8139 2.3961 -0.1484
-2.8250 2.3866 -0.1465
-2.9710 2.5382 -0.1716
-1.7361 2.6327 -0.1794
-1.7482 2.6595 -0.1834
-1.7772 2.6635 -0.1836
-1.7438 2.8217 -0.2082
-1.7773 2.8263 -0.2085
-1.8128 2.8271 -0.2082
-1.8563 2.8119 -0.2053
-1.8927 2.8088 -0.2044
-1.9167 2.8322 -0.2077
-1.9498 2.8367 -0.2080
-1.9859 2.8336 -0.2071
-2.0201 2.8343 -0.2068
-2.0554 2.8311 -0.2059
-2.0699 2.8963 -0.2156
-2.2913 2.7979 -0.1979
-2.3227 2.7952 -0.1971
-2.6642 2.5443 -0.1547
-2.6981 2.5851 -0.1605
-2.7264 2.6030 -0.1629
-2.7031 2.4230 -0.1357
-2.7203 2.4213 -0.1353
-2.7354 2.4154 -0.1342
-2.7598 2.3936 -0.1305
-2.7777 2.3960 -0.1307
-2.7921 2.3919 -0.1299
-2.8093 2.3933 -0.1299
-2.8276 2.3968 -0.1302
-2.8943 2.4521 -0.1379
-2.7345 2.1168 -0.0886
-0.0468 4.2385 -0.3658
-0.1062 4.2699 -0.3692
-1.7333 2.6431 -0.1523
-1.7578 2.6525 -0.1532
-1.7863 2.6564 -0.1535
-1.7858 2.7596 -0.1664
-1.8506 2.7644 -0.1665
-1.8872 2.7583 -0.1654
-2.0095 2.7790 -0.1670
-2.2633 2.7782 -0.1648
-2.2947 2.7714 -0.1636
-2.3245 2.7754 -0.1639
-2.3547 2.7735 -0.1634
-2.4146 2.7300 -0.1575
-2.4941 2.6670 -0.1489
-2.8077 4.8167 -0.4153
-2.6131 2.5192 -0.1295
-2.6642 2.5525 -0.1332
-2.6933 2.5777 -0.1361
-2.7042 2.4324 -0.1179
-2.7129 2.4093 -0.1149
-2.7262 2.3999 -0.1136
-2.7433 2.4003 -0.1135
-2.7572 2.3941 -0.1126
-2.7744 2.3954 -0.1126
-2.7871 2.3880 -0.1116
-2.8040 2.3893 -0.1116
-2.8277 2.4027 -0.1131
-2.8494 2.4117 -0.1141
-2.8714 2.4208 -0.1150
-2.8979 2.4365 -0.1168
0.1118 4.2382 -0.2884
0.0536 4.2696 -0.2912
-0.0050 4.3021 -0.2941
-0.0039 4.4029 -0.3040
-1.7406 2.6396 -0.1235
-1.7893 2.6585 -0.1252
-1.8230 2.6539 -0.1246
-1.8460 2.6663 -0.1257
-1.8744 2.6701 -0.1259
-1.9341 2.6722 -0.1258
-1.9678 2.6645 -0.1249
-2.0855 2.6622 -0.1242
-2.1129 2.6660 -0.1244
-2.1394 2.6726 -0.1249
-2.1653 2.6823 -0.1258
-2.1976 2.6663 -0.1241
-2.2247 2.6700 -0.1243
-2.2466 2.7026 -0.1274
-2.2685 2.7464 -0.1316
-2.2955 2.7664 -0.1334
-2.3249 2.7704 -0.1337
-2.3554 2.7582 -0.1323
-2.3880 2.6729 -0.1238
-2.4148 2.6633 -0.1228
-2.4409 2.6587 -0.1222
-2.4956 2.7070 -0.1267
-2.5899 2.5179 -0.1077
-2.6095 2.5114 -0.1070
-2.6324 2.5206 -0.1078
-2.6595 2.5437 -0.1099
-2.6914 2.5797 -0.1133
-2.7012 2.4311 -0.0987
-2.7094 2.4067 -0.0963
-2.7234 2.3994 -0.0955
-2.7384 2.3953 -0.0951
-2.7526 2.3901 -0.0945
-2.7642 2.3805 -0.0935
-2.7826 2.3850 -0.0939
-2.8017 2.3907 -0.0943
-2.8229 2.3997 -0.0951
-2.8391 2.3999 -0.0951
-2.8620 2.4112 -0.0961
0.2055 4.1769 -0.2067
0.0496 4.1098 -0.2018
0.0727 4.2177 -0.2094
0.0358 4.2700 -0.2131
-0.0617 4.2596 -0.2123
-0.1205 4.2913 -0.2145
-1.7398 2.6472 -0.0963
-1.7659 2.6539 -0.0967
-1.7996 2.6492 -0.0964
-1.8257 2.6559 -0.0968
-1.8554 2.6568 -0.0968
-1.8865 2.6549 -0.0967
-1.9158 2.6558 -0.0967
-1.9420 2.6625 -0.0972
-1.9752 2.6547 -0.0966
-2.0047 2.6536 -0.0965
-2.0408 2.6359 -0.0952
-2.0626 2.6522 -0.0963
-2.0913 2.6510 -0.0962
-2.1191 2.6517 -0.0962
-2.1450 2.6583 -0.0967
-2.1706 2.6669 -0.0973
-2.2006 2.6577 -0.0966
-2.2273 2.6613 -0.0968
-2.2448 2.7161 -0.1007
-2.2672 2.7572 -0.1036
-2.2955 2.7672 -0.1043
-2.3259 2.7590 -0.1037
-2.3882 2.6566 -0.0963
-2.4144 2.6468 -0.0956
-2.4401 2.6657 -0.0969
-2.4665 2.6796 -0.0979
-2.6318 2.5264 -0.0869
-2.6594 2.5518 -0.0887
-2.6882 2.5773 -0.0904
-2.7157 2.5954 -0.0917
-2.7076 2.4083 -0.0784
-2.7225 2.4032 -0.0780
-2.7384 2.4012 -0.0779
-2.7485 2.3872 -0.0769
-2.7611 2.3796 -0.0763
-2.7799 2.3853 -0.0767
-2.8001 2.3932 -0.0773
-2.8155 2.3922 -0.0772
-2.8334 2.3957 -0.0774
-2.8555 2.4059 -0.0781
-2.7059 2.0988 -0.0564
-2.7116 2.0944 -0.0561
0.2506 4.2382 -0.1342
0.1944 4.2697 -0.1358
0.0955 4.2594 -0.1356
-0.0020 4.2489 -0.1354
-0.0975 4.2392 -0.1352
-0.1183 4.3124 -0.1385
-0.2146 4.3017 -0.1383
-1.7512 2.6378 -0.0683
-1.7749 2.6472 -0.0688
-1.8044 2.6482 -0.0689
-1.8267 2.6605 -0.0695
-1.8696 2.6912 -0.0710
-1.8950 2.7009 -0.0715
-1.9238 2.7048 -0.0717
-1.9580 2.6971 -0.0715
-1.9838 2.7068 -0.0720
-2.0147 2.7048 -0.0720
-2.0465 2.6998 -0.0718
-2.0777 2.6948 -0.0717
-2.1037 2.7045 -0.0722
-2.1318 2.7084 -0.0724
-2.1646 2.6942 -0.0719
-2.2413 2.7388 -0.0741
-2.2684 2.7519 -0.0747
-2.2967 2.7588 -0.0751
-2.3267 2.7505 -0.0748
-2.3586 2.7031 -0.0728
-2.3873 2.6687 -0.0714
-2.4135 2.6609 -0.0711
-2.4392 2.6592 -0.0711
-2.4654 2.6763 -0.0719
-2.6075 2.5197 -0.0653
-2.6288 2.5226 -0.0655
-2.6556 2.5459 -0.0666
-2.6828 2.5672 -0.0676
-2.7157 2.6038 -0.0694
-2.7197 2.4025 -0.0604
-2.7331 2.3950 -0.0601
-2.7501 2.3963 -0.0602
-2.7595 2.3821 -0.0596
-2.7766 2.3844 -0.0597
-2.8095 2.3868 -0.0599
-2.8271 2.3902 -0.0601
-2.8619 2.3960 -0.0605
0.1888 4.1980 -0.0581
0.1539 4.2487 -0.0592
0.0977 4.2803 -0.0602
0.0603 4.3334 -0.0614
-0.0574 4.3015 -0.0615
-0.1896 4.2497 -0.0614
-0.2479 4.2806 -0.0624
-1.7426 2.6150 -0.0409
-1.7579 2.6348 -0.0413
-1.7741 2.6547 -0.0418
-1.8018 2.6585 -0.0420
-1.8188 2.6796 -0.0425
-1.7904 2.8394 -0.0453
-1.8486 2.7952 -0.0449
-1.8972 2.7643 -0.0446
-1.9352 2.7518 -0.0446
-1.9817 2.7175 -0.0443
-2.0039 2.7372 -0.0448
-2.0352 2.7352 -0.0449
-2.0599 2.7511 -0.0454
-2.2415 2.7404 -0.0463
-2.2680 2.7565 -0.0468
-2.2963 2.7635 -0.0471
-2.3256 2.7613 -0.0472
-2.3587 2.6990 -0.0463
-2.3861 2.6861 -0.0462
-2.4127 2.6762 -0.0462
-2.4388 2.6881 -0.0466
-2.5979 3.5961 -0.0644
-2.6408 3.5446 -0.0637
-2.6917 3.5703 -0.0645
-2.6256 2.5176 -0.0446
-2.6524 2.5421 -0.0452
-2.6803 2.5667 -0.0458
-2.7072 2.5850 -0.0464
-2.7061 2.4170 -0.0432
-2.7196 2.4084 -0.0432
-2.7409 2.3821 -0.0428
-2.7596 2.3878 -0.0430
-2.7710 2.3789 -0.0429
-2.7855 2.3767 -0.0430
-2.8034 2.3812 -0.0432
-2.8240 2.3903 -0.0435
-2.8410 2.3926 -0.0436
0.2989 4.1586 0.0161
0.3325 4.2695 0.0172
0.2120 4.2387 0.0158
0.1561 4.2694 0.0155
0.0999 4.3012 0.0152
0.0023 4.2904 0.0142
-0.0932 4.2803 0.0132
-0.1515 4.3114 0.0128
-0.2102 4.3436 0.0125
-1.7551 2.6450 -0.0148
-1.7752 2.6593 -0.0149
-1.8085 2.6544 -0.0152
-1.8234 2.6785 -0.0152
-1.8084 2.8140 -0.0141
-1.8590 2.7821 -0.0148
-1.9110 2.7430 -0.0156
-1.9476 2.7312 -0.0161
-1.9809 2.7252 -0.0164
-2.0131 2.7201 -0.0168
-2.2429 2.7357 -0.0189
-2.2989 2.7434 -0.0194
-2.3268 2.7472 -0.0196
-2.3579 2.7063 -0.0202
-2.3852 2.6984 -0.0206
-2.4117 2.7000 -0.0208
-2.4382 2.7172 -0.0209
-2.6001 3.6499 -0.0158
-2.6473 3.6259 -0.0165
-2.6903 3.5834 -0.0172
-2.6258 2.5265 -0.0241
-2.6469 2.5294 -0.0243
-2.6768 2.5628 -0.0244
-2.7076 2.5944 -0.0245
-2.7339 2.6084 -0.0246
-2.7069 2.4252 -0.0257
-2.7191 2.4132 -0.0259
-2.7297 2.3989 -0.0261
-2.7420 2.3900 -0.0263
-2.7580 2.3901 -0.0264
-2.7672 2.3767 -0.0266
-2.7826 2.3767 -0.0268
-2.7980 2.3767 -0.0269
-2.7295 2.1289 -0.0280
0.1931 4.2389 0.0891
0.1378 4.2697 0.0893
0.1228 4.3436 0.0915
0.0246 4.3327 0.0899
-0.0335 4.3650 0.0902
-0.0929 4.3974 0.0904
-0.1527 4.4310 0.0907
-1.7584 2.6466 0.0115
-1.7875 2.6474 0.0112
-1.8109 2.6569 0.0112
-1.8417 2.6548 0.0107
-1.8420 2.7046 0.0123
-1.8444 2.7557 0.0139
-1.8875 2.7340 0.0127
-1.9165 2.7380 0.0124
-1.9454 2.7419 0.0122
-1.9839 2.7239 0.0111
-2.0160 2.7188 0.0105
-2.0463 2.7166 0.0100
-2.0733 2.7234 0.0099
-2.2123 2.7487 0.0089
-2.2664 2.7720 0.0089
-2.2934 2.7894 0.0091
-2.3574 2.7104 0.0057
-2.3841 2.7140 0.0055
-2.4107 2.7208 0.0053
-2.4377 2.7425 0.0057
-2.5943 3.6132 0.0319
-2.6471 3.6501 0.0324
-2.6916 3.6160 0.0307
-2.6252 2.5322 -0.0036
-2.6469 2.5372 -0.0038
-2.6753 2.5654 -0.0032
-2.7005 2.5795 -0.0031
-2.7310 2.6080 -0.0026
-2.7292 2.4036 -0.0092
-2.7420 2.3958 -0.0096
-2.7565 2.3925 -0.0099
-2.7672 2.3823 -0.0104
-2.7833 2.3834 -0.0106
-2.7969 2.3800 -0.0109
-2.8160 2.3868 -0.0109
0.1676 4.1512 0.1560
0.0991 4.2490 0.1605
0.0240 4.2592 0.1598
0.0067 4.3319 0.1637
-0.0508 4.3642 0.1646
-0.0710 4.4416 0.1687
-1.7552 2.6163 0.0358
-1.7760 2.6277 0.0361
-1.7959 2.6410 0.0366
-1.8226 2.6447 0.0363
-1.8290 2.6818 0.0384
-1.8429 2.7092 0.0397
-1.8528 2.7468 0.0417
-1.9264 2.7238 0.0392
-1.9857 2.7255 0.0383
-2.0164 2.7233 0.0376
-2.0444 2.7272 0.0374
-2.0896 2.7695 0.0391
-2.1159 2.7827 0.0394
-2.1441 2.7908 0.0394
-2.1965 2.8299 0.0408
-2.2279 2.8268 0.0401
-2.2595 2.8204 0.0392
-2.2909 2.8109 0.0381
-2.3241 2.7749 0.0355
-2.3558 2.7292 0.0323
-2.3829 2.7307 0.0320
-2.4098 2.7344 0.0317
-2.6389 3.6030 0.0778
-2.6477 2.5485 0.0171
-2.6699 2.5547 0.0171
-2.6998 2.5854 0.0184
-2.7326 2.6208 0.0198
-2.7562 2.6261 0.0198
-2.7373 2.4286 0.0087
-2.7441 2.4061 0.0073
-2.7581 2.4016 0.0068
-2.7679 2.3891 0.0059
-2.7817 2.3856 0.0055
-2.7452 2.2241 -0.0032
-2.7483 2.2106 -0.0040
0.2637 4.1805 0.2294
0.1903 4.1905 0.2288
0.1169 4.2005 0.2281
0.0817 4.2493 0.2314
0.0072 4.2595 0.2308
-0.0297 4.3107 0.2342
-0.0867 4.3421 0.2357
-0.1810 4.3313 0.2329
-0.2037 4.4063 0.2386
-1.7566 2.6205 0.0610
-1.7684 2.6446 0.0628
-1.8004 2.6404 0.0618
-1.8181 2.6578 0.0629
-1.8264 2.6922 0.0655
-1.8421 2.7169 0.0672
-1.8465 2.7647 0.0711
-1.8858 2.7497 0.0690
-1.9241 2.7345 0.0670
-1.9484 2.7475 0.0676
-1.9741 2.7585 0.0680
-2.0346 2.7592 0.0669
-2.0517 2.7970 0.0696
-2.0704 2.8360 0.0724
-2.1935 2.8485 0.0710
-2.2258 2.8422 0.0698
-2.2582 2.8316 0.0683
-2.2909 2.8114 0.0660
-2.3229 2.7857 0.0633
-2.3538 2.7545 0.0601
-2.3820 2.7401 0.0583
-2.4090 2.7470 0.0584
-2.5931 3.6595 0.1296
-2.6375 3.6162 0.1251
-2.6824 3.5944 0.1224
-2.6443 2.5431 0.0369
-2.6958 2.5802 0.0389
-2.7275 2.6135 0.0410
-2.7588 2.6413 0.0427
-2.7541 2.3102 0.0156
-2.7500 2.2786 0.0131
-2.7392 2.2181 0.0084
-2.7494 2.2163 0.0080
-2.7457 2.1771 0.0049
-2.7424 2.1574 0.0033
0.2860 4.2192 0.3032
0.1717 4.1905 0.2975
0.0838 4.2694 0.3038
0.0482 4.3208 0.3085
-0.0468 4.3099 0.3051
-0.0464 4.4061 0.3153
-0.1239 4.4166 0.3147
-0.2197 4.4049 0.3112
-1.7559 2.6275 0.0864
-1.7656 2.6548 0.0891
-1.7944 2.6554 0.0885
-1.8261 2.6511 0.0873
-1.8202 2.7087 0.0935
-1.8560 2.7535 0.0975
-1.8804 2.7666 0.0983
-1.9218 2.7452 0.0951
-1.9490 2.7522 0.0952
-1.9750 2.7622 0.0956
-2.0099 2.7508 0.0936
-2.0250 2.7906 0.0975
-2.0439 2.8256 0.1008
-2.0682 2.8484 0.1026
-2.2224 2.8651 0.1008
-2.2567 2.8439 0.0978
-2.2892 2.8267 0.0952
-2.3212 2.8030 0.0919
-2.3514 2.7844 0.0892
-2.3798 2.7818 0.0883
-2.4074 2.7985 0.0894
-2.5449 3.7195 0.1841
-2.5901 3.6532 0.1760
-2.6362 3.6293 0.1724
-2.6797 3.5974 0.1680
-2.6408 2.5376 0.0562
-2.6641 2.5494 0.0570
-2.6901 2.5691 0.0584
-2.7549 2.6385 0.0643
-2.7876 2.6678 0.0667
-2.8188 2.6904 0.0683
-2.8590 2.7327 0.0719
-2.7566 2.4097 0.0399
-2.7524 2.3680 0.0356
-2.7525 2.3389 0.0325
-2.7512 2.3095 0.0294
-2.7509 2.2846 0.0268
-2.7382 2.2202 0.0202
-2.7505 2.2219 0.0201
-2.7522 2.2070 0.0185
-2.7501 2.1873 0.0165
0.2228 4.3416 0.3867
0.1260 4.3309 0.3827
0.0304 4.3200 0.3788
0.0132 4.3941 0.3880
-0.0824 4.3832 0.3840
-0.1217 4.4376 0.3900
-1.7601 2.6276 0.1108
-1.7936 2.6627 0.1144
-1.8304 2.6503 0.1119
-1.8482 2.6679 0.1137
-1.8552 2.7614 0.1257
-1.8878 2.7582 0.1244
-1.9510 2.7538 0.1221
-1.9655 2.7906 0.1265
-2.0042 2.7708 0.1229
-2.0687 2.8525 0.1319
-2.0411 3.0620 0.1599
-1.8843 3.8207 0.2629
-1.9401 3.8283 0.2624
-2.3490 2.8146 0.1195
-2.3784 2.8023 0.1171
-2.5410 3.6905 0.2285
-2.5870 3.6457 0.2214
-2.6391 3.6833 0.2249
-2.6588 2.5381 0.0752
-2.6878 2.5692 0.0785
-2.7175 2.5983 0.0815
-2.7484 2.6276 0.0845
-2.7797 2.6547 0.0872
-2.7556 2.3500 0.0482
-2.7309 2.2313 0.0334
-2.7462 2.2377 0.0338
-2.7494 2.2240 0.0319
0.1625 4.2995 0.4493
0.0498 4.2699 0.4414
0.0325 4.3402 0.4517
-0.0425 4.3505 0.4511
-0.0989 4.3823 0.4543
-0.1385 4.4358 0.4614
-1.7594 2.6346 0.1360
-1.7928 2.6271 0.1338
-1.8152 2.6356 0.1345
-1.8409 2.6392 0.1343
-1.8294 2.7055 0.1448
-1.8527 2.7722 0.1544
-1.8849 2.7701 0.1531
-1.9173 2.7668 0.1516
-1.9446 2.7738 0.1519
-1.9664 2.7943 0.1544
-2.0059 2.7723 0.1498
-2.0158 2.8274 0.1580
-2.0295 2.8796 0.1656
-2.0269 2.9932 0.1832
-1.9423 3.6018 0.2793
-1.9804 3.6595 0.2871
-2.2090 3.4859 0.2536
-2.5401 3.7140 0.2788
-2.5816 3.6101 0.2616
-2.6334 3.6555 0.2670
-2.6582 2.5436 0.0952
-2.6848 2.5670 0.0980
-2.7143 2.5962 0.1016
-2.7438 2.6221 0.1047
-2.7774 2.6563 0.1090
-2.8107 2.6860 0.1126
-2.7534 2.2345 0.0448
0.2506 4.2394 0.5104
-0.0215 4.2997 0.5121
-0.0773 4.3294 0.5155
-0.0594 4.4461 0.5368
-0.1174 4.4794 0.5408
-1.7665 2.6305 0.1590
-1.7969 2.6270 0.1573
-1.8210 2.6325 0.1575
-1.8465 2.6359 0.1573
-1.8251 2.7191 0.1727
-1.8246 2.7730 0.1823
-1.8519 2.7801 0.1826
-1.8862 2.7737 0.1804
-1.9022 2.8046 0.1853
-1.9345 2.8024 0.1839
-1.9708 2.7897 0.1804
-2.0058 2.8607 0.1918
-2.0222 2.9070 0.1995
-1.9969 3.3945 0.2867
-2.2629 3.4065 0.2800
-2.3101 3.3589 0.2701
-2.3527 3.3503 0.2671
-2.3949 3.3274 0.2617
-2.4356 3.2922 0.2541
-2.4745 3.2644 0.2479
-2.6277 3.2610 0.2423
-2.6761 3.3316 0.2532
-2.6303 2.5190 0.1107
-2.6552 2.5400 0.1136
-2.6826 2.5669 0.1175
-2.7151 2.6067 0.1235
-2.7688 2.6404 0.1277
-2.8073 2.6854 0.1344
0.1273 4.2995 0.5847
0.0726 4.3292 0.5887
0.0368 4.3807 0.5977
-0.0568 4.3702 0.5922
-0.0759 4.4450 0.6065
-0.1703 4.4334 0.6008
-1.7601 2.6456 0.1857
-1.8407 2.6510 0.1839
-1.8062 2.7574 0.2064
-1.8278 2.7736 0.2089
-1.8527 2.7848 0.2102
-1.8833 2.7857 0.2093
-1.9092 2.7959 0.2104
-2.0442 2.7599 0.1983
-2.0677 2.7764 0.2008
-2.0306 3.1179 0.2704
-2.0556 3.1690 0.2798
-2.0908 3.1861 0.2819
-2.3960 3.2277 0.2792
-2.4731 3.2627 0.2834
-2.5102 3.2366 0.2769
-2.5439 3.1879 0.2659
-2.5761 3.1490 0.2570
-2.6289 2.5209 0.1294
-2.6534 2.5409 0.1325
-2.6803 2.5668 0.1367
-2.7098 2.5974 0.1418
-2.7383 2.6213 0.1456
-2.7702 2.6523 0.1506
-2.8018 2.6789 0.1548
-2.8349 2.7067 0.1592
-2.7651 2.4162 0.1035
-2.8313 2.4241 0.1027
-2.8501 2.4300 0.1032
0.1622 4.2690 0.6461
0.1486 4.3390 0.6612
0.0943 4.3699 0.6660
0.0389 4.4010 0.6707
-0.0362 4.4112 0.6700
-0.0158 4.5337 0.6981
-0.1130 4.5212 0.6915
-0.2439 4.4642 0.6737
-1.8058 2.6253 0.2030
-1.8255 2.6370 0.2048
-1.8287 2.6765 0.2135
-1.7903 2.7909 0.2404
-1.8212 2.7918 0.2394
-1.8519 2.7926 0.2384
-1.8793 2.7997 0.2389
-1.9178 2.7837 0.2338
-1.9747 2.7233 0.2182
-1.9981 2.7354 0.2199
-2.0239 2.7423 0.2205
-2.0565 2.7311 0.2167
-2.0733 2.7647 0.2235
-2.0979 2.7781 0.2255
-2.1183 3.0694 0.2896
-2.1582 3.0491 0.2835
-2.3033 2.9851 0.2636
-2.3990 3.0484 0.2740
-2.4325 3.0765 0.2789
-2.5011 3.0959 0.2805
-2.5362 3.1108 0.2825
-2.5658 3.0667 0.2715
-2.5992 3.0713 0.2712
-2.6317 3.0701 0.2697
-2.6494 2.5336 0.1495
-2.6777 2.5654 0.1554
-2.7030 2.5834 0.1585
-2.7341 2.6167 0.1647
-2.7642 2.6432 0.1694
-2.7922 2.6615 0.1724
-2.8295 2.7013 0.1798
-2.8205 2.4384 0.1216
-2.8262 2.4201 0.1173
-2.8469 2.4297 0.1186
-2.8621 2.4295 0.1180
0.8403 3.5248 0.5783
0.8977 3.4968 0.5928
0.8661 3.4133 0.5888
0.3894 2.9105 0.4973
-0.4140 2.3071 0.3336
-0.5748 2.1336 0.3029
-0.8920 1.6907 0.2463
-0.9054 1.6580 0.2445
-0.8551 1.6273 0.2575
-0.8508 1.5940 0.2598
-0.8110 1.5593 0.2704
-0.7307 1.5202 0.2908
-0.7358 1.4834 0.2910
-0.6828 1.4406 0.3051
-0.5397 1.3404 0.3425
-0.5455 1.2982 0.3428
-0.4756 1.2404 0.3615
-0.3447 1.1644 0.3950
-0.2740 1.0966 0.4143
-0.2905 1.0498 0.4123
0.0031 0.8463 0.4889
0.0216 0.7791 0.4959
0.1729 0.6580 0.5360
1.8070 -2.7734 1.0538
1.0802 -2.0888 0.8568
0.9268 3.5280 0.5328
1.0133 3.5139 0.5515
1.1053 3.4989 0.5714
-0.2808 2.4934 0.3161
-0.3285 2.3886 0.3099
-0.3427 2.3412 0.3086
-0.3663 2.2906 0.3055
-0.1131 2.0505 0.3676
-0.7284 1.8466 0.2454
-0.8778 1.6932 0.2196
-0.8868 1.6602 0.2189
-0.8780 1.6279 0.2219
-0.8593 1.5949 0.2270
-0.7346 1.5209 0.2560
-0.7288 1.4832 0.2586
-0.6980 1.4423 0.2666
-0.5288 1.3382 0.3060
-0.5347 1.2955 0.3063
-0.4707 1.2383 0.3219
-0.3751 1.1699 0.3445
-0.3442 1.1130 0.3531
-0.2839 1.0456 0.3683
0.0022 0.8432 0.4359
0.0626 0.7601 0.4517
1.5099 -2.4759 0.8745
1.0561 -2.0861 0.7647
0.9454 3.4864 0.4712
1.0345 3.4712 0.4884
0.9491 3.3543 0.4763
-0.3736 2.3754 0.2610
-0.3632 2.3386 0.2641
-0.3600 2.2985 0.2661
-0.4851 2.2118 0.2455
-0.3782 2.1667 0.2671
-0.2973 2.1481 0.2828
-0.6766 1.9307 0.2190
-0.8255 1.7993 0.1955
-0.8772 1.7273 0.1882
-0.9039 1.6928 0.1843
-0.9084 1.6605 0.1845
-0.8952 1.6286 0.1881
-0.8635 1.5959 0.1951
-0.7550 1.5225 0.2179
-0.7209 1.4829 0.2256
-0.7077 1.4433 0.2294
-0.5612 1.3428 0.2602
-0.5531 1.2981 0.2632
-0.4660 1.2362 0.2815
-0.3499 1.1625 0.3057
-0.3290 1.1072 0.3115
-0.2765 1.0412 0.3235
0.0902 0.7459 0.4021
1.9811 -0.3106 0.7915
1.9575 -1.6587 0.8319
1.7018 -2.7153 0.8191
1.0644 -2.1203 0.6799
1.0154 3.4733 0.4151
0.9553 3.3703 0.4084
0.9203 3.2830 0.4053
-0.3684 2.3836 0.2211
-0.4542 2.3073 0.2094
-0.4577 2.2267 0.2112
-0.5081 2.1695 0.2047
-0.4773 2.1402 0.2106
-0.4671 2.1030 0.2134
-0.4729 2.0609 0.2137
-0.5239 2.0076 0.2069
-0.6969 1.8934 0.1820
-0.8141 1.8033 0.1655
-0.8721 1.7622 0.1573
-0.8811 1.7287 0.1568
-0.9033 1.6944 0.1542
-0.9166 1.6614 0.1530
-0.9167 1.6292 0.1539
-0.8622 1.5968 0.1638
-0.7973 1.5612 0.1755
-0.7361 1.5221 0.1867
-0.7413 1.4848 0.1870
-0.6690 1.4394 0.2002
-0.6219 1.3933 0.2093
-0.5655 1.3429 0.2201
-0.5415 1.2952 0.2254
-0.3347 1.1574 0.2634
-0.3319 1.1060 0.2654
-0.1939 1.0149 0.2908
-0.1082 0.9324 0.3073
-0.0012 0.8374 0.3277
0.1184 0.7313 0.3504
1.6095 -0.0412 0.6179
1.6784 -0.1818 0.6334
1.7069 -0.3074 0.6418
1.6031 -1.3994 0.6576
1.6314 -1.5418 0.6665
1.4553 -2.4699 0.6655
1.1070 -2.1944 0.6002
0.5822 -1.6874 0.4990
0.8846 3.4761 0.3262
0.8983 3.4178 0.3297
0.6812 3.1650 0.3061
0.5351 3.0254 0.2894
-0.2918 2.4228 0.1897
-0.3602 2.3515 0.1821
-0.4076 2.2912 0.1770
-0.4136 2.2479 0.1774
-0.4662 2.1886 0.1716
-0.4720 2.1464 0.1719
-0.4236 2.1203 0.1794
-0.6710 1.9383 0.1496
-0.8384 1.8019 0.1298
-0.8662 1.7649 0.1269
-0.8807 1.7305 0.1258
-0.9029 1.6960 0.1236
-0.9030 1.6634 0.1245
-0.8890 1.6311 0.1273
-0.8568 1.5978 0.1327
-0.7457 1.5232 0.1502
-0.7508 1.4858 0.1505
-0.6533 1.4379 0.1654
-0.5982 1.3900 0.1744
-0.5901 1.3463 0.1767
-0.5377 1.2937 0.1855
-0.3660 1.1632 0.2130
-0.3047 1.0969 0.2233
-0.2293 1.0228 0.2359
-0.1347 0.9380 0.2514
-0.0027 0.8344 0.2726
0.0593 0.7493 0.2835
0.9823 0.3125 0.4244
1.7092 -0.0927 0.5369
1.5294 -0.1224 0.5125
1.5957 -0.2631 0.5256
1.3374 -1.2073 0.5146
1.6038 -1.5388 0.5608
1.8519 -2.8046 0.6293
0.4700 -1.5766 0.4031
0.8998 3.5653 0.2576
0.8662 3.4781 0.2558
0.9278 3.4483 0.2636
0.9667 3.4025 0.2692
0.8830 3.2872 0.2622
0.8043 3.1778 0.2556
0.3288 2.8146 0.2091
-0.1810 2.5233 0.1569
-0.2370 2.4532 0.1520
-0.4405 2.2432 0.1334
-0.4623 2.1948 0.1320
-0.4828 2.1476 0.1307
-0.3931 2.1339 0.1414
-0.8704 1.7664 0.0948
-0.8979 1.7305 0.0924
-0.9199 1.6962 0.0907
-0.9331 1.6632 0.0899
-0.9029 1.6319 0.0941
-0.8504 1.5988 0.1010
-0.7994 1.5628 0.1077
-0.7669 1.5248 0.1124
-0.7497 1.4860 0.1153
-0.6572 1.4384 0.1271
-0.5876 1.3885 0.1363
-0.5871 1.3453 0.1374
-0.5415 1.2936 0.1439
-0.4920 1.2382 0.1509
-0.3502 1.1579 0.1692
-0.3175 1.0983 0.1744
-0.1488 0.9395 0.1976
-0.0444 0.8454 0.2119
1.4404 0.0154 0.4031
1.3528 -0.0496 0.3945
1.7407 -0.3447 0.4463
2.0846 -0.8958 0.4989
1.7715 -1.1980 0.4698
1.6651 -1.2432 0.4585
1.8847 -1.5327 0.4907
1.4661 -1.3276 0.4374
1.5762 -1.5357 0.4551
1.7242 -2.6947 0.4993
1.3215 -2.3745 0.4452
0.7020 -1.7755 0.3595
1.0081 3.5095 0.1993
0.9720 3.4186 0.1979
0.8411 3.2764 0.1888
0.8080 3.1914 0.1874
0.6887 3.0636 0.1791
0.3369 2.7704 0.1529
-0.3737 2.3578 0.0963
-0.4919 2.2690 0.0873
-0.4819 2.2331 0.0889
-0.4877 2.1909 0.0892
-0.4868 2.1509 0.0901
-0.4290 2.1277 0.0958
-0.8550 1.7705 0.0641
-0.9196 1.6978 0.0597
-0.9327 1.6646 0.0592
-0.9017 1.6331 0.0626
-0.8033 1.5637 0.0730
-0.7711 1.5256 0.0767
-0.7296 1.4848 0.0813
-0.6801 1.4408 0.0867
-0.6131 1.3915 0.0938
-0.5612 1.3408 0.0995
-0.5140 1.2877 0.1049
-0.4630 1.2309 0.1107
-0.3337 1.1524 0.1240
-0.3303 1.0997 0.1254
-0.0635 0.9090 0.1535
-0.0327 0.8377 0.1578
0.1168 0.7192 0.1738
1.3051 0.0662 0.2952
1.2566 -0.0137 0.2924
1.3877 -0.1804 0.3076
1.3740 -0.2797 0.3084
1.4745 -0.4424 0.3208
1.7128 -0.6926 0.3475
1.9856 -0.9794 0.3781
1.8692 -1.0322 0.3686
1.5803 -0.9622 0.3408
1.4038 -0.9546 0.3246
1.7274 -1.3070 0.3611
1.6965 -1.5312 0.3628
1.6473 -2.6393 0.3804
0.8861 3.5844 0.1169
0.9248 3.5415 0.1202
0.9887 3.5117 0.1249
1.0036 3.4502 0.1269
0.8698 3.3047 0.1204
0.7896 3.1934 0.1170
0.6927 3.0767 0.1125
0.3712 2.7955 0.0958
-0.4268 2.3414 0.0503
-0.4486 2.2917 0.0497
-0.4781 2.2397 0.0486
-0.4839 2.1972 0.0489
-0.4664 2.1623 0.0507
0.5257 2.2905 0.1144
-0.9104 1.7328 0.0283
-0.9279 1.6987 0.0277
-0.9056 1.6674 0.0297
-0.9060 1.6341 0.0302
-0.8178 1.5648 0.0372
-0.7690 1.5261 0.0411
-0.7394 1.4859 0.0437
-0.6164 1.3918 0.0535
-0.6087 1.3477 0.0547
-0.5088 1.2859 0.0624
-0.4314 1.2231 0.0685
-0.3752 1.1607 0.0733
-0.2723 1.0823 0.0814
-0.0263 0.8939 0.1009
-0.0345 0.8347 0.1013
1.1913 0.2072 0.1930
1.2806 0.0689 0.2012
1.3032 -0.0442 0.2046
1.2540 -0.1236 0.2026
1.4239 -0.3166 0.2171
2.0404 -0.7701 0.2655
1.9217 -0.8290 0.2586
1.2306 -0.8469 0.2131
1.4021 -1.0829 0.2283
1.2390 -1.0710 0.2173
0.9301 3.5588 0.0483
0.9693 3.5138 0.0505
1.0368 3.4831 0.0537
0.8990 3.3338 0.0499
0.8168 3.2200 0.0480
0.7169 3.1004 0.0455
0.6437 2.9980 0.0438
0.5155 2.8727 0.0402
-0.4379 2.3427 0.0079
-0.4518 2.2960 0.0079
-0.4332 2.2619 0.0091
-0.4393 2.2180 0.0094
-0.5007 2.1559 0.0077
0.6308 2.3240 0.0521
0.6209 2.2524 0.0526
0.5686 2.1719 0.0515
-0.9146 1.7342 -0.0038
-0.9320 1.7000 -0.0041
-0.9142 1.6684 -0.0029
-0.9145 1.6351 -0.0025
-0.8165 1.5656 0.0024
-0.7555 1.5260 0.0055
-0.6484 1.4377 0.0110
-0.6136 1.3912 0.0131
-0.5689 1.3409 0.0156
-0.3902 1.2131 0.0246
-0.3397 1.1505 0.0275
-0.2856 1.0837 0.0306
-0.0808 0.9083 0.0413
-0.0757 0.8456 0.0423
1.3782 0.1230 0.1116
1.2918 0.0558 0.1089
1.2427 -0.0247 0.1080
1.2650 -0.1387 0.1104
1.5574 -0.3984 0.1258
1.7171 -0.6022 0.1350
1.7477 -0.7402 0.1381
1.8265 -0.9110 0.1436
1.6712 -0.9346 0.1375
1.6559 -1.0454 0.1383
1.5110 -1.0632 0.1326
1.3757 -1.0800 0.1272
1.2861 -1.1248 0.1241
1.8282 -1.6785 0.1537
0.8386 3.5152 -0.0257
0.8285 3.4419 -0.0251
0.8423 3.3827 -0.0244
0.9288 3.3635 -0.0228
0.8457 3.2479 -0.0230
0.7428 3.1253 -0.0235
0.6890 3.0313 -0.0234
0.4795 2.8655 -0.0251
-0.4412 2.3472 -0.0345
-0.4384 2.3071 -0.0341
-0.4533 2.2598 -0.0339
-0.4825 2.2079 -0.0338
-0.5038 2.1596 -0.0337
0.3625 2.2611 -0.0212
0.3188 2.1876 -0.0211
-0.9090 1.6701 -0.0354
-0.9094 1.6364 -0.0351
-0.8101 1.5663 -0.0328
-0.7881 1.5282 -0.0321
-0.7051 1.4840 -0.0304
-0.6393 1.4368 -0.0289
-0.5884 1.3877 -0.0277
-0.5718 1.3409 -0.0270
-0.4026 1.2145 -0.0231
-0.3718 1.1566 -0.0221
-0.3292 1.0933 -0.0208
-0.0565 0.8972 -0.0147
-0.0097 0.8185 -0.0132
1.3529 0.1257 0.0147
1.3026 0.0427 0.0147
1.2891 -0.0555 0.0154
1.3862 -0.2096 0.0184
1.4494 -0.3522 0.0207
1.2484 -0.3503 0.0176
1.9119 -0.8519 0.0327
2.1089 -1.1032 0.0382
1.5685 -1.1215 0.0299
1.4281 -1.1365 0.0279
1.4541 -1.2743 0.0296
1.6560 -1.5588 0.0355
0.6256 -1.6792 0.0205
0.8918 3.5630 -0.0982
0.9304 3.5181 -0.0984
0.8949 3.4271 -0.0975
0.8370 3.3244 -0.0963
0.8031 3.2371 -0.0954
0.7693 3.1508 -0.0945
0.7145 3.0551 -0.0934
0.4816 2.8764 -0.0899
-0.3937 2.3737 -0.0780
-0.4893 2.2921 -0.0765
-0.4721 2.2581 -0.0765
-0.4781 2.2146 -0.0761
-0.4994 2.1659 -0.0756
-0.4738 2.1326 -0.0757
-0.4485 2.0977 -0.0757
-0.4373 2.0576 -0.0756
-0.4522 2.0103 -0.0752
-0.8561 1.6038 -0.0686
-0.8454 1.5678 -0.0685
-0.7749 1.5281 -0.0690
-0.7214 1.4856 -0.0693
-0.6499 1.4380 -0.0697
-0.6414 1.3944 -0.0696
-0.5758 1.3410 -0.0699
-0.4865 1.2792 -0.0705
-0.4242 1.2178 -0.0707
-0.3936 1.1601 -0.0707
-0.3222 1.0894 -0.0710
-0.0926 0.8443 -0.0719
1.2203 0.1732 -0.0814
1.3884 -0.0040 -0.0821
1.4125 -0.1235 -0.0816
1.3225 -0.1875 -0.0803
1.4230 -0.3493 -0.0804
1.4087 -0.4528 -0.0796
1.6011 -0.6803 -0.0802
2.0773 -1.0997 -0.0826
1.9890 -1.3096 -0.0805
0.9279 -1.9441 -0.0658
0.5784 -1.6475 -0.0640
0.3381 -1.4580 -0.0626
0.8489 3.5499 -0.1706
0.8861 3.5048 -0.1718
0.8520 3.4151 -0.1704
0.8899 3.3678 -0.1717
0.7843 3.2391 -0.1675
0.7506 3.1529 -0.1661
0.7183 3.0684 -0.1647
0.6019 2.9444 -0.1602
0.2821 2.7322 -0.1480
-0.3950 2.3366 -0.1223
-0.4177 2.2847 -0.1214
-0.4475 2.1884 -0.1201
-0.4775 2.1363 -0.1189
-0.4835 2.0921 -0.1185
-0.4821 2.0500 -0.1185
-0.4391 2.0175 -0.1200
-0.3846 1.9849 -0.1219
-0.8755 1.6048 -0.1031
-0.8391 1.5685 -0.1043
-0.7795 1.5289 -0.1064
-0.6738 1.4405 -0.1101
-0.6389 1.3938 -0.1112
-0.5719 1.3398 -0.1135
-0.5075 1.2822 -0.1158
-0.4185 1.2153 -0.1189
-0.3683 1.1523 -0.1205
-0.2945 1.0797 -0.1231
-0.1787 0.9898 -0.1271
-0.0599 0.8917 -0.1312
-0.0406 0.8219 -0.1317
0.1610 0.6795 -0.1388
1.1615 0.1902 -0.1742
1.2886 0.0320 -0.1784
1.4252 -0.1393 -0.1830
1.3439 -0.4280 -0.1794
1.4882 -0.6260 -0.1842
1.5846 -1.2913 -0.1861
1.4825 -1.3344 -0.1823
1.6559 -2.6621 -0.1855
0.9355 -1.9781 -0.1608
0.6331 -1.7351 -0.1504
0.8402 3.6264 -0.2438
0.7826 3.5214 -0.2403
0.8432 3.4922 -0.2442
0.8810 3.4461 -0.2467
0.8705 3.3699 -0.2461
0.8121 3.2671 -0.2425
0.7552 3.1673 -0.2391
0.6346 3.0373 -0.2316
0.5235 2.9170 -0.2248
0.3671 2.7806 -0.2151
-0.3445 2.3636 -0.1707
-0.3326 2.3236 -0.1715
-0.3392 2.2760 -0.1712
-0.3544 2.2254 -0.1703
-0.3609 2.1780 -0.1699
-0.3675 2.1306 -0.1696
-0.3378 2.0928 -0.1715
-0.2956 2.0563 -0.1742
-0.2728 2.0131 -0.1757
-0.8941 1.6407 -0.1370
-0.8588 1.6060 -0.1393
-0.8167 1.5689 -0.1420
-0.7892 1.5300 -0.1438
-0.7041 1.4850 -0.1492
-0.6712 1.4404 -0.1513
-0.4211 1.2145 -0.1674
-0.3812 1.1537 -0.1700
-0.0531 0.9491 -0.1910
-0.0752 0.8934 -0.1897
-0.0698 0.8285 -0.1901
1.5774 -0.1069 -0.2954
1.7415 -0.3015 -0.3060
1.3702 -0.3435 -0.2826
1.6489 -0.6155 -0.3006
1.8721 -0.8725 -0.3150
1.8576 -1.3865 -0.3148
1.6460 -1.3573 -0.3014
1.5405 -1.4002 -0.2948
1.6744 -2.7133 -0.3050
0.8788 -1.9387 -0.2537
0.1802 -1.3097 -0.2088
0.0290 -1.2074 -0.1991
0.8345 3.5693 -0.3180
0.8241 3.4943 -0.3175
0.8861 3.4631 -0.3232
0.9265 3.4160 -0.3271
0.8405 3.2958 -0.3199
0.7827 3.1942 -0.3152
0.7262 3.0955 -0.3107
0.6493 2.9890 -0.3043
0.4399 2.8240 -0.2862
-0.3350 2.3288 -0.2189
-0.3416 2.2809 -0.2185
-0.3301 2.2393 -0.2198
-0.3367 2.1909 -0.2194
-0.2435 2.1720 -0.2279
-0.2611 2.1182 -0.2266
-0.2681 2.0675 -0.2263
-0.8425 1.6072 -0.1768
-0.8262 1.5700 -0.1785
-0.8101 1.5316 -0.1801
-0.7023 1.4853 -0.1901
-0.6678 1.4401 -0.1934
-0.6466 1.3944 -0.1956
-0.4805 1.2753 -0.2111
-0.4525 1.2199 -0.2139
-0.3941 1.1551 -0.2195
-0.1214 0.9668 -0.2451
-0.0495 0.8814 -0.2520
-0.0162 0.8052 -0.2554
1.6977 -0.0519 -0.4142
1.5930 -0.1235 -0.4051
1.9076 -0.3928 -0.4348
1.3971 -0.2571 -0.3881
1.3438 -0.3406 -0.3837
1.5759 -0.5867 -0.4059
1.2815 -1.0947 -0.3819
1.5560 -1.4326 -0.4084
1.7100 -2.6432 -0.4284
1.3311 -2.3595 -0.3928
0.6003 -1.6419 -0.3233
0.2887 -1.3726 -0.2939
0.1611 -1.3076 -0.2820
0.8153 3.5714 -0.3913
0.8283 3.5112 -0.3933
0.8422 3.4504 -0.3955
0.9065 3.4181 -0.4033
0.8211 3.2979 -0.3944
0.7865 3.2087 -0.3911
0.6627 3.0745 -0.3777
0.6103 2.9809 -0.3724
0.4607 2.8437 -0.3560
0.4319 2.7670 -0.3533
0.4419 2.7075 -0.3550
0.5094 2.5366 -0.3645
0.4414 2.4472 -0.3573
0.3573 2.2264 -0.3494
0.5422 2.2017 -0.3713
-0.9296 1.6762 -0.2030
-0.8418 1.5711 -0.2143
-0.7916 1.5314 -0.2205
-0.7188 1.4868 -0.2295
-0.6306 1.4364 -0.2403
-0.6078 1.3891 -0.2434
-0.4670 1.2718 -0.2609
-0.4462 1.2173 -0.2639
-0.3581 1.1445 -0.2749
-0.1490 0.9723 -0.3010
-0.1183 0.9009 -0.3052
-0.0321 0.8069 -0.3162
1.2617 0.1246 -0.4742
1.3603 -0.0270 -0.4871
1.3460 -0.1306 -0.4864
1.3317 -0.2341 -0.4856
1.2797 -0.3170 -0.4802
1.5046 -0.5585 -0.5088
1.6210 -0.7489 -0.5242
1.4865 -1.0268 -0.5108
1.2692 -0.9871 -0.4849
1.1807 -1.0341 -0.4749
1.1666 -1.1366 -0.4742
1.3595 -2.2908 -0.5071
0.6571 -1.7320 -0.4196
0.3529 -1.4718 -0.3815
0.0529 -1.1950 -0.3439
-0.0388 -1.1627 -0.3328
0.4711 2.9228 -0.4256
0.4057 2.8278 -0.4173
0.4715 2.7943 -0.4272
0.5623 2.7679 -0.4408
0.4716 2.6639 -0.4289
0.5545 2.2817 -0.4458
0.6097 2.2230 -0.4546
0.6211 2.1523 -0.4571
-0.8512 1.6093 -0.2501
-0.8353 1.5719 -0.2529
-0.7955 1.5322 -0.2592
-0.7481 1.4894 -0.2666
-0.6625 1.4397 -0.2797
-0.6823 1.3986 -0.2773
-0.4618 1.2699 -0.3110
-0.4588 1.2186 -0.3121
-0.3811 1.1484 -0.3243
-0.1388 0.9663 -0.3618
-0.1076 0.8939 -0.3672
0.1348 0.7417 -0.4044
0.2837 0.6113 -0.4276
0.9264 0.1629 -0.5267
1.1388 -0.0390 -0.5601
1.1599 -0.1554 -0.5646
1.2536 -0.3141 -0.5803
1.2032 -0.3953 -0.5740
1.0378 -0.5086 -0.5514
1.0244 -0.6059 -0.5507
1.0109 -0.7031 -0.5499
1.0977 -0.8755 -0.5647
1.1192 -1.0035 -0.5695
1.0032 -1.0214 -0.5529
0.9248 -1.0645 -0.5420
0.9116 -1.1607 -0.5413
0.8367 -1.2002 -0.5309
