ply
format ascii 1.0
element vertex 2118
property float x
property float y
property float z
end_header
-1.7722 2.1604 -0.6027
-1.7819 2.1575 -0.6049
-1.7945 2.1547 -0.6006
-1.8038 2.1520 -0.6018
-1.8107 2.1494 -0.6078
0.5051 2.9690 0.4493
0.5816 2.9876 0.4133
0.5404 2.9686 0.3547
0.5018 2.9505 0.2972
0.2310 2.8606 0.2127
0.3334 2.8866 0.1751
0.5133 2.9356 0.1383
0.4894 2.9220 0.0814
0.5338 2.9288 0.0268
0.6756 2.9643 -0.0298
0.5923 2.9325 -0.0913
0.5667 2.9179 -0.1521
0.5971 2.9195 -0.2163
0.5336 2.8939 -0.2754
0.4997 2.8695 -0.4004
0.4562 2.8498 -0.4593
0.2565 2.7801 -0.5504
-0.1992 2.6384 -0.6097
-0.3426 2.5951 -0.6173
-0.6300 2.5108 -0.6099
-0.8338 2.4507 -0.6085
-0.9815 2.4064 -0.6132
-1.0962 2.3716 -0.6207
-1.2726 2.3213 -0.6041
-1.3211 2.3075 -0.5988
-1.3487 2.2985 -0.6066
-1.3742 2.2900 -0.6146
-1.4551 2.2678 -0.5996
-1.5054 2.2524 -0.6035
-1.5306 2.2450 -0.6031
-1.5561 2.2378 -0.6006
-1.5720 2.2323 -0.6071
-1.5937 2.2260 -0.6060
-1.6163 2.2198 -0.6021
-1.6299 2.2151 -0.6081
-1.6676 2.2045 -0.6032
-1.6956 2.1957 -0.6068
-1.7266 2.1872 -0.6016
-1.7506 2.1799 -0.6035
-1.7712 2.1732 -0.6080
-1.7828 2.1700 -0.6066
-1.7959 2.1668 -0.6009
-1.8035 2.1639 -0.6059
-1.8110 2.1612 -0.6105
-1.8217 2.1584 -0.6071
0.5498 3.0267 0.2901
0.2427 2.9187 0.2017
0.6431 3.0463 0.1908
0.6740 3.0504 0.1356
0.6294 3.0297 0.0742
0.6612 3.0338 0.0158
0.6942 3.0380 -0.0452
0.7908 3.0623 -0.1101
0.7426 3.0400 -0.1747
0.6948 3.0180 -0.2383
0.6474 2.9962 -0.3010
0.7017 3.0060 -0.3743
0.7168 3.0033 -0.4463
0.4724 2.9215 -0.4775
-0.0710 2.7335 -0.6039
-0.2974 2.6619 -0.5922
-0.3436 2.6433 -0.6285
-0.6309 2.5519 -0.6194
-0.8252 2.4892 -0.6211
-0.9822 2.4388 -0.6207
-1.1906 2.3736 -0.6032
-1.3090 2.3344 -0.6137
-1.3977 2.3072 -0.6009
-1.4224 2.2986 -0.6071
-1.4556 2.2883 -0.6043
-1.4809 2.2799 -0.6067
-1.5159 2.2695 -0.5979
-1.5341 2.2631 -0.6042
-1.5564 2.2558 -0.6048
-1.5940 2.2432 -0.6099
-1.6196 2.2358 -0.6023
-1.6403 2.2295 -0.5989
-1.6535 2.2247 -0.6040
-1.6658 2.2201 -0.6096
-1.7020 2.2094 -0.6009
-1.7129 2.2054 -0.6058
-1.7269 2.2010 -0.6048
-1.7490 2.1934 -0.6100
-1.7641 2.1891 -0.6038
-1.7758 2.1855 -0.6027
-1.7861 2.1821 -0.6034
-1.7979 2.1787 -0.6000
-1.8043 2.1758 -0.6074
-1.8135 2.1728 -0.6081
0.6121 3.1051 0.2293
0.7177 3.1373 0.1826
0.7719 3.1509 0.1270
0.8506 3.1728 0.0690
0.8232 3.1572 0.0040
0.8169 3.1489 -0.0610
0.8783 3.1638 -0.1285
0.8499 3.1476 -0.1961
0.7999 3.1241 -0.2620
0.8388 3.1307 -0.3355
0.6240 3.0389 -0.5192
0.5381 3.0040 -0.5732
0.3339 2.9309 -0.5973
0.1846 2.8765 -0.6255
-0.1396 2.7666 -0.5976
-0.3171 2.7050 -0.5978
-0.5361 2.6269 -0.6204
-0.8492 2.5184 -0.6187
-1.1912 2.4006 -0.6094
-1.2397 2.3839 -0.6088
-1.2796 2.3698 -0.6114
-1.3280 2.3535 -0.6054
-1.3663 2.3404 -0.6042
-1.3998 2.3287 -0.6046
-1.4383 2.3159 -0.5986
-1.4584 2.3082 -0.6069
-1.4876 2.2982 -0.6053
-1.5101 2.2901 -0.6085
-1.5337 2.2818 -0.6093
-1.6250 2.2510 -0.5997
-1.6724 2.2342 -0.6043
-1.6892 2.2285 -0.6021
-1.7010 2.2240 -0.6063
-1.7145 2.2193 -0.6069
-1.7291 2.2144 -0.6048
-1.7402 2.2103 -0.6074
-1.7555 2.2055 -0.6017
-1.7674 2.2015 -0.6009
-1.7766 2.1980 -0.6044
-1.7881 2.1942 -0.6026
-1.7958 2.1910 -0.6078
-1.8051 2.1877 -0.6088
-1.8148 2.1844 -0.6082
1.0836 3.3638 0.4542
0.9634 3.3124 0.3745
0.9585 3.3055 0.3127
0.9765 3.3071 0.2524
0.9257 3.2826 0.1845
0.8765 3.2587 0.1177
0.8931 3.2596 0.0544
0.8877 3.2522 -0.0112
0.8830 3.2449 -0.0778
0.8768 3.2369 -0.1454
0.7984 3.1966 -0.2788
0.7062 3.1397 -0.5505
0.4540 3.0383 -0.6403
-0.3269 2.7504 -0.6062
-0.5648 2.6607 -0.6199
-0.7929 2.5764 -0.6130
-1.0901 2.4658 -0.6118
-1.1970 2.4260 -0.6123
-1.2844 2.3933 -0.6141
-1.4428 2.3355 -0.5999
-1.4676 2.3260 -0.6035
-1.4928 2.3165 -0.6052
-1.5222 2.3059 -0.6011
-1.5448 2.2974 -0.6022
-1.5587 2.2914 -0.6114
-1.5836 2.2825 -0.6072
-1.6036 2.2751 -0.6072
-1.6224 2.2680 -0.6071
-1.6438 2.2605 -0.6025
-1.6591 2.2546 -0.6045
-1.6748 2.2487 -0.6048
-1.6881 2.2435 -0.6075
-1.7053 2.2375 -0.6034
-1.7155 2.2332 -0.6091
-1.7346 2.2269 -0.5992
-1.7424 2.2234 -0.6072
-1.7571 2.2183 -0.6024
-1.7652 2.2148 -0.6086
-1.7781 2.2103 -0.6049
-1.7884 2.2064 -0.6055
-1.7996 2.2024 -0.6031
-1.8065 2.1993 -0.6091
-1.8168 2.1957 -0.6070
1.0473 3.4346 0.6113
1.0435 3.4287 0.5518
1.1101 3.4517 0.5040
1.1561 3.4660 0.4492
1.0542 3.4198 0.3711
1.0262 3.4039 0.3046
0.9982 3.3879 0.2381
0.9943 3.3817 0.1735
1.0128 3.3844 0.1090
1.0587 3.3978 0.0434
0.9321 3.3424 -0.0273
0.8815 3.3174 -0.0946
0.8983 3.3191 -0.1631
0.8696 3.3027 -0.2312
0.8646 3.2957 -0.3012
0.8826 3.2975 -0.3748
0.1680 2.9934 -0.6500
-0.3279 2.7987 -0.6174
-0.5657 2.7032 -0.6298
-0.7984 2.6115 -0.6194
-0.9607 2.5470 -0.6189
-1.0023 2.5294 -0.6333
-1.1712 2.4645 -0.6035
-1.2115 2.4480 -0.6094
-1.3062 2.4107 -0.6044
-1.3739 2.3834 -0.6093
-1.4392 2.3576 -0.6082
-1.4956 2.3352 -0.6074
-1.5444 2.3158 -0.6072
-1.6061 2.2912 -0.6084
-1.6293 2.2824 -0.6026
-1.6573 2.2707 -0.6110
-1.6912 2.2575 -0.6068
-1.7211 2.2458 -0.6038
-1.7342 2.2406 -0.6034
-1.7465 2.2357 -0.6035
-1.7573 2.2313 -0.6054
-1.7796 2.2225 -0.6054
-1.7880 2.2188 -0.6095
-1.7987 2.2147 -0.6084
-1.8074 2.2110 -0.6105
-1.8182 2.2070 -0.6071
-1.8249 2.2040 -0.6124
1.0998 3.5346 0.7234
1.0272 3.4993 0.6488
1.0227 3.4938 0.5904
1.0189 3.4885 0.5313
1.0806 3.5078 0.4209
1.0290 3.4816 0.3513
1.0013 3.4658 0.2853
1.0210 3.4703 0.2237
1.0158 3.4641 0.1583
0.9874 3.4479 0.0908
1.0571 3.4733 0.0260
1.0278 3.4566 -0.0437
0.9730 3.4291 -0.1130
0.9438 3.4125 -0.1821
0.9147 3.3959 -0.2512
0.8631 3.3699 -0.3184
0.8342 3.3535 -0.3870
0.9486 3.3963 -0.4754
-0.5992 2.7328 -0.6269
-0.8188 2.6404 -0.6190
-0.9650 2.5783 -0.6245
-1.1003 2.5214 -0.6202
-1.2147 2.4734 -0.6138
-1.3794 2.4040 -0.6104
-1.4517 2.3740 -0.6022
-1.4756 2.3636 -0.6060
-1.4991 2.3535 -0.6088
-1.5261 2.3423 -0.6066
-1.5486 2.3327 -0.6073
-1.5670 2.3247 -0.6112
-1.5940 2.3137 -0.6038
-1.6094 2.3069 -0.6086
-1.6325 2.2975 -0.6026
-1.6445 2.2920 -0.6098
-1.6639 2.2840 -0.6057
-1.6942 2.2712 -0.6061
-1.7106 2.2645 -0.6026
-1.7279 2.2576 -0.5962
-1.7352 2.2540 -0.6054
-1.7487 2.2484 -0.6032
-1.7589 2.2439 -0.6061
-1.7713 2.2388 -0.6039
-1.7774 2.2356 -0.6131
-1.7901 2.2306 -0.6087
-1.7983 2.2268 -0.6124
-1.8128 2.2214 -0.6017
-1.8195 2.2182 -0.6072
-1.8273 2.2147 -0.6097
1.1253 3.6193 0.7714
0.9428 3.5323 0.6695
1.0036 3.5574 0.6281
1.0636 3.5789 0.5239
1.0791 3.5797 0.4043
1.1243 3.5970 0.3471
1.1460 3.6035 0.2845
1.0926 3.5759 0.2133
1.0878 3.5703 0.1462
1.0348 3.5430 0.0761
1.0059 3.5265 0.0075
1.0005 3.5205 -0.0611
1.0420 3.5317 -0.2041
0.9870 3.5035 -0.2737
0.9818 3.4975 -0.3469
0.8326 3.4277 -0.4041
0.9217 3.4632 -0.4898
-0.7658 2.7015 -0.6110
-0.8430 2.6666 -0.6166
-1.0805 2.5609 -0.6050
-1.1750 2.5181 -0.6145
-1.2866 2.4688 -0.6012
-1.3561 2.4374 -0.6068
-1.3915 2.4216 -0.6060
-1.4164 2.4101 -0.6121
-1.4481 2.3960 -0.6105
-1.4800 2.3819 -0.6068
-1.5090 2.3691 -0.6039
-1.5296 2.3597 -0.6077
-1.5749 2.3394 -0.6067
-1.5921 2.3315 -0.6104
-1.6156 2.3213 -0.6052
-1.6307 2.3143 -0.6091
-1.6650 2.2990 -0.6083
-1.6854 2.2902 -0.6011
-1.7249 2.2724 -0.6048
-1.7374 2.2668 -0.6052
-1.7503 2.2611 -0.6040
-1.7604 2.2564 -0.6068
-1.7697 2.2520 -0.6103
-1.7813 2.2469 -0.6087
-1.7927 2.2419 -0.6065
-1.8015 2.2379 -0.6089
-1.8130 2.2330 -0.6044
-1.8198 2.2296 -0.6098
1.1403 3.6917 0.6427
1.1127 3.6760 0.5772
1.1094 3.6719 0.5162
1.0074 3.6181 0.3776
1.0260 3.6244 0.3183
0.9983 3.6086 0.2523
0.9937 3.6038 0.1882
0.9657 3.5879 0.1217
0.9616 3.5832 0.0562
0.9559 3.5778 -0.0105
0.9755 3.5843 -0.0783
0.9223 3.5564 -0.1462
0.8936 3.5400 -0.2142
0.9366 3.5573 -0.2877
0.9555 3.5632 -0.3623
-1.0203 2.6192 -0.6109
-1.0838 2.5891 -0.6103
-1.1808 2.5430 -0.6174
-1.2829 2.4951 -0.6099
-1.3716 2.4535 -0.6001
-1.3977 2.4409 -0.6063
-1.4283 2.4265 -0.6070
-1.4828 2.4006 -0.6091
-1.5292 2.3786 -0.6128
-1.5806 2.3546 -0.6046
-1.5984 2.3460 -0.6072
-1.6240 2.3343 -0.5989
-1.6354 2.3286 -0.6072
-1.6551 2.3194 -0.6035
-1.6709 2.3119 -0.6038
-1.6830 2.3060 -0.6086
-1.7009 2.2978 -0.6034
-1.7118 2.2924 -0.6081
-1.7265 2.2856 -0.6058
-1.7370 2.2804 -0.6094
-1.7544 2.2726 -0.6001
-1.7619 2.2688 -0.6074
-1.7725 2.2637 -0.6085
-1.7852 2.2579 -0.6043
-1.7941 2.2536 -0.6068
-1.8035 2.2491 -0.6078
-1.8138 2.2443 -0.6058
-1.8200 2.2411 -0.6125
-1.8278 2.2373 -0.6150
1.2704 3.8326 0.7765
1.0719 3.7306 0.6698
1.0648 3.7235 0.5518
0.9916 3.6849 0.4791
1.0105 3.6925 0.4228
1.0010 3.6840 0.2990
0.9068 3.6350 0.2271
0.9238 3.6416 0.1664
0.9183 3.6369 0.1026
0.8475 3.5997 0.0357
0.9082 3.6279 -0.0279
0.9037 3.6236 -0.0946
0.8522 3.5960 -0.1608
0.8472 3.5914 -0.2286
0.8635 3.5974 -0.2993
0.9056 3.6160 -0.3749
0.8519 3.5872 -0.4414
0.8701 3.5940 -0.5179
0.8176 3.5659 -0.5840
0.1442 3.2291 -0.6389
-0.3043 3.0066 -0.6202
-0.7976 2.7613 -0.6149
-0.9691 2.6762 -0.6095
-1.1990 2.5617 -0.6123
-1.2954 2.5139 -0.6069
-1.3363 2.4936 -0.6053
-1.3637 2.4798 -0.6120
-1.4369 2.4436 -0.6047
-1.4880 2.4180 -0.6090
-1.5137 2.4053 -0.6087
-1.5435 2.3906 -0.6023
-1.5787 2.3729 -0.6112
-1.6033 2.3608 -0.6057
-1.6207 2.3521 -0.6072
-1.6422 2.3415 -0.6023
-1.6590 2.3332 -0.6022
-1.6733 2.3260 -0.6043
-1.6909 2.3174 -0.6007
-1.7040 2.3108 -0.6025
-1.7155 2.3050 -0.6059
-1.7288 2.2983 -0.6056
-1.7419 2.2919 -0.6047
-1.7559 2.2850 -0.6008
-1.7622 2.2816 -0.6104
-1.7721 2.2766 -0.6126
-1.7855 2.2701 -0.6071
-1.7962 2.2648 -0.6059
-1.8078 2.2591 -0.6016
-1.8152 2.2553 -0.6058
-1.8225 2.2516 -0.6098
-1.8297 2.2479 -0.6135
1.0521 3.7909 0.7063
0.9598 3.7411 0.6287
0.9550 3.7375 0.5717
0.9949 3.7573 0.5226
0.9466 3.7307 0.4558
0.9418 3.7271 0.3964
0.9593 3.7350 0.3391
0.9099 3.7079 0.2726
0.9053 3.7043 0.2111
0.8564 3.6774 0.1455
0.8732 3.6850 0.0841
0.8677 3.6808 0.0202
0.8842 3.6881 -0.0446
0.8787 3.6839 -0.1110
0.8739 3.6801 -0.1784
0.8228 3.6520 -0.2439
0.8619 3.6710 -0.3163
0.8794 3.6787 -0.3896
0.7823 3.6268 -0.4493
0.8212 3.6455 -0.5278
0.2232 3.3315 -0.6115
0.0612 3.2465 -0.6306
-0.3320 3.0413 -0.6227
-0.9772 2.7045 -0.6132
-1.0581 2.6624 -0.6052
-1.1121 2.6342 -0.6082
-1.2066 2.5847 -0.6138
-1.2639 2.5549 -0.6057
-1.2994 2.5363 -0.6099
-1.3452 2.5125 -0.6042
-1.4135 2.4768 -0.6037
-1.4398 2.4631 -0.6073
-1.4940 2.4347 -0.6080
-1.5454 2.4079 -0.6048
-1.5647 2.3978 -0.6078
-1.6269 2.3654 -0.6036
-1.6396 2.3586 -0.6098
-1.6636 2.3463 -0.5999
-1.6750 2.3402 -0.6058
-1.6918 2.3315 -0.6030
-1.7178 2.3179 -0.6059
-1.7330 2.3100 -0.6021
-1.7447 2.3039 -0.6032
-1.7549 2.2985 -0.6061
-1.7675 2.2920 -0.6039
-1.7791 2.2859 -0.6022
-1.7900 2.2803 -0.6013
-1.7976 2.2762 -0.6061
-1.8052 2.2722 -0.6107
-1.8160 2.2666 -0.6072
-1.8233 2.2627 -0.6111
-1.8338 2.2573 -0.6066
-1.7699 2.2503 -0.6004
0.9118 3.9694 0.7264
0.8646 3.9407 0.6584
0.7677 3.8830 0.4681
0.8020 3.9067 0.4164
0.7556 3.8784 0.3502
0.8116 3.9163 0.2979
0.7848 3.9006 0.2334
0.7373 3.8716 0.1671
0.7312 3.8694 0.1042
0.7044 3.8538 0.0397
0.6776 3.8381 -0.0249
0.6916 3.8490 -0.0899
0.7058 3.8601 -0.1569
0.6781 3.8440 -0.2235
0.7134 3.8689 -0.2955
0.6640 3.8387 -0.3612
0.5754 3.7827 -0.4204
0.4739 3.7221 -0.6142
0.0309 3.4348 -0.6360
-0.6079 3.0195 -0.6336
-0.8076 2.8897 -0.6338
-1.2480 2.6024 -0.5965
-1.3187 2.5567 -0.6047
-1.3569 2.5318 -0.6031
-1.3905 2.5100 -0.6030
-1.4227 2.4890 -0.6021
-1.4519 2.4700 -0.6016
-1.4798 2.4518 -0.6006
-1.5510 2.4056 -0.5998
-1.5684 2.3944 -0.6038
-1.5841 2.3843 -0.6087
-1.6083 2.3683 -0.6013
-1.6240 2.3582 -0.6037
-1.6387 2.3487 -0.6063
-1.6584 2.3358 -0.6004
-1.6731 2.3262 -0.6005
-1.6863 2.3176 -0.6020
-1.6968 2.3110 -0.6070
-1.7132 2.3002 -0.6008
-1.7244 2.2929 -0.6026
-1.7354 2.2858 -0.6038
-1.7468 2.2784 -0.6034
-1.7602 2.2695 -0.5978
-1.7673 2.2651 -0.6046
-1.7774 2.2585 -0.6038
-1.7874 2.2520 -0.6025
-1.7972 2.2456 -0.6007
-1.8042 2.2411 -0.6049
-1.8116 2.2364 -0.6076
1.0081 4.1078 0.7848
0.9129 4.0465 0.7012
0.7040 3.9090 0.5930
0.6969 3.9065 0.5364
0.6716 3.8917 0.4755
0.6663 3.8904 0.4181
0.6978 3.9138 0.3657
0.7314 3.9389 0.3110
0.6651 3.8965 0.2425
0.7400 3.9495 0.1884
0.7128 3.9337 0.1229
0.6250 3.8768 0.0547
0.6181 3.8746 -0.0090
0.6107 3.8722 -0.0736
0.6039 3.8702 -0.1393
0.5567 3.8407 -0.2037
0.5297 3.8250 -0.2688
0.5615 3.8494 -0.3402
0.5145 3.8200 -0.4041
0.5254 3.8304 -0.4765
0.4786 3.8011 -0.5399
0.0058 3.4837 -0.6297
-0.6445 3.0420 -0.6238
-0.8534 2.8999 -0.6186
-0.9454 2.8372 -0.6131
-1.0179 2.7880 -0.6125
-1.2535 2.6276 -0.6024
-1.3315 2.5748 -0.6053
-1.4110 2.5205 -0.5967
-1.5171 2.4486 -0.6007
-1.5595 2.4200 -0.6039
-1.5766 2.4085 -0.6082
-1.6034 2.3899 -0.5987
-1.6165 2.3813 -0.6056
-1.6346 2.3690 -0.6046
-1.6516 2.3574 -0.6036
-1.6676 2.3465 -0.6028
-1.6839 2.3353 -0.6001
-1.6987 2.3252 -0.5987
-1.7102 2.3175 -0.6016
-1.7226 2.3091 -0.6020
-1.7467 2.2927 -0.6008
-1.7562 2.2864 -0.6039
-1.7655 2.2802 -0.6066
-1.7789 2.2708 -0.5993
-1.7878 2.2648 -0.6010
-1.7960 2.2593 -0.6035
-1.8066 2.2520 -0.5993
-1.8144 2.2467 -0.6010
-1.8212 2.2423 -0.6050
-1.8288 2.2372 -0.6060
0.8801 4.0986 0.7816
0.7498 4.0110 0.6891
0.6861 3.9696 0.6173
0.6281 3.9379 0.4367
0.6206 3.9357 0.3779
0.6139 3.9341 0.3184
0.6657 3.9736 0.2651
0.6389 3.9580 0.2006
0.6121 3.9424 0.1360
0.5853 3.9267 0.0715
0.6181 3.9533 0.0084
0.5317 3.8955 -0.0576
0.5237 3.8932 -0.1227
0.5358 3.9053 -0.1897
0.5471 3.9170 -0.2588
0.5192 3.9007 -0.3258
0.4535 3.8574 -0.3879
0.4832 3.8824 -0.4631
0.4746 3.8800 -0.5344
0.5058 3.9064 -0.6157
-0.6871 3.0600 -0.6115
-0.8670 2.9328 -0.6190
-0.9709 2.8584 -0.6073
-1.0564 2.7974 -0.5991
-1.1611 2.7236 -0.6081
-1.2161 2.6845 -0.6059
-1.2591 2.6541 -0.6086
-1.4182 2.5409 -0.6021
-1.4527 2.5163 -0.5985
-1.4737 2.5017 -0.6057
-1.5005 2.4827 -0.6055
-1.5200 2.4692 -0.6114
-1.5451 2.4512 -0.6095
-1.5691 2.4341 -0.6070
-1.5912 2.4183 -0.6049
-1.6071 2.4073 -0.6094
-1.6466 2.3790 -0.6036
-1.6626 2.3676 -0.6038
-1.6735 2.3602 -0.6108
-1.6931 2.3459 -0.6027
-1.7082 2.3351 -0.6004
-1.7178 2.3286 -0.6067
-1.7317 2.3186 -0.6041
-1.7453 2.3088 -0.6008
-1.7553 2.3018 -0.6034
-1.7668 2.2936 -0.6021
-1.7775 2.2860 -0.6014
-1.7864 2.2798 -0.6037
-1.7982 2.2712 -0.5983
-1.8057 2.2660 -0.6021
-1.8132 2.2609 -0.6055
-1.8228 2.2539 -0.6023
-1.8286 2.2502 -0.6090
-1.8370 2.2441 -0.6075
0.7938 4.1195 0.7330
0.8095 4.1347 0.6795
0.6272 4.0138 0.4630
0.6598 4.0414 0.4102
0.6527 4.0402 0.3486
0.5866 3.9958 0.2785
0.5417 3.9668 0.2125
0.5334 3.9648 0.1504
0.5068 3.9493 0.0863
0.5177 3.9615 0.0234
0.5492 3.9891 -0.0412
0.5409 3.9873 -0.1081
0.5532 4.0009 -0.1770
0.5050 3.9697 -0.2437
0.4770 3.9533 -0.3113
0.4295 3.9224 -0.3764
0.4592 3.9494 -0.4526
0.3928 3.9042 -0.5141
0.4022 3.9162 -0.5899
-0.2132 3.4625 -0.6287
-0.7685 3.0507 -0.6283
-0.9656 2.9039 -0.6180
-1.1028 2.8022 -0.6179
-1.2303 2.7070 -0.6063
-1.2755 2.6735 -0.6074
-1.3263 2.6354 -0.6010
-1.3594 2.6112 -0.6056
-1.3939 2.5857 -0.6067
-1.4305 2.5583 -0.6035
-1.4635 2.5337 -0.6010
-1.5058 2.5032 -0.6139
-1.5641 2.4592 -0.6020
-1.5766 2.4507 -0.6132
-1.6039 2.4298 -0.6042
-1.6245 2.4144 -0.6020
-1.6403 2.4029 -0.6050
-1.6739 2.3779 -0.6039
-1.6864 2.3689 -0.6082
-1.7060 2.3538 -0.5992
-1.7179 2.3452 -0.6021
-1.7317 2.3348 -0.6003
-1.7421 2.3274 -0.6041
-1.7553 2.3173 -0.6009
-1.7637 2.3115 -0.6070
-1.7764 2.3018 -0.6025
-1.7864 2.2944 -0.6031
-1.7971 2.2863 -0.6008
-1.8071 2.2788 -0.5991
-1.8160 2.2723 -0.5993
-1.8233 2.2671 -0.6029
-1.8326 2.2599 -0.5997
-1.8392 2.2553 -0.6038
-1.8465 2.2500 -0.6050
0.7763 4.1876 0.7612
0.7074 4.1404 0.6843
0.6214 4.0800 0.6048
0.6073 4.0785 0.4865
0.6130 4.0924 0.3679
0.5466 4.0466 0.2969
0.4830 4.0028 0.2281
0.5314 4.0448 0.1713
0.5626 4.0739 0.1096
0.5347 4.0577 0.0425
0.3774 3.9412 -0.0263
0.4790 4.0252 -0.0916
0.5099 4.0547 -0.1610
0.4620 4.0230 -0.2284
0.4529 4.0214 -0.2984
0.4244 4.0048 -0.3670
0.3398 3.9441 -0.4269
0.3489 3.9570 -0.5009
0.3206 3.9405 -0.5690
-0.2178 3.5280 -0.6297
-0.5722 3.2524 -0.6189
-0.9918 2.9266 -0.6122
-1.1991 2.7651 -0.6030
-1.2385 2.7353 -0.6112
-1.2987 2.6878 -0.6012
-1.3348 2.6602 -0.6059
-1.4129 2.5993 -0.6025
-1.4446 2.5749 -0.6034
-1.4708 2.5549 -0.6074
-1.4992 2.5329 -0.6072
-1.5197 2.5174 -0.6135
-1.5540 2.4900 -0.6023
-1.5779 2.4713 -0.6007
-1.6163 2.4419 -0.6042
-1.6322 2.4299 -0.6083
-1.6501 2.4160 -0.6081
-1.6699 2.4002 -0.6033
-1.6847 2.3888 -0.6048
-1.6981 2.3787 -0.6075
-1.7183 2.3622 -0.5968
-1.7294 2.3539 -0.6007
-1.7419 2.3442 -0.6011
-1.7526 2.3362 -0.6040
-1.7645 2.3268 -0.6032
-1.7747 2.3191 -0.6050
-1.7876 2.3086 -0.5995
-1.7964 2.3021 -0.6025
-1.8046 2.2960 -0.6062
-1.8140 2.2887 -0.6059
-1.8235 2.2812 -0.6040
-1.8338 2.2728 -0.5989
-1.8404 2.2681 -0.6034
-1.8481 2.2621 -0.6038
-1.8545 2.2575 -0.6077
0.7158 4.2246 0.7773
0.6280 4.1613 0.6945
0.5798 4.1453 0.4496
0.5724 4.1452 0.3875
0.4507 4.0542 0.3074
0.5176 4.1133 0.2554
0.4901 4.0973 0.1893
0.4437 4.0660 0.1219
0.4165 4.0501 0.0563
0.3893 4.0343 -0.0092
0.3988 4.0482 -0.0750
0.4275 4.0780 -0.1435
0.4180 4.0769 -0.2128
0.4286 4.0922 -0.2850
0.4390 4.1078 -0.3596
0.3325 4.0270 -0.4188
0.3040 4.0104 -0.4874
0.2755 3.9938 -0.5561
0.0350 3.8003 -0.5718
-0.2111 3.6066 -0.6344
-1.2605 2.7530 -0.6066
-1.3483 2.6819 -0.6073
-1.4241 2.6203 -0.6057
-1.4485 2.6012 -0.6135
-1.4783 2.5771 -0.6142
-1.5118 2.5494 -0.6085
-1.5327 2.5330 -0.6144
-1.5673 2.5038 -0.6022
-1.5882 2.4870 -0.6040
-1.6265 2.4563 -0.6074
-1.6416 2.4446 -0.6126
-1.6664 2.4233 -0.6016
-1.6947 2.4010 -0.6076
-1.7275 2.3737 -0.6001
-1.7395 2.3642 -0.6023
-1.7493 2.3568 -0.6080
-1.7632 2.3451 -0.6039
-1.7759 2.3346 -0.6011
-1.7849 2.3276 -0.6052
-1.7943 2.3203 -0.6077
-1.8048 2.3116 -0.6064
-1.8146 2.3036 -0.6056
-1.8250 2.2948 -0.6019
-1.8356 2.2857 -0.5963
-1.8426 2.2803 -0.6000
-1.8499 2.2746 -0.6020
-1.8567 2.2694 -0.6051
-1.8630 2.2647 -0.6091
0.5770 4.1979 0.7684
0.5311 4.1667 0.6991
0.5615 4.1977 0.6515
0.5861 4.2308 0.5404
0.4811 4.1508 0.4578
0.4543 4.1352 0.3933
0.5032 4.1825 0.3407
0.4007 4.1040 0.2642
0.4479 4.1503 0.2076
0.4583 4.1661 0.1442
0.3560 4.0872 0.0725
0.3107 4.0560 0.0064
0.2837 4.0403 -0.0586
0.2399 4.0102 -0.1232
0.2821 4.0536 -0.1917
0.2899 4.0679 -0.2614
0.3165 4.0986 -0.3354
0.3248 4.1139 -0.4102
0.3339 4.1302 -0.4875
0.1949 4.0175 -0.5355
-0.2969 3.6083 -0.6097
-0.3923 3.5306 -0.6390
-1.0268 2.9890 -0.6107
-1.1733 2.8638 -0.6037
-1.2276 2.8179 -0.6051
-1.3142 2.7453 -0.6132
-1.3631 2.7033 -0.6079
-1.4404 2.6373 -0.6044
-1.4675 2.6148 -0.6094
-1.5028 2.5843 -0.6038
-1.5225 2.5685 -0.6124
-1.5598 2.5353 -0.5989
-1.5767 2.5219 -0.6072
-1.6037 2.4983 -0.6011
-1.6394 2.4687 -0.6073
-1.6580 2.4529 -0.6069
-1.7102 2.4079 -0.6011
-1.7226 2.3979 -0.6049
-1.7356 2.3869 -0.6062
-1.7623 2.3640 -0.6037
-1.7721 2.3561 -0.6079
-1.7863 2.3433 -0.6011
-1.7970 2.3342 -0.6010
-1.8053 2.3278 -0.6058
-1.8168 2.3175 -0.6011
-1.8271 2.3084 -0.5981
-1.8352 2.3018 -0.6003
-1.8439 2.2943 -0.5996
-1.8512 2.2884 -0.6022
-1.8580 2.2830 -0.6057
-1.8665 2.2754 -0.6025
0.5677 4.2829 0.7441
0.4832 4.2182 0.6620
0.4390 4.1877 0.5932
0.3943 4.1565 0.5252
0.3174 4.0976 0.4510
0.3598 4.1415 0.4024
0.3334 4.1261 0.3388
0.3772 4.1718 0.2852
0.3683 4.1719 0.2219
0.3409 4.1560 0.1558
0.3134 4.1400 0.0898
0.2860 4.1240 0.0237
0.2586 4.1080 -0.0424
0.2312 4.0920 -0.1084
0.2037 4.0760 -0.1745
0.2814 4.1545 -0.2492
0.2709 4.1542 -0.3205
0.2239 4.1210 -0.3876
0.1604 4.0725 -0.4506
0.1664 4.0875 -0.5260
0.2464 4.1708 -0.6223
-0.4114 3.5880 -0.6366
-0.7347 3.2988 -0.6219
-0.9371 3.1192 -0.6237
-1.1930 2.8889 -0.6016
-1.2461 2.8420 -0.6037
-1.2925 2.8011 -0.6068
-1.3347 2.7641 -0.6098
-1.4526 2.6589 -0.6072
-1.5185 2.5998 -0.6025
-1.5455 2.5758 -0.6026
-1.5666 2.5576 -0.6075
-1.6382 2.4931 -0.5999
-1.6675 2.4685 -0.6119
-1.7042 2.4352 -0.6061
-1.7172 2.4242 -0.6101
-1.7337 2.4089 -0.6059
-1.7470 2.3972 -0.6065
-1.7604 2.3851 -0.6053
-1.7717 2.3754 -0.6073
-1.7832 2.3652 -0.6077
-1.7961 2.3532 -0.6032
-1.8074 2.3429 -0.6011
-1.8267 2.3258 -0.6016
-1.8356 2.3179 -0.6021
-1.8451 2.3092 -0.5998
-1.8532 2.3021 -0.6005
-1.8614 2.2946 -0.5995
-1.8678 2.2896 -0.6043
-1.8750 2.2833 -0.6050
0.8132 4.5814 0.9224
0.5862 4.3897 0.7858
0.4424 4.2707 0.6833
0.3803 4.2236 0.6089
0.3190 4.1770 0.5364
0.3797 4.2397 0.4937
0.3177 4.1924 0.4215
0.3257 4.2082 0.3636
0.3168 4.2089 0.3014
0.2548 4.1613 0.2314
0.2799 4.1933 0.1721
0.2351 4.1613 0.1047
0.2423 4.1772 0.0407
0.2494 4.1934 -0.0253
0.2038 4.1606 -0.0926
0.2107 4.1770 -0.1613
0.1481 4.1282 -0.2268
0.1372 4.1280 -0.2957
0.1258 4.1275 -0.3657
0.1313 4.1434 -0.4398
0.0367 4.0632 -0.4950
0.0410 4.0781 -0.5700
-0.4111 3.6674 -0.6414
-0.9627 3.1505 -0.6194
-1.1228 3.0012 -0.6169
-1.2579 2.8739 -0.6073
-1.3510 2.7877 -0.6100
-1.4297 2.7144 -0.6109
-1.4987 2.6499 -0.6084
-1.5558 2.5966 -0.6077
-1.5810 2.5731 -0.6075
-1.6056 2.5500 -0.6058
-1.6466 2.5120 -0.6072
-1.6806 2.4810 -0.6118
-1.7159 2.4475 -0.6074
-1.7333 2.4306 -0.6027
-1.7438 2.4218 -0.6097
-1.7721 2.3948 -0.6048
-1.7952 2.3734 -0.6054
-1.8052 2.3643 -0.6074
-1.8167 2.3532 -0.6045
-1.8259 2.3449 -0.6063
-1.8352 2.3362 -0.6065
-1.8539 2.3183 -0.6028
-1.8772 2.2968 -0.6041
-1.8852 2.2889 -0.6010
0.3302 4.2585 0.6825
0.4296 4.3598 0.6561
0.2778 4.2279 0.5563
0.2688 4.2288 0.4973
0.3287 4.2946 0.4525
0.3555 4.3298 0.3969
0.3274 4.3134 0.3293
0.1953 4.1978 0.2473
0.2533 4.2635 0.1921
0.1747 4.1983 0.1209
0.1976 4.2310 0.0580
0.1871 4.2316 -0.0087
0.1093 4.1667 -0.0759
0.1478 4.2155 -0.1445
0.1537 4.2327 -0.2151
0.1657 4.2687 -0.3632
0.0553 4.1824 -0.4954
-0.1247 4.0238 -0.6001
-0.4914 3.6686 -0.6171
-0.7583 3.4094 -0.6262
-0.9703 3.2022 -0.6250
-1.0617 3.1123 -0.6207
-1.3758 2.8029 -0.6034
-1.5738 2.6096 -0.6039
-1.6139 2.5721 -0.6140
-1.6632 2.5221 -0.6027
-1.6780 2.5087 -0.6088
-1.6948 2.4924 -0.6101
-1.7296 2.4577 -0.6053
-1.7551 2.4338 -0.6115
-1.7848 2.4033 -0.6022
-1.7947 2.3943 -0.6065
-1.8072 2.3816 -0.6031
-1.8178 2.3712 -0.6031
-1.8285 2.3605 -0.6013
-1.8367 2.3531 -0.6054
-1.8466 2.3432 -0.6034
-1.8558 2.3340 -0.6020
-1.8634 2.3269 -0.6046
-1.8794 2.3112 -0.6038
-1.8871 2.3035 -0.6026
-1.8946 2.2959 -0.6009
0.3500 4.3799 0.6669
0.2697 4.3124 0.5860
0.2598 4.3132 0.5257
0.3028 4.3663 0.4769
0.2576 4.3330 0.4063
0.1787 4.2660 0.3306
0.2193 4.3176 0.2757
0.1581 4.2680 0.2046
0.1636 4.2851 0.1416
0.0870 4.2195 0.0715
0.0484 4.2040 -0.0596
0.0850 4.2540 -0.1278
0.0898 4.2719 -0.1981
0.0284 4.2210 -0.2640
0.0826 4.2910 -0.3433
-0.0437 4.1717 -0.3976
0.0579 4.2931 -0.4922
-0.0223 4.2219 -0.5519
-0.0515 4.2049 -0.6222
-0.3399 3.9067 -0.6078
-0.4427 3.8073 -0.6402
-0.6000 3.6468 -0.6434
-1.0069 3.2247 -0.6152
-1.1652 3.0622 -0.6132
-1.2151 3.0128 -0.6229
-1.2825 2.9424 -0.6155
-1.3849 2.8366 -0.6105
-1.4671 2.7516 -0.6066
-1.4972 2.7215 -0.6105
-1.5298 2.6878 -0.6090
-1.5908 2.6239 -0.6015
-1.6081 2.6079 -0.6107
-1.6315 2.5838 -0.6099
-1.6543 2.5600 -0.6075
-1.6726 2.5417 -0.6097
-1.6923 2.5211 -0.6076
-1.7266 2.4857 -0.6063
-1.7413 2.4709 -0.6074
-1.7581 2.4527 -0.6022
-1.7704 2.4407 -0.6050
-1.7819 2.4294 -0.6080
-1.8163 2.3943 -0.6089
-1.8285 2.3809 -0.6040
-1.8379 2.3716 -0.6056
-1.8480 2.3608 -0.6034
-1.8569 2.3518 -0.6038
-1.8743 2.3336 -0.6017
-1.8818 2.3260 -0.6028
-1.8895 2.3181 -0.6022
-1.8967 2.3107 -0.6024
-1.9029 2.3050 -0.6059
-1.9095 2.2984 -0.6065
0.1962 4.3706 0.4227
0.1686 4.3545 0.3561
0.1410 4.3384 0.2895
0.1295 4.3393 0.2251
0.1185 4.3407 0.1598
0.1070 4.3420 0.0934
0.1122 4.3612 0.0266
0.0182 4.2743 -0.0431
0.0062 4.2753 -0.1106
0.0260 4.3110 -0.1810
-0.0028 4.2942 -0.2502
-0.0315 4.2775 -0.3194
-0.0445 4.2782 -0.3913
0.0083 4.3528 -0.4780
-0.0871 4.2616 -0.5346
-0.5062 3.8286 -0.6222
-0.6235 3.7063 -0.6409
-0.9216 3.3812 -0.6197
-1.0572 3.2308 -0.5978
-1.1064 3.1818 -0.6168
-1.3545 2.9141 -0.6132
-1.4365 2.8267 -0.6171
-1.4809 2.7774 -0.6098
-1.5151 2.7405 -0.6092
-1.5412 2.7136 -0.6147
-1.5655 2.6885 -0.6199
-1.6260 2.6208 -0.6070
-1.6477 2.5975 -0.6078
-1.6694 2.5740 -0.6065
-1.6877 2.5546 -0.6082
-1.7091 2.5305 -0.6025
-1.7194 2.5218 -0.6145
-1.7351 2.5051 -0.6155
-1.7516 2.4868 -0.6128
-1.7832 2.4510 -0.6040
-1.7956 2.4378 -0.6043
-1.8087 2.4229 -0.6010
-1.8197 2.4112 -0.6016
-1.8283 2.4032 -0.6076
-1.8391 2.3913 -0.6059
-1.8486 2.3812 -0.6066
-1.8597 2.3679 -0.6002
-1.8668 2.3615 -0.6062
-1.8846 2.3414 -0.6011
-1.8917 2.3342 -0.6035
-1.8994 2.3255 -0.6019
-1.9062 2.3186 -0.6034
-1.9122 2.3128 -0.6070
-1.9191 2.3050 -0.6051
0.2008 4.4385 0.6334
0.1398 4.3868 0.5578
0.1128 4.3710 0.4927
0.0434 4.3229 0.3595
0.0636 4.3586 0.3032
0.1007 4.4135 0.2464
0.0724 4.3970 0.1783
0.0442 4.3805 0.1102
0.0159 4.3640 0.0420
-0.0280 4.3299 -0.0263
-0.0561 4.3135 -0.0939
-0.0379 4.3501 -0.1640
-0.0666 4.3333 -0.2332
-0.0799 4.3345 -0.3044
-0.1393 4.2820 -0.3691
-0.1071 4.3369 -0.4502
-0.1957 4.2670 -0.5834
-0.3710 4.0736 -0.6048
-0.6557 3.7585 -0.6351
-0.9232 3.4547 -0.6291
-1.1131 3.2390 -0.6251
-1.2587 3.0731 -0.6195
-1.3861 2.9250 -0.6021
-1.4560 2.8490 -0.6156
-1.5279 2.7674 -0.6141
-1.5874 2.6999 -0.6131
-1.6156 2.6672 -0.6099
-1.6324 2.6505 -0.6201
-1.6847 2.5880 -0.6054
-1.7034 2.5670 -0.6059
-1.7224 2.5450 -0.6036
-1.7544 2.5089 -0.6039
-1.7691 2.4923 -0.6037
-1.7818 2.4783 -0.6059
-1.7939 2.4652 -0.6083
-1.8075 2.4492 -0.6053
-1.8309 2.4222 -0.6030
-1.8420 2.4092 -0.6012
-1.8511 2.3994 -0.6036
-1.8603 2.3892 -0.6044
-1.8860 2.3605 -0.6055
-1.8937 2.3519 -0.6063
-1.9019 2.3419 -0.6030
-1.9092 2.3336 -0.6027
-1.9158 2.3265 -0.6043
-1.9224 2.3190 -0.6043
-1.9284 2.3126 -0.6063
0.0911 4.4219 0.6336
0.0798 4.4235 0.5738
0.0850 4.4439 0.5176
0.0576 4.4279 0.4515
0.0458 4.4297 0.3889
-0.0577 4.3270 0.3081
-0.0247 4.3800 0.2534
0.0096 4.4355 0.1951
-0.0187 4.4190 0.1269
0.0006 4.4584 0.0617
-0.0904 4.3681 -0.0097
-0.1334 4.3339 -0.0772
-0.1465 4.3354 -0.1449
-0.1153 4.3908 -0.2174
-0.1442 4.3740 -0.2872
-0.2026 4.3208 -0.3522
-0.2311 4.3042 -0.4209
-0.3812 4.1721 -0.6053
-0.5744 3.9430 -0.6083
-0.6899 3.8107 -0.6286
-0.9652 3.4804 -0.6179
-1.2813 3.1042 -0.6178
-1.3360 3.0394 -0.6189
-1.3876 2.9777 -0.6176
-1.4705 2.8796 -0.6197
-1.5463 2.7878 -0.6131
-1.5796 2.7471 -0.6091
-1.6027 2.7211 -0.6149
-1.6589 2.6515 -0.6042
-1.6791 2.6280 -0.6064
-1.6991 2.6043 -0.6064
-1.7144 2.5875 -0.6124
-1.7318 2.5670 -0.6130
-1.7517 2.5415 -0.6059
-1.7634 2.5295 -0.6136
-1.7943 2.4911 -0.6072
-1.8082 2.4739 -0.6045
-1.8202 2.4595 -0.6044
-1.8300 2.4491 -0.6090
-1.8421 2.4338 -0.6054
-1.8516 2.4231 -0.6077
-1.8629 2.4082 -0.6023
-1.8716 2.3984 -0.6043
-1.8798 2.3893 -0.6068
-1.8898 2.3757 -0.6001
-1.8968 2.3686 -0.6048
-1.9050 2.3582 -0.6022
-1.9125 2.3490 -0.6013
-1.9263 2.3323 -0.6003
-1.9322 2.3263 -0.6040
-1.9388 2.3177 -0.6011
0.1279 4.5699 0.6829
0.0832 4.5341 0.6100
-0.0221 4.4271 0.5204
-0.0342 4.4288 0.4597
-0.0460 4.4312 0.3982
-0.0282 4.4692 0.3417
-0.0560 4.4530 0.2747
-0.0839 4.4368 0.2076
-0.0966 4.4390 0.1421
-0.1247 4.4226 0.0745
-0.1081 4.4618 0.0085
-0.1519 4.4261 -0.0607
-0.1202 4.4857 -0.1316
-0.0863 4.5492 -0.2074
-0.1325 4.5112 -0.2789
-0.1937 4.4534 -0.3467
-0.2233 4.4361 -0.4182
-0.2674 4.3999 -0.4862
-0.2834 4.4232 -0.6424
-0.8396 3.7237 -0.6336
-1.0707 3.4317 -0.6255
-1.3130 3.1236 -0.6093
-1.3684 3.0539 -0.6088
-1.4093 3.0048 -0.6160
-1.5628 2.8120 -0.6148
-1.6546 2.6930 -0.6006
-1.6772 2.6646 -0.6005
-1.6911 2.6505 -0.6124
-1.7315 2.5989 -0.6085
-1.7505 2.5740 -0.6047
-1.7649 2.5568 -0.6079
-1.7789 2.5399 -0.6102
-1.7919 2.5245 -0.6132
-1.8058 2.5067 -0.6119
-1.8202 2.4872 -0.6069
-1.8323 2.4719 -0.6061
-1.8430 2.4587 -0.6073
-1.8544 2.4438 -0.6047
-1.8634 2.4335 -0.6082
-1.8724 2.4226 -0.6101
-1.8833 2.4071 -0.6032
-1.8913 2.3978 -0.6058
-1.8992 2.3881 -0.6068
-1.9081 2.3756 -0.6017
-1.9152 2.3673 -0.6038
-1.9222 2.3586 -0.6042
-1.9293 2.3494 -0.6030
-1.9357 2.3415 -0.6036
-1.9424 2.3325 -0.6013
-1.9479 2.3265 -0.6048
0.1497 4.7100 0.7302
0.0536 4.6114 0.6374
-0.0369 4.5186 0.5501
-0.0029 4.5784 0.5011
-0.0770 4.5050 0.4216
-0.1191 4.4706 0.3519
-0.1466 4.4546 0.2859
-0.1599 4.4566 0.2220
-0.0838 4.5738 0.1676
-0.1432 4.5177 0.0948
-0.2151 4.4445 0.0236
-0.2292 4.4465 -0.0439
-0.2006 4.5057 -0.1137
-0.2581 4.4507 -0.1821
-0.2869 4.4340 -0.2513
-0.2882 4.4547 -0.3247
-0.2599 4.5171 -0.4064
-0.3328 4.4399 -0.4687
-0.5641 4.1824 -0.6257
-0.7844 3.8848 -0.6048
-0.8805 3.7637 -0.6243
-1.2579 3.2635 -0.6200
-1.4720 2.9798 -0.6174
-1.5170 2.9184 -0.6111
-1.5539 2.8690 -0.6091
-1.5822 2.8329 -0.6135
-1.7015 2.6671 -0.5869
-1.7130 2.6564 -0.6019
-1.7281 2.6388 -0.6095
-1.7464 2.6145 -0.6090
-1.7772 2.5750 -0.6129
-1.8054 2.5380 -0.6141
-1.8189 2.5199 -0.6130
-1.8454 2.4824 -0.6051
-1.8567 2.4670 -0.6036
-1.8660 2.4557 -0.6069
-1.8761 2.4420 -0.6057
-1.8849 2.4311 -0.6078
-1.8934 2.4202 -0.6092
-1.9028 2.4064 -0.6047
-1.9106 2.3965 -0.6058
-1.9185 2.3855 -0.6042
-1.9260 2.3753 -0.6031
-1.9328 2.3664 -0.6036
-1.9456 2.3502 -0.6057
-0.0092 4.6499 0.6541
-0.0059 4.6741 0.5963
-0.0962 4.5775 0.5089
-0.1384 4.5426 0.4380
-0.1660 4.5265 0.3715
-0.1506 4.5675 0.3135
-0.1496 4.5903 0.2502
-0.1783 4.5736 0.1810
-0.2070 4.5568 0.1118
-0.1921 4.6002 0.0451
-0.2216 4.5830 -0.0258
-0.2794 4.5260 -0.0961
-0.2513 4.5899 -0.1694
-0.2052 4.7362 -0.4122
-0.3433 4.5611 -0.4645
-0.5581 4.3191 -0.6357
-1.4976 2.9997 -0.6120
-1.5715 2.8961 -0.6109
-1.6921 2.7101 -0.5582
-1.7085 2.6902 -0.5669
-1.7185 2.6823 -0.5851
-1.7453 2.6522 -0.6067
-1.7630 2.6274 -0.6064
-1.7772 2.6093 -0.6114
-1.7937 2.5852 -0.6085
-1.8076 2.5662 -0.6097
-1.8222 2.5448 -0.6066
-1.8471 2.5096 -0.6053
-1.8576 2.4957 -0.6076
-1.8691 2.4787 -0.6046
-1.8873 2.4552 -0.6101
-1.8972 2.4401 -0.6064
-1.9067 2.4253 -0.6018
-1.9142 2.4157 -0.6046
-1.9225 2.4031 -0.6016
-1.9301 2.3920 -0.6001
-1.9370 2.3828 -0.6012
-1.9431 2.3756 -0.6053
-1.9500 2.3649 -0.6020
-1.9558 2.3579 -0.6053
-1.9622 2.3474 -0.6008
-0.1458 4.5899 0.6432
-0.2007 4.5366 0.5681
-0.1581 4.6154 0.5254
-0.1569 4.6390 0.4665
-0.1852 4.6225 0.3984
-0.1994 4.6256 0.3333
-0.1989 4.6499 0.2699
-0.2421 4.6127 0.1981
-0.2134 4.6785 0.1350
-0.3266 4.5400 0.0578
-0.3549 4.5235 -0.0104
-0.2879 4.6481 -0.0796
-0.3178 4.6307 -0.1517
-0.3477 4.6132 -0.2238
-0.4472 4.5172 -0.3604
-0.3971 4.6243 -0.4498
-1.7198 2.6307 -0.3391
-1.5884 2.9269 -0.6145
-1.7111 2.7104 -0.5193
-1.7190 2.7069 -0.5412
-1.7098 2.7395 -0.5926
-1.7421 2.6978 -0.6086
-1.7601 2.6715 -0.6094
-1.7785 2.6433 -0.6067
-1.8086 2.5996 -0.6086
-1.8223 2.5797 -0.6094
-1.8356 2.5599 -0.6090
-1.8824 2.4885 -0.6028
-1.9000 2.4646 -0.6085
-1.9093 2.4499 -0.6059
-1.9174 2.4387 -0.6076
-1.9258 2.4251 -0.6045
-1.9338 2.4123 -0.6017
-1.9408 2.4022 -0.6025
-1.9478 2.3916 -0.6016
-1.9539 2.3836 -0.6047
-1.9604 2.3733 -0.6027
-1.9660 2.3668 -0.6072
-1.9720 2.3567 -0.6041
-0.1364 4.7020 0.7431
-0.1349 4.7269 0.6877
-0.1921 4.6695 0.6090
-0.2199 4.6533 0.5419
-0.2478 4.6371 0.4748
-0.2618 4.6409 0.4115
-0.2763 4.6445 0.3470
-0.3313 4.5884 0.2736
-0.3329 4.6115 0.2108
-0.3993 4.5373 0.1380
-0.3895 4.5785 0.0745
-0.3387 4.6843 0.0097
-0.3952 4.6250 -0.0618
-0.4113 4.6288 -0.1327
-0.4660 4.5711 -0.2013
-0.4309 4.6580 -0.2800
-1.7173 2.6299 -0.2386
-1.7209 2.6318 -0.2570
-1.7214 2.6395 -0.2780
-1.7245 2.6429 -0.2980
-1.7311 2.6396 -0.3154
-1.7390 2.6339 -0.3316
-1.5712 3.0135 -0.6194
-1.6058 2.9589 -0.6184
-1.7326 2.7166 -0.5104
-1.7268 2.7441 -0.5553
-1.7201 2.7749 -0.6054
-1.7350 2.7565 -0.6173
-1.7570 2.7202 -0.6126
-1.7769 2.6874 -0.6086
-1.7932 2.6624 -0.6097
-1.8114 2.6312 -0.6029
-1.8224 2.6179 -0.6125
-1.8503 2.5724 -0.6080
-1.8626 2.5527 -0.6068
-1.8837 2.5209 -0.6098
-1.8958 2.4984 -0.6009
-1.9048 2.4851 -0.6028
-1.9134 2.4721 -0.6040
-1.9216 2.4598 -0.6055
-1.9296 2.4478 -0.6063
-1.9380 2.4325 -0.6013
-1.9445 2.4247 -0.6070
-1.9582 2.4030 -0.6064
-1.9643 2.3949 -0.6097
-1.9706 2.3837 -0.6068
-1.9766 2.3740 -0.6056
-0.2257 4.6999 0.7472
-0.1974 4.7915 0.6474
-0.2261 4.7747 0.5782
-0.2961 4.6955 0.4957
-0.3375 4.6587 0.4243
-0.3778 4.6232 0.3541
-0.3674 4.6665 0.2957
-0.3698 4.6909 0.2321
-0.4725 4.5560 0.1528
-0.4273 4.6574 0.0937
-0.4435 4.6612 0.0252
-0.4343 4.7074 -0.0442
-0.5135 4.6072 -0.1139
-0.5654 4.5511 -0.1812
-0.6220 4.5181 -0.3174
-1.7272 2.6312 -0.1981
-1.7265 2.6413 -0.2179
-1.7292 2.6451 -0.2365
-1.7317 2.6497 -0.2559
-1.7365 2.6499 -0.2742
-1.7418 2.6492 -0.2924
-1.7456 2.6517 -0.3123
-1.7472 2.6592 -0.3350
-1.5997 3.0269 -0.6103
-1.7505 2.7306 -0.5070
-1.7479 2.7531 -0.5477
-1.7520 2.7784 -0.6194
-1.7887 2.7179 -0.6205
-1.8094 2.6788 -0.6098
-1.8243 2.6545 -0.6107
-1.8661 2.5821 -0.6038
-1.8764 2.5671 -0.6085
-1.8870 2.5501 -0.6099
-1.8982 2.5298 -0.6059
-1.9075 2.5154 -0.6081
-1.9176 2.4962 -0.6029
-1.9260 2.4829 -0.6043
-1.9344 2.4684 -0.6030
-1.9418 2.4575 -0.6060
-1.9498 2.4420 -0.6011
-1.9563 2.4335 -0.6060
-1.9630 2.4223 -0.6060
-1.9693 2.4126 -0.6077
-1.9756 2.4011 -0.6055
-1.9816 2.3904 -0.6038
-1.9872 2.3812 -0.6039
-1.9924 2.3739 -0.6071
-1.9976 2.3655 -0.6074
-0.2743 4.7828 0.7151
-0.2613 4.8306 0.6645
-0.2900 4.8138 0.5952
-0.3324 4.7753 0.5213
-0.3475 4.7803 0.4568
-0.3762 4.7636 0.3876
-0.4179 4.7254 0.3154
-0.4337 4.7301 0.2492
-0.4243 4.7776 0.1858
-1.7347 2.6361 -0.1605
-1.7348 2.6449 -0.1787
-1.7387 2.6464 -0.1958
-1.7423 2.6487 -0.2134
-1.7456 2.6517 -0.2317
-1.7430 2.6678 -0.2548
-1.7468 2.6706 -0.2742
-1.7512 2.6724 -0.2937
-1.6077 3.0672 -0.5826
-1.6227 3.0533 -0.6087
-1.7621 2.7615 -0.5150
-1.7691 2.7612 -0.5396
-1.7734 2.7895 -0.6126
-1.8126 2.7158 -0.6033
-1.8420 2.6653 -0.6060
-1.8548 2.6440 -0.6087
-1.8676 2.6215 -0.6088
-1.8821 2.5911 -0.5988
-1.8901 2.5832 -0.6118
-1.9020 2.5593 -0.6059
-1.9125 2.5394 -0.6029
-1.9208 2.5276 -0.6088
-1.9299 2.5110 -0.6076
-1.9463 2.4820 -0.6074
-1.9541 2.4674 -0.6056
-1.9610 2.4564 -0.6081
-1.9679 2.4436 -0.6069
-1.9749 2.4289 -0.6018
-1.9807 2.4211 -0.6069
-1.9866 2.4107 -0.6070
-1.9927 2.3952 -0.5974
-1.9979 2.3884 -0.6022
-2.0030 2.3810 -0.6054
-0.3366 4.8210 0.7318
-0.3517 4.8260 0.6699
-0.4299 4.7266 0.5816
-0.3957 4.8141 0.5382
-0.3855 4.8634 0.4824
-0.4648 4.7600 0.3974
-1.7292 2.6400 -0.0786
-1.7320 2.6429 -0.0939
-1.7340 2.6477 -0.1096
-1.7384 2.6477 -0.1253
-1.7416 2.6504 -0.1415
-1.7476 2.6476 -0.1572
-1.7412 2.6710 -0.1783
-1.7475 2.6680 -0.1948
-1.7490 2.6757 -0.2141
-1.7519 2.6805 -0.2334
-1.7562 2.6826 -0.2523
-1.7599 2.6864 -0.2722
-1.4670 3.4236 -0.6189
-1.5060 3.3575 -0.6325
-1.6488 3.0734 -0.6032
-1.7845 2.7653 -0.5044
-1.7852 2.7839 -0.5416
-1.7728 2.8449 -0.6116
-1.7914 2.8111 -0.6138
-1.8246 2.7511 -0.6182
-1.8420 2.7153 -0.6125
-1.8594 2.6770 -0.6020
-1.8705 2.6600 -0.6093
-1.8825 2.6386 -0.6112
-1.9055 2.5943 -0.6093
-1.9160 2.5737 -0.6077
-1.9269 2.5490 -0.5999
-1.9351 2.5364 -0.6050
-1.9435 2.5209 -0.6057
-1.9518 2.5043 -0.6038
-1.9588 2.4943 -0.6097
-1.9664 2.4780 -0.6062
-1.9734 2.4648 -0.6058
-1.9799 2.4531 -0.6068
-1.9862 2.4409 -0.6062
-1.9922 2.4295 -0.6060
-1.9978 2.4197 -0.6074
-2.0034 2.4073 -0.6037
-2.0085 2.3990 -0.6063
-2.0136 2.3875 -0.6026
-2.0183 2.3815 -0.6080
-0.5843 4.6307 0.5058
-0.5231 4.7725 0.4738
-1.7362 2.6529 -0.0602
-1.7410 2.6522 -0.0751
-1.7458 2.6610 -0.1062
-1.7491 2.6639 -0.1223
-1.7491 2.6741 -0.1398
-1.7495 2.6842 -0.1580
-1.7546 2.6839 -0.1750
-1.7640 2.6860 -0.2103
-1.7690 2.6865 -0.2282
-1.7749 2.6851 -0.2459
-1.7784 2.6899 -0.2658
-1.6744 3.0673 -0.5511
-1.6678 3.1150 -0.6092
-1.8043 2.7754 -0.4982
-1.7903 2.8732 -0.6163
-1.8097 2.8338 -0.6155
-1.8278 2.7966 -0.6139
-1.8607 2.7268 -0.6075
-1.8754 2.6949 -0.6037
-1.8851 2.6831 -0.6164
-1.8985 2.6528 -0.6105
-1.9098 2.6297 -0.6100
-1.9200 2.6101 -0.6115
-1.9400 2.5670 -0.6064
-1.9485 2.5503 -0.6074
-1.9572 2.5309 -0.6039
-1.9646 2.5177 -0.6068
-1.9722 2.5010 -0.6042
-1.9791 2.4873 -0.6047
-1.9856 2.4761 -0.6075
-1.9922 2.4592 -0.6015
-1.9982 2.4475 -0.6019
-2.0038 2.4367 -0.6028
-2.0092 2.4267 -0.6043
-2.0145 2.4154 -0.6030
-2.0195 2.4077 -0.6069
-2.0243 2.3981 -0.6069
-2.0288 2.3872 -0.6040
-1.7536 2.6734 -0.0871
-1.7570 2.6764 -0.1030
-1.7584 2.6841 -0.1196
-1.7622 2.6869 -0.1363
-1.7743 2.6820 -0.1689
-1.7784 2.6846 -0.1863
-1.7833 2.6853 -0.2037
-1.7884 2.6859 -0.2214
-1.8113 2.8918 -0.6138
-1.8470 2.8141 -0.6122
-1.8614 2.7857 -0.6162
-1.8778 2.7455 -0.6086
-1.8896 2.7244 -0.6151
-1.9017 2.6996 -0.6168
-1.9250 2.6469 -0.6127
-1.9359 2.6198 -0.6073
-1.9451 2.6009 -0.6088
-1.9631 2.5584 -0.6026
-1.9705 2.5455 -0.6074
-1.9782 2.5268 -0.6041
-1.9851 2.5128 -0.6055
-1.9920 2.4952 -0.6013
-1.9983 2.4823 -0.6021
-2.0043 2.4696 -0.6024
-2.0101 2.4548 -0.5987
-2.0155 2.4438 -0.5997
-2.0207 2.4379 -0.6079
-2.0256 2.4230 -0.6012
-2.0304 2.4151 -0.6052
-2.0350 2.4047 -0.6041
-2.0396 2.3991 -0.6109
-1.7606 2.6766 -0.0528
-1.7643 2.6789 -0.0679
-1.7725 2.6823 -0.0989
-1.7766 2.6843 -0.1149
-1.7938 2.6787 -0.1628
-1.7958 2.6872 -0.1810
-1.4783 3.7478 -0.6372
-1.8406 2.8076 -0.4931
-1.8506 2.8684 -0.6101
-1.8656 2.8367 -0.6142
-1.8796 2.8071 -0.6180
-1.8946 2.7687 -0.6130
-1.9190 2.7138 -0.6150
-1.9410 2.6610 -0.6121
-1.9500 2.6439 -0.6174
-1.9604 2.6119 -0.6063
-1.9770 2.5727 -0.6049
-1.9848 2.5519 -0.6009
-1.9916 2.5398 -0.6060
-1.9984 2.5217 -0.6029
-2.0048 2.5077 -0.6037
-2.0108 2.4945 -0.6048
-2.0166 2.4793 -0.6022
-2.0220 2.4687 -0.6050
-2.0272 2.4546 -0.6020
-2.0322 2.4443 -0.6037
-2.0368 2.4298 -0.5982
-2.0416 2.4240 -0.6057
-2.0459 2.4134 -0.6047
-1.7765 2.6801 -0.0492
-1.7807 2.6815 -0.0641
-1.7877 2.6759 -0.0791
-1.7957 2.6804 -0.1100
-1.7996 2.6835 -0.1261
-1.8053 2.6817 -0.1418
-1.8084 2.6876 -0.1589
-1.7673 2.8644 -0.2530
-1.5208 3.7738 -0.6259
-1.5751 3.6392 -0.6268
-1.6185 3.5356 -0.6325
-1.8535 2.9332 -0.6108
-1.8724 2.8799 -0.6031
-1.8843 2.8614 -0.6172
-1.8989 2.8245 -0.6165
-1.9126 2.7889 -0.6145
-1.9250 2.7579 -0.6142
-1.9370 2.7248 -0.6102
-1.9575 2.6729 -0.6092
-1.9665 2.6523 -0.6115
-1.9755 2.6271 -0.6079
-1.9836 2.6070 -0.6080
-1.9985 2.5691 -0.6070
-2.0053 2.5521 -0.6069
-2.0178 2.5210 -0.6070
-2.0235 2.5054 -0.6054
-2.0290 2.4907 -0.6040
-2.0393 2.4670 -0.6064
-2.0482 2.4395 -0.5997
-2.0567 2.4200 -0.6018
-2.0609 2.4122 -0.6052
-1.7868 2.6730 -0.0173
-1.7884 2.6808 -0.0311
-1.7964 2.6849 -0.0604
-1.8041 2.6773 -0.0752
-1.8085 2.6787 -0.0902
-1.8088 2.6920 -0.1065
-1.8152 2.6883 -0.1218
-1.8193 2.6915 -0.1381
-1.8226 2.6975 -0.1552
-1.8252 2.7063 -0.1733
-1.6352 3.5819 -0.5875
-1.6818 3.4513 -0.5817
-1.8640 2.8707 -0.4800
-1.8735 2.8636 -0.5010
-1.8725 2.9700 -0.6193
-1.8913 2.9106 -0.6090
-1.9055 2.8744 -0.6116
-1.9172 2.8525 -0.6225
-1.9317 2.8043 -0.6120
-1.9429 2.7770 -0.6154
-1.9539 2.7459 -0.6139
-1.9645 2.7135 -0.6094
-1.9734 2.6948 -0.6154
-1.9823 2.6705 -0.6150
-1.9906 2.6465 -0.6134
-1.9986 2.6196 -0.6073
-2.0058 2.6051 -0.6127
-2.0127 2.5811 -0.6067
-2.0192 2.5654 -0.6086
-2.0253 2.5475 -0.6070
-2.0311 2.5322 -0.6073
-2.0364 2.5148 -0.6039
-2.0418 2.5045 -0.6088
-2.0514 2.4774 -0.6074
-2.0558 2.4637 -0.6052
-2.0602 2.4531 -0.6067
-2.0640 2.4398 -0.6032
-2.0682 2.4310 -0.6060
-2.0720 2.4216 -0.6071
-1.7977 2.6751 -0.0004
-1.8016 2.6769 -0.0141
-1.8188 2.6826 -0.0715
-1.8186 2.6983 -0.0871
-1.8265 2.6896 -0.1019
-1.8293 2.6970 -0.1181
-1.8348 2.6963 -0.1338
-1.8415 2.6915 -0.1491
-1.8457 2.6957 -0.1658
-1.8235 2.8759 -0.2838
-1.6909 3.4664 -0.4908
-1.7073 3.4519 -0.5254
-1.7261 3.4261 -0.5554
-1.7422 3.4118 -0.5891
-1.8738 2.8968 -0.4565
-1.8833 2.8896 -0.4779
-1.8928 2.8824 -0.4991
-1.8987 2.8995 -0.5345
-1.9010 2.9468 -0.5898
-1.9135 2.9223 -0.6020
-1.9252 2.9006 -0.6150
-1.9381 2.8634 -0.6157
-1.9512 2.8162 -0.6067
-1.9619 2.7869 -0.6089
-1.9716 2.7648 -0.6154
-1.9813 2.7361 -0.6149
-1.9987 2.6840 -0.6137
-2.0139 2.6364 -0.6107
-2.0207 2.6109 -0.6052
-2.0271 2.5891 -0.6020
-2.0332 2.5740 -0.6049
-2.0391 2.5607 -0.6089
-2.0497 2.5290 -0.6084
-2.0545 2.5130 -0.6064
-2.0588 2.4957 -0.6015
-2.0635 2.4847 -0.6042
-2.0714 2.4586 -0.6015
-2.0755 2.4489 -0.6036
-2.0800 2.4429 -0.6111
-1.7569 2.6770 0.1672
-1.7618 2.6750 0.1546
-1.8087 2.6757 0.0158
-1.8118 2.6799 0.0027
-1.8292 2.7013 -0.0680
-1.8132 2.7719 -0.0858
-1.8199 2.7689 -0.1027
-1.8518 2.6949 -0.1288
-1.8594 2.6862 -0.1433
-1.7270 3.4754 -0.4783
-1.7488 3.4329 -0.5034
-1.7614 3.4349 -0.5425
-1.7771 3.4215 -0.5762
-1.8008 3.3600 -0.5896
-1.8924 2.9225 -0.4573
-1.9055 2.8901 -0.4663
-1.9131 2.8968 -0.4946
-1.9218 2.8960 -0.5195
-1.9293 2.9069 -0.5517
-1.9350 2.9402 -0.5990
-1.9582 2.8841 -0.6158
-1.9692 2.8530 -0.6196
-1.9803 2.8090 -0.6120
-1.9897 2.7857 -0.6181
-1.9989 2.7513 -0.6138
-2.0152 2.7044 -0.6186
-2.0226 2.6737 -0.6121
-2.0295 2.6526 -0.6131
-2.0359 2.6293 -0.6106
-2.0420 2.6095 -0.6104
-2.0475 2.5859 -0.6047
-2.0530 2.5708 -0.6071
-2.0584 2.5582 -0.6116
-2.0631 2.5402 -0.6088
-2.0721 2.5111 -0.6085
-2.0761 2.4968 -0.6073
-2.0795 2.4803 -0.6022
-2.0873 2.4588 -0.6052
-2.0907 2.4475 -0.6047
-2.0946 2.4400 -0.6096
-1.7693 2.6832 0.1699
-1.7742 2.6812 0.1574
-1.7796 2.6780 0.1444
-1.8160 2.6727 0.0439
-1.8179 2.6804 0.0321
-1.8225 2.6803 0.0188
-1.8272 2.6802 0.0054
-1.8282 2.6919 -0.0072
-1.8305 2.7003 -0.0207
-1.8350 2.7021 -0.0349
-1.8210 2.8096 -0.0826
-1.8356 2.7773 -0.0985
-1.8681 2.6942 -0.1241
-1.8748 2.6885 -0.1388
-1.8784 2.6961 -0.1554
-1.8816 2.7065 -0.1732
-1.7785 3.4695 -0.5000
-1.7960 3.4443 -0.5300
-1.8292 3.4003 -0.5898
-1.9269 2.8921 -0.4558
-1.9361 2.8850 -0.4764
-1.9450 2.8798 -0.4980
-1.9538 2.8764 -0.5207
-1.9682 2.9270 -0.6035
-1.9791 2.8951 -0.6090
-1.9896 2.8591 -0.6098
-1.9993 2.8297 -0.6135
-2.0083 2.7989 -0.6145
-2.0168 2.7711 -0.6162
-2.0320 2.7095 -0.6095
-2.0450 2.6588 -0.6057
-2.0512 2.6402 -0.6083
-2.0563 2.6135 -0.6013
-2.0622 2.6013 -0.6081
-2.0676 2.5867 -0.6117
-2.0767 2.5515 -0.6092
-2.0848 2.5203 -0.6072
-2.0883 2.5042 -0.6041
-2.0916 2.4891 -0.6012
-2.0958 2.4805 -0.6063
-2.0997 2.4712 -0.6100
-2.1022 2.4566 -0.6052
-2.1052 2.4452 -0.6044
-1.7841 2.6834 0.1704
-1.7907 2.6768 0.1563
-1.7947 2.6772 0.1448
-1.8000 2.6741 0.1319
-1.8050 2.6722 0.1195
-1.8107 2.6679 0.1063
-1.8156 2.6660 0.0938
-1.8198 2.6662 0.0817
-1.8218 2.6733 0.0711
-1.8258 2.6746 0.0588
-1.8284 2.6803 0.0472
-1.8326 2.6815 0.0344
-1.8346 2.6903 0.0225
-1.8387 2.6924 0.0093
-1.8382 2.7109 -0.0027
-1.8403 2.7215 -0.0162
-1.8332 2.7664 -0.0288
-1.8319 2.8407 -0.0788
-1.8479 2.8005 -0.0950
-1.8706 2.7283 -0.1071
-1.8826 2.6995 -0.1201
-1.8896 2.6918 -0.1345
-1.8953 2.6903 -0.1496
-1.8989 2.7000 -0.1667
-1.8929 2.8387 -0.2502
-1.8278 3.4702 -0.5233
-1.9473 2.8986 -0.4477
-1.9576 2.8754 -0.4600
-1.9671 2.8590 -0.4749
-1.9767 2.8361 -0.4855
-1.9857 2.8173 -0.4973
-1.9942 2.8032 -0.5113
-2.0097 2.8659 -0.6006
-2.0187 2.8471 -0.6123
-2.0348 2.7777 -0.6078
-2.0422 2.7535 -0.6112
-2.0489 2.7242 -0.6088
-2.0586 2.6405 -0.5756
-2.0634 2.6150 -0.5707
-2.0692 2.6052 -0.5801
-2.0861 2.5790 -0.6091
-2.0900 2.5604 -0.6066
-2.0941 2.5454 -0.6071
-2.0965 2.5231 -0.5978
-2.1006 2.5125 -0.6019
-2.1051 2.5045 -0.6087
-2.1084 2.4917 -0.6087
-2.1106 2.4758 -0.6036
-2.1141 2.4665 -0.6068
-2.1179 2.4589 -0.6120
-1.7985 2.6835 0.1708
-1.8055 2.6757 0.1564
-1.8111 2.6715 0.1434
-1.8151 2.6720 0.1320
-1.8196 2.6713 0.1201
-1.8256 2.6659 0.1068
-1.8297 2.6663 0.0951
-1.8321 2.6724 0.0846
-1.8346 2.6784 0.0738
-1.8390 2.6786 0.0614
-1.8428 2.6811 0.0492
-1.8429 2.6970 0.0390
-1.8455 2.7048 0.0268
-1.8419 2.7359 0.0169
-1.8382 2.7699 0.0057
-1.8449 2.7650 -0.0100
-1.8479 2.7754 -0.0249
-1.8499 2.8163 -0.0566
-1.8678 2.7910 -0.0900
-1.8860 2.7317 -0.1029
-1.8969 2.7048 -0.1162
-1.9046 2.6928 -0.1300
-1.9107 2.6892 -0.1446
-1.9162 2.6888 -0.1597
-1.9098 2.8535 -0.2465
-1.9757 2.9133 -0.4677
-1.9848 2.9061 -0.4884
-1.9936 2.9047 -0.5121
-2.0673 2.6597 -0.5610
-2.0731 2.6469 -0.5692
-2.0767 2.6149 -0.5586
-2.0819 2.6025 -0.5653
-2.0900 2.6128 -0.5943
-2.0961 2.6073 -0.6078
-2.1007 2.5925 -0.6110
-2.1037 2.5711 -0.6059
-2.1079 2.5584 -0.6096
-2.1113 2.5424 -0.6086
-2.1137 2.5241 -0.6038
-2.1201 2.4989 -0.6055
-2.1237 2.4893 -0.6094
-2.1256 2.4742 -0.6050
-1.8131 2.6823 0.1707
-1.8282 2.6619 0.1407
-1.8302 2.6685 0.1316
-1.8335 2.6714 0.1211
-1.8376 2.6718 0.1095
-1.8414 2.6735 0.0982
-1.8419 2.6867 0.0895
-1.8450 2.6916 0.0783
-1.8486 2.6953 0.0665
-1.8483 2.7138 0.0572
-1.8337 2.7878 0.0561
-1.8405 2.7829 0.0403
-1.8450 2.7870 0.0257
-1.8537 2.7742 0.0091
-1.8593 2.7738 -0.0062
-1.8661 2.7689 -0.0218
-1.8725 2.7652 -0.0374
-1.8797 2.7870 -0.0690
-1.8965 2.7608 -0.1004
-1.9195 2.6925 -0.1255
-1.9248 2.6933 -0.1404
-1.9308 2.6898 -0.1549
-1.9353 2.6977 -0.1715
-1.9300 2.7846 -0.2052
-1.9341 2.8699 -0.2635
-1.9954 2.9363 -0.4676
-2.0045 2.9329 -0.4905
-2.0136 2.9295 -0.5136
-2.0332 2.9932 -0.6022
-2.0426 2.9675 -0.6138
-2.0504 2.9129 -0.6049
-2.0680 2.6676 -0.5172
-2.0803 2.6508 -0.5415
-2.0863 2.6425 -0.5533
-2.0919 2.6325 -0.5631
-2.0982 2.6278 -0.5777
-2.1073 2.6408 -0.6098
-2.1110 2.6204 -0.6086
-2.1153 2.6053 -0.6120
-2.1214 2.5681 -0.6080
-2.1277 2.5384 -0.6087
-2.1332 2.5111 -0.6089
-2.1378 2.4843 -0.6065
-2.1411 2.4757 -0.6107
-1.8343 2.6857 0.1496
-1.8395 2.6827 0.1371
-1.8437 2.6832 0.1256
-1.8435 2.6992 0.1185
-1.8416 2.7399 0.1043
-1.8474 2.7365 0.0902
-1.8489 2.7931 0.0593
-1.8543 2.7940 0.0445
-1.8608 2.7902 0.0289
-1.8690 2.7785 0.0125
-1.8772 2.7657 -0.0037
-1.8847 2.7564 -0.0193
-1.8907 2.7539 -0.0343
-1.8968 2.7513 -0.0494
-1.9021 2.7532 -0.0646
-1.9121 2.7632 -0.0961
-1.9237 2.7247 -0.1091
-1.9334 2.6963 -0.1215
-1.9398 2.6886 -0.1352
-1.9455 2.6873 -0.1497
-1.9502 2.6944 -0.1658
-1.9518 2.8818 -0.2590
-1.9581 2.9010 -0.2849
-1.9248 3.5478 -0.5024
-1.9507 3.6200 -0.6061
-1.9685 3.5521 -0.6218
-1.9873 3.3884 -0.5948
-2.0012 3.3615 -0.6192
-2.0248 2.9473 -0.4861
-2.0339 2.9400 -0.5071
-2.0446 2.9854 -0.5572
-2.0563 3.0301 -0.6099
-2.0655 3.0039 -0.6221
-2.0724 2.9493 -0.6148
-2.0797 2.9153 -0.6184
-2.0865 2.8816 -0.6205
-2.1052 2.7369 -0.6021
-2.1113 2.7235 -0.6120
-2.1142 2.6920 -0.6051
-2.1235 2.6579 -0.6137
-2.1263 2.6344 -0.6101
-2.1362 2.5831 -0.6123
-2.1389 2.5666 -0.6118
-2.1410 2.5495 -0.6095
-2.1434 2.5343 -0.6085
-2.1469 2.5243 -0.6132
-2.1487 2.5094 -0.6109
-2.1507 2.4963 -0.6102
-2.1533 2.4858 -0.6123
-1.8375 2.7221 0.1630
-1.8464 2.7068 0.1458
-1.8385 2.7715 0.1407
-1.8429 2.7740 0.1280
-1.8492 2.7693 0.1131
-1.8524 2.7776 0.1014
-1.8580 2.7764 0.0872
-1.8618 2.7834 0.0744
-1.8726 2.7842 0.0456
-1.8803 2.7736 0.0295
-1.8889 2.7574 0.0130
-1.8949 2.7549 -0.0016
-1.9012 2.7502 -0.0165
-1.9068 2.7500 -0.0311
-1.9131 2.7453 -0.0460
-1.9184 2.7473 -0.0608
-1.9223 2.7603 -0.0762
-1.9273 2.7666 -0.0920
-1.9372 2.7353 -0.1056
-1.9469 2.7011 -0.1176
-1.9531 2.6955 -0.1316
-1.9587 2.6943 -0.1461
-1.9645 2.6919 -0.1605
-1.9709 2.8706 -0.2489
-1.9712 3.6103 -0.5457
-1.9851 3.6766 -0.6089
-2.0018 3.6179 -0.6295
-2.0175 3.4814 -0.6164
-2.0316 3.4456 -0.6393
-2.0536 2.9375 -0.4941
-2.0634 2.9471 -0.5237
-2.0807 3.0695 -0.6184
-2.0883 3.0253 -0.6209
-2.0941 2.9700 -0.6141
-2.0999 2.9258 -0.6117
-2.1061 2.8937 -0.6153
-2.1109 2.8552 -0.6126
-2.1217 2.8030 -0.6203
-2.1282 2.7371 -0.6108
-2.1349 2.6874 -0.6086
-2.1374 2.6624 -0.6054
-2.1407 2.6432 -0.6063
-2.1452 2.6314 -0.6137
-2.1481 2.6134 -0.6140
-2.1506 2.5956 -0.6136
-2.1516 2.5737 -0.6073
-2.1549 2.5616 -0.6112
-2.1580 2.5496 -0.6146
-2.1589 2.5317 -0.6100
-2.1607 2.5174 -0.6089
-2.1664 2.4978 -0.6161
-1.8316 2.7987 0.1905
-1.8395 2.7878 0.1735
-1.8467 2.7794 0.1575
-1.8506 2.7845 0.1457
-1.8574 2.7774 0.1302
-1.8637 2.7727 0.1155
-1.8707 2.7644 0.1000
-1.8756 2.7657 0.0867
-1.8809 2.7658 0.0730
-1.8865 2.7646 0.0589
-1.8934 2.7564 0.0437
-1.8993 2.7529 0.0293
-1.9043 2.7552 0.0155
-1.9100 2.7540 0.0012
-1.9148 2.7586 -0.0129
-1.9206 2.7573 -0.0275
-1.9271 2.7514 -0.0424
-1.9328 2.7512 -0.0572
-1.9378 2.7578 -0.0722
-1.9443 2.7519 -0.0872
-1.9491 2.7616 -0.1031
-1.9601 2.7081 -0.1140
-1.9669 2.6947 -0.1271
-1.9722 2.6979 -0.1420
-1.9780 2.6945 -0.1561
-1.9833 2.7008 -0.1720
-2.0502 3.5361 -0.6215
-2.0619 3.4330 -0.6178
-2.1115 3.0470 -0.6195
-2.1215 2.9490 -0.6132
-2.1324 2.8851 -0.6204
-2.1389 2.8101 -0.6126
-2.1447 2.7481 -0.6073
-2.1505 2.7363 -0.6186
-2.1526 2.7079 -0.6145
-2.1547 2.6826 -0.6117
-2.1579 2.6640 -0.6139
-2.1603 2.6437 -0.6135
-2.1616 2.6210 -0.6094
-2.1643 2.6048 -0.6109
-2.1666 2.5887 -0.6117
-2.1690 2.5528 -0.6061
-2.1710 2.5391 -0.6068
-2.1743 2.5298 -0.6122
-2.1746 2.5129 -0.6074
-2.1778 2.5047 -0.6131
-1.8536 2.7922 0.1758
-1.8669 2.7791 0.1453
-1.8723 2.7782 0.1317
-1.8782 2.7747 0.1175
-1.8841 2.7712 0.1032
-1.8907 2.7642 0.0881
-1.8962 2.7631 0.0744
-1.9019 2.7609 0.0604
-1.9069 2.7634 0.0471
-1.9128 2.7599 0.0327
-1.9181 2.7611 0.0188
-1.9235 2.7623 0.0048
-1.9289 2.7634 -0.0095
-1.9350 2.7599 -0.0242
-1.9411 2.7563 -0.0389
-1.9469 2.7562 -0.0536
-1.9530 2.7526 -0.0683
-1.9596 2.7434 -0.0829
-1.9654 2.7432 -0.0977
-1.9740 2.7049 -0.1096
-1.9802 2.6948 -0.1229
-1.9857 2.6970 -0.1374
-1.9914 2.6936 -0.1513
-1.9971 2.6925 -0.1656
