ply
format ascii 1.0
element vertex 2102
property float x
property float y
property float z
end_header
-3.8924 1.5133 -0.5849
-3.8877 1.4922 -0.5870
-3.8818 1.4700 -0.5864
-3.8786 1.4525 -0.5899
-3.8732 1.4325 -0.5891
-3.8701 1.4163 -0.5919
-3.8622 1.3944 -0.5856
-3.8566 1.3763 -0.5829
-3.8550 1.3638 -0.5873
-3.8500 1.3476 -0.5850
-3.8433 1.3299 -0.5788
-3.8444 1.3219 -0.5877
-3.8400 1.3079 -0.5855
-3.8371 1.2960 -0.5858
-3.8324 1.2825 -0.5822
-3.8320 1.2740 -0.5873
-4.3698 6.4864 2.0330
-4.4073 6.5110 1.9490
-4.4345 6.4647 1.8383
-4.8863 5.7849 0.0678
-4.8162 5.3946 -0.0437
-4.8266 5.2993 -0.1464
-4.8221 5.1580 -0.2442
-4.9780 5.5382 -0.3764
-4.9350 5.2727 -0.4651
-4.9275 5.1273 -0.5576
-4.5338 3.6166 -0.6528
-4.3833 3.1481 -0.6042
-4.3370 2.9706 -0.6153
-4.2169 2.5737 -0.5944
-4.1412 2.3164 -0.5870
-4.1047 2.1996 -0.5777
-4.1024 2.1625 -0.6002
-4.0528 2.0268 -0.5698
-4.0504 1.9945 -0.5883
-4.0122 1.8681 -0.5819
-3.9848 1.7723 -0.5813
-3.9848 1.7518 -0.5970
-3.9526 1.6578 -0.5818
-3.9386 1.6010 -0.5875
-3.9308 1.5730 -0.5881
-3.9218 1.5441 -0.5859
-3.9164 1.5216 -0.5885
-3.9137 1.5040 -0.5949
-3.9018 1.4737 -0.5857
-3.8976 1.4554 -0.5885
-3.8907 1.4340 -0.5862
-3.8877 1.4185 -0.5900
-3.8787 1.3959 -0.5829
-3.8786 1.3850 -0.5910
-3.8702 1.3645 -0.5839
-3.8670 1.3509 -0.5857
-3.8626 1.3363 -0.5850
-3.8597 1.3239 -0.5867
-3.8543 1.3092 -0.5834
-3.8528 1.2991 -0.5873
-3.8495 1.2873 -0.5873
-4.8056 5.7765 0.6219
-4.8165 5.6747 0.5086
-4.8117 5.5197 0.3928
-4.8622 5.4336 0.1872
-4.8515 5.1501 -0.0192
-4.8467 5.0181 -0.1155
-4.8850 5.0230 -0.2135
-5.0596 5.4300 -0.3415
-5.0491 5.2782 -0.4394
-5.0048 5.0372 -0.5210
-4.8769 4.5783 -0.5602
-4.5908 3.6486 -0.5681
-4.6075 3.6202 -0.6362
-4.4303 3.0608 -0.6277
-4.3034 2.6671 -0.6158
-4.2374 2.4780 -0.5963
-4.1404 2.1686 -0.5943
-4.0518 1.8906 -0.5887
-4.0275 1.8243 -0.5789
-4.0180 1.7867 -0.5847
-4.0053 1.7449 -0.5853
-3.9964 1.7111 -0.5896
-3.9876 1.6787 -0.5930
-3.9794 1.6486 -0.5963
-3.9432 1.5473 -0.5837
-3.9383 1.5262 -0.5880
-3.9252 1.4818 -0.5899
-3.9212 1.4641 -0.5940
-3.9083 1.4355 -0.5832
-3.9014 1.4047 -0.5905
-3.8927 1.3838 -0.5845
-3.8877 1.3679 -0.5843
-3.8825 1.3523 -0.5834
-3.8794 1.3395 -0.5858
-3.8705 1.3123 -0.5847
-3.8670 1.3003 -0.5853
-3.8640 1.2891 -0.5865
-3.8609 1.2782 -0.5873
-4.9733 5.9666 0.6743
-4.8328 5.2238 0.3877
-4.8856 5.2783 0.2992
-4.7487 4.7292 0.1727
-4.8332 4.8874 0.0927
-4.8691 4.8900 0.0022
-5.0318 5.2591 -0.0954
-5.0060 5.0730 -0.1915
-5.1182 5.2747 -0.3050
-5.2237 5.4458 -0.4280
-5.1692 5.1877 -0.5131
-5.0853 4.8656 -0.5780
-4.6555 3.5633 -0.6061
-4.6151 3.4054 -0.6398
-4.4896 3.0636 -0.6143
-4.3691 2.7048 -0.6168
-4.3391 2.5998 -0.6311
-4.2525 2.3848 -0.5953
-4.2322 2.3102 -0.6081
-4.1814 2.1801 -0.5908
-4.1299 2.0279 -0.5906
-4.0777 1.8868 -0.5791
-4.0762 1.8624 -0.5968
-4.0576 1.8102 -0.5943
-4.0349 1.7348 -0.6015
-4.0078 1.6751 -0.5838
-3.9937 1.6371 -0.5804
-3.9731 1.5765 -0.5803
-3.9649 1.5368 -0.5937
-3.9515 1.5058 -0.5864
-3.9474 1.4877 -0.5915
-3.9328 1.4454 -0.5907
-3.9239 1.4235 -0.5870
-3.9178 1.4055 -0.5868
-3.9096 1.3859 -0.5829
-3.9036 1.3693 -0.5819
-3.9010 1.3569 -0.5860
-3.8977 1.3440 -0.5887
-3.8918 1.3290 -0.5866
-3.8913 1.3197 -0.5934
-3.8812 1.3016 -0.5833
-3.8786 1.2909 -0.5858
-3.8758 1.2805 -0.5878
-5.0188 5.7297 0.6654
-4.9759 5.4677 0.5324
-4.9678 5.3244 0.4213
-4.8870 4.9682 0.2968
-4.9682 5.1026 0.2164
-4.9036 4.8121 0.1119
-4.9116 4.7363 0.0222
-5.0220 4.9401 -0.0679
-5.0137 4.8179 -0.1591
-5.0681 4.8615 -0.2557
-4.7362 3.5862 -0.5941
-4.7084 3.4627 -0.6377
-4.5873 3.1476 -0.6232
-4.3208 2.4378 -0.6062
-4.2437 2.2291 -0.6045
-4.1667 2.0373 -0.5875
-4.1212 1.9128 -0.5875
-4.0886 1.8181 -0.5927
-4.0675 1.7660 -0.5876
-4.0523 1.7247 -0.5873
-4.0393 1.6881 -0.5882
-4.0291 1.6570 -0.5914
-4.0017 1.5882 -0.5857
-3.9881 1.5422 -0.5938
-3.9798 1.5184 -0.5948
-3.9635 1.4857 -0.5841
-3.9576 1.4665 -0.5867
-3.9365 1.4090 -0.5868
-3.9291 1.3906 -0.5850
-3.9170 1.3680 -0.5755
-3.9161 1.3576 -0.5826
-3.9144 1.3467 -0.5884
-3.9055 1.3290 -0.5823
-3.9022 1.3173 -0.5848
-3.8975 1.3046 -0.5847
-3.8953 1.2946 -0.5884
-3.8937 1.2853 -0.5928
-5.1984 5.8080 0.6013
-4.9930 5.0967 0.4194
-4.9705 4.9309 0.3152
-4.8581 4.5261 0.2007
-5.0455 4.9379 0.1390
-5.0524 4.8588 0.0462
-5.0906 4.8611 -0.0448
-5.1642 4.9487 -0.1400
-5.2426 5.0421 -0.2417
-4.7692 3.4477 -0.6175
-4.6349 3.1228 -0.6019
-4.5586 2.9245 -0.6061
-4.3639 2.4399 -0.5965
-4.3153 2.3203 -0.5928
-4.2512 2.1510 -0.5988
-4.2057 2.0493 -0.5856
-4.1359 1.8701 -0.5873
-4.1068 1.8062 -0.5777
-4.0675 1.6956 -0.5880
-3.9991 1.5193 -0.5905
-3.9862 1.4916 -0.5856
-3.9773 1.4695 -0.5852
-3.9726 1.4527 -0.5898
-3.9664 1.4348 -0.5918
-3.9594 1.4166 -0.5922
-3.9415 1.3780 -0.5855
-3.9358 1.3628 -0.5862
-3.9265 1.3360 -0.5894
-3.9156 1.3174 -0.5806
-3.9126 1.3065 -0.5837
-3.9095 1.2958 -0.5864
-3.9084 1.2871 -0.5921
-5.0616 5.0156 0.4321
-5.0839 4.9776 0.3412
-5.1062 4.9395 0.2502
-5.2526 5.2114 0.1748
-5.2965 5.2186 0.0779
-5.2816 5.0836 -0.0216
-4.7332 3.1965 -0.6066
-4.6595 3.0104 -0.6177
-4.4863 2.6149 -0.6019
-4.3866 2.3747 -0.6056
-4.3224 2.2380 -0.5899
-4.2841 2.1483 -0.5886
-4.2459 2.0622 -0.5840
-4.2207 1.9994 -0.5871
-4.1920 1.9335 -0.5848
-4.1717 1.8824 -0.5877
-4.1427 1.8207 -0.5806
-4.1235 1.7750 -0.5807
-4.1169 1.7481 -0.5919
-4.0901 1.6952 -0.5813
-4.0715 1.6395 -0.5927
-4.0516 1.5858 -0.5992
-4.0165 1.5180 -0.5838
-4.0054 1.4932 -0.5822
-4.0025 1.4782 -0.5903
-3.9928 1.4563 -0.5892
-3.9816 1.4336 -0.5853
-3.9734 1.4147 -0.5848
-3.9657 1.3969 -0.5843
-3.9592 1.3807 -0.5849
-3.9545 1.3668 -0.5876
-3.9489 1.3526 -0.5888
-3.9411 1.3367 -0.5861
-3.9324 1.3205 -0.5816
-3.9285 1.3090 -0.5839
-3.9225 1.2883 -0.5902
-5.4220 5.3651 0.2070
-5.5661 5.4918 0.0057
-5.0035 3.6296 -0.6257
-4.5595 2.6598 -0.6058
-4.4168 2.3586 -0.5888
-4.3561 2.2057 -0.6071
-4.2004 1.8838 -0.5813
-4.1604 1.7910 -0.5851
-4.1533 1.7638 -0.5969
-4.1284 1.7147 -0.5903
-4.0978 1.6452 -0.5917
-4.0842 1.6142 -0.5923
-4.0623 1.5747 -0.5829
-4.0451 1.5293 -0.5903
-3.9963 1.4216 -0.5892
-3.9875 1.4030 -0.5881
-3.9770 1.3834 -0.5842
-3.9699 1.3676 -0.5841
-3.9625 1.3520 -0.5834
-3.9608 1.3418 -0.5900
-3.9517 1.3255 -0.5858
-3.9446 1.3115 -0.5840
-3.9410 1.3007 -0.5869
-3.9389 1.2913 -0.5917
-5.4293 5.6375 0.7490
-5.4849 5.3624 0.3292
-5.4231 5.1281 0.2170
-5.8193 5.6847 -0.0769
-5.8176 5.5782 -0.1871
-5.0778 3.6331 -0.6090
-4.8224 3.0938 -0.6130
-4.6137 2.6705 -0.5975
-4.5667 2.5607 -0.6095
-4.4988 2.4231 -0.6046
-4.4516 2.3214 -0.6073
-4.4067 2.2270 -0.6078
-4.3516 2.1214 -0.5971
-4.2940 2.0162 -0.5803
-4.2335 1.8911 -0.5784
-4.1938 1.8013 -0.5854
-4.1862 1.7740 -0.5976
-4.1178 1.6432 -0.5839
-4.1074 1.6168 -0.5888
-4.0754 1.5542 -0.5840
-4.0627 1.5280 -0.5835
-4.0552 1.5081 -0.5881
-4.0468 1.4878 -0.5910
-4.0340 1.4637 -0.5880
-4.0280 1.4470 -0.5924
-4.0175 1.4265 -0.5907
-4.0024 1.4024 -0.5826
-4.0009 1.3915 -0.5910
-3.9942 1.3761 -0.5923
-3.9805 1.3553 -0.5840
-3.9749 1.3419 -0.5857
-3.9547 1.3013 -0.5839
-5.6008 0.3799 0.2987
-5.6071 0.4056 0.3029
-5.5468 0.4383 0.2939
-5.3939 0.6049 0.2805
-5.3653 0.6313 0.2774
-5.3044 0.7100 0.2734
-5.2767 0.7350 0.2704
-5.2529 0.7599 0.2682
-5.2328 0.7851 0.2668
-5.2174 0.8110 0.2665
-5.1690 0.8300 0.2585
-5.1798 0.8612 0.2642
-5.1456 0.8821 0.2594
-5.1273 0.9065 0.2583
-5.1057 0.9297 0.2563
-5.0527 0.9715 0.2499
-5.0319 0.9936 0.2480
-5.0082 1.0142 0.2453
-4.9967 1.0397 0.2458
-4.9763 1.0611 0.2439
-4.9541 1.0813 0.2415
-4.9312 1.1004 0.2388
-4.9284 1.1308 0.2416
-4.9113 1.1531 0.2405
-4.8759 1.1632 0.2342
-4.8701 1.1922 0.2363
-4.8533 1.2139 0.2352
-4.8297 1.2300 0.2320
-4.8158 1.2533 0.2317
-4.7969 1.2722 0.2298
-4.7764 1.2894 0.2275
-4.7570 1.3069 0.2254
-4.7410 1.3273 0.2243
-4.7225 1.4204 0.2308
-5.9960 4.5297 0.8467
-5.9468 4.6122 0.8456
-6.0866 5.1014 0.9298
-5.5941 0.3755 0.2668
-5.5677 0.4048 0.2647
-5.5489 0.4599 0.2667
-5.5017 0.4901 0.2607
-5.4955 0.5174 0.2623
-5.4737 0.5455 0.2609
-5.4367 0.5736 0.2567
-5.4114 0.6010 0.2547
-5.3175 0.6798 0.2447
-5.3018 0.7062 0.2444
-5.2824 0.7322 0.2433
-5.2620 0.7580 0.2420
-5.2348 0.7824 0.2393
-5.2192 0.8084 0.2389
-5.1958 0.8329 0.2369
-5.1770 0.8579 0.2359
-5.1440 0.8792 0.2317
-5.1245 0.9034 0.2305
-5.1170 0.9311 0.2318
-5.1018 0.9565 0.2314
-5.0323 0.9922 0.2218
-5.0237 1.0193 0.2229
-4.9679 1.0875 0.2191
-4.9313 1.0999 0.2134
-4.9199 1.1254 0.2138
-4.9056 1.1493 0.2135
-4.8804 1.1661 0.2104
-4.8564 1.1830 0.2075
-4.8327 1.1993 0.2046
-4.8259 1.2277 0.2062
-4.8240 1.2607 0.2091
-4.8006 1.2765 0.2063
-4.7892 1.3021 0.2067
-4.7573 1.3087 0.2013
-4.7317 1.3198 0.1975
-4.7159 1.3399 0.1965
-4.7086 1.3691 0.1981
-4.7087 1.4073 0.2019
-6.3618 4.6789 0.8429
-5.8892 4.5206 0.7373
-5.8780 4.6819 0.7513
-5.9889 5.1278 0.8169
-5.6333 0.3385 0.2398
-5.6052 0.3687 0.2377
-5.5591 0.4271 0.2350
-5.5200 0.4841 0.2334
-5.4980 0.5126 0.2322
-5.4568 0.5415 0.2277
-5.4403 0.5692 0.2274
-5.3924 0.6242 0.2241
-5.3491 0.6503 0.2190
-5.2733 0.7562 0.2155
-5.2332 0.7791 0.2107
-5.2245 0.8064 0.2116
-5.2020 0.8313 0.2100
-5.1632 0.8521 0.2053
-5.1555 0.8797 0.2064
-5.1434 0.9064 0.2067
-5.1141 0.9281 0.2036
-5.0884 0.9501 0.2012
-5.0774 0.9769 0.2017
-5.0148 1.0142 0.1944
-5.0002 1.0389 0.1941
-4.9855 1.0635 0.1937
-4.9563 1.0807 0.1903
-4.9418 1.1050 0.1900
-4.9245 1.1276 0.1890
-4.8917 1.1405 0.1846
-4.8830 1.1678 0.1855
-4.8589 1.1848 0.1830
-4.8492 1.2116 0.1837
-4.8455 1.2433 0.1858
-4.8065 1.2474 0.1796
-4.7926 1.2707 0.1793
-4.7705 1.2866 0.1769
-4.7583 1.3112 0.1770
-4.7382 1.3281 0.1751
-4.7269 1.3534 0.1754
-4.7170 1.3806 0.1761
-4.7182 1.4208 0.1798
-4.7056 1.4462 0.1799
-6.5977 4.9090 0.8043
-5.9765 4.5429 0.6670
-5.9077 4.5865 0.6592
-5.8584 4.6690 0.6581
-5.8550 5.7530 0.7527
-5.6499 0.3305 0.2105
-5.6093 0.3628 0.2069
-5.6084 0.3896 0.2088
-5.5420 0.4504 0.2035
-5.5251 0.4789 0.2032
-5.4771 0.5089 0.1983
-5.4605 0.5368 0.1979
-5.4489 0.5647 0.1983
-5.4122 0.5925 0.1950
-5.4241 0.6209 0.1989
-5.3695 0.6473 0.1928
-5.3448 0.6742 0.1911
-5.3154 0.7002 0.1887
-5.2577 0.7508 0.1839
-5.2385 0.7768 0.1830
-5.2228 0.8031 0.1827
-5.1959 0.8273 0.1805
-5.1725 0.8516 0.1789
-5.1603 0.8784 0.1791
-5.1373 0.9024 0.1775
-5.1113 0.9250 0.1753
-5.0866 0.9475 0.1733
-5.0580 0.9681 0.1707
-5.0563 0.9984 0.1727
-5.0311 1.0196 0.1705
-5.0040 1.0713 0.1704
-4.9361 1.1012 0.1626
-4.9132 1.1206 0.1606
-4.8943 1.1419 0.1594
-4.8872 1.1705 0.1605
-4.8702 1.1928 0.1597
-4.8410 1.2060 0.1563
-4.8226 1.2264 0.1551
-4.8128 1.2533 0.1557
-4.7921 1.2713 0.1540
-4.7830 1.2992 0.1547
-4.7641 1.3182 0.1534
-4.7352 1.3268 0.1497
-4.7214 1.3498 0.1494
-4.7221 1.3886 0.1525
-6.4548 4.6946 0.6593
-6.1722 4.3954 0.5947
-6.0778 4.4026 0.5812
-6.0275 4.4868 0.5801
-5.9373 4.4910 0.5670
-5.8768 4.7396 0.5768
-5.6257 5.1608 0.5712
-5.6083 5.3413 0.5822
-5.5842 0.4141 0.1756
-5.5563 0.4441 0.1740
-5.5391 0.4730 0.1736
-5.5168 0.5021 0.1726
-5.4945 0.5311 0.1715
-5.4392 0.5883 0.1681
-5.3941 0.6159 0.1641
-5.3873 0.6441 0.1650
-5.3515 0.6707 0.1621
-5.3173 0.6967 0.1593
-5.2848 0.7221 0.1568
-5.2514 0.7467 0.1541
-5.2482 0.7751 0.1555
-5.2199 0.7996 0.1534
-5.1819 0.8216 0.1499
-5.1851 0.8518 0.1522
-5.1357 0.8698 0.1471
-5.1247 0.8966 0.1473
-5.1200 0.9255 0.1485
-5.0837 0.9446 0.1451
-5.0551 0.9653 0.1428
-5.0502 0.9944 0.1440
-5.0191 1.0132 0.1412
-5.0258 1.0479 0.1442
-4.9864 1.0618 0.1401
-4.9744 1.0882 0.1402
-4.9214 1.1249 0.1357
-4.8932 1.1409 0.1332
-4.8744 1.1621 0.1321
-4.8601 1.1860 0.1318
-4.8432 1.2080 0.1310
-4.8119 1.2188 0.1277
-4.8072 1.2496 0.1290
-4.7931 1.2733 0.1287
-4.7750 1.2933 0.1277
-4.7562 1.3123 0.1264
-4.7336 1.3271 0.1245
-4.7198 1.3502 0.1242
-4.7188 1.3874 0.1264
-4.7129 1.4203 0.1277
-5.9867 4.4335 0.4798
-5.9370 4.5169 0.4787
-5.9159 4.8571 0.4974
-5.7268 5.2535 0.4982
-5.6568 5.2916 0.4917
-5.5614 0.4113 0.1412
-5.5390 0.4406 0.1403
-5.5271 0.4689 0.1404
-5.4997 0.4982 0.1390
-5.4979 0.5262 0.1402
-5.4606 0.5555 0.1377
-5.4535 0.5839 0.1384
-5.4206 0.6123 0.1363
-5.3904 0.6401 0.1345
-5.3271 0.6654 0.1290
-5.3074 0.6922 0.1283
-5.2819 0.7183 0.1269
-5.2659 0.7452 0.1265
-5.2340 0.7697 0.1244
-5.2058 0.7941 0.1226
-5.1868 0.8198 0.1219
-5.1603 0.8435 0.1202
-5.1297 0.8658 0.1181
-5.1325 0.8963 0.1199
-5.1096 0.9202 0.1187
-5.0911 0.9450 0.1180
-5.0686 0.9683 0.1168
-5.0573 0.9955 0.1169
-5.0380 1.0195 0.1161
-5.0100 1.0395 0.1141
-4.9891 1.0621 0.1130
-4.9656 1.0829 0.1116
-4.9442 1.1043 0.1104
-4.9065 1.1488 0.1086
-4.8614 1.1871 0.1057
-4.8445 1.2093 0.1050
-4.8352 1.2373 0.1055
-4.8066 1.2500 0.1031
-4.7859 1.2682 0.1018
-4.7806 1.2998 0.1028
-4.7577 1.3154 0.1011
-4.7266 1.3220 0.0982
-5.9280 4.3449 0.3777
-5.8555 4.7547 0.3906
-5.9039 5.0718 0.4116
-5.9352 5.3698 0.4299
-5.8578 5.4083 0.4236
-5.7628 5.3935 0.4128
-5.6362 5.2780 0.3935
-5.6546 5.5749 0.4104
-5.6186 5.7225 0.4140
-5.5128 5.6448 0.3988
-5.6347 0.3426 0.1131
-5.6117 0.3729 0.1123
-5.5700 0.4325 0.1110
-5.5357 0.4632 0.1092
-5.4764 0.4947 0.1054
-5.4910 0.5217 0.1076
-5.4638 0.5508 0.1064
-5.4468 0.5795 0.1060
-5.4005 0.6076 0.1032
-5.3789 0.6355 0.1024
-5.3432 0.6624 0.1003
-5.3174 0.6893 0.0992
-5.2929 0.7159 0.0981
-5.2277 0.7656 0.0944
-5.2004 0.8195 0.0941
-5.1878 0.8469 0.0941
-5.1337 0.8943 0.0912
-5.1108 0.9183 0.0902
-5.0850 0.9410 0.0889
-5.0767 0.9693 0.0892
-5.0312 0.9838 0.0859
-5.0231 1.0119 0.0863
-5.0108 1.0386 0.0862
-4.9985 1.0654 0.0862
-4.9625 1.0804 0.0837
-4.9587 1.1115 0.0845
-4.9382 1.1336 0.0836
-4.9151 1.1538 0.0824
-4.8913 1.1730 0.0811
-4.8662 1.1905 0.0796
-4.8319 1.2006 0.0771
-4.8227 1.2283 0.0774
-4.8084 1.2523 0.0770
-4.7982 1.2798 0.0772
-4.7726 1.2939 0.0756
-4.7561 1.3154 0.0750
-4.7311 1.3284 0.0733
-4.7255 1.3605 0.0741
-4.7203 1.3939 0.0749
-4.7082 1.4204 0.0748
-5.9175 4.5316 0.2936
-5.9061 4.6991 0.2989
-5.9577 5.0164 0.3151
-5.9914 5.3143 0.3291
-5.9577 5.4657 0.3319
-5.8571 5.4489 0.3227
-5.7806 5.4866 0.3177
-5.6571 0.3336 0.0814
-5.5755 0.3722 0.0772
-5.5871 0.3978 0.0786
-5.5579 0.4284 0.0775
-5.5237 0.4591 0.0761
-5.5014 0.4883 0.0754
-5.4892 0.5170 0.0753
-5.4620 0.5462 0.0743
-5.4191 0.5751 0.0723
-5.4180 0.6036 0.0730
-5.3854 0.6316 0.0716
-5.3887 0.6610 0.0725
-5.3342 0.6868 0.0697
-5.3268 0.7156 0.0699
-5.2827 0.7404 0.0678
-5.2171 0.8198 0.0656
-5.1815 0.8427 0.0639
-5.1581 0.8676 0.0630
-5.1307 0.8910 0.0619
-5.0839 0.9081 0.0593
-5.0860 0.9393 0.0602
-5.0877 0.9713 0.0611
-5.0620 0.9939 0.0601
-5.0523 1.0224 0.0601
-5.0173 1.0402 0.0584
-4.9896 1.0601 0.0571
-4.9622 1.0794 0.0559
-4.9647 1.1141 0.0569
-4.9440 1.1365 0.0561
-4.9172 1.1549 0.0549
-4.8829 1.1675 0.0530
-4.8474 1.1778 0.0510
-4.8331 1.2018 0.0507
-4.8262 1.2317 0.0510
-4.8027 1.2486 0.0499
-4.7741 1.2966 0.0493
-4.7528 1.3140 0.0484
-4.7302 1.3293 0.0473
-4.7117 1.3481 0.0466
-5.8857 4.6857 0.2018
-5.8941 4.9070 0.2077
-5.9033 5.1434 0.2140
-5.8280 5.1837 0.2103
-5.7939 5.3269 0.2116
-5.7992 5.5841 0.2182
-5.7632 5.7387 0.2197
-5.6687 0.3261 0.0482
-5.5509 0.4239 0.0444
-5.5335 0.4531 0.0441
-5.4996 0.4835 0.0430
-5.4873 0.5122 0.0428
-5.4453 0.5420 0.0414
-5.4124 0.5707 0.0404
-5.3740 0.6271 0.0395
-5.3666 0.6557 0.0395
-5.3648 0.6852 0.0398
-5.3156 0.7108 0.0380
-5.3034 0.7393 0.0379
-5.2900 0.7679 0.0376
-5.2031 0.8141 0.0346
-5.1719 0.8378 0.0336
-5.1592 0.8652 0.0334
-5.1286 0.8881 0.0324
-5.1057 0.9123 0.0317
-5.0714 0.9637 0.0309
-5.0618 0.9921 0.0308
-5.0403 1.0159 0.0302
-5.0045 1.0332 0.0289
-4.9930 1.0606 0.0288
-4.9712 1.0830 0.0281
-4.9532 1.1071 0.0277
-4.9470 1.1378 0.0277
-4.9255 1.1597 0.0271
-4.9102 1.1852 0.0268
-4.8701 1.1936 0.0252
-4.8257 1.1968 0.0235
-4.8180 1.2260 0.0235
-4.7707 1.2585 0.0219
-4.7661 1.2907 0.0221
-4.7556 1.3184 0.0219
-4.7223 1.3234 0.0206
-4.7232 1.3625 0.0211
-6.0102 4.5839 0.1096
-6.0364 5.0444 0.1158
-6.0030 5.1898 0.1161
-5.9465 5.2847 0.1148
-5.8686 5.3259 0.1121
-5.8126 5.4197 0.1108
-5.7567 5.5135 0.1096
-5.7008 5.6073 0.1084
-5.6081 5.5878 0.1044
-5.5889 5.7949 0.1059
-5.7320 0.2818 0.0151
-5.7000 0.3153 0.0145
-5.6316 0.3814 0.0131
-5.5204 0.4771 0.0108
-5.5078 0.5063 0.0105
-5.4582 0.5369 0.0095
-5.4409 0.5659 0.0092
-5.4093 0.5947 0.0085
-5.3768 0.6229 0.0079
-5.3657 0.6516 0.0076
-5.3534 0.6804 0.0073
-5.3409 0.7094 0.0070
-5.3047 0.7359 0.0063
-5.2800 0.7630 0.0058
-5.2457 0.7883 0.0051
-5.1998 0.8409 0.0041
-5.1411 0.8889 0.0029
-5.1097 0.9112 0.0023
-5.0980 0.9390 0.0020
-5.0682 0.9606 0.0014
-5.0457 0.9842 0.0010
-5.0438 1.0158 0.0009
-5.0242 1.0405 0.0004
-4.9869 1.0566 -0.0003
-4.9623 1.0776 -0.0008
-4.9499 1.1046 -0.0011
-4.9346 1.1301 -0.0014
-4.8929 1.1739 -0.0023
-4.8676 1.1921 -0.0028
-4.8468 1.2127 -0.0032
-4.7954 1.2444 -0.0042
-4.7723 1.2610 -0.0047
-4.7643 1.2905 -0.0049
-4.7484 1.3131 -0.0052
-4.7296 1.3326 -0.0056
-4.7402 1.4239 -0.0056
-4.7231 1.4466 -0.0060
-5.9912 4.9794 0.0095
-5.9359 5.0722 0.0083
-5.9023 5.2174 0.0074
-5.8253 5.2577 0.0059
-5.7505 5.2983 0.0044
-5.6958 5.3900 0.0032
-5.6594 5.5359 0.0022
-5.6041 5.6287 0.0010
-5.5488 5.7214 -0.0002
-5.4287 5.5894 -0.0022
-5.5703 0.4111 -0.0218
-5.5588 0.4404 -0.0222
-5.5134 0.4725 -0.0225
-5.4736 0.5032 -0.0228
-5.4721 0.5317 -0.0232
-5.4764 0.5607 -0.0237
-5.3948 0.6191 -0.0243
-5.3730 0.6478 -0.0246
-5.3420 0.6756 -0.0249
-5.3148 0.7032 -0.0253
-5.2935 0.7309 -0.0256
-5.2955 0.7617 -0.0261
-5.2435 0.7846 -0.0262
-5.2183 0.8108 -0.0265
-5.1859 0.8351 -0.0268
-5.1581 0.8596 -0.0271
-5.1348 0.8847 -0.0274
-5.1116 0.9095 -0.0276
-5.0917 0.9348 -0.0280
-5.0551 0.9541 -0.0281
-5.0396 0.9802 -0.0284
-5.0211 1.0050 -0.0288
-5.0123 1.0339 -0.0292
-4.9864 1.0552 -0.0294
-4.9683 1.0797 -0.0297
-4.9438 1.1006 -0.0299
-4.9437 1.1349 -0.0305
-4.9283 1.1608 -0.0308
-4.8929 1.1739 -0.0309
-4.8693 1.1934 -0.0311
-4.8493 1.2149 -0.0313
-4.8393 1.2438 -0.0317
-4.7969 1.2466 -0.0316
-4.7801 1.2689 -0.0319
-4.7586 1.2868 -0.0321
-4.7465 1.3130 -0.0324
-4.7344 1.3394 -0.0328
-4.7288 1.3730 -0.0333
-4.7150 1.4402 -0.0343
-5.9070 4.4330 -0.0866
-5.8961 4.6019 -0.0892
-5.9047 4.8223 -0.0927
-5.9812 5.2138 -0.0992
-6.0435 5.6012 -0.1055
-6.0333 5.8329 -0.1091
-5.8311 5.5599 -0.1040
-5.6741 5.3757 -0.1004
-5.6194 5.4674 -0.1016
-5.5821 5.6142 -0.1038
-5.5100 5.6509 -0.1040
-5.5226 0.4666 -0.0562
-5.4827 0.4977 -0.0560
-5.4494 0.5277 -0.0560
-5.4302 0.5858 -0.0572
-5.4126 0.6152 -0.0576
-5.3754 0.6437 -0.0574
-5.3536 0.6724 -0.0576
-5.3409 0.7016 -0.0582
-5.3102 0.7291 -0.0581
-5.2667 0.7543 -0.0577
-5.2532 0.7829 -0.0582
-5.1868 0.8324 -0.0578
-5.0942 0.9021 -0.0573
-5.0895 0.9319 -0.0581
-5.0805 0.9610 -0.0587
-5.0499 0.9823 -0.0585
-5.0380 1.0103 -0.0590
-4.9995 1.0269 -0.0584
-4.9933 1.0573 -0.0591
-4.9713 1.0803 -0.0592
-4.9378 1.0966 -0.0588
-4.9225 1.1222 -0.0591
-4.9073 1.1477 -0.0595
-4.9066 1.1827 -0.0605
-4.8878 1.2064 -0.0607
-4.8459 1.2129 -0.0597
-4.7861 1.2753 -0.0599
-4.7598 1.2894 -0.0596
-4.7476 1.3158 -0.0601
-4.7331 1.3402 -0.0604
-4.7283 1.4160 -0.0625
-6.0218 4.4965 -0.1886
-5.9273 4.5014 -0.1862
-5.9463 5.9211 -0.2285
-5.8840 6.0256 -0.2299
-5.8943 6.3494 -0.2397
-5.8295 6.4580 -0.2412
-5.6148 6.0623 -0.2236
-5.4496 5.7852 -0.2109
-5.6658 0.3309 -0.0918
-5.6535 0.3613 -0.0925
-5.5496 0.4306 -0.0902
-5.5156 0.4620 -0.0899
-5.4917 0.4922 -0.0900
-5.4485 0.5229 -0.0891
-5.4031 0.5813 -0.0893
-5.3964 0.6104 -0.0903
-5.3686 0.6392 -0.0901
-5.3422 0.6676 -0.0900
-5.3295 0.6967 -0.0906
-5.2890 0.7231 -0.0897
-5.2634 0.7503 -0.0896
-5.2466 0.7785 -0.0900
-5.2564 0.8114 -0.0919
-5.1972 0.8316 -0.0898
-5.1806 0.8594 -0.0901
-5.1599 0.8861 -0.0902
-5.1202 0.9072 -0.0892
-5.0810 0.9591 -0.0894
-5.0543 0.9821 -0.0891
-5.0355 1.0077 -0.0892
-4.9899 1.0545 -0.0889
-4.9715 1.0794 -0.0891
-4.9380 1.0960 -0.0881
-4.9139 1.1166 -0.0878
-4.9013 1.1437 -0.0883
-4.8886 1.1709 -0.0889
-4.8708 1.1948 -0.0890
-4.8427 1.2478 -0.0899
-4.8274 1.2734 -0.0902
-4.7873 1.2775 -0.0884
-4.7509 1.3207 -0.0884
-5.9270 4.5291 -0.2871
-5.6513 6.2511 -0.3479
-5.4441 5.8302 -0.3191
-5.6716 0.3529 -0.1296
-5.6324 0.3872 -0.1287
-5.5529 0.4832 -0.1283
-5.4374 0.5766 -0.1251
-5.3790 0.6057 -0.1224
-5.3525 0.6343 -0.1221
-5.3399 0.6634 -0.1228
-5.3272 0.6926 -0.1236
-5.2923 0.7197 -0.1225
-5.2709 0.7477 -0.1226
-5.2711 0.7788 -0.1244
-5.2369 0.8047 -0.1233
-5.2325 0.8357 -0.1248
-5.2029 0.8616 -0.1241
-5.1697 0.8859 -0.1230
-5.1288 0.9072 -0.1212
-5.0814 0.9572 -0.1205
-5.0320 1.0047 -0.1196
-4.9900 1.0201 -0.1173
-4.9901 1.0534 -0.1193
-4.9653 1.0753 -0.1187
-4.9585 1.1063 -0.1200
-4.9314 1.1262 -0.1191
-4.9098 1.1487 -0.1188
-4.8909 1.1724 -0.1187
-4.8730 1.1966 -0.1188
-4.8552 1.2206 -0.1189
-4.8423 1.2482 -0.1195
-4.8111 1.2610 -0.1179
-4.7845 1.2763 -0.1168
-4.7741 1.3054 -0.1177
-4.7517 1.3233 -0.1171
-4.7192 1.4545 -0.1222
-6.3107 4.6888 -0.4263
-6.1491 4.5960 -0.4090
-5.9586 4.4276 -0.3851
-5.8661 4.4332 -0.3786
-6.0039 4.9260 -0.4171
-5.6501 0.3499 -0.1644
-5.6388 0.3806 -0.1655
-5.5888 0.4156 -0.1631
-5.4422 0.5423 -0.1578
-5.4093 0.5721 -0.1567
-5.3825 0.6013 -0.1562
-5.3743 0.6308 -0.1575
-5.3568 0.6602 -0.1579
-5.3248 0.6884 -0.1567
-5.2987 0.7166 -0.1562
-5.2728 0.7444 -0.1556
-5.2249 0.7993 -0.1549
-5.2126 0.8609 -0.1581
-5.1630 0.8816 -0.1547
-5.1423 0.9085 -0.1546
-5.1196 0.9681 -0.1566
-5.0808 0.9883 -0.1543
-5.0098 1.0272 -0.1501
-4.9875 1.0510 -0.1496
-4.9680 1.0757 -0.1495
-4.9365 1.1286 -0.1502
-4.9002 1.1425 -0.1476
-4.8714 1.1597 -0.1460
-4.8612 1.1886 -0.1471
-4.8491 1.2166 -0.1479
-4.8338 1.2423 -0.1482
-4.8184 1.2680 -0.1486
-4.7704 1.3036 -0.1464
-4.7577 1.3309 -0.1471
-6.4338 4.5238 -0.5409
-5.9174 4.3738 -0.4794
-5.9481 4.6310 -0.5009
-5.9814 4.9112 -0.5243
-5.9707 5.1108 -0.5376
-5.7296 6.3320 -0.6015
-5.6426 0.3450 -0.2001
-5.6375 0.3748 -0.2021
-5.6185 0.4067 -0.2025
-5.5934 0.4391 -0.2022
-5.4564 0.5370 -0.1938
-5.4101 0.5971 -0.1934
-5.3554 0.6559 -0.1917
-5.3323 0.6850 -0.1914
-5.2973 0.7437 -0.1922
-5.2659 0.7711 -0.1907
-5.2318 0.7972 -0.1888
-5.2447 0.8318 -0.1933
-5.2017 0.8555 -0.1901
-5.1634 0.8789 -0.1874
-5.1426 0.9061 -0.1872
-5.0946 0.9576 -0.1858
-5.0742 0.9840 -0.1856
-4.9748 1.0439 -0.1786
-4.9495 1.0999 -0.1803
-4.9337 1.1265 -0.1806
-4.9060 1.1458 -0.1789
-4.8762 1.1627 -0.1767
-4.8633 1.1902 -0.1775
-4.8511 1.2185 -0.1785
-4.8411 1.2487 -0.1798
-4.8170 1.2678 -0.1785
-4.7940 1.2871 -0.1774
-4.7690 1.3038 -0.1758
-4.7400 1.3156 -0.1732
-4.7251 1.3404 -0.1735
-4.7286 1.3850 -0.1778
-4.7224 1.4207 -0.1801
-6.4971 4.0831 -0.6272
-6.3572 4.0578 -0.6079
-6.2265 4.0344 -0.5899
-6.1041 4.0126 -0.5730
-6.0523 4.0995 -0.5741
-5.9694 4.3123 -0.5823
-6.0030 4.5702 -0.6087
-5.9483 4.6619 -0.6099
-5.8726 4.7076 -0.6046
-5.8185 4.7983 -0.6058
-5.4894 5.5986 -0.6345
-5.3857 5.5241 -0.6153
-5.2750 5.4031 -0.5913
-5.6616 0.3361 -0.2393
-5.6362 0.3690 -0.2389
-5.6233 0.4004 -0.2402
-5.5494 0.4376 -0.2330
-5.5309 0.4686 -0.2334
-5.4209 0.5625 -0.2267
-5.4134 0.5925 -0.2287
-5.3909 0.6225 -0.2284
-5.3484 0.6513 -0.2250
-5.3110 0.6794 -0.2224
-5.3078 0.7098 -0.2250
-5.2860 0.7386 -0.2247
-5.2421 0.7641 -0.2208
-5.2511 0.7972 -0.2254
-5.2203 0.8238 -0.2236
-5.1949 0.8510 -0.2226
-5.1817 0.8808 -0.2237
-5.1162 0.9290 -0.2189
-5.0995 0.9571 -0.2193
-5.0497 0.9731 -0.2136
-5.0298 0.9988 -0.2132
-5.0209 1.0291 -0.2150
-4.9653 1.0723 -0.2111
-4.9371 1.0925 -0.2090
-4.9214 1.1189 -0.2094
-4.8759 1.1625 -0.2071
-4.8685 1.1941 -0.2092
-4.8505 1.2185 -0.2090
-4.8263 1.2379 -0.2074
-4.8109 1.2638 -0.2078
-4.7879 1.2831 -0.2063
-4.7726 1.3087 -0.2067
-4.7508 1.3280 -0.2054
-4.7356 1.3534 -0.2057
-4.7296 1.3886 -0.2084
-4.7211 1.4221 -0.2105
-4.6942 1.4344 -0.2078
-5.7597 3.9410 -0.6176
-5.6336 4.2141 -0.6266
-5.6017 4.3312 -0.6337
-5.5380 4.3744 -0.6287
-5.4902 4.4545 -0.6298
-5.4569 4.5740 -0.6369
-5.3947 4.6148 -0.6319
-5.3469 4.6950 -0.6330
-5.2991 4.7751 -0.6340
-5.2273 4.7741 -0.6234
-5.1804 4.8528 -0.6244
-5.6348 0.3632 -0.2760
-5.6157 0.3954 -0.2764
-5.6159 0.4256 -0.2800
-5.5594 0.4610 -0.2744
-5.5109 0.4945 -0.2699
-5.4702 0.5265 -0.2666
-5.4680 0.5569 -0.2697
-5.4381 0.5879 -0.2682
-5.4198 0.6187 -0.2686
-5.3659 0.6478 -0.2627
-5.3184 0.6758 -0.2577
-5.2922 0.7044 -0.2565
-5.2567 0.7314 -0.2536
-5.2658 0.7639 -0.2589
-5.2442 0.7926 -0.2585
-5.2226 0.8211 -0.2581
-5.1760 0.8439 -0.2527
-5.1540 0.8711 -0.2521
-5.1420 0.9008 -0.2534
-5.1202 0.9278 -0.2528
-5.1033 0.9562 -0.2532
-5.0372 1.0001 -0.2469
-4.9651 1.0712 -0.2427
-4.9309 1.0884 -0.2388
-4.9305 1.1235 -0.2428
-4.9086 1.1468 -0.2418
-4.8862 1.1691 -0.2405
-4.8623 1.1900 -0.2388
-4.8388 1.2104 -0.2371
-4.8287 1.2406 -0.2389
-4.8048 1.2598 -0.2370
-4.7848 1.2817 -0.2361
-4.7548 1.2938 -0.2323
-4.7448 1.3240 -0.2341
-4.7204 1.3399 -0.2317
-4.7081 1.4545 -0.2429
-5.7503 2.9426 -0.5946
-5.6693 2.9521 -0.5818
-5.6042 2.9790 -0.5737
-5.5781 3.0629 -0.5789
-5.5769 3.1893 -0.5934
-5.5502 3.2782 -0.5991
-5.4975 3.3225 -0.5951
-5.4349 3.3453 -0.5870
-5.3844 3.3879 -0.5832
-5.3456 3.4529 -0.5841
-5.3280 3.5648 -0.5940
-5.3100 3.6810 -0.6044
-5.2913 3.8005 -0.6150
-5.2716 3.9234 -0.6259
-5.2099 3.9369 -0.6168
-5.1788 4.0330 -0.6226
-5.1378 4.1018 -0.6235
-5.0878 4.1416 -0.6195
-5.0212 4.1213 -0.6057
-4.9736 4.1591 -0.6019
-5.6020 0.3911 -0.3116
-5.6010 0.4213 -0.3154
-5.5698 0.4546 -0.3136
-5.5389 0.4874 -0.3118
-5.4607 0.5521 -0.3048
-5.4422 0.5831 -0.3052
-5.4125 0.6139 -0.3034
-5.3897 0.6445 -0.3029
-5.3409 0.6732 -0.2970
-5.3176 0.7027 -0.2962
-5.2902 0.7315 -0.2946
-5.2683 0.7606 -0.2941
-5.2114 0.7838 -0.2859
-5.2239 0.8181 -0.2928
-5.1813 0.8420 -0.2876
-5.1681 0.8718 -0.2889
-5.1260 0.9272 -0.2878
-5.0928 0.9505 -0.2843
-5.0797 0.9801 -0.2856
-5.0628 1.0085 -0.2860
-5.0215 1.0264 -0.2802
-5.0121 1.0574 -0.2824
-4.9954 1.0853 -0.2827
-4.9241 1.1193 -0.2731
-4.9023 1.1426 -0.2718
-4.8693 1.1581 -0.2674
-4.8617 1.1898 -0.2700
-4.8484 1.2179 -0.2710
-4.8303 1.2425 -0.2707
-4.7810 1.2796 -0.2658
-4.7707 1.3102 -0.2678
-4.7388 1.3200 -0.2628
-5.4223 2.9501 -0.6112
-5.2143 3.3349 -0.6205
-5.0399 3.6637 -0.6291
-4.9808 3.6563 -0.6165
-4.9449 3.7166 -0.6173
-4.9226 3.8242 -0.6269
-4.8997 3.9349 -0.6369
-5.6651 0.3468 -0.3578
-5.6199 0.3829 -0.3530
-5.5693 0.4187 -0.3469
-5.5681 0.4491 -0.3511
-5.5184 0.4833 -0.3450
-5.4996 0.5149 -0.3454
-5.4807 0.5465 -0.3458
-5.4686 0.5781 -0.3478
-5.4163 0.6093 -0.3406
-5.3670 0.6391 -0.3340
-5.3186 0.6675 -0.3274
-5.3201 0.6989 -0.3323
-5.2927 0.7280 -0.3304
-5.2613 0.7560 -0.3275
-5.2303 0.7835 -0.3246
-5.2220 0.8144 -0.3273
-5.2124 0.8456 -0.3297
-5.1868 0.8734 -0.3281
-5.1770 0.9050 -0.3305
-5.1268 0.9250 -0.3222
-5.1134 0.9551 -0.3236
-5.0961 0.9840 -0.3240
-5.0320 1.0293 -0.3163
-5.0125 1.0563 -0.3159
-4.9819 1.0775 -0.3122
-4.9551 1.0997 -0.3095
-4.9270 1.1204 -0.3062
-4.8927 1.1364 -0.3009
-4.8858 1.1688 -0.3041
-4.8579 1.1873 -0.3006
-4.8398 1.2120 -0.3001
-4.8187 1.2342 -0.2987
-4.8030 1.2604 -0.2990
-4.7874 1.2866 -0.2994
-4.7573 1.2994 -0.2945
-4.7420 1.3251 -0.2949
-5.3095 2.3697 -0.5743
-5.2954 2.4443 -0.5820
-5.2722 2.5078 -0.5861
-5.2335 2.5482 -0.5834
-5.1946 2.5870 -0.5804
-5.1567 2.6261 -0.5776
-5.1261 2.6774 -0.5783
-5.1023 2.7418 -0.5824
-5.0853 2.8213 -0.5903
-5.0610 2.8884 -0.5947
-5.0230 2.9258 -0.5916
-4.9792 2.9481 -0.5852
-4.9548 3.0156 -0.5896
-4.9295 3.0825 -0.5937
-4.8870 3.1029 -0.5872
-4.8619 3.1714 -0.5916
-4.8416 3.2564 -0.5995
-4.8049 3.2915 -0.5965
-4.7737 3.3437 -0.5972
-4.7524 3.4324 -0.6054
-5.5747 0.3826 -0.3811
-5.5856 0.4112 -0.3885
-5.5734 0.4429 -0.3905
-5.5238 0.4775 -0.3838
-5.4990 0.5097 -0.3828
-5.4676 0.5418 -0.3802
-5.4611 0.5732 -0.3836
-5.4422 0.6049 -0.3841
-5.3751 0.6349 -0.3722
-5.3568 0.6656 -0.3726
-5.3385 0.6963 -0.3730
-5.2856 0.7233 -0.3642
-5.2729 0.7539 -0.3660
-5.2459 0.7824 -0.3638
-5.1796 0.8356 -0.3559
-5.1466 0.8609 -0.3518
-5.1449 0.8937 -0.3567
-5.1276 0.9227 -0.3571
-5.0953 0.9469 -0.3529
-5.0589 0.9686 -0.3474
-5.0421 0.9968 -0.3477
-5.0324 1.0280 -0.3504
-5.0085 1.0531 -0.3485
-4.9857 1.0783 -0.3469
-4.9520 1.0973 -0.3416
-4.8897 1.1343 -0.3320
-4.8674 1.1567 -0.3301
-4.8548 1.1854 -0.3316
-4.8421 1.2142 -0.3331
-4.8102 1.2283 -0.3274
-4.7991 1.2582 -0.3295
-4.7915 1.2916 -0.3330
-4.7677 1.3108 -0.3302
-4.7401 1.3253 -0.3256
-5.1620 2.4463 -0.6121
-5.0959 2.5328 -0.6097
-5.0736 2.5947 -0.6141
-5.0441 2.6441 -0.6147
-5.0081 2.6802 -0.6116
-4.9729 2.7166 -0.6087
-4.8651 2.8113 -0.5972
-4.8414 2.8717 -0.6010
-4.8223 2.9467 -0.6084
-4.7691 3.0585 -0.6132
-4.7493 3.1385 -0.6213
-4.7241 3.2033 -0.6255
-4.7030 3.2854 -0.6335
-5.5384 0.5022 -0.4312
-5.5008 0.5356 -0.4267
-5.4536 0.5682 -0.4195
-5.4567 0.6002 -0.4260
-5.3885 0.6308 -0.4127
-5.3700 0.6620 -0.4131
-5.3313 0.6915 -0.4077
-5.2984 0.7207 -0.4038
-5.2988 0.7535 -0.4097
-5.2764 0.7836 -0.4089
-5.2581 0.8143 -0.4093
-5.1942 0.8693 -0.4015
-5.1466 0.8914 -0.3923
-5.0885 0.9424 -0.3853
-5.0824 0.9750 -0.3894
-5.0687 1.0054 -0.3910
-5.0186 1.0205 -0.3799
-4.9923 1.0443 -0.3769
-4.9885 1.0786 -0.3819
-4.9522 1.0965 -0.3751
-4.9291 1.1205 -0.3730
-4.8875 1.1698 -0.3703
-4.8571 1.1872 -0.3650
-4.8435 1.2157 -0.3663
-4.8274 1.2426 -0.3666
-4.8040 1.2633 -0.3639
-4.7615 1.3067 -0.3598
-4.7417 1.3288 -0.3583
-5.0698 2.0602 -0.5786
-5.0443 2.1029 -0.5792
-5.0188 2.1457 -0.5797
-4.9984 2.1966 -0.5831
-4.9778 2.2480 -0.5866
-4.9574 2.3008 -0.5903
-4.9263 2.3344 -0.5877
-4.8959 2.3686 -0.5854
-4.8658 2.4024 -0.5831
-4.8490 2.4641 -0.5894
-4.8190 2.4976 -0.5871
-4.7934 2.5406 -0.5877
-4.7677 2.5836 -0.5882
-4.7459 2.6369 -0.5917
-4.7201 2.6801 -0.5923
-4.6944 2.7233 -0.5928
-4.6652 2.7556 -0.5905
-4.6395 2.7986 -0.5911
-4.6206 2.8657 -0.5978
-4.6011 2.9337 -0.6045
-5.0574 0.9640 -0.4154
-5.0404 0.9925 -0.4157
-5.0340 1.0254 -0.4202
-4.9891 1.0415 -0.4097
-5.0065 1.0863 -0.4236
-4.9649 1.1024 -0.4142
-4.9654 1.1405 -0.4217
-4.9030 1.1417 -0.4031
-4.8842 1.1676 -0.4024
-4.8648 1.1928 -0.4014
-4.8455 1.2178 -0.4004
-4.8211 1.2384 -0.3970
-4.7866 1.2500 -0.3888
-4.7710 1.2763 -0.3892
-4.7603 1.3072 -0.3919
-4.7424 1.3316 -0.3912
-5.0058 1.9075 -0.5823
-4.9772 1.9406 -0.5801
-4.9537 1.9801 -0.5806
-4.9486 2.0477 -0.5922
-4.9291 2.0952 -0.5955
-4.9050 2.1356 -0.5960
-4.8857 2.1846 -0.5997
-4.8656 2.2331 -0.6030
-4.8412 2.2740 -0.6035
-4.7055 2.5478 -0.6154
-4.6844 2.5998 -0.6191
-4.6596 2.6415 -0.6197
-4.6347 2.6832 -0.6202
-4.6037 2.7038 -0.6148
-4.5515 2.7747 -0.6128
-4.9549 1.0962 -0.4446
-4.9414 1.1263 -0.4465
-4.9189 1.1511 -0.4443
-4.9077 1.1828 -0.4472
-4.7648 1.2722 -0.4189
-4.7596 1.3083 -0.4247
-4.7382 1.3295 -0.4221
-4.9201 1.8019 -0.5812
-4.8940 1.8328 -0.5790
-4.8764 1.8753 -0.5821
-4.8545 1.9119 -0.5826
-4.8365 1.9549 -0.5857
-4.8183 1.9982 -0.5888
-4.7963 2.0353 -0.5893
-4.7742 2.0723 -0.5898
-4.7416 2.0884 -0.5824
-4.7232 2.1321 -0.5855
-4.7046 2.1761 -0.5886
-4.6859 2.2204 -0.5917
-4.6607 2.2498 -0.5896
-4.6417 2.2945 -0.5927
-4.6196 2.3315 -0.5932
-4.5976 2.3685 -0.5937
-4.5728 2.3972 -0.5915
-4.5482 2.4256 -0.5894
-4.5263 2.4623 -0.5899
-4.5045 2.4990 -0.5904
-4.4849 2.5447 -0.5935
-5.4585 0.5528 -0.5368
-5.4338 0.5851 -0.5353
-5.3901 0.6494 -0.5342
-5.3761 0.6819 -0.5366
-5.3209 0.7107 -0.5234
-5.2921 0.7409 -0.5199
-5.2273 0.8677 -0.5254
-5.1288 0.9129 -0.5004
-5.0991 0.9389 -0.4958
-5.0654 0.9627 -0.4891
-5.0375 0.9877 -0.4848
-5.0203 1.0165 -0.4851
-5.0032 1.0452 -0.4855
-4.9860 1.0740 -0.4859
-4.9689 1.1028 -0.4863
-4.8979 1.1763 -0.4776
-4.8788 1.2029 -0.4767
-4.8590 1.2288 -0.4755
-4.7581 1.5419 -0.5103
-4.5893 2.2655 -0.6137
-4.5652 2.2931 -0.6113
-4.5417 2.3216 -0.6094
-4.5228 2.3643 -0.6123
-4.4995 2.3924 -0.6103
-4.4803 2.4354 -0.6132
-4.4614 2.4800 -0.6165
-4.4401 2.5157 -0.6170
-5.6184 0.2577 -0.5674
-5.5992 0.2899 -0.5679
-5.5800 0.3221 -0.5683
-5.5607 0.3544 -0.5687
-5.5357 0.3874 -0.5671
-5.5108 0.4201 -0.5654
-5.4860 0.4526 -0.5638
-5.4782 0.4837 -0.5684
-5.4591 0.5159 -0.5688
-5.4344 0.5481 -0.5671
-5.4100 0.5801 -0.5655
-5.3856 0.6119 -0.5638
-5.3604 0.6434 -0.5617
-5.3322 0.6744 -0.5584
-5.3135 0.7058 -0.5588
-5.2847 0.7360 -0.5551
-5.2800 0.7692 -0.5613
-5.2818 0.8042 -0.5705
-5.2425 0.8322 -0.5622
-5.0585 0.9582 -0.5219
-5.0377 0.9859 -0.5206
-5.0170 1.0134 -0.5193
-4.9621 1.0983 -0.5188
-4.9417 1.1252 -0.5175
-4.9278 1.1558 -0.5195
-4.9044 1.1805 -0.5165
-4.8636 1.2327 -0.5135
-4.8357 1.2524 -0.5075
-4.7833 1.2915 -0.4968
-4.7670 1.3188 -0.4972
-4.7808 1.4709 -0.5395
-4.7549 1.4909 -0.5343
-4.7429 1.5272 -0.5385
-4.7645 1.6084 -0.5666
-4.7636 1.6642 -0.5798
-4.7446 1.6961 -0.5802
-4.7256 1.7279 -0.5806
-4.7066 1.7598 -0.5810
-4.6876 1.7917 -0.5815
-4.6686 1.8236 -0.5819
-4.6496 1.8555 -0.5823
-4.6306 1.8874 -0.5827
-4.6139 1.9243 -0.5853
-4.5971 1.9615 -0.5878
-4.5758 1.9883 -0.5861
-4.5588 2.0257 -0.5887
-4.5418 2.0634 -0.5913
-4.5245 2.1013 -0.5938
-4.5033 2.1279 -0.5921
-4.4785 2.1424 -0.5861
-4.4595 2.1743 -0.5865
-4.4422 2.2123 -0.5891
-4.4264 2.2569 -0.5938
-4.4072 2.2891 -0.5942
-4.3894 2.3279 -0.5968
-5.3498 0.5755 -0.5798
-5.2568 0.6651 -0.5646
-5.1986 0.7538 -0.5636
-5.1731 0.7822 -0.5604
-5.1469 0.8100 -0.5568
-5.1294 0.8393 -0.5572
-5.1157 0.8695 -0.5594
-5.0790 0.8934 -0.5504
-5.0690 0.9246 -0.5543
-5.0446 0.9512 -0.5511
-5.0239 0.9787 -0.5497
-5.0033 1.0061 -0.5483
-4.9752 1.0298 -0.5429
-4.9658 1.0618 -0.5473
-4.9553 1.0938 -0.5513
-4.9285 1.1171 -0.5463
-4.9147 1.1475 -0.5484
-4.8976 1.1761 -0.5488
-4.8708 1.1978 -0.5433
-4.8539 1.2261 -0.5437
-4.8400 1.2566 -0.5459
-4.8174 1.2802 -0.5427
-4.7957 1.3040 -0.5399
-4.7489 1.3466 -0.5316
-4.7253 1.3665 -0.5270
-4.7315 1.4189 -0.5432
-4.7166 1.4492 -0.5449
-4.7047 1.4835 -0.5489
-4.7028 1.5316 -0.5606
-4.7082 1.5924 -0.5786
-4.6881 1.6189 -0.5772
-4.6348 1.7083 -0.5784
-5.4068 0.3135 -0.5716
-5.3849 0.3430 -0.5701
-5.3679 0.3715 -0.5705
-5.3463 0.4007 -0.5690
-5.3338 0.4287 -0.5713
-5.3168 0.4573 -0.5716
-5.2953 0.4862 -0.5701
-5.2685 0.5152 -0.5663
-5.2516 0.5434 -0.5667
-5.2348 0.5717 -0.5670
-5.2221 0.6000 -0.5693
-5.2146 0.6287 -0.5739
-5.1934 0.6570 -0.5724
-5.1805 0.6859 -0.5747
-5.1635 0.7144 -0.5750
-5.1425 0.7425 -0.5735
-5.1207 0.7701 -0.5715
-5.1085 0.7994 -0.5743
-5.0916 0.8279 -0.5747
-5.0663 0.8543 -0.5708
-5.0531 0.8836 -0.5730
-5.0442 0.9144 -0.5777
-5.0192 0.9403 -0.5738
-5.0067 0.9703 -0.5765
-4.9931 1.0002 -0.5788
-4.9727 1.0272 -0.5773
-4.9483 1.0521 -0.5734
-4.9226 1.0757 -0.5685
-4.9059 1.1037 -0.5689
-4.8947 1.1350 -0.5726
-4.8725 1.1597 -0.5696
-4.8558 1.1877 -0.5700
-4.8362 1.2135 -0.5685
-4.8275 1.2476 -0.5741
-4.8107 1.2758 -0.5745
-4.7891 1.2996 -0.5715
-4.7724 1.3276 -0.5719
-4.7304 1.3303 -0.5540
-4.7046 1.3470 -0.5472
-4.6886 1.3738 -0.5476
-4.6727 1.4005 -0.5479
-4.6610 1.4325 -0.5516
-4.6580 1.4767 -0.5625
-4.6619 1.5325 -0.5797
-4.6473 1.5641 -0.5820
-4.6260 1.5856 -0.5785
-4.6135 1.6208 -0.5828
-4.5966 1.6492 -0.5831
-4.5822 1.6822 -0.5859
-4.5672 1.7145 -0.5882
-4.5482 1.7392 -0.5867
-4.5331 1.7717 -0.5890
-4.5161 1.8002 -0.5894
-4.4951 1.8193 -0.5854
-4.4782 1.8477 -0.5858
-4.4613 1.8761 -0.5861
-4.4495 1.9190 -0.5928
-4.4294 1.9385 -0.5893
-4.4106 1.9611 -0.5873
-4.3909 1.9799 -0.5837
-4.3754 2.0129 -0.5861
-4.3599 2.0462 -0.5884
-4.3457 2.0860 -0.5931
-4.3286 2.1146 -0.5935
-5.3523 0.3183 -0.5842
-5.3264 0.3476 -0.5807
-5.1644 0.5681 -0.5692
-5.1515 0.5949 -0.5710
-5.1093 0.6481 -0.5667
-5.0616 0.7280 -0.5678
-5.0486 0.7552 -0.5696
-5.0299 0.7813 -0.5685
-4.9311 0.9399 -0.5686
-4.9153 0.9664 -0.5689
-4.8937 0.9904 -0.5658
-4.8779 1.0167 -0.5661
-4.8520 1.0726 -0.5703
-4.8331 1.0973 -0.5687
-4.8021 1.1139 -0.5590
-4.7889 1.1414 -0.5608
-4.7785 1.1712 -0.5647
-4.7628 1.1974 -0.5650
-4.7493 1.2254 -0.5669
-4.7412 1.2584 -0.5728
-4.7227 1.2824 -0.5711
-4.7003 1.3022 -0.5664
-4.6828 1.3264 -0.5652
-4.6691 1.3547 -0.5671
-4.6473 1.3735 -0.5624
-4.6360 1.4048 -0.5663
-4.6204 1.4309 -0.5666
-4.6026 1.4538 -0.5649
-4.5854 1.4774 -0.5638
-4.5737 1.5093 -0.5677
-4.5597 1.5381 -0.5695
-4.5549 1.5833 -0.5806
-4.5177 1.6262 -0.5757
-4.5057 1.6605 -0.5801
-4.4898 1.6871 -0.5804
-4.4739 1.7138 -0.5808
-4.4463 1.7778 -0.5866
-4.4290 1.8014 -0.5854
-4.4142 1.8316 -0.5873
-4.3661 1.9122 -0.5884
-4.3478 1.9306 -0.5851
-4.3331 1.9623 -0.5875
-4.3180 1.9929 -0.5894
-5.2403 0.3348 -0.5691
-5.2285 0.3598 -0.5710
-5.2214 0.3841 -0.5750
-5.1980 0.4110 -0.5717
-5.1827 0.4366 -0.5721
-5.1607 0.4630 -0.5693
-5.1455 0.4884 -0.5696
-5.1228 0.5144 -0.5663
-5.1077 0.5397 -0.5666
-5.1063 0.5648 -0.5737
-5.0848 0.5904 -0.5709
-5.0696 0.6158 -0.5713
-5.0574 0.6415 -0.5732
-5.0492 0.6676 -0.5772
-5.0270 0.6926 -0.5739
-5.0059 0.7174 -0.5710
-4.9869 0.7422 -0.5693
-4.9784 0.7687 -0.5733
-4.9567 0.7928 -0.5699
-4.9535 0.8210 -0.5771
-4.9355 0.8459 -0.5759
-4.9203 0.8715 -0.5762
-4.9137 0.9000 -0.5818
-4.8847 0.9207 -0.5737
-4.8721 0.9471 -0.5756
-4.8676 0.9774 -0.5829
-4.8522 1.0032 -0.5832
-4.8289 1.0248 -0.5782
-4.8089 1.0477 -0.5754
-4.7961 1.0745 -0.5773
-4.7756 1.0966 -0.5739
-4.7561 1.1188 -0.5711
-4.7467 1.1855 -0.5872
-4.7180 1.2002 -0.5774
-4.7029 1.2256 -0.5777
-4.6851 1.2485 -0.5760
-4.6700 1.2738 -0.5763
-4.6594 1.3039 -0.5804
-4.6423 1.3272 -0.5791
-4.6229 1.3475 -0.5757
-4.6096 1.3750 -0.5776
-4.6021 1.4105 -0.5849
-4.5817 1.4289 -0.5804
-4.5665 1.4543 -0.5808
-4.5514 1.4797 -0.5811
-4.5409 1.5130 -0.5863
-4.5226 1.5332 -0.5834
-4.5040 1.5522 -0.5800
-4.4908 1.5813 -0.5824
-4.4798 1.6155 -0.5876
-4.4645 1.6411 -0.5879
-4.4493 1.6667 -0.5883
-4.4285 1.6788 -0.5816
-4.4175 1.7148 -0.5873
-4.4034 1.7436 -0.5893
-4.3870 1.7659 -0.5880
-4.3729 1.7949 -0.5900
-4.3600 1.8287 -0.5941
-4.3423 1.8461 -0.5907
-4.3251 1.8645 -0.5877
-4.3090 1.8862 -0.5865
-4.2947 1.9154 -0.5884
-4.2803 1.9448 -0.5904
-5.1205 0.4397 -0.5735
-5.0704 0.5134 -0.5712
-5.0527 0.5378 -0.5698
-4.9806 0.6588 -0.5714
-4.9488 0.7069 -0.5704
-4.9316 0.7306 -0.5691
-4.9097 0.7532 -0.5650
-4.9010 0.7783 -0.5686
-4.8913 0.8034 -0.5717
-4.8412 0.8734 -0.5682
-4.8126 0.9213 -0.5688
-4.7885 0.9409 -0.5625
-4.7675 0.9919 -0.5681
-4.7579 1.0184 -0.5718
-4.7203 1.0606 -0.5657
-4.7025 1.0817 -0.5632
-4.6898 1.1064 -0.5647
-4.6779 1.1317 -0.5666
-4.6616 1.1537 -0.5653
-4.6475 1.1773 -0.5656
-4.6354 1.2029 -0.5676
-4.6161 1.2214 -0.5634
-4.6071 1.2503 -0.5682
-4.5911 1.2719 -0.5668
-4.5807 1.2999 -0.5705
-4.5618 1.3177 -0.5663
-4.5477 1.3413 -0.5666
-4.5432 1.3785 -0.5765
-4.5272 1.4000 -0.5751
-4.5081 1.4163 -0.5704
-4.4940 1.4401 -0.5707
-4.4829 1.4692 -0.5744
-4.4716 1.4986 -0.5781
-4.3177 1.7757 -0.5878
-4.3023 1.7963 -0.5864
-4.2870 1.8168 -0.5851
-4.2726 1.8410 -0.5854
-5.1072 0.3518 -0.5676
-5.1051 0.3727 -0.5736
-5.0946 0.3954 -0.5757
-5.0807 0.4188 -0.5760
-5.0578 0.4434 -0.5717
-5.0407 0.4669 -0.5702
-5.0302 0.4897 -0.5723
-5.0249 0.5123 -0.5772
-5.0025 0.5361 -0.5729
-4.9887 0.5593 -0.5732
-4.9800 0.5825 -0.5764
-4.9610 0.6057 -0.5738
-4.9502 0.6290 -0.5758
-4.9334 0.6521 -0.5744
-4.9196 0.6752 -0.5747
-4.9029 0.6981 -0.5733
-4.8919 0.7216 -0.5753
-4.8781 0.7448 -0.5756
-4.8597 0.7670 -0.5730
-4.8477 0.7905 -0.5745
-4.8339 0.8136 -0.5748
-4.8202 0.8368 -0.5751
-4.8064 0.8599 -0.5754
-4.7926 0.8830 -0.5757
-4.7813 0.9071 -0.5778
-4.7699 0.9314 -0.5798
-4.7536 0.9535 -0.5784
-4.7398 0.9767 -0.5787
-4.7260 0.9999 -0.5790
-4.7099 1.0217 -0.5775
-4.7006 1.0477 -0.5814
-4.6823 1.0679 -0.5782
-4.6743 1.0953 -0.5832
-4.6569 1.1158 -0.5805
-4.6292 1.1622 -0.5811
-4.6121 1.1822 -0.5785
-4.6016 1.2086 -0.5817
-4.5877 1.2317 -0.5821
-4.5758 1.2570 -0.5841
-4.5571 1.2745 -0.5797
-4.5307 1.3222 -0.5815
-4.5158 1.3437 -0.5806
-4.5005 1.3643 -0.5792
-4.4852 1.3848 -0.5777
-4.4746 1.4129 -0.5815
-4.4648 1.4431 -0.5866
-4.4456 1.4563 -0.5804
-4.4357 1.4868 -0.5854
-4.4241 1.5148 -0.5887
-4.4102 1.5381 -0.5890
-4.3929 1.5533 -0.5846
-4.3804 1.5796 -0.5866
-4.3685 1.6081 -0.5899
-4.3539 1.6292 -0.5890
-4.3407 1.6547 -0.5905
-4.3300 1.6882 -0.5962
-4.3129 1.7013 -0.5911
-4.2984 1.7222 -0.5903
-4.2820 1.7358 -0.5858
-4.2698 1.7651 -0.5891
-4.2559 1.7883 -0.5894
-4.2421 1.8114 -0.5897
-5.0065 0.4258 -0.5655
-5.0068 0.4459 -0.5731
-4.9826 0.4693 -0.5673
-4.9673 0.4915 -0.5664
-4.9585 0.5131 -0.5691
-4.9091 0.6012 -0.5721
-4.8929 0.6231 -0.5706
-4.8847 0.6455 -0.5739
-4.8628 0.6668 -0.5687
-4.8469 0.6883 -0.5672
-4.8367 0.7106 -0.5693
-4.8163 0.7312 -0.5647
-4.8078 0.7538 -0.5680
-4.7975 0.7763 -0.5701
-4.7617 0.8432 -0.5735
-4.7380 0.8882 -0.5759
-4.7077 0.9304 -0.5734
-4.6723 0.9692 -0.5666
-4.6631 0.9931 -0.5700
-4.6501 1.0149 -0.5703
-4.6408 1.0392 -0.5736
-4.6220 1.0569 -0.5690
-4.5948 1.0992 -0.5683
-4.5898 1.1280 -0.5760
-4.5768 1.1500 -0.5763
-4.5649 1.1732 -0.5778
-4.5549 1.1986 -0.5812
-4.5375 1.2158 -0.5772
-4.5173 1.2291 -0.5701
-4.5044 1.2508 -0.5703
-4.4943 1.2763 -0.5737
-4.4840 1.3021 -0.5771
-4.4720 1.3256 -0.5786
-4.4458 1.3695 -0.5792
-4.4328 1.3915 -0.5795
-4.4220 1.4180 -0.5829
-4.4089 1.4401 -0.5831
-4.3856 1.4911 -0.5881
-4.3715 1.5114 -0.5871
-4.3570 1.5305 -0.5856
-4.3036 1.6167 -0.5855
-4.2921 1.6445 -0.5889
-4.2795 1.6691 -0.5904
-4.2647 1.6853 -0.5876
-4.2524 1.7111 -0.5898
-5.0357 0.3206 -0.5724
-5.0230 0.3418 -0.5727
-5.0080 0.3636 -0.5717
-4.9953 0.3849 -0.5720
-4.9770 0.4071 -0.5692
-4.9745 0.4266 -0.5751
-4.9595 0.4482 -0.5741
-4.9490 0.4693 -0.5757
-4.9288 0.4913 -0.5715
-4.9236 0.5119 -0.5762
-4.9014 0.5338 -0.5708
-4.8940 0.5547 -0.5743
-4.8854 0.5759 -0.5771
-4.8747 0.5973 -0.5786
-4.8600 0.6186 -0.5776
-4.8434 0.6396 -0.5754
-4.8327 0.6610 -0.5769
-4.8200 0.6823 -0.5772
-4.8008 0.7026 -0.5730
-4.7845 0.7231 -0.5708
-4.7648 0.7664 -0.5752
-4.7522 0.7876 -0.5754
-4.7395 0.8087 -0.5757
-4.7328 0.8318 -0.5805
-4.6891 0.8933 -0.5768
-4.6356 0.9762 -0.5754
-4.6008 1.0415 -0.5788
-4.5902 1.0643 -0.5810
-4.5755 1.0838 -0.5793
-4.5629 1.1049 -0.5796
-4.5490 1.1249 -0.5786
-4.5377 1.1473 -0.5802
-4.5281 1.1718 -0.5837
-4.5125 1.1896 -0.5807
-4.5069 1.2193 -0.5887
-4.4901 1.2356 -0.5845
-4.4763 1.2553 -0.5835
-4.4696 1.2852 -0.5909
-4.4531 1.3011 -0.5866
-4.4357 1.3148 -0.5811
-4.4256 1.3403 -0.5846
-4.4174 1.3695 -0.5907
-4.3980 1.3782 -0.5820
-4.3877 1.4040 -0.5855
-4.3737 1.4223 -0.5838
-4.3632 1.4484 -0.5873
-4.3513 1.4717 -0.5889
-4.3406 1.4982 -0.5924
-4.3286 1.5217 -0.5940
-4.3165 1.5454 -0.5956
-4.3005 1.5570 -0.5900
-4.2878 1.5783 -0.5903
-4.2757 1.6019 -0.5919
-4.2623 1.6210 -0.5909
-4.2490 1.6399 -0.5898
-4.2363 1.6612 -0.5901
-4.2231 1.6800 -0.5891
-4.9699 0.3499 -0.5698
-4.9336 0.4108 -0.5706
-4.9126 0.4325 -0.5656
-4.9094 0.4514 -0.5711
-4.8752 0.5121 -0.5733
-4.8569 0.5328 -0.5696
-4.8530 0.5527 -0.5751
-4.8429 0.5730 -0.5767
-4.8287 0.5934 -0.5757
-4.7732 0.6529 -0.5632
-4.7632 0.6730 -0.5648
-4.7494 0.6927 -0.5638
-4.7394 0.7129 -0.5653
-4.7293 0.7332 -0.5669
-4.6986 0.7948 -0.5717
-4.6765 0.8116 -0.5640
-4.6664 0.8320 -0.5656
-4.6561 0.8526 -0.5672
-4.6426 0.8718 -0.5661
-4.6220 0.9132 -0.5693
-4.6055 0.9307 -0.5656
-4.5922 0.9497 -0.5645
-4.5789 0.9685 -0.5634
-4.5728 0.9922 -0.5690
-4.5582 1.0101 -0.5666
-4.5372 1.0521 -0.5698
-4.5227 1.0697 -0.5674
-4.5146 1.0932 -0.5717
-4.5015 1.1120 -0.5706
-4.4824 1.1574 -0.5765
-4.4704 1.1775 -0.5768
-4.4464 1.2178 -0.5773
-4.4290 1.2301 -0.5708
-4.4192 1.2532 -0.5738
-4.4104 1.2782 -0.5781
-4.3994 1.3001 -0.5797
-4.3844 1.3150 -0.5759
-4.3725 1.3350 -0.5762
-4.3623 1.3588 -0.5791
-4.3529 1.3847 -0.5835
-4.3198 1.4538 -0.5897
-4.2910 1.4818 -0.5821
-4.2818 1.5108 -0.5878
-4.2696 1.5312 -0.5880
-4.2581 1.5539 -0.5897
-4.2459 1.5743 -0.5899
-4.2320 1.5876 -0.5861
-4.2215 1.6152 -0.5905
-4.2099 1.6381 -0.5921
-4.9139 0.3758 -0.5697
-4.9068 0.3943 -0.5727
-4.8951 0.4139 -0.5730
-4.8835 0.4335 -0.5732
-4.8784 0.4521 -0.5776
-4.8623 0.4723 -0.5751
-4.8527 0.4917 -0.5767
-4.8347 0.5119 -0.5729
-4.8251 0.5313 -0.5745
-4.8196 0.5506 -0.5789
-4.8099 0.5703 -0.5805
-4.8001 0.5901 -0.5822
-4.7863 0.6098 -0.5810
-4.7688 0.6292 -0.5772
-4.7609 0.6492 -0.5802
-4.7491 0.6689 -0.5804
-4.7374 0.6886 -0.5807
-4.6986 0.7469 -0.5787
-4.6585 0.8041 -0.5754
-4.6534 0.8259 -0.5811
-4.6401 0.8450 -0.5800
-4.6020 0.9022 -0.5780
-4.5933 0.9234 -0.5811
-4.5831 0.9439 -0.5827
-4.5757 0.9664 -0.5871
-4.5583 0.9823 -0.5818
-4.5322 1.0193 -0.5796
-4.5205 1.0388 -0.5798
-4.4985 1.0791 -0.5817
-4.4542 1.1602 -0.5856
-4.4436 1.1813 -0.5872
-4.4274 1.1950 -0.5819
-4.4179 1.2176 -0.5849
-4.3819 1.2747 -0.5843
-4.3721 1.2978 -0.5874
-4.3595 1.3157 -0.5862
-4.3513 1.3427 -0.5921
-4.3352 1.3530 -0.5853
-4.3252 1.3765 -0.5884
-4.3135 1.3961 -0.5887
-4.3041 1.4219 -0.5931
-4.2893 1.4334 -0.5878
-4.2769 1.4508 -0.5866
-4.2652 1.4704 -0.5869
-4.2536 1.4900 -0.5871
-4.2400 1.5027 -0.5832
-4.2302 1.5291 -0.5877
-4.2209 1.5582 -0.5936
-4.2091 1.5779 -0.5938
-4.1957 1.5903 -0.5898
-4.1845 1.6124 -0.5915
-4.8878 0.3456 -0.5641
-4.8745 0.3647 -0.5630
-4.8577 0.3845 -0.5596
-4.8490 0.4024 -0.5613
-4.8414 0.4202 -0.5637
-4.8370 0.4376 -0.5682
-4.8237 0.4566 -0.5670
-4.8201 0.4742 -0.5723
-4.8036 0.4935 -0.5689
-4.7883 0.5125 -0.5663
-4.7845 0.5306 -0.5716
-4.7733 0.5493 -0.5718
-4.7601 0.5681 -0.5706
-4.7362 0.5867 -0.5616
-4.7369 0.6054 -0.5704
-4.7325 0.6244 -0.5757
-4.7082 0.6619 -0.5747
-4.6860 0.6791 -0.5664
-4.6746 0.7182 -0.5755
-4.6556 0.7351 -0.5693
-4.6445 0.7537 -0.5695
-4.6309 0.7715 -0.5676
-4.6207 0.7903 -0.5686
-4.6097 0.8088 -0.5688
-4.6035 0.8292 -0.5734
-4.5836 0.8676 -0.5760
-4.5686 0.8843 -0.5727
-4.5575 0.9029 -0.5729
-4.5428 0.9193 -0.5696
-4.5353 0.9401 -0.5734
-4.5291 0.9621 -0.5787
-4.5152 0.9789 -0.5761
-4.5007 0.9948 -0.5727
-4.4884 1.0123 -0.5715
-4.4663 1.0493 -0.5720
-4.4608 1.0735 -0.5787
-4.4385 1.1109 -0.5792
-4.4233 1.1247 -0.5744
-4.4145 1.1462 -0.5776
-4.4050 1.1671 -0.5800
-4.3690 1.2191 -0.5771
-4.3589 1.2394 -0.5788
-4.3178 1.3216 -0.5856
-4.3045 1.3355 -0.5822
-4.2926 1.3523 -0.5810
-4.2849 1.3801 -0.5878
-4.2677 1.3823 -0.5764
-4.2574 1.4029 -0.5781
-4.2477 1.4259 -0.5812
-4.2382 1.4501 -0.5851
-4.2270 1.4689 -0.5854
-4.2164 1.4900 -0.5871
-4.2052 1.5088 -0.5873
-4.1953 1.5336 -0.5913
-4.1858 1.5612 -0.5966
-4.8528 0.3662 -0.5728
-4.8420 0.3843 -0.5730
-4.8237 0.4199 -0.5757
-4.8128 0.4381 -0.5759
-4.7922 0.4579 -0.5695
-4.7772 0.4764 -0.5668
-4.7802 0.4928 -0.5767
-4.7663 0.5113 -0.5747
-4.7503 0.5298 -0.5712
-4.7436 0.5476 -0.5744
-4.7358 0.5656 -0.5769
-4.7230 0.5838 -0.5756
-4.7141 0.6020 -0.5774
-4.7004 0.6201 -0.5754
-4.6877 0.6380 -0.5741
-4.6816 0.6566 -0.5781
-4.6443 0.7307 -0.5843
-4.6256 0.7471 -0.5778
-4.6207 0.7669 -0.5832
-4.6081 0.7847 -0.5820
-4.5908 0.8006 -0.5763
-4.5585 0.8548 -0.5770
-4.5384 0.8918 -0.5790
-4.5305 0.9117 -0.5822
-4.5168 0.9280 -0.5794
-4.5081 0.9476 -0.5819
-4.4634 1.0192 -0.5814
-4.4545 1.0391 -0.5839
-4.4310 1.0736 -0.5821
-4.4122 1.1134 -0.5863
-4.3985 1.1280 -0.5828
-4.3646 1.1800 -0.5813
-4.3548 1.1998 -0.5830
-4.3459 1.2213 -0.5863
-4.3260 1.2613 -0.5898
-4.3163 1.2823 -0.5923
-4.3012 1.2913 -0.5850
-4.2883 1.3046 -0.5814
-4.2807 1.3305 -0.5877
-4.2687 1.3457 -0.5857
-4.2579 1.3638 -0.5859
-4.2471 1.3820 -0.5862
-4.2373 1.4034 -0.5887
-4.2264 1.4216 -0.5889
-4.2162 1.4421 -0.5907
-4.2053 1.4603 -0.5909
-4.1939 1.4762 -0.5896
-4.1835 1.4969 -0.5914
-4.1731 1.5176 -0.5931
-4.1613 1.5309 -0.5904
-4.8198 0.3560 -0.5670
-4.8060 0.3742 -0.5649
-4.7991 0.3906 -0.5674
-4.7888 0.4079 -0.5676
-4.7729 0.4263 -0.5640
-4.7627 0.4435 -0.5643
-4.7492 0.4613 -0.5622
-4.7443 0.4776 -0.5663
-4.7403 0.4941 -0.5711
-4.7237 0.5121 -0.5667
-4.7196 0.5289 -0.5716
-4.7048 0.5635 -0.5766
-4.6894 0.5811 -0.5730
-4.6620 0.6156 -0.5681
-4.6490 0.6326 -0.5660
-4.6396 0.6499 -0.5670
-4.6339 0.6677 -0.5711
-4.6218 0.6847 -0.5698
-4.6132 0.7023 -0.5715
-4.6029 0.7197 -0.5718
-4.5875 0.7357 -0.5673
-4.5831 0.7545 -0.5730
-4.5703 0.7711 -0.5709
-4.5624 0.7892 -0.5734
-4.5513 0.8062 -0.5729
-4.5433 0.8246 -0.5755
-4.5268 0.8391 -0.5695
-4.5158 0.8559 -0.5689
-4.5056 0.8731 -0.5692
-4.4975 0.8915 -0.5717
-4.4893 0.9102 -0.5743
-4.4735 0.9236 -0.5683
-4.4667 0.9433 -0.5724
-4.4506 0.9816 -0.5783
-4.4377 0.9967 -0.5754
-4.4243 1.0111 -0.5717
-4.4189 1.0333 -0.5782
-4.4038 1.0455 -0.5722
-4.3981 1.0680 -0.5787
-4.3827 1.0792 -0.5719
-4.3714 1.0949 -0.5705
-4.3628 1.1143 -0.5731
-4.3551 1.1353 -0.5772
-4.3453 1.1534 -0.5782
-4.3393 1.1781 -0.5855
-4.3184 1.2132 -0.5860
-4.3061 1.2272 -0.5831
-4.2923 1.2374 -0.5770
-4.2828 1.2565 -0.5788
-4.2713 1.2710 -0.5767
-4.2649 1.2981 -0.5848
-4.2522 1.3095 -0.5803
-4.2440 1.3330 -0.5852
-4.2356 1.3569 -0.5902
-4.2248 1.3734 -0.5896
-4.2032 1.4064 -0.5885
-4.1941 1.4297 -0.5927
-4.1820 1.4403 -0.5882
-4.1718 1.4591 -0.5892
-4.1628 1.4840 -0.5942
-4.1508 1.4942 -0.5897
-3.7020 0.0659 -0.2904
-3.6966 0.0734 -0.2912
-3.6908 0.0798 -0.2929
-3.6853 0.0873 -0.2937
-3.6787 0.0919 -0.2969
-3.6720 0.0966 -0.3000
-3.6659 0.1035 -0.3017
