ply
format ascii 1.0
element vertex 2111
property float x
property float y
property float z
end_header
-3.5180 1.2895 -0.5820
-3.5219 1.2778 -0.5819
-3.5258 1.2657 -0.5802
-3.5293 1.2562 -0.5826
-3.5329 1.2439 -0.5785
-3.5362 1.2348 -0.5800
-3.5393 1.2258 -0.5810
-3.5424 1.2165 -0.5804
-3.0366 2.3623 0.4526
-3.0588 2.3118 0.4112
-3.0677 2.2973 0.3827
-3.0884 2.2502 0.3446
-3.0860 2.2673 0.3259
-3.0936 2.2566 0.2988
-3.1065 2.2306 0.2680
-3.1140 2.2200 0.2413
-3.1215 2.2094 0.2145
-3.1251 2.2103 0.1899
-3.1326 2.1997 0.1629
-3.1428 2.1811 0.1347
-3.1514 2.1671 0.1075
-3.1589 2.1565 0.0808
-3.1643 2.1525 0.0545
-3.1610 2.1757 0.0294
-3.1688 2.1648 0.0018
-3.1845 2.1281 -0.0261
-3.1866 2.1355 -0.0535
-3.1930 2.1288 -0.0812
-3.1998 2.1210 -0.1090
-3.1965 2.1472 -0.1400
-3.1941 2.1716 -0.1727
-3.1889 2.2065 -0.2088
-3.1742 2.2765 -0.2532
-3.1720 2.3042 -0.2939
-3.1787 2.3007 -0.3298
-3.1853 2.2979 -0.3665
-3.1949 2.2844 -0.4008
-3.1991 2.2918 -0.4415
-3.2127 2.2629 -0.4712
-3.2223 2.2493 -0.5057
-3.2308 2.2403 -0.5419
-3.2381 2.2367 -0.5808
-3.2604 2.1697 -0.5908
-3.3104 2.0049 -0.5835
-3.3295 1.9445 -0.5850
-3.3480 1.8835 -0.5827
-3.3761 1.7977 -0.5916
-3.4041 1.7036 -0.5840
-3.4259 1.6338 -0.5848
-3.4440 1.5777 -0.5891
-3.4615 1.5182 -0.5828
-3.4688 1.4946 -0.5830
-3.4758 1.4722 -0.5830
-3.4887 1.4293 -0.5807
-3.4941 1.4146 -0.5856
-3.5008 1.3853 -0.5705
-3.5053 1.3754 -0.5793
-3.5105 1.3554 -0.5733
-3.5148 1.3452 -0.5802
-3.5193 1.3305 -0.5795
-3.5235 1.3167 -0.5793
-3.5275 1.3045 -0.5805
-3.5315 1.2874 -0.5723
-3.5350 1.2794 -0.5789
-3.5385 1.2667 -0.5761
-3.5419 1.2542 -0.5726
-3.5451 1.2467 -0.5781
-3.5482 1.2375 -0.5797
-3.5511 1.2291 -0.5821
-3.5541 1.2225 -0.5880
-3.0965 2.2908 0.4096
-3.1082 2.2680 0.3788
-3.1205 2.2429 0.3478
-3.1203 2.2554 0.3281
-3.1403 2.2066 0.2912
-3.1402 2.2188 0.2708
-3.1465 2.2119 0.2452
-3.1513 2.2096 0.2204
-3.1613 2.1909 0.1922
-3.1641 2.1954 0.1682
-3.1706 2.1882 0.1419
-3.1733 2.1933 0.1169
-3.1857 2.1669 0.0881
-3.1748 2.2181 0.0662
-3.1941 2.1838 0.0091
-3.2020 2.1727 -0.0189
-3.2065 2.1733 -0.0470
-3.2121 2.1706 -0.0756
-3.2115 2.1906 -0.1060
-3.2000 2.2525 -0.1414
-3.1935 2.2976 -0.1787
-3.1962 2.3092 -0.2145
-3.2042 2.3011 -0.2484
-3.2135 2.2880 -0.2816
-3.2228 2.2748 -0.3148
-3.2309 2.2666 -0.3492
-3.2414 2.2486 -0.3812
-3.2483 2.2459 -0.4176
-3.2555 2.2421 -0.4543
-3.2639 2.2335 -0.4897
-3.2712 2.2303 -0.5276
-3.2776 2.2314 -0.5680
-3.2942 2.1842 -0.5872
-3.3117 2.1307 -0.6010
-3.3379 2.0302 -0.5874
-3.3583 1.9545 -0.5816
-3.3718 1.9131 -0.5917
-3.3859 1.8655 -0.5957
-3.4025 1.8011 -0.5856
-3.4145 1.7597 -0.5877
-3.4469 1.6447 -0.5864
-3.4653 1.5764 -0.5807
-3.4802 1.5245 -0.5822
-3.4869 1.5023 -0.5843
-3.4937 1.4753 -0.5797
-3.4998 1.4539 -0.5796
-3.5056 1.4322 -0.5776
-3.5105 1.4196 -0.5854
-3.5158 1.3986 -0.5816
-3.5204 1.3843 -0.5852
-3.5252 1.3648 -0.5805
-3.5295 1.3477 -0.5778
-3.5335 1.3363 -0.5824
-3.5375 1.3231 -0.5834
-3.5412 1.3069 -0.5784
-3.5447 1.2936 -0.5769
-3.5482 1.2880 -0.5883
-3.5514 1.2738 -0.5835
-3.5544 1.2594 -0.5768
-3.5575 1.2512 -0.5813
-3.5603 1.2408 -0.5806
-3.5630 1.2306 -0.5794
-3.5657 1.2228 -0.5828
-3.1414 2.2569 0.3806
-3.1453 2.2574 0.3577
-3.1576 2.2313 0.3267
-3.1649 2.2209 0.3005
-3.1722 2.2106 0.2743
-3.1771 2.2085 0.2501
-3.1790 2.2167 0.2277
-3.1908 2.1911 0.1981
-3.1963 2.1876 0.1728
-3.2014 2.1850 0.1475
-3.2058 2.1857 0.1222
-3.1973 2.2332 0.1015
-3.1854 2.2951 0.0796
-3.1961 2.2745 0.0490
-3.2157 2.2203 0.0174
-3.2279 2.1927 -0.0117
-3.2285 2.2103 -0.0402
-3.2388 2.1904 -0.0691
-3.2303 2.2460 -0.1015
-3.2334 2.2568 -0.1337
-3.2330 2.2826 -0.1687
-3.2398 2.2791 -0.2019
-3.2500 2.2613 -0.2333
-3.2568 2.2586 -0.2672
-3.2637 2.2557 -0.3017
-3.2688 2.2614 -0.3387
-3.2729 2.2735 -0.3784
-3.2823 2.2601 -0.4122
-3.2888 2.2619 -0.4509
-3.2963 2.2588 -0.4887
-3.3042 2.2544 -0.5267
-3.3119 2.2518 -0.5660
-3.3303 2.1889 -0.5789
-3.3437 2.1522 -0.6012
-3.3670 2.0530 -0.5897
-3.4001 1.9229 -0.5885
-3.4144 1.8666 -0.5876
-3.4522 1.7080 -0.5718
-3.4596 1.6886 -0.5858
-3.4680 1.6589 -0.5905
-3.4781 1.6106 -0.5774
-3.4854 1.5846 -0.5810
-3.4919 1.5637 -0.5878
-3.4992 1.5316 -0.5824
-3.5114 1.4835 -0.5821
-3.5169 1.4628 -0.5831
-3.5221 1.4446 -0.5858
-3.5270 1.4260 -0.5869
-3.5319 1.4007 -0.5779
-3.5404 1.3668 -0.5770
-3.5443 1.3517 -0.5774
-3.5482 1.3422 -0.5851
-3.5516 1.3209 -0.5739
-3.5550 1.3086 -0.5752
-3.5583 1.2978 -0.5782
-3.5615 1.2884 -0.5830
-3.5644 1.2755 -0.5805
-3.5674 1.2665 -0.5845
-3.5699 1.2534 -0.5797
-3.5727 1.2447 -0.5827
-3.5751 1.2344 -0.5816
-3.5778 1.2272 -0.5864
-3.1531 2.3171 0.4057
-3.1713 2.2696 0.3669
-3.1857 2.2349 0.3331
-3.1896 2.2365 0.3102
-3.1937 2.2380 0.2869
-3.1970 2.2428 0.2638
-3.2087 2.2169 0.2335
-3.2112 2.2249 0.2105
-3.2167 2.2223 0.1849
-3.2193 2.2309 0.1607
-3.2187 2.2528 0.1374
-3.2171 2.2797 0.1134
-3.2141 2.3137 0.0883
-3.2281 2.2786 0.0564
-3.2445 2.2330 0.0250
-3.2458 2.2507 -0.0033
-3.2561 2.2304 -0.0330
-3.2615 2.2315 -0.0627
-3.2569 2.2786 -0.0953
-3.2616 2.2850 -0.1278
-3.2735 2.2581 -0.1580
-3.2804 2.2549 -0.1905
-3.2835 2.2708 -0.2262
-3.2896 2.2730 -0.2610
-3.2961 2.2740 -0.2964
-3.3006 2.2865 -0.3353
-3.3082 2.2830 -0.3714
-3.3159 2.2801 -0.4083
-3.3221 2.2866 -0.4488
-3.3273 2.3002 -0.4929
-3.3381 2.2806 -0.5262
-3.3448 2.2879 -0.5701
-3.3622 2.2227 -0.5835
-3.3759 2.1802 -0.6042
-3.3983 2.0688 -0.5880
-3.4146 1.9957 -0.5859
-3.4279 1.9415 -0.5903
-3.4402 1.8900 -0.5933
-3.4535 1.8240 -0.5840
-3.4642 1.7771 -0.5835
-3.4814 1.7121 -0.5961
-3.4909 1.6618 -0.5852
-3.5120 1.5717 -0.5882
-3.5182 1.5441 -0.5877
-3.5242 1.5139 -0.5827
-3.5347 1.4665 -0.5807
-3.5394 1.4468 -0.5819
-3.5521 1.3919 -0.5826
-3.5558 1.3715 -0.5774
-3.5593 1.3556 -0.5769
-3.5661 1.3300 -0.5820
-3.5690 1.3143 -0.5784
-3.5720 1.3021 -0.5794
-3.5748 1.2895 -0.5788
-3.5774 1.2778 -0.5787
-3.5801 1.2675 -0.5804
-3.5825 1.2562 -0.5792
-3.5849 1.2462 -0.5799
-3.5873 1.2371 -0.5814
-3.5897 1.2292 -0.5850
-2.8492 3.5294 0.8608
-3.1834 2.3358 0.3932
-3.2065 2.2664 0.3479
-3.2162 2.2474 0.3188
-3.2175 2.2608 0.2984
-3.2201 2.2702 0.2762
-3.2318 2.2429 0.2451
-3.2324 2.2613 0.2238
-3.2352 2.2711 0.1998
-3.2222 2.3492 0.1860
-3.2252 2.3611 0.1591
-3.2316 2.3591 0.1296
-3.2370 2.3614 0.1000
-3.2436 2.3589 0.0695
-3.2627 2.2983 0.0354
-3.2750 2.2678 0.0044
-3.2797 2.2742 -0.0254
-3.2846 2.2803 -0.0561
-3.2849 2.3114 -0.0887
-3.2881 2.3291 -0.1225
-3.2982 2.3110 -0.1547
-3.3073 2.2982 -0.1872
-3.3155 2.2904 -0.2204
-3.3214 2.2966 -0.2562
-3.3281 2.2995 -0.2924
-3.3327 2.3168 -0.3327
-3.3407 2.3139 -0.3696
-3.3496 2.3051 -0.4055
-3.3540 2.3296 -0.4520
-3.3667 2.3584 -0.5445
-3.3793 2.3261 -0.5747
-3.4100 2.2038 -0.6048
-3.4298 2.0891 -0.5884
-3.4446 2.0130 -0.5858
-3.4671 1.9161 -0.6003
-3.4894 1.7871 -0.5822
-3.5053 1.7210 -0.5949
-3.5199 1.6467 -0.5931
-3.5266 1.6050 -0.5847
-3.5325 1.5791 -0.5879
-3.5381 1.5474 -0.5839
-3.5432 1.5217 -0.5838
-3.5480 1.4935 -0.5793
-3.5526 1.4770 -0.5857
-3.5568 1.4505 -0.5796
-3.5646 1.4141 -0.5822
-3.5681 1.3953 -0.5808
-3.5713 1.3762 -0.5776
-3.5745 1.3603 -0.5774
-3.5775 1.3446 -0.5764
-3.5803 1.3299 -0.5756
-3.5836 1.3213 -0.5836
-3.5856 1.3032 -0.5752
-3.5886 1.2944 -0.5813
-3.5905 1.2794 -0.5757
-3.5931 1.2703 -0.5797
-3.5951 1.2584 -0.5775
-3.5973 1.2490 -0.5795
-3.5995 1.2398 -0.5811
-3.2371 2.2837 0.3346
-3.2381 2.3017 0.3150
-3.2410 2.3120 0.2924
-3.2479 2.3055 0.2651
-3.2462 2.3387 0.2459
-3.2495 2.3503 0.2208
-3.2506 2.3729 0.1967
-3.2573 2.3699 0.1674
-3.2669 2.3532 0.1360
-3.2696 2.3712 0.1083
-3.2705 2.3998 0.0803
-3.2806 2.3816 0.0476
-3.3040 2.3259 -0.0173
-3.3158 2.3359 -0.0815
-3.3172 2.3703 -0.1166
-3.3284 2.3456 -0.1492
-3.3369 2.3376 -0.1830
-3.3462 2.3244 -0.2163
-3.3533 2.3274 -0.2522
-3.3599 2.3350 -0.2899
-3.3688 2.3274 -0.3255
-3.3772 2.3236 -0.3623
-3.3843 2.3321 -0.4030
-3.3879 2.3748 -0.4553
-3.3963 2.3783 -0.4981
-3.4025 2.4067 -0.5509
-3.4132 2.3916 -0.5893
-3.4300 2.3056 -0.5977
-3.4459 2.2185 -0.6009
-3.4623 2.1096 -0.5887
-3.4742 2.0499 -0.5957
-3.4857 1.9852 -0.5967
-3.4967 1.9138 -0.5900
-3.5146 1.8142 -0.5921
-3.5297 1.7258 -0.5906
-3.5364 1.6783 -0.5831
-3.5424 1.6560 -0.5933
-3.5481 1.6181 -0.5888
-3.5533 1.5865 -0.5874
-3.5582 1.5585 -0.5875
-3.5626 1.5273 -0.5825
-3.5709 1.4823 -0.5848
-3.5775 1.4317 -0.5744
-3.5842 1.3981 -0.5781
-3.5874 1.3838 -0.5816
-3.5898 1.3642 -0.5768
-3.5928 1.3519 -0.5810
-3.5947 1.3330 -0.5744
-3.5977 1.3231 -0.5804
-3.6009 1.3147 -0.5882
-3.6021 1.2967 -0.5793
-3.6042 1.2849 -0.5795
-3.6059 1.2720 -0.5768
-3.6085 1.2642 -0.5829
-3.6101 1.2524 -0.5803
-3.6117 1.2419 -0.5795
-3.6145 1.2363 -0.5883
-3.2649 2.3780 0.2880
-3.2684 2.3908 0.2633
-3.2712 2.4090 0.2387
-3.2769 2.4128 0.2104
-3.2820 2.4210 0.1820
-3.2899 2.4140 0.1509
-3.3043 2.4098 0.0887
-3.3101 2.4179 0.0576
-3.3167 2.4213 0.0253
-3.3302 2.3811 -0.0085
-3.3399 2.3638 -0.0412
-3.3431 2.3934 -0.0750
-3.3456 2.4306 -0.1113
-3.3569 2.4054 -0.1453
-3.3713 2.3535 -0.1759
-3.3801 2.3454 -0.2102
-3.3896 2.3320 -0.2439
-3.3980 2.3287 -0.2795
-3.4064 2.3262 -0.3158
-3.4129 2.3450 -0.3577
-3.4181 2.3827 -0.4064
-3.4244 2.4164 -0.4570
-3.4345 2.4081 -0.4969
-3.4451 2.3932 -0.5348
-3.4557 2.3782 -0.5726
-3.4707 2.2830 -0.5772
-3.4824 2.2323 -0.5965
-3.4959 2.1266 -0.5869
-3.5064 2.0693 -0.5960
-3.5157 2.0315 -0.6128
-3.5252 1.9550 -0.6052
-3.5338 1.8766 -0.5917
-3.5412 1.8202 -0.5877
-3.5480 1.7758 -0.5886
-3.5543 1.7431 -0.5954
-3.5650 1.6573 -0.5868
-3.5691 1.6048 -0.5701
-3.5746 1.5971 -0.5898
-3.5788 1.5689 -0.5903
-3.5888 1.4816 -0.5774
-3.5956 1.4449 -0.5835
-3.6004 1.4016 -0.5762
-3.6035 1.3886 -0.5818
-3.6061 1.3731 -0.5830
-3.6077 1.3538 -0.5776
-3.6108 1.3443 -0.5853
-3.6131 1.3309 -0.5865
-3.6146 1.3152 -0.5828
-3.6157 1.2991 -0.5773
-3.6180 1.2891 -0.5809
-3.6194 1.2761 -0.5784
-3.6214 1.2665 -0.5811
-3.6228 1.2551 -0.5798
-3.6247 1.2464 -0.5829
-3.6271 1.2396 -0.5892
-3.2029 2.9191 0.4219
-3.2992 2.5342 0.2068
-3.3124 2.4968 0.1693
-3.3211 2.4891 0.1362
-3.3313 2.4701 0.1019
-3.3423 2.4457 0.0673
-3.3502 2.4434 0.0344
-3.3597 2.4301 0.0006
-3.3685 2.4221 -0.0331
-3.3766 2.4204 -0.0673
-3.3778 2.4840 -0.1050
-3.3903 2.4457 -0.1393
-3.4037 2.3965 -0.1713
-3.4159 2.3551 -0.2025
-3.4221 2.3803 -0.2420
-3.4395 2.3807 -0.3173
-3.4483 2.3844 -0.3569
-3.4562 2.4062 -0.4022
-3.4646 2.4283 -0.4496
-3.4749 2.4200 -0.4896
-3.4850 2.4173 -0.5319
-3.4953 2.4152 -0.5753
-3.5073 2.3564 -0.5963
-3.5186 2.3012 -0.6161
-3.5301 2.1618 -0.5935
-3.5480 2.0312 -0.6030
-3.5623 1.8941 -0.5937
-3.5684 1.8382 -0.5910
-3.5737 1.7808 -0.5839
-3.5841 1.7098 -0.5920
-3.5880 1.6651 -0.5855
-3.5987 1.5653 -0.5797
-3.6025 1.5446 -0.5857
-3.6054 1.5174 -0.5838
-3.6103 1.4676 -0.5793
-3.6134 1.4508 -0.5838
-3.6157 1.4306 -0.5832
-3.6177 1.4108 -0.5816
-3.6195 1.3913 -0.5791
-3.6200 1.3674 -0.5689
-3.6230 1.3577 -0.5771
-3.6257 1.3468 -0.5829
-3.6260 1.3268 -0.5739
-3.6280 1.3150 -0.5765
-3.6297 1.3028 -0.5774
-3.6322 1.2940 -0.5834
-3.6328 1.2796 -0.5789
-3.6341 1.2681 -0.5782
-3.6356 1.2579 -0.5794
-3.6382 1.2516 -0.5873
-3.6392 1.2412 -0.5865
-3.1960 3.1328 0.5634
-3.2219 3.0299 0.4964
-3.2244 3.0758 0.4683
-3.2254 3.1360 0.4410
-3.2400 3.1060 0.3924
-3.2513 3.0995 0.3486
-3.2642 3.0812 0.3024
-3.3745 2.4847 0.0782
-3.3822 2.4887 0.0448
-3.3887 2.5066 0.0111
-3.3975 2.5044 -0.0242
-3.4486 2.4164 -0.2006
-3.4589 2.3963 -0.2350
-3.4678 2.3996 -0.2730
-3.4943 2.4612 -0.4056
-3.5050 2.4461 -0.4438
-3.5154 2.4444 -0.4862
-3.5260 2.4482 -0.5311
-3.5368 2.4600 -0.5802
-3.5477 2.3736 -0.5918
-3.5577 2.3062 -0.6071
-3.5663 2.2091 -0.6052
-3.5738 2.1191 -0.6014
-3.5805 2.0433 -0.5999
-3.5914 1.9056 -0.5918
-3.5966 1.8571 -0.5946
-3.5999 1.7908 -0.5826
-3.6089 1.7220 -0.5934
-3.6120 1.6803 -0.5900
-3.6145 1.6386 -0.5840
-3.6215 1.5876 -0.5932
-3.6238 1.5160 -0.5755
-3.6294 1.4774 -0.5835
-3.6320 1.4596 -0.5875
-3.6328 1.4342 -0.5811
-3.6356 1.4201 -0.5869
-3.6358 1.3955 -0.5783
-3.6376 1.3798 -0.5797
-3.6389 1.3631 -0.5785
-3.6413 1.3521 -0.5846
-3.6415 1.3332 -0.5779
-3.6431 1.3207 -0.5796
-3.6435 1.3052 -0.5754
-3.6460 1.2970 -0.5825
-3.6469 1.2844 -0.5815
-3.6479 1.2728 -0.5811
-3.6483 1.2601 -0.5777
-3.6489 1.2490 -0.5760
-3.6504 1.2403 -0.5788
-3.2364 3.1237 0.6096
-3.2488 3.1062 0.5653
-3.2553 3.1332 0.5327
-3.2637 3.1487 0.4957
-3.2692 3.1896 0.4630
-3.2781 3.2073 0.4233
-3.2888 3.2128 0.3799
-3.3050 3.1694 0.3273
-3.3208 3.2447 0.2454
-3.3724 3.2303 0.0457
-3.3841 3.2509 -0.0058
-3.3999 3.2160 -0.0587
-3.4146 3.1952 -0.1113
-3.4730 2.5165 -0.1635
-3.4856 2.4450 -0.1945
-3.5052 2.4349 -0.2691
-3.5352 2.4940 -0.4028
-3.5461 2.4718 -0.4399
-3.5801 2.4862 -0.5779
-3.5895 2.4105 -0.5949
-3.5981 2.3398 -0.6102
-3.6042 2.2384 -0.6080
-3.6122 2.0359 -0.5863
-3.6172 1.9790 -0.5912
-3.6224 1.9337 -0.5996
-3.6285 1.8206 -0.5942
-3.6311 1.7720 -0.5918
-3.6377 1.6495 -0.5856
-3.6413 1.5839 -0.5827
-3.6421 1.5497 -0.5766
-3.6453 1.5323 -0.5850
-3.6472 1.5092 -0.5864
-3.6498 1.4910 -0.5916
-3.6481 1.4552 -0.5758
-3.6510 1.4415 -0.5833
-3.6536 1.4280 -0.5902
-3.6545 1.4082 -0.5884
-3.6539 1.3846 -0.5800
-3.6552 1.3692 -0.5809
-3.6552 1.3506 -0.5762
-3.6577 1.3411 -0.5838
-3.6580 1.3252 -0.5806
-3.6585 1.3108 -0.5787
-3.6604 1.3012 -0.5838
-3.6615 1.2899 -0.5852
-3.6610 1.2751 -0.5793
-3.6628 1.2666 -0.5842
-3.6622 1.2529 -0.5780
-3.6640 1.2454 -0.5834
-3.2609 3.3223 0.6792
-3.2900 3.1682 0.5923
-3.2975 3.1973 0.5594
-3.3142 3.1442 0.5043
-3.3247 3.1487 0.4638
-3.3310 3.2010 0.4324
-3.3420 3.2078 0.3896
-3.3535 3.2129 0.3455
-3.3630 3.2452 0.3044
-3.3680 3.3482 0.2703
-3.3846 3.2992 0.2146
-3.3939 3.3645 0.1700
-3.4098 3.3288 0.1151
-3.4233 3.3372 0.0626
-3.4385 3.3157 0.0083
-3.4532 3.3093 -0.0461
-3.4675 3.3165 -0.1016
-3.5116 2.5917 -0.1597
-3.5443 2.4967 -0.2690
-3.5551 2.5160 -0.3128
-3.5659 2.5008 -0.3514
-3.6258 2.5352 -0.5833
-3.6331 2.4486 -0.5979
-3.6373 2.3338 -0.5964
-3.6484 2.1950 -0.6177
-3.6480 2.0785 -0.5987
-3.6483 1.9865 -0.5861
-3.6523 1.9401 -0.5943
-3.6547 1.8858 -0.5953
-3.6558 1.8283 -0.5908
-3.6573 1.7795 -0.5889
-3.6605 1.6986 -0.5889
-3.6628 1.6272 -0.5868
-3.6639 1.5961 -0.5865
-3.6654 1.5695 -0.5883
-3.6666 1.5434 -0.5889
-3.6668 1.5147 -0.5852
-3.6684 1.4941 -0.5882
-3.6685 1.4451 -0.5811
-3.6700 1.4287 -0.5846
-3.6695 1.4060 -0.5792
-3.6706 1.3902 -0.5811
-3.6715 1.3746 -0.5822
-3.6716 1.3573 -0.5797
-3.6733 1.3457 -0.5845
-3.6729 1.3290 -0.5804
-3.6735 1.3159 -0.5809
-3.6735 1.3017 -0.5785
-3.6746 1.2910 -0.5811
-3.6741 1.2773 -0.5774
-3.6755 1.2683 -0.5813
-3.6759 1.2575 -0.5812
-3.6771 1.2488 -0.5842
-3.2872 3.5907 0.7721
-3.3310 3.2586 0.6280
-3.3421 3.2641 0.5873
-3.3565 3.2333 0.5366
-3.3716 3.1907 0.4835
-3.3831 3.1957 0.4417
-3.3922 3.2389 0.4063
-3.4019 3.2846 0.3689
-3.4098 3.3762 0.3360
-3.4231 3.3850 0.2873
-3.4374 3.3786 0.2356
-3.4535 3.3283 0.1793
-3.4679 3.3218 0.1273
-3.4821 3.3293 0.0753
-3.4978 3.2796 0.0207
-3.5121 3.3017 -0.0326
-3.5535 2.5970 -0.1501
-3.5637 2.5317 -0.1842
-3.5747 2.5374 -0.2244
-3.5854 2.5223 -0.2627
-3.5961 2.5072 -0.3009
-3.6071 2.4991 -0.3405
-3.6206 2.5393 -0.3916
-3.6743 2.5875 -0.5891
-3.6769 2.4672 -0.5931
-3.6787 2.3566 -0.5945
-3.6791 2.2480 -0.5908
-3.6784 2.0594 -0.5793
-3.6814 2.0073 -0.5881
-3.6808 1.9351 -0.5825
-3.6845 1.8982 -0.5940
-3.6832 1.8343 -0.5863
-3.6841 1.7895 -0.5877
-3.6870 1.7166 -0.5948
-3.6852 1.6684 -0.5858
-3.6865 1.6389 -0.5893
-3.6864 1.5745 -0.5858
-3.6852 1.5412 -0.5799
-3.6857 1.5171 -0.5809
-3.6860 1.4934 -0.5807
-3.6868 1.4731 -0.5828
-3.6867 1.4510 -0.5814
-3.6859 1.4279 -0.5772
-3.6883 1.4160 -0.5855
-3.6881 1.3972 -0.5840
-3.6895 1.3836 -0.5883
-3.6875 1.3620 -0.5802
-3.6893 1.3510 -0.5861
-3.6882 1.3335 -0.5813
-3.6874 1.3176 -0.5777
-3.6879 1.3054 -0.5787
-3.6884 1.2940 -0.5803
-3.6889 1.2828 -0.5813
-3.6895 1.2724 -0.5830
-3.6906 1.2634 -0.5866
-3.6903 1.2521 -0.5850
-3.3745 3.3690 0.6703
-3.3909 3.3095 0.6099
-3.4045 3.2903 0.5613
-3.4144 3.3379 0.5288
-3.4264 3.3596 0.4880
-3.4382 3.3958 0.4484
-3.4500 3.4496 0.4098
-3.4645 3.4434 0.3585
-3.4796 3.4220 0.3045
-3.4938 3.4472 0.2560
-3.5095 3.4108 0.1996
-3.5249 3.3736 0.1438
-3.5400 3.4293 0.0935
-3.5557 3.4071 0.0374
-3.5712 3.3687 -0.0188
-3.5877 3.3939 -0.0753
-3.5975 2.6708 -0.1449
-3.6053 2.5651 -0.1775
-3.6164 2.5571 -0.2167
-3.6276 2.5490 -0.2563
-3.7305 2.6868 -0.6100
-3.7178 2.1805 -0.5901
-3.7200 2.0551 -0.6040
-3.7125 1.8983 -0.5854
-3.7103 1.7946 -0.5829
-3.7101 1.7530 -0.5842
-3.7093 1.6770 -0.5851
-3.7102 1.6482 -0.5896
-3.7099 1.6167 -0.5901
-3.7079 1.5810 -0.5848
-3.7074 1.5531 -0.5844
-3.7070 1.5272 -0.5843
-3.7063 1.5018 -0.5829
-3.7057 1.4784 -0.5820
-3.7052 1.4373 -0.5822
-3.7045 1.4174 -0.5808
-3.7030 1.3963 -0.5766
-3.7043 1.3835 -0.5818
-3.7040 1.3673 -0.5817
-3.7053 1.3556 -0.5868
-3.7044 1.3393 -0.5842
-3.7032 1.3234 -0.5808
-3.7043 1.3130 -0.5853
-3.7040 1.3002 -0.5849
-3.7022 1.2851 -0.5794
-3.7040 1.2771 -0.5858
-3.7042 1.2668 -0.5873
-3.7037 1.2555 -0.5858
-3.4390 3.4122 0.6488
-3.4654 3.4297 0.5618
-3.4784 3.4686 0.5234
-3.4938 3.4182 0.4644
-3.5079 3.4418 0.4202
-3.5224 3.4670 0.3745
-3.5377 3.4295 0.3179
-3.5528 3.4081 0.2639
-3.5679 3.3868 0.2099
-3.5835 3.3967 0.1584
-3.6011 3.4691 0.1092
-3.6170 3.4466 0.0524
-3.6329 3.4242 -0.0045
-3.6600 2.5914 -0.2103
-3.6716 2.5831 -0.2506
-3.7463 2.6662 -0.4914
-3.7596 2.6577 -0.5377
-3.7842 2.7293 -0.6108
-3.7620 2.2337 -0.6039
-3.7520 2.0557 -0.5947
-3.7424 1.8646 -0.5886
-3.7430 1.8261 -0.5956
-3.7400 1.7411 -0.5974
-3.7321 1.6495 -0.5832
-3.7302 1.5892 -0.5851
-3.7306 1.5659 -0.5895
-3.7278 1.5343 -0.5845
-3.7267 1.5096 -0.5842
-3.7237 1.4807 -0.5779
-3.7239 1.4622 -0.5811
-3.7241 1.4447 -0.5844
-3.7247 1.4289 -0.5887
-3.7207 1.4027 -0.5785
-3.7230 1.3925 -0.5877
-3.7217 1.3749 -0.5860
-3.7199 1.3568 -0.5823
-3.7212 1.3459 -0.5880
-3.7179 1.3265 -0.5797
-3.7178 1.3141 -0.5810
-3.7186 1.3038 -0.5851
-3.7186 1.2925 -0.5865
-3.7158 1.2769 -0.5794
-3.7177 1.2697 -0.5867
-3.4924 3.4631 0.6738
-3.5065 3.4573 0.6263
-3.5205 3.4968 0.5894
-3.5352 3.5389 0.5509
-3.5502 3.4549 0.4835
-3.5652 3.4491 0.4334
-3.5803 3.4431 0.3826
-3.5960 3.4530 0.3336
-3.6135 3.5113 0.2895
-3.6292 3.4891 0.2334
-3.6442 3.4501 0.1758
-3.6613 3.4603 0.1222
-3.6817 3.5215 0.0691
-3.7282 3.6752 -0.0486
-3.7643 2.6727 -0.3864
-3.7898 2.7528 -0.4519
-3.8079 2.7722 -0.5070
-3.8270 2.7927 -0.5645
-3.8370 2.7549 -0.6055
-3.8270 2.6043 -0.6059
-3.8085 2.4218 -0.5859
-3.8064 2.3395 -0.5969
-3.7991 2.2384 -0.5954
-3.7938 2.1547 -0.5964
-3.7862 2.0671 -0.5909
-3.7735 1.8812 -0.5903
-3.7661 1.8158 -0.5805
-3.7651 1.7153 -0.5994
-3.7585 1.6654 -0.5887
-3.7556 1.6303 -0.5871
-3.7504 1.5903 -0.5789
-3.7516 1.5708 -0.5871
-3.7515 1.5485 -0.5915
-3.7513 1.5274 -0.5957
-3.7437 1.4883 -0.5795
-3.7435 1.4697 -0.5830
-3.7438 1.4528 -0.5874
-3.7422 1.4325 -0.5866
-3.7386 1.4090 -0.5803
-3.7371 1.3910 -0.5794
-3.7388 1.3803 -0.5872
-3.7352 1.3594 -0.5799
-3.7351 1.3464 -0.5826
-3.7331 1.3303 -0.5796
-3.7327 1.3178 -0.5811
-3.7326 1.3062 -0.5831
-3.7338 1.2974 -0.5891
-3.7303 1.2811 -0.5810
-3.7300 1.2707 -0.5826
-3.7305 1.2618 -0.5861
-3.5483 3.8065 0.7840
-3.5619 3.4352 0.6311
-3.5775 3.5041 0.6025
-3.5926 3.4986 0.5531
-3.6083 3.5083 0.5064
-3.6250 3.5351 0.4618
-3.6410 3.5296 0.4096
-3.6573 3.5239 0.3567
-3.6705 3.4549 0.2948
-3.6885 3.4798 0.2453
-3.7041 3.4578 0.1896
-3.7373 3.6807 0.1507
-3.7483 2.7452 -0.1607
-3.7580 2.7118 -0.2015
-3.7743 2.7293 -0.2475
-3.7925 2.7564 -0.2968
-3.8075 2.7573 -0.3438
-3.8213 2.7488 -0.3899
-3.8430 2.7869 -0.4471
-3.8767 2.6265 -0.6008
-3.8423 2.2690 -0.5981
-3.8288 2.1592 -0.5884
-3.8201 2.0758 -0.5856
-3.8150 2.0118 -0.5885
-3.8034 1.8909 -0.5875
-3.7966 1.8330 -0.5833
-3.7861 1.7092 -0.5869
-3.7817 1.6700 -0.5848
-3.7780 1.6347 -0.5835
-3.7780 1.6114 -0.5904
-3.7741 1.5790 -0.5875
-3.7684 1.5440 -0.5801
-3.7674 1.5221 -0.5834
-3.7681 1.5052 -0.5907
-3.7646 1.4795 -0.5872
-3.7642 1.4617 -0.5911
-3.7600 1.4369 -0.5854
-3.7577 1.4169 -0.5839
-3.7554 1.3980 -0.5823
-3.7544 1.3823 -0.5837
-3.7520 1.3648 -0.5814
-3.7521 1.3524 -0.5853
-3.7497 1.3362 -0.5825
-3.7474 1.3209 -0.5800
-3.7478 1.3106 -0.5843
-3.7473 1.2991 -0.5860
-3.7466 1.2878 -0.5871
-3.7445 1.2748 -0.5843
-3.7448 1.2658 -0.5880
-3.6350 3.5270 0.6196
-3.6527 3.5706 0.5817
-3.6687 3.5644 0.5304
-3.6841 3.5426 0.4754
-3.7016 3.5535 0.4262
-3.7267 3.6715 0.3927
-3.7578 3.8420 0.3608
-3.8054 2.8335 -0.1557
-3.8136 2.7877 -0.1974
-3.8288 2.7891 -0.2432
-3.8411 2.7717 -0.2873
-3.8583 2.7817 -0.3359
-3.9295 2.6583 -0.5987
-3.9048 2.4864 -0.5865
-3.8977 2.3974 -0.5977
-3.8944 2.3286 -0.6129
-3.8726 2.1957 -0.5951
-3.8485 2.0230 -0.5851
-3.8435 1.9679 -0.5900
-3.8361 1.9086 -0.5894
-3.8225 1.8034 -0.5866
-3.8089 1.7097 -0.5796
-3.8011 1.6408 -0.5811
-3.7987 1.6125 -0.5841
-3.7952 1.5832 -0.5843
-3.7899 1.5323 -0.5868
-3.7833 1.4833 -0.5847
-3.7847 1.4699 -0.5939
-3.7766 1.4383 -0.5806
-3.7768 1.4241 -0.5864
-3.7756 1.4079 -0.5889
-3.7723 1.3885 -0.5858
-3.7675 1.3674 -0.5789
-3.7677 1.3557 -0.5839
-3.7670 1.3428 -0.5864
-3.7631 1.3254 -0.5810
-3.7646 1.3169 -0.5887
-3.7612 1.3015 -0.5840
-3.7611 1.2914 -0.5875
-3.7596 1.2796 -0.5871
-3.7593 1.2699 -0.5898
-3.6951 3.5828 0.6454
-3.7103 3.5613 0.5911
-3.7392 3.7302 0.5793
-3.7584 3.7437 0.5284
-3.8630 2.8989 -0.1482
-3.8655 2.8220 -0.1890
-3.8830 2.8326 -0.2364
-3.8956 2.8148 -0.2814
-3.9082 2.7970 -0.3264
-3.9270 2.8086 -0.3768
-3.9641 2.9015 -0.4463
-3.9929 2.9487 -0.5108
-4.0210 2.9877 -0.5769
-4.0268 2.9323 -0.6182
-3.9957 2.7364 -0.6114
-3.9158 2.2243 -0.5977
-3.8801 2.0270 -0.5778
-3.8770 1.9816 -0.5885
-3.8752 1.9422 -0.6004
-3.8530 1.8477 -0.5759
-3.8502 1.8110 -0.5835
-3.8323 1.6882 -0.5840
-3.8262 1.6510 -0.5821
-3.8156 1.5664 -0.5875
-3.8104 1.5371 -0.5847
-3.8055 1.5100 -0.5821
-3.8014 1.4856 -0.5806
-3.8005 1.4684 -0.5856
-3.7987 1.4501 -0.5881
-3.7933 1.4262 -0.5826
-3.7918 1.4100 -0.5851
-3.7880 1.3905 -0.5822
-3.7912 1.3834 -0.5949
-3.7861 1.3631 -0.5885
-3.7842 1.3487 -0.5892
-3.7785 1.3292 -0.5809
-3.7767 1.3161 -0.5812
-3.7765 1.3058 -0.5853
-3.7753 1.2944 -0.5867
-3.7721 1.2806 -0.5830
-3.7715 1.2709 -0.5857
-3.9169 2.8471 -0.1796
-3.9314 2.8388 -0.2253
-3.9483 2.8406 -0.2728
-3.9677 2.8524 -0.3228
-3.9878 2.8645 -0.3745
-4.0217 2.9303 -0.4389
-4.0560 2.9914 -0.5068
-4.1010 3.0104 -0.6264
-3.9839 2.4211 -0.5839
-3.9540 2.2336 -0.5913
-3.9490 2.1771 -0.6052
-3.9062 1.9819 -0.5795
-3.8872 1.8412 -0.5949
-3.8638 1.7335 -0.5816
-3.8522 1.6621 -0.5837
-3.8485 1.6335 -0.5874
-3.8464 1.6093 -0.5934
-3.8369 1.5713 -0.5851
-3.8285 1.5372 -0.5780
-3.8266 1.5170 -0.5825
-3.8236 1.4955 -0.5846
-3.8178 1.4699 -0.5807
-3.8164 1.4530 -0.5850
-3.8174 1.4408 -0.5939
-3.8111 1.4171 -0.5878
-3.8041 1.3933 -0.5796
-3.8036 1.3804 -0.5845
-3.8039 1.3692 -0.5910
-3.8003 1.3526 -0.5889
-3.7946 1.3337 -0.5818
-3.7944 1.3232 -0.5866
-3.7921 1.3101 -0.5865
-3.7902 1.2980 -0.5870
-3.7866 1.2842 -0.5835
-3.7858 1.2744 -0.5863
-3.9964 2.9162 -0.2210
-4.0095 2.8977 -0.2677
-4.0304 2.9101 -0.3190
-4.0578 2.9452 -0.3758
-4.0901 2.9944 -0.4383
-4.1581 3.1660 -0.5323
-4.1736 3.1441 -0.5877
-4.0980 2.7588 -0.5916
-4.0739 2.6255 -0.5987
-4.0478 2.4937 -0.5994
-4.0252 2.3793 -0.6001
-3.9812 2.1724 -0.5927
-3.9559 2.0687 -0.5801
-3.9542 2.0307 -0.5965
-3.9262 1.9002 -0.5910
-3.9109 1.8368 -0.5837
-3.9076 1.8038 -0.5929
-3.8974 1.7569 -0.5906
-3.8845 1.7067 -0.5828
-3.8811 1.6782 -0.5890
-3.8740 1.6436 -0.5885
-3.8677 1.6121 -0.5885
-3.8593 1.5779 -0.5841
-3.8543 1.5515 -0.5849
-3.8502 1.5279 -0.5868
-3.8417 1.4828 -0.5883
-3.8312 1.4378 -0.5838
-3.8318 1.4258 -0.5922
-3.8256 1.4039 -0.5872
-3.8196 1.3831 -0.5820
-3.8162 1.3670 -0.5816
-3.8166 1.3566 -0.5885
-3.8134 1.3416 -0.5879
-3.8095 1.3263 -0.5855
-3.8043 1.3099 -0.5801
-3.8073 1.3043 -0.5917
-3.7996 1.2859 -0.5805
-3.7997 1.2773 -0.5856
-4.0521 2.9436 -0.2114
-4.0569 2.8937 -0.2550
-4.3784 3.6960 -0.6338
-4.1448 2.7007 -0.6112
-4.0377 2.2690 -0.5855
-4.0238 2.1953 -0.5931
-3.9800 2.0203 -0.5817
-3.9586 1.9127 -0.5897
-3.9357 1.8114 -0.5898
-3.9098 1.7131 -0.5799
-3.9012 1.6563 -0.5915
-3.8873 1.5941 -0.5918
-3.8767 1.5588 -0.5849
-3.8598 1.4851 -0.5841
-3.8572 1.4672 -0.5881
-3.8559 1.4518 -0.5940
-3.8474 1.4265 -0.5866
-3.8457 1.4117 -0.5909
-3.8391 1.3908 -0.5860
-3.8349 1.3738 -0.5850
-3.8304 1.3571 -0.5831
-3.8290 1.3448 -0.5866
-3.8262 1.3314 -0.5875
-3.8201 1.3143 -0.5813
-3.8159 1.3001 -0.5786
-3.8154 1.2907 -0.5831
-3.8154 1.2821 -0.5885
-4.2143 6.5943 1.9298
-4.6855 5.9289 0.2468
-4.4450 3.6843 -0.6124
-4.3033 3.1236 -0.6120
-4.1089 2.3963 -0.5840
-4.0721 2.2295 -0.5982
-4.0349 2.0768 -0.6015
-4.0182 2.0101 -0.6022
-3.9572 1.8053 -0.5776
-3.9573 1.7829 -0.5928
-3.9388 1.7263 -0.5819
-3.9245 1.6608 -0.5877
-3.9205 1.6354 -0.5940
-3.9095 1.5992 -0.5892
-3.8885 1.5180 -0.5879
-3.8839 1.4966 -0.5898
-3.8758 1.4710 -0.5858
-3.8732 1.4540 -0.5900
-3.8666 1.4322 -0.5873
-3.8625 1.4145 -0.5881
-3.8586 1.3978 -0.5891
-3.8486 1.3632 -0.5857
-3.8469 1.3508 -0.5894
-3.8427 1.3360 -0.5884
-3.8402 1.3234 -0.5900
-3.8345 1.3077 -0.5854
-3.8339 1.2982 -0.5902
-3.8302 1.2857 -0.5889
-4.7740 5.8180 0.2666
-4.8375 5.8999 0.1623
-4.8658 5.6883 -0.0614
-4.8158 5.3670 -0.1627
-4.9098 5.5441 -0.2770
-4.9946 5.6781 -0.3987
-4.8861 5.1947 -0.4660
-4.8385 4.9231 -0.5381
-4.4670 3.5516 -0.5663
-4.4851 3.5261 -0.6308
-4.3624 3.1311 -0.5985
-4.3233 2.9705 -0.6132
-4.2090 2.5850 -0.5956
-4.1686 2.4460 -0.5916
-4.1549 2.3743 -0.6075
-4.1000 2.2147 -0.5811
-4.0548 2.0538 -0.5802
-4.0407 1.9961 -0.5853
-4.0344 1.9564 -0.5975
-4.0038 1.8477 -0.5969
-3.9814 1.7836 -0.5852
-3.9771 1.7548 -0.5948
-3.9440 1.6587 -0.5786
-3.9434 1.6398 -0.5904
-3.9231 1.5742 -0.5854
-3.9196 1.5534 -0.5912
-3.9105 1.5251 -0.5883
-3.8985 1.4935 -0.5799
-3.8951 1.4755 -0.5842
-3.8883 1.4410 -0.5915
-3.8733 1.3984 -0.5835
-3.8654 1.3777 -0.5780
-3.8676 1.3700 -0.5892
-3.8634 1.3548 -0.5891
-3.8595 1.3405 -0.5893
-3.8524 1.3232 -0.5835
-3.8499 1.3114 -0.5856
-3.8479 1.3006 -0.5883
-3.8477 1.2918 -0.5939
-4.8444 5.8151 0.3975
-4.8747 5.7724 0.2895
-4.7953 5.3475 0.1641
-4.8381 5.3589 0.0660
-4.9308 5.5309 -0.0344
-4.9603 5.4892 -0.1398
-4.9384 5.2890 -0.2377
-4.6080 3.7465 -0.5875
-4.5698 3.5740 -0.6237
-4.4271 3.1526 -0.5884
-4.3884 3.0012 -0.6072
-4.3033 2.7014 -0.6229
-4.2327 2.4999 -0.6000
-4.1869 2.3616 -0.5911
-4.1406 2.2286 -0.5769
-4.1361 2.1867 -0.5974
-4.0947 2.0734 -0.5805
-4.0524 1.9380 -0.5780
-4.0490 1.9069 -0.5930
-4.0325 1.8537 -0.5923
-3.9905 1.7193 -0.5901
-3.9725 1.6715 -0.5814
-3.9632 1.6394 -0.5826
-3.9393 1.5559 -0.5867
-3.9334 1.5330 -0.5894
-3.9289 1.5128 -0.5935
-3.9134 1.4785 -0.5810
-3.9112 1.4630 -0.5872
-3.9117 1.4513 -0.5973
-3.9033 1.4289 -0.5934
-3.8927 1.4047 -0.5855
-3.8867 1.3867 -0.5841
-3.8846 1.3740 -0.5887
-3.8818 1.3608 -0.5917
-3.8739 1.3423 -0.5860
-3.8707 1.3296 -0.5878
-3.8655 1.3152 -0.5857
-3.8633 1.3042 -0.5885
-3.8616 1.2941 -0.5920
-4.8508 5.7364 0.6156
-4.8335 5.5316 0.4926
-4.7492 5.1072 0.3557
-4.8017 5.1598 0.2703
-4.7744 4.9499 0.1676
-4.8806 5.0484 -0.0114
-5.0548 5.4484 -0.1129
-5.0656 5.3546 -0.2148
-5.0075 5.0712 -0.3018
-5.0179 4.9874 -0.3948
-5.0448 4.9495 -0.4907
-5.0383 4.8257 -0.5747
-4.6745 3.6643 -0.6255
-4.4724 3.0713 -0.6117
-4.3605 2.7260 -0.6179
-4.2542 2.4224 -0.6039
-4.1668 2.1820 -0.5850
-4.1531 2.1260 -0.5968
-4.0862 1.9256 -0.5953
-4.0155 1.7241 -0.5858
-3.9883 1.6471 -0.5817
-3.9771 1.5987 -0.5935
-3.9509 1.5331 -0.5827
-3.9383 1.4900 -0.5868
-3.9293 1.4659 -0.5841
-3.9223 1.4454 -0.5837
-3.9075 1.4053 -0.5800
-3.9005 1.3767 -0.5861
-3.8962 1.3620 -0.5873
-3.8883 1.3442 -0.5827
-3.8862 1.3328 -0.5866
-3.8819 1.3196 -0.5869
-3.8788 1.3079 -0.5887
-4.9802 5.8098 0.6496
-4.8619 5.1642 0.3828
-4.9487 5.3148 0.3046
-4.8852 5.0047 0.1922
-4.9400 5.0541 0.1042
-4.9215 4.8911 0.0098
-5.0405 5.1145 -0.0831
-5.0771 4.9937 -0.2725
-5.3408 5.5604 -0.4178
-5.3123 5.2569 -0.6075
-4.4236 2.7603 -0.6158
-4.3056 2.4467 -0.6017
-4.2740 2.3515 -0.6075
-4.2097 2.2004 -0.5832
-4.1964 2.1469 -0.5970
-4.1574 2.0506 -0.5861
-4.0693 1.8116 -0.5796
-4.0588 1.7754 -0.5854
-4.0224 1.6673 -0.5907
-4.0113 1.6353 -0.5915
-3.9986 1.6022 -0.5894
-3.9755 1.5427 -0.5852
-3.9708 1.5231 -0.5905
-3.9552 1.4908 -0.5810
-3.9437 1.4528 -0.5859
-3.9424 1.4398 -0.5938
-3.9319 1.4168 -0.5883
-3.9197 1.3929 -0.5798
-3.9185 1.3815 -0.5865
-3.9124 1.3653 -0.5859
-3.9116 1.3550 -0.5927
-3.9018 1.3360 -0.5855
-3.8951 1.3207 -0.5826
-3.8917 1.3090 -0.5845
-3.8917 1.3008 -0.5915
-5.0320 5.5062 0.5354
-4.9467 5.1325 0.4010
-4.9426 5.0102 0.3019
-4.9109 4.8153 0.2021
-4.9783 4.8990 0.1204
-4.9316 4.6732 0.0281
-5.0433 4.8679 -0.0579
-5.0848 4.8734 -0.1491
-5.1268 4.8781 -0.2422
-4.8196 3.6829 -0.5922
-4.4735 2.7667 -0.6043
-4.3554 2.4663 -0.5975
-4.2567 2.2245 -0.5836
-4.1966 2.0666 -0.5847
-4.1655 1.9906 -0.5803
-4.1459 1.9357 -0.5835
-4.1369 1.8994 -0.5951
-4.1045 1.8289 -0.5826
-4.0389 1.6619 -0.5789
-4.0379 1.6446 -0.5920
-4.0105 1.5787 -0.5871
-3.9897 1.5255 -0.5862
-3.9823 1.5039 -0.5883
-3.9721 1.4796 -0.5861
-3.9714 1.4670 -0.5958
-3.9495 1.4204 -0.5864
-3.9421 1.4021 -0.5856
-3.9352 1.3849 -0.5849
-3.9281 1.3679 -0.5834
-3.9250 1.3555 -0.5872
-3.9253 1.3467 -0.5957
-3.9161 1.3292 -0.5901
-3.9046 1.3101 -0.5803
-5.4726 0.5291 0.2734
-5.4497 0.5537 0.2720
-5.4379 0.5780 0.2728
-5.4206 0.6024 0.2724
-5.3900 0.6265 0.2694
-5.3595 0.6751 0.2696
-5.2886 0.7202 0.2611
-5.2718 0.7438 0.2607
-5.2599 0.7680 0.2615
-5.2310 0.7898 0.2585
-5.1907 0.8353 0.2562
-5.1575 0.8820 0.2556
-5.1111 0.9247 0.2518
-5.0794 0.9429 0.2477
-5.0503 0.9611 0.2442
-5.0503 0.9895 0.2479
-5.0341 1.0123 0.2476
-4.9754 1.0458 0.2401
-4.9656 1.0709 0.2414
-4.9468 1.0917 0.2403
-4.9281 1.1124 0.2392
-4.9152 1.1363 0.2397
-4.8938 1.1551 0.2378
-4.8762 1.1760 0.2370
-4.8506 1.1912 0.2338
-4.8422 1.2182 0.2356
-4.8196 1.2348 0.2332
-4.7845 1.2749 0.2313
-4.7650 1.2929 0.2297
-4.7496 1.3145 0.2294
-4.7217 1.3236 0.2249
-4.7149 1.3918 0.2324
-4.7119 1.4283 0.2366
-5.9220 4.4135 0.8714
-5.8658 4.4927 0.8703
-5.4807 0.5240 0.2468
-5.4537 0.5490 0.2448
-5.4268 0.5736 0.2427
-5.4055 0.5979 0.2417
-5.3751 0.6220 0.2389
-5.3711 0.6465 0.2410
-5.3577 0.6709 0.2414
-5.3239 0.6940 0.2379
-5.2881 0.7163 0.2339
-5.2898 0.7421 0.2373
-5.2618 0.7647 0.2348
-5.2220 0.7850 0.2298
-5.1652 0.8537 0.2274
-5.1187 0.8966 0.2239
-5.0991 0.9186 0.2229
-5.0708 0.9377 0.2199
-5.0397 0.9552 0.2163
-5.0226 1.0057 0.2190
-5.0003 1.0257 0.2173
-4.9651 1.0395 0.2125
-4.9743 1.0736 0.2181
-4.9641 1.0993 0.2193
-4.9229 1.1084 0.2128
-4.8997 1.1579 0.2143
-4.8756 1.1750 0.2119
-4.8697 1.2040 0.2142
-4.8397 1.2161 0.2101
-4.8240 1.2382 0.2098
-4.8033 1.2562 0.2081
-4.7927 1.2824 0.2092
-4.7746 1.3023 0.2082
-4.7613 1.3265 0.2086
-4.7332 1.3361 0.2046
-4.7120 1.3903 0.2070
-4.7067 1.4242 0.2100
-6.0575 4.3158 0.7957
-5.9597 4.3200 0.7782
-5.8659 4.3243 0.7615
-5.8291 4.4401 0.7683
-5.9932 5.0026 0.8641
-5.5162 0.4933 0.2215
-5.4750 0.5195 0.2175
-5.4670 0.5438 0.2187
-5.4265 0.5691 0.2146
-5.3999 0.5935 0.2128
-5.4050 0.6181 0.2161
-5.3745 0.6424 0.2136
-5.3405 0.6659 0.2105
-5.3348 0.6908 0.2121
-5.3100 0.7145 0.2105
-5.2805 0.7373 0.2080
-5.2757 0.7629 0.2099
-5.2501 0.7858 0.2080
-5.2330 0.8098 0.2077
-5.1903 0.8289 0.2027
-5.1667 0.8509 0.2011
-5.1433 0.8727 0.1995
-5.1268 0.8959 0.1991
-5.1070 0.9182 0.1982
-5.1003 0.9445 0.1998
-5.0481 0.9843 0.1953
-4.9981 1.0229 0.1911
-4.9931 1.0505 0.1932
-4.9690 1.0695 0.1912
-4.9335 1.0821 0.1866
-4.9368 1.1148 0.1905
-4.9151 1.1342 0.1890
-4.8816 1.1459 0.1847
-4.8705 1.1709 0.1854
-4.8547 1.1931 0.1851
-4.7872 1.2433 0.1792
-4.7785 1.2706 0.1806
-4.7565 1.2866 0.1787
-4.7451 1.3120 0.1794
-4.7242 1.3283 0.1777
-4.7196 1.4003 0.1843
-4.6971 1.4151 0.1822
-5.8851 4.3848 0.6829
-5.8108 4.4259 0.6750
-6.1160 5.3044 0.8155
-5.4748 0.5388 0.1910
-5.4342 0.5644 0.1875
-5.4075 0.5891 0.1858
-5.3809 0.6134 0.1841
-5.3469 0.6373 0.1814
-5.3221 0.6609 0.1799
-5.3291 0.6864 0.1832
-5.3006 0.7098 0.1811
-5.3031 0.7360 0.1838
-5.2664 0.7580 0.1805
-5.2600 0.7837 0.1819
-5.2168 0.8037 0.1774
-5.2220 0.8317 0.1806
-5.1761 0.8499 0.1756
-5.1379 0.8685 0.1718
-5.1247 0.8926 0.1720
-5.1147 0.9178 0.1728
-5.0916 0.9392 0.1714
-5.0750 0.9626 0.1711
-4.9959 1.0201 0.1648
-4.9708 1.0387 0.1628
-4.9549 1.0611 0.1625
-4.9419 1.0851 0.1628
-4.9230 1.1060 0.1619
-4.8940 1.1209 0.1591
-4.8783 1.1430 0.1588
-4.8779 1.1751 0.1616
-4.8548 1.1928 0.1598
-4.8364 1.2132 0.1590
-4.8274 1.2407 0.1601
-4.7914 1.2468 0.1555
-4.7758 1.2687 0.1552
-4.7555 1.2863 0.1538
-4.7400 1.3080 0.1535
-4.7369 1.3421 0.1561
-4.7180 1.4003 0.1586
-4.6999 1.4203 0.1577
-5.8482 4.3333 0.5827
-5.8104 4.4496 0.5876
-5.8680 4.7827 0.6256
-5.2645 5.9392 0.6415
-5.4907 0.4852 0.1603
-5.4406 0.5355 0.1578
-5.4232 0.5600 0.1575
-5.4202 0.5845 0.1589
-5.4065 0.6093 0.1591
-5.3708 0.6337 0.1565
-5.3369 0.6575 0.1540
-5.3121 0.6813 0.1527
-5.2987 0.7057 0.1529
-5.2889 0.7307 0.1536
-5.2837 0.7565 0.1548
-5.2389 0.7771 0.1508
-5.2300 0.8025 0.1516
-5.1978 0.8238 0.1492
-5.1991 0.8516 0.1514
-5.1673 0.8724 0.1490
-5.1469 0.8955 0.1482
-5.0894 0.9360 0.1441
-5.0272 1.0013 0.1413
-5.0169 1.0270 0.1419
-4.9497 1.0571 0.1358
-4.9501 1.0879 0.1382
-4.9206 1.1035 0.1357
-4.8889 1.1169 0.1327
-4.8914 1.1502 0.1355
-4.8682 1.1681 0.1340
-4.8496 1.1887 0.1332
-4.8433 1.2180 0.1346
-4.8205 1.2353 0.1331
-4.8046 1.2577 0.1328
-4.7813 1.2739 0.1311
-4.7743 1.3040 0.1325
-4.7475 1.3160 0.1301
-4.7195 1.3258 0.1273
-4.7160 1.3603 0.1295
-4.7091 1.3922 0.1310
-4.6889 1.4095 0.1298
-5.9243 4.3153 0.5009
-5.8863 4.4334 0.5050
-5.8108 4.4753 0.4987
-5.8095 4.6801 0.5139
-5.8691 5.0427 0.5485
-5.2178 5.1812 0.4779
-5.1738 5.3059 0.4817
-5.1407 5.4835 0.4909
-5.4267 0.5553 0.1292
-5.4184 0.5799 0.1298
-5.3968 0.6048 0.1291
-5.3651 0.6292 0.1272
-5.3477 0.6538 0.1269
-5.3228 0.6779 0.1258
-5.3054 0.7023 0.1255
-5.3002 0.7280 0.1265
-5.2623 0.7501 0.1239
-5.2534 0.7756 0.1245
-5.2361 0.8000 0.1241
-5.2187 0.8244 0.1238
-5.1787 0.8441 0.1208
-5.1650 0.8689 0.1209
-5.1480 0.8929 0.1206
-5.1385 0.9190 0.1212
-5.0978 0.9360 0.1180
-5.0736 0.9572 0.1167
-5.0538 0.9797 0.1160
-5.0310 1.0007 0.1149
-4.9831 1.0407 0.1124
-4.9639 1.0623 0.1117
-4.9428 1.0828 0.1107
-4.9238 1.1040 0.1100
-4.9105 1.1284 0.1101
-4.8943 1.1511 0.1098
-4.8728 1.1705 0.1087
-4.8514 1.1895 0.1077
-4.8311 1.2089 0.1067
-4.8270 1.2404 0.1082
-4.7878 1.2443 0.1044
-4.7762 1.2698 0.1047
-4.7739 1.3042 0.1065
-4.7470 1.3164 0.1045
-4.7312 1.3387 0.1042
-4.7049 1.3500 0.1021
-5.9452 4.3772 0.4144
-5.8675 4.4187 0.4088
-5.8292 4.5405 0.4122
-5.9111 4.9387 0.4448
-5.8486 5.0268 0.4436
-5.6857 5.1021 0.4312
-5.7605 5.5708 0.4674
-5.4605 5.8192 0.4512
-5.2497 5.3568 0.4013
-5.1675 5.3405 0.3917
-5.1107 5.4205 0.3906
-5.0429 5.4498 0.3854
-5.5025 0.4743 0.1031
-5.4791 0.4999 0.1023
-5.4720 0.5244 0.1028
-5.4126 0.5754 0.1002
-5.3988 0.6003 0.1002
-5.3773 0.6251 0.0995
-5.3596 0.6500 0.0992
-5.3457 0.6751 0.0992
-5.3206 0.6995 0.0982
-5.2860 0.7227 0.0964
-5.2806 0.7486 0.0971
-5.2477 0.7711 0.0954
-5.2222 0.7943 0.0943
-5.2050 0.8185 0.0940
-5.1697 0.8391 0.0920
-5.1706 0.8670 0.0934
-5.1296 0.9138 0.0921
-5.1051 0.9356 0.0910
-5.1017 0.9641 0.0921
-5.0948 0.9920 0.0928
-5.0378 1.0012 0.0884
-4.9866 1.0405 0.0859
-4.9672 1.0623 0.0853
-4.8890 1.1470 0.0827
-4.8418 1.1824 0.0804
-4.8276 1.2061 0.0803
-4.8217 1.2362 0.0811
-4.8056 1.2590 0.0808
-4.7782 1.2720 0.0792
-4.7623 1.2944 0.0789
-4.7479 1.3183 0.0787
-4.7305 1.3392 0.0783
-4.7042 1.3507 0.0766
-5.8689 4.6526 0.3258
-5.9801 5.1266 0.3569
-5.9848 5.3878 0.3693
-5.9444 5.8347 0.3864
-5.7182 5.4954 0.3519
-5.5962 5.4176 0.3381
-5.5873 5.6798 0.3494
-5.5971 6.0268 0.3662
-5.3905 5.6271 0.3306
-5.2306 5.3420 0.3041
-5.1488 5.3260 0.2965
-5.0700 5.3095 0.2892
-5.0042 5.3402 0.2851
-5.4911 0.4702 0.0727
-5.4733 0.4953 0.0724
-5.4421 0.5211 0.0712
-5.4482 0.5452 0.0724
-5.4068 0.5709 0.0706
-5.4071 0.5957 0.0714
-5.3499 0.6203 0.0685
-5.3413 0.6451 0.0688
-5.3398 0.6706 0.0695
-5.3148 0.6950 0.0687
-5.2887 0.7190 0.0678
-5.2831 0.7450 0.0682
-5.2620 0.7694 0.0677
-5.2281 0.7917 0.0662
-5.1925 0.8129 0.0647
-5.1934 0.8407 0.0656
-5.1871 0.8677 0.0660
-5.1335 0.8833 0.0631
-5.1240 0.9094 0.0634
-5.1206 0.9377 0.0640
-5.1064 0.9631 0.0639
-5.0654 0.9792 0.0619
-5.0363 0.9985 0.0606
-4.9676 1.0609 0.0583
-4.9290 1.1043 0.0572
-4.9099 1.1259 0.0567
-4.8810 1.1412 0.0553
-4.8530 1.1896 0.0551
-4.8300 1.2075 0.0542
-4.8114 1.2283 0.0537
-4.7905 1.2469 0.0529
-4.7682 1.2638 0.0521
-4.7766 1.3081 0.0540
-4.7450 1.3164 0.0522
-4.7268 1.3367 0.0517
-4.7307 1.4216 0.0546
-5.8902 4.7264 0.2308
-5.8701 4.9068 0.2352
-5.8495 5.3504 0.2478
-5.6573 5.3658 0.2362
-5.5404 5.2950 0.2266
-5.4786 5.3821 0.2254
-5.3560 5.2614 0.2139
-5.2563 5.1972 0.2057
-5.1870 5.2315 0.2024
-5.1302 5.3115 0.2013
-5.0734 5.3915 0.2002
-5.0060 5.4211 0.1969
-5.5098 0.4635 0.0438
-5.4674 0.4908 0.0425
-5.4363 0.5166 0.0416
-5.4187 0.5415 0.0413
-5.4282 0.5658 0.0421
-5.4154 0.5911 0.0420
-5.3783 0.6163 0.0408
-5.3517 0.6411 0.0401
-5.3340 0.6661 0.0398
-5.3431 0.6929 0.0406
-5.3034 0.7164 0.0393
-5.2655 0.7392 0.0381
-5.2480 0.7638 0.0378
-5.2224 0.7872 0.0371
-5.2051 0.8117 0.0368
-5.1910 0.8369 0.0366
-5.1703 0.8607 0.0361
-5.1496 0.8844 0.0356
-5.1323 0.9088 0.0353
-5.1107 0.9320 0.0348
-5.0800 0.9519 0.0338
-5.0568 0.9738 0.0332
-5.0368 0.9965 0.0327
-5.0258 1.0228 0.0327
-5.0030 1.0441 0.0321
-4.9737 1.0621 0.0311
-4.9095 1.1578 0.0300
-4.8744 1.1695 0.0287
-4.8408 1.1808 0.0275
-4.8298 1.2071 0.0275
-4.8202 1.2350 0.0275
-4.7974 1.2527 0.0269
-4.7741 1.2693 0.0262
-4.7557 1.2898 0.0257
-4.7398 1.3123 0.0254
-4.7215 1.3326 0.0250
-6.0025 5.0010 0.1386
-5.8921 4.9892 0.1338
-5.8498 5.6677 0.1431
-5.8011 6.1410 0.1488
-5.5817 5.7682 0.1335
-5.3809 5.3997 0.1191
-5.2375 5.1826 0.1095
-5.1562 5.1693 0.1059
-5.1115 5.2970 0.1061
-5.0438 5.3276 0.1038
-4.9876 5.4068 0.1027
-5.5337 0.4561 0.0141
-5.5058 0.4829 0.0135
-5.4456 0.5356 0.0124
-5.4133 0.5865 0.0117
-5.3914 0.6119 0.0113
-5.3770 0.6375 0.0111
-5.3466 0.6624 0.0105
-5.3238 0.6874 0.0100
-5.3107 0.7130 0.0098
-5.2927 0.7383 0.0094
-5.2574 0.7613 0.0087
-5.2396 0.7863 0.0084
-5.2265 0.8120 0.0082
-5.2009 0.8355 0.0077
-5.1646 0.8563 0.0069
-5.1580 0.8834 0.0068
-5.1298 0.9052 0.0063
-5.1051 0.9276 0.0058
-5.0950 0.9542 0.0056
-5.0675 0.9751 0.0051
-5.0473 0.9983 0.0047
-5.0085 1.0136 0.0039
-5.0061 1.0437 0.0039
-4.9805 1.0636 0.0034
-4.9664 1.0889 0.0031
-4.9439 1.1098 0.0027
-4.8960 1.1487 0.0018
-4.8794 1.1721 0.0015
-4.8475 1.1849 0.0008
-4.8245 1.2030 0.0004
-4.7921 1.2486 -0.0003
-4.7759 1.2714 -0.0006
-4.7574 1.2920 -0.0009
-4.7413 1.3148 -0.0012
-4.7104 1.3225 -0.0018
-5.7541 6.0510 0.0255
-5.5411 5.6897 0.0206
-5.3314 5.2809 0.0158
-5.2315 5.2159 0.0137
-5.1497 5.2025 0.0120
-5.0816 5.2341 0.0106
-5.0152 5.2668 0.0093
-4.9793 5.4424 0.0087
-5.4537 0.5555 -0.0183
-5.4353 0.5815 -0.0187
-5.4030 0.6075 -0.0190
-5.3810 0.6331 -0.0193
-5.3493 0.6582 -0.0197
-5.3348 0.6839 -0.0200
-5.3001 0.7080 -0.0203
-5.2822 0.7332 -0.0206
-5.2643 0.7584 -0.0210
-5.2418 0.7829 -0.0213
-5.2161 0.8067 -0.0216
-5.1840 0.8288 -0.0219
-5.1565 0.8800 -0.0226
-5.1315 0.9028 -0.0229
-5.1171 0.9284 -0.0232
-5.0760 0.9455 -0.0234
-5.0618 0.9707 -0.0238
-5.0446 0.9950 -0.0241
-5.0215 1.0169 -0.0244
-5.0005 1.0393 -0.0247
-4.9806 1.0620 -0.0250
-4.9701 1.0892 -0.0254
-4.9649 1.1197 -0.0258
-4.9386 1.1390 -0.0260
-4.9126 1.1578 -0.0263
-4.8818 1.1728 -0.0265
-4.8258 1.2037 -0.0268
-4.8193 1.2342 -0.0273
-4.7980 1.2535 -0.0275
-4.7745 1.2706 -0.0277
-4.7521 1.2879 -0.0280
-4.7420 1.3164 -0.0284
-4.7008 1.3140 -0.0283
-4.7367 1.4340 -0.0300
-5.8704 4.5497 -0.0750
-5.8711 4.7708 -0.0781
-5.8503 5.4729 -0.0879
-5.8041 5.6321 -0.0901
-5.3866 5.2312 -0.0841
-5.2977 5.2160 -0.0838
-5.2385 5.2994 -0.0849
-5.1193 5.1406 -0.0826
-5.0526 5.1742 -0.0830
-4.9969 5.2526 -0.0840
-5.5539 0.4435 -0.0485
-5.5350 0.4701 -0.0489
-5.4973 0.5232 -0.0496
-5.4784 0.5498 -0.0500
-5.4393 0.5767 -0.0499
-5.4107 0.6028 -0.0500
-5.3121 0.6782 -0.0500
-5.3155 0.7052 -0.0508
-5.2845 0.7295 -0.0509
-5.2665 0.7548 -0.0512
-5.2450 0.7797 -0.0514
-5.2349 0.8063 -0.0520
-5.1970 0.8280 -0.0518
-5.1684 0.8507 -0.0518
-5.1540 0.8762 -0.0522
-5.1258 0.8983 -0.0522
-5.0875 0.9169 -0.0519
-5.0805 0.9444 -0.0526
-5.0632 0.9688 -0.0529
-5.0488 0.9943 -0.0533
-5.0383 1.0216 -0.0539
-5.0236 1.0475 -0.0543
-4.9939 1.0665 -0.0542
-4.9701 1.0876 -0.0543
-4.9474 1.1090 -0.0544
-4.9240 1.1295 -0.0545
-4.9044 1.1519 -0.0547
-4.8848 1.1741 -0.0549
-4.8570 1.1904 -0.0548
-4.8378 1.2121 -0.0550
-4.8211 1.2356 -0.0553
-4.8021 1.2571 -0.0555
-4.7785 1.2745 -0.0555
-4.7456 1.3208 -0.0561
-4.7168 1.3315 -0.0557
-5.8507 4.3278 -0.1702
-5.5530 5.8423 -0.2083
-5.2921 5.2503 -0.1848
-5.2063 5.2353 -0.1824
-5.0685 4.9937 -0.1721
-5.0447 5.2054 -0.1779
-4.9885 5.2845 -0.1789
-4.8958 5.1787 -0.1737
-5.5487 0.4635 -0.0813
-5.5466 0.4893 -0.0824
-5.5169 0.5170 -0.0823
-5.4812 0.5447 -0.0820
-5.4483 0.5716 -0.0817
-5.4146 0.5981 -0.0814
-5.3960 0.6243 -0.0818
-5.3871 0.6509 -0.0826
-5.3492 0.6762 -0.0820
-5.3225 0.7016 -0.0820
-5.3088 0.7279 -0.0825
-5.2732 0.7518 -0.0820
-5.2595 0.7780 -0.0826
-5.2323 0.8023 -0.0825
-5.2065 0.8263 -0.0824
-5.1658 0.8469 -0.0815
-5.1482 0.8717 -0.0818
-5.1274 0.8958 -0.0820
-5.1159 0.9224 -0.0827
-5.0850 0.9431 -0.0822
-5.0605 0.9654 -0.0822
-5.0362 0.9873 -0.0821
-5.0257 1.0144 -0.0828
-5.0245 1.0459 -0.0842
-4.9844 1.0603 -0.0830
-4.9763 1.0892 -0.0840
-4.9499 1.1089 -0.0837
-4.9211 1.1267 -0.0832
-4.9101 1.1544 -0.0840
-4.8870 1.1748 -0.0838
-4.8649 1.1953 -0.0838
-4.8479 1.2192 -0.0841
-4.8310 1.2431 -0.0844
-4.8116 1.2651 -0.0846
-4.7901 1.2849 -0.0845
-4.7635 1.2996 -0.0840
-4.7313 1.3081 -0.0829
-4.7093 1.3251 -0.0827
-4.7350 1.4361 -0.0889
-4.7107 1.4527 -0.0885
-5.8314 4.3128 -0.2685
-5.2674 5.5313 -0.2983
-5.1784 5.5095 -0.2933
-5.1423 5.7074 -0.3007
-5.0445 5.6262 -0.2926
-5.0061 5.8257 -0.2999
-5.5807 0.4552 -0.1158
-5.5351 0.4847 -0.1145
-5.4901 0.5133 -0.1132
-5.4749 0.5398 -0.1138
-5.4560 0.5666 -0.1142
-5.4035 0.5934 -0.1123
-5.3948 0.6196 -0.1133
-5.3857 0.6463 -0.1143
-5.3669 0.6728 -0.1147
-5.3294 0.6978 -0.1137
-5.3027 0.7232 -0.1134
-5.2535 0.7734 -0.1132
-5.2352 0.7991 -0.1135
-5.2050 0.8225 -0.1129
-5.1708 0.8446 -0.1120
-5.1530 0.8697 -0.1123
-5.1278 0.8929 -0.1121
-5.0927 0.9128 -0.1109
-5.0823 0.9396 -0.1118
-5.0647 0.9643 -0.1122
-5.0306 0.9829 -0.1110
-5.0075 1.0049 -0.1108
-4.9560 1.0775 -0.1118
-4.9388 1.1017 -0.1121
-4.9331 1.1324 -0.1136
-4.9131 1.1553 -0.1137
-4.8898 1.1759 -0.1134
-4.8701 1.1984 -0.1134
-4.8529 1.2226 -0.1137
-4.8358 1.2468 -0.1141
-4.8163 1.2691 -0.1141
-4.7869 1.2826 -0.1130
-4.7700 1.3064 -0.1133
-4.7436 1.3209 -0.1124
-4.7205 1.3378 -0.1119
-4.7117 1.4563 -0.1185
-5.8906 4.2536 -0.3692
-5.8122 4.2978 -0.3667
-5.2706 5.9658 -0.4323
-5.1218 5.6914 -0.4055
-5.0246 5.6108 -0.3940
-5.5171 0.4807 -0.1458
-5.4685 0.5094 -0.1436
-5.4788 0.5345 -0.1465
-5.4597 0.5615 -0.1469
-5.4406 0.5884 -0.1472
-5.4215 0.6153 -0.1476
-5.3335 0.6666 -0.1436
-5.3233 0.6931 -0.1448
-5.3093 0.7196 -0.1456
-5.2721 0.7721 -0.1463
-5.2326 0.7949 -0.1445
-5.2067 0.8193 -0.1440
-5.1810 0.8434 -0.1436
-5.1555 0.8671 -0.1431
-5.1293 0.8903 -0.1426
-5.1012 0.9125 -0.1417
-5.0689 0.9632 -0.1428
-5.0482 0.9871 -0.1427
-5.0277 1.0108 -0.1427
-5.0035 1.0328 -0.1423
-4.9823 1.0557 -0.1421
-4.9537 1.1082 -0.1436
-4.9361 1.1329 -0.1439
-4.9160 1.1560 -0.1439
-4.8842 1.1715 -0.1422
-4.8670 1.1957 -0.1426
-4.8522 1.2217 -0.1432
-4.8301 1.2424 -0.1429
-4.8130 1.2666 -0.1432
-4.7859 1.2822 -0.1420
-4.7734 1.3102 -0.1430
-4.7087 1.3270 -0.1385
-4.7013 1.4463 -0.1470
-5.8128 4.1253 -0.4545
-5.8315 4.3618 -0.4745
-5.9623 4.8587 -0.5247
-5.4910 6.1622 -0.5831
-5.2999 5.7917 -0.5372
-5.1906 5.7017 -0.5204
-5.0537 5.4572 -0.4892
-5.5032 0.5020 -0.1794
-5.4726 0.5297 -0.1786
-5.4435 0.5569 -0.1778
-5.4343 0.5835 -0.1793
-5.4261 0.6105 -0.1809
-5.4116 0.6378 -0.1818
-5.3676 0.6638 -0.1793
-5.3637 0.6916 -0.1814
-5.3491 0.7190 -0.1823
-5.3072 0.7436 -0.1799
-5.2794 0.7691 -0.1792
-5.2518 0.7942 -0.1784
-5.2201 0.8182 -0.1771
-5.1942 0.8427 -0.1764
-5.1420 0.8904 -0.1750
-5.1168 0.9140 -0.1743
-5.0958 0.9384 -0.1743
-5.0739 0.9624 -0.1740
-5.0599 0.9890 -0.1749
-5.0276 1.0086 -0.1731
-4.9884 1.0243 -0.1702
-4.9628 1.0776 -0.1723
-4.9104 1.1171 -0.1700
-4.9043 1.1480 -0.1722
-4.8760 1.1654 -0.1707
-4.8589 1.1896 -0.1710
-4.8465 1.2173 -0.1722
-4.8292 1.2417 -0.1725
-4.8096 1.2641 -0.1724
-4.8000 1.2949 -0.1742
-4.7730 1.3106 -0.1726
-4.7399 1.3194 -0.1697
-4.7235 1.3854 -0.1740
-4.7225 1.4281 -0.1779
-4.7002 1.4474 -0.1772
-6.4127 4.0137 -0.6115
-6.3208 4.0642 -0.6059
-6.1577 3.9985 -0.5813
-6.0512 4.0094 -0.5702
-5.9495 4.0204 -0.5598
-5.8909 4.1029 -0.5609
-5.8129 4.1475 -0.5562
-5.7926 4.3067 -0.5689
-5.7520 4.4307 -0.5759
-5.7685 4.6909 -0.6021
-5.3462 5.3612 -0.6172
-5.2268 5.2391 -0.5923
-5.1414 5.2238 -0.5812
-5.0822 5.3071 -0.5823
-4.9638 5.4739 -0.5845
-5.5019 0.4968 -0.2124
-5.4472 0.5517 -0.2110
-5.4439 0.5784 -0.2135
-5.4089 0.6055 -0.2117
-5.3672 0.6319 -0.2089
-5.3578 0.6588 -0.2106
-5.3342 0.6851 -0.2103
-5.3017 0.7105 -0.2086
-5.3235 0.7412 -0.2150
-5.2776 0.7649 -0.2113
-5.2806 0.7948 -0.2151
-5.2560 0.8209 -0.2146
-5.1840 0.8371 -0.2065
-5.1698 0.8638 -0.2076
-5.1474 0.8887 -0.2072
-5.1179 0.9113 -0.2057
-5.1078 0.9393 -0.2074
-5.1032 0.9696 -0.2101
-5.0322 1.0082 -0.2047
-4.9773 1.0498 -0.2018
-4.9660 1.0776 -0.2033
-4.9395 1.0978 -0.2019
-4.9160 1.1190 -0.2011
-4.9045 1.1471 -0.2026
-4.8837 1.1696 -0.2022
-4.8638 1.1925 -0.2020
-4.8408 1.2129 -0.2012
-4.8345 1.2457 -0.2039
-4.8139 1.2678 -0.2036
-4.7920 1.2885 -0.2028
-4.7695 1.3082 -0.2019
-4.7480 1.3283 -0.2012
-4.7247 1.3884 -0.2047
-4.7167 1.4236 -0.2075
-4.7075 1.4586 -0.2101
-5.9610 3.5410 -0.6109
-5.8876 3.5880 -0.6061
-5.8519 3.6946 -0.6130
-5.6664 4.0701 -0.6291
-5.5947 4.1131 -0.6241
-5.5551 4.2268 -0.6312
-5.3608 4.3862 -0.6223
-5.3325 4.5403 -0.6354
-5.2641 4.5787 -0.6303
-5.2212 4.6970 -0.6375
-5.1426 4.6935 -0.6264
-5.0773 4.7292 -0.6214
-5.0233 4.8053 -0.6224
-4.9887 4.9666 -0.6355
-4.9525 5.1336 -0.6490
-4.8963 5.2127 -0.6501
-5.4862 0.5185 -0.2467
-5.4471 0.5466 -0.2440
-5.4279 0.5736 -0.2443
-5.3895 0.6006 -0.2416
-5.3942 0.6278 -0.2458
-5.3598 0.6543 -0.2437
-5.3557 0.6820 -0.2466
-5.3137 0.7073 -0.2430
-5.3026 0.7348 -0.2448
-5.2494 0.7572 -0.2391
-5.2166 0.8102 -0.2406
-5.2191 0.8406 -0.2448
-5.1794 0.8626 -0.2413
-5.1495 0.8860 -0.2395
-5.1341 0.9128 -0.2404
-5.1018 0.9346 -0.2380
-5.0903 0.9626 -0.2397
-5.0375 0.9760 -0.2330
-5.0226 1.0021 -0.2339
-4.9891 1.0206 -0.2309
-4.9779 1.0482 -0.2326
-4.9629 1.0744 -0.2335
-4.9077 1.1131 -0.2296
-4.9013 1.1441 -0.2325
-4.8780 1.1652 -0.2315
-4.8638 1.1919 -0.2326
-4.8431 1.2143 -0.2321
-4.8210 1.2352 -0.2313
-4.8082 1.2634 -0.2328
-4.7833 1.2815 -0.2311
-4.7661 1.3058 -0.2314
-4.7467 1.3281 -0.2312
-5.5718 2.9692 -0.5720
-5.5395 3.0502 -0.5771
-5.4835 3.0936 -0.5737
-5.3725 3.3227 -0.5850
-5.3954 3.5276 -0.6147
-5.3258 3.5443 -0.6057
-5.2483 3.5367 -0.5923
-5.2030 3.6004 -0.5932
-5.1578 3.6641 -0.5940
-5.1311 3.7796 -0.6044
-5.0940 3.8709 -0.6101
-5.0476 3.9362 -0.6110
-5.0097 4.0302 -0.6169
-4.9549 4.0668 -0.6127
-4.9320 4.2227 -0.6289
-4.9000 4.3541 -0.6405
-4.8227 4.2936 -0.6204
-4.7566 4.2664 -0.6064
-4.6938 4.2413 -0.5931
-5.4749 0.5138 -0.2784
-5.4555 0.5411 -0.2788
-5.4410 0.5683 -0.2800
-5.4311 0.5957 -0.2822
-5.4174 0.6234 -0.2836
-5.3919 0.6509 -0.2829
-5.3345 0.6762 -0.2760
-5.3109 0.7027 -0.2755
-5.2919 0.7294 -0.2758
-5.2916 0.7585 -0.2799
-5.2464 0.7818 -0.2750
-5.2435 0.8111 -0.2787
-5.2003 0.8333 -0.2739
-5.1691 0.8570 -0.2716
-5.1100 0.9032 -0.2674
-5.1027 0.9640 -0.2748
-5.0270 1.0016 -0.2663
-4.9962 1.0215 -0.2635
-4.9883 1.0511 -0.2663
-4.9703 1.0764 -0.2666
-4.9367 1.0934 -0.2629
-4.9165 1.1169 -0.2625
-4.8847 1.1331 -0.2590
-4.8673 1.1575 -0.2593
-4.8548 1.1853 -0.2610
-4.8460 1.2161 -0.2639
-4.8253 1.2385 -0.2633
-4.8025 1.2589 -0.2620
-4.7732 1.2732 -0.2587
-4.7510 1.2928 -0.2574
-4.7368 1.3196 -0.2587
-5.1473 3.1687 -0.6009
-5.0902 3.3434 -0.6156
-5.0486 3.4019 -0.6164
-5.0071 3.4604 -0.6172
-4.9656 3.5188 -0.6179
-4.9310 3.5995 -0.6232
-4.8957 3.6811 -0.6285
-4.8536 3.7405 -0.6293
-4.8178 3.8246 -0.6348
-4.7693 3.8592 -0.6309
-4.7218 3.8942 -0.6272
-4.6799 3.9531 -0.6279
-4.6428 4.0373 -0.6333
-5.4699 0.5353 -0.3155
-5.4502 0.5630 -0.3159
-5.4246 0.5907 -0.3150
-5.4004 0.6182 -0.3144
-5.3577 0.6449 -0.3098
