ply
format ascii 1.0
element vertex 2095
property float x
property float y
property float z
end_header
-1.8520 0.6998 -0.6038
-1.8175 0.6990 -0.6062
-1.7184 0.7037 -0.6097
-1.6833 0.7029 -0.6122
-1.6479 0.7023 -0.6147
-1.6219 0.7117 -0.6113
-1.4365 0.7343 -0.6104
-3.3159 0.4815 -0.5926
-2.9383 0.9082 -0.4044
-2.6305 1.2549 -0.2515
-2.6164 1.2643 -0.2477
-2.6027 1.2737 -0.2439
-2.5906 1.2719 -0.2454
-2.5787 1.2638 -0.2501
-2.5664 1.2511 -0.2571
-2.5532 1.2467 -0.2600
-2.5394 1.2323 -0.2678
-2.5245 1.2143 -0.2775
-2.5091 1.2046 -0.2831
-2.4731 1.1637 -0.3053
-2.4554 1.1560 -0.3101
-2.4143 1.1246 -0.3278
-2.3872 1.0912 -0.3458
-2.3317 1.0400 -0.3741
-2.3013 1.0142 -0.3885
-2.2662 0.9814 -0.4066
-1.9362 0.6658 -0.5805
-1.8992 0.6615 -0.5847
-1.8548 0.6469 -0.5944
-1.8161 0.6419 -0.5991
-1.7774 0.6378 -0.6033
-1.7437 0.6406 -0.6038
-1.7099 0.6434 -0.6044
-1.6790 0.6496 -0.6031
-1.6453 0.6524 -0.6036
-1.6086 0.6518 -0.6060
-1.5716 0.6512 -0.6084
-1.5410 0.6574 -0.6071
-1.5107 0.6636 -0.6058
-1.4735 0.6630 -0.6082
-1.4361 0.6625 -0.6106
-1.4060 0.6687 -0.6093
-1.3800 0.6781 -0.6061
-1.3594 0.6917 -0.6006
-3.5304 0.3555 -0.6009
-3.4928 0.3586 -0.6016
-3.4552 0.3618 -0.6022
-3.4112 0.3747 -0.5986
-2.8456 1.0130 -0.3367
-2.6827 1.1954 -0.2619
-2.6298 1.2523 -0.2387
-2.6157 1.2618 -0.2351
-2.6018 1.2740 -0.2302
-2.5896 1.2741 -0.2309
-2.5779 1.2650 -0.2357
-2.5656 1.2577 -0.2397
-2.5527 1.2412 -0.2479
-2.5246 1.2214 -0.2585
-2.4915 1.1827 -0.2781
-2.4738 1.1684 -0.2856
-2.4345 1.1348 -0.3031
-2.4121 1.1136 -0.3140
-2.3893 1.0961 -0.3233
-2.3334 1.0417 -0.3512
-2.2636 0.9710 -0.3874
-2.2324 0.9523 -0.3977
-2.1920 0.9170 -0.4161
-1.9735 0.6648 -0.5434
-1.9434 0.6710 -0.5422
-1.9046 0.6632 -0.5479
-1.8483 0.6300 -0.5662
-1.7855 0.5910 -0.5875
-1.7263 0.5608 -0.6045
-1.6844 0.5560 -0.6089
-1.6517 0.5633 -0.6074
-1.6156 0.5663 -0.6079
-1.5826 0.5728 -0.6068
-1.5467 0.5758 -0.6074
-1.5035 0.5710 -0.6118
-1.4715 0.5783 -0.6102
-1.4311 0.5771 -0.6130
-1.3994 0.5843 -0.6114
-1.3670 0.5907 -0.6102
-3.4984 0.2856 -0.5917
-2.8448 1.0077 -0.3178
-2.7464 1.1275 -0.2719
-2.7247 1.1461 -0.2651
-2.7007 1.1760 -0.2536
-2.6824 1.1905 -0.2484
-2.6139 1.2678 -0.2190
-2.6010 1.2735 -0.2172
-2.5886 1.2774 -0.2162
-2.5770 1.2690 -0.2204
-2.5651 1.2542 -0.2273
-2.5522 1.2413 -0.2334
-2.5387 1.2350 -0.2368
-2.4915 1.1831 -0.2613
-2.4746 1.1734 -0.2663
-2.3906 1.0985 -0.3025
-2.3618 1.0646 -0.3184
-2.3366 1.0481 -0.3268
-2.3034 1.0127 -0.3435
-2.2667 0.9749 -0.3615
-2.2358 0.9560 -0.3711
-2.1903 0.9087 -0.3936
-1.9443 0.6659 -0.5096
-1.8990 0.6473 -0.5199
-1.8401 0.6104 -0.5386
-1.7640 0.5525 -0.5672
-1.6796 0.4888 -0.5986
-1.6376 0.4867 -0.6017
-1.6037 0.4951 -0.5998
-1.5658 0.4983 -0.6004
-1.5317 0.5058 -0.5990
-1.4900 0.5046 -0.6016
-1.4433 0.4982 -0.6068
-1.4050 0.5014 -0.6074
-1.3711 0.5089 -0.6059
-1.3331 0.5121 -0.6065
-1.3005 0.5203 -0.6047
-1.2626 0.5235 -0.6053
-1.2189 0.5215 -0.6084
-1.1808 0.5247 -0.6090
-2.7752 1.0860 -0.2694
-2.7007 1.1700 -0.2400
-2.6796 1.1952 -0.2311
-2.6612 1.2146 -0.2244
-2.6438 1.2338 -0.2177
-2.6000 1.2750 -0.2036
-2.5766 1.2647 -0.2088
-2.5645 1.2535 -0.2138
-2.5381 1.2276 -0.2253
-2.4926 1.1929 -0.2411
-2.4560 1.1566 -0.2572
-2.4366 1.1413 -0.2642
-2.4152 1.1225 -0.2726
-2.3672 1.0796 -0.2919
-2.3377 1.0483 -0.3056
-2.2746 0.9907 -0.3314
-2.2396 0.9608 -0.3448
-2.1885 0.9003 -0.3711
-2.1470 0.8672 -0.3862
-2.1028 0.8334 -0.4017
-2.0368 0.7648 -0.4319
-1.9547 0.6769 -0.4705
-1.5988 0.4270 -0.5862
-1.4978 0.4073 -0.5989
-1.4021 0.3974 -0.6074
-1.3611 0.4008 -0.6081
-1.3251 0.4095 -0.6064
-1.0681 0.4196 -0.6150
-2.7972 1.0662 -0.2572
-2.7435 1.1236 -0.2389
-2.6258 1.2572 -0.1960
-2.6120 1.2678 -0.1928
-2.5876 1.2708 -0.1928
-2.5760 1.2642 -0.1958
-2.5638 1.2567 -0.1990
-2.5512 1.2379 -0.2064
-2.5378 1.2305 -0.2097
-2.5083 1.2037 -0.2208
-2.4922 1.1899 -0.2265
-2.4568 1.1597 -0.2391
-2.4358 1.1360 -0.2487
-2.4150 1.1197 -0.2555
-2.3055 1.0116 -0.2997
-2.2687 0.9721 -0.3157
-2.2388 0.9548 -0.3234
-2.1939 0.9074 -0.3426
-2.1041 0.8308 -0.3745
-1.9992 0.7459 -0.4100
-1.9266 0.6782 -0.4379
-1.4726 0.3113 -0.5917
-1.4245 0.3087 -0.5948
-1.3707 0.2999 -0.6005
-1.3326 0.3097 -0.5987
-1.2835 0.3072 -0.6019
-1.2458 0.3170 -0.6001
-1.1963 0.3144 -0.6033
-1.1590 0.3242 -0.6015
-1.0854 0.3435 -0.5979
-1.0492 0.3531 -0.5960
-0.9924 0.3446 -0.6017
-2.7650 1.1012 -0.2285
-2.7172 1.1519 -0.2138
-2.6935 1.1834 -0.2044
-2.6573 1.2198 -0.1939
-2.6250 1.2558 -0.1834
-2.6106 1.2713 -0.1789
-2.5981 1.2771 -0.1775
-2.5869 1.2714 -0.1799
-2.5754 1.2628 -0.1832
-2.5635 1.2485 -0.1885
-2.5229 1.2138 -0.2017
-2.5084 1.2074 -0.2045
-2.4745 1.1711 -0.2180
-2.4564 1.1564 -0.2236
-2.4365 1.1381 -0.2306
-2.4149 1.1170 -0.2385
-2.3681 1.0770 -0.2537
-2.3400 1.0489 -0.2643
-2.3047 1.0061 -0.2800
-2.2795 0.9958 -0.2845
-2.2098 0.9377 -0.3067
-2.1607 0.8856 -0.3261
-2.1069 0.8310 -0.3466
-2.0467 0.7712 -0.3690
-1.9981 0.7381 -0.3821
-1.8472 0.6515 -0.4173
-1.1353 0.1904 -0.6009
-2.7370 1.1307 -0.2034
-2.6728 1.2043 -0.1839
-2.6559 1.2201 -0.1799
-2.6395 1.2378 -0.1752
-2.6238 1.2564 -0.1703
-2.6100 1.2690 -0.1671
-2.5863 1.2691 -0.1680
-2.5748 1.2624 -0.1705
-2.5628 1.2547 -0.1733
-2.5503 1.2442 -0.1770
-2.5228 1.2167 -0.1863
-2.5079 1.2036 -0.1909
-2.4917 1.1876 -0.1964
-2.4563 1.1550 -0.2076
-2.4367 1.1374 -0.2137
-2.3942 1.1026 -0.2259
-2.3674 1.0721 -0.2362
-2.3424 1.0531 -0.2429
-2.2813 0.9967 -0.2624
-2.2090 0.9316 -0.2849
-2.1634 0.8864 -0.3003
-2.0613 0.7921 -0.3329
-1.8779 0.6402 -0.3860
-1.7955 0.5683 -0.4110
-1.7227 0.5167 -0.4295
-1.1734 0.0456 -0.5936
-1.0638 0.0451 -0.5982
-1.0212 0.0583 -0.5960
-0.9618 0.0536 -0.5998
-0.9108 0.0578 -0.6007
-2.8475 1.0098 -0.2156
-2.7822 1.0859 -0.1976
-2.7556 1.1152 -0.1907
-2.7338 1.1345 -0.1863
-2.7121 1.1566 -0.1811
-2.6713 1.2045 -0.1697
-2.6528 1.2283 -0.1640
-2.6379 1.2402 -0.1614
-2.5967 1.2756 -0.1534
-2.5859 1.2658 -0.1565
-2.5743 1.2591 -0.1587
-2.5498 1.2417 -0.1644
-2.5366 1.2293 -0.1682
-2.5223 1.2130 -0.1732
-2.5076 1.2026 -0.1766
-2.4750 1.1744 -0.1855
-2.4567 1.1565 -0.1910
-2.4140 1.1097 -0.2053
-2.3944 1.1007 -0.2085
-2.3721 1.0851 -0.2135
-2.3460 1.0612 -0.2210
-2.3133 1.0232 -0.2326
-2.2827 0.9967 -0.2409
-2.2140 0.9385 -0.2593
-2.1155 0.8373 -0.2904
-2.0749 0.8117 -0.2989
-2.0055 0.7390 -0.3213
-1.9523 0.7008 -0.3336
-1.8784 0.6344 -0.3544
-1.7942 0.5591 -0.3780
-1.7278 0.5162 -0.3922
-0.8472 -0.1396 -0.6034
-0.5886 -0.0949 -0.6013
-2.8150 1.0386 -0.1906
-2.7290 1.1433 -0.1684
-2.6082 1.2695 -0.1424
-2.5958 1.2764 -0.1412
-2.5735 1.2636 -0.1451
-2.5493 1.2383 -0.1521
-2.5361 1.2257 -0.1556
-2.5224 1.2191 -0.1577
-2.4912 1.1846 -0.1671
-2.4373 1.1373 -0.1804
-2.4187 1.1272 -0.1835
-2.3456 1.0571 -0.2030
-2.3160 1.0274 -0.2112
-2.2849 0.9988 -0.2193
-2.2528 0.9722 -0.2268
-2.2153 0.9372 -0.2366
-2.0076 0.7369 -0.2923
-1.9529 0.6956 -0.3042
-1.8861 0.6397 -0.3201
-1.5582 0.3283 -0.4069
-1.4260 0.2125 -0.4396
-0.8897 -0.2435 -0.5687
-0.7764 -0.2995 -0.5862
-0.7039 -0.3071 -0.5907
-0.6307 -0.3147 -0.5951
-2.8053 1.0562 -0.1689
-2.7760 1.0901 -0.1628
-2.7252 1.1494 -0.1519
-2.7057 1.1667 -0.1489
-2.6672 1.2103 -0.1410
-2.6071 1.2713 -0.1301
-2.5947 1.2802 -0.1286
-2.5728 1.2643 -0.1327
-2.5613 1.2486 -0.1364
-2.5489 1.2378 -0.1391
-2.5360 1.2339 -0.1404
-2.4918 1.1894 -0.1513
-2.4754 1.1760 -0.1547
-2.4577 1.1598 -0.1587
-2.4387 1.1427 -0.1629
-2.3946 1.0972 -0.1741
-2.3707 1.0756 -0.1794
-2.3474 1.0598 -0.1836
-2.3231 1.0441 -0.1877
-2.2145 0.9312 -0.2152
-2.1337 0.8632 -0.2324
-2.0770 0.8050 -0.2466
-2.0178 0.7489 -0.2604
-1.9608 0.7025 -0.2722
-1.8937 0.6452 -0.2866
-0.6789 -0.4231 -0.5535
-2.9976 0.8413 -0.1848
-2.8031 1.0556 -0.1516
-2.6486 1.2310 -0.1244
-2.6339 1.2441 -0.1224
-2.6196 1.2582 -0.1203
-2.6062 1.2712 -0.1184
-2.5942 1.2771 -0.1176
-2.5835 1.2701 -0.1193
-2.5607 1.2502 -0.1236
-2.5484 1.2344 -0.1269
-2.5354 1.2265 -0.1287
-2.4921 1.1925 -0.1363
-2.4569 1.1548 -0.1443
-2.4389 1.1424 -0.1471
-2.4177 1.1194 -0.1520
-2.3729 1.0805 -0.1605
-2.3486 1.0607 -0.1649
-2.2904 1.0061 -0.1767
-2.2548 0.9694 -0.1845
-2.1815 0.9061 -0.1984
-2.1357 0.8624 -0.2078
-2.0775 0.8008 -0.2209
-1.9670 0.7069 -0.2415
-1.8926 0.6368 -0.2567
-1.8337 0.5971 -0.2658
-1.3437 0.1483 -0.3632
-0.6512 -0.4690 -0.4978
-0.3977 -0.6699 -0.5424
-0.1674 -0.8321 -0.5793
-0.0518 -0.8661 -0.5891
-2.8238 1.0392 -0.1364
-2.7987 1.0603 -0.1338
-2.7441 1.1248 -0.1254
-2.6483 1.2266 -0.1124
-2.6330 1.2428 -0.1104
-2.6186 1.2590 -0.1083
-2.5830 1.2680 -0.1079
-2.5719 1.2579 -0.1098
-2.5602 1.2489 -0.1115
-2.5479 1.2359 -0.1139
-2.5350 1.2270 -0.1156
-2.5068 1.2014 -0.1204
-2.4919 1.1916 -0.1224
-2.4755 1.1760 -0.1252
-2.4194 1.1248 -0.1348
-2.3505 1.0636 -0.1463
-2.3251 1.0437 -0.1501
-2.2930 1.0095 -0.1563
-2.2588 0.9754 -0.1625
-2.2136 0.9212 -0.1722
-2.1779 0.8942 -0.1774
-2.0420 0.7807 -0.1989
-1.9693 0.7048 -0.2128
-1.9217 0.6768 -0.2185
-1.8418 0.6026 -0.2323
-1.7348 0.4957 -0.2519
-1.5126 0.2984 -0.2888
-1.3419 0.1359 -0.3189
-1.0240 -0.1243 -0.3683
0.2703 -1.2150 -0.5744
-2.8530 1.0049 -0.1226
-2.8219 1.0377 -0.1192
-2.7212 1.1446 -0.1083
-2.6460 1.2324 -0.0992
-2.6173 1.2609 -0.0963
-2.6040 1.2761 -0.0948
-2.5819 1.2729 -0.0958
-2.5713 1.2587 -0.0978
-2.5597 1.2466 -0.0997
-2.5347 1.2276 -0.1028
-2.5208 1.2106 -0.1053
-2.5071 1.2057 -0.1063
-2.4752 1.1741 -0.1111
-2.4384 1.1370 -0.1168
-2.4195 1.1234 -0.1190
-2.3745 1.0809 -0.1256
-2.3495 1.0578 -0.1292
-2.2975 1.0179 -0.1357
-2.2269 0.9473 -0.1465
-2.1866 0.9083 -0.1525
-2.1411 0.8638 -0.1594
-2.1042 0.8407 -0.1633
-2.0497 0.7889 -0.1713
-1.9247 0.6756 -0.1890
-1.8431 0.5978 -0.2010
0.2632 -1.3280 -0.5013
0.5878 -1.5637 -0.5398
-3.0274 0.8030 -0.1204
-2.8186 1.0393 -0.1020
-2.7622 1.1038 -0.0969
-2.6783 1.1949 -0.0899
-2.6602 1.2177 -0.0881
-2.6451 1.2311 -0.0871
-2.6297 1.2496 -0.0857
-2.6157 1.2660 -0.0844
-2.6038 1.2710 -0.0842
-2.5814 1.2709 -0.0847
-2.5708 1.2566 -0.0864
-2.5592 1.2484 -0.0875
-2.5471 1.2393 -0.0887
-2.5345 1.2322 -0.0897
-2.5206 1.2111 -0.0921
-2.5064 1.2011 -0.0935
-2.4917 1.1912 -0.0948
-2.4762 1.1803 -0.0963
-2.4579 1.1575 -0.0990
-2.4390 1.1388 -0.1013
-2.4212 1.1291 -0.1027
-2.3999 1.1086 -0.1053
-2.3510 1.0599 -0.1113
-2.2942 1.0058 -0.1181
-2.2257 0.9406 -0.1262
-2.1899 0.9111 -0.1300
-2.0514 0.7868 -0.1457
-1.9403 0.6946 -0.1576
-1.8625 0.6210 -0.1668
-1.0618 -0.1032 -0.2583
0.9726 -1.8684 -0.4832
-2.8857 0.9585 -0.0895
-2.7125 1.1619 -0.0786
-2.6962 1.1714 -0.0782
-2.6580 1.2216 -0.0755
-2.6286 1.2506 -0.0740
-2.6031 1.2701 -0.0732
-2.5916 1.2741 -0.0731
-2.5814 1.2617 -0.0742
-2.5703 1.2554 -0.0749
-2.5340 1.2278 -0.0777
-2.5204 1.2126 -0.0791
-2.5060 1.1985 -0.0805
-2.4917 1.1915 -0.0813
-2.4758 1.1775 -0.0827
-2.4579 1.1565 -0.0846
-2.4408 1.1457 -0.0857
-2.3990 1.1032 -0.0897
-2.3811 1.0985 -0.0905
-2.3545 1.0681 -0.0933
-2.3262 1.0377 -0.0961
-2.2983 1.0135 -0.0985
-2.2702 0.9923 -0.1006
-2.1578 0.8883 -0.1106
-2.1157 0.8530 -0.1141
-1.6795 0.4470 -0.1531
-2.7829 1.0771 -0.0675
-2.7314 1.1401 -0.0656
-2.6425 1.2329 -0.0631
-2.6140 1.2651 -0.0622
-2.6018 1.2743 -0.0620
-2.5911 1.2721 -0.0623
-2.5805 1.2668 -0.0628
-2.5696 1.2574 -0.0634
-2.5582 1.2491 -0.0641
-2.5462 1.2347 -0.0650
-2.5335 1.2234 -0.0657
-2.5203 1.2142 -0.0664
-2.4905 1.1827 -0.0684
-2.4408 1.1447 -0.0712
-2.3992 1.1018 -0.0740
-2.3545 1.0654 -0.0765
-2.3276 1.0388 -0.0783
-2.3032 1.0234 -0.0795
-2.2690 0.9861 -0.0818
-2.1589 0.8862 -0.0886
-2.1148 0.8466 -0.0913
-1.9345 0.6733 -0.1028
-1.8514 0.5907 -0.1082
-1.7954 0.5562 -0.1109
-1.6910 0.4558 -0.1176
-1.2707 0.0668 -0.1437
-2.8698 0.9805 -0.0524
-2.7779 1.0846 -0.0520
-2.7319 1.1330 -0.0518
-2.6552 1.2233 -0.0514
-2.6129 1.2673 -0.0513
-2.6009 1.2755 -0.0513
-2.5902 1.2743 -0.0516
-2.5578 1.2449 -0.0527
-2.5458 1.2314 -0.0532
-2.5333 1.2272 -0.0535
-2.5063 1.2046 -0.0544
-2.4744 1.1679 -0.0557
-2.4586 1.1588 -0.0561
-2.4417 1.1478 -0.0567
-2.4225 1.1297 -0.0573
-2.4004 1.1046 -0.0582
-2.3793 1.0877 -0.0589
-2.3279 1.0370 -0.0608
-2.2711 0.9878 -0.0628
-2.1610 0.8860 -0.0667
-2.1186 0.8491 -0.0682
-1.9370 0.6714 -0.0749
-1.8021 0.5593 -0.0795
-1.6931 0.4512 -0.0835
-2.6889 1.1817 -0.0389
-2.6690 1.2105 -0.0394
-2.6385 1.2423 -0.0401
-2.5996 1.2800 -0.0409
-2.5896 1.2735 -0.0410
-2.5684 1.2596 -0.0412
-2.5573 1.2448 -0.0413
-2.5453 1.2291 -0.0414
-2.5329 1.2239 -0.0416
-2.5198 1.2145 -0.0417
-2.5063 1.2063 -0.0419
-2.4917 1.1929 -0.0420
-2.4591 1.1611 -0.0423
-2.4210 1.1215 -0.0427
-2.4030 1.1125 -0.0429
-2.3801 1.0883 -0.0431
-2.3564 1.0663 -0.0433
-2.3052 1.0225 -0.0438
-2.2736 0.9907 -0.0441
-2.2059 0.9295 -0.0448
-2.1562 0.8720 -0.0452
-2.1141 0.8358 -0.0456
-2.0769 0.8128 -0.0461
-1.7982 0.5467 -0.0487
-1.7130 0.4723 -0.0496
-1.2206 0.0455 -0.0546
-2.7940 1.0705 -0.0214
-2.7676 1.1011 -0.0227
-2.6385 1.2370 -0.0288
-2.6111 1.2677 -0.0301
-2.5992 1.2771 -0.0306
-2.5788 1.2630 -0.0304
-2.5680 1.2565 -0.0303
-2.5568 1.2448 -0.0301
-2.5450 1.2342 -0.0299
-2.5325 1.2227 -0.0297
-2.5194 1.2122 -0.0296
-2.5054 1.1986 -0.0293
-2.4910 1.1882 -0.0292
-2.4749 1.1706 -0.0289
-2.4602 1.1666 -0.0289
-2.4216 1.1225 -0.0280
-2.3813 1.0901 -0.0276
-2.3613 1.0791 -0.0275
-2.3329 1.0457 -0.0268
-2.3057 1.0206 -0.0264
-2.2758 0.9926 -0.0259
-2.2065 0.9268 -0.0247
-2.1681 0.8922 -0.0241
-2.0759 0.8062 -0.0226
-2.0247 0.7610 -0.0219
-1.9841 0.7381 -0.0217
-1.9101 0.6643 -0.0204
-1.8069 0.5530 -0.0182
-1.5302 0.3173 -0.0144
-0.0482 -1.0121 0.0079
-2.8169 1.0463 -0.0048
-2.7892 1.0772 -0.0069
-2.7674 1.0959 -0.0082
-2.7203 1.1528 -0.0120
-2.7013 1.1724 -0.0133
-2.6836 1.1908 -0.0146
-2.6663 1.2114 -0.0159
-2.6225 1.2584 -0.0191
-2.6097 1.2722 -0.0200
-2.5982 1.2795 -0.0206
-2.5884 1.2719 -0.0202
-2.5780 1.2664 -0.0200
-2.5675 1.2545 -0.0195
-2.5564 1.2406 -0.0188
-2.5445 1.2310 -0.0184
-2.5322 1.2236 -0.0181
-2.5189 1.2088 -0.0174
-2.4913 1.1909 -0.0167
-2.4760 1.1774 -0.0161
-2.4597 1.1628 -0.0155
-2.4413 1.1421 -0.0145
-2.4215 1.1205 -0.0135
-2.4027 1.1072 -0.0130
-2.3815 1.0888 -0.0122
-2.3610 1.0757 -0.0117
-2.3340 1.0462 -0.0103
-2.3065 1.0198 -0.0091
-2.2738 0.9844 -0.0075
-2.2466 0.9666 -0.0067
-2.2085 0.9273 -0.0049
-2.1717 0.8954 -0.0036
-2.1200 0.8383 -0.0009
-2.0783 0.8057 0.0005
-2.0278 0.7612 0.0024
-1.9128 0.6627 0.0067
-1.8103 0.5515 0.0119
-1.7556 0.5200 0.0131
-1.6570 0.4297 0.0171
-1.2171 0.0202 0.0354
-2.9205 0.9223 0.0215
-2.8781 0.9749 0.0168
-2.7636 1.1007 0.0055
-2.7415 1.1239 0.0034
-2.6983 1.1776 -0.0014
-2.6653 1.2102 -0.0043
-2.6490 1.2308 -0.0061
-2.6341 1.2491 -0.0078
-2.6216 1.2587 -0.0087
-2.6090 1.2715 -0.0098
-2.5978 1.2767 -0.0104
-2.5775 1.2655 -0.0096
-2.5670 1.2547 -0.0089
-2.5559 1.2439 -0.0081
-2.5442 1.2320 -0.0072
-2.5320 1.2256 -0.0068
-2.5190 1.2128 -0.0059
-2.5055 1.2022 -0.0051
-2.4906 1.1853 -0.0039
-2.4761 1.1779 -0.0034
-2.4588 1.1570 -0.0019
-2.4231 1.1258 0.0003
-2.4048 1.1134 0.0012
-2.3827 1.0907 0.0028
-2.3564 1.0588 0.0052
-2.3355 1.0477 0.0059
-2.2792 0.9948 0.0097
-2.2476 0.9654 0.0118
-2.2124 0.9320 0.0142
-2.1748 0.8978 0.0166
-2.1420 0.8771 0.0180
-2.0785 0.8013 0.0236
-1.9930 0.7422 0.0276
-1.9269 0.6794 0.0321
-1.4358 0.2305 0.0642
-0.2786 -0.7959 0.1372
-2.7846 1.0777 0.0220
-2.7619 1.1000 0.0194
-2.6798 1.1950 0.0088
-2.6646 1.2080 0.0073
-2.6479 1.2309 0.0047
-2.6201 1.2622 0.0012
-2.5970 1.2781 -0.0006
-2.5871 1.2725 -0.0001
-2.5665 1.2549 0.0016
-2.5316 1.2245 0.0046
-2.5188 1.2126 0.0057
-2.5051 1.1998 0.0070
-2.4753 1.1722 0.0097
-2.4585 1.1542 0.0115
-2.4426 1.1459 0.0123
-2.4269 1.1407 0.0127
-2.4028 1.1041 0.0164
-2.3848 1.0959 0.0171
-2.3348 1.0431 0.0224
-2.3128 1.0310 0.0235
-2.2843 1.0043 0.0261
-2.2512 0.9705 0.0295
-2.2144 0.9327 0.0332
-2.1370 0.8629 0.0400
-2.0397 0.7721 0.0490
-1.9890 0.7301 0.0530
-1.9290 0.6771 0.0582
-1.7662 0.5219 0.0735
-1.6737 0.4382 0.0817
-1.4343 0.2195 0.1031
-1.2878 0.0888 0.1159
-2.8331 1.0273 0.0429
-2.7819 1.0792 0.0359
-2.7558 1.1116 0.0316
-2.7147 1.1551 0.0257
-2.6949 1.1795 0.0224
-2.6785 1.1949 0.0203
-2.6463 1.2333 0.0152
-2.6325 1.2474 0.0133
-2.6199 1.2582 0.0118
-2.5962 1.2786 0.0090
-2.5865 1.2718 0.0098
-2.5765 1.2629 0.0110
-2.5660 1.2530 0.0122
-2.5550 1.2441 0.0133
-2.5434 1.2321 0.0148
-2.5314 1.2255 0.0156
-2.5186 1.2136 0.0171
-2.5051 1.2017 0.0185
-2.4908 1.1878 0.0203
-2.4762 1.1782 0.0214
-2.4418 1.1410 0.0261
-2.4247 1.1294 0.0275
-2.4028 1.1020 0.0310
-2.3406 1.0574 0.0364
-2.3129 1.0283 0.0401
-2.2828 0.9973 0.0440
-2.2248 0.9523 0.0495
-2.1855 0.9123 0.0545
-2.1404 0.8652 0.0604
-2.0503 0.7861 0.0702
-1.9456 0.6985 0.0810
-1.7705 0.5215 0.1031
-1.1851 0.0106 0.1665
0.6560 -1.6415 0.3716
1.8486 -2.7404 0.5083
-2.9402 0.8995 0.0780
-2.8045 1.0535 0.0539
-2.7125 1.1571 0.0376
-2.6452 1.2335 0.0257
-2.6311 1.2500 0.0231
-2.5956 1.2780 0.0187
-2.5857 1.2734 0.0194
-2.5654 1.2565 0.0219
-2.5545 1.2432 0.0239
-2.5430 1.2311 0.0257
-2.5310 1.2234 0.0269
-2.5181 1.2092 0.0290
-2.4907 1.1875 0.0322
-2.4752 1.1714 0.0347
-2.4595 1.1585 0.0366
-2.4430 1.1457 0.0385
-2.4241 1.1255 0.0416
-2.4055 1.1107 0.0438
-2.3389 1.0497 0.0529
-2.2854 1.0008 0.0603
-2.2217 0.9418 0.0691
-2.1833 0.9036 0.0749
-2.1038 0.8350 0.0852
-2.0557 0.7910 0.0918
-1.9541 0.7068 0.1044
-1.8743 0.6252 0.1167
-1.3557 0.1561 0.1871
-1.1966 0.0145 0.2083
0.4845 -1.4838 0.4332
-2.7310 1.1344 0.0537
-2.6917 1.1805 0.0455
-2.6759 1.1950 0.0429
-2.6443 1.2327 0.0362
-2.6173 1.2635 0.0307
-2.6061 1.2699 0.0296
-2.5950 1.2774 0.0282
-2.5852 1.2716 0.0292
-2.5650 1.2547 0.0322
-2.5541 1.2424 0.0344
-2.5427 1.2357 0.0356
-2.5307 1.2246 0.0375
-2.5049 1.2026 0.0414
-2.4906 1.1873 0.0441
-2.4751 1.1699 0.0471
-2.4432 1.1452 0.0515
-2.4241 1.1237 0.0552
-2.4052 1.1077 0.0580
-2.3857 1.0929 0.0606
-2.3635 1.0717 0.0644
-2.3432 1.0602 0.0664
-2.3154 1.0296 0.0718
-2.2867 1.0012 0.0767
-2.2627 0.9879 0.0791
-2.2257 0.9470 0.0863
-2.1864 0.9064 0.0934
-2.1565 0.8891 0.0964
-2.1123 0.8467 0.1039
-2.0606 0.7950 0.1130
-1.8892 0.6425 0.1398
-1.7172 0.4790 0.1685
-1.6192 0.3906 0.1840
-0.1985 -0.8654 0.4046
-2.8242 1.0312 0.0867
-2.7962 1.0634 0.0803
-2.7706 1.0931 0.0743
-2.7499 1.1125 0.0705
-2.7286 1.1364 0.0657
-2.7068 1.1659 0.0598
-2.6891 1.1850 0.0560
-2.6574 1.2186 0.0493
-2.6299 1.2463 0.0438
-2.6166 1.2629 0.0405
-2.6048 1.2738 0.0383
-2.5847 1.2710 0.0389
-2.5750 1.2597 0.0411
-2.5423 1.2326 0.0466
-2.5303 1.2225 0.0486
-2.5043 1.1971 0.0537
-2.4902 1.1850 0.0561
-2.4757 1.1740 0.0583
-2.4613 1.1675 0.0597
-2.4437 1.1468 0.0638
-2.4270 1.1350 0.0662
-2.4068 1.1123 0.0707
-2.3867 1.0941 0.0744
-2.3678 1.0835 0.0765
-2.3430 1.0569 0.0819
-2.2906 1.0082 0.0917
-2.2278 0.9482 0.1037
-2.1956 0.9221 0.1089
-2.1557 0.8835 0.1167
-2.1159 0.8492 0.1236
-2.0626 0.7939 0.1347
-2.0246 0.7706 0.1394
-1.9604 0.7063 0.1523
-1.8801 0.6224 0.1691
-1.8285 0.5891 0.1758
-1.5499 0.3393 0.2260
-1.3975 0.1917 0.2556
-0.1262 -0.9602 0.4869
0.1693 -1.1909 0.5333
1.4059 -2.3722 0.7705
2.0439 -2.8882 0.8742
-2.7696 1.0904 0.0880
-2.6856 1.1931 0.0654
-2.6705 1.2065 0.0624
-2.6557 1.2211 0.0592
-2.6287 1.2479 0.0533
-2.6037 1.2766 0.0469
-2.5839 1.2727 0.0479
-2.5743 1.2613 0.0504
-2.5641 1.2510 0.0528
-2.5300 1.2205 0.0596
-2.5176 1.2126 0.0614
-2.5043 1.1992 0.0644
-2.4909 1.1903 0.0665
-2.4765 1.1793 0.0690
-2.4610 1.1650 0.0722
-2.4443 1.1486 0.0759
-2.3676 1.0804 0.0913
-2.3431 1.0546 0.0971
-2.3195 1.0354 0.1014
-2.2953 1.0174 0.1055
-2.2631 0.9823 0.1134
-2.2303 0.9505 0.1206
-2.1998 0.9274 0.1258
-2.1523 0.8724 0.1382
-2.1151 0.8433 0.1448
-2.0757 0.8131 0.1516
-1.7284 0.4815 0.2264
-1.4241 0.2175 0.2860
-1.1322 -0.0353 0.3430
-0.6937 -0.4205 0.4300
0.0859 -1.1201 0.5879
1.0018 -1.9809 0.7821
-6.9166 -1.2065 0.9635
-6.5393 -0.8312 0.8678
-6.6272 -0.7837 0.8888
-6.4416 -0.5595 0.8413
-6.1153 -0.2614 0.7588
-6.3502 -0.3041 0.8166
-5.8500 0.0674 0.6910
-5.7329 0.2123 0.6610
-5.6258 0.3453 0.6336
-5.4864 0.4872 0.5982
-5.3249 0.6308 0.5574
-5.2963 0.7109 0.5497
-5.1423 0.8372 0.5109
-4.6615 1.4150 0.3880
-4.7066 1.5060 0.3981
-4.7107 1.5546 0.3987
-5.1113 1.8683 0.4934
-5.7155 2.4772 0.6350
-5.9589 2.6155 0.6931
-7.6359 3.5455 1.0934
-7.1310 3.6625 0.9690
-7.0926 3.7457 0.9589
-7.4561 4.0244 1.0449
-7.2935 -1.6218 0.9488
-7.0862 -1.3444 0.9009
-6.5531 -0.8546 0.7794
-6.6842 -0.8348 0.8082
-6.5313 -0.6284 0.7729
-6.2189 -0.3345 0.7016
-5.8816 0.0417 0.6242
-5.6234 0.2618 0.5655
-5.5643 0.3690 0.5516
-5.4299 0.5076 0.5209
-5.3986 0.5934 0.5133
-5.2632 0.7199 0.4825
-5.1719 0.8219 0.4615
-4.7321 1.3517 0.3603
-4.6681 1.4133 0.3457
-4.6352 1.4669 0.3381
-4.6479 1.5131 0.3405
-4.6987 1.5561 0.3514
-4.7835 1.5993 0.3698
-4.8205 1.6486 0.3776
-4.9038 1.6988 0.3956
-4.9565 1.7528 0.4068
-4.9985 1.8088 0.4157
-5.1102 1.8709 0.4398
-5.8282 2.4391 0.5941
-5.7414 2.4907 0.5745
-7.1626 -1.4165 0.8097
-6.6921 -0.9651 0.7143
-6.6585 -0.8316 0.7069
-6.6258 -0.7011 0.6997
-6.2618 -0.3714 0.6260
-5.6269 0.2526 0.4971
-5.5462 0.3712 0.4805
-5.4128 0.5098 0.4534
-5.3092 0.6275 0.4322
-5.2865 0.7736 0.4269
-4.7101 1.3552 0.3099
-4.6842 1.4100 0.3044
-4.6585 1.5603 0.2985
-4.7200 1.6043 0.3104
-4.8296 1.6493 0.3318
-4.9624 1.6993 0.3577
-5.0053 1.7551 0.3658
-5.0778 1.8138 0.3798
-5.1243 1.8744 0.3886
-5.2883 2.0098 0.4202
-5.3961 2.0868 0.4411
-5.7629 2.4305 0.5115
-5.7691 2.5048 0.5123
-6.0803 2.6657 0.5728
-7.6872 4.1746 0.8814
-7.1334 -1.4129 0.6947
-6.6329 -0.8284 0.6056
-6.4821 -0.6222 0.5787
-6.3069 -0.4101 0.5475
-6.1892 -0.1462 0.5261
-5.6996 0.2069 0.4397
-5.8549 0.2106 0.4667
-5.9149 0.2675 0.4769
-5.8173 0.3972 0.4595
-5.4072 0.6509 0.3873
-4.6776 1.3607 0.2580
-4.6721 1.4116 0.2569
-5.0267 1.6998 0.3174
-5.0174 1.7571 0.3155
-5.0091 1.8137 0.3139
-5.0683 1.8737 0.3240
-5.5464 2.3177 0.4053
-5.6340 2.4066 0.4202
-5.7973 2.5193 0.4481
-7.1581 -1.4484 0.5878
-6.6072 -0.8251 0.5043
-6.5351 -0.6690 0.4933
-6.2159 -0.3656 0.4450
-5.8804 0.1034 0.3941
-5.8605 0.2002 0.3909
-5.5805 0.4186 0.3487
-5.4611 0.5494 0.3306
-4.7153 1.3524 0.2177
-4.6898 1.4079 0.2138
-5.1243 1.8799 0.2780
-5.1343 1.9998 0.2793
-5.3463 2.0885 0.3108
-5.4413 2.1684 0.3249
-5.6909 2.2821 0.3620
-5.7262 2.4351 0.3670
-5.7556 2.5155 0.3713
-5.8082 2.6038 0.3790
-6.9916 -1.0991 0.4543
-7.2144 -1.1214 0.4821
-6.7718 -0.7204 0.4269
-6.3384 -0.3508 0.3728
-5.3995 0.4982 0.2555
-5.3858 0.5774 0.2539
-4.7228 1.3499 0.1711
-4.6775 1.4095 0.1655
-5.0945 1.8808 0.2178
-5.1196 2.0016 0.2210
-5.2631 2.0810 0.2390
-5.6850 2.4319 0.2919
-5.7371 2.5178 0.2985
-5.7203 2.5860 0.2964
-4.7312 1.3473 0.1237
-4.6747 1.4094 0.1181
-5.0659 1.8818 0.1586
-5.0848 1.9422 0.1606
-5.6896 2.4397 0.2225
-5.7643 2.5325 0.2303
-4.7185 1.3489 0.0735
-5.0938 1.8864 0.1043
-5.0989 1.9467 0.1049
-5.6939 2.4476 0.1520
-5.8428 2.5613 0.1638
-4.7058 1.3505 0.0234
-5.0652 1.8874 0.0450
-5.0554 1.9459 0.0449
-5.8169 2.4851 0.0865
-5.9791 2.6064 0.0954
-4.7340 1.3439 -0.0258
-5.0934 1.8922 -0.0122
-5.0985 1.9533 -0.0116
-5.6794 2.4579 0.0070
-4.7323 1.3432 -0.0770
-4.6449 1.4122 -0.0761
-5.0492 1.8921 -0.0716
-5.0689 1.9537 -0.0709
-5.7062 2.4718 -0.0663
-4.7192 1.3449 -0.1285
-4.6223 1.4156 -0.1249
-4.6966 1.4554 -0.1264
-5.0633 1.8960 -0.1309
-5.0684 1.9571 -0.1303
-5.6642 2.4682 -0.1403
-4.7383 1.3400 -0.1819
-4.6099 1.4171 -0.1736
-4.6938 1.4556 -0.1777
-5.0627 1.8989 -0.1911
-5.0822 1.9618 -0.1912
-5.6849 2.4052 -0.2175
-5.6684 2.4765 -0.2154
-4.6322 1.3606 -0.2263
-4.6265 1.4136 -0.2249
-4.6118 1.4674 -0.2227
-5.0475 1.9009 -0.2508
-5.1427 1.9714 -0.2574
-5.9172 2.4666 -0.3122
-5.8703 2.5366 -0.3071
-6.9314 3.2450 -0.3816
-7.0885 3.4130 -0.3915
-4.6800 1.3498 -0.2830
-4.6338 1.4117 -0.2767
-4.6481 1.4618 -0.2773
-5.1638 1.8479 -0.3260
-5.1064 1.9083 -0.3186
-5.8174 2.4505 -0.3856
-5.7737 2.5191 -0.3795
-5.9105 2.6374 -0.3921
-6.9043 3.2484 -0.4887
-5.8632 4.1695 -0.3564
-6.0593 -0.8048 -0.5738
-6.0674 -0.7080 -0.5727
-6.1867 -0.5850 -0.5864
-6.1258 -0.4398 -0.5748
-5.9486 -0.1297 -0.5435
-6.0500 -0.0901 -0.5566
-5.1902 0.7533 -0.4197
-4.7869 1.3269 -0.3515
-4.6310 1.4115 -0.3282
-5.0756 1.9092 -0.3782
-6.5943 2.4400 -0.5751
-5.9380 2.5706 -0.4820
-7.4171 3.5734 -0.6629
-6.8209 4.1595 -0.5679
-6.8752 4.2946 -0.5724
-7.0151 4.9044 -0.5780
-6.0023 4.2990 -0.4524
-5.6669 -0.4218 -0.5975
-5.7265 -0.3740 -0.6062
-5.5618 0.1752 -0.5654
-5.5001 0.2929 -0.5523
-5.4628 0.3942 -0.5436
-5.3915 0.5874 -0.5270
-5.2989 0.7036 -0.5088
-4.6503 1.1914 -0.3894
-4.6246 1.2526 -0.3836
-4.6851 1.3467 -0.3913
-4.6280 1.4114 -0.3803
-4.6833 1.4560 -0.3883
-5.0601 1.9111 -0.4396
-5.6963 2.3577 -0.5340
-5.6320 2.4204 -0.5218
-5.8092 2.5443 -0.5481
-6.1644 2.7300 -0.6023
-6.1721 2.8222 -0.6014
-6.1164 2.8922 -0.5904
-6.2203 3.0188 -0.6045
-6.2281 3.1119 -0.6035
-6.2359 3.2049 -0.6025
-6.3549 3.4407 -0.6164
-6.3992 3.5549 -0.6209
-6.2015 3.5423 -0.5885
-6.1919 3.7964 -0.5806
-6.1994 3.8869 -0.5797
-6.2396 3.9988 -0.5836
-6.3483 4.1591 -0.5976
-6.3910 4.2778 -0.6018
-6.4349 4.3990 -0.6061
-6.3719 4.4411 -0.5946
-5.5717 3.9708 -0.4736
-5.2592 -0.5248 -0.6084
-5.2269 -0.4157 -0.5992
-5.2523 -0.3585 -0.6026
-5.2392 -0.2683 -0.5976
-5.2268 -0.1800 -0.5928
-5.2515 -0.1208 -0.5960
-5.3767 -0.1334 -0.6207
-5.3421 -0.0277 -0.6111
-5.1783 0.1609 -0.5742
-5.2021 0.2207 -0.5772
-5.2268 0.2809 -0.5804
-5.1961 0.3739 -0.5719
-5.1851 0.4540 -0.5676
-5.2260 0.5067 -0.5741
-5.1788 0.6035 -0.5623
-5.1342 0.6959 -0.5512
-5.0742 0.7916 -0.5369
-4.7159 1.2266 -0.4556
-4.6770 1.2922 -0.4462
-4.7252 1.3374 -0.4544
-4.7298 1.3928 -0.4538
-4.6809 1.4561 -0.4425
-5.4405 1.6471 -0.5850
-5.5769 1.7214 -0.6095
-5.5835 1.7999 -0.6087
-5.1051 1.9179 -0.5125
-5.7363 2.2123 -0.6272
-5.4345 2.3075 -0.5660
-5.4819 2.3908 -0.5730
-5.5517 2.4824 -0.5841
-5.5580 2.5585 -0.5832
-5.5431 2.6276 -0.5785
-5.5067 2.6880 -0.5698
-5.5343 2.7704 -0.5729
-5.5834 2.8627 -0.5800
-5.6583 2.9684 -0.5917
-5.7859 3.1017 -0.6128
-5.8975 3.2337 -0.6310
-5.7994 3.2642 -0.6111
-5.6606 3.2674 -0.5840
-5.6443 3.3319 -0.5791
-5.7451 3.4640 -0.5951
-5.7767 3.5585 -0.5987
-5.7344 3.6071 -0.5892
-5.7900 3.7182 -0.5970
-5.7967 3.7981 -0.5961
-5.8285 3.8960 -0.5997
-5.8867 4.0146 -0.6078
-5.8420 4.0571 -0.5979
-5.7494 4.0594 -0.5799
-5.6406 4.0436 -0.5592
-4.9307 -0.1656 -0.6015
-4.8847 0.0117 -0.5860
-4.8763 0.0862 -0.5819
-4.9092 0.1282 -0.5880
-4.8729 0.2224 -0.5771
-4.8513 0.3037 -0.5699
-4.8695 0.3569 -0.5724
-4.9305 0.3838 -0.5853
-4.9797 0.4213 -0.5951
-4.9412 0.5116 -0.5839
-4.9184 0.5907 -0.5765
-4.8823 0.6748 -0.5659
-4.9148 0.7236 -0.5717
-4.9483 0.7735 -0.5778
-4.9253 0.8489 -0.5704
-4.9030 0.9221 -0.5633
-4.9214 0.9792 -0.5657
-4.8999 1.0501 -0.5588
-4.7904 1.1455 -0.5315
-4.7184 1.2810 -0.5115
-4.7568 1.3297 -0.5186
-4.7393 1.3904 -0.5129
-5.1974 1.6567 -0.6074
-5.4283 1.7243 -0.6570
-5.4346 1.7992 -0.6562
-5.3031 1.8668 -0.6248
-5.1857 1.9278 -0.5968
-5.0046 1.9749 -0.5550
-5.0692 2.0452 -0.5673
-5.1914 2.1945 -0.5902
-5.2026 2.3285 -0.5888
-5.2252 2.4003 -0.5917
-5.3426 2.7742 -0.6070
-5.3861 2.8606 -0.6141
-5.3736 2.9231 -0.6095
-5.3979 3.0025 -0.6126
-5.3854 3.0641 -0.6080
-5.4098 3.1445 -0.6111
-5.4352 3.2266 -0.6143
-5.4412 3.2981 -0.6136
-5.4275 3.3575 -0.6088
-5.4148 3.4165 -0.6042
-5.4591 3.5126 -0.6113
-5.4919 3.6707 -0.6139
-5.4979 3.7427 -0.6132
-5.5039 3.8148 -0.6124
-5.4302 3.8236 -0.5957
-5.4361 3.8935 -0.5949
-4.6918 -0.1533 -0.6082
-4.6967 -0.0945 -0.6076
-4.6899 -0.0248 -0.6036
-4.7065 0.0231 -0.6063
-4.6996 0.0921 -0.6023
-4.7281 0.1309 -0.6083
-4.6984 0.2177 -0.5980
-4.6914 0.2849 -0.5941
-4.7191 0.3258 -0.5998
-4.6900 0.4081 -0.5898
-4.7178 0.4501 -0.5955
-4.7107 0.5159 -0.5916
-4.7275 0.5663 -0.5943
-4.7435 0.6180 -0.5967
-4.7847 0.6568 -0.6059
-4.7654 0.7287 -0.5987
-4.7469 0.7987 -0.5918
-4.7518 0.8568 -0.5912
-4.7444 0.9200 -0.5873
-4.7493 0.9778 -0.5867
-4.7541 1.0355 -0.5860
-4.7949 1.0815 -0.5949
-4.7874 1.1439 -0.5910
-4.6886 1.2300 -0.5633
-4.6408 1.2978 -0.5490
-4.6874 1.3430 -0.5594
-4.6498 1.4056 -0.5479
-4.9910 1.4738 -0.6320
-5.0716 1.5306 -0.6505
-5.0616 1.5972 -0.6459
-5.0670 1.6624 -0.6452
-5.0268 1.7277 -0.6329
-4.9191 1.7887 -0.6037
-4.8587 1.8458 -0.5866
-4.8636 1.9046 -0.5860
-4.8813 1.9648 -0.5886
-4.8862 2.0240 -0.5879
-4.8655 2.0789 -0.5809
-4.8704 2.1373 -0.5803
-4.8881 2.1986 -0.5828
-4.9060 2.2606 -0.5854
-4.9378 2.3272 -0.5913
-4.9288 2.3829 -0.5872
-4.9478 2.4471 -0.5900
-4.9658 2.5117 -0.5925
-5.0131 2.5882 -0.6020
-5.1068 2.6862 -0.6226
-5.0516 2.7235 -0.6074
-4.9859 2.7528 -0.5899
-5.0336 2.8340 -0.5994
-5.0672 2.9102 -0.6054
-5.0876 2.9808 -0.6083
-5.1235 3.0609 -0.6149
-5.1595 3.1427 -0.6214
-5.0879 3.1591 -0.6027
-5.0931 3.2214 -0.6021
-5.1447 3.3148 -0.6121
-5.2140 3.4231 -0.6262
-5.2195 3.4883 -0.6255
-5.1917 3.5286 -0.6172
-5.1815 3.5809 -0.6129
-5.1243 3.5947 -0.5980
-5.0710 3.6087 -0.5841
-4.4899 0.2638 -0.5981
-4.4762 0.3313 -0.5919
-4.4986 0.3686 -0.5969
-4.5030 0.4210 -0.5964
-4.5265 0.4592 -0.6017
-4.5400 0.5058 -0.6039
-4.5590 0.6058 -0.6059
-4.5534 0.6655 -0.6022
-4.5200 0.7406 -0.5902
-4.5152 0.7977 -0.5869
-4.5287 0.8448 -0.5891
-4.5619 0.8830 -0.5971
-4.5756 0.9317 -0.5993
-4.5780 1.2039 -0.5907
-4.5447 1.2667 -0.5791
-4.5395 1.3204 -0.5758
-4.5343 1.3737 -0.5725
-4.5109 1.4296 -0.5639
-4.5905 1.4686 -0.5851
-4.5705 1.5759 -0.5757
-4.5460 1.6292 -0.5670
-4.5791 1.6790 -0.5746
-4.6220 1.7305 -0.5850
-4.6264 1.7831 -0.5844
-4.6308 1.8358 -0.5839
-4.6459 1.8894 -0.5863
-4.6601 1.9434 -0.5884
-4.6752 1.9982 -0.5909
-4.6905 2.0536 -0.5933
-4.6950 2.1074 -0.5927
-4.7548 2.4425 -0.5981
-4.7594 2.4973 -0.5975
-4.7520 2.5470 -0.5937
-4.7796 2.6117 -0.5993
-4.8193 2.6833 -0.6080
-4.8351 2.7449 -0.6104
-4.8640 2.8139 -0.6162
-4.8820 2.8782 -0.6190
-4.8989 2.9426 -0.6216
-4.9170 3.0083 -0.6245
-4.8831 3.0421 -0.6137
-4.8879 3.0991 -0.6131
-4.8926 3.1562 -0.6125
-4.9107 3.2226 -0.6153
-4.9155 3.2800 -0.6147
-4.8945 3.3179 -0.6075
-4.9117 3.3843 -0.6100
-4.9299 3.4522 -0.6129
-4.9471 3.5200 -0.6154
-4.3696 0.0929 -0.6217
-4.3451 0.2243 -0.6092
-4.3420 0.2796 -0.6062
-4.3532 0.3216 -0.6082
-4.3501 0.3765 -0.6052
-4.3542 0.4249 -0.6047
-4.3582 0.4733 -0.6041
-4.3857 0.5036 -0.6116
-4.3735 0.5648 -0.6056
-4.3703 0.6186 -0.6026
-4.3744 0.6670 -0.6021
-4.3784 0.7154 -0.6015
-4.3825 0.7639 -0.6010
-4.3938 0.8080 -0.6029
-4.3741 0.8698 -0.5945
-4.3863 0.9134 -0.5967
-4.3904 0.9616 -0.5962
-4.4027 1.0060 -0.5984
-4.4567 1.0332 -0.6143
-4.4567 1.1361 -0.6105
-4.4263 1.1972 -0.5987
-4.4269 1.2965 -0.5953
-4.3870 1.4033 -0.5788
-4.4721 1.4359 -0.6043
-4.4431 1.4902 -0.5932
-4.4386 1.5396 -0.5899
-4.4759 1.5848 -0.6000
-4.4715 1.6345 -0.5967
-4.4755 1.6834 -0.5962
-4.4633 1.7323 -0.5906
-4.4501 1.7802 -0.5847
-4.4541 1.8281 -0.5841
-4.4832 1.8782 -0.5914
-4.4872 1.9268 -0.5909
-4.5000 1.9767 -0.5930
-4.4954 2.0241 -0.5898
-4.5082 2.0745 -0.5920
-4.5438 2.1793 -0.5993
-4.5479 2.2290 -0.5987
-4.5334 2.2729 -0.5925
-4.5375 2.3220 -0.5920
-4.5416 2.3712 -0.5915
-4.5645 2.4277 -0.5966
-4.5776 2.4811 -0.5987
-4.5818 2.5311 -0.5982
-4.5670 2.5720 -0.5920
-4.5901 2.6309 -0.5971
-4.5943 2.6808 -0.5966
-4.6176 2.7413 -0.6016
-4.6711 2.8205 -0.6155
-4.7057 2.8907 -0.6237
-4.6595 2.9113 -0.6085
-4.6243 2.9365 -0.5965
-4.6285 2.9867 -0.5960
-4.6724 3.0651 -0.6068
-4.6767 3.1164 -0.6063
-4.6513 3.1450 -0.5973
-4.6165 3.1648 -0.5856
-4.6114 3.2066 -0.5825
-4.6247 3.2636 -0.5846
-4.1829 0.4209 -0.5971
-4.2122 0.4412 -0.6064
-4.1964 0.5030 -0.5985
-4.2072 0.5409 -0.6008
-4.1912 0.6011 -0.5929
-4.2342 0.6139 -0.6072
-4.2648 0.6386 -0.6167
-4.2623 0.6888 -0.6139
-4.2555 0.7890 -0.6076
-4.2456 0.8424 -0.6021
-4.2494 0.8869 -0.6016
-4.2331 0.9426 -0.5938
-4.2240 0.9932 -0.5887
-4.2404 1.0305 -0.5929
-4.2377 1.0774 -0.5901
-4.2717 1.1544 -0.5987
-4.2625 1.2036 -0.5936
-4.2829 1.2881 -0.5973
-4.2736 1.3362 -0.5922
-4.2567 1.3853 -0.5845
-4.2407 1.4329 -0.5771
-4.2771 1.4701 -0.5881
-4.3015 1.5110 -0.5949
-4.3052 1.5555 -0.5944
-4.3089 1.6001 -0.5939
-4.2785 1.6467 -0.5816
-4.2955 1.6899 -0.5858
-4.3134 1.7338 -0.5902
-4.3028 1.7778 -0.5848
-4.2864 1.8206 -0.5775
-4.2967 1.8645 -0.5793
-4.3071 1.9089 -0.5811
-4.3387 1.9567 -0.5901
-4.3646 2.0051 -0.5971
-4.3539 2.0474 -0.5917
-4.3498 2.0904 -0.5886
-4.3468 2.1332 -0.5859
-4.3573 2.1795 -0.5877
-4.3757 2.2287 -0.5921
-4.4450 2.4317 -0.6079
-4.4251 2.4675 -0.5996
-4.4448 2.5209 -0.6043
-4.4566 2.5712 -0.6064
-4.4830 3.0701 -0.5958
-4.4950 3.1228 -0.5978
-4.5071 3.1761 -0.5998
-4.1134 0.3416 -0.6211
-4.1143 0.4321 -0.6176
-4.1178 0.4741 -0.6172
-4.1099 0.5267 -0.6120
-4.1134 0.5683 -0.6115
-4.1116 0.6145 -0.6089
-4.1266 0.6466 -0.6132
-4.1301 0.6885 -0.6127
-4.1336 0.7303 -0.6123
-4.1192 0.7850 -0.6046
-4.1227 0.8263 -0.6041
-4.1440 0.8559 -0.6109
-4.1296 0.9089 -0.6033
-4.1330 0.9503 -0.6028
-4.1567 1.1541 -0.6031
-4.1691 1.2351 -0.6043
-4.1671 1.2786 -0.6017
-4.1945 1.3129 -0.6106
-4.1860 1.3583 -0.6055
-4.1774 1.4031 -0.6004
-4.1865 1.4434 -0.6021
-4.1900 1.4851 -0.6016
-4.2000 1.5258 -0.6037
-4.1913 1.5691 -0.5986
-4.1648 1.6133 -0.5868
-4.1982 1.6521 -0.5977
-4.1895 1.6940 -0.5927
-4.1872 1.7351 -0.5901
-4.2143 1.7768 -0.5985
-4.2055 1.8177 -0.5935
-4.2089 1.8590 -0.5930
-4.2066 1.8997 -0.5904
-4.2101 1.9408 -0.5900
-4.2512 2.0714 -0.5999
-4.2489 2.1119 -0.5974
-4.2456 2.1518 -0.5945
-4.2559 2.1957 -0.5965
-4.2526 2.2352 -0.5936
-4.2561 2.2769 -0.5931
-4.2723 2.3236 -0.5972
-4.2758 2.3656 -0.5968
-4.2734 2.4050 -0.5942
-4.3025 2.4592 -0.6028
-4.3001 2.4988 -0.6003
-4.3036 2.5412 -0.5998
-4.3131 2.5870 -0.6015
-4.3167 2.6296 -0.6010
-4.3143 2.6685 -0.5985
-4.3238 2.7148 -0.6001
-4.3344 2.7620 -0.6021
-4.3249 2.7958 -0.5971
-4.3345 2.8425 -0.5987
-4.3249 2.8753 -0.5938
-4.3285 2.9176 -0.5933
-4.3451 2.9703 -0.5973
-4.3700 3.0305 -0.6041
-4.3807 3.0797 -0.6061
-4.3629 3.1043 -0.5984
-3.9938 0.4171 -0.6144
-4.0074 0.4449 -0.6187
-4.0133 0.7740 -0.6063
-4.0121 0.8158 -0.6040
-4.0153 0.8541 -0.6036
-4.0132 0.8962 -0.6008
-4.0164 0.9344 -0.6004
-4.0392 0.9603 -0.6085
-4.0478 0.9959 -0.6104
-4.0259 1.0489 -0.5992
-4.0291 1.0871 -0.5988
-4.0323 1.1253 -0.5984
-4.0419 1.2398 -0.5971
-4.0305 1.2833 -0.5906
-4.0382 1.3196 -0.5921
-4.0569 1.3527 -0.5982
-4.0633 1.4294 -0.5974
-4.0610 1.4689 -0.5947
-4.0540 1.5089 -0.5900
-4.0878 1.5423 -0.6023
-4.0762 1.5828 -0.5957
-4.0542 1.6234 -0.5850
-4.0620 1.6607 -0.5865
-4.0755 1.6982 -0.5903
-4.0937 1.7362 -0.5960
-4.0762 1.7741 -0.5872
-4.0699 1.8114 -0.5830
-4.0986 1.8513 -0.5928
-4.1018 1.8896 -0.5924
-4.1097 1.9287 -0.5939
-4.1234 1.9691 -0.5977
-4.1057 2.0035 -0.5889
-4.1184 2.1563 -0.5872
-4.1577 2.2450 -0.5993
-4.1445 2.2775 -0.5924
-4.1526 2.3182 -0.5939
-4.1509 2.3548 -0.5916
-4.1815 2.4068 -0.6017
-4.1848 2.4462 -0.6013
-4.1940 2.4888 -0.6031
-4.2284 2.6990 -0.6077
-4.2231 2.7705 -0.6024
-4.2205 2.8057 -0.5997
-4.2067 2.8320 -0.5929
-4.2210 2.8801 -0.5966
-4.2304 2.9245 -0.5984
-4.2397 2.9693 -0.6002
-3.9243 0.5251 -0.6207
-3.9188 0.5707 -0.6161
-3.9261 0.6028 -0.6178
-3.9421 0.6269 -0.6237
-3.9279 0.6801 -0.6150
-3.9310 0.7165 -0.6146
-3.9470 0.7417 -0.6204
-3.9327 0.7930 -0.6117
-3.9432 0.8623 -0.6130
-3.9536 0.9322 -0.6143
-3.9421 1.0165 -0.6052
-3.9912 1.1034 -0.6227
-3.9988 1.1384 -0.6243
-3.9827 1.4478 -0.6026
-3.9995 1.4811 -0.6084
-4.0071 1.5169 -0.6100
-4.0102 1.5536 -0.6096
-4.0040 1.5914 -0.6051
-4.0055 1.6646 -0.6023
-4.0224 1.7006 -0.6080
-4.0286 1.7740 -0.6073
-4.0223 1.8102 -0.6028
-4.0206 1.8462 -0.6003
-4.0237 1.8825 -0.6000
-4.0267 1.9188 -0.5996
-4.0345 1.9560 -0.6012
-4.0422 1.9934 -0.6028
-4.0436 2.0654 -0.6000
-4.0466 2.1018 -0.5996
-4.0401 2.1352 -0.5952
-4.0383 2.1697 -0.5928
-4.0558 2.2112 -0.5985
-4.0588 2.2476 -0.5981
-4.0715 2.2883 -0.6017
-4.0988 2.3363 -0.6114
-4.0874 2.3665 -0.6050
-4.0807 2.3985 -0.6005
-4.0789 2.4326 -0.5981
-4.0917 2.4748 -0.6017
-4.1252 2.5299 -0.6138
-4.1028 2.5516 -0.6030
-4.0862 2.5757 -0.5945
-4.0893 2.6122 -0.5941
-4.0972 2.6521 -0.5957
-4.1003 2.6887 -0.5954
-4.1034 2.7253 -0.5950
-4.1014 2.7580 -0.5926
-4.1095 2.7985 -0.5942
-4.1125 2.8351 -0.5938
-4.1206 2.8761 -0.5954
-4.1186 2.9083 -0.5930
-3.8184 0.5944 -0.6073
-3.8322 0.6161 -0.6128
-3.8351 0.6501 -0.6124
-3.8706 0.6889 -0.6272
-3.8346 0.8328 -0.6030
-3.8331 0.8700 -0.6004
-3.8324 0.9061 -0.5983
-3.8500 0.9281 -0.6055
-3.8380 0.9727 -0.5976
-3.8549 1.0317 -0.6026
-3.8691 1.0581 -0.6080
-3.8676 1.0947 -0.6054
-3.8519 1.1391 -0.5958
-3.8610 1.2038 -0.5968
-3.8682 1.2352 -0.5987
-3.8630 1.2722 -0.5944
-3.8902 1.3656 -0.6025
-3.8958 1.4333 -0.6018
-3.8914 1.4690 -0.5979
-3.8998 1.5699 -0.5968
-3.9182 1.6017 -0.6039
-3.9174 1.6361 -0.6018
-3.9000 1.6713 -0.5918
-3.9379 1.7382 -0.6063
-3.9046 1.7713 -0.5890
-3.9195 1.8053 -0.5943
-3.9298 1.8397 -0.5974
-3.9289 1.8731 -0.5953
-3.9279 1.9063 -0.5932
-3.9223 1.9384 -0.5889
-3.9401 2.0081 -0.5938
-3.9392 2.0408 -0.5917
-3.9751 2.0843 -0.6065
-3.9609 2.1134 -0.5984
-3.9476 2.1417 -0.5906
-3.9418 2.1721 -0.5864
-3.9656 2.2141 -0.5955
-3.9637 2.2460 -0.5930
-3.9665 2.2799 -0.5926
-3.9742 2.3161 -0.5944
-3.9770 2.3501 -0.5941
-3.9798 2.3841 -0.5937
-3.9992 2.4277 -0.6006
-4.0157 2.4704 -0.6063
-3.9884 2.4861 -0.5926
-3.9824 2.5143 -0.5884
-3.9979 2.5568 -0.5936
-4.0185 2.6035 -0.6009
-4.0302 2.6447 -0.6044
-4.0331 2.6796 -0.6040
-4.0400 2.7176 -0.6054
-4.0251 2.7379 -0.5973
-4.0369 2.7800 -0.6008
-4.0398 2.8147 -0.6004
-4.0427 2.8494 -0.6000
-3.7590 0.6530 -0.6112
-3.7650 0.6813 -0.6127
-3.7711 0.7098 -0.6143
-3.7771 0.7385 -0.6158
-3.7832 0.7674 -0.6173
-3.7825 0.8030 -0.6151
-3.7818 0.8384 -0.6129
-3.7913 0.8646 -0.6163
-3.7837 0.9056 -0.6103
-3.8036 0.9238 -0.6194
-3.7987 0.9967 -0.6130
-3.8187 1.0168 -0.6221
-3.7833 1.1415 -0.5976
-3.7982 1.1992 -0.6020
-3.8096 1.2598 -0.6046
-3.8409 1.4140 -0.6122
-3.8644 1.6081 -0.6138
-3.8480 1.6748 -0.6020
-3.8528 1.8970 -0.5927
-3.8554 1.9286 -0.5923
-3.8710 1.9944 -0.5967
-3.8774 2.0273 -0.5982
-3.8735 2.0574 -0.5946
-3.8827 2.0914 -0.5975
-3.8930 2.1262 -0.6008
-3.9146 2.1658 -0.6097
-3.9060 2.1939 -0.6038
-3.9011 2.2230 -0.5998
-3.9038 2.2553 -0.5995
-3.9065 2.2875 -0.5991
-3.8976 2.3137 -0.5933
-3.9003 2.3457 -0.5929
-3.9030 2.3776 -0.5926
-3.9134 2.4143 -0.5959
-3.9199 2.4489 -0.5974
-3.9187 2.4786 -0.5952
-3.9331 2.5188 -0.6003
-3.9358 2.5513 -0.6000
-3.9503 2.5926 -0.6051
-3.9412 2.6163 -0.5993
-3.9440 2.6488 -0.5989
-3.9388 2.6748 -0.5949
-3.9494 2.7138 -0.5982
-3.9481 2.7428 -0.5960
-3.9588 2.7824 -0.5993
-3.6946 0.7182 -0.6082
-3.6946 0.7509 -0.6064
-3.6862 0.7924 -0.5996
-3.6971 0.8134 -0.6042
-3.6962 0.8466 -0.6019
-3.7189 0.8571 -0.6136
-3.7130 0.8953 -0.6083
-3.6952 0.9434 -0.5960
-3.7062 0.9657 -0.6006
-3.7206 0.9857 -0.6073
-3.7111 1.0252 -0.6000
-3.7085 1.0588 -0.5967
-3.7161 1.0847 -0.5993
-3.7186 1.1145 -0.5990
-3.7236 1.1740 -0.5984
-3.7208 1.2067 -0.5951
-3.7172 1.2396 -0.5913
-3.7457 1.2873 -0.6040
-3.7535 1.3151 -0.6067
-3.7420 1.3511 -0.5984
-3.7471 1.3800 -0.5996
-3.7459 1.4419 -0.5955
-3.7520 1.4706 -0.5971
-3.7545 1.5005 -0.5968
-3.7596 1.5298 -0.5980
-3.7594 1.5602 -0.5962
-3.7658 1.6799 -0.5929
-3.7953 1.7396 -0.6055
-3.7888 1.7698 -0.6003
-3.7666 1.7984 -0.5868
-3.7938 1.8303 -0.5996
-3.7921 1.9192 -0.5938
-3.8132 1.9532 -0.6032
-3.8129 1.9830 -0.6014
-3.8062 2.0109 -0.5962
-3.8049 2.0399 -0.5940
-3.8168 2.0731 -0.5985
-3.8259 2.1058 -0.6016
-3.8285 2.1363 -0.6012
-3.8348 2.1684 -0.6029
-3.8241 2.1931 -0.5957
-3.8361 2.2278 -0.6003
-3.8263 2.2521 -0.5936
-3.8383 2.2873 -0.5981
-3.8247 2.3087 -0.5896
-3.8243 2.3369 -0.5878
-3.8297 2.3686 -0.5889
-3.8389 2.4029 -0.5920
-3.8376 2.4304 -0.5897
-3.8343 2.4564 -0.5865
-3.8658 2.5074 -0.6007
-3.8490 2.5235 -0.5907
-3.8476 2.5506 -0.5884
-3.8501 2.5806 -0.5881
-3.8594 2.6164 -0.5912
-3.8620 2.6466 -0.5908
-3.8743 2.6855 -0.5953
-3.6426 0.8013 -0.6070
-3.6474 0.8270 -0.6083
-3.6473 0.8582 -0.6064
-3.6472 0.8891 -0.6045
-3.6546 0.9126 -0.6074
-3.6570 0.9412 -0.6071
-3.6543 0.9742 -0.6036
-3.6592 1.0004 -0.6049
-3.6692 1.0226 -0.6093
-3.6690 1.0533 -0.6074
-3.6655 1.2058 -0.5965
-3.6674 1.2928 -0.5924
-3.7123 1.5393 -0.6037
-3.7147 1.5680 -0.6034
-3.7407 1.9119 -0.5982
-3.7340 1.9939 -0.5895
-3.7683 2.1444 -0.6003
-3.7829 2.1787 -0.6067
-3.7787 2.2048 -0.6028
-3.7727 2.2295 -0.5979
-3.7722 2.2568 -0.5960
-3.7803 2.2887 -0.5988
-3.7742 2.3125 -0.5939
-3.7737 2.3393 -0.5920
-3.7732 2.3660 -0.5902
-3.7756 2.3945 -0.5899
-3.7780 2.4229 -0.5896
-3.7861 2.4556 -0.5923
-3.7914 2.4864 -0.5935
-3.7967 2.5174 -0.5948
-3.8078 2.5532 -0.5990
-3.8132 2.5847 -0.6002
-3.8224 2.6197 -0.6035
-3.8278 2.6517 -0.6047
-3.8244 2.6757 -0.6013
-3.5997 0.8123 -0.6123
-3.5905 0.8524 -0.6042
-3.5977 0.8740 -0.6073
-3.6065 0.8942 -0.6114
-3.5906 0.9398 -0.5989
-3.6061 0.9536 -0.6075
-3.6042 0.9847 -0.6044
-3.6090 1.0094 -0.6058
-3.6062 1.0408 -0.6022
-3.6135 1.0636 -0.6052
-3.6132 1.0927 -0.6033
-3.6315 1.1076 -0.6134
-3.6270 1.1400 -0.6087
-3.6158 1.1765 -0.5996
-3.6265 1.1979 -0.6049
-3.6202 1.2303 -0.5991
-3.6174 1.2601 -0.5955
-3.6247 1.2840 -0.5985
-3.6201 1.3144 -0.5938
-3.6309 1.3369 -0.5990
-3.6314 1.3646 -0.5976
-3.6399 1.4446 -0.5978
-3.6422 1.4715 -0.5975
-3.6374 1.5003 -0.5929
-3.6396 1.5270 -0.5926
-3.6559 1.5507 -0.6011
-3.6582 1.5778 -0.6008
-3.6605 1.6050 -0.6005
-3.6583 1.6326 -0.5974
-3.6730 1.6586 -0.6048
-3.6726 1.6861 -0.6029
-3.6749 1.7134 -0.6026
-3.6628 1.7406 -0.5936
-3.6669 1.7675 -0.5944
-3.6845 1.7955 -0.6033
-3.6768 1.8219 -0.5970
-3.6917 1.8507 -0.6043
-3.6859 1.8768 -0.5992
-3.6809 1.9026 -0.5945
-3.6804 1.9290 -0.5926
-3.6899 1.9578 -0.5967
-3.6849 1.9829 -0.5920
-3.6853 2.0092 -0.5907
-3.7078 2.0430 -0.6023
-3.7101 2.0704 -0.6020
-3.7068 2.0957 -0.5984
-3.6961 2.1175 -0.5906
-3.7170 2.1529 -0.6011
-3.7295 2.1853 -0.6067
-3.7057 2.1996 -0.5913
-3.7079 2.2266 -0.5910
-3.7102 2.2536 -0.5908
-3.7096 2.2789 -0.5888
-3.7222 2.3124 -0.5945
-3.7198 2.3365 -0.5915
-3.7296 2.3688 -0.5955
-3.7319 2.3961 -0.5952
-3.7189 2.4121 -0.5863
-3.7470 2.4587 -0.6005
-3.7387 2.4780 -0.5943
-3.7678 2.5793 -0.6057
-3.5465 0.8952 -0.6037
-3.5565 0.9405 -0.6072
-3.5734 0.9514 -0.6173
-3.5821 0.9713 -0.6217
-3.5695 1.0118 -0.6110
-3.5692 1.0401 -0.6089
-3.5739 1.0639 -0.6104
-3.5719 1.0934 -0.6072
-3.5757 1.1180 -0.6081
-3.5695 1.1503 -0.6020
-3.5700 1.1772 -0.6006
-3.5805 1.1970 -0.6061
-3.5785 1.2257 -0.6029
-3.5705 1.2577 -0.5957
-3.5679 1.3124 -0.5906
-3.5743 1.3354 -0.5932
-3.5931 1.4329 -0.5990
-3.5978 1.5104 -0.5970
-3.6020 1.6136 -0.5931
-3.6195 1.6635 -0.6011
-3.6101 1.6900 -0.5934
-3.6278 1.7412 -0.6014
-3.6148 1.7666 -0.5914
-3.6231 1.7925 -0.5951
-3.6325 1.8189 -0.5994
-3.6346 1.8448 -0.5991
-3.6368 1.8707 -0.5989
-3.6317 1.8953 -0.5940
-3.6564 1.9775 -0.6046
-3.6567 2.0032 -0.6031
-3.6736 2.0344 -0.6119
-3.6565 2.0538 -0.5997
-3.6651 2.0825 -0.6034
-3.6673 2.1087 -0.6031
-3.6723 2.1363 -0.6046
-3.6819 2.1662 -0.6088
-3.6739 2.1875 -0.6023
-3.6714 2.2112 -0.5992
-3.6689 2.2346 -0.5961
-3.6692 2.2594 -0.5947
-3.6733 2.2865 -0.5955
-3.6736 2.3113 -0.5941
-3.6804 2.3404 -0.5966
-3.6775 2.4112 -0.5902
-3.6911 2.4461 -0.5967
-3.6885 2.4683 -0.5936
-3.6906 2.4943 -0.5933
-3.5111 0.9289 -0.6067
-3.5213 0.9446 -0.6125
-3.5193 0.9738 -0.6092
-3.5197 1.0003 -0.6077
-3.5365 1.0106 -0.6184
-3.5239 1.0497 -0.6072
-3.5259 1.0744 -0.6069
-3.5313 1.0962 -0.6091
-3.5243 1.1286 -0.6021
-3.5296 1.1505 -0.6043
-3.5358 1.1720 -0.6070
-3.5362 1.1980 -0.6056
-3.5283 1.2296 -0.5980
-3.5404 1.2474 -0.6050
-3.5366 1.2757 -0.6005
-3.5504 1.2933 -0.6087
-3.5423 1.3238 -0.6012
-3.5351 1.3532 -0.5943
-3.5464 1.3730 -0.6007
-3.5451 1.3991 -0.5980
-3.5548 1.4204 -0.6032
-3.5398 1.4516 -0.5909
-3.5546 1.4713 -0.5996
-3.5507 1.4978 -0.5952
-3.5527 1.5221 -0.5949
-3.5547 1.5465 -0.5946
-3.5594 1.5703 -0.5962
-3.5727 1.5927 -0.6037
-3.5731 1.6178 -0.6022
-3.5690 1.6433 -0.5978
-3.5789 1.6672 -0.6029
-3.5793 1.6921 -0.6014
-3.5716 1.7171 -0.5946
-3.5816 1.7416 -0.5997
-3.5872 1.7665 -0.6018
-3.5893 1.7913 -0.6016
-3.5914 1.8161 -0.6013
-3.5854 1.8399 -0.5957
-3.5982 1.8662 -0.6026
-3.5976 1.8906 -0.6005
-3.6060 1.9169 -0.6044
-3.5981 1.9393 -0.5976
-3.6065 1.9659 -0.6015
-3.6041 1.9893 -0.5982
-3.6107 2.0157 -0.6009
-3.6191 2.0430 -0.6048
-3.6148 2.0655 -0.6004
-3.6187 2.0912 -0.6013
-3.6227 2.1170 -0.6022
-3.6312 2.1452 -0.6061
-3.6268 2.1671 -0.6017
-3.6289 2.1921 -0.6014
-3.6208 2.2112 -0.5946
-3.6313 2.2410 -0.5997
-3.6268 2.2618 -0.5953
-3.6270 2.2853 -0.5938
-3.6328 2.3126 -0.5959
-3.6265 2.3313 -0.5904
-3.6332 2.3594 -0.5930
-3.6306 2.3805 -0.5898
-3.6411 2.4119 -0.5949
-3.6394 2.4336 -0.5922
-3.6386 2.4558 -0.5902
-3.6388 2.4788 -0.5888
-3.6427 2.5051 -0.5897
-3.4739 0.9651 -0.6058
-3.4870 1.0798 -0.6071
-3.4946 1.0982 -0.6113
-3.4876 1.1299 -0.6041
-3.4929 1.1507 -0.6063
-3.5006 1.1698 -0.6105
-3.5042 1.1923 -0.6115
-3.4988 1.2217 -0.6056
-3.4991 1.2465 -0.6040
-3.5011 1.2701 -0.6038
-3.4964 1.2978 -0.5985
-3.4950 1.3232 -0.5957
-3.4919 1.3492 -0.5917
-3.5006 1.3688 -0.5965
-3.5025 1.3922 -0.5962
-3.5166 1.4346 -0.6033
-3.5084 1.4621 -0.5955
-3.5035 1.4878 -0.5902
-3.5072 1.5104 -0.5912
-3.5091 1.5335 -0.5909
-3.5213 1.5541 -0.5982
-3.5250 1.5772 -0.5992
-3.5304 1.6001 -0.6015
-3.5367 1.6231 -0.6044
-3.5343 1.6474 -0.6010
-3.5294 1.6717 -0.5957
-3.5366 1.6948 -0.5992
-3.5385 1.7184 -0.5990
-3.5335 1.7420 -0.5937
-3.5392 1.7888 -0.5944
-3.5360 1.8347 -0.5889
-3.5450 1.8591 -0.5937
-3.5488 1.8829 -0.5947
-3.5607 1.9320 -0.5998
-3.5663 1.9567 -0.6020
-3.5701 1.9812 -0.6030
-3.5685 2.0038 -0.6003
-3.5822 2.0321 -0.6081
-3.5797 2.0544 -0.6047
-3.5764 2.0990 -0.5992
-3.5804 2.1466 -0.5987
-3.5805 2.1693 -0.5972
-3.5920 2.2441 -0.6002
-3.5940 2.2680 -0.5999
-3.5960 2.2919 -0.5997
-3.6040 2.3875 -0.5986
-3.6060 2.4114 -0.5984
-3.6043 2.4542 -0.5942
-3.4506 0.9859 -0.6141
-3.4542 1.0071 -0.6152
-3.4484 1.0630 -0.6068
-3.4551 1.0808 -0.6105
-3.4570 1.1036 -0.6103
-3.4573 1.1279 -0.6087
-3.4503 1.1586 -0.6012
-3.4611 1.1734 -0.6082
-3.4614 1.1975 -0.6066
-3.4649 1.2190 -0.6077
-3.4652 1.2429 -0.6061
-3.4671 1.2656 -0.6059
-3.4673 1.2894 -0.6043
-3.4667 1.3136 -0.6021
-3.4620 1.3401 -0.5966
-3.4705 1.3588 -0.6016
-3.4709 1.4055 -0.5985
-3.4745 1.4272 -0.5996
-3.4780 1.4490 -0.6007
-3.4765 1.4729 -0.5978
-3.4818 1.4942 -0.6002
-3.4786 1.5183 -0.5960
-3.4874 1.5619 -0.5994
-3.4842 1.5855 -0.5953
-3.4895 1.6073 -0.5977
-3.4914 1.6298 -0.5974
-3.4915 1.6525 -0.5959
-3.4977 1.6746 -0.5989
-3.4989 1.7199 -0.5964
-3.5034 1.7424 -0.5982
-3.5070 1.7651 -0.5992
-3.5161 1.8109 -0.6026
-3.5083 1.8324 -0.5952
-3.5216 1.8569 -0.6034
-3.5182 1.8787 -0.5993
-3.5184 1.9010 -0.5977
-3.5256 1.9250 -0.6014
-3.5239 1.9468 -0.5986
-3.5294 1.9706 -0.6009
-3.5331 1.9941 -0.6020
-3.5251 2.0132 -0.5946
-3.5459 2.0436 -0.6080
-3.5424 2.0643 -0.6038
-3.5443 2.0873 -0.6036
-3.5444 2.1094 -0.6020
-3.5518 2.1352 -0.6057
-3.5483 2.1552 -0.6015
-3.5557 2.1814 -0.6052
-3.5503 2.1999 -0.5997
-3.5559 2.2252 -0.6021
-3.5578 2.2482 -0.6018
-3.5597 2.2711 -0.6016
-3.5524 2.2873 -0.5949
-3.5580 2.3129 -0.5972
-3.5599 2.3357 -0.5970
-3.5580 2.3554 -0.5942
-3.5637 2.3813 -0.5965
-3.5618 2.4009 -0.5937
-3.5656 2.4253 -0.5947
-3.5713 2.4515 -0.5970
-3.4097 1.0275 -0.6054
-3.4222 1.0851 -0.6109
-3.4256 1.1055 -0.6120
-3.4187 1.1359 -0.6042
-3.4205 1.1576 -0.6040
-3.4311 1.1714 -0.6113
-3.4306 1.1954 -0.6090
-3.4292 1.2200 -0.6060
-3.4342 1.2392 -0.6086
-3.4344 1.2623 -0.6069
-3.4314 1.2876 -0.6026
-3.4291 1.3120 -0.5989
-3.4325 1.3325 -0.6001
-3.4384 1.3516 -0.6033
-3.4328 1.3775 -0.5969
-3.4363 1.3981 -0.5980
-3.4381 1.4197 -0.5978
-3.4374 1.4424 -0.5955
-3.4368 1.4869 -0.5916
-3.4453 1.5058 -0.5968
-3.4446 1.5281 -0.5946
-3.4430 1.5506 -0.5916
-3.4524 1.5700 -0.5975
-3.4423 1.5942 -0.5877
-3.4500 1.6143 -0.5923
-3.4493 1.6360 -0.5900
-3.4579 1.6565 -0.5952
-3.4597 1.6781 -0.5950
-3.4657 1.6994 -0.5982
-3.4633 1.7211 -0.5945
-3.4668 1.7427 -0.5956
-3.4686 1.7643 -0.5954
-3.4617 1.7852 -0.5884
-3.4739 1.8076 -0.5963
-3.4801 1.8299 -0.5995
-3.4837 1.8520 -0.6006
-3.4776 1.8722 -0.5942
-3.4891 1.8961 -0.6015
-3.5007 1.9638 -0.6055
-3.4973 1.9840 -0.6012
-3.4964 2.0049 -0.5989
-3.5063 2.0301 -0.6048
-3.5045 2.0506 -0.6018
-3.5100 2.0743 -0.6043
-3.5136 2.0973 -0.6054
-3.5137 2.1184 -0.6038
-3.5101 2.1374 -0.5995
-3.5119 2.1594 -0.5993
-3.5174 2.2044 -0.6002
-3.5192 2.2264 -0.6000
-3.5211 2.2484 -0.5997
-3.5183 2.2669 -0.5961
-3.5082 2.2796 -0.5871
-3.5247 2.3128 -0.5977
-3.5284 2.3363 -0.5988
-3.5302 2.3583 -0.5985
-3.5376 2.3852 -0.6023
-3.3849 1.0509 -0.6085
-3.3850 1.0737 -0.6069
-3.3868 1.0946 -0.6067
-3.3980 1.1056 -0.6150
-3.3997 1.1269 -0.6148
-3.3897 1.1596 -0.6038
-3.3954 1.1768 -0.6072
-3.4011 1.1942 -0.6105
-3.4005 1.2174 -0.6082
-3.3982 1.2417 -0.6044
-3.4008 1.2619 -0.6049
