ply
format ascii 1.0
element vertex 2098
property float x
property float y
property float z
end_header
-3.1823 0.6457 -0.1586
-3.1738 0.6555 -0.1590
-3.1645 0.6633 -0.1600
-3.1578 0.6773 -0.1594
-3.1493 0.6872 -0.1598
-3.1393 0.6943 -0.1611
-3.1312 0.7053 -0.1613
-3.1236 0.7172 -0.1612
-3.1139 0.7255 -0.1622
-3.1041 0.7339 -0.1633
-3.0964 0.7459 -0.1631
-3.0871 0.7554 -0.1639
-3.0777 0.7649 -0.1647
-3.0664 0.7722 -0.1663
-3.0599 0.7858 -0.1656
-3.0374 0.8018 -0.1685
-3.0297 0.8139 -0.1684
-3.0233 0.8273 -0.1677
-3.0128 0.8367 -0.1688
-3.0037 0.8475 -0.1693
-2.9938 0.8578 -0.1700
-2.9845 0.8687 -0.1705
-2.9745 0.8790 -0.1713
-2.9668 0.8911 -0.1711
-2.9558 0.9011 -0.1722
-2.9481 0.9132 -0.1721
-2.9379 0.9238 -0.1729
-2.9285 0.9350 -0.1733
-2.9173 0.9454 -0.1744
-2.9077 0.9567 -0.1749
-2.8858 0.9783 -0.1767
-2.8742 0.9892 -0.1778
-2.8655 1.0011 -0.1780
-2.8567 1.0130 -0.1782
-2.8429 1.0236 -0.1798
-2.8381 1.0366 -0.1788
-2.8262 1.0478 -0.1799
-2.8174 1.0598 -0.1801
-2.8001 1.0704 -0.1827
-2.7933 1.0829 -0.1823
-2.7843 1.0950 -0.1825
-2.7731 1.1069 -0.1833
-2.7653 1.1192 -0.1832
-2.7586 1.1315 -0.1827
-2.7427 1.1433 -0.1847
-2.7314 1.1555 -0.1855
-2.7072 1.1802 -0.1874
-2.6932 1.1928 -0.1888
-2.6815 1.2055 -0.1896
-2.6685 1.2183 -0.1907
-2.6592 1.2309 -0.1909
-2.6486 1.2436 -0.1914
-2.6314 1.2572 -0.1934
-2.6181 1.2705 -0.1946
-3.2146 0.6118 -0.1423
-3.2061 0.6201 -0.1430
-3.1974 0.6286 -0.1437
-3.1888 0.6371 -0.1444
-3.1800 0.6458 -0.1451
-3.1724 0.6576 -0.1450
-3.1644 0.6685 -0.1451
-3.1556 0.6772 -0.1458
-3.1466 0.6861 -0.1465
-3.1396 0.6989 -0.1462
-3.1286 0.7041 -0.1479
-3.1210 0.7160 -0.1478
-3.1129 0.7270 -0.1480
-3.1048 0.7380 -0.1481
-3.0950 0.7464 -0.1491
-3.0863 0.7566 -0.1495
-3.0763 0.7652 -0.1505
-3.0669 0.7748 -0.1512
-3.0587 0.7859 -0.1514
-3.0517 0.7986 -0.1510
-3.0395 0.8054 -0.1528
-3.0319 0.8173 -0.1527
-3.0229 0.8279 -0.1531
-3.0117 0.8365 -0.1544
-3.0034 0.8479 -0.1545
-2.9950 0.8592 -0.1547
-2.9820 0.8671 -0.1565
-2.9736 0.8785 -0.1567
-2.9683 0.8922 -0.1558
-2.9566 0.9015 -0.1570
-2.9465 0.9120 -0.1577
-2.9389 0.9240 -0.1576
-2.9295 0.9351 -0.1581
-2.9166 0.9444 -0.1596
-2.9080 0.9561 -0.1598
-2.8985 0.9673 -0.1602
-2.8880 0.9783 -0.1610
-2.8775 0.9893 -0.1617
-2.8650 0.9998 -0.1629
-2.8553 1.0113 -0.1634
-2.8445 1.0226 -0.1641
-2.8368 1.0348 -0.1640
-2.8259 1.0462 -0.1648
-2.8119 1.0571 -0.1663
-2.7998 1.0686 -0.1673
-2.7931 1.0811 -0.1670
-2.7864 1.0934 -0.1666
-2.7742 1.1051 -0.1676
-2.7552 1.1292 -0.1683
-2.7393 1.1410 -0.1701
-2.7291 1.1532 -0.1706
-2.7212 1.1655 -0.1705
-2.7061 1.1779 -0.1721
-2.6933 1.1903 -0.1731
-2.6804 1.2029 -0.1741
-2.6725 1.2154 -0.1740
-2.6594 1.2282 -0.1750
-2.6502 1.2407 -0.1752
-2.6396 1.2534 -0.1757
-2.6251 1.2666 -0.1770
-3.2195 0.5991 -0.1294
-3.2120 0.6109 -0.1294
-3.2038 0.6204 -0.1298
-3.1952 0.6288 -0.1304
-3.1869 0.6384 -0.1308
-3.1798 0.6513 -0.1305
-3.1614 0.6664 -0.1322
-3.1534 0.6772 -0.1324
-3.1455 0.6880 -0.1326
-3.1365 0.6969 -0.1332
-3.1285 0.7077 -0.1334
-3.1200 0.7177 -0.1338
-3.1087 0.7231 -0.1353
-3.1011 0.7350 -0.1353
-3.0948 0.7486 -0.1347
-3.0867 0.7595 -0.1349
-3.0762 0.7672 -0.1360
-3.0725 0.7837 -0.1346
-3.0625 0.7923 -0.1354
-3.0499 0.7980 -0.1373
-3.0397 0.8069 -0.1381
-3.0322 0.8187 -0.1381
-3.0218 0.8278 -0.1390
-3.0031 0.8483 -0.1400
-2.9948 0.8595 -0.1402
-2.9834 0.8684 -0.1413
-2.9751 0.8798 -0.1415
-2.9651 0.8900 -0.1422
-2.9583 0.9025 -0.1419
-2.9458 0.9113 -0.1432
-2.9382 0.9233 -0.1432
-2.9289 0.9342 -0.1436
-2.9204 0.9457 -0.1438
-2.8980 0.9663 -0.1456
-2.8876 0.9772 -0.1463
-2.8752 0.9874 -0.1474
-2.8655 0.9988 -0.1478
-2.8559 1.0103 -0.1483
-2.8482 1.0223 -0.1482
-2.8406 1.0343 -0.1481
-2.8257 1.0447 -0.1498
-2.8096 1.0551 -0.1517
-2.8039 1.0677 -0.1511
-2.7929 1.0793 -0.1518
-2.7841 1.0913 -0.1520
-2.7763 1.1034 -0.1519
-2.7607 1.1148 -0.1536
-2.7541 1.1271 -0.1533
-2.7440 1.1391 -0.1537
-2.7363 1.1512 -0.1537
-2.7190 1.1632 -0.1556
-2.7087 1.1754 -0.1560
-2.6960 1.1878 -0.1570
-2.6806 1.2004 -0.1584
-2.6651 1.2132 -0.1599
-2.6598 1.2255 -0.1593
-2.6387 1.2507 -0.1602
-3.2265 0.5950 -0.1151
-3.2191 0.6067 -0.1151
-3.2107 0.6148 -0.1157
-3.2022 0.6230 -0.1162
-3.1948 0.6347 -0.1162
-3.1776 0.6514 -0.1173
-3.1685 0.6589 -0.1181
-3.1610 0.6706 -0.1181
-3.1532 0.6813 -0.1182
-3.1453 0.6920 -0.1184
-3.1354 0.6987 -0.1194
-3.1270 0.7085 -0.1198
-3.1185 0.7184 -0.1201
-3.1089 0.7265 -0.1209
-3.1014 0.7383 -0.1209
-3.0824 0.7558 -0.1223
-3.0725 0.7643 -0.1231
-3.0681 0.7801 -0.1220
-3.0601 0.7910 -0.1222
-3.0474 0.7966 -0.1238
-3.0393 0.8077 -0.1240
-3.0325 0.8201 -0.1237
-3.0215 0.8284 -0.1247
-3.0126 0.8389 -0.1251
-3.0044 0.8500 -0.1253
-2.9939 0.8593 -0.1261
-2.9643 0.8895 -0.1279
-2.9551 0.9003 -0.1283
-2.9467 0.9117 -0.1285
-2.9401 0.9240 -0.1282
-2.9309 0.9348 -0.1286
-2.9181 0.9440 -0.1299
-2.9096 0.9554 -0.1301
-2.8993 0.9661 -0.1307
-2.8937 0.9787 -0.1302
-2.8824 0.9890 -0.1310
-2.8671 0.9982 -0.1327
-2.8575 1.0096 -0.1331
-2.8469 1.0207 -0.1337
-2.8403 1.0329 -0.1335
-2.8286 1.0438 -0.1343
-2.8146 1.0545 -0.1356
-2.8027 1.0658 -0.1364
-2.7939 1.0777 -0.1366
-2.7862 1.0897 -0.1366
-2.7730 1.1011 -0.1376
-2.7573 1.1125 -0.1391
-2.7518 1.1248 -0.1387
-2.7441 1.1369 -0.1386
-2.7341 1.1489 -0.1390
-2.7215 1.1609 -0.1399
-2.7065 1.1731 -0.1412
-2.7049 1.1851 -0.1401
-2.6872 1.1976 -0.1418
-2.6769 1.2099 -0.1422
-2.6640 1.2225 -0.1431
-2.6562 1.2347 -0.1430
-2.6445 1.2473 -0.1437
-2.6300 1.2603 -0.1448
-2.6181 1.2732 -0.1454
-3.2155 0.6023 -0.1029
-3.2077 0.6128 -0.1031
-3.2011 0.6268 -0.1027
-3.1926 0.6350 -0.1032
-3.1861 0.6488 -0.1029
-3.1767 0.6549 -0.1037
-3.1689 0.6654 -0.1039
-3.1589 0.6707 -0.1050
-3.1506 0.6803 -0.1053
-3.1418 0.6889 -0.1058
-3.1349 0.7016 -0.1056
-3.1276 0.7132 -0.1056
-3.1165 0.7182 -0.1069
-3.1075 0.7272 -0.1074
-3.0989 0.7371 -0.1078
-3.0909 0.7479 -0.1079
-3.0811 0.7562 -0.1086
-3.0750 0.7696 -0.1083
-3.0657 0.7788 -0.1088
-3.0583 0.7905 -0.1088
-3.0490 0.7998 -0.1093
-3.0375 0.8070 -0.1104
-3.0308 0.8195 -0.1102
-3.0227 0.8304 -0.1104
-3.0132 0.8401 -0.1109
-3.0058 0.8517 -0.1109
-2.9954 0.8609 -0.1116
-2.9767 0.8812 -0.1125
-2.9660 0.8907 -0.1133
-2.9527 0.8987 -0.1146
-2.9435 0.9095 -0.1149
-2.9369 0.9218 -0.1147
-2.9286 0.9331 -0.1149
-2.9166 0.9427 -0.1158
-2.9073 0.9537 -0.1162
-2.8989 0.9651 -0.1164
-2.8905 0.9765 -0.1166
-2.8782 0.9865 -0.1175
-2.8668 0.9970 -0.1182
-2.8602 1.0092 -0.1180
-2.8517 1.0207 -0.1182
-2.8360 1.0304 -0.1197
-2.8263 1.0419 -0.1201
-2.8091 1.0653 -0.1205
-2.8048 1.0777 -0.1199
-2.7907 1.0885 -0.1210
-2.7775 1.0998 -0.1220
-2.7653 1.1113 -0.1227
-2.7519 1.1228 -0.1237
-2.7419 1.1347 -0.1241
-2.7306 1.1466 -0.1247
-2.7193 1.1587 -0.1252
-2.7129 1.1707 -0.1250
-2.7015 1.1828 -0.1256
-2.6913 1.1950 -0.1260
-2.6786 1.2073 -0.1268
-2.6722 1.2193 -0.1266
-2.6567 1.2320 -0.1277
-2.6450 1.2445 -0.1283
-2.6319 1.2573 -0.1291
-3.2069 0.6179 -0.0896
-3.1989 0.6272 -0.0899
-3.1908 0.6364 -0.0902
-3.1823 0.6446 -0.0907
-3.1651 0.6613 -0.0916
-3.1568 0.6708 -0.0920
-3.1495 0.6824 -0.0920
-3.1412 0.6919 -0.0923
-3.1344 0.7045 -0.0922
-3.1246 0.7112 -0.0929
-3.1167 0.7218 -0.0931
-3.1066 0.7288 -0.0939
-3.0982 0.7386 -0.0942
-3.0799 0.7567 -0.0951
-3.0700 0.7650 -0.0958
-3.0639 0.7784 -0.0955
-3.0553 0.7884 -0.0958
-3.0459 0.7977 -0.0963
-3.0379 0.8086 -0.0965
-3.0284 0.8181 -0.0969
-3.0218 0.8304 -0.0968
-3.0137 0.8413 -0.0970
-3.0004 0.8477 -0.0982
-2.9961 0.8619 -0.0976
-2.9857 0.8710 -0.0983
-2.9776 0.8820 -0.0985
-2.9661 0.8908 -0.0993
-2.9563 0.9008 -0.0998
-2.9472 0.9115 -0.1001
-2.9225 0.9450 -0.1006
-2.9106 0.9545 -0.1014
-2.9004 0.9649 -0.1019
-2.8920 0.9762 -0.1021
-2.8808 0.9865 -0.1028
-2.8694 0.9968 -0.1034
-2.8590 1.0076 -0.1039
-2.8526 1.0197 -0.1038
-2.8368 1.0293 -0.1051
-2.8294 1.0411 -0.1051
-2.8230 1.0531 -0.1050
-2.8134 1.0645 -0.1053
-2.8004 1.0753 -0.1062
-2.7874 1.0863 -0.1070
-2.7776 1.0979 -0.1074
-2.7666 1.1094 -0.1079
-2.7567 1.1212 -0.1082
-2.7480 1.1330 -0.1084
-2.7120 1.1684 -0.1103
-2.7031 1.1804 -0.1105
-2.6943 1.1924 -0.1107
-2.6841 1.2045 -0.1110
-2.6753 1.2165 -0.1112
-2.6624 1.2289 -0.1119
-2.6495 1.2414 -0.1126
-2.6378 1.2539 -0.1132
-3.2127 0.6092 -0.0767
-3.2055 0.6207 -0.0767
-3.1979 0.6310 -0.0769
-3.1895 0.6390 -0.0773
-3.1814 0.6482 -0.0776
-3.1716 0.6531 -0.0784
-3.1644 0.6647 -0.0784
-3.1571 0.6762 -0.0784
-3.1494 0.6866 -0.0786
-3.1417 0.6970 -0.0788
-3.1309 0.7015 -0.0797
-3.1232 0.7121 -0.0798
-3.1154 0.7226 -0.0800
-3.1070 0.7323 -0.0803
-3.0992 0.7429 -0.0805
-3.0896 0.7508 -0.0810
-3.0799 0.7589 -0.0816
-3.0707 0.7680 -0.0820
-3.0621 0.7779 -0.0823
-3.0542 0.7887 -0.0825
-3.0455 0.7987 -0.0828
-3.0376 0.8096 -0.0829
-3.0267 0.8175 -0.0836
-3.0194 0.8291 -0.0837
-3.0114 0.8400 -0.0838
-3.0026 0.8502 -0.0841
-2.9954 0.8617 -0.0842
-2.9842 0.8702 -0.0849
-2.9761 0.8811 -0.0850
-2.9672 0.8915 -0.0853
-2.9548 0.8998 -0.0862
-2.9501 0.9130 -0.0858
-2.9376 0.9215 -0.0867
-2.9276 0.9317 -0.0871
-2.9092 0.9532 -0.0877
-2.9000 0.9640 -0.0880
-2.8917 0.9752 -0.0882
-2.8834 0.9865 -0.0884
-2.8742 0.9974 -0.0887
-2.8638 1.0080 -0.0891
-2.8440 1.0298 -0.0899
-2.8335 1.0407 -0.0904
-2.8251 1.0521 -0.0905
-2.8156 1.0633 -0.0908
-2.8016 1.0738 -0.0917
-2.7931 1.0854 -0.0919
-2.7800 1.0964 -0.0926
-2.7784 1.1087 -0.0920
-2.7605 1.1195 -0.0933
-2.7494 1.1310 -0.0937
-2.7360 1.1426 -0.0945
-2.7223 1.1543 -0.0952
-2.7123 1.1662 -0.0955
-2.7048 1.1781 -0.0956
-2.6934 1.1901 -0.0961
-2.6872 1.2019 -0.0960
-2.6719 1.2143 -0.0969
-2.6617 1.2264 -0.0972
-2.6461 1.2391 -0.0981
-2.6426 1.2506 -0.0977
-2.6309 1.2631 -0.0982
-3.2273 0.5955 -0.0634
-3.2188 0.6019 -0.0638
-3.2101 0.6085 -0.0643
-3.2033 0.6212 -0.0642
-3.1954 0.6303 -0.0645
-3.1874 0.6394 -0.0648
-3.1789 0.6474 -0.0651
-3.1713 0.6578 -0.0653
-3.1632 0.6670 -0.0655
-3.1542 0.6742 -0.0660
-3.1465 0.6846 -0.0661
-3.1393 0.6961 -0.0662
-3.1306 0.7045 -0.0666
-3.1234 0.7159 -0.0666
-3.1135 0.7225 -0.0672
-3.1052 0.7321 -0.0675
-3.0986 0.7445 -0.0674
-3.0896 0.7532 -0.0678
-3.0800 0.7612 -0.0683
-3.0696 0.7684 -0.0688
-3.0604 0.7775 -0.0692
-3.0538 0.7898 -0.0692
-3.0459 0.8005 -0.0693
-3.0359 0.8090 -0.0698
-3.0251 0.8169 -0.0704
-3.0193 0.8298 -0.0702
-3.0091 0.8386 -0.0707
-3.0011 0.8494 -0.0709
-2.9899 0.8577 -0.0715
-2.9819 0.8687 -0.0717
-2.9746 0.8802 -0.0717
-2.9666 0.8911 -0.0719
-2.9568 0.9010 -0.0723
-2.9496 0.9125 -0.0723
-2.9415 0.9234 -0.0725
-2.9307 0.9329 -0.0730
-2.9208 0.9430 -0.0734
-2.9098 0.9528 -0.0739
-2.9016 0.9639 -0.0741
-2.8924 0.9747 -0.0743
-2.8803 0.9843 -0.0749
-2.8720 0.9956 -0.0751
-2.8617 1.0062 -0.0755
-2.8513 1.0169 -0.0759
-2.8419 1.0279 -0.0762
-2.8335 1.0393 -0.0764
-2.8219 1.0499 -0.0769
-2.8068 1.0601 -0.0777
-2.8017 1.0722 -0.0776
-2.7955 1.0840 -0.0775
-2.7859 1.0953 -0.0778
-2.7728 1.1063 -0.0785
-2.7678 1.1181 -0.0783
-2.7569 1.1295 -0.0787
-2.7472 1.1409 -0.0790
-2.7288 1.1522 -0.0801
-2.7189 1.1640 -0.0804
-2.7077 1.1758 -0.0808
-2.6978 1.1876 -0.0811
-2.6838 1.1997 -0.0817
-2.6751 1.2116 -0.0819
-2.6716 1.2230 -0.0817
-2.6548 1.2356 -0.0825
-2.6405 1.2482 -0.0832
-3.2257 0.5986 -0.0510
-3.2183 0.6087 -0.0511
-3.2091 0.6126 -0.0516
-3.2015 0.6228 -0.0518
-3.1952 0.6365 -0.0517
-3.1865 0.6432 -0.0521
-3.1773 0.6489 -0.0525
-3.1702 0.6602 -0.0526
-3.1617 0.6683 -0.0529
-3.1536 0.6775 -0.0532
-3.1460 0.6879 -0.0533
-3.1374 0.6961 -0.0536
-3.1292 0.7055 -0.0539
-3.1210 0.7149 -0.0541
-3.1128 0.7244 -0.0543
-3.1057 0.7357 -0.0544
-3.0962 0.7434 -0.0548
-3.0854 0.7494 -0.0553
-3.0782 0.7609 -0.0554
-3.0698 0.7706 -0.0557
-3.0627 0.7820 -0.0558
-3.0549 0.7926 -0.0559
-3.0464 0.8024 -0.0562
-3.0364 0.8107 -0.0566
-3.0257 0.8185 -0.0570
-3.0170 0.8285 -0.0573
-3.0076 0.8379 -0.0576
-3.0027 0.8513 -0.0575
-2.9932 0.8608 -0.0578
-2.9836 0.8703 -0.0581
-2.9757 0.8811 -0.0583
-2.9660 0.8908 -0.0586
-2.9563 0.9006 -0.0589
-2.9500 0.9125 -0.0589
-2.9357 0.9198 -0.0597
-2.9285 0.9313 -0.0598
-2.9204 0.9423 -0.0599
-2.9114 0.9529 -0.0602
-2.9042 0.9643 -0.0603
-2.8951 0.9749 -0.0605
-2.8821 0.9841 -0.0611
-2.8739 0.9952 -0.0613
-2.8615 1.0050 -0.0618
-2.8491 1.0150 -0.0623
-2.8418 1.0266 -0.0624
-2.8314 1.0374 -0.0627
-2.8230 1.0487 -0.0629
-2.8102 1.0592 -0.0634
-2.8029 1.0708 -0.0635
-2.7957 1.0823 -0.0636
-2.7815 1.0930 -0.0642
-2.7730 1.1045 -0.0644
-2.7681 1.1162 -0.0643
-2.7525 1.1272 -0.0650
-2.7440 1.1387 -0.0652
-2.7305 1.1502 -0.0657
-2.7206 1.1618 -0.0660
-2.7069 1.1735 -0.0665
-2.7009 1.1852 -0.0665
-2.6922 1.1969 -0.0667
-2.6823 1.2087 -0.0670
-2.6723 1.2205 -0.0673
-2.6609 1.2325 -0.0676
-3.2246 0.6031 -0.0387
-3.2165 0.6105 -0.0390
-3.2080 0.6168 -0.0393
-3.2006 0.6269 -0.0394
-3.1932 0.6370 -0.0396
-3.1845 0.6436 -0.0399
-3.1766 0.6526 -0.0401
-3.1691 0.6627 -0.0402
-3.1625 0.6751 -0.0403
-3.1536 0.6820 -0.0406
-3.1466 0.6932 -0.0407
-3.1355 0.6962 -0.0412
-3.1284 0.7075 -0.0413
-3.1203 0.7168 -0.0415
-3.1115 0.7253 -0.0417
-3.1033 0.7347 -0.0419
-3.0938 0.7423 -0.0422
-3.0868 0.7537 -0.0424
-3.0797 0.7650 -0.0425
-3.0714 0.7745 -0.0427
-3.0610 0.7817 -0.0430
-3.0533 0.7922 -0.0432
-3.0448 0.8019 -0.0434
-3.0349 0.8102 -0.0437
-3.0278 0.8215 -0.0439
-3.0170 0.8293 -0.0442
-3.0091 0.8400 -0.0444
-2.9997 0.8493 -0.0447
-2.9926 0.8607 -0.0448
-2.9838 0.8707 -0.0450
-2.9709 0.8779 -0.0455
-2.9646 0.8899 -0.0455
-2.9567 0.9007 -0.0457
-2.9478 0.9110 -0.0459
-2.9371 0.9203 -0.0463
-2.9291 0.9312 -0.0464
-2.9192 0.9412 -0.0467
-2.9021 0.9626 -0.0471
-2.8950 0.9740 -0.0472
-2.8829 0.9834 -0.0476
-2.8727 0.9938 -0.0479
-2.8625 1.0042 -0.0482
-2.8543 1.0153 -0.0483
-2.8440 1.0259 -0.0486
-2.8336 1.0365 -0.0489
-2.8242 1.0475 -0.0492
-2.8148 1.0585 -0.0494
-2.8031 1.0692 -0.0497
-2.7902 1.0798 -0.0501
-2.7818 1.0912 -0.0503
-2.7769 1.1030 -0.0503
-2.7625 1.1139 -0.0508
-2.7516 1.1252 -0.0511
-2.7432 1.1367 -0.0513
-2.7322 1.1481 -0.0516
-2.7237 1.1597 -0.0518
-2.7126 1.1712 -0.0521
-2.7014 1.1829 -0.0524
-2.6929 1.1945 -0.0525
-2.6856 1.2061 -0.0527
-2.6617 1.2299 -0.0533
-3.2218 0.6012 -0.0268
-3.2140 0.6099 -0.0270
-3.1985 0.6274 -0.0273
-3.1895 0.6327 -0.0276
-3.1829 0.6452 -0.0277
-3.1742 0.6518 -0.0279
-3.1662 0.6608 -0.0281
-3.1583 0.6699 -0.0282
-3.1522 0.6833 -0.0284
-3.1448 0.6934 -0.0285
-3.1362 0.7015 -0.0287
-3.1271 0.7086 -0.0289
-3.1190 0.7178 -0.0291
-3.1109 0.7271 -0.0293
-3.1016 0.7346 -0.0295
-3.0933 0.7440 -0.0297
-3.0844 0.7526 -0.0299
-3.0780 0.7647 -0.0300
-3.0697 0.7742 -0.0302
-3.0601 0.7822 -0.0304
-3.0530 0.7934 -0.0306
-3.0384 0.8150 -0.0309
-3.0277 0.8225 -0.0311
-3.0162 0.8294 -0.0314
-3.0099 0.8414 -0.0315
-3.0014 0.8513 -0.0317
-2.9936 0.8619 -0.0319
-2.9841 0.8712 -0.0321
-2.9650 0.8902 -0.0325
-2.9571 0.9009 -0.0327
-2.9474 0.9105 -0.0329
-2.9395 0.9213 -0.0331
-2.9297 0.9311 -0.0333
-2.9208 0.9414 -0.0335
-2.9099 0.9509 -0.0337
-2.9019 0.9618 -0.0339
-2.8958 0.9735 -0.0340
-2.8828 0.9825 -0.0343
-2.8717 0.9924 -0.0346
-2.8656 1.0041 -0.0347
-2.8564 1.0148 -0.0349
-2.8472 1.0255 -0.0351
-2.8358 1.0357 -0.0354
-2.8266 1.0466 -0.0356
-2.8139 1.0568 -0.0359
-2.8067 1.0682 -0.0360
-2.7904 1.0782 -0.0364
-2.7867 1.0902 -0.0365
-2.7760 1.1012 -0.0367
-2.7689 1.1126 -0.0369
-2.7581 1.1237 -0.0371
-2.7486 1.1349 -0.0373
-2.7364 1.1462 -0.0376
-2.7204 1.1575 -0.0380
-2.7157 1.1690 -0.0380
-2.7034 1.1806 -0.0383
-2.6948 1.1921 -0.0385
-2.6863 1.2037 -0.0387
-2.6697 1.2158 -0.0391
-2.6638 1.2272 -0.0392
-2.6552 1.2389 -0.0394
-2.6467 1.2505 -0.0396
-3.2123 0.6118 -0.0151
-3.2046 0.6204 -0.0153
-3.1949 0.6231 -0.0153
-3.1883 0.6356 -0.0155
-3.1809 0.6456 -0.0157
-3.1740 0.6567 -0.0159
-3.1643 0.6611 -0.0160
-3.1578 0.6735 -0.0161
-3.1504 0.6835 -0.0163
-3.1429 0.6936 -0.0165
-3.1323 0.6975 -0.0166
-3.1259 0.7097 -0.0167
-3.1195 0.7218 -0.0169
-3.1103 0.7290 -0.0170
-3.1010 0.7364 -0.0172
-3.0935 0.7467 -0.0173
-3.0846 0.7551 -0.0175
-3.0764 0.7645 -0.0176
-3.0675 0.7731 -0.0178
-3.0598 0.7835 -0.0180
-3.0508 0.7922 -0.0181
-3.0410 0.8003 -0.0182
-3.0325 0.8100 -0.0184
-3.0240 0.8198 -0.0186
-3.0178 0.8317 -0.0187
-3.0093 0.8415 -0.0189
-2.9992 0.8500 -0.0191
-2.9922 0.8612 -0.0192
-2.9836 0.8711 -0.0194
-2.9758 0.8817 -0.0196
-2.9672 0.8916 -0.0197
-2.9602 0.9028 -0.0199
-2.9497 0.9117 -0.0201
-2.9383 0.9203 -0.0202
-2.9285 0.9300 -0.0204
-2.9187 0.9398 -0.0205
-2.9097 0.9502 -0.0207
-2.9008 0.9606 -0.0209
-2.8938 0.9719 -0.0211
-2.8848 0.9823 -0.0212
-2.8768 0.9932 -0.0214
-2.8656 1.0030 -0.0216
-2.8533 1.0127 -0.0218
-2.8474 1.0243 -0.0219
-2.8393 1.0352 -0.0221
-2.8267 1.0452 -0.0223
-2.8208 1.0567 -0.0224
-2.8150 1.0681 -0.0226
-2.8058 1.0789 -0.0228
-2.7918 1.0891 -0.0230
-2.7764 1.0994 -0.0232
-2.7681 1.1107 -0.0234
-2.7454 1.1328 -0.0237
-2.7395 1.1442 -0.0239
-2.7273 1.1555 -0.0241
-2.7190 1.1668 -0.0243
-2.7014 1.1784 -0.0245
-2.6969 1.1897 -0.0247
-2.6857 1.2013 -0.0249
-2.6619 1.2249 -0.0253
-2.6547 1.2364 -0.0254
-3.2183 0.6051 -0.0033
-3.2042 0.6260 -0.0036
-3.1961 0.6334 -0.0037
-3.1876 0.6396 -0.0037
-3.1794 0.6472 -0.0038
-3.1716 0.6560 -0.0039
-3.1638 0.6649 -0.0041
-3.1485 0.6838 -0.0043
-3.1411 0.6938 -0.0045
-3.1327 0.7018 -0.0046
-3.1247 0.7108 -0.0047
-3.1172 0.7209 -0.0049
-3.1092 0.7300 -0.0050
-3.1017 0.7401 -0.0051
-3.0943 0.7503 -0.0053
-3.0849 0.7577 -0.0054
-3.0672 0.7746 -0.0055
-3.0590 0.7840 -0.0057
-3.0500 0.7927 -0.0058
-3.0409 0.8015 -0.0059
-3.0318 0.8103 -0.0060
-3.0241 0.8207 -0.0061
-3.0172 0.8319 -0.0063
-3.0095 0.8423 -0.0065
-2.9994 0.8507 -0.0066
-2.9900 0.8598 -0.0067
-2.9856 0.8729 -0.0070
-2.9745 0.8809 -0.0070
-2.9650 0.8902 -0.0071
-2.9564 0.9002 -0.0072
-2.9485 0.9108 -0.0074
-2.9417 0.9219 -0.0076
-2.9292 0.9300 -0.0076
-2.9194 0.9397 -0.0077
-2.9154 0.9522 -0.0080
-2.9007 0.9598 -0.0080
-2.8927 0.9706 -0.0082
-2.8847 0.9814 -0.0083
-2.8747 0.9915 -0.0085
-2.8657 1.0020 -0.0086
-2.8555 1.0122 -0.0087
-2.8497 1.0237 -0.0089
-2.8373 1.0334 -0.0090
-2.8292 1.0444 -0.0092
-2.8200 1.0551 -0.0093
-2.8096 1.0657 -0.0095
-2.7992 1.0763 -0.0096
-2.7910 1.0874 -0.0098
-2.7816 1.0983 -0.0099
-2.7747 1.1095 -0.0101
-2.7567 1.1198 -0.0101
-2.7484 1.1310 -0.0103
-2.7414 1.1423 -0.0105
-2.7293 1.1534 -0.0106
-2.7209 1.1647 -0.0108
-2.7100 1.1760 -0.0109
-2.7003 1.1874 -0.0111
-2.6919 1.1987 -0.0113
-2.6754 1.2106 -0.0113
-2.6655 1.2222 -0.0115
-2.6612 1.2333 -0.0117
-3.2173 0.6097 0.0081
-3.2109 0.6219 0.0078
-3.2018 0.6254 0.0080
-3.1946 0.6352 0.0079
-3.1861 0.6413 0.0079
-3.1784 0.6500 0.0078
-3.1706 0.6587 0.0077
-3.1546 0.6752 0.0076
-3.1472 0.6851 0.0075
-3.1394 0.6940 0.0074
-3.1325 0.7051 0.0071
-3.1252 0.7150 0.0070
-3.1150 0.7200 0.0071
-3.1075 0.7301 0.0070
-3.0995 0.7392 0.0069
-3.0927 0.7502 0.0067
-3.0853 0.7603 0.0065
-3.0772 0.7695 0.0064
-3.0697 0.7795 0.0062
-3.0602 0.7871 0.0063
-3.0485 0.7924 0.0065
-3.0423 0.8043 0.0062
-3.0234 0.8210 0.0062
-3.0150 0.8306 0.0061
-3.0081 0.8417 0.0058
-2.9989 0.8507 0.0058
-2.9928 0.8625 0.0055
-2.9827 0.8709 0.0055
-2.9750 0.8813 0.0053
-2.9647 0.8900 0.0054
-2.9534 0.8982 0.0054
-2.9456 0.9088 0.0052
-2.9405 0.9210 0.0049
-2.9309 0.9305 0.0049
-2.9221 0.9405 0.0047
-2.9134 0.9507 0.0046
-2.9026 0.9600 0.0046
-2.8947 0.9707 0.0045
-2.8827 0.9798 0.0045
-2.8758 0.9909 0.0043
-2.8668 1.0013 0.0042
-2.8578 1.0117 0.0040
-2.8488 1.0222 0.0039
-2.8364 1.0319 0.0040
-2.8317 1.0436 0.0036
-2.8180 1.0533 0.0037
-2.8088 1.0640 0.0036
-2.8019 1.0751 0.0034
-2.7962 1.0864 0.0031
-2.7797 1.0963 0.0033
-2.7716 1.1074 0.0031
-2.7609 1.1182 0.0030
-2.7540 1.1294 0.0028
-2.7458 1.1405 0.0026
-2.7286 1.1513 0.0028
-2.7178 1.1626 0.0027
-2.7055 1.1739 0.0027
-2.7011 1.1851 0.0024
-2.6887 1.1966 0.0023
-2.6804 1.2079 0.0021
-2.6692 1.2195 0.0020
-2.6594 1.2310 0.0019
-2.6439 1.2432 0.0020
-3.2157 0.6117 0.0194
-3.2074 0.6176 0.0196
-3.2002 0.6273 0.0194
-3.1935 0.6382 0.0192
-3.1846 0.6431 0.0194
-3.1792 0.6576 0.0189
-3.1692 0.6603 0.0193
-3.1615 0.6690 0.0192
-3.1543 0.6789 0.0191
-3.1381 0.6953 0.0190
-3.1308 0.7053 0.0189
-3.1229 0.7141 0.0188
-3.1150 0.7231 0.0187
-3.1071 0.7321 0.0187
-3.0985 0.7401 0.0187
-3.0898 0.7483 0.0187
-3.0824 0.7584 0.0185
-3.0763 0.7702 0.0182
-3.0676 0.7785 0.0182
-3.0587 0.7869 0.0182
-3.0513 0.7970 0.0181
-3.0424 0.8055 0.0181
-3.0160 0.8323 0.0180
-3.0092 0.8433 0.0178
-2.9984 0.8508 0.0180
-2.9907 0.8612 0.0178
-2.9823 0.8709 0.0177
-2.9746 0.8812 0.0176
-2.9670 0.8916 0.0174
-2.9576 0.9008 0.0174
-2.9499 0.9112 0.0172
-2.9385 0.9195 0.0174
-2.9317 0.9305 0.0172
-2.9249 0.9415 0.0169
-2.9123 0.9496 0.0171
-2.9045 0.9602 0.0170
-2.8947 0.9699 0.0170
-2.8859 0.9801 0.0169
-2.8759 0.9900 0.0169
-2.8681 1.0007 0.0167
-2.8602 1.0113 0.0165
-2.8479 1.0208 0.0167
-2.8378 1.0310 0.0167
-2.8275 1.0413 0.0167
-2.8195 1.0521 0.0165
-2.8127 1.0632 0.0162
-2.8035 1.0738 0.0162
-2.7919 1.0842 0.0162
-2.7790 1.0945 0.0163
-2.7734 1.1058 0.0160
-2.7665 1.1168 0.0158
-2.7547 1.1276 0.0158
-2.7414 1.1383 0.0159
-2.7294 1.1493 0.0160
-2.7198 1.1605 0.0159
-2.7182 1.1716 0.0153
-2.7046 1.1828 0.0155
-2.6923 1.1942 0.0155
-2.6799 1.2056 0.0156
-2.6646 1.2174 0.0157
-2.6604 1.2285 0.0153
-3.2133 0.6112 0.0309
-3.2062 0.6208 0.0307
-3.1987 0.6292 0.0307
-3.1920 0.6401 0.0304
-3.1840 0.6473 0.0305
-3.1769 0.6569 0.0303
-3.1688 0.6643 0.0304
-3.1612 0.6728 0.0304
-3.1535 0.6815 0.0303
-3.1458 0.6901 0.0303
-3.1375 0.6978 0.0304
-3.1286 0.7044 0.0306
-3.1207 0.7133 0.0305
-3.1140 0.7242 0.0303
-3.0982 0.7421 0.0302
-3.0915 0.7529 0.0299
-3.0815 0.7592 0.0302
-3.0728 0.7674 0.0303
-3.0654 0.7775 0.0301
-3.0580 0.7875 0.0300
-3.0484 0.7951 0.0302
-3.0424 0.8068 0.0298
-3.0343 0.8161 0.0297
-3.0237 0.8232 0.0300
-3.0186 0.8355 0.0295
-3.0071 0.8421 0.0299
-2.9912 0.8619 0.0297
-2.9819 0.8708 0.0298
-2.9726 0.8799 0.0298
-2.9596 0.8866 0.0303
-2.9573 0.9006 0.0295
-2.9469 0.9092 0.0297
-2.9346 0.9170 0.0301
-2.9297 0.9290 0.0296
-2.9220 0.9395 0.0294
-2.9133 0.9495 0.0293
-2.9036 0.9590 0.0294
-2.8958 0.9696 0.0292
-2.8849 0.9789 0.0294
-2.8782 0.9898 0.0291
-2.8672 0.9993 0.0293
-2.8615 1.0106 0.0289
-2.8504 1.0203 0.0290
-2.8459 1.0318 0.0285
-2.8313 1.0408 0.0290
-2.8257 1.0520 0.0286
-2.8028 1.0722 0.0289
-2.7924 1.0826 0.0290
-2.7740 1.1041 0.0288
-2.7597 1.1145 0.0292
-2.7528 1.1255 0.0289
-2.7409 1.1364 0.0290
-2.7379 1.1476 0.0284
-2.7272 1.1585 0.0285
-2.7204 1.1695 0.0282
-2.7069 1.1806 0.0284
-2.6946 1.1918 0.0285
-2.6878 1.2029 0.0283
-2.6768 1.2142 0.0283
-2.6643 1.2257 0.0284
-2.6517 1.2374 0.0285
-3.2117 0.6133 0.0419
-3.2035 0.6190 0.0422
-3.1968 0.6299 0.0419
-3.1906 0.6419 0.0415
-3.1818 0.6466 0.0419
-3.1742 0.6551 0.0419
-3.1675 0.6659 0.0416
-3.1599 0.6744 0.0416
-3.1518 0.6819 0.0417
-3.1441 0.6905 0.0417
-3.1375 0.7013 0.0414
-3.1275 0.7057 0.0420
-3.1202 0.7155 0.0418
-3.1136 0.7264 0.0415
-3.1051 0.7342 0.0417
-3.0966 0.7421 0.0418
-3.0880 0.7501 0.0419
-3.0727 0.7691 0.0417
-3.0660 0.7799 0.0414
-3.0559 0.7865 0.0419
-3.0477 0.7957 0.0418
-3.0403 0.8057 0.0417
-3.0337 0.8165 0.0414
-3.0240 0.8243 0.0416
-3.0165 0.8344 0.0415
-3.0083 0.8437 0.0415
-2.9992 0.8525 0.0416
-2.9917 0.8626 0.0414
-2.9816 0.8708 0.0417
-2.9732 0.8804 0.0416
-2.9665 0.8913 0.0413
-2.9581 0.9009 0.0413
-2.9468 0.9089 0.0417
-2.9373 0.9182 0.0418
-2.9315 0.9296 0.0414
-2.9239 0.9400 0.0412
-2.9153 0.9498 0.0412
-2.9046 0.9588 0.0414
-2.8969 0.9693 0.0413
-2.8861 0.9785 0.0415
-2.8794 0.9894 0.0412
-2.8706 0.9995 0.0412
-2.8640 1.0103 0.0409
-2.8507 1.0192 0.0414
-2.8440 1.0301 0.0411
-2.8362 1.0407 0.0409
-2.8227 1.0500 0.0414
-2.8148 1.0607 0.0412
-2.8033 1.0707 0.0414
-2.7894 1.0806 0.0419
-2.7850 1.0919 0.0414
-2.7734 1.1023 0.0416
-2.7628 1.1129 0.0417
-2.7574 1.1240 0.0412
-2.7494 1.1349 0.0411
-2.7374 1.1456 0.0413
-2.7254 1.1564 0.0415
-2.7173 1.1674 0.0413
-2.7078 1.1784 0.0413
-2.6860 1.2007 0.0414
-2.6750 1.2120 0.0415
-2.6654 1.2233 0.0415
-3.2024 0.6223 0.0530
-3.1949 0.6306 0.0530
-3.1875 0.6389 0.0530
-3.1804 0.6485 0.0529
-3.1729 0.6568 0.0529
-3.1658 0.6664 0.0528
-3.1577 0.6737 0.0530
-3.1496 0.6811 0.0532
-3.1419 0.6897 0.0532
-3.1358 0.7016 0.0527
-3.1264 0.7070 0.0532
-3.1204 0.7189 0.0527
-3.1144 0.7306 0.0522
-3.1048 0.7363 0.0527
-3.0983 0.7470 0.0524
-3.0878 0.7520 0.0531
-3.0792 0.7600 0.0533
-3.0719 0.7699 0.0531
-3.0625 0.7772 0.0535
-3.0552 0.7871 0.0533
-3.0493 0.7988 0.0528
-3.0383 0.8046 0.0535
-3.0332 0.8170 0.0529
-3.0250 0.8262 0.0529
-3.0161 0.8347 0.0530
-3.0070 0.8433 0.0532
-2.9996 0.8533 0.0531
-2.9922 0.8634 0.0529
-2.9830 0.8722 0.0531
-2.9756 0.8823 0.0529
-2.9672 0.8918 0.0529
-2.9570 0.9002 0.0532
-2.9485 0.9098 0.0532
-2.9410 0.9200 0.0531
-2.9315 0.9292 0.0532
-2.9210 0.9380 0.0536
-2.9134 0.9483 0.0534
-2.8981 0.9690 0.0531
-2.8873 0.9781 0.0534
-2.8786 0.9882 0.0534
-2.8655 0.9968 0.0540
-2.8599 1.0080 0.0535
-2.8511 1.0182 0.0535
-2.8422 1.0284 0.0535
-2.8379 1.0397 0.0529
-2.8220 1.0485 0.0538
-2.8130 1.0589 0.0538
-2.8063 1.0697 0.0535
-2.7985 1.0804 0.0533
-2.7857 1.0903 0.0538
-2.7778 1.1011 0.0536
-2.7661 1.1114 0.0539
-2.7581 1.1222 0.0537
-2.7357 1.1436 0.0542
-2.7263 1.1544 0.0542
-2.7155 1.1653 0.0543
-2.7075 1.1763 0.0541
-2.6966 1.1874 0.0543
-2.6857 1.1985 0.0544
-2.6832 1.2092 0.0536
-2.6708 1.2205 0.0539
-2.6598 1.2318 0.0540
-3.2005 0.6231 0.0640
-3.1931 0.6313 0.0640
-3.1861 0.6408 0.0639
-3.1777 0.6466 0.0643
-3.1706 0.6562 0.0642
-3.1641 0.6670 0.0638
-3.1565 0.6754 0.0639
-3.1479 0.6816 0.0643
-3.1413 0.6923 0.0640
-3.1342 0.7019 0.0638
-3.1283 0.7137 0.0633
-3.1182 0.7181 0.0641
-3.1123 0.7298 0.0636
-3.1046 0.7384 0.0636
-3.0968 0.7471 0.0637
-3.0870 0.7530 0.0643
-3.0812 0.7646 0.0637
-3.0712 0.7708 0.0644
-3.0553 0.7887 0.0645
-3.0400 0.8076 0.0643
-3.0319 0.8167 0.0644
-3.0238 0.8258 0.0644
-3.0058 0.8428 0.0649
-2.9968 0.8514 0.0651
-2.9885 0.8608 0.0651
-2.9793 0.8696 0.0653
-2.9745 0.8816 0.0646
-2.9671 0.8917 0.0645
-2.9578 0.9006 0.0647
-2.9485 0.9096 0.0649
-2.9400 0.9192 0.0649
-2.9315 0.9288 0.0650
-2.9220 0.9380 0.0652
-2.9145 0.9483 0.0650
-2.9049 0.9576 0.0652
-2.8973 0.9679 0.0651
-2.8886 0.9778 0.0651
-2.8789 0.9873 0.0653
-2.8723 0.9981 0.0649
-2.8636 1.0081 0.0650
-2.8526 1.0175 0.0654
-2.8438 1.0276 0.0654
-2.8372 1.0383 0.0650
-2.8272 1.0482 0.0652
-2.8194 1.0587 0.0651
-2.8105 1.0690 0.0651
-2.7955 1.0783 0.0660
-2.7851 1.0886 0.0662
-2.7669 1.1098 0.0663
-2.7577 1.1204 0.0663
-2.7445 1.1308 0.0668
-2.7392 1.1418 0.0663
-2.7312 1.1525 0.0661
-2.7192 1.1633 0.0665
-2.7126 1.1742 0.0661
-2.7004 1.1851 0.0665
-2.6854 1.1963 0.0672
-2.6787 1.2072 0.0669
-2.6720 1.2181 0.0665
-2.6610 1.2293 0.0667
-3.2076 0.6210 0.0739
-3.1995 0.6264 0.0744
-3.1921 0.6346 0.0745
-3.1852 0.6440 0.0743
-3.1778 0.6522 0.0744
-3.1413 0.6960 0.0744
-3.1244 0.7097 0.0752
-3.1161 0.7173 0.0755
-3.1096 0.7280 0.0751
-3.1025 0.7376 0.0749
-3.0934 0.7443 0.0755
-3.0882 0.7569 0.0746
-3.0798 0.7647 0.0749
-3.0719 0.7734 0.0750
-3.0641 0.7823 0.0751
-3.0554 0.7903 0.0754
-3.0482 0.8000 0.0752
-3.0379 0.8065 0.0759
-3.0242 0.8271 0.0754
-3.0112 0.8316 0.0768
-3.0055 0.8431 0.0762
-2.9990 0.8538 0.0758
-2.9891 0.8616 0.0763
-2.9817 0.8716 0.0762
-2.9743 0.8817 0.0760
-2.9670 0.8917 0.0758
-2.9549 0.8987 0.0768
-2.9494 0.9099 0.0762
-2.9439 0.9211 0.0756
-2.9326 0.9290 0.0763
-2.9241 0.9386 0.0763
-2.9146 0.9478 0.0766
-2.9050 0.9571 0.0769
-2.8975 0.9673 0.0767
-2.8900 0.9775 0.0766
-2.8792 0.9866 0.0770
-2.8738 0.9976 0.0764
-2.8640 1.0072 0.0767
-2.8542 1.0168 0.0770
-2.8442 1.0265 0.0772
-2.8354 1.0366 0.0773
-2.8289 1.0473 0.0769
-2.8189 1.0572 0.0772
-2.8027 1.0661 0.0785
-2.7961 1.0769 0.0781
-2.7908 1.0878 0.0775
-2.7793 1.0979 0.0780
-2.7689 1.1082 0.0782
-2.7624 1.1190 0.0779
-2.7506 1.1293 0.0783
-2.7401 1.1399 0.0786
-2.7335 1.1506 0.0782
-2.7229 1.1613 0.0784
-2.7095 1.1721 0.0791
-2.7029 1.1829 0.0787
-2.6893 1.1939 0.0794
-2.6784 1.2050 0.0796
-2.6675 1.2161 0.0799
-3.1994 0.6324 0.0841
-3.1921 0.6404 0.0842
-3.1844 0.6472 0.0846
-3.1765 0.6541 0.0849
-3.1682 0.6598 0.0856
-3.1612 0.6693 0.0854
-3.1478 0.6893 0.0849
-3.1392 0.6954 0.0855
-3.1322 0.7048 0.0853
-3.1246 0.7133 0.0854
-3.1164 0.7207 0.0858
-3.1093 0.7302 0.0856
-3.1023 0.7398 0.0855
-3.0939 0.7474 0.0858
-3.0875 0.7579 0.0854
-3.0805 0.7675 0.0853
-3.0671 0.7689 0.0874
-3.0635 0.7831 0.0860
-3.0469 0.7999 0.0864
-3.0421 0.8121 0.0855
-3.0302 0.8170 0.0868
-3.0238 0.8275 0.0864
-3.0150 0.8358 0.0868
-3.0044 0.8427 0.0876
-2.9962 0.8519 0.0877
-2.9915 0.8639 0.0868
-2.9824 0.8724 0.0871
-2.9760 0.8830 0.0867
-2.9632 0.8891 0.0880
-2.9568 0.8998 0.0876
-2.9484 0.9092 0.0877
-2.9410 0.9192 0.0876
-2.9346 0.9298 0.0872
-2.9232 0.9377 0.0880
-2.9158 0.9478 0.0878
-2.9063 0.9570 0.0881
-2.8988 0.9671 0.0880
-2.8892 0.9764 0.0883
-2.8828 0.9870 0.0879
-2.8709 0.9957 0.0887
-2.8622 1.0056 0.0888
-2.8558 1.0162 0.0884
-2.8448 1.0255 0.0889
-2.8371 1.0358 0.0888
-2.8284 1.0459 0.0888
-2.8207 1.0562 0.0887
-2.8082 1.0657 0.0895
-2.7981 1.0757 0.0898
-2.7801 1.0963 0.0899
-2.7736 1.1070 0.0895
-2.7607 1.1171 0.0903
-2.7568 1.1279 0.0894
-2.7491 1.1384 0.0893
-2.7386 1.1489 0.0896
-2.7226 1.1593 0.0908
-2.7106 1.1700 0.0913
-2.7027 1.1808 0.0912
-2.6933 1.1916 0.0912
-2.6839 1.2025 0.0913
-2.6730 1.2135 0.0916
-2.6592 1.2248 0.0924
-3.5825 0.1951 0.1075
-3.5966 0.1849 0.1116
-3.6276 0.1558 0.1218
-3.7059 0.0602 0.1516
-3.7528 0.0169 0.1669
-3.7778 -0.0016 0.1742
-3.8426 -0.0810 0.1989
-3.9248 -0.1847 0.2309
-4.1246 -0.5917 0.3374
-4.1784 -0.6231 0.3516
-4.2450 -0.6794 0.3723
-4.3495 -0.8143 0.4135
-4.9602 -1.5271 0.6402
-5.0760 -1.5825 0.6683
-5.1247 -1.5177 0.6637
-5.2368 -1.5527 0.6874
-7.3651 -1.7211 1.0456
-7.0557 -1.2651 0.9130
-7.0278 -1.1391 0.8853
-6.6991 -0.8411 0.7792
-6.3716 -0.5669 0.6778
-6.3875 -0.4990 0.6676
-6.3611 -0.4117 0.6473
-5.9957 -0.0491 0.5235
-5.9015 0.0443 0.4917
-5.8226 0.1722 0.4557
-5.7259 0.2514 0.4261
-5.7225 0.2941 0.4176
-5.6007 0.3725 0.3843
-5.5553 0.4225 0.3680
-5.5367 0.4622 0.3578
-5.4891 0.5078 0.3419
-5.4360 0.5520 0.3255
-5.4521 0.5776 0.3232
-3.5546 0.2409 0.0805
-3.5943 0.1859 0.0953
-3.6095 0.1671 0.1006
-3.6248 0.1635 0.1033
-3.6432 0.1267 0.1121
-3.7041 0.0561 0.1324
-3.7259 0.0409 0.1380
-3.7470 0.0361 0.1418
-3.8082 -0.0480 0.1644
-3.8367 -0.0663 0.1715
-4.1356 -0.6320 0.3082
-4.1831 -0.6432 0.3167
-4.3467 -0.8135 0.3681
-4.5460 -1.0036 0.4279
-4.9295 -1.4741 0.5604
-5.0423 -1.5267 0.5850
-5.1637 -1.5826 0.6113
-7.0781 -1.2680 0.8260
-6.8317 -0.9085 0.7313
-6.4212 -0.5071 0.6066
-6.2716 -0.3564 0.5604
-5.9436 -0.0178 0.4577
-5.8549 0.0718 0.4303
-5.8225 0.1336 0.4154
-5.7455 0.2087 0.3921
-5.7192 0.2614 0.3795
-5.6536 0.3245 0.3598
-5.6128 0.3760 0.3454
-5.5574 0.4289 0.3288
-5.4523 0.5241 0.2982
-5.4169 0.5632 0.2867
-5.4047 0.5950 0.2796
-3.5519 0.2248 0.0683
-3.5646 0.2221 0.0703
-3.5918 0.1921 0.0781
-3.6405 0.1308 0.0934
-3.6571 0.1309 0.0955
-3.6779 0.0976 0.1030
-3.6996 0.0716 0.1096
-3.7232 0.0431 0.1168
-3.7468 0.0241 0.1226
-3.7756 -0.0141 0.1319
-3.8003 -0.0229 0.1364
-3.8776 -0.1335 0.1625
-3.9091 -0.1467 0.1685
-4.1106 -0.5670 0.2564
-4.1911 -0.6724 0.2822
-4.3520 -0.8320 0.3262
-4.4664 -0.9665 0.3606
-4.6375 -1.1984 0.4166
-5.0205 -1.4913 0.5084
-5.1529 -1.5665 0.5362
-7.6192 -1.8780 0.8927
-7.0360 -1.1206 0.7066
-6.7030 -0.8218 0.6203
-6.5104 -0.6248 0.5667
-6.3885 -0.4797 0.5298
-6.3620 -0.3924 0.5135
-6.2033 -0.1825 0.4623
-5.9934 -0.0308 0.4133
-5.8721 0.0730 0.3826
-5.8272 0.1398 0.3670
-5.7509 0.2146 0.3463
-5.7026 0.2749 0.3312
-5.6574 0.3307 0.3172
-5.5525 0.4019 0.2934
-5.5266 0.4450 0.2838
-5.4933 0.4880 0.2732
-5.4470 0.5321 0.2608
-5.4407 0.5640 0.2552
-5.4558 0.5900 0.2533
-3.5622 0.2132 0.0561
-3.5755 0.2002 0.0593
-3.5895 0.1944 0.0616
-3.6047 0.1681 0.0667
-3.6205 0.1569 0.0699
-3.6370 0.1462 0.0731
-3.6544 0.1349 0.0765
-3.6755 0.0981 0.0837
-3.6969 0.0737 0.0892
-3.7461 0.0146 0.1024
-3.7706 -0.0008 0.1071
-3.8736 -0.1276 0.1351
-3.9041 -0.1373 0.1397
-4.1904 -0.6780 0.2418
-4.2390 -0.6837 0.2480
-4.3533 -0.8411 0.2811
-4.4797 -1.0015 0.3160
-4.5961 -1.1170 0.3440
-4.8996 -1.4260 0.4179
-5.0330 -1.5155 0.4444
-7.2781 -1.4945 0.6922
-6.6637 -0.7879 0.5320
-6.5483 -0.6355 0.4993
-6.4673 -0.5112 0.4742
-6.2523 -0.3276 0.4264
-5.9000 0.0179 0.3423
-5.8199 0.1508 0.3161
-5.7098 0.2373 0.2926
-5.6339 0.3061 0.2752
-5.5752 0.3648 0.2610
-5.4789 0.4657 0.2372
-5.4798 0.4985 0.2330
-5.4497 0.5381 0.2246
-5.4286 0.5736 0.2176
-5.4296 0.6025 0.2140
-3.5601 0.2261 0.0391
-3.5732 0.2131 0.0418
-3.6023 0.1705 0.0493
-3.6178 0.1620 0.0518
-3.6522 0.1327 0.0584
-3.6936 0.0806 0.0682
-3.7162 0.0572 0.0729
-3.7424 0.0219 0.0794
-3.8714 -0.1284 0.1085
-3.9041 -0.1456 0.1136
-4.1205 -0.6130 0.1862
-4.1704 -0.6308 0.1930
-4.2294 -0.6659 0.2026
-4.3501 -0.8397 0.2335
-4.4877 -1.0250 0.2673
-4.5688 -1.0651 0.2796
-4.8898 -1.4111 0.3490
-5.0571 -1.5597 0.3816
-7.1410 -1.3897 0.5655
-6.7946 -0.8529 0.4726
-6.6386 -0.6746 0.4377
-5.8377 0.1522 0.2687
-5.7249 0.2397 0.2481
-5.6893 0.2948 0.2385
-5.5967 0.3652 0.2218
-5.5495 0.4171 0.2115
-5.5150 0.4623 0.2031
-5.4981 0.5005 0.1973
-5.4592 0.5425 0.1888
-5.4151 0.5833 0.1801
-5.4174 0.6117 0.1771
-3.5456 0.2443 0.0210
-3.5708 0.2099 0.0262
-3.5997 0.1769 0.0316
-3.6147 0.1774 0.0328
-3.6325 0.1428 0.0374
-3.6492 0.1406 0.0390
-3.6698 0.1067 0.0437
-3.7142 0.0547 0.0521
-3.7388 0.0291 0.0565
-3.8675 -0.1224 0.0808
-4.1028 -0.5690 0.1408
-4.1780 -0.6594 0.1552
-4.3515 -0.8494 0.1867
-4.4744 -1.0012 0.2107
-4.5855 -1.1047 0.2292
-4.8706 -1.3793 0.2777
-5.0952 -1.6283 0.3188
-7.6200 -1.8382 0.5466
-7.2901 -1.4774 0.4866
-6.9521 -1.1397 0.4281
-6.8309 -0.9602 0.4018
-6.6401 -0.7525 0.3672
-6.5508 -0.6156 0.3474
-6.1589 -0.2621 0.2829
-5.8172 0.1682 0.2157
-5.7180 0.2500 0.2001
-5.6617 0.3118 0.1898
-5.5905 0.3746 0.1782
-5.5435 0.4260 0.1697
-5.4845 0.4779 0.1601
-5.4686 0.5152 0.1554
-5.4537 0.5506 0.1510
-5.4181 0.5893 0.1445
-5.3984 0.6224 0.1399
-3.5433 0.2436 0.0060
-3.5554 0.2275 0.0079
-3.5685 0.2108 0.0100
-3.5823 0.2013 0.0116
-3.5971 0.1820 0.0140
-3.6126 0.1710 0.0158
-3.6292 0.1556 0.0180
-3.6474 0.1335 0.0208
-3.6865 0.0991 0.0259
-3.7617 0.0085 0.0374
-3.7905 -0.0216 0.0415
-3.8199 -0.0447 0.0452
-3.8635 -0.1165 0.0532
-4.0971 -0.5604 0.1005
-4.3699 -0.9001 0.1430
-4.8608 -1.3645 0.2092
-5.0475 -1.5480 0.2349
-7.2747 -1.4544 0.3796
-6.9040 -1.0974 0.3291
-6.0456 -0.1972 0.2072
-6.0810 -0.1512 0.2063
-5.9874 -0.0492 0.1927
-5.7862 0.1880 0.1623
-5.6689 0.2752 0.1482
-5.6047 0.3384 0.1393
-5.5742 0.3870 0.1338
-5.5375 0.4350 0.1279
-5.4788 0.4865 0.1203
-5.4393 0.5297 0.1146
-5.3826 0.5747 0.1075
-5.3774 0.6051 0.1050
-5.3864 0.6315 0.1038
-3.5406 0.2361 -0.0089
-3.5533 0.2363 -0.0082
-3.5661 0.2170 -0.0065
-3.5799 0.2062 -0.0053
-3.5946 0.1857 -0.0035
-3.6099 0.1787 -0.0023
-3.6272 0.1496 0.0001
-3.6454 0.1277 0.0022
-3.6878 0.0687 0.0074
-3.7073 0.0688 0.0084
-3.7870 -0.0163 0.0169
-3.8587 -0.1072 0.0253
-4.1003 -0.5790 0.0620
-4.1685 -0.6491 0.0691
-4.2290 -0.6855 0.0742
-4.3413 -0.8380 0.0878
-4.4486 -0.9550 0.0994
-4.5562 -1.0534 0.1101
-4.6801 -1.1673 0.1224
-4.8601 -1.3666 0.1421
-5.0135 -1.4914 0.1565
-5.1117 -1.5065 0.1625
-6.8688 -0.9597 0.2280
-6.7575 -0.7973 0.2139
-6.1958 -0.2611 0.1570
-6.0558 -0.1304 0.1430
-6.0102 -0.0502 0.1365
-5.8823 0.0594 0.1242
-5.8608 0.1194 0.1200
-5.7789 0.1989 0.1117
-5.6622 0.2853 0.1011
-5.6179 0.3416 0.0959
-5.5680 0.3964 0.0905
-5.5494 0.4388 0.0874
-5.4641 0.4975 0.0799
-5.4349 0.5688 0.0747
-5.3951 0.6363 0.0692
-5.4107 0.6609 0.0688
-3.5510 0.2370 -0.0239
-3.5637 0.2126 -0.0227
-3.5775 0.1995 -0.0218
-3.5922 0.1882 -0.0209
-3.6072 0.1850 -0.0202
-3.6246 0.1524 -0.0186
-3.6809 0.1056 -0.0150
-3.7279 0.0506 -0.0116
-3.7846 -0.0166 -0.0074
-3.8082 -0.0148 -0.0066
-4.0790 -0.5232 0.0190
-4.1593 -0.6315 0.0253
-4.3506 -0.8670 0.0396
-4.5420 -1.0284 0.0517
-4.6568 -1.1256 0.0590
-5.0029 -1.4755 0.0826
-5.1134 -1.5108 0.0878
-7.0902 -1.1905 0.1531
-7.0974 -1.0838 0.1502
-5.8879 0.0657 0.0698
-5.7246 0.2270 0.0587
-5.6038 0.3132 0.0516
-5.5531 0.4083 0.0468
-5.5078 0.4581 0.0436
-5.5164 0.4904 0.0429
-5.3739 0.6191 0.0337
-5.3293 0.6563 0.0309
-3.5360 0.2401 -0.0400
-3.5751 0.2160 -0.0389
-3.5897 0.1907 -0.0383
-3.6050 0.1813 -0.0379
-3.6218 0.1576 -0.0373
-3.6794 0.0969 -0.0354
-3.7003 0.0839 -0.0348
-3.7511 0.0259 -0.0332
-3.8084 -0.0260 -0.0314
-3.8500 -0.0921 -0.0298
-3.8828 -0.1117 -0.0289
-4.1669 -0.6610 -0.0174
-4.3311 -0.8263 -0.0121
-4.5460 -1.0419 -0.0053
-4.6770 -1.1697 -0.0011
-5.0037 -1.4796 0.0091
-5.0900 -1.4739 0.0110
-6.7796 -0.8831 0.0436
-5.8529 0.0886 0.0137
-5.7527 0.2249 0.0101
-5.6582 0.3023 0.0073
-5.5107 0.4645 0.0024
-5.4938 0.5036 0.0017
-5.3417 0.6326 -0.0030
-5.3106 0.6664 -0.0040
-3.5464 0.2438 -0.0555
-3.5590 0.2223 -0.0557
-3.5727 0.2094 -0.0558
-3.5872 0.1944 -0.0558
-3.6026 0.1802 -0.0559
-3.6192 0.1604 -0.0560
-3.6367 0.1451 -0.0561
-3.6562 0.1198 -0.0562
-3.6767 0.0990 -0.0563
-3.6999 0.0687 -0.0565
-3.7243 0.0419 -0.0567
-3.7486 0.0265 -0.0567
-3.8468 -0.0895 -0.0573
-3.8788 -0.1056 -0.0573
-3.9271 -0.1712 -0.0577
-4.0676 -0.5060 -0.0607
-4.1315 -0.5691 -0.0610
-4.2927 -0.7397 -0.0618
-4.4155 -0.8978 -0.0628
-4.5749 -1.1083 -0.0641
-4.6680 -1.1562 -0.0641
-4.7944 -1.2552 -0.0643
-4.9817 -1.4438 -0.0652
-5.1562 -1.5841 -0.0656
-6.7068 -0.8287 -0.0459
-5.9807 -0.0687 -0.0421
-5.8720 0.0895 -0.0411
-5.7621 0.1827 -0.0407
-5.7104 0.2483 -0.0403
-5.6729 0.3052 -0.0399
-5.4041 0.5965 -0.0384
-5.3771 0.6317 -0.0382
-5.3935 0.6566 -0.0378
-3.5441 0.2446 -0.0715
-3.5565 0.2194 -0.0724
-3.5847 0.1919 -0.0736
-3.6000 0.1828 -0.0740
-3.6164 0.1669 -0.0747
-3.6331 0.1614 -0.0750
-3.6535 0.1229 -0.0764
-3.6735 0.1059 -0.0772
-3.7204 0.0514 -0.0794
-3.7430 0.0439 -0.0798
-3.7760 -0.0107 -0.0819
-3.8437 -0.0868 -0.0850
-3.8773 -0.1091 -0.0860
-4.0475 -0.4533 -0.0989
-4.1407 -0.6035 -0.1047
-4.3206 -0.8145 -0.1132
-4.5796 -1.1237 -0.1257
-4.6665 -1.1575 -0.1275
-4.8205 -1.3073 -0.1338
-5.0054 -1.4878 -0.1414
-5.1186 -1.5239 -0.1436
-6.8326 -1.3356 -0.1524
-6.6653 -0.7929 -0.1330
-6.7376 -0.7395 -0.1319
-6.0850 -0.1697 -0.1074
-6.0043 -0.0701 -0.1034
-5.9311 0.0198 -0.0998
-5.8507 0.1068 -0.0962
-5.7149 0.2548 -0.0901
-5.6767 0.3120 -0.0879
-5.4988 0.4823 -0.0807
-5.3450 0.6451 -0.0740
-5.3199 0.6775 -0.0727
-3.5299 0.2607 -0.0864
-3.5418 0.2493 -0.0873
-3.5542 0.2268 -0.0888
-3.5678 0.2166 -0.0897
-3.5975 0.1842 -0.0922
-3.6139 0.1685 -0.0935
-3.6505 0.1285 -0.0966
-3.6730 0.0869 -0.0994
-3.6921 0.0897 -0.0997
-3.7178 0.0517 -0.1024
-3.7720 -0.0031 -0.1067
-3.7993 -0.0183 -0.1082
-3.8405 -0.0840 -0.1129
-3.8752 -0.1103 -0.1151
-3.9276 -0.1892 -0.1207
-4.1563 -0.6566 -0.1519
-4.2351 -0.7387 -0.1583
-4.5840 -1.1387 -0.1888
-4.6722 -1.1734 -0.1929
-4.8199 -1.3097 -0.2040
-5.0063 -1.4920 -0.2185
-5.1334 -1.5498 -0.2248
-6.8568 -0.9967 -0.2372
-6.8034 -0.8615 -0.2285
-6.0589 -0.1480 -0.1712
-5.9634 -0.0427 -0.1631
-5.8648 0.0565 -0.1552
-5.7543 0.2493 -0.1420
-5.6592 0.3258 -0.1354
-5.5191 0.4841 -0.1233
-5.4688 0.5317 -0.1195
-5.4297 0.5736 -0.1162
-5.4012 0.6108 -0.1135
-5.3399 0.6527 -0.1097
-5.3627 0.6759 -0.1090
-3.5272 0.2562 -0.1024
-3.5518 0.2304 -0.1053
-3.5654 0.2203 -0.1067
-3.5796 0.2132 -0.1078
-3.6113 0.1688 -0.1125
-3.6289 0.1504 -0.1146
-3.6471 0.1387 -0.1162
-3.6683 0.1067 -0.1196
-3.6905 0.0828 -0.1223
-3.7152 0.0521 -0.1257
-3.7419 0.0216 -0.1291
-3.7663 0.0133 -0.1307
-3.7931 -0.0009 -0.1329
-3.8730 -0.1114 -0.1446
-4.1526 -0.6549 -0.1976
-4.2057 -0.6684 -0.2008
-4.2790 -0.7260 -0.2082
-4.3880 -0.8528 -0.2224
-4.5686 -1.1113 -0.2495
-4.8008 -1.2777 -0.2718
-4.9953 -1.4756 -0.2949
-5.1220 -1.5327 -0.3044
-7.0784 -1.3590 -0.3712
-6.9112 -1.0176 -0.3382
-6.0187 -0.0578 -0.2283
-5.9286 0.0389 -0.2172
-5.5308 0.4522 -0.1693
-5.4164 0.5838 -0.1546
-5.3669 0.6251 -0.1494
-5.3481 0.6577 -0.1461
-5.3780 0.6798 -0.1457
-3.5373 0.2561 -0.1190
-3.5493 0.2301 -0.1222
-3.5628 0.2176 -0.1242
-3.5928 0.1712 -0.1305
-3.6088 0.1680 -0.1318
-3.6267 0.1450 -0.1351
-3.6669 0.0961 -0.1422
-3.6853 0.1036 -0.1425
-3.7684 -0.0110 -0.1586
-3.8001 -0.0450 -0.1638
-3.8782 -0.1407 -0.1777
-3.9162 -0.1675 -0.1825
-4.1434 -0.6372 -0.2419
-4.1928 -0.6418 -0.2452
-4.2989 -0.7818 -0.2651
-4.4038 -0.8952 -0.2823
-4.5342 -1.0433 -0.3044
-4.6392 -1.1166 -0.3176
-4.7646 -1.2136 -0.3344
-5.0079 -1.5004 -0.3766
-5.1509 -1.5819 -0.3929
-6.5442 -0.6888 -0.3846
-6.0738 -0.2018 -0.3096
-5.3538 0.6347 -0.1857
-5.3430 0.6655 -0.1821
-5.3593 0.6900 -0.1806
-5.3545 0.7176 -0.1776
-3.5230 0.2668 -0.1331
-3.5345 0.2505 -0.1359
-3.5471 0.2388 -0.1382
-3.5606 0.2314 -0.1401
-3.5746 0.2120 -0.1435
-3.5895 0.2057 -0.1454
-3.6061 0.1733 -0.1505
-3.6235 0.1552 -0.1540
-3.6415 0.1450 -0.1566
-3.6636 0.1030 -0.1633
-3.6836 0.0968 -0.1655
-3.7086 0.0620 -0.1716
-3.7658 -0.0110 -0.1847
-3.8682 -0.1124 -0.2046
-4.1772 -0.6077 -0.2874
-4.2581 -0.6878 -0.3031
-4.3817 -0.8505 -0.3320
-4.5913 -1.1714 -0.3864
-4.6907 -1.2243 -0.4002
-4.8085 -1.2995 -0.4180
-4.9968 -1.4837 -0.4542
-5.1532 -1.5874 -0.4784
-5.4357 -1.8680 -0.5333
-5.5328 -1.8396 -0.5370
-5.6321 -1.8108 -0.5409
-5.7555 -1.8100 -0.5499
-5.8594 -1.7790 -0.5538
-5.9408 -1.7188 -0.5526
-5.9477 -1.5773 -0.5359
-6.0518 -1.5450 -0.5397
-6.1056 -1.4606 -0.5335
-6.2389 -1.4525 -0.5423
-6.3194 -1.3930 -0.5411
-6.4292 -1.3576 -0.5449
-6.6064 -1.3728 -0.5599
-6.7597 -1.3623 -0.5699
-6.6417 -1.1547 -0.5360
-6.8028 -1.0355 -0.5335
-6.7014 -0.5813 -0.4710
-5.9780 -0.1460 -0.3647
-6.0147 -0.0990 -0.3617
-5.9374 -0.0037 -0.3445
-5.8826 0.0760 -0.3307
-5.8323 0.1491 -0.3182
-5.7094 0.2899 -0.2920
-5.6492 0.3532 -0.2799
-5.4663 0.5204 -0.2461
-5.3354 0.6454 -0.2213
-5.3312 0.6745 -0.2174
-3.5320 0.2501 -0.1525
-3.5579 0.2250 -0.1584
-3.5721 0.2109 -0.1618
-3.5871 0.1998 -0.1647
-3.6605 0.1076 -0.1847
-3.7064 0.0591 -0.1958
-3.7324 0.0316 -0.2021
-3.8253 -0.0633 -0.2243
-3.8667 -0.1165 -0.2357
-4.1278 -0.6100 -0.3305
-4.1918 -0.6549 -0.3428
-4.2920 -0.7790 -0.3697
-4.3788 -0.8502 -0.3879
-4.5229 -1.0303 -0.4269
-4.6426 -1.1325 -0.4525
-4.7537 -1.2005 -0.4724
-4.9738 -1.4462 -0.5278
-5.0501 -1.4194 -0.5308
-5.0893 -1.3326 -0.5219
-5.1656 -1.3045 -0.5248
-5.2295 -1.2572 -0.5238
-5.3079 -1.2287 -0.5268
-5.4681 -1.1694 -0.5328
-5.9287 0.0093 -0.4049
-5.8603 0.0940 -0.3865
-5.8112 0.1660 -0.3717
-5.7794 0.2274 -0.3599
-5.7089 0.3427 -0.3369
-5.6298 0.4084 -0.3203
-5.4604 0.5293 -0.2875
-5.4054 0.5760 -0.2757
-5.3288 0.7089 -0.2497
-3.5299 0.2574 -0.1680
-3.5423 0.2434 -0.1717
-3.5555 0.2287 -0.1755
-3.5696 0.2183 -0.1788
-3.5846 0.2013 -0.1833
-3.6004 0.1886 -0.1871
-3.6579 0.1077 -0.2068
-3.6816 0.0690 -0.2159
-3.7025 0.0685 -0.2182
-3.7249 0.0619 -0.2217
-3.7838 -0.0045 -0.2392
-3.8177 -0.0417 -0.2491
-3.8616 -0.1070 -0.2647
-3.8942 -0.1171 -0.2699
-4.1323 -0.6326 -0.3818
-4.1975 -0.6785 -0.3965
-4.2733 -0.7397 -0.4150
-4.3898 -0.8821 -0.4513
-4.5526 -1.1001 -0.5054
-4.6560 -1.1642 -0.5272
-4.9054 -1.1825 -0.5572
-4.9640 -1.1392 -0.5563
-5.0226 -1.0959 -0.5554
-5.0812 -1.0526 -0.5545
-5.1397 -1.0093 -0.5536
-5.1983 -0.9660 -0.5527
-5.2569 -0.9226 -0.5517
-5.3155 -0.8793 -0.5508
-5.3741 -0.8360 -0.5499
-5.4762 -0.8350 -0.5608
-5.5362 -0.7907 -0.5598
-5.5802 -0.7325 -0.5549
-5.6396 -0.6885 -0.5539
-5.7760 -0.6133 -0.5561
-5.8011 -0.5447 -0.5473
-5.8427 -0.4895 -0.5426
-5.8843 -0.4355 -0.5380
-5.9598 -0.4028 -0.5407
-6.0184 -0.3595 -0.5398
-6.0770 -0.3162 -0.5389
-6.0608 -0.2353 -0.5236
-5.7460 0.2479 -0.4089
-5.6040 0.3836 -0.3708
-5.5059 0.4895 -0.3425
-5.4384 0.5422 -0.3264
-5.4236 0.5789 -0.3187
-5.4019 0.6153 -0.3103
-5.3886 0.6483 -0.3033
-3.5269 0.2482 -0.1863
-3.5397 0.2419 -0.1892
-3.5533 0.2410 -0.1910
-3.5671 0.2245 -0.1959
-3.5819 0.2124 -0.2001
-3.5977 0.1950 -0.2054
-3.6332 0.1533 -0.2178
-3.6769 0.0874 -0.2358
-3.6994 0.0713 -0.2417
-3.7219 0.0648 -0.2457
-3.7515 0.0237 -0.2573
-3.8159 -0.0451 -0.2785
-3.8563 -0.0966 -0.2934
-3.8921 -0.1186 -0.3021
-3.9578 -0.2302 -0.3316
-4.1202 -0.6063 -0.4236
-4.2005 -0.6949 -0.4506
-4.2892 -0.7870 -0.4793
-4.3870 -0.8821 -0.5097
-4.4997 -0.9916 -0.5447
-4.5250 -0.9050 -0.5313
-4.5865 -0.8935 -0.5369
-4.6494 -0.8810 -0.5423
-4.6993 -0.8441 -0.5416
-4.7343 -0.7842 -0.5345
-4.7759 -0.7365 -0.5307
-4.8490 -0.7334 -0.5392
-4.9947 -0.7154 -0.5541
-5.0462 -0.6773 -0.5533
-5.1077 -0.6500 -0.5558
-5.5770 -0.3806 -0.5632
-5.8500 -0.1205 -0.5478
-5.8711 -0.0673 -0.5403
-5.8181 0.0172 -0.5176
-5.4910 0.4644 -0.3913
-5.4006 0.5589 -0.3620
-5.3689 0.6593 -0.3389
-5.3355 0.6940 -0.3281
-5.3120 0.7251 -0.3192
-3.5241 0.2454 -0.2040
-3.5505 0.2336 -0.2103
-3.5645 0.2222 -0.2147
-3.5793 0.2079 -0.2199
-3.5952 0.1931 -0.2253
-3.6314 0.1404 -0.2418
-3.6524 0.1090 -0.2516
-3.6722 0.1055 -0.2551
-3.6967 0.0719 -0.2658
-3.7215 0.0505 -0.2740
-3.7464 0.0376 -0.2803
-3.8127 -0.0423 -0.3069
-3.8585 -0.1156 -0.3292
-3.8983 -0.1500 -0.3423
-3.9447 -0.1964 -0.3588
-4.2817 -0.7758 -0.5313
-4.3508 -0.8043 -0.5473
-4.4253 -0.8359 -0.5647
-4.5946 -0.7866 -0.5783
-4.6231 -0.7197 -0.5681
-4.6700 -0.6850 -0.5674
-4.7169 -0.6504 -0.5666
-4.7638 -0.6157 -0.5659
-4.8178 -0.5902 -0.5681
-4.8649 -0.5553 -0.5674
-4.9764 -0.5042 -0.5724
-5.0064 -0.4508 -0.5652
-5.0535 -0.4159 -0.5644
-5.1006 -0.3810 -0.5637
-5.1478 -0.3462 -0.5630
-5.2524 -0.2844 -0.5647
-5.2999 -0.2494 -0.5640
-5.3473 -0.2143 -0.5632
-5.3948 -0.1792 -0.5625
-5.4537 -0.1512 -0.5649
-5.5015 -0.1160 -0.5642
-5.5250 -0.0673 -0.5571
-5.5721 -0.0324 -0.5563
-5.6193 0.0025 -0.5556
-5.6664 0.0373 -0.5549
-5.7534 0.0547 -0.5636
-5.7878 0.0958 -0.5597
-5.7812 0.1523 -0.5466
-5.3716 0.5733 -0.3977
-5.3810 0.6031 -0.3927
-5.3493 0.6701 -0.3738
-5.3369 0.7006 -0.3655
-5.3003 0.7338 -0.3531
-3.5111 0.2745 -0.2126
-3.5217 0.2477 -0.2207
-3.5352 0.2540 -0.2213
-3.5476 0.2238 -0.2306
-3.5621 0.2309 -0.2312
-3.5925 0.1936 -0.2450
-3.6095 0.1751 -0.2521
-3.6275 0.1597 -0.2587
-3.6486 0.1215 -0.2712
-3.6690 0.1103 -0.2772
-3.6925 0.0834 -0.2874
-3.7169 0.0632 -0.2961
-3.7453 0.0292 -0.3088
-3.7813 -0.0315 -0.3291
-3.8094 -0.0394 -0.3355
-3.8489 -0.0879 -0.3534
-3.8883 -0.1234 -0.3682
-3.9361 -0.1765 -0.3886
-4.1047 -0.5792 -0.5118
-4.1739 -0.6392 -0.5373
-4.2199 -0.6267 -0.5417
-4.2636 -0.6063 -0.5438
-4.3037 -0.5767 -0.5432
-4.3559 -0.5716 -0.5504
-4.4098 -0.5664 -0.5578
-4.5753 -0.4440 -0.5552
-4.6280 -0.4289 -0.5601
-4.6757 -0.4056 -0.5622
-4.7116 -0.3671 -0.5588
-4.7344 -0.3144 -0.5499
-4.8084 -0.3195 -0.5630
-4.9504 -0.2395 -0.5668
-4.9849 -0.2009 -0.5631
-5.0274 -0.1695 -0.5624
-5.0786 -0.1447 -0.5648
-5.1213 -0.1131 -0.5641
-5.2068 -0.0499 -0.5628
-5.2584 -0.0238 -0.5648
-5.2733 0.0243 -0.5557
-5.2877 0.0709 -0.5469
-5.3673 0.0819 -0.5571
-5.4409 0.0981 -0.5651
-5.4841 0.1300 -0.5644
-5.5385 0.1571 -0.5667
-5.5820 0.1892 -0.5660
-5.6020 0.2304 -0.5594
-5.5897 0.2822 -0.5451
-5.5561 0.3387 -0.5262
-5.4635 0.5919 -0.4509
-5.3504 0.6769 -0.4124
-5.3121 0.7119 -0.3979
-5.3219 0.7371 -0.3934
-3.5193 0.2512 -0.2372
-3.5325 0.2514 -0.2395
-3.5457 0.2434 -0.2439
-3.5596 0.2358 -0.2484
-3.5741 0.2027 -0.2597
-3.5898 0.1977 -0.2639
-3.6072 0.1678 -0.2749
-3.6255 0.1493 -0.2830
-3.6460 0.1205 -0.2942
-3.6663 0.1106 -0.3005
-3.7157 0.0533 -0.3244
-3.7689 0.0179 -0.3432
-3.8034 -0.0243 -0.3605
-3.8830 -0.1137 -0.3983
-3.9405 -0.1995 -0.4312
-4.0261 -0.3522 -0.4867
-4.2785 -0.5264 -0.5777
-4.3176 -0.4975 -0.5771
-4.3603 -0.4754 -0.5789
-4.3957 -0.4397 -0.5759
-4.4387 -0.4174 -0.5777
-4.4738 -0.3819 -0.5747
-4.7920 -0.1562 -0.5722
-4.8312 -0.1272 -0.5716
-4.8645 -0.0930 -0.5685
-4.9097 -0.0691 -0.5703
-4.9490 -0.0401 -0.5697
-4.9882 -0.0111 -0.5691
-5.0133 0.0277 -0.5634
-5.0667 0.0470 -0.5679
-5.1059 0.0760 -0.5673
-5.1452 0.1050 -0.5666
-5.1770 0.1381 -0.5636
-5.2161 0.1670 -0.5630
-5.2552 0.1959 -0.5624
-5.2943 0.2247 -0.5618
-5.3414 0.2501 -0.5636
-5.3724 0.2825 -0.5606
-5.4199 0.3082 -0.5623
-5.4592 0.3372 -0.5617
-5.5183 0.3596 -0.5664
-5.5579 0.3889 -0.5658
-5.5183 0.4415 -0.5449
-5.2558 0.7792 -0.4090
-3.5177 0.2647 -0.2509
-3.5302 0.2562 -0.2558
-3.5715 0.2126 -0.2766
-3.5871 0.2029 -0.2824
-3.6044 0.1709 -0.2951
-3.6234 0.1402 -0.3077
-3.6426 0.1285 -0.3148
-3.6640 0.1066 -0.3254
-3.6859 0.0933 -0.3335
-3.7651 0.0235 -0.3693
-3.7974 -0.0092 -0.3850
-3.8456 -0.0962 -0.4196
-3.8826 -0.1218 -0.4343
-4.0987 -0.4475 -0.5708
-4.1340 -0.4214 -0.5702
-4.1613 -0.3764 -0.5627
-4.2018 -0.3630 -0.5668
-4.2399 -0.3431 -0.5686
-4.2627 -0.2932 -0.5587
-4.2974 -0.2676 -0.5582
-4.3320 -0.2419 -0.5576
-4.3739 -0.2274 -0.5617
-4.4439 -0.1757 -0.5606
-4.5097 -0.1188 -0.5572
-4.5357 -0.0831 -0.5521
-4.5748 -0.0624 -0.5538
-4.6283 -0.0558 -0.5625
-4.6441 -0.0111 -0.5527
-4.6838 0.0100 -0.5545
-4.7239 0.0313 -0.5562
-4.7482 0.0658 -0.5511
-4.7774 0.0956 -0.5483
-4.8232 0.1130 -0.5523
