ply
format ascii 1.0
element vertex 2097
property float x
property float y
property float z
end_header
-3.0258 1.2999 -0.5629
-3.0391 1.2930 -0.5679
-3.0515 1.2864 -0.5731
-3.0690 1.2799 -0.5713
-3.0834 1.2737 -0.5725
-3.0953 1.2679 -0.5758
-3.1115 1.2624 -0.5725
-3.1238 1.2571 -0.5736
-3.1345 1.2520 -0.5761
-3.1457 1.2472 -0.5771
-3.1598 1.2427 -0.5731
-3.1693 1.2383 -0.5751
-3.1823 1.2344 -0.5709
-3.1908 1.2302 -0.5730
0.9820 3.4506 0.7275
0.4675 3.0858 0.2599
0.3537 3.0050 0.1561
0.3716 2.9839 0.0602
0.3464 2.9433 -0.0379
0.1952 2.8489 -0.1329
0.0916 2.7765 -0.2238
0.1464 2.7704 -0.3226
0.5206 2.8920 -0.4588
0.3526 2.7927 -0.5457
-0.1476 2.5673 -0.5724
-0.9362 2.2188 -0.5914
-1.5746 1.9490 -0.5659
-1.6553 1.9042 -0.5983
-1.7898 1.8425 -0.6090
-2.0006 1.7582 -0.5848
-2.0734 1.7212 -0.6024
-2.2919 1.6291 -0.5929
-2.4609 1.5585 -0.5835
-2.5738 1.5084 -0.5870
-2.6862 1.4625 -0.5773
-2.7639 1.4282 -0.5790
-2.8396 1.3972 -0.5727
-2.8718 1.3838 -0.5707
-2.9043 1.3710 -0.5664
-2.9284 1.3601 -0.5676
-2.9482 1.3504 -0.5714
-2.9757 1.3399 -0.5664
-2.9949 1.3311 -0.5681
-3.0108 1.3230 -0.5721
-3.0288 1.3149 -0.5727
-3.0512 1.3069 -0.5672
-3.0634 1.3001 -0.5723
-3.0955 1.2867 -0.5702
-3.1095 1.2806 -0.5703
-3.1203 1.2749 -0.5738
-3.1317 1.2693 -0.5758
-3.1422 1.2640 -0.5782
-3.1562 1.2590 -0.5748
-3.1664 1.2541 -0.5761
-3.1786 1.2496 -0.5735
-3.1886 1.2452 -0.5737
-3.1971 1.2409 -0.5758
1.0378 3.6126 0.7199
0.4440 3.2786 0.5266
0.6253 3.2518 0.1470
0.4074 3.1181 0.0378
0.3816 3.0766 -0.0626
0.2675 2.9946 -0.1602
0.1189 2.8985 -0.2512
0.2602 2.9325 -0.3601
-0.6851 2.4230 -0.5924
-1.0518 2.2523 -0.5911
-1.5679 2.0120 -0.5889
-1.8697 1.8672 -0.6022
-2.1646 1.7348 -0.5843
-2.3388 1.6523 -0.5883
-2.4843 1.5846 -0.5873
-2.5947 1.5323 -0.5901
-2.6605 1.5046 -0.5798
-2.6954 1.4864 -0.5861
-2.7323 1.4684 -0.5890
-2.7893 1.4459 -0.5747
-2.8243 1.4299 -0.5738
-2.8524 1.4160 -0.5764
-2.8841 1.4018 -0.5742
-2.9186 1.3877 -0.5674
-2.9384 1.3771 -0.5721
-2.9626 1.3661 -0.5712
-2.9850 1.3558 -0.5706
-3.0032 1.3466 -0.5729
-3.0181 1.3383 -0.5777
-3.0397 1.3293 -0.5740
-3.0564 1.3213 -0.5745
-3.0737 1.3137 -0.5732
-3.0841 1.3070 -0.5794
-3.1046 1.2997 -0.5717
-3.1162 1.2934 -0.5747
-3.1290 1.2873 -0.5751
-3.1388 1.2816 -0.5790
-3.1630 1.2706 -0.5778
-3.1751 1.2655 -0.5757
-3.1865 1.2607 -0.5741
-3.1970 1.2561 -0.5731
-3.2053 1.2517 -0.5751
-3.2115 1.2472 -0.5803
0.7030 3.5682 0.6475
0.7271 3.5522 0.5494
0.5305 3.1792 -0.4146
-1.4422 2.1443 -0.5857
-1.6430 2.0431 -0.5887
-1.8108 1.9586 -0.5910
-1.9197 1.9003 -0.6047
-2.2029 1.7639 -0.5864
-2.2966 1.7171 -0.5863
-2.3667 1.6804 -0.5920
-2.5075 1.6104 -0.5910
-2.6312 1.5507 -0.5834
-2.7179 1.5067 -0.5860
-2.7575 1.4869 -0.5859
-2.8054 1.4654 -0.5771
-2.8391 1.4488 -0.5765
-2.8699 1.4335 -0.5761
-2.8980 1.4194 -0.5763
-2.9584 1.3919 -0.5669
-2.9730 1.3823 -0.5747
-2.9981 1.3709 -0.5708
-3.0145 1.3617 -0.5746
-3.0374 1.3515 -0.5699
-3.0676 1.3351 -0.5746
-3.0978 1.3198 -0.5754
-3.1108 1.3128 -0.5770
-3.1215 1.3063 -0.5810
-3.1610 1.2877 -0.5771
-3.1745 1.2820 -0.5732
-3.1845 1.2768 -0.5742
-3.1956 1.2717 -0.5725
-3.2033 1.2669 -0.5759
-3.2122 1.2623 -0.5767
-3.2203 1.2578 -0.5782
0.8583 3.7898 0.6556
0.4715 3.2802 -0.4412
-0.9279 2.4907 -0.5958
-1.7256 2.0679 -0.5851
-1.9082 1.9722 -0.5789
-1.9845 1.9253 -0.6011
-2.1420 1.8452 -0.5867
-2.2175 1.8017 -0.5983
-2.4188 1.6984 -0.5834
-2.4918 1.6600 -0.5815
-2.5405 1.6320 -0.5889
-2.6564 1.5717 -0.5831
-2.6907 1.5513 -0.5907
-2.7481 1.5237 -0.5799
-2.7726 1.5078 -0.5899
-2.8522 1.4680 -0.5804
-2.9179 1.4350 -0.5727
-2.9605 1.4106 -0.5788
-3.0073 1.3867 -0.5750
-3.0257 1.3765 -0.5761
-3.0431 1.3669 -0.5772
-3.0795 1.3485 -0.5738
-3.0926 1.3407 -0.5767
-3.1070 1.3329 -0.5770
-3.1240 1.3250 -0.5727
-3.1359 1.3182 -0.5744
-3.1456 1.3119 -0.5786
-3.1606 1.3052 -0.5739
-3.1720 1.2991 -0.5737
-3.1826 1.2934 -0.5740
-3.1897 1.2881 -0.5794
-3.1994 1.2828 -0.5800
-3.2109 1.2776 -0.5764
-3.2209 1.2728 -0.5746
-3.2282 1.2681 -0.5772
-1.5939 2.2085 -0.5888
-1.7430 2.1205 -0.6009
-1.8901 2.0357 -0.6053
-2.0532 1.9458 -0.5950
-2.1766 1.8766 -0.5912
-2.3679 1.7688 -0.5880
-2.4324 1.7306 -0.5936
-2.6266 1.6221 -0.5866
-2.7246 1.5673 -0.5831
-2.8041 1.5226 -0.5811
-2.8356 1.5043 -0.5828
-2.8745 1.4839 -0.5764
-2.9330 1.4515 -0.5732
-2.9749 1.4262 -0.5787
-2.9981 1.4134 -0.5771
-3.0165 1.4024 -0.5791
-3.0325 1.3924 -0.5827
-3.0583 1.3802 -0.5734
-3.0724 1.3713 -0.5767
-3.0898 1.3619 -0.5748
-3.1190 1.3454 -0.5748
-3.1295 1.3383 -0.5790
-3.1474 1.3301 -0.5716
-3.1548 1.3239 -0.5787
-3.1669 1.3172 -0.5781
-3.1775 1.3110 -0.5789
-3.1893 1.3048 -0.5770
-3.2123 1.2933 -0.5713
-3.2171 1.2884 -0.5792
-3.2270 1.2832 -0.5774
-3.2380 1.2783 -0.5725
0.8211 4.0790 0.7214
-0.7091 2.8089 -0.6167
-1.2346 2.5017 -0.5775
-1.6240 2.2600 -0.6023
-2.1982 1.9135 -0.6010
-2.4089 1.7902 -0.5854
-2.5317 1.7141 -0.5929
-2.6447 1.6463 -0.5913
-2.7451 1.5875 -0.5841
-2.8265 1.5397 -0.5787
-2.8575 1.5207 -0.5799
-2.8949 1.4997 -0.5735
-2.9167 1.4852 -0.5787
-2.9397 1.4706 -0.5814
-2.9683 1.4545 -0.5770
-2.9921 1.4405 -0.5755
-3.0126 1.4280 -0.5759
-3.0358 1.4150 -0.5719
-3.0507 1.4050 -0.5758
-3.0648 1.3955 -0.5798
-3.1021 1.3747 -0.5730
-3.1148 1.3664 -0.5754
-3.1314 1.3574 -0.5715
-3.1411 1.3503 -0.5765
-3.1553 1.3423 -0.5739
-3.1653 1.3355 -0.5767
-3.1785 1.3284 -0.5738
-3.1856 1.3225 -0.5798
-3.1979 1.3159 -0.5767
-3.2061 1.3102 -0.5797
-3.2173 1.3042 -0.5764
-3.2265 1.2987 -0.5761
-3.2350 1.2935 -0.5765
-3.2421 1.2886 -0.5789
0.6794 4.1550 0.7844
0.6513 4.1098 0.6751
-1.3195 2.5344 -0.5815
-1.7008 2.2852 -0.6014
-1.8942 2.1633 -0.5935
-2.0304 2.0755 -0.5953
-2.2650 1.9264 -0.5906
-2.3361 1.8787 -0.5994
-2.4354 1.8175 -0.5895
-2.5555 1.7390 -0.5961
-2.6643 1.6695 -0.5949
-2.7624 1.6086 -0.5873
-2.8084 1.5807 -0.5809
-2.8455 1.5575 -0.5786
-2.8797 1.5362 -0.5762
-2.9105 1.5169 -0.5745
-2.9356 1.5004 -0.5760
-2.9604 1.4845 -0.5761
-2.9820 1.4703 -0.5778
-3.0039 1.4563 -0.5776
-3.0277 1.4420 -0.5738
-3.0441 1.4307 -0.5768
-3.0783 1.4086 -0.5776
-3.0953 1.3980 -0.5762
-3.1101 1.3885 -0.5766
-3.1226 1.3799 -0.5790
-3.1410 1.3698 -0.5720
-3.1525 1.3620 -0.5739
-3.1619 1.3549 -0.5782
-3.1718 1.3479 -0.5810
-3.1854 1.3402 -0.5769
-3.1937 1.3339 -0.5807
-3.2064 1.3269 -0.5763
-3.2151 1.3209 -0.5780
-3.2237 1.3151 -0.5793
-3.2346 1.3091 -0.5753
-3.2429 1.3037 -0.5756
-3.2499 1.2986 -0.5779
-1.1653 2.7286 -0.5725
-1.3859 2.5750 -0.5892
-1.5454 2.4617 -0.6106
-1.7410 2.3289 -0.6111
-1.9297 2.2030 -0.6022
-2.0844 2.0999 -0.5947
-2.1887 2.0281 -0.5990
-2.2964 1.9560 -0.5952
-2.4616 1.8443 -0.5935
-2.5907 1.7571 -0.5922
-2.7840 1.6272 -0.5870
-2.8278 1.5989 -0.5812
-2.8530 1.5802 -0.5878
-2.8927 1.5552 -0.5801
-2.9535 1.5154 -0.5738
-2.9962 1.4855 -0.5778
-3.0342 1.4590 -0.5811
-3.0745 1.4328 -0.5761
-3.0895 1.4222 -0.5780
-3.1036 1.4122 -0.5799
-3.1358 1.3915 -0.5749
-3.1479 1.3829 -0.5764
-3.1586 1.3750 -0.5792
-3.1834 1.3588 -0.5768
-3.2024 1.3450 -0.5805
-3.2136 1.3380 -0.5782
-3.2246 1.3313 -0.5752
-3.2425 1.3193 -0.5745
-3.2483 1.3141 -0.5795
-3.2570 1.3086 -0.5780
0.4593 4.2833 0.7114
0.4319 4.2392 0.6048
-1.2393 2.7693 -0.5809
-1.4505 2.6143 -0.5966
-1.6413 2.4754 -0.6058
-1.8803 2.3083 -0.5873
-2.0530 2.1866 -0.5781
-2.1423 2.1195 -0.5918
-2.2463 2.0445 -0.5935
-2.4215 1.9189 -0.5939
-2.4876 1.8707 -0.5974
-2.5574 1.8213 -0.5945
-2.6771 1.7370 -0.5877
-2.7595 1.6770 -0.5922
-2.8091 1.6433 -0.5837
-2.8403 1.6203 -0.5868
-2.8732 1.5968 -0.5863
-2.9027 1.5756 -0.5866
-2.9404 1.5507 -0.5770
-2.9866 1.5170 -0.5795
-3.0103 1.5005 -0.5777
-3.0329 1.4848 -0.5753
-3.0524 1.4709 -0.5749
-3.0879 1.4457 -0.5740
-3.1000 1.4359 -0.5791
-3.1165 1.4245 -0.5773
-3.1288 1.4150 -0.5801
-3.1416 1.4055 -0.5813
-3.1561 1.3957 -0.5788
-3.1673 1.3873 -0.5805
-3.1808 1.3783 -0.5775
-3.1929 1.3700 -0.5758
-3.2017 1.3630 -0.5788
-3.2110 1.3560 -0.5802
-3.2226 1.3486 -0.5766
-3.2322 1.3419 -0.5757
-3.2399 1.3359 -0.5779
-3.2457 1.3304 -0.5833
-3.2555 1.3242 -0.5798
-3.2623 1.3188 -0.5820
-0.7877 3.1952 -0.6322
-1.3104 2.8091 -0.5892
-1.7196 2.4961 -0.6049
-1.8794 2.3743 -0.6095
-2.0849 2.2238 -0.5865
-2.1727 2.1546 -0.5993
-2.2451 2.0966 -0.6137
-2.4529 1.9434 -0.5959
-2.5171 1.8941 -0.5990
-2.7018 1.7568 -0.5879
-2.7939 1.6883 -0.5827
-2.8564 1.6395 -0.5894
-2.8909 1.6140 -0.5866
-2.9171 1.5937 -0.5891
-2.9830 1.5470 -0.5748
-3.0270 1.5137 -0.5745
-3.0410 1.5016 -0.5812
-3.0622 1.4862 -0.5782
-3.0798 1.4729 -0.5781
-3.0972 1.4600 -0.5770
-3.1110 1.4491 -0.5794
-3.1285 1.4367 -0.5755
-3.1526 1.4175 -0.5800
-3.1650 1.4081 -0.5802
-3.1784 1.3984 -0.5778
-3.1886 1.3903 -0.5797
-3.1980 1.3826 -0.5821
-3.2085 1.3747 -0.5819
-3.2219 1.3661 -0.5754
-3.2297 1.3595 -0.5784
-3.2397 1.3524 -0.5763
-3.2473 1.3462 -0.5783
-3.2547 1.3402 -0.5800
-3.2621 1.3344 -0.5812
-3.2705 1.3284 -0.5796
-1.7811 2.7184 0.3177
-1.7198 2.7402 0.1880
-1.5935 2.7997 -0.0099
-1.5047 2.8587 -0.0665
-1.5059 2.8454 -0.1254
-1.0862 3.0822 -0.5945
-1.3967 2.8349 -0.5928
-1.7379 2.5567 -0.6225
-1.9437 2.3955 -0.6087
-2.1377 2.2455 -0.5862
-2.2514 2.1550 -0.5856
-2.3331 2.0884 -0.5927
-2.4198 2.0194 -0.5919
-2.4960 1.9588 -0.5911
-2.6226 1.8581 -0.5902
-2.7144 1.7836 -0.5961
-2.7659 1.7437 -0.5903
-2.8058 1.7121 -0.5898
-2.8436 1.6822 -0.5883
-2.8851 1.6507 -0.5808
-2.9063 1.6322 -0.5887
-2.9355 1.6091 -0.5876
-2.9684 1.5843 -0.5806
-2.9906 1.5663 -0.5823
-3.0380 1.5295 -0.5773
-3.0913 1.4867 -0.5787
-3.1096 1.4727 -0.5757
-3.1213 1.4624 -0.5805
-3.1372 1.4502 -0.5782
-3.1504 1.4396 -0.5788
-3.1634 1.4293 -0.5786
-3.1749 1.4198 -0.5796
-3.1887 1.4096 -0.5760
-3.1969 1.4020 -0.5808
-3.2098 1.3926 -0.5767
-3.2201 1.3846 -0.5762
-3.2296 1.3769 -0.5762
-3.2373 1.3702 -0.5790
-3.2466 1.3630 -0.5780
-3.2535 1.3569 -0.5811
-3.2636 1.3497 -0.5766
-3.2692 1.3443 -0.5815
-3.2769 1.3383 -0.5809
-1.6848 2.8799 0.3789
-1.7493 2.8137 0.3179
-1.7619 2.7934 0.2688
-1.8614 2.6886 0.1615
-1.8027 2.7204 0.0732
-1.7955 2.7169 0.0247
-1.8281 2.6796 -0.0254
-1.8016 2.6919 -0.0756
-1.7207 2.7489 -0.1307
-1.7453 2.7179 -0.1832
-1.7031 2.7416 -0.2423
-1.5833 2.8275 -0.3161
-1.5917 2.7712 -0.5653
-1.6334 2.7258 -0.6177
-2.0544 2.3781 -0.5894
-2.1338 2.3076 -0.6085
-2.2375 2.2200 -0.6119
-2.3433 2.1320 -0.6073
-2.4649 2.0339 -0.5873
-2.5368 1.9738 -0.5868
-2.5867 1.9303 -0.5945
-2.6594 1.8713 -0.5843
-2.7099 1.8290 -0.5841
-2.7531 1.7924 -0.5856
-2.7842 1.7648 -0.5933
-2.8206 1.7340 -0.5947
-2.8655 1.6979 -0.5863
-2.8972 1.6714 -0.5862
-2.9277 1.6460 -0.5850
-2.9564 1.6223 -0.5833
-2.9765 1.6044 -0.5882
-3.0037 1.5824 -0.5841
-3.0285 1.5623 -0.5805
-3.0509 1.5440 -0.5778
-3.0651 1.5310 -0.5833
-3.0863 1.5141 -0.5790
-3.1007 1.5014 -0.5818
-3.1200 1.4862 -0.5769
-3.1340 1.4742 -0.5779
-3.1478 1.4627 -0.5782
-3.1607 1.4517 -0.5785
-3.1716 1.4420 -0.5811
-3.1824 1.4326 -0.5830
-3.1966 1.4217 -0.5782
-3.2070 1.4128 -0.5788
-3.2167 1.4045 -0.5798
-3.2291 1.3950 -0.5748
-3.2373 1.3877 -0.5769
-3.2483 1.3794 -0.5727
-3.2524 1.3741 -0.5820
-3.2646 1.3655 -0.5731
-3.2697 1.3601 -0.5794
-3.2757 1.3543 -0.5829
-1.8238 2.8406 0.4290
-1.8800 2.7801 0.3711
-1.8836 2.7688 0.3275
-1.7489 2.8757 0.2636
-1.8750 2.7520 0.1969
-1.8697 2.7483 0.1520
-1.8456 2.7614 0.1078
-1.8100 2.7842 0.0623
-1.7088 2.8649 0.0160
-1.7546 2.8146 -0.0374
-1.7890 2.7745 -0.0891
-1.7815 2.7713 -0.1420
-1.7528 2.7861 -0.1981
-0.0323 4.2344 -0.5728
-0.3373 3.9548 -0.6293
-1.6981 2.7785 -0.4974
-1.7737 2.6931 -0.5978
-2.1031 2.4034 -0.5920
-2.1788 2.3331 -0.6108
-2.4138 2.1293 -0.5919
-2.4966 2.0567 -0.5890
-2.6140 1.9518 -0.5959
-2.7250 1.8548 -0.5909
-2.7718 1.8139 -0.5889
-2.8101 1.7798 -0.5902
-2.8416 1.7513 -0.5944
-2.8760 1.7210 -0.5937
-2.9420 1.6639 -0.5876
-2.9688 1.6404 -0.5869
-2.9946 1.6179 -0.5853
-3.0160 1.5988 -0.5866
-3.0371 1.5802 -0.5865
-3.0790 1.5441 -0.5819
-3.1176 1.5113 -0.5747
-3.1428 1.4880 -0.5807
-3.1558 1.4764 -0.5818
-3.1715 1.4633 -0.5773
-3.1816 1.4537 -0.5806
-3.1922 1.4441 -0.5824
-3.2026 1.4347 -0.5835
-3.2141 1.4249 -0.5819
-3.2281 1.4139 -0.5743
-3.2380 1.4053 -0.5734
-3.2439 1.3989 -0.5798
-3.2530 1.3911 -0.5791
-3.2609 1.3839 -0.5801
-3.2681 1.3772 -0.5819
-3.2773 1.3697 -0.5784
-3.2832 1.3638 -0.5818
-3.2901 1.3577 -0.5823
-1.8897 2.8523 0.4483
-1.9425 2.7934 0.3917
-1.9218 2.8063 0.3557
-1.9334 2.7877 0.3107
-1.9028 2.8095 0.2740
-1.9321 2.7738 0.2249
-1.9439 2.7549 0.1792
-1.9299 2.7603 0.1364
-1.9163 2.7651 0.0922
-1.8846 2.7867 0.0474
-1.8309 2.8283 0.0005
-1.8438 2.8074 -0.0500
-1.8667 2.7774 -0.1001
-1.8404 2.7926 -0.1529
-0.4707 3.9948 -0.5374
-0.5286 3.9254 -0.6268
-1.7529 2.8118 -0.5055
-1.6833 2.8620 -0.5875
-1.7821 2.7648 -0.6191
-2.1434 2.4338 -0.5972
-2.3394 2.2507 -0.6053
-2.5387 2.0696 -0.5845
-2.6524 1.9633 -0.5897
-2.6941 1.9234 -0.5967
-2.7951 1.8312 -0.5884
-2.8321 1.7968 -0.5896
-2.8677 1.7638 -0.5892
-2.8988 1.7348 -0.5903
-2.9260 1.7092 -0.5927
-2.9615 1.6777 -0.5849
-3.0117 1.6314 -0.5830
-3.0541 1.5922 -0.5827
-3.0732 1.5745 -0.5825
-3.0907 1.5582 -0.5828
-3.1281 1.5248 -0.5760
-3.1393 1.5135 -0.5810
-3.1552 1.4993 -0.5780
-3.1661 1.4885 -0.5816
-3.1792 1.4765 -0.5807
-3.1898 1.4664 -0.5830
-3.2036 1.4543 -0.5786
-3.2144 1.4443 -0.5785
-3.2267 1.4336 -0.5745
-3.2333 1.4265 -0.5806
-3.2447 1.4167 -0.5764
-3.2505 1.4102 -0.5828
-3.2610 1.4011 -0.5785
-3.2687 1.3938 -0.5794
-3.2763 1.3867 -0.5798
-3.2843 1.3795 -0.5786
-3.2907 1.3732 -0.5807
-1.9017 2.9343 0.6045
-1.9131 2.9160 0.5602
-1.9083 2.9144 0.5216
-1.9117 2.9042 0.4795
-1.9144 2.8946 0.4372
-1.9745 2.8266 0.3787
-1.9700 2.8244 0.3387
-2.0197 2.7675 0.2860
-2.0454 2.7350 0.2400
-1.9965 2.7772 0.2072
-1.9604 2.8061 0.1691
-2.0118 2.7479 0.1189
-1.9999 2.7524 0.0760
-1.9543 2.7898 0.0333
-1.9582 2.7783 -0.0137
-1.9704 2.7587 -0.0611
-1.9485 2.7720 -0.1101
-1.8878 2.8222 -0.1641
-1.8626 2.8377 -0.2191
-1.6205 3.0275 -0.4988
-1.7251 2.9197 -0.5358
-1.7758 2.8625 -0.5834
-1.9832 2.6624 -0.5737
-2.0888 2.5571 -0.5890
-2.1817 2.4645 -0.6028
-2.3771 2.2738 -0.6071
-2.4930 2.1640 -0.5891
-2.5606 2.0979 -0.5907
-2.6717 1.9892 -0.5953
-2.7786 1.8866 -0.5870
-2.8530 1.8138 -0.5895
-2.9205 1.7485 -0.5873
-2.9754 1.6950 -0.5873
-3.0286 1.6444 -0.5806
-3.0436 1.6287 -0.5877
-3.0689 1.6052 -0.5809
-3.0858 1.5884 -0.5828
-3.1018 1.5726 -0.5845
-3.1378 1.5386 -0.5781
-3.1513 1.5253 -0.5794
-3.1616 1.5144 -0.5845
-3.1741 1.5021 -0.5852
-3.1887 1.4886 -0.5813
-3.1996 1.4778 -0.5824
-3.2132 1.4653 -0.5778
-3.2221 1.4562 -0.5806
-3.2309 1.4472 -0.5830
-3.2423 1.4368 -0.5793
-3.2581 1.4207 -0.5834
-3.2684 1.4114 -0.5790
-3.2755 1.4042 -0.5810
-3.2845 1.3960 -0.5777
-3.2913 1.3892 -0.5788
-3.2985 1.3822 -0.5782
-1.8810 3.0305 0.6521
-1.9098 2.9933 0.6000
-1.9043 2.9931 0.5617
-1.9159 2.9744 0.5165
-1.9443 2.9378 0.4658
-1.9479 2.9277 0.4234
-1.9751 2.8925 0.3742
-2.0615 2.7949 0.3114
-2.0860 2.7630 0.2661
-2.0247 2.8212 0.2378
-2.0057 2.8347 0.1986
-2.0323 2.8004 0.1517
-2.0056 2.8215 0.1110
-2.0173 2.8026 0.0653
-2.0291 2.7837 0.0197
-2.0554 2.7500 -0.0261
-2.0750 2.7231 -0.0712
-2.1009 2.6900 -0.1154
-1.9788 2.8061 -0.1713
-1.9381 2.8393 -0.2263
-1.8943 2.8750 -0.2854
-1.8264 2.9072 -0.5302
-1.8826 2.8434 -0.5730
-2.0378 2.6846 -0.5766
-2.0756 2.6400 -0.6168
-2.2529 2.4626 -0.5935
-2.4228 2.2877 -0.6042
-2.5322 2.1788 -0.5868
-2.5999 2.1098 -0.5863
-2.6409 2.0662 -0.5981
-2.6909 2.0148 -0.6009
-2.7905 1.9140 -0.5956
-2.8717 1.8320 -0.5909
-2.9158 1.7885 -0.5806
-2.9470 1.7570 -0.5791
-2.9660 1.7363 -0.5873
-2.9905 1.7111 -0.5884
-3.0134 1.6877 -0.5893
-3.0421 1.6595 -0.5817
-3.0586 1.6420 -0.5863
-3.0835 1.6178 -0.5791
-3.1006 1.6001 -0.5799
-3.1181 1.5825 -0.5788
-3.1276 1.5714 -0.5876
-3.1464 1.5532 -0.5819
-3.1619 1.5377 -0.5795
-3.1743 1.5248 -0.5807
-3.1871 1.5119 -0.5802
-3.1991 1.4997 -0.5799
-3.2093 1.4890 -0.5818
-3.2204 1.4778 -0.5811
-3.2303 1.4676 -0.5817
-3.2416 1.4566 -0.5786
-3.2506 1.4473 -0.5790
-3.2656 1.4312 -0.5841
-3.2763 1.4212 -0.5783
-3.2827 1.4142 -0.5814
-3.2910 1.4060 -0.5792
-3.3053 1.3916 -0.5783
-3.3090 1.3866 -0.5863
-1.9701 3.0003 0.6136
-1.9695 2.9900 0.5354
-1.9328 3.0255 0.5081
-1.9445 3.0067 0.4626
-1.9957 2.9440 0.4055
-2.0592 2.8680 0.3472
-2.1050 2.8121 0.2961
-2.0147 2.9057 0.2758
-2.0029 2.9127 0.2354
-2.0452 2.8605 0.1852
-2.0024 2.9010 0.1475
-2.0143 2.8819 0.1013
-2.0261 2.8628 0.0551
-2.0460 2.8351 0.0087
-2.0730 2.8000 -0.0373
-2.1210 2.7425 -0.0817
-2.1323 2.7242 -0.1260
-2.0700 2.7837 -0.1772
-2.0427 2.8057 -0.2289
-1.9603 2.8849 -0.2923
-1.7945 3.0417 -0.4391
-1.9052 2.9189 -0.4709
-1.9192 2.8965 -0.5252
-1.8922 2.9158 -0.5935
-1.9761 2.8221 -0.6228
-2.1923 2.5955 -0.5914
-2.2768 2.5034 -0.6043
-2.4536 2.3139 -0.6084
-2.5741 2.1888 -0.5821
-2.6213 2.1370 -0.5922
-2.6792 2.0752 -0.5918
-2.7756 1.9721 -0.5925
-2.8223 1.9227 -0.5885
-2.8526 1.8895 -0.5948
-2.8914 1.8486 -0.5911
-2.9283 1.8098 -0.5862
-2.9487 1.7868 -0.5945
-2.9777 1.7562 -0.5925
-3.0123 1.7207 -0.5819
-3.0285 1.7023 -0.5893
-3.0524 1.6772 -0.5863
-3.0693 1.6586 -0.5901
-3.0972 1.6305 -0.5780
-3.1123 1.6140 -0.5809
-3.1230 1.6014 -0.5886
-3.1400 1.5837 -0.5864
-3.1696 1.5523 -0.5841
-3.1857 1.5358 -0.5788
-3.1966 1.5239 -0.5809
-3.2073 1.5123 -0.5824
-3.2195 1.4996 -0.5802
-3.2298 1.4885 -0.5802
-3.2384 1.4789 -0.5828
-3.2495 1.4675 -0.5795
-3.2609 1.4561 -0.5743
-3.2666 1.4492 -0.5808
-3.2741 1.4409 -0.5824
-3.2913 1.4231 -0.5781
-3.2980 1.4157 -0.5795
-3.3051 1.4082 -0.5791
-3.3111 1.4015 -0.5809
-3.3162 1.3956 -0.5850
-1.9868 3.0492 0.6059
-1.9666 3.0679 0.5748
-2.0014 3.0222 0.5216
-1.9155 3.1170 0.5115
-2.0240 2.9860 0.4339
-2.0716 2.9257 0.3794
-2.1104 2.8761 0.3293
-2.0794 2.9067 0.2973
-2.0690 2.9135 0.2586
-2.0121 2.9731 0.2270
-2.0239 2.9541 0.1811
-2.0358 2.9351 0.1351
-2.1904 2.7281 -0.1345
-2.0803 2.8443 -0.1903
-2.0447 2.8773 -0.2441
-1.9703 2.9525 -0.3080
-1.8591 3.0595 -0.4452
-1.9737 2.9279 -0.4734
-1.9489 2.9473 -0.5386
-1.9428 2.9464 -0.6001
-2.0586 2.8150 -0.6148
-2.2246 2.6312 -0.5997
-2.3418 2.5007 -0.5955
-2.4059 2.4272 -0.6101
-2.4833 2.3402 -0.6128
-2.5995 2.2136 -0.5865
-2.6391 2.1675 -0.6003
-2.7133 2.0861 -0.5875
-2.7953 1.9933 -0.5958
-2.8741 1.9054 -0.5943
-2.9045 1.8710 -0.5971
-2.9395 1.8324 -0.5930
-2.9979 1.7677 -0.5885
-3.0477 1.7125 -0.5842
-3.0840 1.6713 -0.5885
-3.1015 1.6517 -0.5893
-3.1204 1.6309 -0.5866
-3.1482 1.5992 -0.5913
-3.1844 1.5605 -0.5769
-3.2065 1.5353 -0.5806
-3.2279 1.5113 -0.5815
-3.2370 1.5008 -0.5835
-3.2506 1.4867 -0.5754
-3.2574 1.4784 -0.5804
-3.2676 1.4675 -0.5773
-3.2766 1.4576 -0.5758
-3.2849 1.4483 -0.5748
-3.2908 1.4413 -0.5792
-3.2984 1.4328 -0.5785
-3.3041 1.4260 -0.5822
-3.3101 1.4190 -0.5843
-2.1118 2.9500 0.4028
-2.1092 2.9487 0.3647
-2.0250 3.0453 0.3474
-1.9973 3.0737 0.3114
-2.0011 3.0642 0.2666
-2.7557 2.1534 0.0211
-2.7471 2.1609 -0.0022
-2.7658 2.1362 -0.0270
-2.7743 2.1236 -0.0511
-2.1808 2.8071 -0.1478
-2.0903 2.9067 -0.2038
-2.0380 2.9615 -0.2611
-1.9618 3.0432 -0.3276
-1.9647 3.0206 -0.4977
-1.9687 3.0094 -0.5553
-2.0017 2.9654 -0.6029
-2.0951 2.8538 -0.6241
-2.2760 2.6449 -0.5991
-2.3970 2.5043 -0.5900
-2.4482 2.4422 -0.6091
-2.5254 2.3518 -0.6096
-2.6220 2.2408 -0.5923
-2.7376 2.1057 -0.5893
-2.8276 2.0005 -0.5887
-2.8965 1.9195 -0.5926
-2.9294 1.8810 -0.5918
-2.9563 1.8492 -0.5943
-3.0093 1.7873 -0.5937
-3.0635 1.7251 -0.5825
-3.0968 1.6854 -0.5891
-3.1162 1.6630 -0.5866
-3.1302 1.6462 -0.5900
-3.1674 1.6040 -0.5787
-3.1785 1.5906 -0.5827
-3.1925 1.5743 -0.5806
-3.2022 1.5626 -0.5850
-3.2179 1.5450 -0.5773
-3.2246 1.5363 -0.5852
-3.2348 1.5244 -0.5858
-3.2452 1.5122 -0.5846
-3.2561 1.4999 -0.5817
-3.2667 1.4879 -0.5780
-3.2732 1.4797 -0.5825
-3.2811 1.4704 -0.5833
-3.2898 1.4604 -0.5812
-3.3059 1.4421 -0.5776
-3.3114 1.4352 -0.5812
-3.3187 1.4269 -0.5794
-3.3240 1.4203 -0.5823
-2.1400 2.9901 0.4663
-2.1564 2.9658 0.4232
-2.1611 2.9561 0.3841
-2.1057 3.0137 0.2808
-2.0266 3.1079 0.2551
-2.7728 2.1733 0.0381
-2.8119 2.1207 -0.0105
-2.7995 2.1313 -0.0567
-2.2310 2.8171 -0.1564
-2.1319 2.9327 -0.2136
-1.8478 3.2649 -0.3688
-1.8849 3.2143 -0.4216
-1.8996 3.1907 -0.4788
-2.0408 3.0161 -0.4967
-1.9986 3.0606 -0.5688
-2.0409 3.0045 -0.6124
-2.1394 2.8823 -0.6296
-2.3311 2.6511 -0.5958
-2.4301 2.5300 -0.5945
-2.5016 2.4419 -0.6011
-2.7565 2.1307 -0.5948
-2.8342 2.0349 -0.6020
-2.8894 1.9688 -0.5866
-2.9148 1.9370 -0.5940
-2.9729 1.8658 -0.5956
-3.0036 1.8287 -0.5909
-3.0302 1.7964 -0.5881
-3.0711 1.7461 -0.5908
-3.0913 1.7215 -0.5898
-3.1145 1.6937 -0.5828
-3.1279 1.6769 -0.5876
-3.1471 1.6539 -0.5827
-3.1573 1.6407 -0.5899
-3.1781 1.6163 -0.5791
-3.1874 1.6044 -0.5856
-3.2033 1.5855 -0.5796
-3.2112 1.5751 -0.5867
-3.2245 1.5592 -0.5826
-3.2346 1.5467 -0.5836
-3.2461 1.5330 -0.5809
-3.2544 1.5225 -0.5837
-3.2645 1.5104 -0.5816
-3.2730 1.4999 -0.5822
-3.2891 1.4802 -0.5828
-3.2985 1.4691 -0.5781
-3.3050 1.4609 -0.5800
-3.3124 1.4520 -0.5791
-3.3170 1.4458 -0.5851
-3.3262 1.4353 -0.5769
-3.3315 1.4286 -0.5796
-3.3358 1.4227 -0.5847
-2.2076 2.9725 0.4751
-2.2235 2.9486 0.4336
-1.8489 3.4355 0.5260
-2.2756 2.8716 0.3096
-2.2407 2.9138 0.2825
-2.8050 2.1709 0.0303
-2.8185 2.1515 0.0067
-2.8282 2.1373 -0.0163
-2.7959 2.1766 -0.0389
-2.2795 2.8263 -0.1646
-2.2472 2.8635 -0.2130
-2.3470 2.7297 -0.2849
-2.1151 3.0131 -0.4401
-2.1515 2.9629 -0.4829
-2.0565 3.0769 -0.5720
-2.0791 3.0438 -0.6221
-2.1751 2.9196 -0.6385
-2.3836 2.6569 -0.5926
-2.4615 2.5566 -0.5996
-2.5180 2.4833 -0.6131
-2.7852 2.1433 -0.5926
-2.8421 2.0715 -0.5816
-2.8692 2.0360 -0.5913
-2.9014 1.9946 -0.5944
-2.9396 1.9462 -0.5891
-2.9623 1.9166 -0.5961
-2.9969 1.8729 -0.5886
-3.0176 1.8460 -0.5935
-3.0448 1.8116 -0.5891
-3.1075 1.7317 -0.5860
-3.1258 1.7084 -0.5848
-3.1395 1.6905 -0.5887
-3.1583 1.6669 -0.5834
-3.1710 1.6505 -0.5862
-3.1876 1.6297 -0.5812
-3.1988 1.6152 -0.5839
-3.2118 1.5987 -0.5823
-3.2206 1.5870 -0.5874
-3.2426 1.5589 -0.5860
-3.2529 1.5459 -0.5852
-3.2653 1.5306 -0.5784
-3.2752 1.5182 -0.5761
-3.2816 1.5096 -0.5808
-3.3043 1.4803 -0.5822
-3.3104 1.4724 -0.5852
-3.3176 1.4633 -0.5843
-3.3238 1.4552 -0.5853
-3.3324 1.4448 -0.5782
-3.3380 1.4375 -0.5796
-2.2627 2.9637 0.4521
-2.3825 2.7936 0.3088
-2.3679 2.8111 0.2800
-2.2736 2.9364 0.2699
-2.8383 2.1663 0.0443
-2.8545 2.1430 0.0211
-2.8534 2.1429 -0.0004
-2.8088 2.2011 -0.0210
-2.4014 2.7380 -0.1243
-2.3649 2.7836 -0.1682
-2.3703 2.7735 -0.2093
-2.4543 2.6594 -0.2362
-2.4780 2.6254 -0.2709
-2.2177 2.9618 -0.4299
-2.2158 2.9607 -0.4825
-2.2142 2.9591 -0.5361
-2.2122 2.9579 -0.5911
-2.2740 2.8735 -0.6174
-2.4069 2.6969 -0.6032
-2.4835 2.5943 -0.6095
-2.5479 2.5077 -0.6172
-2.6685 2.3490 -0.5836
-2.7610 2.2247 -0.5949
-2.8587 2.0946 -0.5868
-2.8854 2.0583 -0.5962
-2.9140 2.0197 -0.6018
-2.9527 1.9686 -0.5950
-2.9877 1.9223 -0.5884
-3.0089 1.8935 -0.5940
-3.0383 1.8547 -0.5882
-3.0822 1.7961 -0.5875
-3.1002 1.7719 -0.5892
-3.1159 1.7508 -0.5928
-3.1365 1.7235 -0.5875
-3.1558 1.6982 -0.5824
-3.1844 1.6599 -0.5824
-3.1951 1.6454 -0.5867
-3.2096 1.6263 -0.5831
-3.2213 1.6106 -0.5831
-3.2304 1.5982 -0.5871
-3.2432 1.5814 -0.5826
-3.2539 1.5672 -0.5813
-3.2630 1.5551 -0.5823
-3.2742 1.5404 -0.5773
-3.2901 1.5190 -0.5794
-3.2972 1.5093 -0.5813
-3.3055 1.4984 -0.5793
-3.3111 1.4907 -0.5838
-3.3195 1.4797 -0.5795
-3.3261 1.4708 -0.5796
-3.3326 1.4622 -0.5791
-3.3417 1.4494 -0.5887
-2.4287 2.7892 0.2918
-2.8780 2.1484 0.0354
-2.8584 2.1748 0.0164
-2.8252 2.2199 -0.0036
-2.4361 2.7575 -0.0940
-2.4600 2.7222 -0.1307
-2.4738 2.7009 -0.1675
-2.5113 2.6425 -0.2771
-2.2646 2.9780 -0.4351
-2.2700 2.9677 -0.4844
-2.3018 2.9212 -0.5238
-2.2742 2.9562 -0.5877
-2.3507 2.8486 -0.6044
-2.4253 2.7439 -0.6164
-2.6249 2.4691 -0.5504
-2.6614 2.4172 -0.5687
-2.6961 2.3679 -0.5856
-2.8308 2.1795 -0.5957
-2.8759 2.1168 -0.5914
-2.9475 2.0171 -0.5888
-2.9720 1.9826 -0.5944
-3.0029 1.9397 -0.5910
-3.0260 1.9074 -0.5936
-3.0575 1.8640 -0.5841
-3.0742 1.8404 -0.5901
-3.0912 1.8164 -0.5944
-3.1290 1.7638 -0.5927
-3.1624 1.7173 -0.5906
-3.1794 1.6938 -0.5865
-3.1961 1.6709 -0.5811
-3.2070 1.6555 -0.5843
-3.2236 1.6328 -0.5758
-3.2307 1.6224 -0.5839
-3.2449 1.6031 -0.5771
-3.2522 1.5925 -0.5831
-3.2589 1.5828 -0.5897
-3.2720 1.5651 -0.5813
-3.2807 1.5529 -0.5815
-3.2888 1.5415 -0.5822
-3.2990 1.5277 -0.5768
-3.3033 1.5211 -0.5854
-3.3111 1.5104 -0.5845
-3.3273 1.4881 -0.5774
-3.3321 1.4811 -0.5823
-3.3397 1.4708 -0.5779
-3.3440 1.4645 -0.5834
-3.3513 1.4546 -0.5781
-3.3547 1.4495 -0.5856
-2.6078 2.5855 0.2068
-2.5965 2.6010 0.1818
-2.8951 2.1620 0.0698
-2.8989 2.1556 0.0493
-2.8999 2.1534 0.0290
-2.8115 2.2806 -0.0081
-2.5428 2.6667 -0.1339
-2.5401 2.6691 -0.1706
-2.5493 2.6544 -0.2061
-2.5739 2.6173 -0.2383
-2.5902 2.5923 -0.2715
-2.3761 2.8962 -0.4659
-2.3759 2.8946 -0.5148
-2.3988 2.8578 -0.6038
-2.4587 2.7699 -0.6215
-2.6646 2.4731 -0.5470
-2.6929 2.4310 -0.5689
-2.7323 2.3732 -0.5812
-2.8091 2.2608 -0.5982
-2.8982 2.1314 -0.5913
-2.9620 2.0384 -0.5937
-2.9916 1.9953 -0.5931
-3.0240 1.9484 -0.5866
-3.0601 1.8954 -0.5999
-3.0883 1.8547 -0.5909
-3.1113 1.8215 -0.5862
-3.1435 1.7743 -0.5902
-3.1623 1.7472 -0.5858
-3.1908 1.7057 -0.5863
-3.2042 1.6863 -0.5859
-3.2149 1.6705 -0.5890
-3.2302 1.6485 -0.5822
-3.2424 1.6309 -0.5798
-3.2525 1.6161 -0.5805
-3.2633 1.6005 -0.5785
-3.2731 1.5863 -0.5777
-3.2817 1.5737 -0.5782
-3.2885 1.5636 -0.5825
-3.2952 1.5538 -0.5864
-3.3060 1.5384 -0.5786
-3.3140 1.5267 -0.5768
-3.3195 1.5186 -0.5815
-3.3257 1.5095 -0.5835
-3.3337 1.4980 -0.5789
-3.3377 1.4919 -0.5862
-3.3455 1.4808 -0.5806
-3.3509 1.4729 -0.5821
-3.3573 1.4637 -0.5793
-3.3610 1.4581 -0.5854
-2.6228 2.6172 0.2807
-2.6302 2.6052 0.2517
-2.6346 2.5978 0.2237
-2.6301 2.6041 0.1979
-2.6555 2.5647 0.1641
-2.9225 2.1569 0.0618
-2.9277 2.1486 0.0416
-2.9271 2.1490 0.0221
-2.7403 2.4313 -0.0381
-2.7377 2.4345 -0.0661
-2.7346 2.4385 -0.0949
-2.7318 2.4422 -0.1244
-2.7022 2.4864 -0.1585
-2.7013 2.4870 -0.1903
-2.7026 2.4835 -0.2552
-2.6653 2.5390 -0.3002
-2.6475 2.5651 -0.3422
-2.6391 2.5769 -0.3828
-2.6342 2.5834 -0.4234
-2.6364 2.5792 -0.4618
-2.6485 2.5600 -0.4955
-2.6679 2.5298 -0.5248
-2.7244 2.4440 -0.5300
-2.7055 2.4715 -0.5812
-2.7413 2.4169 -0.5956
-2.8254 2.2888 -0.6055
-2.8849 2.1989 -0.5897
-2.9552 2.0922 -0.5891
-2.9814 2.0523 -0.5934
-3.0098 2.0091 -0.5928
-3.0345 1.9715 -0.5939
-3.0599 1.9331 -0.5919
-3.0842 1.8963 -0.5888
-3.1065 1.8625 -0.5859
-3.1202 1.8416 -0.5931
-3.1372 1.8157 -0.5941
-3.1593 1.7823 -0.5853
-3.1887 1.7376 -0.5857
-3.2054 1.7124 -0.5800
-3.2147 1.6982 -0.5862
-3.2243 1.6835 -0.5910
-3.2388 1.6617 -0.5849
-3.2475 1.6483 -0.5891
-3.2610 1.6279 -0.5820
-3.2699 1.6144 -0.5838
-3.2820 1.5962 -0.5768
-3.2892 1.5851 -0.5804
-3.2959 1.5749 -0.5846
-3.3074 1.5577 -0.5751
-3.3130 1.5491 -0.5805
-3.3197 1.5389 -0.5821
-3.3270 1.5277 -0.5808
-3.3346 1.5163 -0.5778
-3.3409 1.5067 -0.5779
-3.3452 1.5000 -0.5839
-3.3517 1.4902 -0.5819
-3.3559 1.4837 -0.5873
-3.3625 1.4738 -0.5831
-3.3672 1.4666 -0.5852
-2.6702 2.6592 0.3486
-2.6648 2.6707 0.3256
-2.6722 2.6586 0.2961
-2.6874 2.6318 0.2634
-2.6818 2.6439 0.2390
-2.6783 2.6519 0.2129
-2.6808 2.6490 0.1843
-2.9511 2.1465 0.0671
-2.9604 2.1301 0.0463
-2.9569 2.1380 0.0278
-2.8124 2.4122 -0.0030
-2.8096 2.4190 -0.0295
-2.8123 2.4155 -0.0567
-2.8214 2.3999 -0.0838
-2.8140 2.4157 -0.1126
-2.8091 2.4267 -0.1423
-2.8139 2.4193 -0.1710
-2.8001 2.4474 -0.2048
-2.8074 2.4353 -0.2342
-2.8148 2.4232 -0.2636
-2.7934 2.4661 -0.3046
-2.7963 2.4624 -0.3376
-2.7926 2.4716 -0.3744
-2.7908 2.4773 -0.4115
-2.7891 2.4827 -0.4496
-2.7928 2.4780 -0.4851
-2.7935 2.4788 -0.5234
-2.7915 2.4850 -0.5648
-2.7952 2.4805 -0.6026
-2.8523 2.3722 -0.5912
-2.8959 2.2898 -0.5869
-2.9324 2.2207 -0.5852
-3.0321 2.0300 -0.5374
-3.0432 2.0100 -0.5535
-3.0419 2.0144 -0.5857
-3.0637 1.9734 -0.5859
-3.0820 1.9390 -0.5887
-3.1075 1.8903 -0.5779
-3.1192 1.8688 -0.5870
-3.1396 1.8299 -0.5793
-3.1552 1.8005 -0.5780
-3.1664 1.7796 -0.5830
-3.1802 1.7536 -0.5816
-3.1917 1.7319 -0.5831
-3.2060 1.7046 -0.5768
-3.2137 1.6905 -0.5841
-3.2267 1.6656 -0.5773
-3.2347 1.6507 -0.5813
-3.2426 1.6360 -0.5846
-3.2552 1.6117 -0.5738
-3.2617 1.5998 -0.5786
-3.2694 1.5853 -0.5788
-3.2763 1.5724 -0.5805
-3.2840 1.5577 -0.5784
-3.2909 1.5447 -0.5778
-3.2967 1.5338 -0.5800
-3.3027 1.5225 -0.5806
-3.3098 1.5089 -0.5760
-3.3144 1.5005 -0.5802
-3.3200 1.4898 -0.5793
-3.3255 1.4793 -0.5778
-3.3304 1.4702 -0.5784
-3.3354 1.4607 -0.5773
-3.3398 1.4525 -0.5784
-3.3439 1.4450 -0.5805
-2.6789 2.7043 0.3680
-2.6941 2.6771 0.3343
-2.6939 2.6796 0.3082
-2.7014 2.6672 0.2783
-2.7064 2.6597 0.2494
-2.7139 2.6474 0.2194
-2.9765 2.1415 0.0524
-2.9775 2.1412 0.0330
-2.9670 2.1635 0.0147
-2.8304 2.4348 0.0046
-2.8310 2.4358 -0.0224
-2.8473 2.4057 -0.0497
-2.8448 2.4132 -0.0773
-2.8342 2.4365 -0.1066
-2.8295 2.4484 -0.1367
-2.8346 2.4408 -0.1660
-2.8124 2.4877 -0.2024
-2.8288 2.4575 -0.2300
-2.8343 2.4493 -0.2606
-2.8286 2.4634 -0.2961
-2.8278 2.4679 -0.3307
-2.8267 2.4731 -0.3665
-2.8322 2.4650 -0.3995
-2.8242 2.4842 -0.4414
-2.8257 2.4843 -0.4786
-2.8293 2.4804 -0.5151
-2.8131 2.5169 -0.5687
-2.8341 2.4774 -0.5920
-2.8942 2.3570 -0.5755
-2.9112 2.3250 -0.5966
-3.0591 2.0266 -0.5289
-3.0719 2.0023 -0.5422
-3.0718 2.0051 -0.5729
-3.0791 1.9923 -0.5932
-3.1043 1.9417 -0.5846
-3.1270 1.8962 -0.5768
-3.1497 1.8526 -0.5939
-3.1852 1.7812 -0.5793
-3.1958 1.7606 -0.5836
-3.2043 1.7442 -0.5912
-3.2173 1.7182 -0.5871
-3.2293 1.6943 -0.5836
-3.2399 1.6730 -0.5815
-3.2497 1.6536 -0.5803
-3.2579 1.6374 -0.5820
-3.2682 1.6166 -0.5761
-3.2751 1.6032 -0.5791
-3.2825 1.5886 -0.5796
-3.2882 1.5777 -0.5846
-3.2964 1.5610 -0.5795
-3.3025 1.5492 -0.5813
-3.3103 1.5331 -0.5747
-3.3155 1.5230 -0.5776
-3.3214 1.5113 -0.5766
-3.3259 1.5029 -0.5810
-3.3315 1.4915 -0.5789
-3.3360 1.4828 -0.5813
-3.3416 1.4713 -0.5770
-3.3459 1.4629 -0.5786
-3.3502 1.4547 -0.5798
-3.3543 1.4466 -0.5807
-2.8013 2.5285 0.2783
-2.8098 2.5138 0.2507
-2.8130 2.5100 0.2255
-2.8291 2.4798 0.1950
-2.8340 2.4724 0.1692
-2.8331 2.4768 0.1450
-3.0094 2.1192 0.0549
-3.0043 2.1318 0.0372
-3.0022 2.1384 0.0182
-2.8644 2.4293 -0.0157
-2.8659 2.4291 -0.0430
-2.8692 2.4254 -0.0707
-2.8689 2.4291 -0.0991
-2.8586 2.4540 -0.1298
-2.8542 2.4666 -0.1610
-2.8491 2.4807 -0.1937
-2.8508 2.4808 -0.2257
-2.8502 2.4857 -0.2591
-2.8512 2.4873 -0.2928
-2.8529 2.4875 -0.3270
-2.8519 2.4935 -0.3634
-2.8512 2.4991 -0.4007
-2.8530 2.4994 -0.4375
-2.8451 2.5207 -0.4822
-2.8580 2.4972 -0.5124
-2.8577 2.5024 -0.5535
-2.8547 2.5136 -0.5985
-2.8980 2.4233 -0.5979
-2.9544 2.3035 -0.5776
-3.0652 2.0658 -0.5165
-3.0771 2.0427 -0.5322
-3.0907 2.0156 -0.5443
-3.0953 2.0088 -0.5689
-3.1021 1.9968 -0.5899
-3.1238 1.9511 -0.5855
-3.1384 1.9213 -0.5908
-3.1577 1.8805 -0.5852
-3.1740 1.8462 -0.5826
-3.1843 1.8254 -0.5902
-3.1965 1.8002 -0.5923
-3.2115 1.7685 -0.5863
-3.2231 1.7443 -0.5861
-3.2344 1.7205 -0.5847
-3.2429 1.7033 -0.5891
-3.2558 1.6752 -0.5795
-3.2627 1.6616 -0.5857
-3.2804 1.6243 -0.5822
-3.2887 1.6066 -0.5796
-3.2966 1.5899 -0.5772
-3.3019 1.5797 -0.5833
-3.3099 1.5622 -0.5774
-3.3170 1.5471 -0.5738
-3.3216 1.5382 -0.5795
-3.3273 1.5261 -0.5792
-3.3339 1.5118 -0.5737
-3.3379 1.5040 -0.5793
-3.3435 1.4920 -0.5761
-3.3476 1.4839 -0.5798
-3.3527 1.4730 -0.5769
-3.3564 1.4657 -0.5811
-3.3611 1.4557 -0.5785
-3.3648 1.4481 -0.5808
-2.8563 2.4713 0.2931
-2.8626 2.4608 0.2677
-2.8570 2.4760 0.2483
-2.8601 2.4726 0.2240
-2.8666 2.4618 0.1979
-2.8610 2.4772 0.1765
-2.8796 2.4403 0.1459
-3.0465 2.0854 0.0559
-3.0232 2.1385 0.0428
-3.0231 2.1416 0.0235
-3.0153 2.1613 0.0045
-3.0578 2.0849 -0.1191
-2.8826 2.5040 -0.3575
-2.8781 2.5195 -0.3977
-2.8301 2.6353 -0.4700
-2.8493 2.5970 -0.4986
-2.8789 2.5343 -0.5169
-2.8766 2.5457 -0.5614
-2.8922 2.5152 -0.5897
-2.9277 2.4378 -0.5956
-2.9818 2.3159 -0.5755
-3.0673 2.1184 -0.5087
-3.0870 2.0758 -0.5155
-3.1015 2.0456 -0.5274
-3.1117 2.0254 -0.5441
-3.1139 2.0246 -0.5729
-3.1233 2.0064 -0.5902
-3.1397 1.9707 -0.5938
-3.1598 1.9256 -0.5881
-3.1774 1.8864 -0.5842
-3.1942 1.8487 -0.5792
-3.2044 1.8271 -0.5861
-3.2170 1.7995 -0.5862
-3.2295 1.7716 -0.5843
-3.2387 1.7520 -0.5890
-3.2521 1.7213 -0.5805
-3.2620 1.6995 -0.5799
-3.2798 1.6601 -0.5792
-3.2871 1.6445 -0.5821
-3.2942 1.6292 -0.5844
-3.3041 1.6058 -0.5742
-3.3101 1.5933 -0.5779
-3.3161 1.5803 -0.5800
-3.3230 1.5648 -0.5774
-3.3285 1.5530 -0.5794
-3.3332 1.5432 -0.5842
-3.3398 1.5280 -0.5785
-3.3451 1.5161 -0.5777
-3.3499 1.5058 -0.5788
-3.3553 1.4932 -0.5745
-3.3593 1.4850 -0.5783
-3.3637 1.4752 -0.5780
-3.3682 1.4650 -0.5759
-3.3715 1.4584 -0.5812
-3.3753 1.4503 -0.5822
-2.8858 2.4641 0.3193
-2.8920 2.4538 0.2943
-2.8950 2.4509 0.2713
-2.8996 2.4442 0.2470
-2.8979 2.4520 0.2258
-2.9011 2.4486 0.2016
-2.9044 2.4451 0.1772
-3.0128 2.2063 0.0950
-3.0464 2.1360 0.0475
-3.0470 2.1380 0.0283
-3.0482 2.1386 0.0085
-3.0634 2.1067 -0.0127
-3.0751 2.0830 -0.0328
-3.0851 2.0629 -0.0522
-3.0826 2.0723 -0.0721
-3.0866 2.0699 -0.1127
-3.0876 2.0711 -0.1337
-3.0892 2.0711 -0.1551
-3.0887 2.0761 -0.1777
-3.0956 2.0635 -0.1977
-3.0933 2.0732 -0.2222
-3.0856 2.1004 -0.2765
-3.0864 2.1030 -0.3023
-3.0807 2.1218 -0.3340
-2.8944 2.5977 -0.5720
-3.0490 2.2228 -0.4899
-3.0785 2.1537 -0.4891
-3.0980 2.1095 -0.4973
-3.1129 2.0769 -0.5095
-3.1206 2.0626 -0.5308
-3.1282 2.0484 -0.5519
-3.1325 2.0430 -0.5784
-3.1498 2.0032 -0.5814
-3.1628 1.9743 -0.5901
-3.1787 1.9375 -0.5911
-3.1923 1.9063 -0.5945
-3.2070 1.8716 -0.5931
-3.2219 1.8360 -0.5886
-3.2336 1.8091 -0.5898
-3.2474 1.7756 -0.5829
-3.2562 1.7559 -0.5879
-3.2685 1.7259 -0.5805
-3.2766 1.7078 -0.5844
-3.2865 1.6840 -0.5805
-3.2953 1.6630 -0.5781
-3.3029 1.6452 -0.5784
-3.3104 1.6278 -0.5779
-3.3240 1.5960 -0.5775
-3.3297 1.5829 -0.5798
-3.3349 1.5714 -0.5836
-3.3419 1.5542 -0.5773
-3.3476 1.5406 -0.5756
-3.3523 1.5298 -0.5777
-3.3574 1.5179 -0.5771
-3.3617 1.5081 -0.5794
-3.3662 1.4979 -0.5801
-3.3707 1.4873 -0.5792
-3.3755 1.4751 -0.5740
-3.3792 1.4667 -0.5758
-3.3826 1.4595 -0.5798
-3.3861 1.4518 -0.5823
-2.9262 2.4339 0.3163
-2.9291 2.4314 0.2940
-2.9310 2.4311 0.2721
-2.9372 2.4209 0.2474
-2.9403 2.4180 0.2244
-2.9365 2.4318 0.2044
-2.9513 2.4011 0.1753
-3.0357 2.2073 0.1004
-3.0616 2.1486 0.0730
-3.0667 2.1404 0.0529
-3.0680 2.1412 0.0335
-3.0749 2.1283 0.0130
-3.0859 2.1054 -0.0078
-3.0980 2.0795 -0.0280
-3.1029 2.0715 -0.0474
-3.1082 2.0623 -0.0668
-3.1071 2.0694 -0.0871
-3.1116 2.0623 -0.1070
-3.1112 2.0678 -0.1282
-3.1101 2.0752 -0.1503
-3.1144 2.0688 -0.1712
-3.1148 2.0726 -0.1940
-3.1118 2.0853 -0.2192
-3.1118 2.0905 -0.2439
-3.1139 2.0905 -0.2680
-3.1116 2.1020 -0.2960
-3.1132 2.1034 -0.3219
-3.1092 2.1200 -0.3538
-3.1087 2.1274 -0.3838
-3.1054 2.1430 -0.4181
-3.0997 2.1654 -0.4572
-3.1051 2.1576 -0.4840
-3.1183 2.1280 -0.4999
-3.1291 2.1050 -0.5181
-3.1397 2.0824 -0.5356
-3.1424 2.0820 -0.5659
-3.1468 2.0771 -0.5938
-3.1710 2.0145 -0.5827
-3.1838 1.9846 -0.5912
-3.2159 1.9040 -0.5866
-3.2284 1.8734 -0.5887
-3.2379 1.8514 -0.5966
-3.2552 1.8052 -0.5807
-3.2643 1.7835 -0.5853
-3.2769 1.7505 -0.5772
-3.2833 1.7366 -0.5870
-3.2927 1.7130 -0.5853
-3.3017 1.6899 -0.5826
-3.3103 1.6681 -0.5796
-3.3167 1.6531 -0.5839
-3.3239 1.6348 -0.5828
-3.3314 1.6155 -0.5789
-3.3437 1.5849 -0.5785
-3.3490 1.5720 -0.5803
-3.3553 1.5554 -0.5752
-3.3596 1.5457 -0.5801
-3.3647 1.5329 -0.5791
-3.3691 1.5222 -0.5810
-3.3741 1.5093 -0.5777
-3.3784 1.4985 -0.5773
-3.3823 1.4890 -0.5789
-3.3864 1.4785 -0.5775
-3.3902 1.4695 -0.5782
-3.3933 1.4628 -0.5837
-3.3972 1.4523 -0.5797
-2.9749 2.3798 0.3058
-2.9716 2.3927 0.2889
-2.9791 2.3792 0.2642
-2.9850 2.3694 0.2406
-2.9846 2.3755 0.2206
-2.9877 2.3728 0.1982
-2.9839 2.3879 0.1789
-2.9998 2.3529 0.1500
-3.0815 2.1542 0.0786
-3.0848 2.1505 0.0589
-3.0908 2.1398 0.0384
-3.0993 2.1224 0.0176
-3.1082 2.1041 -0.0029
-3.1144 2.0926 -0.0228
-3.1210 2.0801 -0.0425
-3.1288 2.0643 -0.0620
-3.1292 2.0682 -0.0820
-3.1298 2.0718 -0.1026
-3.1290 2.0793 -0.1241
-3.1299 2.0824 -0.1459
-3.1306 2.0863 -0.1684
-3.1366 2.0756 -0.1891
-3.1397 2.0731 -0.2112
-3.1367 2.0875 -0.2375
-3.1320 2.1074 -0.2665
-3.1369 2.1001 -0.2895
-3.1361 2.1094 -0.3177
-3.1352 2.1192 -0.3472
-3.1388 2.1162 -0.3731
-3.1345 2.1366 -0.4089
-3.1310 2.1554 -0.4459
-3.1382 2.1422 -0.4698
-3.1445 2.1319 -0.4949
-3.1517 2.1188 -0.5186
-3.1611 2.0987 -0.5381
-3.1600 2.1113 -0.5767
-3.1744 2.0756 -0.5859
-3.2033 2.0018 -0.5971
-3.2218 1.9504 -0.5885
-3.2353 1.9149 -0.5893
-3.2503 1.8735 -0.5830
-3.2600 1.8491 -0.5889
-3.2730 1.8132 -0.5827
-3.2833 1.7859 -0.5823
-3.3005 1.7412 -0.5868
-3.3105 1.7130 -0.5804
-3.3194 1.6884 -0.5760
-3.3254 1.6739 -0.5820
-3.3328 1.6538 -0.5801
-3.3394 1.6362 -0.5801
-3.3453 1.6211 -0.5821
-3.3521 1.6021 -0.5776
-3.3578 1.5869 -0.5771
-3.3623 1.5760 -0.5822
-3.3682 1.5593 -0.5773
-3.3733 1.5450 -0.5748
-3.3777 1.5341 -0.5772
-3.3815 1.5253 -0.5825
-3.3866 1.5098 -0.5748
-3.3903 1.5008 -0.5780
-3.3946 1.4883 -0.5736
-3.3979 1.4808 -0.5785
-3.4015 1.4711 -0.5781
-3.4049 1.4621 -0.5785
-3.4083 1.4528 -0.5771
-3.0058 2.3658 0.3070
-3.0091 2.3626 0.2859
-3.0018 2.3877 0.2722
-3.0151 2.3583 0.2435
-3.0196 2.3523 0.2210
-3.0232 2.3487 0.1988
-3.0256 2.3485 0.1772
-3.0342 2.3316 0.1521
-3.0815 2.2092 0.1110
-3.1025 2.1575 0.0840
-3.1067 2.1514 0.0640
-3.1126 2.1408 0.0435
-3.1153 2.1392 0.0238
-3.1272 2.1117 0.0024
-3.1338 2.0991 -0.0177
-3.1415 2.0832 -0.0376
-3.1422 2.0870 -0.0575
-3.1487 2.0745 -0.0773
-3.1474 2.0844 -0.0983
-3.1471 2.0919 -0.1200
-3.1523 2.0834 -0.1407
-3.1533 2.0873 -0.1632
-3.1537 2.0930 -0.1865
-3.1554 2.0954 -0.2100
-3.1552 2.1036 -0.2354
-3.1539 2.1154 -0.2626
-3.1542 2.1228 -0.2898
-3.1562 2.1251 -0.3164
-3.1575 2.1299 -0.3446
-3.1643 2.1173 -0.3672
-3.1560 2.1538 -0.4091
-3.1573 2.1594 -0.4407
-3.1595 2.1628 -0.4724
-3.1635 2.1604 -0.5021
-3.1724 2.1416 -0.5237
-3.1666 2.1729 -0.5728
-3.1700 2.1733 -0.6065
-3.1968 2.0916 -0.5891
-3.2130 2.0459 -0.5906
-3.2252 2.0139 -0.5991
-3.2445 1.9547 -0.5855
-3.2562 1.9225 -0.5892
-3.2704 1.8802 -0.5827
-3.2792 1.8573 -0.5903
-3.2899 1.8268 -0.5896
-3.3001 1.7969 -0.5876
-3.3110 1.7637 -0.5802
-3.3176 1.7473 -0.5881
-3.3262 1.7221 -0.5854
-3.3351 1.6944 -0.5781
-3.3413 1.6783 -0.5825
-3.3472 1.6625 -0.5863
-3.3547 1.6390 -0.5792
-3.3601 1.6246 -0.5824
-3.3656 1.6090 -0.5829
-3.3710 1.5937 -0.5828
-3.3763 1.5780 -0.5810
-3.3808 1.5659 -0.5836
-3.3862 1.5488 -0.5771
-3.3904 1.5372 -0.5786
-3.3950 1.5227 -0.5738
-3.3986 1.5135 -0.5776
-3.4025 1.5019 -0.5763
-3.4061 1.4918 -0.5769
-3.4095 1.4831 -0.5794
-3.4126 1.4757 -0.5842
-3.0501 2.3128 0.2960
-3.0578 2.2976 0.2723
-3.0575 2.3047 0.2550
-3.0560 2.3152 0.2380
-3.0694 2.2841 0.2104
-3.0812 2.2569 0.1844
-3.0892 2.2408 0.1614
-3.1260 2.1538 0.0885
-3.1287 2.1524 0.0692
-3.1295 2.1566 0.0501
-3.1354 2.1458 0.0294
-3.1439 2.1273 0.0083
-3.1505 2.1144 -0.0122
-3.1570 2.1017 -0.0324
-3.1532 2.1207 -0.0528
-3.1629 2.0981 -0.0731
-3.1663 2.0950 -0.0938
-3.1674 2.0993 -0.1154
-3.1727 2.0907 -0.1362
-3.1753 2.0904 -0.1582
-3.1740 2.1033 -0.1826
-3.1769 2.1025 -0.2057
-3.1748 2.1187 -0.2329
-3.1697 2.1454 -0.2639
-3.1721 2.1476 -0.2904
-3.1758 2.1457 -0.3164
-3.1720 2.1696 -0.3513
-3.1774 2.1623 -0.3770
-3.1836 2.1521 -0.4018
-3.1777 2.1858 -0.4450
-3.1787 2.1954 -0.4801
-3.1828 2.1936 -0.5111
-3.1831 2.2069 -0.5505
-3.1893 2.1982 -0.5794
-3.2023 2.1631 -0.5929
-3.2220 2.1006 -0.5877
-3.2380 2.0514 -0.5874
-3.2494 2.0192 -0.5961
-3.2646 1.9709 -0.5912
-3.2792 1.9235 -0.5839
-3.2894 1.8934 -0.5877
-3.2996 1.8622 -0.5888
-3.3101 1.8293 -0.5863
-3.3193 1.8009 -0.5860
-3.3280 1.7739 -0.5851
-3.3360 1.7489 -0.5846
-3.3432 1.7274 -0.5862
-3.3511 1.7011 -0.5809
-3.3578 1.6805 -0.5804
-3.3634 1.6646 -0.5843
-3.3694 1.6462 -0.5838
-3.3747 1.6302 -0.5854
-3.3807 1.6096 -0.5794
-3.3850 1.5991 -0.5864
-3.3905 1.5792 -0.5787
-3.3949 1.5658 -0.5793
-3.3993 1.5520 -0.5783
-3.4033 1.5404 -0.5799
-3.4069 1.5309 -0.5844
-3.4112 1.5146 -0.5758
-3.4146 1.5049 -0.5782
-3.4178 1.4966 -0.5825
-3.4245 1.4744 -0.5777
-3.4275 1.4654 -0.5783
-3.4303 1.4577 -0.5811
-3.0960 2.2549 0.2647
-3.1037 2.2389 0.2418
-3.1072 2.2353 0.2224
-3.1201 2.2036 0.1960
-3.1224 2.2036 0.1776
-3.1302 2.1868 0.1554
-3.1330 2.1856 0.1365
-3.1412 2.1677 0.1145
-3.1455 2.1617 0.0946
-3.1437 2.1753 0.0770
-3.1475 2.1713 0.0567
-3.1520 2.1649 0.0360
-3.1572 2.1563 0.0151
-3.1665 2.1343 -0.0064
-3.1711 2.1280 -0.0269
-3.1749 2.1238 -0.0476
-3.1763 2.1282 -0.0688
-3.1860 2.1045 -0.0891
-3.1899 2.1002 -0.1101
-3.1922 2.1021 -0.1320
-3.1901 2.1194 -0.1565
-3.1918 2.1238 -0.1802
-3.1900 2.1412 -0.2071
-3.1932 2.1409 -0.2316
-3.1887 2.1694 -0.2635
-3.1592 2.3080 -0.3574
-3.1600 2.3206 -0.3932
-3.1706 2.2954 -0.4171
-3.1715 2.3083 -0.4547
-3.1753 2.3104 -0.4894
-3.1808 2.3057 -0.5220
-3.1847 2.3082 -0.5585
-3.1956 2.2814 -0.5810
-3.2102 2.2379 -0.5934
-3.2279 2.1793 -0.5949
-3.2459 2.1175 -0.5910
-3.2589 2.0766 -0.5971
-3.2754 2.0178 -0.5884
-3.2884 1.9736 -0.5868
-3.2978 1.9461 -0.5952
-3.3107 1.8993 -0.5865
-3.3200 1.8688 -0.5886
-3.3297 1.8358 -0.5865
-3.3479 1.7708 -0.5768
-3.3537 1.7551 -0.5858
-3.3605 1.7327 -0.5868
-3.3737 1.6871 -0.5834
-3.3797 1.6668 -0.5822
-3.3852 1.6483 -0.5819
-3.3959 1.6096 -0.5750
-3.3996 1.6018 -0.5859
-3.4045 1.5826 -0.5794
-3.4088 1.5678 -0.5781
-3.4128 1.5539 -0.5772
-3.4164 1.5442 -0.5822
-3.4202 1.5295 -0.5779
-3.4236 1.5189 -0.5797
-3.4270 1.5061 -0.5764
-3.4301 1.4983 -0.5820
-3.4333 1.4841 -0.5739
-3.4361 1.4767 -0.5787
-3.4389 1.4687 -0.5820
-3.4416 1.4604 -0.5836
-3.1241 2.2305 0.2799
-3.1311 2.2159 0.2579
-3.1349 2.2114 0.2389
-3.1392 2.2055 0.2195
-3.1405 2.2094 0.2024
-3.1486 2.1913 0.1797
-3.1515 2.1902 0.1611
-3.1573 2.1794 0.1403
-3.1624 2.1710 0.1200
-3.1623 2.1801 0.1023
-3.1641 2.1832 0.0831
-3.1654 2.1883 0.0637
-3.1665 2.1943 0.0438
-3.1738 2.1786 0.0218
-3.1814 2.1620 0.0000
-3.1885 2.1466 -0.0213
-3.1893 2.1543 -0.0424
-3.1924 2.1541 -0.0641
-3.1995 2.1387 -0.0855
-3.2049 2.1299 -0.1070
-3.2062 2.1367 -0.1300
-3.1981 2.1808 -0.1584
-3.1769 2.2932 -0.2276
-3.1778 2.3055 -0.2587
-3.1822 2.3044 -0.2880
-3.1874 2.3001 -0.3171
-3.1927 2.2956 -0.3465
-3.1996 2.3034 -0.4123
-3.2099 2.2775 -0.4354
-3.2175 2.2631 -0.4623
-3.2202 2.2719 -0.4992
-3.2245 2.2739 -0.5342
-3.2310 2.2656 -0.5649
-3.2375 2.2572 -0.5958
-3.2545 2.1956 -0.5966
-3.2697 2.1405 -0.5978
-3.2817 2.1002 -0.6053
-3.2984 2.0325 -0.5918
-3.3107 1.9864 -0.5896
-3.3320 1.9068 -0.5865
-3.3418 1.8690 -0.5829
-3.3503 1.8375 -0.5824
-3.3578 1.8113 -0.5848
-3.3638 1.7943 -0.5944
-3.3721 1.7590 -0.5845
-3.3775 1.7434 -0.5931
-3.3904 1.6915 -0.5837
-3.4006 1.6554 -0.5864
-3.4103 1.6179 -0.5820
-3.4188 1.5852 -0.5791
-3.4261 1.5630 -0.5879
-3.4298 1.5460 -0.5813
-3.4332 1.5339 -0.5816
-3.4364 1.5207 -0.5790
-3.4395 1.5091 -0.5782
-3.4424 1.4988 -0.5791
-3.4452 1.4876 -0.5772
-3.4479 1.4795 -0.5809
-3.4506 1.4715 -0.5843
-3.4531 1.4620 -0.5835
-3.1549 2.2093 0.2606
-3.1566 2.2123 0.2440
-3.1617 2.2040 0.2239
-3.1691 2.1872 0.2016
-3.1690 2.1971 0.1860
-3.1748 2.1863 0.1651
-3.1762 2.1910 0.1475
-3.1807 2.1849 0.1274
-3.1821 2.1904 0.1090
-3.1836 2.1957 0.0900
-3.1871 2.1938 0.0696
-3.1774 2.2430 0.0537
-3.1862 2.2212 0.0302
-3.1989 2.1841 0.0064
-3.2024 2.1829 -0.0150
-3.2093 2.1684 -0.0370
-3.2139 2.1627 -0.0588
-3.2096 2.1945 -0.0823
-3.2115 2.2010 -0.1062
-3.2018 2.2577 -0.1354
-3.1937 2.3100 -0.1674
-3.1974 2.3116 -0.1954
-3.2041 2.3006 -0.2220
-3.2121 2.2836 -0.2474
-3.2181 2.2756 -0.2745
-3.2233 2.2716 -0.3028
-3.2294 2.2636 -0.3303
-3.2361 2.2525 -0.3570
-3.2422 2.2443 -0.3848
-3.2471 2.2427 -0.4151
-3.2534 2.2344 -0.4433
-3.2602 2.2232 -0.4705
-3.2629 2.2349 -0.5082
-3.2677 2.2361 -0.5423
-3.2731 2.2343 -0.5757
-3.2848 2.1943 -0.5881
-3.2969 2.1505 -0.5963
-3.3086 2.1066 -0.6021
-3.3239 2.0353 -0.5870
-3.3339 1.9976 -0.5911
-3.3430 1.9631 -0.5954
-3.3531 1.9193 -0.5904
-3.3627 1.8756 -0.5826
-3.3693 1.8544 -0.5915
-3.3776 1.8162 -0.5837
-3.3839 1.7928 -0.5875
-3.3910 1.7598 -0.5801
-3.3957 1.7495 -0.5944
-3.4015 1.7243 -0.5919
-3.4072 1.6974 -0.5857
-3.4167 1.6604 -0.5880
-3.4216 1.6343 -0.5773
-3.4257 1.6164 -0.5756
-3.4296 1.6024 -0.5780
-3.4332 1.5899 -0.5817
-3.4402 1.5610 -0.5804
-3.4434 1.5453 -0.5760
-3.4464 1.5357 -0.5807
-3.4522 1.5127 -0.5810
-3.4549 1.5018 -0.5810
-3.4574 1.4905 -0.5792
-3.4599 1.4812 -0.5806
-3.4624 1.4726 -0.5828
-3.1693 2.2260 0.2880
-3.1750 2.2153 0.2672
-3.1807 2.2045 0.2465
-3.1840 2.2025 0.2283
-3.1871 2.2015 0.2101
-3.1891 2.2053 0.1928
-3.1948 2.1945 0.1718
-3.1960 2.2015 0.1545
-3.1965 2.2118 0.1373
-3.1920 2.2428 0.1225
-3.1961 2.2395 0.1014
-3.1873 2.2901 0.0865
-3.1862 2.3100 0.0660
-3.2035 2.2516 0.0381
-3.2136 2.2231 0.0140
-3.2223 2.2005 -0.0090
-3.2262 2.1990 -0.0312
-3.2266 2.2136 -0.0539
-3.2291 2.2192 -0.0774
-3.2309 2.2287 -0.1019
-3.2255 2.2736 -0.1304
-3.2299 2.2727 -0.1565
-3.2319 2.2839 -0.1848
-3.2366 2.2824 -0.2122
-3.2432 2.2716 -0.2383
-3.2497 2.2609 -0.2644
-3.2568 2.2471 -0.2898
-3.2600 2.2550 -0.3209
-3.2645 2.2567 -0.3512
-3.2712 2.2456 -0.3780
-3.2775 2.2374 -0.4059
-3.2807 2.2488 -0.4416
-3.2881 2.2692 -0.5163
-3.2917 2.2819 -0.5569
-3.2986 2.2733 -0.5882
-3.3143 2.1982 -0.5827
-3.3236 2.1684 -0.5995
-3.3351 2.1182 -0.6022
-3.3482 2.0501 -0.5901
-3.3676 1.9599 -0.5867
-3.3755 1.9261 -0.5896
-3.3827 1.8969 -0.5943
-3.3975 1.8234 -0.5847
-3.4034 1.7983 -0.5873
-3.4096 1.7652 -0.5804
-3.4147 1.7450 -0.5845
-3.4198 1.7206 -0.5828
-3.4244 1.7041 -0.5884
-3.4290 1.6799 -0.5837
-3.4332 1.6612 -0.5842
-3.4373 1.6371 -0.5764
-3.4410 1.6199 -0.5758
-3.4445 1.6051 -0.5774
-3.4479 1.5898 -0.5773
-3.4511 1.5756 -0.5775
-3.4542 1.5642 -0.5813
-3.4570 1.5491 -0.5782
-3.4598 1.5369 -0.5787
-3.4624 1.5243 -0.5775
-3.4651 1.5151 -0.5815
-3.4673 1.5023 -0.5781
-3.4697 1.4928 -0.5800
-3.4719 1.4823 -0.5790
-3.4741 1.4731 -0.5801
-3.4763 1.4652 -0.5833
-3.1950 2.2224 0.2742
-3.1988 2.2191 0.2556
-3.2009 2.2231 0.2389
-3.2078 2.2073 0.2165
-3.2117 2.2038 0.1974
-3.2121 2.2158 0.1816
-3.2118 2.2310 0.1657
-3.2153 2.2305 0.1459
-3.2144 2.2497 0.1291
-3.2042 2.3124 0.1175
-3.2015 2.3428 0.0989
-3.2103 2.3202 0.0730
-3.2291 2.2493 0.0436
-3.2376 2.2264 0.0199
-3.2399 2.2337 -0.0021
-3.2448 2.2286 -0.0250
-3.2479 2.2331 -0.0482
-3.2533 2.2256 -0.0717
-3.2541 2.2436 -0.0967
-3.2532 2.2716 -0.1238
-3.2595 2.2613 -0.1488
-3.2678 2.2396 -0.1724
-3.2721 2.2406 -0.1989
-3.2744 2.2546 -0.2284
-3.2775 2.2651 -0.2584
-3.2810 2.2741 -0.2893
-3.2857 2.2759 -0.3194
-3.2917 2.2705 -0.3481
-3.2979 2.2632 -0.3765
-3.3026 2.2681 -0.4095
-3.3078 2.2698 -0.4422
-3.3119 2.2824 -0.4803
-3.3170 2.2880 -0.5169
-3.3235 2.2832 -0.5495
-3.3309 2.2711 -0.5789
-3.3520 2.1793 -0.5983
-3.3630 2.1220 -0.5972
-3.3735 2.0633 -0.5918
-3.3823 2.0192 -0.5930
-3.3908 1.9727 -0.5897
-3.4053 1.8962 -0.5877
-3.4119 1.8603 -0.5850
-3.4178 1.8298 -0.5849
-3.4284 1.7753 -0.5851
-3.4333 1.7488 -0.5833
-3.4378 1.7259 -0.5835
-3.4420 1.7071 -0.5868
-3.4460 1.6828 -0.5824
-3.4498 1.6655 -0.5848
-3.4532 1.6428 -0.5791
-3.4567 1.6297 -0.5845
-3.4598 1.6112 -0.5816
-3.4629 1.5979 -0.5848
-3.4656 1.5795 -0.5793
-3.4685 1.5688 -0.5843
-3.4708 1.5517 -0.5782
-3.4734 1.5407 -0.5811
-3.4757 1.5280 -0.5801
-3.4779 1.5156 -0.5785
-3.4800 1.5047 -0.5787
-3.4841 1.4840 -0.5787
-3.4860 1.4748 -0.5799
-3.4878 1.4652 -0.5793
-3.2113 2.2472 0.2869
-3.2159 2.2412 0.2671
-3.2178 2.2475 0.2507
-3.2247 2.2315 0.2278
-3.2273 2.2351 0.2101
-3.2295 2.2408 0.1924
-3.2295 2.2582 0.1766
-3.2198 2.3236 0.1690
-3.2178 2.3537 0.1524
-3.2187 2.3704 0.1321
-3.2238 2.3658 0.1079
-3.2288 2.3623 0.0836
-3.2439 2.3045 0.0542
-3.2552 2.2655 0.0281
-3.2634 2.2425 0.0040
-3.2673 2.2439 -0.0189
-3.2704 2.2505 -0.0423
-3.2745 2.2526 -0.0664
-3.2740 2.2831 -0.0924
-3.2754 2.3045 -0.1198
-3.2819 2.2938 -0.1456
-3.2906 2.2677 -0.1695
-3.2961 2.2633 -0.1958
-3.3004 2.2680 -0.2241
-3.3031 2.2864 -0.2559
-3.3087 2.2843 -0.2847
-3.3146 2.2801 -0.3133
-3.3210 2.2718 -0.3413
-3.3267 2.2712 -0.3718
-3.3314 2.2798 -0.4061
-3.3339 2.3135 -0.4511
-3.3391 2.3238 -0.4894
-3.3459 2.3188 -0.5225
-3.3528 2.3146 -0.5563
-3.3592 2.3174 -0.5943
-3.3807 2.1955 -0.6000
-3.3904 2.1371 -0.5992
-3.3997 2.0738 -0.5917
-3.4149 1.9813 -0.5895
-3.4217 1.9363 -0.5851
-3.4275 1.9102 -0.5930
-3.4385 1.8403 -0.5886
-3.4433 1.8071 -0.5846
-3.4478 1.7761 -0.5806
-3.4521 1.7550 -0.5844
-3.4560 1.7289 -0.5817
-3.4597 1.7093 -0.5843
-3.4633 1.6901 -0.5862
-3.4665 1.6691 -0.5845
-3.4696 1.6492 -0.5826
-3.4754 1.6167 -0.5848
-3.4780 1.6006 -0.5843
-3.4805 1.5848 -0.5830
-3.4824 1.5667 -0.5768
-3.4845 1.5523 -0.5750
-3.4871 1.5432 -0.5812
-3.4889 1.5286 -0.5770
-3.4912 1.5192 -0.5812
-3.4930 1.5076 -0.5804
-3.4966 1.4868 -0.5808
