ply
format ascii 1.0
element vertex 2073
property float x
property float y
property float z
end_header
-4.2483 2.6842 -0.5817
-4.2104 2.7280 -0.5851
-4.1741 2.7941 -0.5945
-4.1349 2.8390 -0.5979
-4.0942 2.8605 -0.5950
-4.0539 2.8828 -0.5925
-4.0134 2.8680 -0.5806
-3.9746 2.8879 -0.5777
-3.9356 2.9327 -0.5811
-3.8985 2.9177 -0.5698
-3.8647 2.8689 -0.5506
-3.8019 2.8033 -0.5213
-5.1464 0.9093 -0.3444
-5.1181 0.9254 -0.3425
-5.1038 0.9447 -0.3447
-5.0702 0.9590 -0.3412
-5.0644 0.9811 -0.3460
-5.0313 0.9951 -0.3425
-5.0070 1.0115 -0.3416
-5.0003 1.0343 -0.3464
-4.9870 1.0552 -0.3493
-4.9605 1.0710 -0.3477
-4.9333 1.0863 -0.3459
-4.9205 1.1080 -0.3491
-4.9091 1.1310 -0.3529
-4.8820 1.1461 -0.3510
-4.8735 1.1716 -0.3562
-4.8593 1.1945 -0.3594
-4.8056 1.2588 -0.3652
-4.7808 1.2757 -0.3644
-4.7584 1.2944 -0.3645
-4.7541 1.3287 -0.3731
-4.8490 1.9478 -0.5654
-4.5278 2.3353 -0.6011
-4.4506 2.3882 -0.5986
-4.4115 2.4109 -0.5961
-4.3763 2.4499 -0.5991
-4.3357 2.4628 -0.5936
-4.2974 2.4847 -0.5912
-4.2608 2.5151 -0.5914
-4.2253 2.5544 -0.5944
-4.1896 2.5951 -0.5977
-4.1535 2.6350 -0.6007
-4.1177 2.6869 -0.6071
-4.0812 2.7394 -0.6135
-4.0432 2.7709 -0.6137
-4.0052 2.7914 -0.6110
-3.9676 2.8116 -0.6082
-3.9295 2.8654 -0.6146
-3.8920 2.8854 -0.6118
-3.8569 2.8715 -0.6001
-5.1352 0.9026 -0.3691
-5.1140 0.9202 -0.3693
-5.1030 0.9403 -0.3727
-5.0850 0.9590 -0.3739
-5.0483 0.9723 -0.3690
-5.0357 0.9926 -0.3720
-5.0259 1.0142 -0.3761
-5.0074 1.0332 -0.3774
-4.9858 1.0511 -0.3775
-4.9819 1.0764 -0.3842
-4.9294 1.1089 -0.3812
-4.9159 1.1312 -0.3847
-4.8939 1.1495 -0.3848
-4.8937 1.1802 -0.3940
-4.8661 1.1958 -0.3920
-4.8378 1.2107 -0.3896
-4.8156 1.2292 -0.3898
-4.8012 1.2533 -0.3936
-4.7856 1.2773 -0.3970
-4.7800 1.3100 -0.4055
-4.7453 1.3193 -0.3998
-4.8791 1.7667 -0.5670
-4.8504 1.7991 -0.5697
-4.7884 1.8592 -0.5728
-4.7554 1.8866 -0.5730
-4.7156 1.9026 -0.5681
-4.6829 1.9297 -0.5684
-4.6563 1.9689 -0.5737
-4.6292 2.0085 -0.5790
-4.5903 2.0237 -0.5742
-4.5573 2.0511 -0.5744
-4.5243 2.0785 -0.5746
-4.4889 2.0993 -0.5723
-4.4626 2.1469 -0.5802
-4.4354 2.1952 -0.5881
-4.3960 2.2022 -0.5807
-4.3592 2.2156 -0.5758
-4.3278 2.2503 -0.5786
-4.2946 2.2779 -0.5789
-4.2602 2.2979 -0.5765
-4.2294 2.3406 -0.5819
-4.1969 2.3749 -0.5843
-4.1619 2.3880 -0.5798
-4.1281 2.4076 -0.5775
-4.0961 2.4512 -0.5828
-4.0639 2.5037 -0.5908
-4.0301 2.5317 -0.5910
-3.9963 2.5513 -0.5887
-3.9625 2.5965 -0.5941
-3.9283 2.6334 -0.5969
-3.8938 2.6706 -0.5997
-3.8596 2.6990 -0.6000
-3.8275 2.7000 -0.5925
-3.7937 2.7281 -0.5927
-3.7548 2.8044 -0.6062
-5.1523 0.8798 -0.3957
-5.1381 0.8989 -0.3982
-5.1295 0.9194 -0.4026
-5.1057 0.9368 -0.4020
-5.0842 0.9546 -0.4021
-5.0594 0.9715 -0.4011
-5.0316 0.9874 -0.3989
-5.0196 1.0082 -0.4026
-5.0094 1.0301 -0.4070
-4.9936 1.0504 -0.4095
-4.9747 1.0698 -0.4108
-4.9556 1.0893 -0.4121
-4.9336 1.1076 -0.4123
-4.9116 1.1258 -0.4124
-4.9092 1.1545 -0.4211
-4.8815 1.1702 -0.4190
-4.8694 1.1949 -0.4238
-4.8525 1.2174 -0.4267
-4.8370 1.2412 -0.4303
-4.8172 1.2625 -0.4321
-4.7681 1.2984 -0.4308
-4.7430 1.3156 -0.4298
-4.8281 1.7036 -0.5785
-4.7868 1.7161 -0.5717
-4.7529 1.7370 -0.5696
-4.7255 1.7670 -0.5722
-4.6978 1.7973 -0.5747
-4.6670 1.8229 -0.5749
-4.6362 1.8485 -0.5752
-4.6106 1.8842 -0.5801
-4.5438 1.9252 -0.5758
-4.4842 1.9819 -0.5786
-4.3371 2.1418 -0.5919
-4.3110 2.1938 -0.6020
-4.2800 2.2268 -0.6046
-4.2477 2.2536 -0.6048
-4.2136 2.2674 -0.6003
-4.1816 2.2940 -0.6005
-4.1496 2.3206 -0.6008
-4.1181 2.3540 -0.6033
-4.0863 2.3876 -0.6059
-4.0538 2.4074 -0.6038
-4.0215 2.4269 -0.6017
-3.9894 2.4378 -0.5968
-3.9576 2.4715 -0.5994
-3.9257 2.4980 -0.5996
-3.8930 2.5409 -0.6050
-3.8614 2.5599 -0.6028
-3.8287 2.5943 -0.6054
-3.7958 2.6289 -0.6080
-5.0243 0.9812 -0.4246
-5.0030 0.9988 -0.4247
-4.9909 1.0197 -0.4286
-4.9847 1.0984 -0.4544
-4.9647 1.1186 -0.4558
-4.9419 1.1375 -0.4560
-4.9164 1.1551 -0.4549
-4.8127 1.2569 -0.4611
-4.7226 1.3353 -0.4630
-4.7054 1.4496 -0.4982
-4.7257 1.6363 -0.5694
-4.6945 1.6562 -0.5676
-4.6686 1.6837 -0.5698
-4.6401 1.7074 -0.5701
-4.6115 1.7312 -0.5703
-4.5875 1.7632 -0.5746
-4.5587 1.7870 -0.5749
-4.5258 1.8023 -0.5709
-4.4973 1.8260 -0.5711
-4.4687 1.8497 -0.5713
-4.4384 1.8689 -0.5694
-4.4116 1.8972 -0.5717
-4.3876 1.9352 -0.5782
-4.3573 1.9543 -0.5763
-4.3272 1.9733 -0.5744
-4.2998 2.0021 -0.5767
-4.2732 2.0363 -0.5811
-4.2463 2.0718 -0.5859
-4.2171 2.0961 -0.5862
-4.1878 2.1204 -0.5864
-4.1572 2.1326 -0.5819
-4.1282 2.1567 -0.5821
-4.0997 2.1875 -0.5849
-4.0731 2.2554 -0.6011
-4.0417 2.2417 -0.5874
-4.0121 2.2470 -0.5809
-3.9832 2.2710 -0.5811
-3.9543 2.3011 -0.5834
-3.9253 2.3252 -0.5836
-3.8966 2.3430 -0.5817
-3.8673 2.3733 -0.5840
-3.8376 2.4052 -0.5867
-3.8085 2.4294 -0.5870
-4.9751 1.1198 -0.4917
-4.9555 1.1409 -0.4937
-4.7462 1.3147 -0.4951
-4.7377 1.4354 -0.5379
-4.7055 1.4489 -0.5332
-4.6925 1.4837 -0.5423
-4.6740 1.5135 -0.5478
-4.4083 1.7963 -0.5731
-4.2011 2.0246 -0.5957
-4.1753 2.0628 -0.6022
-4.1465 2.0818 -0.6006
-4.1174 2.0941 -0.5963
-4.0903 2.1285 -0.6010
-4.0627 2.1622 -0.6052
-4.0348 2.1985 -0.6104
-4.0062 2.2163 -0.6083
-3.9777 2.2400 -0.6085
-3.9498 2.2392 -0.5997
-3.9215 2.2687 -0.6022
-3.8941 2.2795 -0.5979
-3.8645 2.3268 -0.6066
-3.8367 2.3439 -0.6046
-3.8085 2.3674 -0.6048
-4.7488 1.3150 -0.5292
-4.7253 1.3345 -0.5294
-4.7111 1.3629 -0.5362
-4.6918 1.3873 -0.5396
-4.6772 1.4172 -0.5469
-4.6613 1.4471 -0.5537
-4.6413 1.4731 -0.5576
-4.6062 1.5343 -0.5708
-4.5809 1.5553 -0.5709
-4.5345 1.6046 -0.5756
-4.5108 1.6290 -0.5776
-4.4291 1.6815 -0.5720
-4.3761 1.7172 -0.5691
-4.3518 1.7408 -0.5707
-4.3266 1.7618 -0.5708
-4.3049 1.7952 -0.5772
-4.2814 1.8242 -0.5812
-4.2539 1.8376 -0.5776
-4.2301 1.8669 -0.5815
-4.2044 1.8882 -0.5817
-4.1794 1.9137 -0.5838
-4.1542 1.9394 -0.5859
-4.1279 1.9565 -0.5842
-4.1017 1.9735 -0.5825
-4.0769 2.0083 -0.5884
-4.0520 2.0492 -0.5966
-4.0260 2.0815 -0.6011
-3.9993 2.0929 -0.5970
-3.9733 2.0754 -0.5815
-3.9475 2.1063 -0.5855
-3.9217 2.1277 -0.5856
-3.8960 2.1491 -0.5858
-3.8694 2.1807 -0.5898
-3.8415 2.2240 -0.5981
-3.8175 2.2238 -0.5902
-3.7935 2.2295 -0.5846
-5.0758 1.0103 -0.5464
-5.0427 1.0260 -0.5416
-4.9788 1.0567 -0.5325
-4.9233 1.1488 -0.5525
-4.9085 1.1728 -0.5577
-4.8826 1.1909 -0.5563
-4.8502 1.2047 -0.5510
-4.7626 1.2858 -0.5552
-4.7442 1.3093 -0.5588
-4.7187 1.3269 -0.5575
-4.6927 1.3439 -0.5557
-4.6630 1.3567 -0.5508
-4.6442 1.3806 -0.5545
-4.6268 1.4068 -0.5597
-4.6034 1.4263 -0.5598
-4.5330 1.4847 -0.5603
-4.5046 1.4965 -0.5555
-4.4795 1.5126 -0.5537
-4.3304 1.6859 -0.5759
-4.2646 1.7712 -0.5895
-4.2418 1.7996 -0.5937
-4.2178 1.8243 -0.5959
-4.1943 1.8532 -0.6001
-4.1693 1.8740 -0.6002
-4.1442 1.8948 -0.6004
-4.0936 1.9321 -0.5988
-4.0687 1.9528 -0.5989
-4.0435 1.9691 -0.5971
-4.0188 1.9990 -0.6013
-3.9937 2.0198 -0.6015
-3.9687 2.0406 -0.6017
-3.9434 2.0663 -0.6039
-3.9185 2.0823 -0.6020
-3.8941 2.0931 -0.5982
-3.8688 2.1189 -0.6004
-3.8433 2.1447 -0.6025
-3.8188 2.1604 -0.6007
-5.0766 0.9804 -0.5664
-5.0642 1.0025 -0.5718
-5.0353 1.0194 -0.5688
-5.0125 1.0383 -0.5690
-4.9859 1.0557 -0.5670
-4.9577 1.0722 -0.5640
-4.9442 1.0950 -0.5695
-4.9179 1.1122 -0.5675
-4.8726 1.1499 -0.5678
-4.8499 1.1687 -0.5680
-4.8272 1.1876 -0.5682
-4.8046 1.2064 -0.5683
-4.7819 1.2252 -0.5685
-4.7622 1.2463 -0.5708
-4.7394 1.2652 -0.5709
-4.7167 1.2841 -0.5711
-4.6484 1.3408 -0.5716
-4.6336 1.3683 -0.5786
-4.6140 1.3915 -0.5819
-4.5875 1.4066 -0.5789
-4.5590 1.4185 -0.5738
-4.5393 1.4419 -0.5771
-4.5098 1.4512 -0.5704
-4.4891 1.4731 -0.5727
-4.4663 1.4920 -0.5729
-4.4462 1.5157 -0.5762
-4.4262 1.5405 -0.5801
-4.3992 1.5512 -0.5749
-4.3753 1.5676 -0.5735
-4.3511 1.5830 -0.5716
-4.3327 1.6135 -0.5786
-4.3088 1.6298 -0.5772
-4.2868 1.6516 -0.5789
-4.2638 1.6707 -0.5791
-4.2426 1.6965 -0.5830
-4.2188 1.7127 -0.5815
-4.1938 1.7218 -0.5764
-4.1733 1.7541 -0.5834
-4.1486 1.7629 -0.5783
-4.1261 1.7850 -0.5801
-4.1036 1.8084 -0.5824
-4.0806 1.8275 -0.5825
-4.0580 1.8534 -0.5859
-4.0350 1.8771 -0.5882
-4.0113 1.8804 -0.5809
-3.9884 1.9111 -0.5864
-3.9653 1.9303 -0.5865
-3.9416 1.9664 -0.5941
-3.9183 1.9822 -0.5927
-3.8952 1.9967 -0.5907
-3.8729 2.0035 -0.5856
-3.8489 2.0316 -0.5895
-3.8262 2.0458 -0.5875
-3.8031 2.0650 -0.5877
-5.1346 0.8499 -0.5594
-5.1064 0.8664 -0.5562
-5.0954 0.8860 -0.5613
-5.0828 0.9057 -0.5659
-5.0559 0.9223 -0.5633
-5.0461 0.9432 -0.5695
-5.0182 0.9594 -0.5663
-5.0028 0.9792 -0.5698
-4.9377 1.0332 -0.5703
-4.9133 1.0500 -0.5688
-4.8916 1.0680 -0.5689
-4.8754 1.0885 -0.5724
-4.8536 1.1065 -0.5725
-4.8226 1.1195 -0.5666
-4.7961 1.1345 -0.5634
-4.7165 1.2099 -0.5685
-4.6700 1.2428 -0.5660
-4.6519 1.2636 -0.5689
-4.5757 1.3048 -0.5589
-4.5645 1.3339 -0.5684
-4.5346 1.3413 -0.5603
-4.5183 1.3653 -0.5654
-4.4922 1.3765 -0.5606
-4.4770 1.4031 -0.5674
-4.4556 1.4209 -0.5675
-4.4300 1.4316 -0.5627
-4.4127 1.4565 -0.5679
-4.3945 1.4808 -0.5725
-4.3710 1.4946 -0.5698
-4.3473 1.5073 -0.5666
-4.3249 1.5225 -0.5651
-4.3081 1.5526 -0.5731
-4.2865 1.5706 -0.5732
-4.2674 1.5969 -0.5784
-4.2464 1.6178 -0.5802
-4.2231 1.6302 -0.5770
-4.2033 1.6571 -0.5822
-4.1802 1.6693 -0.5790
-4.1568 1.6783 -0.5741
-4.1188 1.7563 -0.5968
-4.0505 1.7979 -0.5900
-4.0286 1.8242 -0.5941
-4.0064 1.8496 -0.5976
-3.9839 1.8787 -0.6027
-3.9613 1.8976 -0.6029
-3.9386 1.9164 -0.6031
-3.9161 1.9316 -0.6016
-3.8722 1.9541 -0.5952
-3.8487 1.9841 -0.6004
-3.8257 2.0067 -0.6022
-5.1257 0.8234 -0.5734
-5.1014 0.8401 -0.5718
-5.0772 0.8567 -0.5702
-5.0542 0.8735 -0.5692
-5.0446 0.8930 -0.5751
-5.0183 0.9091 -0.5724
-4.9975 0.9263 -0.5726
-4.9819 0.9451 -0.5756
-4.9560 0.9608 -0.5728
-4.9352 0.9781 -0.5730
-4.9309 1.0012 -0.5830
-4.8984 1.0144 -0.5762
-4.8831 1.0340 -0.5798
-4.8594 1.0503 -0.5782
-4.8314 1.0643 -0.5737
-4.8132 1.0829 -0.5756
-4.7898 1.0988 -0.5740
-4.7732 1.1184 -0.5771
-4.7571 1.1387 -0.5807
-4.7196 1.1768 -0.5845
-4.6897 1.1878 -0.5777
-4.6674 1.2040 -0.5767
-4.6445 1.2196 -0.5751
-4.6257 1.2386 -0.5770
-4.6029 1.2541 -0.5754
-4.5803 1.2694 -0.5738
-4.5584 1.2853 -0.5727
-4.5406 1.3058 -0.5758
-4.5007 1.3424 -0.5778
-4.4368 1.3921 -0.5765
-4.4160 1.4093 -0.5767
-4.3952 1.4266 -0.5768
-4.3777 1.4503 -0.5816
-4.3556 1.4652 -0.5800
-4.3340 1.4809 -0.5790
-4.3122 1.4956 -0.5774
-4.2939 1.5199 -0.5822
-4.2706 1.5301 -0.5777
-4.2507 1.5501 -0.5796
-4.2298 1.5674 -0.5798
-4.2083 1.5818 -0.5782
-4.1892 1.6069 -0.5830
-4.1673 1.6193 -0.5802
-4.1474 1.6416 -0.5833
-4.1260 1.6560 -0.5817
-4.1055 1.6764 -0.5836
-4.0840 1.6885 -0.5808
-4.0636 1.7112 -0.5839
-4.0423 1.7231 -0.5811
-4.0218 1.7494 -0.5859
-4.0009 1.7702 -0.5878
-3.9797 1.8039 -0.5962
-3.9582 1.8310 -0.6010
-3.9366 1.8489 -0.6012
-3.9158 1.8535 -0.5949
-3.8958 1.8540 -0.5868
-3.8751 1.8678 -0.5852
-3.8527 1.8990 -0.5918
-3.8318 1.9141 -0.5908
-3.8107 1.9316 -0.5910
-5.0463 0.8271 -0.5714
-5.0322 0.8446 -0.5746
-5.0044 0.8596 -0.5705
-4.9846 0.8760 -0.5706
-4.9702 0.8937 -0.5738
-4.9451 0.9089 -0.5709
-4.9253 0.9253 -0.5710
-4.9025 0.9408 -0.5694
-4.8877 0.9588 -0.5725
-4.8679 0.9753 -0.5727
-4.8481 0.9917 -0.5728
-4.7913 1.0423 -0.5751
-4.5662 1.2179 -0.5705
-4.4652 1.2960 -0.5682
-4.4507 1.3194 -0.5744
-4.4320 1.3373 -0.5758
-4.4121 1.3538 -0.5759
-4.3892 1.3649 -0.5718
-4.3644 1.3717 -0.5646
-4.3470 1.3919 -0.5678
-4.3340 1.4221 -0.5783
-4.2942 1.4551 -0.5786
-4.2545 1.4882 -0.5789
-4.2332 1.5001 -0.5760
-4.2135 1.5165 -0.5761
-4.1170 1.6160 -0.5872
-4.0985 1.6463 -0.5953
-4.0792 1.6749 -0.6022
-4.0580 1.6856 -0.5987
-4.0372 1.6972 -0.5958
-4.0168 1.7142 -0.5959
-3.9964 1.7311 -0.5960
-3.9143 1.8050 -0.5997
-3.8735 1.8366 -0.5988
-3.8530 1.8536 -0.5989
-5.0210 0.8004 -0.5741
-4.9962 0.8153 -0.5711
-4.9727 0.8303 -0.5687
-4.9583 0.8468 -0.5714
-4.9426 0.8632 -0.5734
-4.9236 0.8790 -0.5736
-4.9088 0.8959 -0.5762
-4.8948 0.9131 -0.5795
-4.8686 0.9270 -0.5752
-4.8495 0.9428 -0.5754
-4.8324 0.9593 -0.5768
-4.8095 0.9738 -0.5744
-4.7960 0.9918 -0.5783
-4.7768 1.0077 -0.5784
-4.7603 1.0248 -0.5805
-4.7351 1.0378 -0.5762
-4.7161 1.0536 -0.5763
-4.6970 1.0695 -0.5765
-4.6574 1.1001 -0.5755
-4.6450 1.1206 -0.5813
-4.6258 1.1365 -0.5814
-4.6017 1.1486 -0.5771
-4.5813 1.1633 -0.5760
-4.5636 1.1803 -0.5774
-4.5433 1.1949 -0.5763
-4.5279 1.2144 -0.5802
-4.5106 1.2322 -0.5823
-4.4936 1.2508 -0.5849
-4.4694 1.2608 -0.5794
-4.4482 1.2739 -0.5769
-4.4231 1.2811 -0.5694
-4.4101 1.3054 -0.5772
-4.3962 1.3295 -0.5844
-4.3739 1.3401 -0.5800
-4.3556 1.3575 -0.5814
-4.3321 1.3646 -0.5746
-4.3151 1.3844 -0.5779
-4.2928 1.3927 -0.5723
-4.2747 1.4100 -0.5737
-4.2593 1.4353 -0.5808
-4.2390 1.4476 -0.5784
-4.2200 1.4634 -0.5786
-4.2024 1.4847 -0.5825
-4.1833 1.5007 -0.5827
-4.1619 1.5059 -0.5758
-4.1443 1.5285 -0.5804
-4.1252 1.5444 -0.5805
-4.1064 1.5622 -0.5819
-4.0879 1.5833 -0.5853
-4.0698 1.6108 -0.5924
-4.0502 1.6248 -0.5913
-4.0305 1.6355 -0.5882
-4.0110 1.6438 -0.5839
-3.9919 1.6676 -0.5885
-3.9726 1.6813 -0.5874
-3.9534 1.6973 -0.5875
-3.9341 1.7133 -0.5876
-3.9152 1.7233 -0.5846
-3.8965 1.7343 -0.5821
-3.8770 1.7551 -0.5848
-3.8578 1.7710 -0.5850
-3.8375 1.7958 -0.5896
-3.8182 1.8118 -0.5898
-4.9754 0.7731 -0.5644
-4.9575 0.7880 -0.5646
-4.9395 0.8029 -0.5647
-4.9238 0.8182 -0.5661
-4.9147 0.8348 -0.5715
-4.9096 0.8526 -0.5796
-4.8420 0.8952 -0.5721
-4.8178 0.9085 -0.5682
-4.8017 0.9241 -0.5697
-4.7817 0.9385 -0.5685
-4.7693 0.9555 -0.5726
-4.7420 0.9670 -0.5661
-4.7276 0.9834 -0.5689
-4.7034 1.0193 -0.5784
-4.6751 1.0292 -0.5706
-4.6619 1.0470 -0.5747
-4.6043 1.0904 -0.5724
-4.5876 1.1065 -0.5739
-4.5638 1.1172 -0.5687
-4.5431 1.1299 -0.5662
-4.5291 1.1483 -0.5703
-4.5073 1.1596 -0.5664
-4.4691 1.1868 -0.5640
-4.4524 1.2030 -0.5655
-4.4378 1.2218 -0.5696
-4.4230 1.2409 -0.5737
-4.4018 1.2517 -0.5699
-4.3829 1.2652 -0.5687
-4.3640 1.2787 -0.5675
-4.3522 1.3042 -0.5769
-4.3332 1.3178 -0.5757
-4.3126 1.3281 -0.5718
-4.2923 1.3382 -0.5680
-4.2765 1.3580 -0.5721
-4.2598 1.3764 -0.5749
-4.2404 1.3880 -0.5723
-4.1530 1.4764 -0.5823
-4.1336 1.4857 -0.5784
-4.1145 1.4949 -0.5746
-4.0966 1.5119 -0.5760
-4.0811 1.5507 -0.5915
-4.0633 1.5756 -0.5976
-4.0451 1.6009 -0.6038
-4.0254 1.6015 -0.5946
-3.9691 1.6606 -0.6023
-3.9507 1.6613 -0.5938
-3.9329 1.6592 -0.5839
-3.8946 1.7079 -0.5942
-3.8751 1.7320 -0.5990
-3.8557 1.7526 -0.6018
-3.8368 1.7683 -0.6019
-4.9632 0.7514 -0.5719
-4.9481 0.7662 -0.5734
-4.9329 0.7810 -0.5749
-4.9108 0.7949 -0.5722
-4.9001 0.8105 -0.5765
-4.8802 0.8248 -0.5752
-4.8648 0.8398 -0.5767
-4.8493 0.8549 -0.5782
-4.8275 0.8685 -0.5756
-4.8120 0.8837 -0.5771
-4.7904 0.8971 -0.5745
-4.7768 0.9129 -0.5774
-4.7611 0.9282 -0.5789
-4.7434 0.9429 -0.5790
-4.7221 0.9561 -0.5764
-4.7063 0.9714 -0.5779
-4.6905 0.9868 -0.5794
-4.6711 1.0007 -0.5781
-4.6327 1.0281 -0.5756
-4.6183 1.0446 -0.5785
-4.6007 1.0592 -0.5786
-4.5816 1.0728 -0.5774
-4.5655 1.0884 -0.5789
-4.5113 1.1312 -0.5779
-4.4950 1.1469 -0.5794
-4.4762 1.1603 -0.5781
-4.4610 1.1774 -0.5810
-4.4444 1.1934 -0.5825
-4.4246 1.2054 -0.5799
-4.4080 1.2214 -0.5814
-4.3874 1.2319 -0.5774
-4.3689 1.2450 -0.5761
-4.3550 1.2654 -0.5818
-4.2822 1.3192 -0.5781
-4.2504 1.3568 -0.5853
-4.2302 1.3646 -0.5799
-4.2138 1.3827 -0.5828
-4.1951 1.3938 -0.5801
-4.1775 1.4084 -0.5802
-4.1600 1.4229 -0.5804
-4.1436 1.4433 -0.5847
-4.1252 1.4541 -0.5820
-4.1073 1.4667 -0.5807
-4.0905 1.4874 -0.5850
-4.0737 1.5103 -0.5907
-4.0553 1.5188 -0.5867
-4.0377 1.5357 -0.5882
-4.0199 1.5505 -0.5883
-4.0021 1.5630 -0.5871
-3.9843 1.5800 -0.5886
-3.9666 1.5902 -0.5859
-3.9491 1.6003 -0.5833
-3.9134 1.6367 -0.5877
-3.8956 1.6514 -0.5878
-3.8781 1.6637 -0.5865
-3.8607 1.6759 -0.5853
-3.8424 1.6956 -0.5882
-3.8247 1.7104 -0.5883
-4.9008 0.7573 -0.5691
-4.8806 0.7708 -0.5670
-4.8506 0.7990 -0.5694
-4.8339 0.8129 -0.5695
-4.8172 0.8268 -0.5697
-4.8079 0.8423 -0.5748
-4.7858 0.8551 -0.5713
-4.7619 0.8671 -0.5664
-4.7453 0.8809 -0.5666
-4.7375 0.8974 -0.5731
-4.7273 0.9136 -0.5782
-4.7066 0.9264 -0.5755
-4.6888 0.9400 -0.5749
-4.6667 0.9518 -0.5707
-4.6332 0.9796 -0.5710
-4.6239 0.9973 -0.5775
-4.6086 1.0122 -0.5791
-4.5656 1.0346 -0.5707
-4.5525 1.0510 -0.5744
-4.4840 1.1057 -0.5735
-4.4378 1.1519 -0.5789
-4.4158 1.1601 -0.5725
-4.4023 1.1780 -0.5769
-4.3881 1.1954 -0.5807
-4.3354 1.2347 -0.5781
-4.3151 1.2427 -0.5725
-4.2996 1.2589 -0.5748
-4.2801 1.2673 -0.5699
-4.2675 1.2900 -0.5779
-4.2517 1.3064 -0.5802
-4.2370 1.3264 -0.5853
-4.2029 1.3547 -0.5856
-4.1858 1.3689 -0.5857
-4.0660 1.4651 -0.5844
-3.9120 1.6052 -0.5934
-3.8778 1.6314 -0.5922
-3.8453 1.6462 -0.5845
-3.8297 1.6513 -0.5796
-4.8751 0.7510 -0.5761
-4.8588 0.7646 -0.5762
-4.8425 0.7781 -0.5763
-4.8217 0.7910 -0.5735
-4.8055 0.8045 -0.5736
-4.7903 0.8181 -0.5744
-4.7730 0.8314 -0.5738
-4.7609 0.8459 -0.5769
-4.7416 0.8586 -0.5748
-4.7273 0.8727 -0.5764
-4.7081 0.8853 -0.5743
-4.6947 0.8997 -0.5766
-4.6793 0.9136 -0.5775
-4.6621 0.9268 -0.5769
-4.6441 0.9396 -0.5755
-4.6321 0.9550 -0.5793
-4.6107 0.9662 -0.5750
-4.5791 0.9936 -0.5759
-4.5541 1.0253 -0.5836
-4.5282 1.0326 -0.5741
-4.5120 1.0460 -0.5742
-4.5013 1.0637 -0.5802
-4.4809 1.0740 -0.5759
-4.4686 1.0909 -0.5805
-4.4547 1.1068 -0.5836
-4.4388 1.1210 -0.5844
-4.4206 1.1328 -0.5823
-4.4004 1.1420 -0.5772
-4.3868 1.1588 -0.5811
-4.3516 1.1825 -0.5776
-4.3205 1.2117 -0.5800
-4.2878 1.2387 -0.5803
-4.2715 1.2523 -0.5804
-4.2197 1.2854 -0.5740
-4.2063 1.3065 -0.5808
-4.1897 1.3192 -0.5802
-4.1737 1.3336 -0.5811
-4.1564 1.3435 -0.5782
-4.1408 1.3598 -0.5806
-4.1245 1.3733 -0.5807
-4.1094 1.3935 -0.5860
-4.0597 1.4304 -0.5834
-4.0440 1.4533 -0.5903
-4.0272 1.4618 -0.5866
-4.0107 1.4755 -0.5867
-3.9942 1.4848 -0.5839
-3.9779 1.5006 -0.5855
-3.9615 1.5119 -0.5841
-3.9453 1.5232 -0.5827
-3.9290 1.5368 -0.5828
-3.9120 1.5586 -0.5882
-3.8956 1.5711 -0.5876
-3.8785 1.5908 -0.5914
-3.8626 1.5996 -0.5885
-3.8461 1.6133 -0.5887
-4.8438 0.7300 -0.5681
-4.8260 0.7427 -0.5667
-4.8140 0.7559 -0.5691
-4.7950 0.7684 -0.5669
-4.7829 0.7817 -0.5693
-4.7695 0.7950 -0.5710
-4.7550 0.8081 -0.5719
-4.7478 0.8228 -0.5781
-4.7269 0.8347 -0.5744
-4.7113 0.8478 -0.5745
-4.6956 0.8608 -0.5746
-4.6770 0.8729 -0.5724
-4.6577 0.8846 -0.5695
-4.6477 0.8995 -0.5742
-4.6347 0.9135 -0.5766
-4.6173 0.9258 -0.5752
-4.5810 0.9494 -0.5708
-4.5630 0.9611 -0.5686
-4.5491 0.9748 -0.5702
-4.5344 0.9881 -0.5711
-4.5098 1.0183 -0.5783
-4.4871 1.0263 -0.5707
-4.4567 1.0526 -0.5717
-4.4431 1.0672 -0.5741
-4.4238 1.0767 -0.5696
-4.3495 1.1450 -0.5748
-4.3324 1.1558 -0.5725
-4.3164 1.1680 -0.5719
-4.2996 1.1788 -0.5697
-4.2841 1.1916 -0.5698
-4.2667 1.2006 -0.5660
-4.2532 1.2172 -0.5700
-4.2381 1.2309 -0.5709
-4.2237 1.2462 -0.5733
-4.2088 1.2607 -0.5750
-4.1932 1.2737 -0.5751
-4.1779 1.2875 -0.5760
-4.1608 1.2951 -0.5714
-4.1458 1.3098 -0.5731
-4.1317 1.3291 -0.5786
-4.1166 1.3449 -0.5811
-4.0698 1.3871 -0.5837
-4.0531 1.3911 -0.5769
-4.0223 1.4254 -0.5833
-4.0068 1.4449 -0.5881
-3.9750 1.4713 -0.5883
-3.8793 1.5529 -0.5905
-3.8628 1.5698 -0.5930
-3.8468 1.5831 -0.5931
-3.6498 0.1159 -0.4116
-3.6402 0.1271 -0.4094
-3.6221 0.1505 -0.4033
-3.6028 0.1707 -0.4004
-3.5937 0.1814 -0.3981
-3.5832 0.1901 -0.3982
-3.5761 0.2023 -0.3937
-3.5583 0.2223 -0.3899
-3.5493 0.2319 -0.3885
-3.5403 0.2414 -0.3870
-3.5328 0.2519 -0.3840
-3.5226 0.2603 -0.3840
-3.5147 0.2700 -0.3818
-3.5061 0.2793 -0.3803
-3.4968 0.2880 -0.3796
-3.4868 0.2962 -0.3796
-3.4792 0.3057 -0.3774
-3.4701 0.3143 -0.3767
-3.4550 0.3203 -0.3814
-3.4340 0.3366 -0.3823
-3.4386 0.3498 -0.3700
-3.4345 0.3596 -0.3654
-3.4259 0.3678 -0.3647
-3.4153 0.3755 -0.3655
-3.4077 0.3839 -0.3640
-3.4012 0.3924 -0.3618
-3.3938 0.4007 -0.3603
-3.3886 0.4092 -0.3573
-3.3814 0.4173 -0.3558
-3.3721 0.4250 -0.3558
-3.3650 0.4329 -0.3543
-3.3580 0.4408 -0.3528
-3.3511 0.4486 -0.3514
-3.3407 0.4561 -0.3522
-3.3352 0.4639 -0.3499
-3.3248 0.4714 -0.3508
-3.7216 0.0420 -0.4041
-3.7105 0.0512 -0.4042
-3.7000 0.0621 -0.4028
-3.6902 0.0745 -0.3999
-3.6802 0.0859 -0.3977
-3.6490 0.1160 -0.3950
-3.6313 0.1402 -0.3884
-3.6230 0.1524 -0.3848
-3.6110 0.1591 -0.3871
-3.6019 0.1699 -0.3849
-3.5919 0.1792 -0.3842
-3.5824 0.1891 -0.3828
-3.5754 0.2014 -0.3784
-3.5488 0.2308 -0.3734
-3.5426 0.2424 -0.3690
-3.5339 0.2517 -0.3676
-3.5239 0.2600 -0.3676
-3.5160 0.2697 -0.3655
-3.5060 0.2780 -0.3655
-3.4953 0.2857 -0.3663
-3.4853 0.2940 -0.3664
-3.4778 0.3035 -0.3642
-3.4703 0.3128 -0.3621
-3.4562 0.3191 -0.3658
-3.4362 0.3356 -0.3660
-3.4419 0.3491 -0.3533
-3.4352 0.3580 -0.3512
-3.4266 0.3661 -0.3505
-3.4190 0.3745 -0.3491
-3.4116 0.3828 -0.3476
-3.4042 0.3910 -0.3462
-3.3979 0.3994 -0.3440
-3.3897 0.4073 -0.3433
-3.3782 0.4146 -0.3449
-3.3744 0.4231 -0.3412
-3.3663 0.4309 -0.3405
-3.3502 0.4463 -0.3391
-3.3423 0.4539 -0.3384
-3.3343 0.4616 -0.3377
-3.3289 0.4692 -0.3356
-3.8770 -0.1443 -0.4242
-3.8292 -0.0811 -0.4088
-3.8177 -0.0683 -0.4067
-3.8064 -0.0546 -0.4039
-3.7950 -0.0441 -0.4033
-3.7731 -0.0174 -0.3977
-3.7619 -0.0071 -0.3971
-3.7405 0.0171 -0.3929
-3.7091 0.0517 -0.3874
-3.6987 0.0625 -0.3861
-3.6697 0.0983 -0.3784
-3.6593 0.1079 -0.3778
-3.6387 0.1271 -0.3765
-3.6289 0.1374 -0.3751
-3.6225 0.1524 -0.3687
-3.6115 0.1604 -0.3695
-3.6026 0.1710 -0.3674
-3.5742 0.1998 -0.3640
-3.5670 0.2113 -0.3605
-3.5574 0.2203 -0.3599
-3.5491 0.2303 -0.3578
-3.5403 0.2397 -0.3564
-3.5309 0.2486 -0.3558
-3.5237 0.2589 -0.3529
-3.5145 0.2676 -0.3523
-3.5060 0.2767 -0.3509
-3.4961 0.2849 -0.3510
-3.4886 0.2943 -0.3489
-3.4821 0.3041 -0.3461
-3.4748 0.3133 -0.3440
-3.4439 0.3247 -0.3535
-3.4367 0.3339 -0.3514
-3.4407 0.3469 -0.3406
-3.4339 0.3557 -0.3385
-3.4264 0.3641 -0.3372
-3.4228 0.3736 -0.3329
-3.4125 0.3810 -0.3337
-3.4062 0.3895 -0.3316
-3.3979 0.3973 -0.3309
-3.3919 0.4056 -0.3288
-3.3816 0.4130 -0.3296
-3.3723 0.4207 -0.3297
-3.3665 0.4287 -0.3275
-3.3585 0.4364 -0.3269
-3.3529 0.4443 -0.3248
-3.3462 0.4520 -0.3234
-3.3372 0.4594 -0.3235
-3.3331 0.4671 -0.3206
-3.8983 -0.1630 -0.4061
-3.8862 -0.1542 -0.4068
-3.8740 -0.1419 -0.4055
-3.8500 -0.1046 -0.3947
-3.8383 -0.0938 -0.3941
-3.8269 -0.0779 -0.3900
-3.8155 -0.0652 -0.3881
-3.8041 -0.0547 -0.3874
-3.7929 -0.0422 -0.3855
-3.7813 -0.0337 -0.3862
-3.7710 -0.0175 -0.3815
-3.7606 -0.0035 -0.3781
-3.7492 0.0048 -0.3789
-3.7388 0.0177 -0.3762
-3.7292 0.0323 -0.3721
-3.7184 0.0423 -0.3715
-3.7089 0.0556 -0.3681
-3.6980 0.0646 -0.3682
-3.6875 0.0744 -0.3676
-3.6791 0.0890 -0.3628
-3.6691 0.0994 -0.3615
-3.6588 0.1089 -0.3609
-3.6490 0.1192 -0.3596
-3.6402 0.1309 -0.3569
-3.6315 0.1424 -0.3542
-3.6117 0.1610 -0.3530
-3.6029 0.1715 -0.3510
-3.5931 0.1807 -0.3503
-3.5851 0.1917 -0.3476
-3.5754 0.2007 -0.3470
-3.5665 0.2103 -0.3457
-3.5588 0.2210 -0.3430
-3.5501 0.2304 -0.3417
-3.5394 0.2381 -0.3424
-3.5314 0.2480 -0.3404
-3.5215 0.2562 -0.3405
-3.5053 0.2750 -0.3372
-3.4970 0.2840 -0.3358
-3.4928 0.2952 -0.3311
-3.4864 0.3048 -0.3284
-3.4769 0.3127 -0.3284
-3.4621 0.3183 -0.3326
-3.4372 0.3323 -0.3369
-3.4376 0.3440 -0.3294
-3.4271 0.3625 -0.3232
-3.4227 0.3716 -0.3198
-3.4144 0.3796 -0.3192
-3.4051 0.3872 -0.3193
-3.3990 0.3955 -0.3172
-3.3865 0.4025 -0.3194
-3.3828 0.4111 -0.3160
-3.3759 0.4190 -0.3146
-3.3611 0.4345 -0.3127
-3.3556 0.4423 -0.3107
-3.3539 0.4503 -0.3065
-3.3437 0.4576 -0.3073
-3.3348 0.4649 -0.3074
-3.3323 0.4725 -0.3039
-3.9072 -0.1715 -0.3882
-3.8953 -0.1627 -0.3890
-3.8834 -0.1574 -0.3917
-3.8711 -0.1395 -0.3872
-3.8474 -0.0979 -0.3741
-3.8358 -0.0905 -0.3755
-3.8241 -0.0841 -0.3776
-3.8133 -0.0630 -0.3704
-3.7797 -0.0299 -0.3673
-3.7691 -0.0166 -0.3647
-3.7588 -0.0026 -0.3615
-3.7483 0.0093 -0.3596
-3.7375 0.0194 -0.3590
-3.7274 0.0321 -0.3564
-3.7176 0.0446 -0.3538
-3.7076 0.0562 -0.3519
-3.6971 0.0659 -0.3513
-3.6873 0.0773 -0.3494
-3.6766 0.0861 -0.3495
-3.6674 0.0981 -0.3469
-3.6584 0.1100 -0.3443
-3.6500 0.1225 -0.3411
-3.6396 0.1311 -0.3411
-3.6296 0.1404 -0.3405
-3.6207 0.1511 -0.3386
-3.6026 0.1715 -0.3354
-3.5946 0.1825 -0.3328
-3.5856 0.1922 -0.3316
-3.5749 0.1999 -0.3323
-3.5648 0.2082 -0.3324
-3.5546 0.2166 -0.3324
-3.5235 0.2566 -0.3241
-3.5167 0.2667 -0.3215
-3.5061 0.2743 -0.3222
-3.4956 0.2819 -0.3229
-3.4914 0.2930 -0.3183
-3.4826 0.3014 -0.3177
-3.4713 0.3086 -0.3191
-3.4607 0.3161 -0.3198
-3.4457 0.3219 -0.3239
-3.4367 0.3304 -0.3233
-3.4382 0.3425 -0.3154
-3.4363 0.3529 -0.3101
-3.4309 0.3618 -0.3075
-3.4216 0.3694 -0.3076
-3.4154 0.3779 -0.3056
-3.4093 0.3862 -0.3037
-3.3959 0.3929 -0.3064
-3.3910 0.4013 -0.3038
-3.3862 0.4096 -0.3012
-3.3681 0.4246 -0.3013
-3.3661 0.4329 -0.2973
-3.3559 0.4402 -0.2981
-3.3494 0.4478 -0.2968
-3.3454 0.4554 -0.2942
-3.3391 0.4629 -0.2929
-3.3252 0.4699 -0.2956
-3.8920 -0.1566 -0.3689
-3.8803 -0.1503 -0.3709
-3.8682 -0.1359 -0.3684
-3.8564 -0.1205 -0.3653
-3.8448 -0.0987 -0.3584
-3.8335 -0.0849 -0.3560
-3.7779 -0.0279 -0.3500
-3.7679 -0.0118 -0.3456
-3.7566 -0.0037 -0.3463
-3.7468 0.0111 -0.3426
-3.7366 0.0229 -0.3408
-3.7265 0.0346 -0.3389
-3.7069 0.0585 -0.3346
-3.6975 0.0707 -0.3322
-3.6866 0.0786 -0.3329
-3.6775 0.0906 -0.3304
-3.6666 0.0985 -0.3311
-3.6564 0.1080 -0.3305
-3.6489 0.1220 -0.3261
-3.6385 0.1305 -0.3262
-3.6282 0.1391 -0.3263
-3.6198 0.1505 -0.3238
-3.6105 0.1603 -0.3226
-3.6046 0.1741 -0.3176
-3.5940 0.1818 -0.3183
-3.5845 0.1907 -0.3177
-3.5750 0.1997 -0.3171
-3.5668 0.2098 -0.3153
-3.5575 0.2186 -0.3147
-3.5488 0.2279 -0.3135
-3.5403 0.2372 -0.3123
-3.5318 0.2464 -0.3111
-3.5249 0.2566 -0.3086
-3.5152 0.2646 -0.3086
-3.5085 0.2745 -0.3061
-3.4989 0.2825 -0.3062
-3.4925 0.2922 -0.3037
-3.4838 0.3006 -0.3031
-3.4742 0.3084 -0.3032
-3.4664 0.3171 -0.3020
-3.4452 0.3201 -0.3104
-3.4391 0.3296 -0.3079
-3.4390 0.3520 -0.2952
-3.4278 0.3590 -0.2965
-3.4215 0.3675 -0.2947
-3.4143 0.3757 -0.2935
-3.4040 0.3830 -0.2942
-3.4002 0.3918 -0.2910
-3.3954 0.4002 -0.2885
-3.3842 0.4072 -0.2899
-3.3819 0.4158 -0.2861
-3.3730 0.4231 -0.2861
-3.3652 0.4307 -0.2855
-3.3611 0.4385 -0.2830
-3.3547 0.4460 -0.2818
-3.3459 0.4533 -0.2819
-3.3384 0.4606 -0.2813
-3.3335 0.4680 -0.2794
-3.8888 -0.1503 -0.3492
-3.8774 -0.1476 -0.3529
-3.8654 -0.1310 -0.3494
-3.8537 -0.1079 -0.3422
-3.8424 -0.0952 -0.3404
-3.8309 -0.0879 -0.3417
-3.8088 -0.0607 -0.3370
-3.7984 -0.0431 -0.3322
-3.7877 -0.0310 -0.3305
-3.7770 -0.0199 -0.3293
-3.7660 -0.0108 -0.3294
-3.7553 -0.0008 -0.3289
-3.7450 0.0110 -0.3271
-3.7348 0.0228 -0.3254
-3.7152 0.0469 -0.3213
-3.7066 0.0618 -0.3171
-3.6961 0.0705 -0.3171
-3.6845 0.0766 -0.3190
-3.6661 0.0997 -0.3149
-3.6483 0.1223 -0.3108
-3.6389 0.1323 -0.3096
-3.6306 0.1436 -0.3072
-3.6194 0.1506 -0.3085
-3.6118 0.1625 -0.3055
-3.6034 0.1728 -0.3038
-3.5917 0.1791 -0.3057
-3.5845 0.1906 -0.3027
-3.5757 0.2001 -0.3015
-3.5664 0.2089 -0.3010
-3.5506 0.2287 -0.2975
-3.5422 0.2379 -0.2963
-3.5325 0.2459 -0.2964
-3.5271 0.2571 -0.2928
-3.5152 0.2635 -0.2946
-3.5071 0.2725 -0.2935
-3.4991 0.2813 -0.2923
-3.4772 0.3084 -0.2876
-3.4687 0.3165 -0.2871
-3.4475 0.3194 -0.2951
-3.4369 0.3270 -0.2958
-3.4348 0.3377 -0.2909
-3.4369 0.3495 -0.2836
-3.4257 0.3565 -0.2849
-3.4234 0.3662 -0.2807
-3.4163 0.3743 -0.2795
-3.4024 0.3903 -0.2772
-3.3956 0.3982 -0.2760
-3.3866 0.4056 -0.2761
-3.3799 0.4134 -0.2749
-3.3756 0.4214 -0.2725
-3.3644 0.4284 -0.2738
-3.3615 0.4364 -0.2708
-3.3564 0.4440 -0.2690
-3.3489 0.4513 -0.2684
-3.3427 0.4587 -0.2673
-3.3354 0.4659 -0.2667
-3.8859 -0.1475 -0.3317
-3.8746 -0.1473 -0.3364
-3.8627 -0.1273 -0.3313
-3.8512 -0.1053 -0.3250
-3.8398 -0.0993 -0.3268
-3.8175 -0.0719 -0.3223
-3.8070 -0.0552 -0.3183
-3.7960 -0.0450 -0.3178
-3.7856 -0.0308 -0.3150
-3.7747 -0.0218 -0.3151
-3.7644 -0.0088 -0.3128
-3.7441 0.0148 -0.3095
-3.7338 0.0255 -0.3084
-3.7239 0.0371 -0.3067
-3.7144 0.0494 -0.3045
-3.7048 0.0608 -0.3028
-3.6944 0.0694 -0.3028
-3.6856 0.0823 -0.3000
-3.6738 0.0875 -0.3024
-3.6459 0.1196 -0.2979
-3.6389 0.1333 -0.2939
-3.6287 0.1417 -0.2940
-3.6196 0.1515 -0.2929
-3.6116 0.1626 -0.2906
-3.6022 0.1715 -0.2901
-3.5939 0.1818 -0.2884
-3.5747 0.1988 -0.2880
-3.5588 0.2187 -0.2846
-3.5511 0.2284 -0.2829
-3.5421 0.2370 -0.2824
-3.5331 0.2455 -0.2819
-3.5257 0.2551 -0.2802
-3.5184 0.2645 -0.2785
-3.5096 0.2728 -0.2780
-3.4993 0.2802 -0.2786
-3.4923 0.2894 -0.2769
-3.4845 0.2981 -0.2758
-3.4785 0.3076 -0.2735
-3.4692 0.3153 -0.2736
-3.4356 0.3248 -0.2831
-3.4326 0.3352 -0.2790
-3.4377 0.3480 -0.2703
-3.4305 0.3562 -0.2692
-3.4234 0.3644 -0.2681
-3.4174 0.3727 -0.2664
-3.4115 0.3810 -0.2647
-3.4025 0.3884 -0.2647
-3.3957 0.3963 -0.2636
-3.3868 0.4036 -0.2637
-3.3836 0.4120 -0.2608
-3.3759 0.4194 -0.2603
-3.3581 0.4421 -0.2563
-3.3519 0.4494 -0.2552
-3.3446 0.4566 -0.2547
-3.3360 0.4637 -0.2547
-3.8715 -0.1364 -0.3151
-3.8599 -0.1177 -0.3108
-3.8486 -0.1038 -0.3087
-3.8375 -0.0911 -0.3071
-3.8266 -0.0764 -0.3044
-3.8157 -0.0640 -0.3028
-3.8047 -0.0550 -0.3029
-3.7937 -0.0459 -0.3029
-3.7834 -0.0317 -0.3002
-3.7727 -0.0217 -0.2998
-3.7530 0.0060 -0.2944
-3.7434 0.0196 -0.2917
-3.7334 0.0302 -0.2906
-3.7237 0.0416 -0.2890
-3.7132 0.0503 -0.2891
-3.7028 0.0589 -0.2892
-3.6937 0.0710 -0.2870
-3.6840 0.0812 -0.2860
-3.6737 0.0897 -0.2860
-3.6556 0.1115 -0.2828
-3.6463 0.1215 -0.2818
-3.6370 0.1314 -0.2807
-3.6284 0.1420 -0.2791
-3.6194 0.1517 -0.2781
-3.6115 0.1628 -0.2759
-3.6016 0.1710 -0.2760
-3.5841 0.1899 -0.2739
-3.5761 0.2000 -0.2723
-3.5689 0.2105 -0.2701
-3.5592 0.2185 -0.2702
-3.5516 0.2282 -0.2686
-3.5413 0.2356 -0.2692
-3.5324 0.2441 -0.2687
-3.5235 0.2525 -0.2682
-3.5106 0.2723 -0.2639
-3.5012 0.2801 -0.2639
-3.4934 0.2888 -0.2629
-3.4866 0.2978 -0.2613
-3.4790 0.3064 -0.2602
-3.4400 0.3248 -0.2671
-3.4405 0.3473 -0.2560
-3.4344 0.3557 -0.2544
-3.4264 0.3635 -0.2539
-3.4185 0.3712 -0.2534
-3.4084 0.3783 -0.2540
-3.4027 0.3865 -0.2524
-3.3993 0.3950 -0.2497
-3.3915 0.4025 -0.2492
-3.3862 0.4104 -0.2475
-3.3786 0.4178 -0.2470
-3.3735 0.4255 -0.2454
-3.3636 0.4325 -0.2460
-3.3586 0.4400 -0.2444
-3.3525 0.4473 -0.2433
-3.3452 0.4545 -0.2428
-3.3366 0.4616 -0.2429
-3.8804 -0.1501 -0.3012
-3.8462 -0.0999 -0.2915
-3.8351 -0.0907 -0.2915
-3.8243 -0.0749 -0.2885
-3.8134 -0.0648 -0.2880
-3.8024 -0.0558 -0.2881
-3.7917 -0.0446 -0.2871
-3.7818 -0.0284 -0.2835
-3.7719 -0.0144 -0.2809
-3.7614 -0.0046 -0.2805
-3.7512 0.0061 -0.2795
-3.7403 0.0139 -0.2801
-3.7310 0.0274 -0.2775
-3.7213 0.0389 -0.2760
-3.6824 0.0802 -0.2720
-3.6736 0.0920 -0.2700
-3.6642 0.1021 -0.2690
-3.6554 0.1129 -0.2675
-3.6462 0.1227 -0.2665
-3.6375 0.1333 -0.2650
-3.6281 0.1423 -0.2645
-3.6108 0.1623 -0.2620
-3.5951 0.1833 -0.2584
-3.5843 0.1900 -0.2595
-3.5770 0.2006 -0.2575
-3.5673 0.2085 -0.2575
-3.5590 0.2177 -0.2565
-3.5508 0.2268 -0.2555
-3.5412 0.2347 -0.2556
-3.5323 0.2432 -0.2551
-3.5258 0.2532 -0.2531
-3.5209 0.2641 -0.2499
-3.5100 0.2708 -0.2511
-3.5023 0.2795 -0.2501
-3.4955 0.2886 -0.2485
-3.4887 0.2976 -0.2470
-3.4795 0.3052 -0.2470
-3.4703 0.3128 -0.2471
-3.4538 0.3172 -0.2514
-3.4360 0.3330 -0.2510
-3.4344 0.3540 -0.2421
-3.4254 0.3614 -0.2421
-3.4206 0.3700 -0.2401
-3.4117 0.3773 -0.2401
-3.4061 0.3854 -0.2386
-3.3984 0.3929 -0.2381
-3.3929 0.4008 -0.2366
-3.3842 0.4081 -0.2366
-3.3825 0.4164 -0.2335
-3.3775 0.4240 -0.2319
-3.3677 0.4309 -0.2325
-3.3579 0.4378 -0.2331
-3.3556 0.4455 -0.2305
-3.3471 0.4525 -0.2306
-3.3412 0.4597 -0.2295
-3.8660 -0.1271 -0.2799
-3.8548 -0.1120 -0.2775
-3.8438 -0.0971 -0.2751
-3.8327 -0.0881 -0.2752
-3.8219 -0.0756 -0.2737
-3.8115 -0.0601 -0.2708
-3.8009 -0.0490 -0.2699
-3.7908 -0.0348 -0.2675
-3.7801 -0.0260 -0.2675
-3.7700 -0.0142 -0.2661
-3.7597 -0.0034 -0.2652
-3.7494 0.0063 -0.2647
-3.7401 0.0198 -0.2623
-3.7299 0.0294 -0.2619
-3.7195 0.0380 -0.2619
-3.7103 0.0502 -0.2600
-3.7009 0.0614 -0.2586
-3.6917 0.0725 -0.2571
-3.6822 0.0826 -0.2562
-3.6725 0.0918 -0.2558
-3.6640 0.1035 -0.2538
-3.6283 0.1434 -0.2496
-3.6107 0.1626 -0.2477
-3.6026 0.1727 -0.2462
-3.5935 0.1814 -0.2458
-3.5850 0.1907 -0.2448
-3.5773 0.2006 -0.2434
-3.5601 0.2182 -0.2420
-3.5506 0.2261 -0.2421
-3.5426 0.2351 -0.2411
-3.5353 0.2446 -0.2397
-3.5259 0.2523 -0.2397
-3.5180 0.2611 -0.2388
-3.5127 0.2714 -0.2363
-3.5042 0.2795 -0.2359
-3.4959 0.2876 -0.2354
-3.4884 0.2961 -0.2345
-3.4819 0.3049 -0.2330
-3.4710 0.3116 -0.2341
-3.4544 0.3159 -0.2382
-3.4387 0.3324 -0.2368
-3.4384 0.3431 -0.2323
-3.4354 0.3526 -0.2293
-3.4285 0.3606 -0.2284
-3.4196 0.3679 -0.2285
-3.4140 0.3760 -0.2270
-3.4019 0.3825 -0.2286
-3.3997 0.3913 -0.2256
-3.3955 0.3994 -0.2236
-3.3903 0.4072 -0.2222
-3.3794 0.4139 -0.2232
-3.3755 0.4217 -0.2213
-3.3670 0.4288 -0.2213
-3.3597 0.4360 -0.2209
-3.3524 0.4431 -0.2204
-3.3465 0.4503 -0.2194
-3.8858 -0.1474 -0.2653
-3.8523 -0.1080 -0.2608
-3.8413 -0.0978 -0.2604
-3.8304 -0.0876 -0.2600
-3.8199 -0.0719 -0.2573
-3.8091 -0.0618 -0.2569
-3.7988 -0.0486 -0.2550
-3.7893 -0.0302 -0.2508
-3.7789 -0.0205 -0.2504
-3.7684 -0.0118 -0.2505
-3.7577 -0.0042 -0.2510
-3.7481 0.0084 -0.2492
-3.7379 0.0180 -0.2488
-3.7288 0.0314 -0.2465
-3.7188 0.0408 -0.2461
-3.7002 0.0632 -0.2434
-3.6911 0.0742 -0.2420
-3.6807 0.0817 -0.2426
-3.6725 0.0943 -0.2403
-3.6629 0.1033 -0.2399
-3.6457 0.1246 -0.2371
-3.6368 0.1343 -0.2363
-3.6295 0.1462 -0.2339
-3.6203 0.1549 -0.2335
-3.6112 0.1636 -0.2331
-3.6010 0.1709 -0.2337
-3.5937 0.1816 -0.2318
-3.5841 0.1895 -0.2319
-3.5757 0.1987 -0.2310
-3.5675 0.2079 -0.2301
-3.5593 0.2170 -0.2292
-3.5499 0.2248 -0.2293
-3.5426 0.2343 -0.2279
-3.5361 0.2443 -0.2260
-3.5283 0.2531 -0.2252
-3.5190 0.2608 -0.2252
-3.5054 0.2790 -0.2225
-3.4955 0.2861 -0.2230
-3.4872 0.2941 -0.2226
-3.4780 0.3016 -0.2226
-3.4752 0.3121 -0.2194
-3.4625 0.3179 -0.2213
-3.4459 0.3223 -0.2252
-3.4366 0.3299 -0.2253
-3.4363 0.3407 -0.2210
-3.4354 0.3509 -0.2173
-3.4296 0.3592 -0.2159
-3.4229 0.3670 -0.2150
-3.4141 0.3743 -0.2150
-3.4054 0.3815 -0.2151
-3.4000 0.3895 -0.2137
-3.3935 0.3971 -0.2128
-3.3849 0.4043 -0.2129
-3.3798 0.4120 -0.2115
-3.3760 0.4198 -0.2096
-3.3675 0.4268 -0.2097
-3.3615 0.4341 -0.2088
-3.3556 0.4414 -0.2079
-3.3471 0.4483 -0.2079
-3.8721 -0.1411 -0.2514
-3.8390 -0.0949 -0.2445
-3.8285 -0.0779 -0.2415
-3.8180 -0.0658 -0.2402
-3.8072 -0.0592 -0.2412
-3.7967 -0.0482 -0.2403
-3.7866 -0.0351 -0.2386
-3.7761 -0.0264 -0.2387
-3.7664 -0.0126 -0.2365
-3.7566 -0.0009 -0.2352
-3.7383 0.0260 -0.2309
-3.7276 0.0325 -0.2319
-3.7176 0.0419 -0.2315
-3.7090 0.0549 -0.2293
-3.6992 0.0641 -0.2289
-3.6909 0.0769 -0.2268
-3.6810 0.0851 -0.2268
-3.6714 0.0942 -0.2264
-3.6529 0.1130 -0.2252
-3.6360 0.1340 -0.2227
-3.6273 0.1436 -0.2218
-3.6187 0.1531 -0.2210
-3.6101 0.1625 -0.2202
-3.6022 0.1726 -0.2189
-3.5932 0.1811 -0.2185
-3.5843 0.1897 -0.2181
-3.5755 0.1982 -0.2177
-3.5673 0.2073 -0.2169
-3.5599 0.2169 -0.2156
-3.5512 0.2253 -0.2152
-3.5433 0.2342 -0.2144
-3.5369 0.2441 -0.2126
-3.5308 0.2540 -0.2109
-3.5216 0.2615 -0.2109
-3.5125 0.2690 -0.2110
-3.5042 0.2771 -0.2106
-3.4959 0.2851 -0.2102
-3.4886 0.2935 -0.2094
-3.4857 0.3041 -0.2063
-3.4759 0.3110 -0.2068
-3.4661 0.3180 -0.2073
-3.4466 0.3210 -0.2123
-3.4355 0.3278 -0.2133
-3.4318 0.3581 -0.2031
-3.4273 0.3665 -0.2013
-3.4176 0.3734 -0.2018
-3.4089 0.3805 -0.2019
-3.4025 0.3882 -0.2010
-3.3973 0.3960 -0.1997
-3.3899 0.4033 -0.1993
-3.3838 0.4107 -0.1985
-3.3753 0.4177 -0.1985
-3.3705 0.4252 -0.1972
-3.3646 0.4325 -0.1964
-3.3575 0.4395 -0.1960
-3.3517 0.4466 -0.1951
-3.3460 0.4537 -0.1943
-3.8693 -0.1344 -0.2341
-3.8582 -0.1181 -0.2317
-3.8473 -0.1079 -0.2313
-3.8367 -0.0896 -0.2280
-3.8263 -0.0751 -0.2260
-3.8156 -0.0686 -0.2269
-3.8053 -0.0554 -0.2253
-3.7951 -0.0434 -0.2241
-3.7849 -0.0326 -0.2233
-3.7748 -0.0218 -0.2226
-3.7648 -0.0112 -0.2218
-3.7550 0.0004 -0.2206
-3.7450 0.0099 -0.2203
-3.7357 0.0223 -0.2186
-3.7271 0.0366 -0.2162
-3.7174 0.0458 -0.2158
-3.7073 0.0541 -0.2159
-3.6983 0.0651 -0.2147
-3.6618 0.1048 -0.2116
-3.6524 0.1137 -0.2112
-3.6440 0.1242 -0.2100
-3.6343 0.1322 -0.2101
-3.6191 0.1543 -0.2068
-3.6090 0.1614 -0.2073
-3.6018 0.1722 -0.2057
-3.5846 0.1899 -0.2046
-3.5759 0.1983 -0.2042
-3.5678 0.2074 -0.2034
-3.5605 0.2170 -0.2022
-3.5533 0.2265 -0.2010
-3.5433 0.2335 -0.2015
-3.5363 0.2429 -0.2003
-3.5295 0.2521 -0.1991
-3.5203 0.2596 -0.1991
-3.5128 0.2682 -0.1983
-3.5046 0.2762 -0.1980
-3.4973 0.2846 -0.1972
-3.4926 0.2944 -0.1951
-3.4810 0.3004 -0.1964
-3.4748 0.3091 -0.1952
-3.4678 0.3173 -0.1944
-3.4493 0.3206 -0.1987
-3.4383 0.3273 -0.1996
-3.4342 0.3366 -0.1976
-3.4329 0.3568 -0.1909
-3.4285 0.3652 -0.1893
-3.4178 0.3717 -0.1902
-3.4103 0.3790 -0.1898
-3.4017 0.3861 -0.1898
-3.3977 0.3942 -0.1882
-3.3915 0.4017 -0.1874
-3.3854 0.4091 -0.1866
-3.3770 0.4160 -0.1867
-3.3735 0.4237 -0.1850
-3.3677 0.4308 -0.1842
-3.3607 0.4378 -0.1838
-3.3537 0.4448 -0.1835
-3.3468 0.4517 -0.1831
-3.8557 -0.1162 -0.2165
-3.8344 -0.0901 -0.2139
-3.8242 -0.0733 -0.2112
-3.8135 -0.0669 -0.2121
-3.8032 -0.0548 -0.2110
-3.7928 -0.0462 -0.2110
-3.7831 -0.0310 -0.2087
-3.7733 -0.0193 -0.2076
-3.7643 -0.0035 -0.2049
-3.7542 0.0049 -0.2050
-3.7341 0.0226 -0.2047
-3.7251 0.0349 -0.2032
-3.7160 0.0460 -0.2021
-3.7063 0.0552 -0.2018
-3.6971 0.0652 -0.2011
-3.6864 0.0716 -0.2019
-3.6784 0.0842 -0.2000
-3.6702 0.0958 -0.1985
-3.6617 0.1064 -0.1974
-3.6529 0.1161 -0.1967
-3.6442 0.1257 -0.1959
-3.6351 0.1344 -0.1956
-3.6260 0.1431 -0.1953
-3.6186 0.1540 -0.1937
-3.6096 0.1626 -0.1934
-3.5937 0.1817 -0.1916
-3.5856 0.1908 -0.1908
-3.5769 0.1992 -0.1905
-3.5663 0.2055 -0.1913
-3.5597 0.2158 -0.1898
-3.5526 0.2253 -0.1887
-3.5442 0.2334 -0.1884
-3.5373 0.2427 -0.1872
-3.5282 0.2502 -0.1873
-3.5206 0.2588 -0.1865
-3.5132 0.2674 -0.1858
-3.5067 0.2763 -0.1847
-3.5004 0.2852 -0.1836
-3.4941 0.2940 -0.1824
-3.4853 0.3012 -0.1825
-3.4765 0.3085 -0.1825
-3.4667 0.3153 -0.1830
-3.4492 0.3190 -0.1866
-3.4402 0.3264 -0.1867
-3.4332 0.3346 -0.1859
-3.4376 0.3466 -0.1808
-3.4341 0.3555 -0.1789
-3.4266 0.3629 -0.1785
-3.4213 0.3709 -0.1774
-3.4139 0.3782 -0.1771
-3.4054 0.3852 -0.1771
-3.3969 0.3922 -0.1772
-3.3931 0.4001 -0.1756
-3.3907 0.4081 -0.1737
-3.3800 0.4146 -0.1745
-3.3754 0.4220 -0.1734
-3.3696 0.4291 -0.1727
-3.3614 0.4359 -0.1727
-3.3571 0.4431 -0.1716
-3.3476 0.4497 -0.1720
-3.8533 -0.1021 -0.1979
-3.8428 -0.0934 -0.1980
-3.8322 -0.0871 -0.1987
-3.8218 -0.0761 -0.1981
-3.8113 -0.0674 -0.1982
-3.7909 -0.0445 -0.1965
-3.7811 -0.0316 -0.1951
-3.7713 -0.0199 -0.1940
-3.7620 -0.0062 -0.1923
-3.7525 0.0053 -0.1912
-3.7429 0.0156 -0.1906
-3.7060 0.0582 -0.1872
-3.6962 0.0663 -0.1872
-3.6875 0.0771 -0.1862
-3.6781 0.0861 -0.1859
-3.6688 0.0950 -0.1856
-3.6604 0.1056 -0.1845
-3.6521 0.1160 -0.1835
-3.6264 0.1445 -0.1815
-3.6186 0.1546 -0.1804
-3.6092 0.1623 -0.1805
-3.6015 0.1723 -0.1795
-3.5922 0.1800 -0.1795
-3.5847 0.1898 -0.1785
-3.5604 0.2159 -0.1768
-3.5527 0.2247 -0.1761
-3.5374 0.2421 -0.1748
-3.5284 0.2495 -0.1748
-3.5218 0.2587 -0.1738
-3.5136 0.2666 -0.1735
-3.5064 0.2750 -0.1728
-3.4983 0.2828 -0.1725
-3.4903 0.2907 -0.1722
-3.4833 0.2989 -0.1715
-3.4763 0.3071 -0.1708
-3.4676 0.3143 -0.1708
-3.4501 0.3178 -0.1742
-3.4441 0.3264 -0.1732
-3.4372 0.3345 -0.1725
-3.4418 0.3465 -0.1677
-3.4332 0.3535 -0.1678
-3.4279 0.3616 -0.1667
-3.4226 0.3695 -0.1657
-3.4131 0.3762 -0.1661
-3.4057 0.3835 -0.1658
-3.4008 0.3912 -0.1647
-3.3936 0.3983 -0.1644
-3.3864 0.4055 -0.1641
-3.3842 0.4133 -0.1623
-3.3735 0.4198 -0.1631
-3.3703 0.4272 -0.1616
-3.3608 0.4339 -0.1621
-3.3565 0.4410 -0.1610
-3.3497 0.4478 -0.1607
-3.8404 -0.0962 -0.1848
-3.8302 -0.0805 -0.1829
-3.8200 -0.0696 -0.1823
-3.7891 -0.0429 -0.1821
-3.7700 -0.0162 -0.1792
-3.7603 -0.0057 -0.1786
-3.7514 0.0078 -0.1770
-3.7322 0.0273 -0.1761
-3.7229 0.0374 -0.1755
-3.7130 0.0456 -0.1755
-3.7041 0.0565 -0.1746
-3.6950 0.0665 -0.1739
-3.6853 0.0745 -0.1740
-3.6779 0.0880 -0.1720
-3.6695 0.0986 -0.1711
-3.6608 0.1082 -0.1705
-3.6513 0.1160 -0.1705
-3.6422 0.1247 -0.1702
-3.6352 0.1366 -0.1686
-3.6274 0.1467 -0.1676
-3.6170 0.1529 -0.1684
-3.6104 0.1644 -0.1667
-3.6006 0.1713 -0.1671
-3.5919 0.1796 -0.1668
-3.5845 0.1894 -0.1659
-3.5695 0.2079 -0.1643
-3.5611 0.2161 -0.1640
-3.5527 0.2242 -0.1637
-3.5444 0.2323 -0.1634
-3.5369 0.2409 -0.1628
-3.5279 0.2483 -0.1629
-3.5222 0.2580 -0.1616
-3.5141 0.2658 -0.1613
-3.5077 0.2747 -0.1603
-3.4998 0.2825 -0.1600
-3.4928 0.2907 -0.1594
-3.4877 0.2998 -0.1581
-3.4790 0.3070 -0.1581
-3.4703 0.3141 -0.1582
-3.4558 0.3188 -0.1603
-3.4411 0.3236 -0.1624
-3.4372 0.3329 -0.1608
-3.4430 0.3453 -0.1560
-3.4366 0.3530 -0.1554
-3.4292 0.3603 -0.1551
-3.4218 0.3676 -0.1548
-3.4157 0.3751 -0.1541
-3.4084 0.3823 -0.1538
-3.4024 0.3897 -0.1532
-3.3953 0.3968 -0.1529
-3.3882 0.4039 -0.1526
-3.3799 0.4107 -0.1527
-3.3779 0.4185 -0.1510
-3.3710 0.4254 -0.1507
-3.3654 0.4324 -0.1501
-3.3587 0.4393 -0.1498
-3.3519 0.4460 -0.1495
-3.8382 -0.0942 -0.1705
-3.8278 -0.0832 -0.1699
-3.8180 -0.0665 -0.1678
-3.8077 -0.0592 -0.1682
-3.7981 -0.0439 -0.1664
-3.7879 -0.0367 -0.1667
-3.7777 -0.0283 -0.1668
-3.7690 -0.0113 -0.1644
-3.7591 -0.0031 -0.1644
-3.7493 0.0062 -0.1642
-3.7230 0.0427 -0.1606
-3.7126 0.0488 -0.1613
-3.7036 0.0587 -0.1608
-3.6857 0.0784 -0.1596
-3.6761 0.0863 -0.1597
-3.6677 0.0969 -0.1588
-3.6591 0.1065 -0.1583
-3.6509 0.1169 -0.1574
-3.6425 0.1263 -0.1568
-3.6356 0.1382 -0.1553
-3.6263 0.1458 -0.1554
-3.6181 0.1550 -0.1548
-3.6089 0.1627 -0.1548
-3.6014 0.1725 -0.1540
-3.5929 0.1808 -0.1537
-3.5843 0.1891 -0.1535
-3.5772 0.1987 -0.1526
-3.5618 0.2163 -0.1514
-3.5536 0.2243 -0.1512
-3.5461 0.2329 -0.1506
-3.5364 0.2397 -0.1510
-3.5298 0.2488 -0.1501
-3.5234 0.2579 -0.1492
-3.5154 0.2657 -0.1489
-3.5066 0.2729 -0.1490
-3.4917 0.2889 -0.1481
-3.4848 0.2971 -0.1476
-3.4770 0.3047 -0.1473
-3.4741 0.3145 -0.1455
-3.4430 0.3229 -0.1500
-3.4379 0.3419 -0.1463
-3.4305 0.3591 -0.1436
-3.4243 0.3666 -0.1430
-3.4149 0.3732 -0.1434
-3.4100 0.3809 -0.1425
-3.4064 0.3888 -0.1412
-3.3970 0.3954 -0.1416
-3.3924 0.4029 -0.1407
-3.3854 0.4098 -0.1404
-3.3811 0.4171 -0.1395
-3.3768 0.4243 -0.1386
-3.3662 0.4306 -0.1393
-3.3621 0.4377 -0.1384
-3.3514 0.4440 -0.1391
-3.8361 -0.0885 -0.1555
-3.8259 -0.0776 -0.1550
-3.8160 -0.0645 -0.1539
-3.8060 -0.0550 -0.1537
-3.7955 -0.0500 -0.1546
-3.7858 -0.0371 -0.1535
-3.7761 -0.0266 -0.1530
-3.7668 -0.0140 -0.1519
-3.7572 -0.0036 -0.1514
-3.7480 0.0077 -0.1506
-3.7389 0.0190 -0.1498
-3.7302 0.0311 -0.1488
-3.7205 0.0391 -0.1488
-3.7114 0.0491 -0.1483
-3.7020 0.0581 -0.1481
-3.6949 0.0726 -0.1461
-3.6846 0.0786 -0.1468
-3.6759 0.0883 -0.1463
-3.6673 0.0979 -0.1458
-3.6591 0.1083 -0.1450
-3.6516 0.1195 -0.1439
-3.6418 0.1264 -0.1442
-3.6345 0.1373 -0.1431
-3.6253 0.1450 -0.1432
-3.6183 0.1557 -0.1421
-3.6097 0.1640 -0.1419
-3.6011 0.1723 -0.1416
-3.5920 0.1798 -0.1417
-3.5855 0.1902 -0.1406
-3.5771 0.1984 -0.1404
-3.5688 0.2065 -0.1401
-3.5598 0.2139 -0.1402
-3.5544 0.2245 -0.1388
-3.5463 0.2324 -0.1386
-3.5398 0.2416 -0.1378
-3.5310 0.2488 -0.1378
-3.5238 0.2572 -0.1373
-3.5167 0.2655 -0.1368
-3.5080 0.2727 -0.1368
-3.4960 0.2901 -0.1352
-3.4865 0.2967 -0.1356
-3.4807 0.3052 -0.1348
-3.4722 0.3122 -0.1348
-3.4636 0.3193 -0.1349
-3.4450 0.3222 -0.1378
-3.4363 0.3294 -0.1379
-3.4359 0.3396 -0.1356
-3.4370 0.3499 -0.1330
-3.4352 0.3589 -0.1314
-3.4269 0.3657 -0.1314
-3.4164 0.3719 -0.1320
-3.4092 0.3790 -0.1318
-3.4010 0.3859 -0.1319
-3.3963 0.3934 -0.1310
-3.3905 0.4007 -0.1305
-3.3848 0.4079 -0.1300
-3.3780 0.4148 -0.1297
-3.3724 0.4218 -0.1292
-3.3670 0.4288 -0.1287
-3.3509 0.4420 -0.1288
-3.8241 -0.0708 -0.1401
-3.8139 -0.0648 -0.1407
-3.8040 -0.0542 -0.1403
-3.7938 -0.0470 -0.1406
-3.7838 -0.0376 -0.1404
-3.7747 -0.0237 -0.1392
-3.7651 -0.0133 -0.1387
-3.7560 -0.0009 -0.1377
-3.7467 0.0093 -0.1373
-3.7385 0.0236 -0.1358
-3.7285 0.0306 -0.1361
-3.7204 0.0436 -0.1349
-3.7105 0.0505 -0.1352
-3.6754 0.0894 -0.1334
-3.6677 0.1008 -0.1324
-3.6588 0.1094 -0.1322
-3.6495 0.1170 -0.1323
-3.6407 0.1256 -0.1321
-3.6335 0.1365 -0.1311
-3.6237 0.1433 -0.1314
-3.6145 0.1509 -0.1314
-3.6088 0.1632 -0.1299
-3.6009 0.1722 -0.1295
-3.5924 0.1804 -0.1293
-3.5854 0.1900 -0.1286
-3.5764 0.1974 -0.1286
-3.5695 0.2068 -0.1279
-3.5393 0.2405 -0.1263
-3.5314 0.2483 -0.1261
-3.5243 0.2566 -0.1256
-3.5164 0.2644 -0.1254
-3.5077 0.2715 -0.1255
-3.5017 0.2802 -0.1247
-3.4949 0.2883 -0.1243
-3.4873 0.2959 -0.1240
-3.4797 0.3034 -0.1238
-3.4722 0.3109 -0.1236
-3.4647 0.3183 -0.1234
-3.4451 0.3207 -0.1264
-3.4353 0.3275 -0.1267
-3.4350 0.3377 -0.1246
-3.4383 0.3488 -0.1218
-3.4333 0.3567 -0.1211
-3.4239 0.3632 -0.1214
-3.4191 0.3709 -0.1206
-3.4120 0.3780 -0.1204
-3.4062 0.3853 -0.1199
-3.4016 0.3928 -0.1192
-3.3948 0.3997 -0.1190
-3.3880 0.4066 -0.1188
-3.3837 0.4138 -0.1180
-3.3745 0.4202 -0.1183
-3.3704 0.4273 -0.1176
-3.3638 0.4340 -0.1174
-3.3545 0.4404 -0.1177
-3.8319 -0.0817 -0.1275
-3.8219 -0.0710 -0.1271
-3.8117 -0.0651 -0.1276
-3.8019 -0.0545 -0.1272
-3.7924 -0.0416 -0.1264
-3.7825 -0.0335 -0.1264
-3.7726 -0.0253 -0.1265
-3.7547 0.0008 -0.1245
-3.7457 0.0121 -0.1239
-3.7365 0.0221 -0.1235
-3.7266 0.0290 -0.1238
-3.7182 0.0410 -0.1229
-3.7011 0.0627 -0.1217
-3.6921 0.0714 -0.1215
-3.6830 0.0801 -0.1213
-3.6737 0.0879 -0.1214
-3.6664 0.1001 -0.1203
-3.6567 0.1069 -0.1206
-3.6488 0.1172 -0.1199
-3.6406 0.1265 -0.1195
-3.6324 0.1357 -0.1191
-3.6243 0.1449 -0.1187
-3.6164 0.1540 -0.1183
-3.6090 0.1638 -0.1177
-3.6006 0.1720 -0.1175
-3.5923 0.1802 -0.1173
-3.5846 0.1890 -0.1169
-3.5777 0.1985 -0.1162
-3.5695 0.2065 -0.1161
-3.5607 0.2138 -0.1161
-3.5541 0.2230 -0.1155
-3.5453 0.2303 -0.1155
-3.5389 0.2394 -0.1149
-3.5326 0.2484 -0.1142
-3.5248 0.2561 -0.1141
-3.5161 0.2632 -0.1141
-3.5101 0.2719 -0.1135
-3.5007 0.2785 -0.1138
-3.4939 0.2866 -0.1133
-3.4882 0.2951 -0.1127
-3.4816 0.3030 -0.1123
-3.4741 0.3104 -0.1121
-3.4647 0.3169 -0.1124
-3.4522 0.3222 -0.1134
-3.4396 0.3276 -0.1144
-3.4352 0.3362 -0.1135
-3.4386 0.3473 -0.1109
-3.4265 0.3623 -0.1101
-3.4136 0.3767 -0.1095
-3.4067 0.3837 -0.1093
-3.3998 0.3907 -0.1091
-3.3930 0.3976 -0.1089
-3.3861 0.4044 -0.1087
-3.3819 0.4117 -0.1081
-3.3765 0.4187 -0.1076
-3.3699 0.4254 -0.1075
-3.3633 0.4321 -0.1073
-3.8396 -0.0952 -0.1153
-3.8296 -0.0844 -0.1149
-3.8197 -0.0725 -0.1144
-3.8097 -0.0642 -0.1145
-3.7998 -0.0560 -0.1145
-3.7906 -0.0408 -0.1134
-3.7810 -0.0304 -0.1130
-3.7719 -0.0178 -0.1123
-3.7630 -0.0054 -0.1115
-3.7531 0.0015 -0.1118
-3.7445 0.0138 -0.1110
-3.7357 0.0248 -0.1105
-3.7262 0.0327 -0.1105
-3.7169 0.0415 -0.1104
-3.7084 0.0524 -0.1098
-3.6997 0.0621 -0.1095
-3.6914 0.0727 -0.1089
-3.6833 0.0833 -0.1084
-3.6740 0.0909 -0.1084
-3.6643 0.0976 -0.1087
-3.6482 0.1173 -0.1078
-3.6324 0.1367 -0.1069
-3.6245 0.1458 -0.1065
-3.6171 0.1556 -0.1059
-3.6076 0.1622 -0.1062
-3.5998 0.1712 -0.1059
-3.5921 0.1801 -0.1055
-3.5859 0.1903 -0.1047
-3.5784 0.1990 -0.1044
-3.5623 0.2148 -0.1041
-3.5551 0.2234 -0.1037
-3.5479 0.2318 -0.1033
-3.5393 0.2389 -0.1034
-3.5338 0.2485 -0.1026
-3.5253 0.2555 -0.1027
-3.5167 0.2626 -0.1027
-3.5082 0.2697 -0.1028
-3.5032 0.2789 -0.1020
-3.4890 0.2943 -0.1015
-3.4845 0.3032 -0.1007
-3.4752 0.3096 -0.1010
-3.4708 0.3183 -0.1002
-3.4452 0.3178 -0.1038
-3.4355 0.3245 -0.1041
-3.4333 0.3340 -0.1029
-3.4389 0.3459 -0.1002
-3.4351 0.3541 -0.0994
-3.4292 0.3615 -0.0990
-3.4257 0.3695 -0.0982
-3.4141 0.3752 -0.0989
-3.4096 0.3827 -0.0983
-3.4016 0.3893 -0.0984
-3.3973 0.3967 -0.0978
-3.3906 0.4035 -0.0976
-3.3786 0.4172 -0.0971
-3.3734 0.4240 -0.0967
-3.3656 0.4305 -0.0968
-3.3605 0.4372 -0.0964
-3.8177 -0.0715 -0.1014
-3.8078 -0.0633 -0.1015
-3.7891 -0.0376 -0.1002
-3.7800 -0.0250 -0.0995
-3.7705 -0.0159 -0.0994
-3.7612 -0.0057 -0.0991
-3.7523 0.0055 -0.0986
-3.7425 0.0123 -0.0989
-3.7258 0.0364 -0.0976
-3.7164 0.0441 -0.0976
-3.7070 0.0519 -0.0977
-3.6997 0.0655 -0.0967
-3.6893 0.0703 -0.0973
-3.6828 0.0846 -0.0961
-3.6740 0.0931 -0.0960
-3.6320 0.1368 -0.0950
-3.6235 0.1450 -0.0949
-3.6174 0.1565 -0.0940
-3.6079 0.1630 -0.0943
-3.5996 0.1711 -0.0941
-3.5927 0.1807 -0.0937
-3.5845 0.1887 -0.0935
-3.5778 0.1981 -0.0931
-3.5618 0.2139 -0.0928
-3.5538 0.2217 -0.0927
-3.5482 0.2314 -0.0920
-3.5404 0.2392 -0.0919
-3.5335 0.2474 -0.0916
-3.5250 0.2545 -0.0916
-3.5115 0.2707 -0.0910
-3.5048 0.2788 -0.0907
-3.4983 0.2867 -0.0904
-3.4890 0.2931 -0.0906
-3.4826 0.3010 -0.0903
-3.4742 0.3078 -0.0904
-3.4689 0.3161 -0.0899
-3.4388 0.3243 -0.0924
-3.4324 0.3321 -0.0920
-3.4381 0.3441 -0.0897
-3.4354 0.3527 -0.0889
-3.4296 0.3600 -0.0885
-3.4238 0.3673 -0.0882
-3.4158 0.3740 -0.0883
-3.4126 0.3817 -0.0876
-3.4034 0.3880 -0.0878
-3.3980 0.3951 -0.0875
-3.3901 0.4016 -0.0876
-3.3860 0.4088 -0.0871
-3.3782 0.4153 -0.0871
-3.3756 0.4225 -0.0864
-3.3679 0.4289 -0.0865
-3.3628 0.4356 -0.0861
-3.8255 -0.0799 -0.0886
-3.8156 -0.0717 -0.0887
-3.7969 -0.0459 -0.0876
-3.7874 -0.0356 -0.0874
-3.7778 -0.0276 -0.0874
-3.7691 -0.0139 -0.0867
-3.7597 -0.0049 -0.0867
-3.7506 0.0051 -0.0864
-3.7414 0.0140 -0.0863
