ply
format ascii 1.0
element vertex 2099
property float x
property float y
property float z
end_header
-3.5281 2.4670 -0.5314
-3.5458 2.5119 -0.5904
-3.5567 2.4431 -0.6095
-3.5673 2.2194 -0.6003
-3.5754 2.0481 -0.5932
-3.5827 1.9194 -0.5913
-3.5842 1.8531 -0.5840
-3.5947 1.7322 -0.5928
-3.5946 1.6809 -0.5833
-3.5988 1.6565 -0.5911
-3.5998 1.5802 -0.5804
-3.6011 1.5508 -0.5790
-3.6085 1.4880 -0.5893
-3.6093 1.4391 -0.5827
-3.6130 1.4277 -0.5913
-3.6102 1.3975 -0.5780
-3.6122 1.3832 -0.5814
-3.6170 1.3771 -0.5939
-3.6172 1.3592 -0.5913
-3.6158 1.3383 -0.5836
-3.6163 1.3232 -0.5823
-3.6175 1.3107 -0.5836
-3.6188 1.2991 -0.5854
-3.6203 1.2884 -0.5878
-3.6192 1.2726 -0.5817
-3.2220 2.3161 0.4633
-3.2235 2.3645 0.4540
-3.2480 2.2642 0.3955
-3.2618 2.2300 0.3602
-3.2713 2.2254 0.3341
-3.2807 2.2219 0.3081
-3.2883 2.2340 0.2857
-3.3049 2.2515 0.2371
-3.3080 2.3158 0.2219
-3.3212 2.4010 0.1763
-3.3295 2.4362 0.1493
-3.3400 2.4501 0.1184
-3.3521 2.4455 0.0850
-3.3649 2.4295 0.0507
-3.3771 2.4248 0.0171
-3.3876 2.4635 -0.0164
-3.4230 2.6480 -0.1344
-3.4388 2.4837 -0.1619
-3.4521 2.4466 -0.1957
-3.4656 2.4614 -0.2350
-3.4789 2.4438 -0.2705
-3.4942 2.4992 -0.3190
-3.5221 2.4760 -0.3949
-3.5376 2.4922 -0.4401
-3.5537 2.5091 -0.4870
-3.5698 2.5184 -0.5331
-3.5864 2.5284 -0.5805
-3.5938 2.4380 -0.5922
-3.6063 2.1642 -0.5992
-3.6086 2.0845 -0.5977
-3.6137 1.9561 -0.5988
-3.6155 1.8369 -0.5917
-3.6187 1.7479 -0.5916
-3.6237 1.6433 -0.5951
-3.6213 1.5978 -0.5837
-3.6265 1.5535 -0.5937
-3.6254 1.5209 -0.5873
-3.6258 1.4957 -0.5859
-3.6269 1.4743 -0.5868
-3.6293 1.4583 -0.5920
-3.6260 1.4060 -0.5772
-3.6287 1.3941 -0.5835
-3.6296 1.3782 -0.5845
-3.6303 1.3625 -0.5849
-3.6317 1.3494 -0.5875
-3.6305 1.3310 -0.5823
-3.6311 1.3175 -0.5826
-3.6320 1.2919 -0.5825
-3.6320 1.2790 -0.5810
-3.2976 2.2451 0.3431
-3.3035 2.2757 0.3260
-3.3143 2.2623 0.2966
-3.3230 2.2718 0.2726
-3.3217 2.3995 0.2720
-3.3324 2.4006 0.2426
-3.3408 2.4359 0.2184
-3.3475 2.5092 0.1979
-3.4641 2.7857 -0.1311
-3.4756 2.5117 -0.1540
-3.4888 2.4874 -0.1895
-3.5029 2.4968 -0.2286
-3.5171 2.4984 -0.2676
-3.5462 2.5030 -0.3477
-3.5616 2.5124 -0.3904
-3.5775 2.5226 -0.4344
-3.5932 2.5251 -0.4774
-3.6091 2.5275 -0.5211
-3.6341 2.4678 -0.5879
-3.6398 2.3897 -0.6012
-3.6373 2.2629 -0.5904
-3.6394 2.1823 -0.5935
-3.6359 2.0763 -0.5805
-3.6395 1.9577 -0.5869
-3.6416 1.9082 -0.5911
-3.6392 1.8413 -0.5823
-3.6436 1.7665 -0.5922
-3.6439 1.6863 -0.5903
-3.6447 1.6201 -0.5904
-3.6462 1.5944 -0.5938
-3.6447 1.5334 -0.5878
-3.6463 1.5131 -0.5916
-3.6456 1.4871 -0.5887
-3.6456 1.4649 -0.5880
-3.6433 1.4379 -0.5810
-3.6458 1.4247 -0.5873
-3.6467 1.4084 -0.5894
-3.6450 1.3865 -0.5840
-3.6462 1.3566 -0.5862
-3.6427 1.3340 -0.5759
-3.6464 1.3275 -0.5859
-3.6449 1.3110 -0.5814
-3.6464 1.3008 -0.5851
-3.6457 1.2870 -0.5827
-3.2392 3.1810 0.6133
-3.2903 3.1386 0.4744
-3.3181 3.2206 0.4025
-3.3671 3.3113 0.2739
-3.3868 3.2675 0.2193
-3.4053 3.2659 0.1696
-3.4237 3.2918 0.1210
-3.4427 3.3342 0.0713
-3.4628 3.4100 0.0197
-3.4824 3.3310 -0.0357
-3.5030 3.3458 -0.0905
-3.5156 2.6064 -0.1506
-3.5270 2.5363 -0.1838
-3.5415 2.5391 -0.2228
-3.5554 2.5276 -0.2605
-3.5719 2.5516 -0.3040
-3.5867 2.5474 -0.3439
-3.6002 2.5281 -0.3810
-3.6159 2.5311 -0.4231
-3.6760 2.5051 -0.5859
-3.6734 2.2879 -0.5866
-3.6715 2.0519 -0.5897
-3.6734 1.9440 -0.5985
-3.6663 1.8162 -0.5840
-3.6672 1.7778 -0.5878
-3.6670 1.7379 -0.5887
-3.6634 1.5958 -0.5840
-3.6639 1.5703 -0.5863
-3.6646 1.5468 -0.5890
-3.6649 1.5237 -0.5906
-3.6625 1.4732 -0.5858
-3.6609 1.4493 -0.5825
-3.6611 1.4309 -0.5836
-3.6602 1.4111 -0.5820
-3.6627 1.3999 -0.5891
-3.6587 1.3747 -0.5790
-3.6607 1.3638 -0.5849
-3.6594 1.3466 -0.5821
-3.6591 1.3321 -0.5816
-3.6610 1.3225 -0.5871
-3.6602 1.3083 -0.5854
-3.6604 1.2966 -0.5866
-3.2838 3.2248 0.6318
-3.3003 3.2229 0.5883
-3.3183 3.1962 0.5381
-3.3355 3.1819 0.4913
-3.3506 3.2163 0.4548
-3.3820 3.3205 0.3821
-3.4001 3.3337 0.3358
-3.4166 3.5008 0.3086
-3.4374 3.3743 0.2413
-3.4570 3.4039 0.1926
-3.4764 3.3572 0.1367
-3.4965 3.3710 0.0850
-3.5176 3.4017 0.0325
-3.5377 3.3849 -0.0223
-3.5599 3.4146 -0.0780
-3.5525 2.5920 -0.1392
-3.5654 2.5660 -0.1760
-3.5828 2.5985 -0.2185
-3.5956 2.5714 -0.2551
-3.6091 2.5532 -0.2924
-3.6246 2.5556 -0.3331
-3.6421 2.5727 -0.3777
-3.7188 2.4456 -0.5924
-3.7131 2.3294 -0.5890
-3.7173 2.2743 -0.6054
-3.7060 2.0876 -0.5940
-3.7003 1.9550 -0.5920
-3.6942 1.8837 -0.5829
-3.6936 1.8385 -0.5857
-3.6912 1.7536 -0.5877
-3.6831 1.6054 -0.5808
-3.6855 1.5622 -0.5916
-3.6804 1.5043 -0.5839
-3.6812 1.4860 -0.5878
-3.6811 1.4662 -0.5893
-3.6805 1.4466 -0.5899
-3.6797 1.4274 -0.5896
-3.6778 1.4067 -0.5865
-3.6767 1.3888 -0.5854
-3.6749 1.3703 -0.5826
-3.6750 1.3562 -0.5840
-3.6739 1.3407 -0.5827
-3.6756 1.3310 -0.5883
-3.6750 1.3174 -0.5879
-3.6728 1.3017 -0.5836
-3.3275 3.3081 0.6618
-3.3633 3.2650 0.5621
-3.4144 3.3420 0.4422
-3.4330 3.2999 0.3872
-3.4514 3.3980 0.3551
-3.4710 3.4275 0.3091
-3.4908 3.4267 0.2577
-3.5116 3.4577 0.2088
-3.5517 3.4244 0.0998
-3.5694 3.3614 0.0439
-3.5926 3.4072 -0.0090
-3.6138 3.4054 -0.0640
-3.6058 2.6104 -0.1691
-3.6184 2.5843 -0.2059
-3.6324 2.5727 -0.2439
-3.6490 2.5830 -0.2853
-3.6813 2.5887 -0.3681
-3.7743 2.7392 -0.5850
-3.7481 2.2729 -0.5908
-3.7499 2.2171 -0.6045
-3.7391 2.0598 -0.6012
-3.7343 1.9926 -0.5995
-3.7218 1.8620 -0.5877
-3.7178 1.8111 -0.5855
-3.7184 1.7780 -0.5922
-3.7175 1.7426 -0.5955
-3.7123 1.6963 -0.5893
-3.7078 1.6289 -0.5885
-3.7041 1.5706 -0.5880
-3.7024 1.5442 -0.5877
-3.7006 1.5192 -0.5872
-3.6992 1.4962 -0.5872
-3.6975 1.4736 -0.5862
-3.6932 1.4301 -0.5822
-3.6946 1.4169 -0.5877
-3.6914 1.3954 -0.5829
-3.6910 1.3801 -0.5842
-3.6907 1.3659 -0.5858
-3.6907 1.3526 -0.5879
-3.6891 1.3371 -0.5862
-3.6868 1.3210 -0.5826
-3.6895 1.3139 -0.5907
-3.3943 3.2739 0.6147
-3.4284 3.3235 0.5387
-3.4650 3.3920 0.4604
-3.5054 3.4970 0.3802
-3.5238 3.4335 0.3198
-3.5432 3.4173 0.2670
-3.5647 3.4477 0.2189
-3.5879 3.4952 0.1701
-3.6062 3.4466 0.1131
-3.6308 3.4942 0.0609
-3.6487 3.4447 0.0046
-3.6718 3.4601 -0.0508
-3.6469 2.6497 -0.1616
-3.6547 2.5851 -0.1953
-3.6744 2.6182 -0.2383
-3.6918 2.6285 -0.2802
-3.7365 2.6013 -0.3996
-3.8241 2.7857 -0.5827
-3.8040 2.5192 -0.5889
-3.7856 2.3020 -0.5888
-3.7839 2.2354 -0.5987
-3.7735 2.0907 -0.6034
-3.7593 1.9528 -0.5971
-3.7498 1.8828 -0.5880
-3.7367 1.7144 -0.5908
-3.7329 1.6768 -0.5892
-3.7292 1.6415 -0.5873
-3.7263 1.6104 -0.5869
-3.7223 1.5569 -0.5882
-3.7221 1.5361 -0.5920
-3.7195 1.5110 -0.5908
-3.7148 1.4828 -0.5849
-3.7147 1.4655 -0.5885
-3.7122 1.4441 -0.5868
-3.7089 1.4221 -0.5831
-3.7085 1.4064 -0.5853
-3.7054 1.3867 -0.5818
-3.7072 1.3765 -0.5886
-3.7046 1.3589 -0.5857
-3.7034 1.3327 -0.5883
-3.7051 1.3239 -0.5944
-3.4414 3.3733 0.6484
-3.4772 3.3296 0.5473
-3.5164 3.4277 0.4758
-3.5373 3.4724 0.4356
-3.5579 3.4870 0.3881
-3.5782 3.4866 0.3373
-3.6007 3.5187 0.2898
-3.6186 3.4696 0.2320
-3.6395 3.4687 0.1795
-3.6621 3.4854 0.1274
-3.6837 3.4840 0.0732
-3.7090 3.5175 0.0190
-3.6967 2.6299 -0.1888
-3.7132 2.6340 -0.2289
-3.7286 2.6300 -0.2686
-3.7416 2.6103 -0.3062
-3.7598 2.6206 -0.3490
-3.8503 2.8079 -0.5247
-3.8710 2.8136 -0.5746
-3.8555 2.5868 -0.5969
-3.8258 2.3388 -0.5895
-3.8138 2.2384 -0.5864
-3.8057 2.1589 -0.5877
-3.8031 2.1028 -0.5962
-3.7895 2.0151 -0.5860
-3.7891 1.9736 -0.5960
-3.7794 1.9069 -0.5897
-3.7759 1.8299 -0.6018
-3.7579 1.7230 -0.5857
-3.7642 1.7127 -0.6041
-3.7414 1.5669 -0.5862
-3.7322 1.4920 -0.5836
-3.7296 1.4701 -0.5829
-3.7261 1.4325 -0.5842
-3.7272 1.4201 -0.5905
-3.7194 1.3924 -0.5784
-3.7211 1.3821 -0.5853
-3.7206 1.3686 -0.5876
-3.7183 1.3527 -0.5862
-3.7158 1.3371 -0.5841
-5.1119 0.9075 0.2062
-5.1047 0.9250 0.2082
-5.0865 0.9400 0.2080
-5.0632 0.9537 0.2068
-5.0503 0.9701 0.2078
-5.0372 0.9867 0.2087
-4.9920 1.0356 0.2105
-4.9655 1.0704 0.2126
-4.9469 1.0859 0.2125
-4.9119 1.1178 0.2127
-4.9070 1.1404 0.2161
-4.8881 1.1561 0.2159
-4.8672 1.1706 0.2153
-4.8553 1.1905 0.2170
-4.8295 1.2020 0.2150
-4.8191 1.2233 0.2173
-4.8001 1.2392 0.2171
-4.7792 1.2537 0.2165
-4.7575 1.2674 0.2155
-4.7489 1.2916 0.2186
-4.7356 1.3127 0.2203
-4.7162 1.3287 0.2201
-4.7120 1.3593 0.2250
-4.7241 1.4077 0.2358
-4.7177 1.4400 0.2406
-6.0840 4.2670 0.9721
-5.8399 4.2447 0.9293
-5.1209 0.8871 0.1827
-5.1193 0.9055 0.1854
-5.0985 0.9199 0.1848
-5.0830 0.9554 0.1884
-5.0569 0.9686 0.1868
-5.0461 0.9861 0.1882
-5.0338 1.0034 0.1892
-5.0201 1.0204 0.1901
-4.9991 1.0350 0.1894
-4.9851 1.0523 0.1903
-4.9813 1.0739 0.1933
-4.9377 1.0789 0.1878
-4.9291 1.0988 0.1899
-4.9107 1.1395 0.1939
-4.8917 1.1554 0.1938
-4.8516 1.1858 0.1930
-4.8324 1.2300 0.1975
-4.7917 1.2610 0.1968
-4.7741 1.2785 0.1971
-4.7469 1.2883 0.1948
-4.7335 1.3094 0.1963
-4.7125 1.3240 0.1957
-4.7082 1.3545 0.2001
-4.7200 1.4026 0.2097
-4.7091 1.4301 0.2126
-6.3023 4.4278 0.9327
-6.0682 4.2471 0.8695
-5.9437 4.2359 0.8498
-5.8443 4.2633 0.8400
-5.1185 0.9016 0.1630
-5.1083 0.9185 0.1641
-5.0691 0.9482 0.1634
-5.0559 0.9648 0.1642
-5.0450 0.9823 0.1653
-5.0265 0.9976 0.1652
-5.0165 1.0159 0.1665
-4.9978 1.0313 0.1664
-4.9919 1.0517 0.1686
-4.9731 1.0674 0.1685
-4.9620 1.0864 0.1698
-4.9473 1.1042 0.1706
-4.9240 1.1180 0.1696
-4.9049 1.1338 0.1694
-4.8828 1.1479 0.1686
-4.8689 1.1665 0.1696
-4.8567 1.1865 0.1709
-4.8375 1.2024 0.1708
-4.8010 1.2356 0.1709
-4.7754 1.2470 0.1693
-4.7686 1.2724 0.1721
-4.7534 1.2920 0.1730
-4.7356 1.3096 0.1733
-4.7087 1.3193 0.1713
-4.7283 1.4099 0.1870
-4.7118 1.4321 0.1881
-5.8290 4.2441 0.7408
-5.7134 4.2332 0.7244
-5.8955 4.8668 0.8400
-5.1276 0.8810 0.1394
-5.0941 0.9117 0.1395
-5.0838 0.9286 0.1405
-5.0656 0.9438 0.1404
-5.0574 0.9617 0.1418
-5.0424 0.9993 0.1449
-5.0200 1.0137 0.1442
-5.0095 1.0323 0.1453
-4.9860 1.0462 0.1444
-4.9717 1.0637 0.1450
-4.9528 1.0794 0.1449
-4.9317 1.0941 0.1444
-4.9267 1.1164 0.1467
-4.8981 1.1276 0.1449
-4.8863 1.1471 0.1460
-4.8742 1.1670 0.1472
-4.8550 1.1830 0.1470
-4.8472 1.2062 0.1491
-4.8324 1.2255 0.1499
-4.7908 1.2265 0.1453
-4.7949 1.2594 0.1500
-4.7665 1.2690 0.1480
-4.7573 1.2935 0.1501
-4.7525 1.3226 0.1532
-4.7066 1.3160 0.1472
-4.7021 1.3463 0.1506
-4.7181 1.3987 0.1590
-4.7032 1.4222 0.1603
-6.0367 4.2074 0.6644
-5.7946 4.1876 0.6346
-5.8131 4.4518 0.6703
-5.1405 0.8797 0.1185
-5.1114 0.8927 0.1171
-5.1012 0.9096 0.1179
-5.0972 0.9282 0.1196
-5.1029 0.9498 0.1225
-5.0764 0.9634 0.1214
-5.0539 0.9780 0.1208
-5.0521 0.9989 0.1228
-5.0354 1.0155 0.1230
-5.0163 1.0314 0.1229
-4.9949 1.0464 0.1224
-4.9860 1.0663 0.1237
-4.9546 1.0771 0.1218
-4.9453 1.0973 0.1231
-4.9357 1.1178 0.1244
-4.9163 1.1340 0.1243
-4.8755 1.1387 0.1208
-4.8649 1.1864 0.1249
-4.8339 1.1954 0.1229
-4.8193 1.2145 0.1236
-4.8126 1.2395 0.1256
-4.7867 1.2513 0.1244
-4.7671 1.2676 0.1242
-4.7535 1.2886 0.1252
-4.7338 1.3050 0.1251
-4.7125 1.3199 0.1246
-4.7247 1.4042 0.1349
-4.7073 1.4256 0.1355
-5.8180 4.2436 0.5482
-5.8383 4.5170 0.5798
-4.7589 6.1844 0.6554
-5.1159 0.8899 0.0950
-5.1082 0.9074 0.0959
-5.0962 0.9242 0.0964
-5.0852 0.9416 0.0971
-5.0728 0.9588 0.0976
-5.0503 0.9734 0.0971
-5.0424 0.9924 0.0981
-5.0187 1.0065 0.0975
-5.0185 1.0288 0.0994
-4.9958 1.0435 0.0989
-4.9722 1.0576 0.0982
-4.9608 1.0767 0.0990
-4.9416 1.0926 0.0989
-4.9097 1.1026 0.0972
-4.9105 1.1282 0.0995
-4.8982 1.1480 0.1003
-4.8787 1.1642 0.1002
-4.8543 1.1776 0.0994
-4.8415 1.1978 0.1001
-4.8313 1.2202 0.1013
-4.8160 1.2397 0.1018
-4.7891 1.2511 0.1006
-4.7849 1.2794 0.1028
-4.7539 1.2872 0.1010
-4.7422 1.3107 0.1021
-4.7166 1.3223 0.1011
-4.7267 1.4050 0.1093
-5.8427 4.3026 0.4582
-5.7046 4.2517 0.4424
-5.1498 5.0548 0.4689
-5.0418 5.0258 0.4575
-4.9383 4.9972 0.4466
-4.8676 5.1125 0.4511
-4.7607 5.0357 0.4356
-4.7746 5.6894 0.4950
-4.7210 6.0210 0.5202
-5.1404 0.8909 0.0741
-5.1138 0.9048 0.0733
-5.0951 0.9203 0.0732
-5.0879 0.9386 0.0740
-5.0654 0.9532 0.0736
-5.0503 0.9699 0.0737
-5.0363 0.9870 0.0740
-5.0257 1.0054 0.0746
-5.0147 1.0241 0.0752
-4.9955 1.0401 0.0751
-4.9864 1.0600 0.0759
-4.9692 1.0770 0.0759
-4.9347 1.0865 0.0743
-4.9134 1.1014 0.0740
-4.9139 1.1270 0.0758
-4.8944 1.1432 0.0757
-4.8769 1.1606 0.0757
-4.8602 1.1785 0.0759
-4.8330 1.1901 0.0749
-4.8182 1.2093 0.0753
-4.7968 1.2243 0.0750
-4.7879 1.2482 0.0760
-4.7638 1.2613 0.0754
-4.7609 1.2912 0.0773
-4.7424 1.3092 0.0773
-5.9297 4.2550 0.3604
-5.7680 4.1671 0.3437
-5.7850 4.4327 0.3634
-5.9701 5.1005 0.4220
-5.7042 5.4009 0.4257
-5.4123 5.6434 0.4236
-5.1601 5.1355 0.3717
-5.0259 5.0057 0.3538
-4.9437 5.0739 0.3533
-4.8423 5.0443 0.3446
-4.7620 5.1111 0.3440
-4.7667 5.7283 0.3874
-4.7028 5.9981 0.4021
-5.1314 0.8853 0.0501
-5.1219 0.9027 0.0505
-5.1057 0.9190 0.0505
-5.0805 0.9331 0.0500
-5.0816 0.9539 0.0511
-5.0434 0.9857 0.0508
-5.0302 1.0034 0.0511
-5.0191 1.0222 0.0515
-4.9884 1.0341 0.0506
-4.9748 1.0522 0.0508
-4.9556 1.0682 0.0507
-4.9492 1.0899 0.0515
-4.9192 1.1011 0.0506
-4.9050 1.1197 0.0508
-4.8856 1.1358 0.0507
-4.8711 1.1547 0.0509
-4.8631 1.1776 0.0517
-4.8434 1.1941 0.0515
-4.8300 1.2147 0.0519
-4.8083 1.2300 0.0516
-4.7972 1.2529 0.0522
-4.7942 1.2826 0.0536
-4.7596 1.3222 0.0539
-4.7247 1.3267 0.0524
-5.7158 4.0751 0.2390
-5.7894 4.4554 0.2617
-5.8313 4.8076 0.2814
-5.7850 4.9878 0.2882
-5.7142 5.1202 0.2914
-5.6206 5.1979 0.2907
-5.5470 5.3353 0.2940
-5.4907 5.5388 0.3015
-5.3574 5.4928 0.2927
-5.1043 4.9644 0.2537
-5.0099 4.9856 0.2502
-4.8972 4.9117 0.2409
-4.8551 5.1714 0.2519
-4.7548 5.1403 0.2454
-4.7136 5.4716 0.2601
-4.6938 6.0440 0.2879
-5.1438 0.8648 0.0266
-5.1331 0.8818 0.0268
-5.1418 0.9030 0.0277
-5.1187 0.9181 0.0274
-5.0857 0.9306 0.0267
-5.0730 0.9480 0.0268
-5.0479 0.9620 0.0264
-5.0373 0.9803 0.0266
-5.0453 1.0048 0.0276
-5.0177 1.0183 0.0272
-4.9926 1.0323 0.0268
-4.9689 1.0466 0.0264
-4.9616 1.0675 0.0268
-4.9400 1.0827 0.0266
-4.9115 1.1200 0.0268
-4.8918 1.1363 0.0267
-4.8791 1.1564 0.0269
-4.8526 1.1689 0.0264
-4.8414 1.1904 0.0267
-4.8243 1.2086 0.0267
-4.8020 1.2543 0.0273
-4.7902 1.2776 0.0277
-4.7680 1.2933 0.0274
-4.7386 1.3028 0.0267
-4.7145 1.3161 0.0264
-5.8161 4.0633 0.1457
-5.0762 4.8973 0.1471
-4.9940 4.9655 0.1465
-4.9016 4.9854 0.1441
-4.8112 5.0050 0.1417
-4.7475 5.1703 0.1447
-5.1550 0.8627 0.0033
-5.1533 0.8816 0.0035
-5.1341 0.8975 0.0034
-5.1214 0.9148 0.0033
-5.1109 0.9329 0.0034
-5.0718 0.9439 0.0029
-5.0551 0.9605 0.0028
-5.0468 0.9795 0.0028
-5.0310 0.9967 0.0028
-5.0196 1.0155 0.0028
-4.9922 1.0288 0.0025
-4.9773 1.0466 0.0024
-4.9633 1.0650 0.0024
-4.9543 1.0859 0.0025
-4.9314 1.1008 0.0023
-4.9097 1.1162 0.0021
-4.9000 1.1377 0.0022
-4.8752 1.1516 0.0019
-4.8717 1.1774 0.0021
-4.8422 1.1884 0.0018
-4.8120 1.2593 0.0020
-4.7888 1.2745 0.0018
-4.7706 1.2936 0.0017
-4.7452 1.3067 0.0014
-4.7207 1.3203 0.0012
-4.7087 1.3451 0.0013
-5.2553 5.2129 0.0499
-5.0721 4.9238 0.0440
-4.9781 4.9454 0.0428
-4.8858 4.9656 0.0415
-4.7783 4.8934 0.0391
-4.7316 5.1502 0.0410
-5.2042 0.8476 -0.0204
-5.1588 0.8786 -0.0207
-5.1460 0.8960 -0.0208
-5.1240 0.9115 -0.0210
-5.1072 0.9282 -0.0211
-5.0902 0.9449 -0.0213
-5.0829 0.9644 -0.0215
-5.0608 0.9800 -0.0216
-5.0377 0.9952 -0.0217
-5.0239 1.0134 -0.0219
-4.9963 1.0269 -0.0220
-4.9823 1.0452 -0.0222
-4.9670 1.0633 -0.0223
-4.9431 1.0778 -0.0224
-4.9255 1.0951 -0.0226
-4.9262 1.1213 -0.0229
-4.9061 1.1380 -0.0230
-4.8831 1.1531 -0.0231
-4.8630 1.1697 -0.0233
-4.8579 1.1954 -0.0235
-4.8348 1.2106 -0.0237
-4.8215 1.2323 -0.0239
-4.8028 1.2505 -0.0240
-4.7873 1.2714 -0.0242
-4.7707 1.2918 -0.0244
-4.7476 1.3070 -0.0245
-4.7253 1.3229 -0.0247
-5.1936 5.0311 -0.0622
-5.0683 4.9521 -0.0613
-4.9956 5.0712 -0.0624
-4.9003 5.0917 -0.0625
-4.7978 5.0618 -0.0621
-4.7322 5.2312 -0.0637
-4.2667 6.4371 -0.0753
-5.1597 0.8555 -0.0445
-5.1340 0.8701 -0.0445
-5.1358 0.8899 -0.0452
-5.1253 0.9079 -0.0455
-5.0972 0.9220 -0.0454
-5.0840 0.9396 -0.0457
-5.0670 0.9563 -0.0460
-5.0535 0.9742 -0.0463
-5.0455 0.9941 -0.0467
-5.0178 1.0078 -0.0466
-5.0138 1.0297 -0.0472
-5.0027 1.0496 -0.0476
-4.9664 1.0598 -0.0473
-4.9435 1.0748 -0.0473
-4.9393 1.0983 -0.0480
-4.9091 1.1100 -0.0478
-4.9042 1.1341 -0.0484
-4.8966 1.1576 -0.0490
-4.8913 1.1832 -0.0497
-4.8678 1.1988 -0.0498
-4.8453 1.2149 -0.0498
-4.8264 1.2332 -0.0500
-4.8057 1.2504 -0.0502
-4.7875 1.2695 -0.0505
-4.7708 1.2900 -0.0508
-4.7523 1.3093 -0.0510
-4.7228 1.3192 -0.0508
-5.4152 5.4436 -0.1896
-5.1909 5.0617 -0.1738
-5.0520 4.9315 -0.1673
-4.9462 4.9053 -0.1646
-4.9048 5.1733 -0.1720
-4.8491 5.4107 -0.1783
-4.8315 5.9284 -0.1938
-4.2444 6.3391 -0.1957
-5.1421 0.8676 -0.0690
-5.1294 0.8847 -0.0694
-5.1279 0.9045 -0.0704
-5.1084 0.9207 -0.0705
-5.0949 0.9385 -0.0709
-5.0692 0.9532 -0.0708
-5.0615 0.9728 -0.0715
-5.0440 0.9900 -0.0718
-5.0106 1.0019 -0.0712
-5.0155 1.0268 -0.0727
-4.9955 1.0434 -0.0728
-4.9733 1.0592 -0.0728
-4.9554 1.0767 -0.0731
-4.9282 1.0901 -0.0728
-4.9184 1.1114 -0.0736
-4.9081 1.1331 -0.0743
-4.9003 1.1568 -0.0753
-4.8873 1.1782 -0.0759
-4.8546 1.1882 -0.0753
-4.8431 1.2109 -0.0760
-4.8276 1.2317 -0.0765
-4.8085 1.2502 -0.0768
-4.7876 1.2675 -0.0770
-4.7716 1.2888 -0.0775
-4.7530 1.3082 -0.0778
-4.7173 1.3128 -0.0768
-5.1606 0.8667 -0.0946
-5.1373 0.8822 -0.0945
-5.1241 0.8997 -0.0950
-5.1108 0.9173 -0.0956
-5.0972 0.9351 -0.0962
-5.0834 0.9531 -0.0968
-5.0635 0.9697 -0.0969
-5.0373 1.0071 -0.0982
-5.0116 1.0219 -0.0980
-5.0090 1.0450 -0.0995
-4.9887 1.0620 -0.0996
-4.9704 1.0798 -0.1000
-4.9499 1.0967 -0.1001
-4.9215 1.1099 -0.0996
-4.9199 1.1361 -0.1014
-4.9040 1.1558 -0.1020
-4.8804 1.1715 -0.1019
-4.8625 1.1903 -0.1023
-4.8489 1.2121 -0.1031
-4.8279 1.2295 -0.1033
-4.8070 1.2469 -0.1034
-4.7860 1.2643 -0.1036
-4.7675 1.2836 -0.1040
-4.7465 1.3011 -0.1042
-4.7194 1.3131 -0.1036
-4.7025 1.4555 -0.1130
-6.0870 4.3757 -0.3987
-4.0368 3.0512 -0.1936
-3.9959 2.9607 -0.1849
-3.9580 2.9805 -0.1843
-3.9222 2.9302 -0.1787
-3.8880 2.9049 -0.1751
-3.8578 2.8397 -0.1687
-3.8264 2.8291 -0.1663
-5.1354 0.8980 -0.1211
-5.1193 0.9153 -0.1216
-5.0958 0.9309 -0.1214
-5.0760 0.9473 -0.1215
-5.0421 0.9599 -0.1203
-5.0421 0.9820 -0.1224
-5.0255 0.9996 -0.1229
-5.0111 1.0182 -0.1236
-5.0051 1.0401 -0.1252
-4.9868 1.0578 -0.1256
-4.9779 1.0796 -0.1270
-4.9623 1.0990 -0.1277
-4.9385 1.1148 -0.1275
-4.9159 1.1311 -0.1275
-4.9134 1.1579 -0.1298
-4.8839 1.1706 -0.1289
-4.8630 1.1880 -0.1291
-4.8350 1.2008 -0.1283
-4.8239 1.2244 -0.1297
-4.8105 1.2472 -0.1309
-4.7935 1.2678 -0.1316
-4.7699 1.2836 -0.1314
-4.7424 1.2959 -0.1307
-4.7237 1.3154 -0.1312
-4.7260 1.3941 -0.1387
-4.7168 1.4265 -0.1411
-5.9554 4.3834 -0.5072
-4.0736 3.1293 -0.2557
-4.0288 3.0286 -0.2431
-3.9886 2.9514 -0.2330
-3.9511 2.9356 -0.2288
-3.9161 2.8879 -0.2219
-5.1140 0.8896 -0.1441
-5.1093 0.9090 -0.1460
-5.1040 0.9289 -0.1478
-5.1030 0.9504 -0.1502
-5.0756 0.9654 -0.1495
-5.0439 0.9788 -0.1482
-5.0292 1.0208 -0.1518
-5.0173 1.0410 -0.1531
-4.9829 1.0528 -0.1514
-4.9676 1.0719 -0.1522
-4.9501 1.0903 -0.1528
-4.9345 1.1098 -0.1537
-4.9138 1.1270 -0.1538
-4.9121 1.1542 -0.1568
-4.8854 1.1687 -0.1561
-4.8671 1.1877 -0.1567
-4.8381 1.2002 -0.1556
-4.8319 1.2273 -0.1581
-4.8107 1.2450 -0.1583
-4.7919 1.2644 -0.1589
-4.7658 1.2784 -0.1582
-4.7384 1.2908 -0.1572
-4.7234 1.3136 -0.1585
-4.6964 1.3257 -0.1575
-6.3312 3.7327 -0.5817
-6.2997 3.8752 -0.5954
-6.0554 3.9049 -0.5771
-5.9076 3.8662 -0.5595
-5.7880 3.8634 -0.5485
-5.7279 3.9637 -0.5548
-5.6851 4.1040 -0.5673
-5.5689 4.0958 -0.5560
-5.4578 4.0885 -0.5452
-5.4099 4.2279 -0.5571
-5.2680 4.7321 -0.6029
-5.1681 4.7556 -0.5967
-5.0585 4.7329 -0.5844
-4.9982 4.8968 -0.5980
-4.9700 5.2304 -0.6341
-4.7347 5.0587 -0.5933
-4.6432 5.0779 -0.5874
-4.5733 5.2497 -0.6010
-4.1023 2.9785 -0.2961
-4.0606 2.9743 -0.2919
-4.0196 2.9334 -0.2835
-3.9812 2.9188 -0.2784
-3.9452 2.8491 -0.2671
-3.9109 2.8272 -0.2615
-3.8762 2.8457 -0.2606
-3.8419 2.8639 -0.2596
-3.8118 2.8320 -0.2533
-5.1252 0.8878 -0.1708
-5.1219 0.9291 -0.1761
-5.1109 0.9485 -0.1776
-5.0752 0.9614 -0.1756
-5.0583 0.9793 -0.1762
-5.0346 0.9952 -0.1758
-5.0252 1.0158 -0.1777
-5.0133 1.0359 -0.1792
-5.0042 1.0576 -0.1812
-4.9781 1.0729 -0.1805
-4.9492 1.0866 -0.1793
-4.9364 1.1075 -0.1808
-4.9234 1.1286 -0.1823
-4.8967 1.1431 -0.1814
-4.8869 1.1666 -0.1836
-4.8676 1.1852 -0.1841
-4.8252 1.2204 -0.1844
-4.8065 1.2398 -0.1851
-4.7853 1.2574 -0.1853
-4.7664 1.2769 -0.1859
-4.7498 1.2985 -0.1871
-4.7321 1.3196 -0.1881
-4.7190 1.4268 -0.2015
-5.8500 3.4141 -0.5968
-5.7050 3.5346 -0.5979
-5.5600 3.6550 -0.5989
-5.5023 3.7453 -0.6052
-5.4291 3.8061 -0.6057
-5.3559 3.8669 -0.6062
-5.2827 3.9277 -0.6068
-5.1975 3.9561 -0.6015
-5.1029 3.9512 -0.5907
-5.0420 4.0429 -0.5968
-5.0000 4.2062 -0.6148
-4.9354 4.3034 -0.6213
-4.8434 4.2925 -0.6099
-4.7702 4.3533 -0.6105
-4.7042 4.4518 -0.6170
-4.6303 4.5132 -0.6175
-4.5563 4.5747 -0.6180
-4.4824 4.6361 -0.6186
-4.4042 4.6574 -0.6131
-4.3209 4.6007 -0.5964
-4.0529 2.9646 -0.3421
-4.0126 2.9595 -0.3370
-3.9737 2.9443 -0.3308
-3.9359 2.9526 -0.3279
-3.8385 2.8050 -0.2971
-5.1224 0.9038 -0.1992
-5.1155 0.9235 -0.2015
-5.1034 0.9425 -0.2030
-5.0805 0.9590 -0.2028
-5.0623 0.9766 -0.2033
-5.0340 0.9913 -0.2021
-5.0191 1.0100 -0.2032
-5.0157 1.0332 -0.2065
-4.9918 1.0493 -0.2061
-4.9792 1.0699 -0.2078
-4.9613 1.0886 -0.2085
-4.9324 1.1024 -0.2071
-4.9116 1.1197 -0.2072
-4.9011 1.1424 -0.2096
-4.8800 1.1599 -0.2097
-4.8662 1.1816 -0.2115
-4.8326 1.1916 -0.2088
-4.8237 1.2169 -0.2118
-4.7999 1.2328 -0.2113
-4.7812 1.2522 -0.2121
-4.7694 1.2773 -0.2146
-4.7433 1.2913 -0.2136
-4.7324 1.3182 -0.2165
-5.6457 2.7130 -0.5549
-5.4710 2.8580 -0.5561
-5.4245 2.9247 -0.5610
-5.3546 2.9547 -0.5570
-5.3071 3.0222 -0.5618
-5.2582 3.0896 -0.5665
-5.2191 3.1795 -0.5759
-5.1683 3.2498 -0.5808
-5.1077 3.3001 -0.5812
-5.0387 3.3293 -0.5772
-4.9786 3.3792 -0.5777
-4.9259 3.4511 -0.5825
-4.8653 3.5014 -0.5830
-4.8255 3.6250 -0.5978
-4.7634 3.6766 -0.5982
-4.7135 3.7805 -0.6086
-4.6503 3.8330 -0.6091
-4.5923 3.9130 -0.6146
-4.5149 3.8830 -0.6000
-4.4411 3.8537 -0.5861
-4.3742 3.8520 -0.5773
-4.3119 3.8756 -0.5733
-4.2549 3.9510 -0.5782
-4.1971 4.0284 -0.5833
-4.0871 2.9710 -0.4001
-4.0465 3.0047 -0.4004
-4.0052 2.9626 -0.3884
-3.8304 2.8170 -0.3431
-3.8019 2.7770 -0.3331
-5.1478 0.9049 -0.2299
-5.1271 0.9221 -0.2301
-5.1159 0.9416 -0.2320
-5.0858 0.9564 -0.2304
-5.0742 0.9762 -0.2323
-5.0589 0.9952 -0.2336
-5.0347 1.0115 -0.2331
-5.0234 1.0323 -0.2352
-4.9930 1.0462 -0.2334
-4.9639 1.0602 -0.2317
-4.9632 1.0861 -0.2364
-4.9421 1.1036 -0.2365
-4.9258 1.1235 -0.2378
-4.9101 1.1441 -0.2393
-4.8915 1.1634 -0.2401
-4.8701 1.1812 -0.2403
-4.8382 1.1925 -0.2377
-4.8195 1.2117 -0.2386
-4.8008 1.2311 -0.2394
-4.7884 1.2554 -0.2420
-4.7668 1.2733 -0.2422
-4.7545 1.2987 -0.2451
-4.7438 1.3266 -0.2486
-4.7375 1.3596 -0.2538
-4.7198 1.3832 -0.2555
-5.1154 2.9766 -0.6041
-5.0518 3.0054 -0.6001
-4.8795 3.1244 -0.5970
-4.8311 3.1887 -0.6017
-4.7818 3.2537 -0.6065
-4.7207 3.2804 -0.6025
-4.6604 3.3064 -0.5986
-4.6150 3.3923 -0.6077
-4.5636 3.4590 -0.6125
-4.5117 3.5274 -0.6175
-4.4482 3.5308 -0.6089
-4.3896 3.5554 -0.6049
-4.3344 3.6013 -0.6053
-4.2859 3.7150 -0.6191
-4.2295 3.7618 -0.6195
-4.0820 3.0259 -0.4636
-4.0386 2.9948 -0.4517
-3.9976 2.9656 -0.4404
-3.9587 2.9371 -0.4296
-3.9205 2.9574 -0.4277
-5.1535 0.9019 -0.2580
-5.1076 0.9136 -0.2529
-5.1024 0.9342 -0.2563
-5.0749 0.9495 -0.2550
-5.0668 0.9701 -0.2579
-5.0493 0.9884 -0.2588
-5.0339 1.0075 -0.2602
-5.0130 1.0249 -0.2603
-4.9983 1.0446 -0.2620
-4.9742 1.0609 -0.2614
-4.9591 1.0809 -0.2630
-4.9488 1.1034 -0.2660
-4.9350 1.1248 -0.2681
-4.9116 1.1417 -0.2678
-4.8846 1.1566 -0.2664
-4.8579 1.1713 -0.2651
-4.8540 1.1996 -0.2703
-4.8205 1.2099 -0.2669
-4.8016 1.2293 -0.2678
-4.7662 1.3065 -0.2779
-4.7491 1.3295 -0.2798
-5.2935 2.2781 -0.5642
-5.2546 2.3267 -0.5678
-5.2078 2.3656 -0.5682
-5.1539 2.3940 -0.5652
-5.1142 2.4433 -0.5688
-5.0674 2.4822 -0.5692
-5.0206 2.5211 -0.5695
-4.9738 2.5599 -0.5699
-4.9270 2.5988 -0.5702
-4.8748 2.6258 -0.5672
-4.8444 2.7026 -0.5780
-4.8022 2.7552 -0.5820
-4.7594 2.8084 -0.5859
-4.6977 2.8069 -0.5755
-4.6548 2.8601 -0.5794
-4.6154 2.9280 -0.5869
-4.5600 2.9388 -0.5801
-4.5093 2.9634 -0.5768
-4.4714 3.0476 -0.5880
-4.4264 3.1039 -0.5922
-4.3729 3.1118 -0.5851
-4.3252 3.1514 -0.5854
-4.2794 3.2071 -0.5894
-4.2314 3.2470 -0.5897
-4.1809 3.2538 -0.5828
-4.1227 3.1047 -0.5426
-4.0709 2.9389 -0.5001
-4.0295 2.9231 -0.4900
-3.9898 2.9070 -0.4802
-3.9514 2.9162 -0.4758
-5.1215 0.9125 -0.2828
-5.0914 0.9275 -0.2807
-5.0743 0.9454 -0.2817
-5.0785 0.9694 -0.2880
-5.0629 0.9886 -0.2895
-5.0396 1.0055 -0.2891
-5.0184 1.0231 -0.2893
-4.9911 1.0383 -0.2877
-4.9813 1.0602 -0.2910
-4.9600 1.0778 -0.2911
-4.9475 1.0994 -0.2938
-4.9147 1.1118 -0.2906
-4.9019 1.1336 -0.2933
-4.8618 1.1707 -0.2944
-4.8524 1.1959 -0.2985
-4.8065 1.2303 -0.2979
-4.7872 1.2501 -0.2989
-4.7873 1.2850 -0.3070
-4.7740 1.3110 -0.3105
-4.7330 1.3138 -0.3036
-5.2142 2.1802 -0.5902
-5.1702 2.2167 -0.5905
-5.1262 2.2533 -0.5908
-5.0893 2.3002 -0.5948
-5.0512 2.3468 -0.5985
-4.8334 2.5427 -0.6035
-4.7886 2.5799 -0.6039
-4.6862 2.6188 -0.5940
-4.6383 2.6436 -0.5909
-4.5946 2.6799 -0.5913
-4.5578 2.7416 -0.5987
-4.5167 2.7908 -0.6024
-4.4721 2.8278 -0.6027
-4.4302 2.8776 -0.6065
-4.3830 2.9018 -0.6034
-4.3364 2.9255 -0.6003
-4.2902 2.9477 -0.5969
-4.2479 2.9991 -0.6009
-4.2061 3.0637 -0.6081
-4.1613 3.1009 -0.6084
-4.1097 3.0102 -0.5782
-4.0635 2.9412 -0.5539
-4.0220 2.9257 -0.5428
-3.8714 2.8897 -0.5070
-5.1382 0.8903 -0.3088
-5.1246 0.9090 -0.3107
-5.1224 0.9307 -0.3158
-5.1080 0.9500 -0.3178
-5.0800 0.9658 -0.3161
-5.0654 0.9854 -0.3181
-5.0409 1.0021 -0.3173
-5.0260 1.0219 -0.3193
-4.9953 1.0362 -0.3167
-4.9802 1.0562 -0.3187
-4.9618 1.0751 -0.3198
-4.9269 1.0868 -0.3156
-4.9106 1.1066 -0.3173
-4.9005 1.1298 -0.3211
-4.8791 1.1476 -0.3213
-4.8620 1.1680 -0.3230
-4.8534 1.1937 -0.3278
-4.8391 1.2168 -0.3307
-4.8145 1.2334 -0.3299
-4.7976 1.2909 -0.3410
-4.7794 1.3135 -0.3430
-4.7448 1.3224 -0.3383
-5.0531 1.9813 -0.5673
-5.0256 2.0277 -0.5734
-4.9866 2.0600 -0.5737
-4.9477 2.0924 -0.5740
-4.9037 2.1166 -0.5712
-4.8743 2.1645 -0.5773
-4.8263 2.1808 -0.5717
-4.7876 2.2130 -0.5720
-4.7450 2.2372 -0.5695
-4.7142 2.2863 -0.5757
-4.6826 2.3361 -0.5818
-4.6433 2.3688 -0.5821
-4.5974 2.3833 -0.5765
-4.5553 2.4059 -0.5737
-4.5196 2.4479 -0.5771
-4.4807 2.4803 -0.5774
-4.4517 2.5527 -0.5898
-4.4096 2.5752 -0.5870
-4.3701 2.6081 -0.5872
-4.3324 2.6518 -0.5906
-4.2893 2.6628 -0.5847
-4.2457 2.6630 -0.5759
-4.2106 2.7281 -0.5853
-4.1723 2.7723 -0.5887
-4.1320 2.7935 -0.5858
-4.0944 2.8606 -0.5952
-4.0544 2.8938 -0.5955
-4.0140 2.8915 -0.5867
-3.9747 2.9005 -0.5810
-3.9361 2.9202 -0.5782
-3.8991 2.9063 -0.5671
-3.8631 2.9027 -0.5590
-5.1394 0.9079 -0.3424
-5.1183 0.9255 -0.3425
-5.1005 0.9439 -0.3437
-5.0759 0.9607 -0.3428
-5.0547 0.9783 -0.3430
-5.0368 0.9969 -0.3441
-5.0124 1.0134 -0.3433
-5.0066 1.0367 -0.3484
-4.9871 1.0553 -0.3492
-4.9715 1.0757 -0.3514
-4.9392 1.0890 -0.3479
-4.9178 1.1068 -0.3480
-4.9065 1.1297 -0.3519
-4.8794 1.1448 -0.3500
-4.8736 1.1717 -0.3562
-4.8620 1.1962 -0.3604
-4.8282 1.2403 -0.3650
-4.8033 1.2572 -0.3642
-4.7955 1.2871 -0.3707
-4.7675 1.3018 -0.3685
-4.7521 1.3269 -0.3721
-4.8407 1.9352 -0.5601
-4.8140 1.9771 -0.5658
-4.4906 2.3664 -0.6015
-4.4508 2.3883 -0.5987
-4.4117 2.4110 -0.5963
-4.3765 2.4500 -0.5992
-4.3377 2.4724 -0.5968
-4.3008 2.5031 -0.5971
-4.2638 2.5338 -0.5973
-4.1898 2.5953 -0.5979
-4.1529 2.6260 -0.5981
-4.1179 2.6870 -0.6072
-4.0809 2.7288 -0.6106
-4.0431 2.7602 -0.6108
-4.0053 2.7805 -0.6081
-3.9677 2.8229 -0.6114
-3.9300 2.8542 -0.6117
-3.8932 2.8626 -0.6058
-3.8589 2.8393 -0.5917
-3.8249 2.8368 -0.5835
-5.1505 0.8840 -0.3671
-5.1424 0.9042 -0.3712
-5.1141 0.9203 -0.3692
-5.0998 0.9396 -0.3715
-5.0718 0.9555 -0.3695
-5.0539 0.9740 -0.3708
-5.0326 0.9917 -0.3709
-5.0260 1.0143 -0.3761
-5.0137 1.0355 -0.3795
-4.9980 1.0559 -0.3818
-4.9791 1.0753 -0.3831
-4.9629 1.0960 -0.3854
-4.9324 1.1104 -0.3823
-4.9160 1.1313 -0.3846
-4.8913 1.1481 -0.3837
-4.8912 1.1788 -0.3929
-4.8713 1.1990 -0.3942
-4.8513 1.2193 -0.3954
-4.8262 1.2364 -0.3945
-4.8061 1.2569 -0.3957
-4.7834 1.2756 -0.3959
-4.7779 1.3083 -0.4044
-4.7548 1.3275 -0.4046
-4.8793 1.7668 -0.5670
-4.8546 1.8045 -0.5723
-4.8216 1.8319 -0.5726
-4.7849 1.8538 -0.5703
-4.7520 1.8811 -0.5705
-4.7158 1.9027 -0.5682
-4.6831 1.9298 -0.5684
-4.6534 1.9630 -0.5712
-4.6264 2.0025 -0.5766
-4.5905 2.0238 -0.5742
-4.5548 2.0449 -0.5719
-4.5220 2.0722 -0.5722
-4.4891 2.0995 -0.5724
-4.4606 2.1402 -0.5778
-4.4295 2.1747 -0.5806
-4.3978 2.2083 -0.5830
-4.3611 2.2229 -0.5785
-4.3280 2.2504 -0.5787
-4.2962 2.2853 -0.5815
-4.2640 2.3194 -0.5840
-4.2305 2.3472 -0.5842
-4.1963 2.3684 -0.5823
-4.1613 2.3803 -0.5774
-4.1283 2.4077 -0.5776
-4.0968 2.4583 -0.5852
-4.0645 2.5121 -0.5935
-4.0305 2.5402 -0.5938
-3.9966 2.5684 -0.5940
-3.9628 2.5880 -0.5917
-3.9288 2.6248 -0.5945
-3.8945 2.6618 -0.5973
-3.8604 2.6901 -0.5976
-3.8284 2.6910 -0.5901
-3.7973 2.6912 -0.5826
-3.7672 2.6905 -0.5751
-5.1393 0.8775 -0.3914
-5.1453 0.9004 -0.4004
-5.1400 0.9218 -0.4060
-5.1216 0.9407 -0.4073
-5.0843 0.9547 -0.4021
-5.0780 0.9769 -0.4077
-5.0498 0.9931 -0.4055
-5.0438 1.0163 -0.4115
-5.0279 1.0368 -0.4139
-4.9998 1.0528 -0.4118
-4.9529 1.0881 -0.4109
-4.9338 1.1077 -0.4123
-4.9200 1.1300 -0.4159
-4.9067 1.1532 -0.4200
-4.8843 1.1718 -0.4201
-4.8695 1.1950 -0.4238
-4.8469 1.2138 -0.4239
-4.8372 1.2413 -0.4303
-4.8095 1.2570 -0.4282
-4.7867 1.2759 -0.4283
-4.7639 1.2949 -0.4285
-4.7410 1.3138 -0.4287
-4.7224 1.4689 -0.4742
-4.8380 1.6532 -0.5647
-4.8247 1.6994 -0.5762
-4.7774 1.7035 -0.5651
-4.7563 1.7416 -0.5720
-4.7256 1.7671 -0.5722
-4.6980 1.7974 -0.5748
-4.6729 1.8327 -0.5797
-4.6474 1.8685 -0.5846
-4.6160 1.8946 -0.5849
-4.5847 1.9206 -0.5851
-4.5510 1.9413 -0.5830
-4.5198 1.9672 -0.5832
-4.4886 1.9931 -0.5834
-4.4574 2.0190 -0.5836
-4.3373 2.1419 -0.5920
-4.3098 2.1877 -0.5997
-4.2790 2.2206 -0.6023
-4.2492 2.2612 -0.6077
-4.2138 2.2675 -0.6004
-4.1808 2.2864 -0.5979
-4.1490 2.3128 -0.5981
-4.1171 2.3393 -0.5983
-4.0857 2.3739 -0.6013
-4.0537 2.4005 -0.6016
-4.0217 2.4271 -0.6018
-3.9896 2.4379 -0.5969
-3.9579 2.4643 -0.5971
-3.9261 2.4906 -0.5974
-3.8940 2.5246 -0.6000
-3.8622 2.5510 -0.6002
-3.8289 2.5944 -0.6056
-3.7960 2.6290 -0.6082
-5.0208 1.0047 -0.4318
-4.9941 1.0209 -0.4298
-4.9746 1.0395 -0.4308
-4.8407 1.2411 -0.4635
-4.7228 1.3354 -0.4631
-4.7081 1.4524 -0.4999
-4.7259 1.6364 -0.5695
-4.6946 1.6563 -0.5676
-4.6714 1.6877 -0.5720
-4.6427 1.7115 -0.5722
-4.6117 1.7313 -0.5703
-4.5831 1.7550 -0.5705
-4.5567 1.7829 -0.5728
-4.5260 1.8024 -0.5709
-4.4975 1.8261 -0.5711
-4.4671 1.8454 -0.5692
-4.4403 1.8736 -0.5715
-4.4134 1.9020 -0.5739
-4.3878 1.9353 -0.5783
-4.3561 1.9496 -0.5743
-4.3287 1.9783 -0.5766
-4.2999 2.0022 -0.5768
-4.2723 2.0313 -0.5791
-4.2434 2.0552 -0.5793
-4.2154 2.0845 -0.5816
-4.1864 2.1086 -0.5818
-4.1567 2.1272 -0.5799
-4.1278 2.1512 -0.5801
-4.0990 2.1752 -0.5804
-4.0718 2.2302 -0.5920
-4.0412 2.2232 -0.5808
-4.0124 2.2531 -0.5831
-3.9834 2.2711 -0.5812
-3.9542 2.3147 -0.5882
-3.9245 2.3526 -0.5930
-3.8958 2.3632 -0.5886
-3.8679 2.3671 -0.5820
-3.8378 2.4053 -0.5869
-3.8081 2.4361 -0.5892
-3.7805 2.4457 -0.5848
-4.9935 1.0701 -0.4785
-4.9285 1.1276 -0.4803
-4.7435 1.3124 -0.4934
-4.7231 1.3341 -0.4953
-4.7334 1.4309 -0.5348
-4.7057 1.4490 -0.5332
-4.6872 1.4775 -0.5383
-4.6788 1.5193 -0.5514
-4.6164 1.6069 -0.5654
-4.1988 2.0088 -0.5891
-4.1726 2.0425 -0.5937
-4.1455 2.0710 -0.5962
-4.1176 2.0942 -0.5964
-4.0905 2.1287 -0.6011
-4.0624 2.1520 -0.6013
-4.0348 2.1928 -0.6082
-4.0062 2.2035 -0.6035
-3.9780 2.2221 -0.6019
-3.9502 2.2272 -0.5954
-3.9222 2.2565 -0.5978
-3.8950 2.2671 -0.5935
-3.8655 2.3155 -0.6027
-3.8369 2.3441 -0.6047
-3.8087 2.3675 -0.6049
-4.8349 1.2319 -0.5238
-4.7510 1.3169 -0.5306
-4.7275 1.3365 -0.5308
-4.7112 1.3630 -0.5362
-4.6920 1.3874 -0.5397
-4.6773 1.4173 -0.5469
-4.6614 1.4472 -0.5537
-4.6530 1.4874 -0.5671
-4.6112 1.5411 -0.5751
-4.5831 1.5585 -0.5729
-4.5347 1.6047 -0.5756
-4.5110 1.6291 -0.5777
-4.4837 1.6470 -0.5760
-4.4326 1.6894 -0.5763
-4.3520 1.7409 -0.5707
-4.3280 1.7657 -0.5728
-4.3062 1.7992 -0.5792
-4.2826 1.8283 -0.5832
-4.2569 1.8497 -0.5833
-4.2303 1.8670 -0.5816
-4.2038 1.8842 -0.5799
-4.1789 1.9097 -0.5820
-4.1544 1.9395 -0.5860
-4.1285 1.9610 -0.5862
-4.1015 1.9692 -0.5807
-4.0774 2.0129 -0.5904
-4.0521 2.0494 -0.5967
-4.0260 2.0770 -0.5993
-3.9995 2.0884 -0.5952
-3.9734 2.0851 -0.5854
-3.9477 2.1065 -0.5856
-3.9219 2.1279 -0.5858
-3.8964 2.1443 -0.5840
-3.8700 2.1757 -0.5881
-3.8432 2.2075 -0.5921
-3.8183 2.2187 -0.5884
-3.7944 2.2243 -0.5829
-5.0068 1.0678 -0.5469
-4.9571 1.1044 -0.5452
-4.9404 1.1266 -0.5489
-4.9112 1.1426 -0.5455
-4.8942 1.1649 -0.5492
-4.8794 1.1890 -0.5543
-4.8504 1.2048 -0.5510
-4.8170 1.2173 -0.5447
-4.7514 1.3154 -0.5638
-4.7161 1.3246 -0.5555
-4.6974 1.3484 -0.5592
-4.6739 1.3679 -0.5594
-4.6419 1.3780 -0.5525
-4.6211 1.4000 -0.5547
-4.6018 1.4243 -0.5584
-4.5856 1.4531 -0.5650
-4.5619 1.4728 -0.5652
-4.5316 1.4826 -0.5589
-4.5082 1.5020 -0.5590
-4.4862 1.5239 -0.5607
-4.3045 1.6995 -0.5726
-4.2668 1.7791 -0.5936
-4.2401 1.7918 -0.5897
-4.2163 1.8163 -0.5919
-4.1930 1.8451 -0.5961
-4.1694 1.8741 -0.6003
-4.1438 1.8907 -0.5985
-4.1188 1.9115 -0.5987
-4.0934 1.9278 -0.5968
-4.0685 1.9485 -0.5970
-4.0441 1.9783 -0.6012
-4.0190 1.9991 -0.6014
-3.9688 2.0407 -0.6018
-3.9436 2.0664 -0.6040
-3.9185 2.0873 -0.6042
-3.8936 2.1032 -0.6023
-3.8693 2.1139 -0.5985
-3.8449 2.1295 -0.5966
-3.8201 2.1501 -0.5968
-5.0809 0.9817 -0.5685
-5.0354 1.0195 -0.5688
-5.0127 1.0384 -0.5690
-4.9832 1.0547 -0.5654
-4.9606 1.0735 -0.5656
-4.9444 1.0951 -0.5694
-4.9243 1.1153 -0.5712
-4.8727 1.1500 -0.5678
-4.8534 1.1707 -0.5701
-4.8330 1.1912 -0.5718
-4.8078 1.2086 -0.5704
-4.7851 1.2275 -0.5706
-4.7623 1.2464 -0.5708
-4.7367 1.2630 -0.5688
-4.7168 1.2842 -0.5711
-4.6504 1.3428 -0.5732
-4.6107 1.3875 -0.5788
-4.5854 1.4039 -0.5768
-4.5591 1.4186 -0.5738
-4.5415 1.4449 -0.5793
-4.5135 1.4566 -0.5742
-4.4892 1.4732 -0.5727
-4.4646 1.4889 -0.5708
-4.4437 1.5110 -0.5731
-4.4247 1.5373 -0.5780
-4.3966 1.5454 -0.5713
-4.3754 1.5677 -0.5736
-4.3548 1.5919 -0.5769
-4.3319 1.6109 -0.5771
-4.3081 1.6272 -0.5756
-4.2870 1.6517 -0.5790
-4.2640 1.6708 -0.5792
-4.2411 1.6898 -0.5793
-4.2181 1.7089 -0.5795
-4.1965 1.7350 -0.5834
-4.1747 1.7613 -0.5872
-4.1492 1.7661 -0.5800
-4.1259 1.7820 -0.5786
-4.1038 1.8085 -0.5824
-4.0807 1.8277 -0.5826
-4.0589 1.8657 -0.5918
-4.0351 1.8772 -0.5883
-4.0116 1.8851 -0.5831
-3.9886 1.9159 -0.5886
-3.9654 1.9352 -0.5888
-3.9416 1.9701 -0.5958
-3.9184 1.9824 -0.5928
-3.8954 1.9968 -0.5909
-3.8720 2.0162 -0.5910
-3.8491 2.0318 -0.5896
-3.8264 2.0459 -0.5876
-3.8026 2.0704 -0.5899
-5.1313 0.8494 -0.5577
-5.1203 0.8690 -0.5628
-5.0989 0.8868 -0.5629
-5.0896 0.9073 -0.5691
-5.0712 0.9260 -0.5710
-5.0462 0.9433 -0.5695
-5.0183 0.9595 -0.5663
-5.0029 0.9793 -0.5698
-4.9872 0.9993 -0.5732
-4.8818 1.0636 -0.5628
-4.8702 1.0860 -0.5691
-4.8538 1.1066 -0.5725
-4.8202 1.1183 -0.5650
-4.7988 1.1361 -0.5651
-4.6851 1.2200 -0.5609
-4.6680 1.2411 -0.5644
-4.6520 1.2637 -0.5690
-4.5759 1.3049 -0.5589
-4.5629 1.3319 -0.5668
-4.5381 1.3456 -0.5636
-4.4970 1.3832 -0.5656
-4.4772 1.4032 -0.5674
-4.4572 1.4233 -0.5693
-4.4302 1.4317 -0.5627
-4.4102 1.4518 -0.5646
-4.3902 1.4719 -0.5664
-4.3676 1.4872 -0.5649
-4.3463 1.5049 -0.5650
-4.3250 1.5226 -0.5652
-4.3083 1.5527 -0.5731
-4.2851 1.5662 -0.5705
-4.2667 1.5942 -0.5768
-4.2450 1.6123 -0.5769
-4.2218 1.6245 -0.5738
-4.2028 1.6543 -0.5806
-4.1803 1.6694 -0.5791
-4.1399 1.7274 -0.5911
-4.1190 1.7564 -0.5968
-4.0513 1.8091 -0.5957
-4.0292 1.8345 -0.5992
-4.0067 1.8566 -0.6010
-3.9841 1.8835 -0.6051
-3.9614 1.8977 -0.6030
-3.9389 1.9129 -0.6015
-3.9165 1.9281 -0.6000
-3.8942 1.9431 -0.5985
-3.8720 1.9580 -0.5970
-3.8488 1.9842 -0.6005
-3.8259 2.0068 -0.6023
-5.1223 0.8229 -0.5716
-5.1015 0.8402 -0.5718
-5.0773 0.8568 -0.5702
-5.0566 0.8740 -0.5703
-5.0447 0.8931 -0.5751
-5.0184 0.9092 -0.5724
-4.9945 0.9256 -0.5708
-4.9769 0.9437 -0.5727
-4.9531 0.9600 -0.5711
-4.9324 0.9772 -0.5712
-4.9359 1.0031 -0.5859
-4.8986 1.0145 -0.5762
-4.8758 1.0311 -0.5752
-4.8523 1.0472 -0.5736
-4.8289 1.0632 -0.5720
-4.8017 1.1053 -0.5821
-4.7733 1.1185 -0.5771
-4.7524 1.1359 -0.5772
-4.6883 1.1868 -0.5765
-4.6675 1.2041 -0.5767
-4.6446 1.2197 -0.5751
-4.6218 1.2351 -0.5735
-4.6011 1.2523 -0.5736
-4.5804 1.2695 -0.5738
-4.5615 1.2887 -0.5757
-4.5408 1.3059 -0.5758
-4.4562 1.3727 -0.5747
-4.4148 1.4071 -0.5750
-4.3932 1.4227 -0.5740
-4.3779 1.4504 -0.5817
-4.3569 1.4678 -0.5819
-4.3342 1.4810 -0.5791
-4.3133 1.4983 -0.5792
-4.2925 1.5156 -0.5794
-4.2699 1.5275 -0.5760
-4.2514 1.5520 -0.5809
-4.2305 1.5694 -0.5810
-4.2092 1.5848 -0.5800
-4.1900 1.6099 -0.5848
-4.1685 1.6244 -0.5832
-4.1490 1.6509 -0.5886
-4.1266 1.6592 -0.5835
-4.0847 1.6940 -0.5838
-4.0640 1.7146 -0.5857
-4.0430 1.7320 -0.5859
-4.0223 1.7584 -0.5907
-4.0011 1.7760 -0.5909
-3.9799 1.8040 -0.5963
-3.9585 1.8253 -0.5982
-3.9368 1.8491 -0.6013
-3.9160 1.8537 -0.5950
-3.8957 1.8579 -0.5887
-3.8749 1.8716 -0.5871
-3.8525 1.9030 -0.5937
-3.8329 1.9065 -0.5874
-3.8125 1.9201 -0.5858
-5.0441 0.8269 -0.5702
-5.0300 0.8443 -0.5733
-4.9990 0.8586 -0.5674
-4.9848 0.8761 -0.5706
-4.9650 0.8926 -0.5707
-4.9400 0.9076 -0.5678
-4.9255 0.9254 -0.5710
-4.9027 0.9409 -0.5693
-4.8879 0.9589 -0.5725
-4.8632 0.9736 -0.5696
-4.8530 0.9936 -0.5758
-4.8113 1.0259 -0.5749
-4.7888 1.0412 -0.5732
-4.7080 1.1061 -0.5726
-4.6859 1.1210 -0.5709
-4.6699 1.1399 -0.5741
-4.6464 1.1537 -0.5712
-4.5618 1.2137 -0.5663
-4.5541 1.2418 -0.5780
-4.4643 1.2947 -0.5670
-4.4509 1.3196 -0.5744
-4.4321 1.3375 -0.5758
-4.4137 1.3562 -0.5778
-4.3885 1.3634 -0.5706
-4.3646 1.3718 -0.5646
-4.3480 1.3936 -0.5691
-4.3349 1.4239 -0.5796
-4.2934 1.4527 -0.5768
-4.2523 1.4811 -0.5740
-4.2149 1.5213 -0.5792
-4.1162 1.6090 -0.5830
-4.0977 1.6381 -0.5905
-4.0790 1.6719 -0.6004
-4.0578 1.6804 -0.5957
-4.0369 1.6886 -0.5909
-4.0166 1.7031 -0.5899
-3.9964 1.7199 -0.5900
-3.8749 1.8231 -0.5921
-5.0129 0.7994 -0.5697
-4.9963 0.8154 -0.5711
-4.9751 0.8308 -0.5700
-4.9584 0.8469 -0.5714
-4.9471 0.8642 -0.5759
-4.9280 0.8801 -0.5761
-4.9089 0.8960 -0.5762
-4.8898 0.9118 -0.5763
-4.8667 0.9265 -0.5739
-4.8477 0.9423 -0.5741
-4.8325 0.9594 -0.5768
-4.8068 0.9728 -0.5725
-4.7943 0.9912 -0.5770
-4.7752 1.0070 -0.5772
-4.7578 1.0237 -0.5786
-4.7370 1.0388 -0.5774
-4.7145 1.0528 -0.5750
-4.7044 1.0737 -0.5822
-4.6726 1.0820 -0.5721
-4.6606 1.1022 -0.5780
-4.6415 1.1181 -0.5781
-4.6209 1.1329 -0.5770
-4.6005 1.1476 -0.5759
-4.5842 1.1657 -0.5786
-4.5651 1.1816 -0.5787
-4.5434 1.1950 -0.5763
-4.5244 1.2108 -0.5764
-4.5077 1.2292 -0.5791
-4.4955 1.2529 -0.5869
-4.4734 1.2656 -0.5838
-4.4504 1.2767 -0.5795
-4.4247 1.2833 -0.5714
-4.4088 1.3034 -0.5753
-4.3931 1.3243 -0.5799
-4.3723 1.3371 -0.5775
-4.3541 1.3545 -0.5789
-4.3322 1.3647 -0.5746
-4.3152 1.3845 -0.5779
-4.2944 1.3961 -0.5749
-4.2762 1.4135 -0.5763
-4.2582 1.4319 -0.5783
-4.2391 1.4477 -0.5785
-4.2217 1.4690 -0.5825
-4.2038 1.4895 -0.5858
-4.1835 1.5008 -0.5827
-4.1631 1.5109 -0.5790
-4.1444 1.5286 -0.5805
-4.1265 1.5515 -0.5851
-4.1078 1.5715 -0.5878
-4.0883 1.5855 -0.5866
-4.0697 1.6088 -0.5912
-4.0498 1.6174 -0.5869
-4.0306 1.6334 -0.5870
-4.0111 1.6417 -0.5827
-3.9920 1.6654 -0.5873
-3.9728 1.6791 -0.5862
-3.9536 1.6951 -0.5863
-3.9346 1.7075 -0.5845
-3.9154 1.7234 -0.5847
-3.8965 1.7369 -0.5835
-3.8763 1.7638 -0.5894
-3.8570 1.7799 -0.5896
-3.8377 1.7959 -0.5897
-3.8191 1.8068 -0.5873
-4.9756 0.7732 -0.5644
-4.9553 0.7878 -0.5632
-4.9350 0.8023 -0.5620
-4.9172 0.8172 -0.5622
-4.9148 0.8349 -0.5715
-4.8442 0.8958 -0.5734
-4.8019 0.9242 -0.5697
-4.7780 0.9372 -0.5658
-4.7676 0.9549 -0.5713
-4.7421 0.9671 -0.5661
-4.7277 0.9835 -0.5689
-4.7149 1.0009 -0.5730
-4.6802 1.0320 -0.5746
-4.6636 1.0480 -0.5760
-4.6014 1.0884 -0.5698
-4.5877 1.1066 -0.5739
-4.5640 1.1173 -0.5687
-4.5446 1.1311 -0.5675
-4.5306 1.1495 -0.5716
-4.5125 1.1645 -0.5718
-4.4895 1.1746 -0.5666
-4.4751 1.1933 -0.5707
-4.4537 1.2044 -0.5668
-4.4402 1.2246 -0.5723
-4.4242 1.2424 -0.5751
-4.4030 1.2533 -0.5712
-4.3840 1.2668 -0.5700
-4.3632 1.2773 -0.5662
-4.3532 1.3058 -0.5783
-4.3143 1.3314 -0.5745
-4.2917 1.3367 -0.5667
-4.2760 1.3565 -0.5708
-4.2387 1.3829 -0.5684
-4.2237 1.4067 -0.5752
-4.1894 1.4442 -0.5808
-4.1706 1.4575 -0.5796
-4.1536 1.4784 -0.5837
-4.0976 1.5182 -0.5801
-4.0813 1.5509 -0.5916
-4.0635 1.5758 -0.5977
-4.0447 1.5914 -0.5979
-4.0254 1.5973 -0.5920
-3.9695 1.6460 -0.5937
-3.9509 1.6591 -0.5925
-3.9329 1.6617 -0.5853
-3.8952 1.7031 -0.5916
-3.8764 1.7210 -0.5931
-3.8564 1.7477 -0.5992
-3.8370 1.7684 -0.6020
-4.9633 0.7515 -0.5718
-4.9506 0.7665 -0.5747
-4.9307 0.7808 -0.5735
-4.9132 0.7954 -0.5736
-4.9002 0.8106 -0.5765
-4.8826 0.8253 -0.5766
-4.8628 0.8394 -0.5753
-4.8452 0.8540 -0.5755
-4.8277 0.8686 -0.5756
-4.8101 0.8832 -0.5757
-4.7905 0.8972 -0.5745
-4.7769 0.9130 -0.5774
-4.7593 0.9276 -0.5775
-4.7473 0.9443 -0.5817
-4.7277 0.9583 -0.5805
-4.7083 0.9723 -0.5792
-4.6871 0.9854 -0.5766
-4.6696 0.9999 -0.5767
-4.6536 1.0154 -0.5782
-4.6296 1.0264 -0.5729
-4.6153 1.0428 -0.5757
-4.6008 1.0593 -0.5786
-4.5788 1.0709 -0.5746
-4.5656 1.0885 -0.5789
-4.5344 1.1211 -0.5833
-4.5141 1.1336 -0.5806
-4.4939 1.1459 -0.5780
-4.4763 1.1604 -0.5781
-4.4611 1.1776 -0.5810
-4.4423 1.1909 -0.5798
-4.4215 1.2015 -0.5758
-4.4050 1.2174 -0.5773
-4.3561 1.2670 -0.5832
-4.3393 1.2832 -0.5847
-4.2816 1.3177 -0.5768
-4.2499 1.3552 -0.5839
-4.2298 1.3630 -0.5785
-4.2140 1.3828 -0.5828
-4.1953 1.3939 -0.5802
-4.1796 1.4158 -0.5858
-4.1614 1.4287 -0.5846
-4.1445 1.4472 -0.5875
-4.1264 1.4600 -0.5862
-4.1077 1.4688 -0.5822
-4.0907 1.4875 -0.5851
-4.0734 1.5063 -0.5880
-4.0554 1.5190 -0.5867
-4.0377 1.5337 -0.5869
-4.0200 1.5506 -0.5884
-4.0023 1.5676 -0.5899
-3.9845 1.5846 -0.5914
-3.9668 1.5904 -0.5860
-3.9493 1.6005 -0.5833
-3.9310 1.6268 -0.5904
-3.9135 1.6368 -0.5878
-3.8954 1.6564 -0.5907
-3.8773 1.6737 -0.5922
-3.8600 1.6835 -0.5896
-3.8426 1.6958 -0.5883
-3.8252 1.7080 -0.5870
-4.9177 0.7435 -0.5689
-4.8974 0.7571 -0.5669
-4.8784 0.7706 -0.5656
-4.8641 0.7847 -0.5671
-4.8474 0.7986 -0.5673
-4.8329 0.8128 -0.5688
-4.8098 0.8254 -0.5646
-4.7995 0.8405 -0.5690
-4.7828 0.8544 -0.5692
-4.7621 0.8672 -0.5664
-4.7494 0.8822 -0.5694
-4.7405 0.8984 -0.5753
-4.7255 0.9131 -0.5768
-4.7067 0.9265 -0.5755
-4.6872 0.9394 -0.5735
-4.6721 0.9541 -0.5750
-4.6350 0.9805 -0.5724
-4.5680 1.0362 -0.5729
-4.5549 1.0526 -0.5766
-4.5359 1.0651 -0.5746
-4.4829 1.1047 -0.5721
-4.4661 1.1186 -0.5722
-4.4379 1.1520 -0.5789
-4.4154 1.1596 -0.5718
-4.4014 1.1768 -0.5755
-4.3856 1.1921 -0.5771
-4.3510 1.2187 -0.5759
-4.3364 1.2363 -0.5796
-4.3165 1.2451 -0.5747
-4.2989 1.2575 -0.5734
-4.2791 1.2651 -0.5678
-4.2687 1.2925 -0.5801
-4.2525 1.3082 -0.5817
-4.2368 1.3256 -0.5847
-4.2036 1.3566 -0.5871
-4.1852 1.3663 -0.5836
-4.0662 1.4652 -0.5845
-3.8455 1.6463 -0.5846
-3.8303 1.6489 -0.5782
-4.8879 0.7373 -0.5737
-4.8752 0.7511 -0.5761
-4.8612 0.7649 -0.5777
-4.8415 0.7781 -0.5756
-4.7872 0.8176 -0.5722
-4.7742 0.8317 -0.5745
-4.7579 0.8452 -0.5747
-4.7417 0.8587 -0.5748
-4.7284 0.8731 -0.5771
-4.7092 0.8857 -0.5750
-4.6958 0.9002 -0.5774
-4.6795 0.9137 -0.5775
-4.6623 0.9269 -0.5769
-4.6442 0.9397 -0.5755
-4.6323 0.9551 -0.5793
-4.5979 0.9814 -0.5781
-4.5808 0.9946 -0.5774
-4.5684 1.0104 -0.5813
-4.5520 1.0240 -0.5814
-4.5298 1.0337 -0.5756
-4.5156 1.0487 -0.5779
-4.5014 1.0638 -0.5803
-4.4831 1.0757 -0.5781
-4.4655 1.0881 -0.5768
-4.4523 1.1045 -0.5806
-4.4390 1.1211 -0.5845
-4.4196 1.1317 -0.5809
-4.4005 1.1421 -0.5772
-4.3869 1.1589 -0.5811
-4.3716 1.1738 -0.5827
-4.3532 1.1847 -0.5798
-4.3332 1.1925 -0.5740
-4.3179 1.2074 -0.5756
-4.2868 1.2366 -0.5781
-4.2705 1.2501 -0.5782
-4.2202 1.2864 -0.5748
-4.2061 1.3058 -0.5802
-4.1912 1.3236 -0.5840
-4.1743 1.3355 -0.5826
-4.1575 1.3472 -0.5813
-4.1412 1.3608 -0.5814
-4.1249 1.3743 -0.5815
-4.1096 1.3937 -0.5861
-4.0928 1.4054 -0.5847
-4.0773 1.4260 -0.5901
-4.0602 1.4346 -0.5865
-4.0440 1.4514 -0.5888
-4.0273 1.4619 -0.5867
-4.0108 1.4713 -0.5838
-3.9944 1.4827 -0.5824
-3.9780 1.5007 -0.5856
-3.9617 1.5121 -0.5842
-3.9451 1.5302 -0.5873
-3.9290 1.5392 -0.5844
-3.9123 1.5575 -0.5875
-3.8963 1.5664 -0.5846
-3.8794 1.5849 -0.5878
-3.8625 1.6022 -0.5901
-3.8459 1.6159 -0.5903
-3.8298 1.6271 -0.5889
-4.8440 0.7301 -0.5681
-4.8261 0.7428 -0.5667
-4.8141 0.7560 -0.5691
-4.7986 0.7689 -0.5692
-4.7819 0.7817 -0.5686
-4.7642 0.7942 -0.5671
-4.7477 0.8068 -0.5665
-4.7417 0.8216 -0.5735
-4.7229 0.8339 -0.5713
-4.7074 0.8468 -0.5714
-4.6928 0.8600 -0.5723
-4.6762 0.8727 -0.5716
-4.6578 0.8847 -0.5694
-4.6451 0.8986 -0.5719
-4.6268 0.9105 -0.5697
-4.6122 0.9237 -0.5706
-4.6009 0.9385 -0.5745
-4.5803 0.9491 -0.5700
-4.5623 0.9608 -0.5678
-4.5500 0.9753 -0.5710
-4.5368 0.9896 -0.5734
-4.5092 1.0180 -0.5775
-4.4879 1.0269 -0.5715
-4.4717 1.0393 -0.5708
-4.4581 1.0538 -0.5732
-4.4387 1.0634 -0.5687
-4.4239 1.0768 -0.5696
-4.4067 1.0879 -0.5674
-4.3941 1.1037 -0.5714
-4.3786 1.1166 -0.5715
-4.3631 1.1295 -0.5716
-4.3506 1.1464 -0.5763
-4.3340 1.1580 -0.5749
-4.3166 1.1682 -0.5719
-4.3002 1.1796 -0.5705
-4.2860 1.1947 -0.5729
-4.2668 1.2007 -0.5661
-4.2545 1.2197 -0.5724
-4.2372 1.2286 -0.5686
-4.2238 1.2463 -0.5734
-4.2092 1.2617 -0.5758
-4.1925 1.2712 -0.5728
-4.1794 1.2919 -0.5799
-4.1610 1.2952 -0.5715
-4.1455 1.3081 -0.5716
-4.1329 1.3338 -0.5826
-4.1171 1.3469 -0.5827
-4.1005 1.3552 -0.5789
-4.0699 1.3872 -0.5838
-4.0535 1.3932 -0.5785
-4.0225 1.4265 -0.5841
-4.0070 1.4471 -0.5897
-3.9751 1.4714 -0.5884
-3.8790 1.5567 -0.5930
-3.8625 1.5736 -0.5954
-3.8464 1.5870 -0.5955
-3.6697 0.0934 -0.4161
-3.6597 0.1048 -0.4138
-3.6499 0.1161 -0.4116
-3.6394 0.1258 -0.4109
-3.6213 0.1493 -0.4049
-3.6023 0.1702 -0.4012
-3.5933 0.1809 -0.3989
-3.5827 0.1896 -0.3990
-3.5762 0.2025 -0.3937
-3.5559 0.2203 -0.3930
-3.5474 0.2305 -0.3908
-3.5404 0.2416 -0.3870
-3.5329 0.2521 -0.3840
-3.5220 0.2599 -0.3848
-3.5140 0.2697 -0.3826
-3.5047 0.2785 -0.3819
-3.4877 0.2968 -0.3789
-3.4785 0.3055 -0.3782
-3.4702 0.3144 -0.3767
-3.4543 0.3201 -0.3822
-3.4396 0.3503 -0.3692
-3.4318 0.3589 -0.3678
-3.4250 0.3677 -0.3655
-3.4134 0.3751 -0.3671
-3.4098 0.3845 -0.3625
-3.4033 0.3930 -0.3603
-3.3939 0.4008 -0.3603
-3.3876 0.4092 -0.3581
-3.3826 0.4176 -0.3550
-3.3733 0.4253 -0.3551
-3.3640 0.4330 -0.3552
-3.3593 0.4411 -0.3521
-3.3512 0.4488 -0.3514
-3.3396 0.4562 -0.3530
-3.3341 0.4640 -0.3508
-3.3274 0.4717 -0.3493
-3.7637 -0.0086 -0.4150
-3.7523 0.0009 -0.4150
-3.7212 0.0405 -0.4056
-3.7095 0.0480 -0.4072
-3.6995 0.0606 -0.4043
-3.6880 0.0689 -0.4051
-3.6806 0.0869 -0.3970
-3.6499 0.1176 -0.3935
-3.6318 0.1411 -0.3877
-3.6221 0.1512 -0.3863
-3.6101 0.1580 -0.3886
-3.6015 0.1694 -0.3857
-3.5909 0.1781 -0.3857
-3.5820 0.1887 -0.3836
-3.5749 0.2009 -0.3792
-3.5483 0.2304 -0.3742
-3.5414 0.2415 -0.3705
-3.5313 0.2499 -0.3706
-3.5226 0.2592 -0.3691
-3.5061 0.2781 -0.3656
-3.4977 0.2872 -0.3641
-3.4886 0.2958 -0.3634
-3.4787 0.3040 -0.3635
-3.4704 0.3130 -0.3621
-3.4363 0.3357 -0.3660
-3.4420 0.3493 -0.3534
-3.4343 0.3578 -0.3520
-3.4257 0.3660 -0.3513
-3.4191 0.3746 -0.3491
-3.4117 0.3830 -0.3477
-3.4033 0.3910 -0.3470
-3.3959 0.3992 -0.3455
-3.3876 0.4071 -0.3449
-3.3794 0.4150 -0.3442
-3.3723 0.4230 -0.3427
-3.3664 0.4310 -0.3405
-3.3584 0.4388 -0.3399
-3.3492 0.4464 -0.3399
-3.3448 0.4543 -0.3370
-3.3381 0.4619 -0.3356
-3.3340 0.4696 -0.3326
-3.8771 -0.1453 -0.4249
-3.8647 -0.1242 -0.4178
-3.8290 -0.0882 -0.4138
-3.8174 -0.0733 -0.4103
-3.8060 -0.0596 -0.4075
-3.7947 -0.0469 -0.4054
-3.7408 0.0181 -0.3922
-3.7089 0.0510 -0.3882
-3.6984 0.0618 -0.3868
-3.6694 0.0977 -0.3791
-3.6598 0.1089 -0.3771
-3.6207 0.1498 -0.3716
-3.6126 0.1619 -0.3681
-3.6032 0.1718 -0.3667
-3.5923 0.1798 -0.3675
-3.5755 0.2012 -0.3626
-3.5664 0.2108 -0.3613
-3.5575 0.2204 -0.3599
-3.5492 0.2305 -0.3578
-3.5404 0.2399 -0.3564
-3.5283 0.2467 -0.3586
-3.5238 0.2590 -0.3530
-3.5139 0.2672 -0.3530
-3.5054 0.2764 -0.3517
-3.4978 0.2859 -0.3496
-3.4895 0.2949 -0.3482
-3.4822 0.3042 -0.3461
-3.4741 0.3131 -0.3447
-3.4458 0.3256 -0.3521
-3.4359 0.3337 -0.3521
-3.4408 0.3471 -0.3407
-3.4350 0.3562 -0.3379
-3.4245 0.3637 -0.3386
-3.4199 0.3729 -0.3351
-3.4126 0.3812 -0.3337
-3.4032 0.3889 -0.3338
-3.3959 0.3971 -0.3324
-3.3898 0.4054 -0.3303
-3.3817 0.4132 -0.3296
-3.3724 0.4208 -0.3297
-3.3677 0.4290 -0.3269
-3.3609 0.4368 -0.3255
-3.3530 0.4444 -0.3248
-3.3463 0.4521 -0.3234
-3.3397 0.4597 -0.3221
-3.3332 0.4673 -0.3207
-3.8985 -0.1652 -0.4074
