ply
format ascii 1.0
element vertex 2120
property float x
property float y
property float z
end_header
-1.6940 1.8345 -0.6052
-1.7049 1.8355 -0.6072
-1.7155 1.8366 -0.6087
-1.7264 1.8380 -0.6086
-1.7356 1.8386 -0.6116
-1.7466 1.8404 -0.6093
-1.7548 1.8409 -0.6128
0.3358 1.8363 0.6350
0.3030 1.8321 0.5867
0.2933 1.8266 0.5450
0.2720 1.8217 0.5000
-0.7503 1.8783 0.2001
-0.7339 1.8736 0.1806
-0.6769 1.8658 0.1672
-0.2307 1.8169 0.1432
-0.8740 1.7658 -0.6008
-0.9401 1.7719 -0.6044
-1.0092 1.7792 -0.6027
-1.0717 1.7858 -0.6008
-1.1537 1.7919 -0.6147
-1.2110 1.7990 -0.6065
-1.2579 1.8044 -0.6025
-1.3327 1.8122 -0.6010
-1.3611 1.8145 -0.6047
-1.4013 1.8200 -0.5956
-1.4540 1.8251 -0.5968
-1.4682 1.8248 -0.6079
-1.5172 1.8305 -0.6036
-1.5298 1.8302 -0.6137
-1.5600 1.8353 -0.6001
-1.5746 1.8360 -0.6051
-1.5862 1.8359 -0.6133
-1.6036 1.8378 -0.6125
-1.6218 1.8402 -0.6088
-1.6378 1.8421 -0.6073
-1.6552 1.8447 -0.6019
-1.6680 1.8458 -0.6030
-1.6811 1.8472 -0.6026
-1.6910 1.8475 -0.6071
-1.7154 1.8504 -0.6046
-1.7247 1.8508 -0.6079
-1.7344 1.8515 -0.6096
-1.7439 1.8523 -0.6109
-1.7562 1.8546 -0.6041
0.3983 1.8816 0.6384
0.3521 1.8775 0.5856
0.3063 1.8735 0.5337
0.2395 1.8705 0.4776
-0.7182 1.9033 0.1990
-0.7265 1.9003 0.1742
-0.6813 1.8946 0.1584
-0.2249 1.8612 0.1683
-0.1642 1.8525 0.1401
0.1959 1.8180 0.0908
0.0953 1.8052 -0.0511
-0.8090 1.8265 -0.3806
-0.8614 1.7973 -0.6103
-0.9352 1.8030 -0.6098
-1.0260 1.8120 -0.5956
-1.1738 1.8223 -0.6024
-1.2219 1.8263 -0.5997
-1.2912 1.8306 -0.6066
-1.3373 1.8355 -0.5973
-1.3633 1.8367 -0.6026
-1.3888 1.8380 -0.6068
-1.4192 1.8406 -0.6047
-1.4497 1.8436 -0.6004
-1.4706 1.8446 -0.6042
-1.4984 1.8475 -0.5990
-1.5147 1.8479 -0.6051
-1.5386 1.8503 -0.6010
-1.5584 1.8519 -0.6002
-1.5744 1.8527 -0.6032
-1.5907 1.8537 -0.6046
-1.6093 1.8556 -0.6013
-1.6178 1.8547 -0.6122
-1.6371 1.8571 -0.6055
-1.6552 1.8595 -0.5988
-1.6674 1.8601 -0.6008
-1.6769 1.8600 -0.6068
-1.6910 1.8615 -0.6034
-1.7002 1.8615 -0.6086
-1.7103 1.8619 -0.6111
-1.7225 1.8632 -0.6083
-1.7349 1.8648 -0.6038
-1.7423 1.8645 -0.6099
-1.7521 1.8653 -0.6093
0.3265 1.9307 0.6023
0.3652 1.9250 0.5742
0.3438 1.9201 0.5287
-0.7033 1.9297 0.1941
-0.6993 1.9264 0.1714
-0.1757 1.8984 0.1639
-0.1530 1.8928 0.1305
0.2115 1.8610 0.0328
0.1307 1.8587 -0.0162
-0.0372 1.8612 -0.0626
-0.1572 1.8620 -0.1036
1.9677 1.6827 -0.6274
1.4091 1.7107 -0.6342
1.0568 1.7262 -0.6544
0.2192 1.7753 -0.6100
-0.7979 1.8335 -0.5672
-0.8175 1.8306 -0.5966
-0.8488 1.8291 -0.6198
-0.9304 1.8339 -0.6152
-1.0208 1.8405 -0.6008
-1.0617 1.8413 -0.6108
-1.1132 1.8438 -0.6118
-1.2271 1.8517 -0.5969
-1.3064 1.8560 -0.5948
-1.3688 1.8589 -0.5975
-1.4248 1.8616 -0.5986
-1.4492 1.8627 -0.6000
-1.4724 1.8637 -0.6012
-1.5209 1.8669 -0.5962
-1.5376 1.8672 -0.6004
-1.5526 1.8673 -0.6058
-1.5742 1.8690 -0.6013
-1.5845 1.8682 -0.6111
-1.6033 1.8696 -0.6078
-1.6217 1.8711 -0.6036
-1.6371 1.8721 -0.6026
-1.6477 1.8718 -0.6084
-1.6631 1.8731 -0.6051
-1.6782 1.8744 -0.6010
-1.6887 1.8745 -0.6042
-1.6979 1.8743 -0.6092
-1.7104 1.8753 -0.6069
-1.7203 1.8755 -0.6088
-1.7328 1.8768 -0.6041
-1.7407 1.8766 -0.6088
0.4381 1.9776 0.6191
0.3902 1.9725 0.5660
-0.6682 1.9563 0.1931
-0.6195 1.9531 0.1777
-0.5609 1.9495 0.1616
0.1901 1.9060 -0.0271
-0.1180 1.9089 -0.0729
-0.1881 1.9060 -0.1126
1.6466 1.8076 -0.5084
2.2232 1.7703 -0.6847
1.6014 1.7875 -0.6840
0.9061 1.8121 -0.6384
0.3041 1.8359 -0.5788
0.1535 1.8371 -0.6029
-0.1799 1.8442 -0.6200
-0.3312 1.8482 -0.6212
-0.4686 1.8522 -0.6197
-0.6751 1.8573 -0.6244
-0.7691 1.8600 -0.6227
-0.8676 1.8638 -0.6137
-1.1138 1.8707 -0.6130
-1.2070 1.8733 -0.6123
-1.2480 1.8745 -0.6120
-1.3005 1.8774 -0.5999
-1.3388 1.8789 -0.5963
-1.3649 1.8791 -0.6009
-1.4016 1.8809 -0.5941
-1.4274 1.8814 -0.5954
-1.4503 1.8817 -0.5980
-1.4736 1.8823 -0.5989
-1.4978 1.8832 -0.5971
-1.5215 1.8842 -0.5941
-1.5389 1.8843 -0.5972
-1.5518 1.8837 -0.6050
-1.5707 1.8843 -0.6040
-1.5831 1.8838 -0.6108
-1.6033 1.8851 -0.6053
-1.6204 1.8858 -0.6029
-1.6332 1.8858 -0.6059
-1.6497 1.8867 -0.6020
-1.6638 1.8873 -0.6006
-1.6728 1.8867 -0.6074
-1.6852 1.8871 -0.6072
-1.6956 1.8870 -0.6099
-1.7099 1.8882 -0.6038
-1.7193 1.8881 -0.6067
-1.7307 1.8887 -0.6043
-1.7386 1.8883 -0.6090
0.1984 2.0110 0.4644
-0.6606 1.9836 0.1866
-0.6911 1.9696 0.0586
0.3818 1.9607 0.0135
0.2525 1.9554 -0.0384
-0.0878 1.9517 -0.0834
-0.2706 1.9485 -0.1194
-0.2515 1.9440 -0.1594
1.8556 1.8822 -0.6488
1.3320 1.8837 -0.6527
0.7299 1.8901 -0.6155
-0.5101 1.8953 -0.6097
-0.6756 1.8939 -0.6284
-0.7776 1.8949 -0.6224
-0.8542 1.8951 -0.6236
-0.9475 1.8968 -0.6115
-1.0143 1.8973 -0.6091
-1.1181 1.8974 -0.6118
-1.1793 1.8986 -0.6024
-1.2159 1.8983 -0.6068
-1.2595 1.8988 -0.6039
-1.3029 1.8996 -0.5983
-1.3675 1.8998 -0.5984
-1.4254 1.9002 -0.5967
-1.4523 1.9005 -0.5952
-1.4764 1.9006 -0.5948
-1.4962 1.9003 -0.5977
-1.5375 1.9005 -0.5974
-1.5546 1.9004 -0.5995
-1.5714 1.9003 -0.6010
-1.5872 1.9001 -0.6027
-1.6013 1.8998 -0.6058
-1.6199 1.9004 -0.6011
-1.6327 1.9002 -0.6039
-1.6466 1.9002 -0.6041
-1.6609 1.9004 -0.6026
-1.6736 1.9005 -0.6026
-1.6811 1.8995 -0.6113
-1.6922 1.8994 -0.6128
-1.7060 1.9000 -0.6079
-1.7200 1.9008 -0.6010
-1.7376 1.9003 -0.6066
-1.7454 1.8998 -0.6109
-0.6123 2.0125 0.1875
-0.1721 2.0191 0.1674
-0.0499 2.0194 0.1457
0.5228 2.0217 0.0565
0.5283 2.0166 0.0043
0.3446 2.0076 -0.0502
-0.2962 1.9874 -0.1274
-0.2708 1.9840 -0.1672
1.6914 1.9754 -0.6411
1.1558 1.9654 -0.6358
0.7286 1.9579 -0.6275
-0.2182 1.9399 -0.6220
-0.3537 1.9369 -0.6259
-0.4923 1.9346 -0.6217
-0.6281 1.9329 -0.6114
-0.7013 1.9305 -0.6213
-0.8838 1.9279 -0.6117
-0.9533 1.9266 -0.6111
-1.0185 1.9256 -0.6089
-1.1324 1.9238 -0.6041
-1.1744 1.9227 -0.6069
-1.2670 1.9217 -0.5987
-1.3357 1.9203 -0.5990
-1.3653 1.9196 -0.6002
-1.3960 1.9192 -0.5986
-1.4283 1.9191 -0.5934
-1.4521 1.9185 -0.5946
-1.5022 1.9180 -0.5897
-1.5338 1.9163 -0.6002
-1.5540 1.9161 -0.5986
-1.5894 1.9155 -0.5974
-1.6001 1.9146 -0.6052
-1.6180 1.9146 -0.6014
-1.6303 1.9140 -0.6051
-1.6462 1.9140 -0.6019
-1.6566 1.9133 -0.6068
-1.6713 1.9133 -0.6034
-1.6813 1.9127 -0.6074
-1.6954 1.9129 -0.6028
-1.7062 1.9126 -0.6035
-1.7174 1.9125 -0.6025
-1.7254 1.9119 -0.6073
-1.7373 1.9121 -0.6029
-0.6215 2.0418 0.2020
-0.5649 2.0430 0.1878
-0.0893 2.0613 0.1670
-0.0027 2.0626 0.1394
0.4882 2.0792 0.0916
0.4640 2.0736 0.0402
0.4255 2.0674 -0.0116
-0.3514 2.0268 -0.0977
-0.3348 2.0243 -0.1345
-0.2518 2.0240 -0.1772
-0.1990 2.0223 -0.2219
0.8187 2.0332 -0.5868
-0.0994 1.9918 -0.6143
-0.1963 1.9858 -0.6360
-0.3870 1.9791 -0.6202
-0.6445 1.9692 -0.6092
-0.7159 1.9653 -0.6189
-0.8462 1.9617 -0.5970
-0.8829 1.9585 -0.6152
-0.9770 1.9558 -0.6008
-1.0724 1.9508 -0.6118
-1.1828 1.9469 -0.6023
-1.2389 1.9454 -0.5920
-1.2748 1.9438 -0.5934
-1.3419 1.9409 -0.5940
-1.3916 1.9380 -0.6024
-1.4233 1.9371 -0.5977
-1.4449 1.9359 -0.6012
-1.4907 1.9339 -0.6014
-1.5354 1.9324 -0.5967
-1.5519 1.9315 -0.5994
-1.5689 1.9307 -0.6005
-1.5854 1.9299 -0.6009
-1.6003 1.9292 -0.6025
-1.6156 1.9285 -0.6026
-1.6305 1.9279 -0.6020
-1.6445 1.9274 -0.6018
-1.6556 1.9266 -0.6054
-1.6691 1.9261 -0.6042
-1.6822 1.9257 -0.6023
-1.6915 1.9249 -0.6069
-1.7029 1.9245 -0.6063
-1.7136 1.9240 -0.6065
-1.7234 1.9235 -0.6075
-1.7415 1.9224 -0.6110
-0.5749 2.0725 0.2027
-0.5568 2.0720 0.1809
-0.0357 2.1044 0.1623
0.4685 2.1343 0.1257
0.5323 2.1349 0.0804
0.5378 2.1313 0.0294
-0.3244 2.0618 -0.1435
-0.1515 2.0692 -0.1932
0.8593 2.1026 -0.6074
-0.0925 2.0475 -0.5217
-0.1136 2.0426 -0.5665
-0.1151 2.0386 -0.6171
-0.2286 2.0300 -0.6322
-0.3907 2.0201 -0.6247
-0.6454 2.0045 -0.6132
-0.8222 1.9931 -0.6118
-0.9908 1.9834 -0.5957
-1.0835 1.9765 -0.6068
-1.1394 1.9732 -0.6025
-1.1826 1.9703 -0.6037
-1.2222 1.9676 -0.6049
-1.2619 1.9651 -0.6039
-1.3068 1.9628 -0.5962
-1.3490 1.9607 -0.5880
-1.3603 1.9587 -0.6044
-1.3904 1.9569 -0.6031
-1.4183 1.9551 -0.6020
-1.4464 1.9536 -0.5989
-1.4716 1.9521 -0.5970
-1.4939 1.9506 -0.5967
-1.5134 1.9493 -0.5980
-1.5319 1.9480 -0.5995
-1.5499 1.9467 -0.6002
-1.5691 1.9456 -0.5982
-1.5822 1.9444 -0.6033
-1.5985 1.9434 -0.6029
-1.6152 1.9425 -0.6007
-1.6309 1.9416 -0.5988
-1.6422 1.9405 -0.6027
-1.6527 1.9395 -0.6074
-1.6675 1.9388 -0.6037
-1.6751 1.9377 -0.6122
-1.6996 1.9363 -0.6092
-1.7109 1.9357 -0.6081
-1.7238 1.9353 -0.6026
-1.7317 1.9344 -0.6069
-0.5161 2.1059 0.2053
0.0486 2.1520 0.1606
0.6028 2.1977 0.1217
0.6256 2.1963 0.0714
0.6172 2.1920 0.0183
-0.3616 2.0954 -0.1499
0.8136 2.1760 -0.4731
0.9316 2.1803 -0.5617
-0.1553 2.0889 -0.5140
-0.1007 2.0893 -0.5776
-0.0926 2.0864 -0.6313
-0.2585 2.0722 -0.6290
-0.4007 2.0599 -0.6269
-0.6565 2.0386 -0.6129
-0.8290 2.0236 -0.6119
-0.9832 2.0109 -0.6023
-1.0931 2.0013 -0.6027
-1.2355 1.9893 -0.5961
-1.2726 1.9861 -0.5963
-1.2985 1.9834 -0.6032
-1.3625 1.9779 -0.6023
-1.3936 1.9753 -0.5998
-1.4280 1.9728 -0.5920
-1.4472 1.9708 -0.5973
-1.4685 1.9688 -0.5994
-1.5129 1.9651 -0.5973
-1.5495 1.9618 -0.5991
-1.5665 1.9603 -0.5998
-1.5782 1.9588 -0.6068
-1.6003 1.9574 -0.5980
-1.6107 1.9561 -0.6050
-1.6272 1.9548 -0.6019
-1.6386 1.9536 -0.6059
-1.6564 1.9526 -0.5981
-1.6653 1.9514 -0.6044
-1.6780 1.9503 -0.6034
-1.6879 1.9492 -0.6067
-1.6970 1.9482 -0.6108
-1.7095 1.9473 -0.6071
-1.7224 1.9466 -0.6015
-1.7309 1.9456 -0.6044
-1.7376 1.9446 -0.6109
-0.4626 2.1391 0.1795
-0.4381 2.1228 -0.1534
-0.2997 2.1353 -0.1992
-0.2515 2.1380 -0.2425
0.9964 2.2541 -0.5863
-0.1515 2.1329 -0.5225
-0.0973 2.1352 -0.5861
-0.0889 2.1330 -0.6397
-0.4510 2.0951 -0.6142
-0.8204 2.0546 -0.6193
-0.9438 2.0427 -0.5925
-0.9603 2.0395 -0.6173
-1.1462 2.0202 -0.6009
-1.2606 2.0075 -0.6060
-1.3094 2.0028 -0.5948
-1.3725 1.9961 -0.5934
-1.4190 1.9906 -0.6002
-1.4679 1.9854 -0.5991
-1.4927 1.9829 -0.5957
-1.5124 1.9807 -0.5966
-1.5294 1.9787 -0.5995
-1.5453 1.9767 -0.6027
-1.5640 1.9748 -0.6013
-1.5771 1.9731 -0.6062
-1.5957 1.9713 -0.6024
-1.6147 1.9695 -0.5966
-1.6277 1.9680 -0.5986
-1.6370 1.9666 -0.6057
-1.6529 1.9651 -0.6011
-1.6658 1.9638 -0.6005
-1.6772 1.9625 -0.6016
-1.6846 1.9612 -0.6095
-1.6949 1.9600 -0.6111
-1.7051 1.9588 -0.6123
-1.7193 1.9577 -0.6042
-1.7285 1.9566 -0.6057
-1.7375 1.9556 -0.6069
-0.4784 2.1651 0.1414
-0.4715 2.1648 0.1147
-0.4753 2.1629 0.0862
-0.4691 2.1624 0.0581
-0.4784 2.1598 0.0283
-0.4926 2.1565 -0.0019
-0.4799 2.1568 -0.0315
-0.4738 2.1561 -0.0623
-0.4777 2.1542 -0.0937
-0.4652 2.1542 -0.1263
-0.4167 2.1589 -0.1625
-0.2891 2.1733 -0.2083
-0.1575 2.1754 -0.5285
-0.1133 2.1783 -0.5891
-0.1244 2.1746 -0.6359
-0.3378 2.1479 -0.6149
-0.4723 2.1305 -0.6118
-0.5673 2.1179 -0.6177
-0.7648 2.0924 -0.6120
-0.9136 2.0731 -0.6109
-0.9824 2.0643 -0.6075
-1.2306 2.0323 -0.6013
-1.2645 2.0278 -0.6036
-1.3109 2.0222 -0.5939
-1.3699 2.0145 -0.5955
-1.3926 2.0113 -0.6000
-1.4249 2.0074 -0.5939
-1.5112 1.9960 -0.5967
-1.5283 1.9937 -0.5994
-1.5397 1.9918 -0.6082
-1.5592 1.9894 -0.6058
-1.5790 1.9870 -0.6015
-1.6081 1.9831 -0.6041
-1.6219 1.9812 -0.6050
-1.6362 1.9794 -0.6043
-1.6508 1.9776 -0.6019
-1.6631 1.9760 -0.6022
-1.6726 1.9746 -0.6069
-1.6857 1.9730 -0.6039
-1.6980 1.9715 -0.6016
-1.7050 1.9702 -0.6088
-1.7180 1.9688 -0.6030
-1.7248 1.9676 -0.6096
-0.5185 2.1926 0.2542
-0.5177 2.1918 0.2300
-0.5212 2.1903 0.2045
-0.5155 2.1903 0.1802
-0.4865 2.1939 0.1588
-0.4804 2.1939 0.1328
-0.4475 2.1979 0.1091
-0.4296 2.1997 0.0823
-0.4604 2.1938 0.0506
-0.4746 2.1906 0.0205
-0.4938 2.1865 -0.0098
-0.4501 2.1921 -0.0389
-0.4807 2.1863 -0.0700
-0.4952 2.1829 -0.1009
-0.4835 2.1835 -0.1330
-0.4248 2.1910 -0.1696
-0.3137 2.2062 -0.2142
-0.2244 2.2117 -0.4293
-0.2893 2.2008 -0.4581
-0.3075 2.1966 -0.4967
-0.2805 2.1988 -0.5483
-0.3696 2.1830 -0.6099
-0.4554 2.1696 -0.6233
-0.5902 2.1496 -0.6132
-0.6724 2.1370 -0.6188
-0.7429 2.1260 -0.6256
-0.8460 2.1109 -0.6132
-0.9184 2.1001 -0.6111
-1.0436 2.0813 -0.6068
-1.0855 2.0748 -0.6125
-1.1462 2.0659 -0.6036
-1.2410 2.0519 -0.5945
-1.3054 2.0420 -0.5987
-1.3492 2.0349 -0.6137
-1.4878 2.0145 -0.5989
-1.5280 2.0084 -0.5983
-1.5486 2.0054 -0.5953
-1.5642 2.0030 -0.5973
-1.5729 2.0013 -0.6079
-1.5954 1.9982 -0.5986
-1.6080 1.9962 -0.6020
-1.6225 1.9940 -0.6016
-1.6375 1.9918 -0.5996
-1.6473 1.9901 -0.6049
-1.6604 1.9882 -0.6040
-1.6712 1.9865 -0.6062
-1.6850 1.9846 -0.6018
-1.6948 1.9830 -0.6043
-1.7068 1.9813 -0.6014
-1.7150 1.9799 -0.6056
-1.7236 1.9785 -0.6083
-1.7291 1.9773 -0.6174
-0.4980 2.2236 0.2744
-0.4874 2.2248 0.2524
-0.4773 2.2259 0.2295
-0.4702 2.2265 0.2053
-0.4487 2.2296 0.1827
-0.4213 2.2336 0.1598
-0.4248 2.2323 0.1315
-0.4233 2.2318 0.1033
-0.4156 2.2323 0.0751
-0.4568 2.2243 0.0428
-0.4166 2.2305 0.0154
-0.4125 2.2295 -0.0464
-0.4214 2.2271 -0.0783
-0.4911 2.2143 -0.1084
-0.5009 2.2118 -0.1395
-0.3974 2.2285 -0.1791
-0.3636 2.2332 -0.2173
0.5868 2.3891 -0.4864
-0.2072 2.2528 -0.4847
-0.4551 2.2086 -0.5446
-0.5537 2.1914 -0.5520
-0.5812 2.1859 -0.5815
-0.5970 2.1823 -0.6150
-0.7153 2.1623 -0.6042
-0.7765 2.1515 -0.6137
-0.9402 2.1237 -0.6023
-1.0366 2.1068 -0.6129
-1.0901 2.0977 -0.6112
-1.1586 2.0863 -0.5968
-1.1828 2.0818 -0.6090
-1.2351 2.0731 -0.5996
-1.2692 2.0672 -0.6011
-1.3300 2.0567 -0.6045
-1.3631 2.0511 -0.6013
-1.3955 2.0456 -0.5967
-1.4399 2.0379 -0.6019
-1.4647 2.0336 -0.5997
-1.4867 2.0299 -0.5991
-1.5074 2.0263 -0.5986
-1.5277 2.0229 -0.5972
-1.5476 2.0195 -0.5949
-1.5648 2.0166 -0.5948
-1.5795 2.0140 -0.5970
-1.5916 2.0118 -0.6018
-1.6087 2.0090 -0.5987
-1.6189 2.0070 -0.6047
-1.6354 2.0043 -0.6004
-1.6466 2.0023 -0.6033
-1.6590 2.0002 -0.6034
-1.6705 1.9982 -0.6042
-1.6818 1.9962 -0.6046
-1.6929 1.9943 -0.6046
-1.7037 1.9925 -0.6040
-1.7138 1.9907 -0.6044
-1.7230 1.9891 -0.6056
-1.7303 1.9877 -0.6106
-0.4635 2.2574 0.2979
-0.4527 2.2590 0.2760
-0.4561 2.2579 0.2504
-0.4391 2.2608 0.2283
-0.4471 2.2588 0.2009
-0.3988 2.2677 0.1820
-0.4234 2.2625 0.1509
-0.4003 2.2664 0.1259
-0.3976 2.2665 0.0975
-0.4443 2.2569 0.0644
-0.4430 2.2566 0.0356
-0.4356 2.2575 0.0064
-0.4286 2.2584 -0.0236
-0.4033 2.2627 -0.0544
-0.4072 2.2614 -0.0863
-0.4504 2.2525 -0.1173
-0.4483 2.2523 -0.1497
-0.3686 2.2670 -0.1890
-0.3465 2.2705 -0.2266
-0.3499 2.2692 -0.2628
0.7460 2.4751 -0.5248
0.7554 2.4757 -0.5917
-0.1956 2.2947 -0.4948
-0.1295 2.3063 -0.5579
-0.0752 2.3156 -0.6220
-0.2374 2.2845 -0.6203
-0.4980 2.2352 -0.5765
-0.5598 2.2230 -0.5943
-0.6186 2.2114 -0.6107
-0.7063 2.1946 -0.6120
-0.7802 2.1803 -0.6154
-0.8899 2.1596 -0.5975
-0.9894 2.1402 -0.6105
-1.1141 2.1165 -0.5979
-1.1437 2.1106 -0.6079
-1.2010 2.0998 -0.5974
-1.2763 2.0854 -0.5962
-1.2971 2.0812 -0.6060
-1.3659 2.0681 -0.5988
-1.4018 2.0614 -0.5905
-1.4190 2.0579 -0.5981
-1.4453 2.0529 -0.5957
-1.4635 2.0493 -0.6001
-1.4831 2.0455 -0.6020
-1.5307 2.0366 -0.5921
-1.5772 2.0275 -0.5982
-1.5893 2.0251 -0.6030
-1.6057 2.0220 -0.6008
-1.6247 2.0185 -0.5935
-1.6333 2.0167 -0.6011
-1.6439 2.0146 -0.6051
-1.6591 2.0118 -0.6004
-1.6699 2.0097 -0.6023
-1.6832 2.0072 -0.5988
-1.6904 2.0057 -0.6060
-1.7025 2.0034 -0.6029
-1.7095 2.0019 -0.6096
-1.7218 1.9996 -0.6042
-1.7291 1.9982 -0.6091
-0.4065 2.3302 0.3273
-0.3942 2.3343 0.3046
-0.3811 2.3387 0.2812
-0.3950 2.3354 0.2515
-0.3365 2.3529 0.2350
-0.3445 2.3513 0.2050
-0.2729 2.3742 0.1240
-0.3275 2.3591 0.0869
-0.3665 2.3486 0.0525
-0.3582 2.3518 0.0214
-0.3674 2.3499 -0.0112
-0.3827 2.3463 -0.0441
-0.3861 2.3461 -0.0771
-0.4016 2.3424 -0.1102
-0.4112 2.3404 -0.1437
-0.4082 2.3421 -0.1783
-0.4067 2.3435 -0.2137
-0.4157 2.3417 -0.2486
-0.2566 2.3950 -0.5231
-0.1318 2.4334 -0.6062
-1.1263 2.1426 -0.5930
-1.1597 2.1330 -0.6002
-1.2007 2.1211 -0.6003
-1.2872 2.0955 -0.5898
-1.3393 2.0805 -0.5985
-1.3672 2.0724 -0.5990
-1.3996 2.0628 -0.5935
-1.4222 2.0562 -0.5956
-1.4501 2.0480 -0.5909
-1.4646 2.0439 -0.5989
-1.4876 2.0372 -0.5965
-1.5046 2.0322 -0.5996
-1.5237 2.0267 -0.5992
-1.5461 2.0200 -0.5931
-1.5607 2.0158 -0.5960
-1.5728 2.0124 -0.6013
-1.5883 2.0078 -0.6010
-1.6035 2.0034 -0.6000
-1.6197 1.9985 -0.5962
-1.6309 1.9954 -0.5995
-1.6432 1.9918 -0.6001
-1.6572 1.9876 -0.5967
-1.6658 1.9852 -0.6022
-1.6787 1.9814 -0.5989
-1.6894 1.9782 -0.5987
-1.6987 1.9756 -0.6006
-1.7079 1.9729 -0.6022
-1.7174 1.9701 -0.6020
-0.3780 2.3693 0.3209
-0.3748 2.3712 0.2948
-0.3562 2.3778 0.2714
-0.3525 2.3800 0.2439
-0.3079 2.3947 0.2229
-0.2466 2.4146 0.2023
-0.2688 2.4089 0.1676
-0.2096 2.4284 0.1426
-0.2187 2.4267 0.1080
-0.3358 2.3915 0.0646
-0.3696 2.3820 0.0302
-0.3385 2.3941 -0.0348
-0.3546 2.3902 -0.0691
-0.3181 2.4029 -0.1049
-0.3682 2.3884 -0.1387
0.3951 2.6351 -0.3385
0.4445 2.6528 -0.4021
0.4332 2.6513 -0.4592
0.3630 2.6308 -0.5058
0.3098 2.6158 -0.5538
-0.2856 2.4274 -0.5131
-0.1166 2.4838 -0.6093
-0.1653 2.4698 -0.6451
-0.3927 2.3974 -0.6159
-0.5561 2.3455 -0.5991
-0.8153 2.2643 -0.6051
-1.0769 2.1819 -0.5985
-1.1631 2.1550 -0.6034
-1.2546 2.1260 -0.5944
-1.3458 2.0975 -0.5999
-1.3758 2.0880 -0.5984
-1.4236 2.0731 -0.6022
-1.4528 2.0638 -0.5963
-1.4774 2.0559 -0.5933
-1.4946 2.0507 -0.5973
-1.5160 2.0439 -0.5951
-1.5318 2.0390 -0.5985
-1.5517 2.0327 -0.5955
-1.5675 2.0277 -0.5966
-1.5838 2.0226 -0.5960
-1.5976 2.0183 -0.5978
-1.6105 2.0144 -0.6001
-1.6370 2.0061 -0.6010
-1.6491 2.0023 -0.6018
-1.6649 1.9971 -0.5950
-1.6728 1.9949 -0.6018
-1.6854 1.9908 -0.5986
-1.6936 1.9884 -0.6035
-1.7058 1.9844 -0.5992
-1.7154 1.9814 -0.5996
-1.7220 1.9796 -0.6061
-1.7319 1.9764 -0.6044
-0.3772 2.4007 0.3338
-0.3575 2.4083 0.3114
-0.3033 2.4286 0.2659
-0.2616 2.4437 0.2435
-0.2234 2.4577 0.2184
-0.2111 2.4633 0.1876
-0.1624 2.4809 0.1603
0.4286 2.6853 0.0417
0.4470 2.6938 -0.0082
0.3810 2.6740 -0.0601
0.4028 2.6861 -0.1649
0.4819 2.7154 -0.2243
0.4863 2.7195 -0.2817
0.4924 2.7242 -0.3408
0.4345 2.7071 -0.3927
0.3213 2.6709 -0.4338
0.2419 2.6461 -0.4770
0.2440 2.6494 -0.5348
0.1432 2.6170 -0.5691
-0.2754 2.4736 -0.5138
-0.2294 2.4918 -0.5744
-0.2907 2.4725 -0.6037
-0.4068 2.4338 -0.6113
-0.6564 2.3493 -0.6015
-0.8406 2.2870 -0.5959
-0.9701 2.2436 -0.5998
-1.0817 2.2060 -0.6004
-1.1792 2.1730 -0.5979
-1.2564 2.1471 -0.5992
-1.2947 2.1341 -0.5967
-1.3305 2.1219 -0.5939
-1.3582 2.1127 -0.5961
-1.3838 2.1042 -0.5986
-1.4357 2.0867 -0.5981
-1.4644 2.0768 -0.5923
-1.4825 2.0708 -0.5964
-1.5178 2.0592 -0.6024
-1.5400 2.0515 -0.5978
-1.5596 2.0448 -0.5950
-1.5704 2.0416 -0.6031
-1.5879 2.0356 -0.6008
-1.6009 2.0313 -0.6039
-1.6184 2.0252 -0.5991
-1.6316 2.0208 -0.6000
-1.6432 2.0170 -0.6025
-1.6577 2.0119 -0.5988
-1.6676 2.0088 -0.6026
-1.6798 2.0046 -0.6013
-1.6923 2.0003 -0.5983
-1.7016 1.9973 -0.6008
-1.7113 1.9940 -0.6017
-1.7208 1.9909 -0.6021
-1.7290 1.9882 -0.6049
-1.7382 1.9851 -0.6046
-0.4176 2.4173 0.3626
-0.3991 2.4252 0.3413
-0.3452 2.4454 0.3274
-0.2597 2.4802 0.2568
-0.2621 2.4811 0.2247
-0.2085 2.5018 0.2006
-0.0675 2.5534 0.1852
0.3705 2.7133 0.1498
0.5323 2.7736 0.1134
0.5377 2.7785 0.0615
0.5124 2.7725 0.0074
0.4575 2.7557 -0.0468
0.4936 2.7718 -0.1012
0.3930 2.7385 -0.1531
0.4424 2.7596 -0.2108
0.4310 2.7587 -0.2668
0.4519 2.7696 -0.3270
0.4096 2.7574 -0.3810
0.3835 2.7511 -0.4368
0.3427 2.7395 -0.4899
0.3168 2.7333 -0.5454
0.1813 2.6861 -0.5745
-0.4146 2.4733 -0.6089
-0.6454 2.3901 -0.6079
-0.8350 2.3214 -0.6016
-0.8796 2.3062 -0.6164
-0.9614 2.2763 -0.6086
-1.0923 2.2286 -0.5987
-1.1936 2.1918 -0.5935
-1.2252 2.1808 -0.6003
-1.2596 2.1685 -0.6032
-1.3264 2.1446 -0.6047
-1.3587 2.1328 -0.6032
-1.3975 2.1183 -0.5935
-1.4229 2.1092 -0.5942
-1.4432 2.1021 -0.5987
-1.4662 2.0939 -0.5991
-1.4909 2.0848 -0.5959
-1.5337 2.0692 -0.5923
-1.5483 2.0641 -0.5970
-1.5649 2.0583 -0.5982
-1.5845 2.0510 -0.5938
-1.5996 2.0455 -0.5945
-1.6105 2.0420 -0.6007
-1.6283 2.0352 -0.5949
-1.6393 2.0315 -0.5990
-1.6508 2.0275 -0.6016
-1.6639 2.0227 -0.6004
-1.6755 2.0186 -0.6009
-1.6869 2.0145 -0.6009
-1.7003 2.0093 -0.5955
-1.7095 2.0061 -0.5981
-1.7196 2.0025 -0.5977
-1.7284 1.9994 -0.5995
-1.7355 1.9972 -0.6049
-1.7455 1.9934 -0.6021
-0.3762 2.4661 0.3608
-0.3566 2.4751 0.3381
-0.2274 2.5269 0.3083
0.0396 2.6334 0.2527
-0.0708 2.5946 0.1984
0.3618 2.7633 0.1646
0.4788 2.8110 0.1254
0.5780 2.8523 0.0792
0.5053 2.8283 0.0218
0.4797 2.8221 -0.0330
0.4230 2.8040 -0.0874
0.4428 2.8154 -0.1430
0.4476 2.8211 -0.1998
0.4215 2.8149 -0.2556
0.3954 2.8086 -0.3115
0.3693 2.8024 -0.3673
0.4047 2.8205 -0.4327
0.2097 2.7553 -0.5773
0.0938 2.7127 -0.6076
-0.0986 2.6389 -0.6101
-0.2947 2.5628 -0.6014
-0.5463 2.4664 -0.6063
-0.6490 2.4270 -0.6083
-0.7541 2.3862 -0.6036
-0.8973 2.3316 -0.6110
-0.9689 2.3039 -0.6087
-1.0329 2.2792 -0.6067
-1.1379 2.2388 -0.6065
-1.2830 2.1819 -0.5916
-1.3080 2.1729 -0.5997
-1.3365 2.1621 -0.6033
-1.3684 2.1498 -0.6021
-1.3957 2.1393 -0.6032
-1.4255 2.1276 -0.6000
-1.4472 2.1195 -0.6033
-1.4958 2.1006 -0.5996
-1.5161 2.0928 -0.6000
-1.5388 2.0838 -0.5959
-1.5554 2.0775 -0.5980
-1.5731 2.0707 -0.5975
-1.5937 2.0624 -0.5914
-1.6040 2.0589 -0.5991
-1.6200 2.0527 -0.5974
-1.6306 2.0490 -0.6033
-1.6471 2.0423 -0.5981
-1.6579 2.0384 -0.6019
-1.6726 2.0324 -0.5974
-1.6828 2.0287 -0.6003
-1.6946 2.0241 -0.5992
-1.7045 2.0204 -0.6011
-1.7163 2.0156 -0.5978
-1.7258 2.0121 -0.5988
-1.7355 2.0083 -0.5982
-1.7430 2.0056 -0.6023
-1.7509 2.0028 -0.6048
0.0788 2.7011 0.1930
0.3384 2.8088 0.1782
0.5478 2.8971 0.1474
0.5219 2.8909 0.0920
0.5284 2.8979 0.0378
0.5674 2.9183 -0.0172
0.5569 2.9186 -0.0750
0.5644 2.9264 -0.1340
0.5369 2.9198 -0.1929
0.4925 2.9062 -0.2505
0.4976 2.9132 -0.3122
0.5814 2.9588 -0.4522
0.5339 2.9440 -0.5116
0.4529 2.9149 -0.5630
0.2535 2.8348 -0.5835
0.1187 2.7817 -0.6113
-0.1426 2.6733 -0.5955
-0.2839 2.6160 -0.6044
-0.5548 2.5049 -0.6042
-1.0289 2.3113 -0.6140
-1.1345 2.2680 -0.6146
-1.2420 2.2228 -0.6006
-1.3242 2.1885 -0.5933
-1.3530 2.1769 -0.5964
-1.3691 2.1714 -0.6096
-1.4172 2.1501 -0.5906
-1.4662 2.1302 -0.5920
-1.5218 2.1082 -0.6031
-1.5428 2.0994 -0.6011
-1.5627 2.0911 -0.5990
-1.5821 2.0829 -0.5959
-1.5978 2.0765 -0.5967
-1.6145 2.0696 -0.5948
-1.6264 2.0650 -0.5992
-1.6412 2.0588 -0.5980
-1.6562 2.0524 -0.5950
-1.6668 2.0484 -0.5988
-1.6795 2.0431 -0.5978
-1.6891 2.0395 -0.6019
-1.7013 2.0343 -0.5999
-1.7127 2.0296 -0.5983
-1.7238 2.0248 -0.5963
-1.7326 2.0214 -0.5987
-1.7422 2.0174 -0.5981
-1.7496 2.0147 -0.6023
-1.7584 2.0111 -0.6023
0.5799 2.9534 0.3774
0.5856 2.9605 0.3275
0.2122 2.8068 0.2259
0.6955 3.0222 0.1781
0.7043 3.0313 0.1209
0.7134 3.0407 0.0622
0.6367 3.0185 -0.0606
0.6827 3.0444 -0.1232
0.6724 3.0457 -0.1868
0.6814 3.0557 -0.2528
0.7522 3.0935 -0.3267
0.7842 3.1143 -0.4011
0.8398 3.1461 -0.4824
0.7633 3.1184 -0.5449
0.6681 3.0821 -0.6012
0.3330 2.9355 -0.5977
0.1585 2.8613 -0.6188
-0.1059 2.7445 -0.6046
-0.3075 2.6557 -0.5962
-0.5459 2.5529 -0.6090
-0.7412 2.4682 -0.6149
-0.9117 2.3934 -0.6114
-1.0427 2.3362 -0.6108
-1.1703 2.2791 -0.5963
-1.2430 2.2483 -0.6067
-1.3288 2.2100 -0.5969
-1.3957 2.1804 -0.5928
-1.4156 2.1725 -0.6008
-1.4488 2.1573 -0.5936
-1.4912 2.1393 -0.5991
-1.5386 2.1180 -0.5923
-1.5532 2.1122 -0.5982
-1.6016 2.0915 -0.6028
-1.6193 2.0834 -0.5993
-1.6360 2.0758 -0.5959
-1.6488 2.0704 -0.5979
-1.6648 2.0630 -0.5929
-1.6746 2.0591 -0.5980
-1.6871 2.0536 -0.5971
-1.6966 2.0498 -0.6013
-1.7108 2.0431 -0.5947
-1.7198 2.0394 -0.5979
-1.7292 2.0355 -0.5996
-1.7389 2.0312 -0.5997
-1.7479 2.0274 -0.6005
-1.7658 2.0195 -0.5997
0.6814 3.0659 0.3630
0.6360 3.0512 0.3020
0.2157 2.8673 0.1970
0.7641 3.1210 0.2037
0.9439 3.2093 0.1573
0.9579 3.2226 0.0926
0.9486 3.2253 0.0252
0.8844 3.2100 -0.1122
0.8306 3.1921 -0.1799
0.8652 3.2158 -0.2525
0.8104 3.1975 -0.3202
0.7351 3.1693 -0.3843
0.6919 3.1639 -0.5241
0.7022 3.1768 -0.6014
0.4032 3.0389 -0.6093
0.2320 2.9622 -0.6348
-0.0989 2.8055 -0.6049
-0.3314 2.6958 -0.5878
-0.5482 2.5975 -0.6094
-0.6399 2.5559 -0.6184
-0.8406 2.4621 -0.6122
-0.9980 2.3885 -0.6059
-1.0542 2.3627 -0.6090
-1.1863 2.2996 -0.5914
-1.2563 2.2684 -0.6035
-1.3406 2.2283 -0.5944
-1.4043 2.1986 -0.5930
-1.4204 2.1924 -0.6049
-1.4553 2.1753 -0.5960
-1.5138 2.1494 -0.6084
-1.5466 2.1326 -0.5927
-1.5777 2.1189 -0.6007
-1.5953 2.1107 -0.6000
-1.6131 2.1022 -0.5974
-1.6251 2.0972 -0.6028
-1.6398 2.0903 -0.6027
-1.6559 2.0825 -0.5988
-1.6694 2.0762 -0.5982
-1.6809 2.0710 -0.6003
-1.6954 2.0638 -0.5952
-1.7053 2.0595 -0.5983
-1.7145 2.0556 -0.6022
-1.7265 2.0497 -0.5987
-1.7358 2.0456 -0.6005
-1.7459 2.0408 -0.5994
-1.7538 2.0375 -0.6029
0.8853 3.2156 0.5346
0.8356 3.1990 0.4680
0.9098 3.2409 0.4232
0.9673 3.2753 0.3717
0.8923 3.2469 0.2996
0.9725 3.2928 0.2457
0.9181 3.2743 0.1757
0.9089 3.2776 0.1094
0.9222 3.2920 0.0429
0.8899 3.2843 -0.0263
0.8802 3.2877 -0.0958
0.9654 3.3385 -0.1699
0.9807 3.3549 -0.2457
0.7389 3.2780 -0.6016
0.4271 3.1254 -0.6098
-0.0344 2.8995 -0.6219
-0.3296 2.7501 -0.5878
-0.4395 2.6976 -0.6020
-0.6438 2.5990 -0.6189
-0.7724 2.5342 -0.6065
-0.8559 2.4933 -0.6083
-0.9516 2.4450 -0.5985
-0.9871 2.4297 -0.6170
-1.1188 2.3639 -0.6092
-1.1843 2.3304 -0.5989
-1.3072 2.2702 -0.6008
-1.3482 2.2493 -0.5958
-1.4089 2.2196 -0.5973
-1.4333 2.2080 -0.6010
-1.4572 2.1966 -0.6035
-1.4853 2.1822 -0.5995
-1.5239 2.1641 -0.6068
-1.5528 2.1486 -0.5956
-1.5652 2.1435 -0.6046
-1.5855 2.1331 -0.6015
-1.6004 2.1262 -0.6047
-1.6180 2.1173 -0.6025
-1.6352 2.1084 -0.5994
-1.6519 2.0997 -0.5953
-1.6759 2.0885 -0.6003
-1.6990 2.0775 -0.6032
-1.7119 2.0707 -0.5999
-1.7220 2.0659 -0.6016
-1.7333 2.0601 -0.5994
-1.7406 2.0573 -0.6061
-1.7529 2.0504 -0.5992
-1.7621 2.0459 -0.5990
-1.7702 2.0421 -0.6009
-1.7778 2.0387 -0.6038
1.0100 3.3745 0.4023
1.0255 3.3908 0.3401
0.9507 3.3792 0.1323
0.9654 3.3959 0.0640
0.9085 3.3757 -0.0080
0.8753 3.3678 -0.0789
0.9027 3.4015 -0.2261
0.8583 3.3981 -0.3754
1.0832 3.5301 -0.4855
0.8019 3.3992 -0.6066
0.3980 3.1871 -0.5978
-0.0372 2.9626 -0.6191
-0.4004 2.7726 -0.6165
-0.6597 2.6369 -0.6145
-0.8839 2.5176 -0.5980
-1.1381 2.3855 -0.6026
-1.2260 2.3403 -0.6088
-1.3165 2.2921 -0.6009
-1.3949 2.2498 -0.5910
-1.4167 2.2394 -0.5987
-1.4375 2.2296 -0.6063
-1.4691 2.2123 -0.6004
-1.4967 2.1974 -0.5967
-1.5153 2.1883 -0.6017
-1.5354 2.1781 -0.6035
-1.5587 2.1653 -0.5993
-1.5754 2.1570 -0.6024
-1.6273 2.1297 -0.6008
-1.6402 2.1235 -0.6046
-1.6550 2.1156 -0.6039
-1.6717 2.1062 -0.5984
-1.6847 2.0994 -0.5982
-1.6960 2.0938 -0.6005
-1.7079 2.0875 -0.6001
-1.7201 2.0809 -0.5980
-1.7301 2.0759 -0.5998
-1.7403 2.0706 -0.6000
-1.7489 2.0665 -0.6033
-1.7596 2.0605 -0.6001
-1.7682 2.0562 -0.6013
-1.7758 2.0526 -0.6046
1.1382 3.4861 0.7061
1.0812 3.4656 0.6308
1.0247 3.4452 0.5565
1.0404 3.4627 0.4968
1.0562 3.4805 0.4350
0.9986 3.4595 0.3606
0.9657 3.4517 0.2903
0.9100 3.4315 0.2177
0.9472 3.4616 0.1531
0.9382 3.4669 0.0828
0.8804 3.4456 0.0101
1.0009 3.5454 -0.2159
0.9709 3.5643 -0.4583
0.4049 3.2711 -0.5939
0.2543 3.1931 -0.6298
-0.0284 3.0351 -0.6196
-0.4169 2.8189 -0.6111
-0.6819 2.6717 -0.6074
-0.8788 2.5624 -0.6045
-1.0335 2.4762 -0.6004
-1.2423 2.3612 -0.6038
-1.3162 2.3210 -0.6094
-1.3950 2.2760 -0.5998
-1.4434 2.2508 -0.6100
-1.4714 2.2351 -0.6084
-1.5038 2.2158 -0.5991
-1.5290 2.2013 -0.5959
-1.5469 2.1921 -0.6001
-1.6207 2.1511 -0.5991
-1.6509 2.1345 -0.6002
-1.6803 2.1178 -0.5971
-1.6921 2.1116 -0.5991
-1.7037 2.1054 -0.6005
-1.7150 2.0993 -0.6014
-1.7255 2.0936 -0.6028
-1.7359 2.0880 -0.6037
-1.7487 2.0800 -0.5972
-1.7567 2.0762 -0.6017
-1.7663 2.0708 -0.6010
-1.7753 2.0658 -0.6011
-1.7832 2.0618 -0.6032
-1.7914 2.0573 -0.6037
1.2231 3.6056 0.8216
0.9037 3.4422 0.6758
0.9167 3.4587 0.6206
0.8857 3.4513 0.5540
0.9432 3.4930 0.5048
0.9343 3.4982 0.4402
0.9020 3.4905 0.3710
0.8253 3.4577 0.2960
0.8822 3.5005 0.2373
0.8957 3.5192 0.1707
0.8863 3.5250 0.1006
0.8526 3.5170 0.0285
0.8189 3.5089 -0.0436
0.7400 3.4743 -0.1148
0.7743 3.5063 -0.1889
0.9091 3.5991 -0.2741
0.9508 3.6373 -0.3593
0.9137 3.6284 -0.4387
1.3990 3.9391 -0.6023
0.4879 3.4062 -0.6067
0.2409 3.2641 -0.6224
-0.2178 2.9954 -0.6220
-0.5393 2.8065 -0.6188
-1.0452 2.5071 -0.5989
-1.2036 2.4154 -0.6057
-1.2515 2.3871 -0.6044
-1.3650 2.3210 -0.6066
-1.3980 2.3017 -0.6064
-1.4601 2.2646 -0.6024
-1.5154 2.2312 -0.5962
-1.5506 2.2124 -0.6072
-1.5709 2.2005 -0.6070
-1.5935 2.1863 -0.6015
-1.6260 2.1678 -0.6045
-1.6570 2.1496 -0.6043
-1.6724 2.1402 -0.6020
-1.6884 2.1300 -0.5969
-1.7115 2.1171 -0.6005
-1.7249 2.1085 -0.5961
-1.7335 2.1044 -0.6020
-1.7454 2.0969 -0.5985
-1.7540 2.0925 -0.6024
-1.7642 2.0863 -0.6012
-1.7736 2.0807 -0.6006
-1.7812 2.0769 -0.6045
-1.7899 2.0718 -0.6043
0.9899 3.5714 0.7277
0.9353 3.5507 0.6535
0.9035 3.5431 0.5853
0.8276 3.5098 0.5082
0.8616 3.5407 0.4531
0.8521 3.5463 0.3880
0.7762 3.5127 0.3128
0.8546 3.5711 0.2572
0.8108 3.5689 0.1168
0.7774 3.5609 0.0454
0.7220 3.5394 -0.0264
0.7106 3.5450 -0.0976
0.7908 3.6082 -0.1738
0.8534 3.6614 -0.2550
0.9734 3.7522 -0.3475
0.9353 3.7431 -0.4291
-0.5276 2.8716 -0.6251
-0.7882 2.7079 -0.6122
-0.9669 2.5966 -0.6087
-1.0581 2.5379 -0.5967
-1.1132 2.5045 -0.6011
-1.1970 2.4556 -0.6179
-1.4145 2.3177 -0.5999
-1.4685 2.2849 -0.6039
-1.4894 2.2731 -0.6099
-1.5224 2.2507 -0.5993
-1.5415 2.2397 -0.6036
-1.5874 2.2099 -0.5963
-1.6034 2.2007 -0.6001
-1.6217 2.1891 -0.5987
-1.6354 2.1815 -0.6035
-1.6549 2.1682 -0.5966
-1.6678 2.1607 -0.5998
-1.6819 2.1519 -0.5996
-1.6942 2.1447 -0.6015
-1.7203 2.1280 -0.5984
-1.7299 2.1228 -0.6027
-1.7415 2.1153 -0.6012
-1.7515 2.1093 -0.6023
-1.7609 2.1038 -0.6041
-1.7721 2.0961 -0.5995
-1.7813 2.0903 -0.5991
-1.7893 2.0859 -0.6018
-1.7970 2.0815 -0.6042
-1.8046 2.0771 -0.6062
1.1289 3.7524 0.7328
0.8993 3.6254 0.6127
0.7380 3.5386 0.5159
0.8121 3.5961 0.4700
0.8022 3.6022 0.4051
0.7480 3.5807 0.3327
0.7592 3.6004 0.2693
0.7703 3.6204 0.2038
0.7372 3.6125 0.1329
0.7259 3.6186 0.0630
0.7150 3.6253 -0.0081
0.7719 3.6767 -0.0808
0.8652 3.8182 -0.4948
0.1336 3.3570 -0.5870
-0.2082 3.1402 -0.6235
-0.7798 2.7652 -0.6197
-0.9679 2.6407 -0.6133
-1.2214 2.4736 -0.6076
-1.2739 2.4383 -0.6028
-1.3144 2.4121 -0.6041
-1.3525 2.3871 -0.6043
-1.3865 2.3651 -0.6055
-1.4562 2.3180 -0.5979
-1.4773 2.3056 -0.6052
-1.5032 2.2886 -0.6051
-1.5525 2.2556 -0.6015
-1.5911 2.2309 -0.6045
-1.6134 2.2152 -0.5986
-1.6324 2.2021 -0.5957
-1.6464 2.1938 -0.5997
-1.6550 2.1906 -0.6122
-1.6786 2.1718 -0.5953
-1.6896 2.1657 -0.6010
-1.7145 2.1497 -0.6027
-1.7248 2.1438 -0.6067
-1.7395 2.1326 -0.5985
-1.7500 2.1258 -0.5992
-1.7603 2.1191 -0.5993
-1.7683 2.1149 -0.6046
-1.7789 2.1073 -0.6014
-1.7880 2.1013 -0.6011
-1.7973 2.0948 -0.5990
-1.8049 2.0903 -0.6015
-1.8127 2.0854 -0.6022
0.7838 3.6393 0.6136
0.8170 3.6735 0.5606
0.8067 3.6801 0.4958
0.7306 3.6438 0.4182
0.7415 3.6645 0.3563
0.6877 3.6426 0.2837
0.6553 3.6348 0.2145
0.6230 3.6271 0.1453
0.6316 3.6472 0.0783
0.6199 3.6538 0.0085
0.7418 3.7532 -0.0624
0.9213 3.9123 -0.2273
0.9098 3.9222 -0.3120
0.8177 3.8748 -0.3889
0.6804 3.7939 -0.4557
0.2296 3.4981 -0.5318
0.2323 3.5160 -0.6074
-0.2697 3.1677 -0.6029
-0.5925 2.9443 -0.6029
-0.6670 2.8974 -0.6246
-0.7969 2.8055 -0.6154
-1.1393 2.5648 -0.5972
-1.2341 2.5011 -0.6060
-1.3209 2.4413 -0.6075
-1.4253 2.3696 -0.6098
-1.4572 2.3472 -0.6080
-1.5130 2.3079 -0.6054
-1.5373 2.2910 -0.6050
-1.6000 2.2477 -0.6052
-1.6391 2.2195 -0.5996
-1.6529 2.2109 -0.6039
-1.6659 2.2028 -0.6085
-1.6824 2.1907 -0.6049
-1.6966 2.1807 -0.6042
-1.7117 2.1693 -0.5997
-1.7207 2.1647 -0.6074
-1.7364 2.1519 -0.5983
-1.7466 2.1454 -0.6007
-1.7566 2.1389 -0.6027
-1.7679 2.1304 -0.5996
-1.7855 2.1192 -0.6043
-1.7945 2.1130 -0.6042
-1.8019 2.1087 -0.6084
-1.8128 2.0991 -0.5988
-1.8201 2.0945 -0.6009
0.8217 3.7520 0.6526
0.7672 3.7293 0.5776
0.7565 3.7364 0.5130
0.6811 3.6992 0.4352
0.6490 3.6915 0.3665
0.6170 3.6838 0.2978
0.6261 3.7052 0.2339
0.6563 3.7420 0.1697
0.6448 3.7497 0.0996
0.6768 3.7891 0.0298
0.5774 3.7336 -0.0446
0.5437 3.7255 -0.1167
0.5308 3.7328 -0.1899
0.6503 3.8398 -0.2752
0.6369 3.8483 -0.3550
0.6478 3.8757 -0.4398
0.2675 3.6194 -0.5336
0.2349 3.6116 -0.6034
-0.0441 3.4077 -0.6033
-0.2440 3.2633 -0.6103
-0.6724 2.9537 -0.6252
-1.0506 2.6761 -0.6195
-1.1350 2.6115 -0.6069
-1.2400 2.5354 -0.6098
-1.3338 2.4660 -0.6058
-1.4376 2.3907 -0.6081
-1.4793 2.3572 -0.5950
-1.5231 2.3276 -0.6055
-1.5492 2.3078 -0.6025
-1.5686 2.2945 -0.6063
-1.6112 2.2625 -0.6027
-1.6307 2.2479 -0.6006
-1.6452 2.2383 -0.6051
-1.6622 2.2255 -0.6036
-1.6778 2.2140 -0.6029
-1.6930 2.2025 -0.6013
-1.7077 2.1911 -0.5988
-1.7186 2.1842 -0.6032
-1.7318 2.1741 -0.6011
-1.7523 2.1605 -0.6071
-1.7770 2.1397 -0.5955
-1.7936 2.1293 -0.6026
-1.8035 2.1212 -0.5990
-1.8114 2.1159 -0.6008
-1.8198 2.1095 -0.5998
-1.8264 2.1057 -0.6045
0.8623 3.8723 0.6942
0.7827 3.8317 0.6108
0.7062 3.7927 0.5302
0.6526 3.7697 0.4563
0.5600 3.7181 0.3765
0.5480 3.7249 0.3119
0.5556 3.7465 0.2486
0.5033 3.7239 0.1774
0.5508 3.7762 0.1144
0.5380 3.7837 0.0443
0.4645 3.7450 -0.0277
0.3750 3.6932 -0.0972
0.4784 3.7915 -0.1720
0.4224 3.8241 -0.4768
0.3085 3.7509 -0.5355
0.2373 3.7117 -0.5991
0.0703 3.5913 -0.6329
-0.3825 3.2406 -0.6269
-0.6648 3.0240 -0.6318
-0.9104 2.8305 -0.6153
-1.3003 2.5279 -0.6079
-1.3548 2.4831 -0.5969
-1.4558 2.4061 -0.6002
-1.4778 2.3912 -0.6086
-1.5060 2.3692 -0.6079
-1.5335 2.3475 -0.6055
-1.5590 2.3271 -0.6029
-1.5808 2.3104 -0.6032
-1.6009 2.2950 -0.6038
-1.6196 2.2809 -0.6049
-1.6382 2.2663 -0.6040
-1.6558 2.2524 -0.6028
-1.6729 2.2387 -0.6007
-1.6847 2.2313 -0.6073
-1.7001 2.2189 -0.6051
-1.7291 2.1949 -0.5988
-1.7400 2.1872 -0.6017
-1.7514 2.1785 -0.6021
-1.7617 2.1710 -0.6038
-1.7729 2.1619 -0.6018
-1.7834 2.1534 -0.6002
-1.8005 2.1415 -0.6054
-1.8105 2.1327 -0.6009
-1.8177 2.1282 -0.6052
-1.8257 2.1221 -0.6056
0.7871 3.9133 0.7054
0.7316 3.8889 0.6282
0.7203 3.8973 0.5624
0.6439 3.8567 0.4819
0.5907 3.8333 0.4078
0.5782 3.8410 0.3413
0.5660 3.8492 0.2737
0.4929 3.8099 0.1985
0.4410 3.7869 0.1272
0.4467 3.8096 0.0599
0.4530 3.8334 -0.0095
0.4801 3.8747 -0.0815
0.5471 3.9931 -0.3189
0.5416 4.0339 -0.4878
0.4592 3.9861 -0.5595
0.0070 3.6321 -0.6122
-0.3916 3.3109 -0.6243
-0.9197 2.8787 -0.6156
-1.1083 2.7201 -0.5969
-1.1709 2.6693 -0.5975
-1.2068 2.6442 -0.6128
-1.3092 2.5601 -0.6100
-1.3971 2.4867 -0.6033
-1.4605 2.4362 -0.6071
-1.4960 2.4054 -0.6002
-1.5230 2.3834 -0.6002
-1.5651 2.3515 -0.6090
-1.5920 2.3276 -0.6017
-1.6089 2.3153 -0.6071
-1.6479 2.2828 -0.6040
-1.6820 2.2542 -0.6011
-1.7120 2.2291 -0.5987
-1.7368 2.2096 -0.6012
-1.7495 2.1988 -0.5994
-1.7595 2.1916 -0.6029
-1.7701 2.1832 -0.6038
-1.7814 2.1733 -0.6008
-1.7916 2.1645 -0.5994
-1.8003 2.1581 -0.6017
-1.8176 2.1442 -0.6027
-1.8251 2.1390 -0.6060
-1.8332 2.1323 -0.6053
-1.8408 2.1261 -0.6053
0.7137 3.9540 0.7166
0.5969 3.8807 0.6233
0.6056 3.9052 0.5646
0.5730 3.8974 0.4948
0.5404 3.8896 0.4250
0.5078 3.8818 0.3553
0.4752 3.8740 0.2855
0.5017 3.9150 0.2226
0.4289 3.8742 0.1476
0.4155 3.8827 0.0784
0.4015 3.8911 0.0081
0.4076 3.9170 -0.0634
0.4133 3.9433 -0.1374
0.5589 4.1172 -0.3062
0.5924 4.1721 -0.3964
0.5779 4.1849 -0.4836
0.5635 4.1983 -0.5727
0.3435 4.0213 -0.6141
0.0514 3.7726 -0.6216
-0.1550 3.5994 -0.6359
-0.7237 3.1042 -0.6124
-1.2285 2.6686 -0.6054
-1.3146 2.5975 -0.6155
-1.4040 2.5186 -0.6079
-1.4304 2.4985 -0.6169
-1.5285 2.4113 -0.6070
-1.5539 2.3895 -0.6067
-1.5766 2.3703 -0.6078
-1.6205 2.3317 -0.6050
-1.6560 2.3018 -0.6071
-1.6747 2.2846 -0.6032
-1.6879 2.2749 -0.6085
-1.7207 2.2441 -0.5996
-1.7331 2.2340 -0.6014
-1.7470 2.2210 -0.5977
-1.7675 2.2054 -0.6046
-1.7789 2.1950 -0.6026
-1.7886 2.1871 -0.6041
-1.8073 2.1714 -0.6054
-1.8154 2.1654 -0.6086
-1.8255 2.1548 -0.6021
-1.8411 2.1419 -0.6037
0.6949 4.0569 0.6816
0.4771 3.8969 0.5617
0.5030 3.9373 0.5074
0.4707 3.9295 0.4382
0.4191 3.9054 0.3655
0.3689 3.8822 0.2941
0.3736 3.9063 0.2306
0.3975 3.9478 0.1668
0.3272 3.9069 0.0934
0.3125 3.9152 0.0243
0.2981 3.9240 -0.0459
0.3022 3.9501 -0.1178
0.3759 4.0912 -0.3561
0.4035 4.1437 -0.4445
0.4782 4.2433 -0.5469
0.3935 4.1894 -0.6201
0.0834 3.9106 -0.6272
-0.1479 3.7041 -0.6371
-0.7308 3.1682 -0.6127
-1.0232 2.9048 -0.6177
-1.1004 2.8345 -0.6166
-1.1795 2.7600 -0.6077
-1.2431 2.7010 -0.6033
-1.3825 2.5747 -0.6033
-1.4202 2.5406 -0.6034
-1.4478 2.5179 -0.6110
-1.5115 2.4594 -0.6085
-1.5456 2.4256 -0.5992
-1.5878 2.3899 -0.6072
-1.6326 2.3476 -0.6020
-1.6657 2.3194 -0.6077
-1.6824 2.3042 -0.6075
-1.6978 2.2903 -0.6079
-1.7147 2.2735 -0.6030
-1.7296 2.2592 -0.6004
-1.7414 2.2495 -0.6034
-1.7539 2.2379 -0.6028
-1.7661 2.2265 -0.6014
-1.7766 2.2175 -0.6033
-1.7880 2.2063 -0.6004
-1.7973 2.1987 -0.6030
-1.8066 2.1906 -0.6041
-1.8156 2.1826 -0.6046
-1.8244 2.1746 -0.6045
-1.8329 2.1667 -0.6039
-1.8412 2.1588 -0.6027
-1.8478 2.1546 -0.6082
-1.8554 2.1474 -0.6073
0.4916 3.9665 0.7136
0.5991 4.0783 0.6868
0.5051 4.0178 0.5990
0.4531 3.9931 0.5245
0.3470 3.9202 0.4392
0.3885 3.9776 0.3861
0.3747 3.9866 0.3199
0.3796 4.0130 0.2552
0.3464 4.0050 0.1843
0.3133 3.9971 0.1134
0.2985 4.0064 0.0433
0.2722 4.0543 -0.1749
0.3886 4.2516 -0.4315
0.4177 4.3111 -0.5262
0.2913 4.2115 -0.5897
0.0822 4.0229 -0.6234
-0.2087 3.7425 -0.6166
-0.6044 3.3622 -0.6106
-0.8578 3.1204 -0.6121
-1.0466 2.9394 -0.6107
-1.1737 2.8212 -0.6205
-1.2576 2.7346 -0.6016
-1.2956 2.7021 -0.6127
-1.3894 2.6108 -0.6083
-1.4260 2.5764 -0.6098
-1.4641 2.5387 -0.6062
-1.5205 2.4867 -0.6117
-1.5496 2.4579 -0.6089
-1.5792 2.4274 -0.6022
-1.6019 2.4057 -0.6023
-1.6248 2.3829 -0.5996
-1.6457 2.3623 -0.5975
-1.6592 2.3523 -0.6064
-1.6773 2.3346 -0.6051
-1.6944 2.3176 -0.6034
-1.7072 2.3073 -0.6090
-1.7230 2.2912 -0.6061
-1.7361 2.2791 -0.6075
-1.7509 2.2633 -0.6025
-1.7632 2.2514 -0.6021
-1.7739 2.2421 -0.6048
-1.7842 2.2330 -0.6069
-1.7966 2.2188 -0.6002
-1.8052 2.2123 -0.6051
-1.8149 2.2027 -0.6042
-1.8230 2.1963 -0.6081
-1.8331 2.1844 -0.6015
-1.8417 2.1756 -0.5998
-1.8493 2.1688 -0.6010
-1.8556 2.1650 -0.6078
-1.8628 2.1583 -0.6082
0.5398 4.1073 0.7622
0.5273 4.1177 0.6982
0.4164 4.0392 0.6054
0.4222 4.0663 0.5464
0.3896 4.0585 0.4766
0.3025 3.9997 0.3958
0.2707 3.9921 0.3277
0.3285 4.0702 0.2727
0.2953 4.0622 0.2018
0.2804 4.0721 0.1324
0.2470 4.0641 0.0609
0.2504 4.0929 -0.0097
0.1983 4.0665 -0.0822
0.1297 4.0226 -0.1528
0.1485 4.0686 -0.2278
0.2247 4.1761 -0.3132
0.2880 4.2730 -0.4050
0.1907 4.1995 -0.4736
0.0816 4.1419 -0.6195
-0.2291 3.8247 -0.6090
-0.5489 3.5117 -0.6357
-0.8385 3.2165 -0.6271
-1.0579 2.9894 -0.6111
-1.1827 2.8679 -0.6233
-1.3148 2.7289 -0.6072
-1.4050 2.6373 -0.6053
-1.4776 2.5639 -0.6048
-1.5078 2.5339 -0.6061
-1.5376 2.5034 -0.6050
-1.6139 2.4250 -0.6010
-1.6350 2.4036 -0.6007
-1.6583 2.3776 -0.5938
-1.6700 2.3701 -0.6058
-1.6874 2.3525 -0.6056
-1.7015 2.3398 -0.6099
-1.7178 2.3225 -0.6075
-1.7340 2.3046 -0.6031
-1.7590 2.2805 -0.6062
-1.7717 2.2670 -0.6042
-1.7828 2.2561 -0.6052
-1.7941 2.2441 -0.6035
-1.8023 2.2386 -0.6112
-1.8135 2.2254 -0.6060
-1.8241 2.2130 -0.6010
-1.8322 2.2058 -0.6039
-1.8405 2.1980 -0.6052
-1.8484 2.1902 -0.6061
-1.8559 2.1832 -0.6075
-1.8638 2.1743 -0.6050
-1.8709 2.1673 -0.6055
0.4891 4.1640 0.7796
0.4562 4.1562 0.7093
0.4430 4.1670 0.6447
0.3905 4.1404 0.5686
0.3393 4.1148 0.4938
0.2887 4.0893 0.4202
0.2564 4.0816 0.3510
0.2240 4.0738 0.2817
0.2623 4.1378 0.2216
0.2111 4.1115 0.1483
0.1955 4.1218 0.0786
0.1621 4.1138 0.0071
0.1817 4.1623 -0.0645
0.0953 4.0978 -0.1359
0.2881 4.3691 -0.3073
0.3586 4.4815 -0.4042
0.2125 4.3510 -0.4690
0.1947 4.3650 -0.5545
-0.2510 3.9084 -0.6008
-0.8657 3.2611 -0.6188
-1.0536 3.0622 -0.6215
-1.1327 2.9776 -0.6203
-1.2076 2.8957 -0.6148
-1.3342 2.7559 -0.6017
-1.4922 2.5878 -0.6021
-1.5487 2.5293 -0.6061
-1.6004 2.4737 -0.6046
-1.6418 2.4310 -0.6080
-1.6615 2.4098 -0.6077
-1.6814 2.3874 -0.6044
-1.6969 2.3721 -0.6076
-1.7105 2.3597 -0.6130
-1.7297 2.3357 -0.6035
-1.7454 2.3173 -0.5992
-1.7586 2.3032 -0.5990
-1.7710 2.2899 -0.5989
-1.7807 2.2821 -0.6053
-1.7907 2.2730 -0.6094
-1.8126 2.2483 -0.6058
-1.8235 2.2347 -0.6007
-1.8328 2.2246 -0.6000
-1.8410 2.2165 -0.6019
-1.8495 2.2072 -0.6011
-1.8567 2.2012 -0.6054
-1.8639 2.1947 -0.6081
-1.8716 2.1855 -0.6057
-1.8788 2.1771 -0.6039
0.4056 4.2129 0.7266
0.3727 4.2051 0.6563
0.2854 4.1424 0.5705
0.2362 4.1173 0.4975
0.2388 4.1452 0.4372
0.2239 4.1555 0.3715
0.1570 4.1117 0.2959
0.1418 4.1219 0.2296
0.1427 4.1500 0.1639
0.1098 4.1422 0.0936
0.1106 4.1715 0.0247
0.1117 4.2021 -0.0466
0.1328 4.3212 -0.2774
0.0967 4.3126 -0.3546
0.0784 4.3253 -0.4352
-0.0442 4.2117 -0.4936
-0.0460 4.2442 -0.5772
-0.2044 4.0815 -0.6142
-0.4140 3.8490 -0.6211
-0.9733 3.2218 -0.6236
-1.3512 2.7868 -0.5984
-1.4636 2.6656 -0.6105
-1.5062 2.6136 -0.6005
-1.6335 2.4729 -0.6061
-1.6508 2.4561 -0.6124
-1.6717 2.4315 -0.6096
-1.6904 2.4099 -0.6083
-1.7089 2.3878 -0.6048
-1.7270 2.3651 -0.5991
-1.7388 2.3546 -0.6061
-1.7526 2.3393 -0.6064
-1.7800 2.3061 -0.6006
-1.7910 2.2946 -0.6027
-1.8008 2.2853 -0.6068
-1.8124 2.2705 -0.6026
-1.8229 2.2579 -0.6004
-1.8323 2.2474 -0.6006
-1.8424 2.2336 -0.5947
-1.8497 2.2280 -0.6010
-1.8569 2.2219 -0.6058
-1.8648 2.2130 -0.6058
-1.8722 2.2049 -0.6064
-1.8799 2.1948 -0.6029
-1.8861 2.1902 -0.6084
0.2680 4.2054 0.6561
0.2714 4.2352 0.5980
0.2388 4.2274 0.5282
0.1890 4.2010 0.4543
0.1566 4.1933 0.3851
0.1243 4.1855 0.3159
0.1593 4.2531 0.2568
0.0920 4.2068 0.1813
0.0432 4.1806 0.1096
0.0263 4.1910 0.0406
0.0095 4.2022 -0.0295
0.0763 4.3136 -0.1024
0.1132 4.3922 -0.1811
0.1523 4.4759 -0.2656
0.1534 4.5150 -0.3510
0.0774 4.4580 -0.4258
0.1162 4.5469 -0.5229
0.0025 4.4401 -0.5861
-0.1361 4.2970 -0.6343
-0.4491 3.9147 -0.6093
-0.7350 3.5857 -0.6319
-1.0000 3.2643 -0.6156
-1.3049 2.8985 -0.6060
-1.3690 2.8174 -0.5945
-1.3951 2.7947 -0.6131
-1.4813 2.6892 -0.6055
-1.5166 2.6465 -0.6036
-1.6012 2.5459 -0.6033
-1.6417 2.5020 -0.6125
-1.6836 2.4505 -0.6085
-1.7202 2.4049 -0.6036
-1.7366 2.3846 -0.6013
-1.7508 2.3680 -0.6020
-1.7660 2.3479 -0.5974
-1.7775 2.3360 -0.6011
-1.7903 2.3197 -0.5987
-1.8010 2.3079 -0.6009
-1.8117 2.2955 -0.6014
-1.8220 2.2832 -0.6011
-1.8317 2.2716 -0.6011
-1.8411 2.2602 -0.6004
-1.8492 2.2523 -0.6042
-1.8572 2.2438 -0.6065
-1.8653 2.2340 -0.6061
-1.8737 2.2221 -0.6017
-1.8805 2.2159 -0.6057
-1.8878 2.2062 -0.6035
-1.8942 2.2001 -0.6068
0.3082 4.3588 0.7034
0.2385 4.3107 0.6206
0.1885 4.2837 0.5454
0.1391 4.2568 0.4714
0.1399 4.2871 0.4096
0.1241 4.2990 0.3426
0.0742 4.2714 0.2689
0.0743 4.3028 0.2029
0.0247 4.2752 0.1298
-0.0397 4.2291 0.0570
-0.0873 4.2027 -0.0132
-0.0432 4.2911 -0.0832
-0.0769 4.2830 -0.1553
0.0214 4.4459 -0.2393
0.0946 4.5808 -0.3309
0.1562 4.7048 -0.4299
0.1162 4.6952 -0.5156
-0.4388 4.0469 -0.6141
-0.7115 3.7214 -0.6480
-1.0127 3.3291 -0.6159
-1.1867 3.1092 -0.6116
-1.3035 2.9666 -0.6193
-1.4271 2.8004 -0.5951
-1.4830 2.7420 -0.6195
-1.5567 2.6444 -0.6085
-1.5881 2.6028 -0.6035
-1.6125 2.5730 -0.6053
-1.6559 2.5203 -0.6088
-1.6971 2.4668 -0.6045
-1.7178 2.4372 -0.5970
-1.7295 2.4276 -0.6076
-1.7592 2.3904 -0.6077
-1.7750 2.3675 -0.6010
-1.7869 2.3538 -0.6033
-1.7986 2.3394 -0.6039
-1.8104 2.3235 -0.6018
-1.8308 2.2989 -0.6035
-1.8401 2.2878 -0.6047
-1.8501 2.2731 -0.6002
-1.8582 2.2643 -0.6031
-1.8661 2.2556 -0.6055
-1.8740 2.2455 -0.6052
-1.8817 2.2355 -0.6043
-1.8962 2.2156 -0.6007
0.2567 4.4164 0.7210
0.2055 4.3879 0.6437
0.0889 4.2822 0.5479
0.1221 4.3517 0.4973
0.1230 4.3845 0.4350
0.0730 4.3562 0.3601
0.0399 4.3483 0.2892
0.0067 4.3404 0.2182
-0.0264 4.3324 0.1473
-0.0440 4.3445 0.0775
-0.0927 4.3166 0.0055
-0.1108 4.3285 -0.0654
-0.1134 4.3619 -0.1382
-0.0512 4.4850 -0.2189
-0.0755 4.5783 -0.4665
-0.2147 4.4650 -0.6066
-0.4756 4.1174 -0.6018
-0.7606 3.7548 -0.6301
-1.0401 3.3737 -0.6079
-1.3379 2.9770 -0.6023
-1.4305 2.8565 -0.6062
-1.4986 2.7722 -0.6178
-1.6234 2.6022 -0.6083
-1.6462 2.5727 -0.6094
-1.6681 2.5434 -0.6089
-1.7093 2.4862 -0.6034
-1.7239 2.4699 -0.6094
-1.7700 2.4079 -0.6076
-1.7846 2.3868 -0.6037
-1.7965 2.3719 -0.6055
-1.8080 2.3571 -0.6064
-1.8196 2.3409 -0.6046
-1.8311 2.3233 -0.5999
-1.8395 2.3156 -0.6067
-1.8502 2.2982 -0.6003
-1.8590 2.2869 -0.6009
-1.8744 2.2704 -0.6087
-1.8825 2.2586 -0.6065
-1.8903 2.2468 -0.6035
-1.8968 2.2403 -0.6078
-1.9037 2.2309 -0.6071
-1.9099 2.2244 -0.6106
0.1898 4.4880 0.6733
-0.0061 4.2808 0.5503
-0.0073 4.3105 0.4922
-0.0238 4.3219 0.4284
-0.0408 4.3332 0.3636
-0.0577 4.3453 0.2978
-0.0750 4.3573 0.2309
-0.1076 4.3495 0.1612
-0.1692 4.3025 0.0889
-0.1586 4.3534 0.0223
-0.1319 4.4287 -0.0476
-0.1198 4.4857 -0.1218
-0.1229 4.5231 -0.1987
-0.1098 4.5855 -0.2804
-0.4419 4.3025 -0.6152
-0.8085 3.7885 -0.6127
-1.2159 3.2186 -0.6122
-1.3801 2.9962 -0.6256
-1.5559 2.7395 -0.6056
-1.5868 2.6955 -0.6041
-1.6056 2.6763 -0.6175
-1.6367 2.6279 -0.6081
-1.6569 2.6026 -0.6135
-1.6846 2.5571 -0.6011
-1.7028 2.5330 -0.6037
-1.7183 2.5146 -0.6098
-1.7555 2.4566 -0.5987
-1.7685 2.4411 -0.6035
-1.7823 2.4217 -0.6034
-1.7949 2.4047 -0.6047
-1.8064 2.3903 -0.6075
-1.8190 2.3704 -0.6034
-1.8285 2.3601 -0.6090
-1.8396 2.3428 -0.6057
-1.8495 2.3287 -0.6051
-1.8677 2.3023 -0.6037
-1.8766 2.2878 -0.5997
-1.8838 2.2809 -0.6055
-1.8914 2.2703 -0.6055
-1.8991 2.2568 -0.6005
-1.9057 2.2493 -0.6037
-1.9121 2.2412 -0.6054
0.0865 4.4809 0.6726
0.0377 4.4526 0.5970
-0.0262 4.4040 0.5178
-0.0582 4.3963 0.4492
-0.0450 4.4495 0.3913
-0.0927 4.4214 0.3179
-0.1253 4.4136 0.2481
-0.1286 4.4469 0.1823
-0.1764 4.4180 0.1099
-0.2093 4.4101 0.0396
-0.2421 4.4023 -0.0307
-0.1886 4.5234 -0.1031
-0.1616 4.6086 -0.1811
-0.1535 4.7165 -0.3469
-0.6342 4.1654 -0.6228
-0.8634 3.8084 -0.5919
-1.1266 3.4418 -0.6308
-1.5009 2.8737 -0.6060
-1.5699 2.7716 -0.6059
-1.5976 2.7324 -0.6089
-1.6941 2.5889 -0.6076
-1.7156 2.5542 -0.6028
-1.7345 2.5247 -0.6001
-1.7478 2.5102 -0.6088
-1.7659 2.4794 -0.6018
-1.7794 2.4610 -0.6046
-1.7927 2.4419 -0.6056
-1.8290 2.3878 -0.6048
-1.8397 2.3716 -0.6043
-1.8488 2.3611 -0.6094
-1.8590 2.3443 -0.6063
-1.8686 2.3284 -0.6033
-1.8774 2.3141 -0.6013
-1.8854 2.3031 -0.6026
-1.8927 2.2946 -0.6065
-1.9004 2.2814 -0.6035
-1.9141 2.2622 -0.6052
-1.9205 2.2523 -0.6048
-1.9267 2.2440 -0.6061
0.0859 4.6044 0.7089
0.0029 4.5298 0.6196
-0.0604 4.4802 0.5396
-0.1077 4.4517 0.4661
-0.0957 4.5062 0.4086
-0.1574 4.4570 0.3319
-0.1898 4.4493 0.2627
-0.1942 4.4826 0.1976
-0.2408 4.4543 0.1258
-0.2459 4.4882 0.0579
-0.2653 4.5016 -0.0126
-0.2987 4.4936 -0.0841
-0.3321 4.4856 -0.1556
-0.2112 4.7812 -0.3271
-0.3014 4.7369 -0.4835
-0.6102 4.3487 -0.6371
-0.9672 3.7745 -0.6125
-1.1508 3.4952 -0.6256
-1.3041 3.2529 -0.6220
-1.5176 2.9078 -0.6043
-1.5725 2.8336 -0.6235
-1.6199 2.7425 -0.5962
-1.6440 2.7071 -0.5998
-1.6697 2.6649 -0.5968
-1.6847 2.6504 -0.6111
-1.7080 2.6104 -0.6055
-1.7292 2.5741 -0.6004
-1.7481 2.5422 -0.5967
-1.7626 2.5223 -0.6012
-1.7783 2.4966 -0.5995
-1.7917 2.4770 -0.6017
-1.8062 2.4516 -0.5974
-1.8183 2.4331 -0.5981
-1.8292 2.4180 -0.6012
-1.8401 2.4013 -0.6018
-1.8502 2.3864 -0.6033
-1.8593 2.3748 -0.6076
-1.8693 2.3568 -0.6037
-1.8777 2.3454 -0.6066
-1.8866 2.3292 -0.6029
-1.8947 2.3155 -0.6014
-1.9025 2.3019 -0.5991
-1.9097 2.2900 -0.5982
-1.9162 2.2830 -0.6032
-1.9228 2.2728 -0.6034
-1.9289 2.2659 -0.6075
0.0012 4.6168 0.7136
-0.0162 4.6312 0.6485
-0.1251 4.5148 0.5517
-0.1463 4.5629 0.4259
-0.1498 4.5992 0.3625
-0.2396 4.5051 0.2798
-0.2584 4.5184 0.2127
-0.2639 4.5534 0.1463
-0.2970 4.5454 0.0754
-0.3168 4.5593 0.0050
-0.3502 4.5513 -0.0665
-0.3703 4.5658 -0.1386
-0.3909 4.5803 -0.2120
-0.4627 4.5058 -0.2792
-0.4464 4.5863 -0.3598
-0.4552 4.6246 -0.4396
-0.6575 4.3043 -0.4624
-0.6588 4.3532 -0.5394
-0.6903 4.3457 -0.6070
-1.0057 3.8176 -0.5994
-1.4469 3.0908 -0.6069
-1.5286 2.9575 -0.6103
-1.5948 2.8497 -0.6131
-1.6761 2.6843 -0.5671
-1.6925 2.6650 -0.5789
-1.7044 2.6581 -0.5982
-1.7390 2.6071 -0.6079
-1.7739 2.5463 -0.6036
-1.7893 2.5200 -0.6023
-1.8037 2.4948 -0.6004
-1.8153 2.4791 -0.6057
-1.8263 2.4644 -0.6111
-1.8395 2.4378 -0.6039
-1.8501 2.4208 -0.6048
-1.8614 2.3979 -0.5986
-1.8700 2.3878 -0.6048
-1.8798 2.3685 -0.6001
-1.8882 2.3552 -0.6012
-1.8959 2.3453 -0.6055
-1.9046 2.3246 -0.5961
-1.9117 2.3141 -0.5980
-1.9185 2.3052 -0.6014
-1.9316 2.2827 -0.6003
-1.9376 2.2732 -0.6012
-1.9434 2.2670 -0.6061
-0.1389 4.5438 0.6940
-0.1131 4.6215 0.6486
-0.2421 4.4684 0.5447
-0.2202 4.5418 0.4956
-0.2109 4.5981 0.4393
-0.2435 4.5903 0.3695
-0.2761 4.5825 0.2997
-0.3218 4.5532 0.2276
-0.3613 4.5804 0.0916
-0.3683 4.6169 0.0227
-0.3061 4.7765 -0.0480
-0.3345 4.8371 -0.2035
-0.9022 4.1142 -0.5917
-1.2777 3.4714 -0.6164
-1.5492 2.9857 -0.6046
-1.6190 2.8592 -0.5994
-1.6947 2.6964 -0.5576
-1.7100 2.6786 -0.5705
-1.7233 2.6663 -0.5861
-1.7526 2.6293 -0.6066
-1.7692 2.6013 -0.6081
-1.7870 2.5654 -0.6017
-1.7985 2.5527 -0.6123
-1.8281 2.4924 -0.6006
-1.8407 2.4677 -0.5972
-1.8503 2.4563 -0.6049
-1.8601 2.4423 -0.6095
-1.8712 2.4180 -0.6027
-1.8800 2.4060 -0.6074
-1.8891 2.3888 -0.6059
-1.8981 2.3692 -0.6006
-1.9059 2.3565 -0.6020
-1.9133 2.3448 -0.6039
-1.9341 2.3065 -0.6014
-1.9401 2.3001 -0.6073
-1.9462 2.2862 -0.6027
-1.9519 2.2773 -0.6044
