ply
format ascii 1.0
element vertex 2094
property float x
property float y
property float z
end_header
-2.2700 0.9921 -0.5721
-2.2560 1.0070 -0.5709
-2.2450 1.0157 -0.5761
-2.2200 1.0430 -0.5721
-2.1997 1.0619 -0.5759
-2.1887 1.0751 -0.5717
-2.1787 1.0868 -0.5687
-2.1629 1.0987 -0.5774
-2.4750 1.1231 0.1664
-2.4735 1.1200 0.1572
-2.4691 1.1194 0.1465
-2.4674 1.1163 0.1370
-2.4620 1.1164 0.1258
-2.4602 1.1133 0.1160
-2.4610 1.1078 0.1068
-2.4563 1.1072 0.0956
-2.4533 1.1049 0.0849
-2.4502 1.1026 0.0741
-2.4488 1.0987 0.0634
-2.4464 1.0956 0.0524
-2.4431 1.0934 0.0410
-2.4397 1.0911 0.0295
-2.4355 1.0896 0.0177
-2.4320 1.0874 0.0059
-2.4276 1.0859 -0.0062
-2.4209 1.0869 -0.0183
-2.4210 1.0806 -0.0305
-2.4186 1.0767 -0.0430
-2.4162 1.0729 -0.0557
-2.4122 1.0706 -0.0686
-2.4116 1.0644 -0.0821
-2.4074 1.0621 -0.0954
-2.4017 1.0615 -0.1084
-2.3974 1.0593 -0.1220
-2.3949 1.0546 -0.1362
-2.3923 1.0500 -0.1508
-2.3889 1.0461 -0.1655
-2.3842 1.0439 -0.1798
-2.3812 1.0393 -0.1952
-2.3757 1.0378 -0.2095
-2.3713 1.0348 -0.2247
-2.3668 1.0318 -0.2401
-2.3638 1.0264 -0.2569
-2.3601 1.0218 -0.2737
-2.3542 1.0204 -0.2888
-2.3514 1.0141 -0.3071
-2.3483 1.0079 -0.3257
-2.3455 1.0009 -0.3452
-2.3368 1.0035 -0.3585
-2.3328 0.9981 -0.3775
-2.3295 0.9912 -0.3980
-2.3260 0.9842 -0.4190
-2.3279 0.9668 -0.4491
-2.3149 0.9460 -0.5172
-2.3079 0.9438 -0.5363
-2.3000 0.9432 -0.5539
-2.2904 0.9467 -0.5675
-2.2774 0.9580 -0.5725
-2.2638 0.9717 -0.5742
-2.2375 1.0000 -0.5741
-2.2257 1.0121 -0.5751
-2.2138 1.0258 -0.5734
-2.2028 1.0378 -0.5728
-2.1906 1.0547 -0.5654
-2.1729 1.0709 -0.5708
-2.1562 1.0870 -0.5742
-2.1486 1.0935 -0.5775
-2.4691 1.1129 0.1691
-2.4638 1.1130 0.1582
-2.4603 1.1115 0.1481
-2.4577 1.1091 0.1383
-2.4551 1.1068 0.1283
-2.4532 1.1036 0.1185
-2.4477 1.1037 0.1072
-2.4492 1.0972 0.0982
-2.4462 1.0949 0.0876
-2.4414 1.0942 0.0763
-2.4358 1.0943 0.0648
-2.4384 1.0862 0.0550
-2.4351 1.0838 0.0437
-2.4309 1.0823 0.0321
-2.4266 1.0808 0.0204
-2.4270 1.0743 0.0090
-2.4203 1.0753 -0.0032
-2.4151 1.0747 -0.0153
-2.4114 1.0723 -0.0274
-2.4112 1.0659 -0.0399
-2.4046 1.0596 -0.0653
-2.3985 1.0597 -0.0780
-2.3943 1.0574 -0.0910
-2.3914 1.0534 -0.1044
-2.3903 1.0470 -0.1187
-2.3897 1.0397 -0.1335
-2.3832 1.0399 -0.1468
-2.3786 1.0376 -0.1608
-2.3745 1.0345 -0.1753
-2.3679 1.0346 -0.1887
-2.3619 1.0340 -0.2025
-2.3551 1.0147 -0.2526
-2.3498 1.0125 -0.2679
-2.3434 1.0118 -0.2825
-2.3415 1.0038 -0.3015
-2.3354 1.0023 -0.3169
-2.3336 0.9935 -0.3372
-2.3283 0.9904 -0.3542
-2.3224 0.9881 -0.3708
-2.3173 0.9842 -0.3887
-2.3151 0.9745 -0.4114
-2.3113 0.9673 -0.4326
-2.3040 0.9343 -0.5094
-2.2973 0.9313 -0.5290
-2.2895 0.9307 -0.5465
-2.2813 0.9309 -0.5632
-2.2699 0.9393 -0.5717
-2.2425 0.9700 -0.5720
-2.2311 0.9809 -0.5758
-2.2186 0.9958 -0.5742
-2.2074 1.0082 -0.5746
-2.1963 1.0215 -0.5733
-2.1671 1.0547 -0.5729
-2.1503 1.0722 -0.5756
-2.1421 1.0821 -0.5744
-2.4570 1.1036 0.1605
-2.4544 1.1012 0.1509
-2.4490 1.1013 0.1399
-2.4473 1.0980 0.1303
-2.4471 1.0930 0.1213
-2.4425 1.0923 0.1104
-2.4388 1.0908 0.0997
-2.4358 1.0883 0.0892
-2.4327 1.0859 0.0785
-2.4296 1.0835 0.0677
-2.4256 1.0820 0.0565
-2.4247 1.0770 0.0459
-2.4205 1.0754 0.0344
-2.4186 1.0713 0.0232
-2.4159 1.0680 0.0116
-2.4130 1.0648 -0.0002
-2.4085 1.0632 -0.0122
-2.4040 1.0617 -0.0244
-2.4023 1.0567 -0.0367
-2.3970 1.0560 -0.0491
-2.3944 1.0519 -0.0618
-2.3916 1.0478 -0.0748
-2.3812 1.0456 -0.1005
-2.3795 1.0398 -0.1144
-2.3757 1.0366 -0.1281
-2.3730 1.0317 -0.1424
-2.3684 1.0293 -0.1562
-2.3649 1.0252 -0.1708
-2.3595 1.0237 -0.1847
-2.3535 1.0230 -0.1985
-2.3508 1.0173 -0.2143
-2.3474 1.0124 -0.2301
-2.3438 1.0075 -0.2463
-2.3353 0.9993 -0.2785
-2.3308 0.9953 -0.2950
-2.3281 0.9879 -0.3138
-2.3229 0.9847 -0.3304
-2.3203 0.9764 -0.3505
-2.3139 0.9749 -0.3665
-2.3070 0.9743 -0.3820
-2.3026 0.9685 -0.4013
-2.3001 0.9586 -0.4242
-2.3007 0.9411 -0.4537
-2.2944 0.9379 -0.4725
-2.2862 0.9390 -0.4878
-2.2723 0.9152 -0.5590
-2.2622 0.9204 -0.5708
-2.2481 0.9375 -0.5704
-2.2358 0.9504 -0.5734
-2.2120 0.9777 -0.5751
-2.2009 0.9905 -0.5758
-2.1904 1.0025 -0.5766
-2.1699 1.0289 -0.5731
-2.1516 1.0519 -0.5708
-2.1359 1.0690 -0.5736
-2.4449 1.0944 0.1519
-2.4413 1.0928 0.1419
-2.4386 1.0903 0.1320
-2.4350 1.0887 0.1217
-2.4339 1.0844 0.1122
-2.4293 1.0837 0.1014
-2.4271 1.0803 0.0912
-2.4224 1.0796 0.0802
-2.4217 1.0744 0.0701
-2.4177 1.0728 0.0590
-2.4152 1.0695 0.0482
-2.4119 1.0670 0.0370
-2.4077 1.0654 0.0255
-2.4012 1.0664 0.0136
-2.3991 1.0553 -0.0093
-2.3960 1.0520 -0.0213
-2.3915 1.0504 -0.0335
-2.3903 1.0444 -0.0460
-2.3863 1.0419 -0.0585
-2.3780 1.0370 -0.0841
-2.3750 1.0328 -0.0974
-2.3713 1.0295 -0.1108
-2.3656 1.0288 -0.1239
-2.3617 1.0254 -0.1376
-2.3595 1.0195 -0.1522
-2.3554 1.0162 -0.1664
-2.3528 1.0102 -0.1817
-2.3457 1.0113 -0.1948
-2.3435 1.0045 -0.2109
-2.3379 1.0029 -0.2252
-2.3333 0.9996 -0.2404
-2.3285 0.9963 -0.2558
-2.3237 0.9930 -0.2714
-2.3198 0.9880 -0.2882
-2.3157 0.9829 -0.3052
-2.3136 0.9736 -0.3252
-2.3074 0.9720 -0.3408
-2.3033 0.9661 -0.3593
-2.2957 0.9672 -0.3735
-2.2929 0.9578 -0.3950
-2.2867 0.9554 -0.4119
-2.2876 0.9365 -0.4417
-2.2843 0.9263 -0.4657
-2.2776 0.9042 -0.5169
-2.2698 0.9035 -0.5342
-2.2626 0.9012 -0.5533
-2.2548 0.9005 -0.5708
-2.2293 0.9295 -0.5755
-2.2173 0.9436 -0.5771
-2.2057 0.9576 -0.5778
-2.1940 0.9734 -0.5759
-2.1844 0.9831 -0.5798
-2.1645 1.0085 -0.5789
-2.1542 1.0251 -0.5727
-2.1456 1.0356 -0.5729
-2.1377 1.0444 -0.5748
-2.1300 1.0532 -0.5762
-2.1229 1.0603 -0.5793
-2.4399 1.0833 0.1551
-2.4337 1.0843 0.1438
-2.4318 1.0808 0.1344
-2.4290 1.0783 0.1245
-2.4253 1.0766 0.1141
-2.4216 1.0749 0.1036
-2.4186 1.0724 0.0933
-2.4163 1.0689 0.0830
-2.4140 1.0655 0.0726
-2.4100 1.0638 0.0615
-2.4059 1.0621 0.0504
-2.4055 1.0560 0.0399
-2.3983 1.0579 0.0280
-2.3970 1.0527 0.0169
-2.3920 1.0519 0.0051
-2.3898 1.0476 -0.0065
-2.3860 1.0450 -0.0184
-2.3829 1.0416 -0.0304
-2.3803 1.0373 -0.0427
-2.3763 1.0347 -0.0551
-2.3735 1.0304 -0.0679
-2.3680 1.0297 -0.0804
-2.3663 1.0235 -0.0938
-2.3613 1.0219 -0.1068
-2.3557 1.0212 -0.1197
-2.3512 1.0186 -0.1331
-2.3490 1.0125 -0.1475
-2.3454 1.0082 -0.1618
-2.3374 1.0005 -0.1908
-2.3335 0.9962 -0.2058
-2.3305 0.9901 -0.2218
-2.3244 0.9894 -0.2358
-2.3191 0.9869 -0.2507
-2.3157 0.9808 -0.2675
-2.3126 0.9738 -0.2851
-2.3066 0.9722 -0.3002
-2.3019 0.9679 -0.3169
-2.2970 0.9637 -0.3339
-2.2928 0.9576 -0.3522
-2.2901 0.9480 -0.3733
-2.2821 0.9500 -0.3870
-2.2752 0.9493 -0.4024
-2.2719 0.9397 -0.4246
-2.2726 0.9193 -0.4555
-2.2414 0.8981 -0.5544
-2.2323 0.9019 -0.5674
-2.2215 0.9119 -0.5741
-2.2092 0.9281 -0.5741
-2.1983 0.9408 -0.5768
-2.1773 0.9669 -0.5791
-2.1662 0.9849 -0.5738
-2.1579 0.9922 -0.5796
-2.1475 1.0110 -0.5714
-2.1394 1.0200 -0.5740
-2.1317 1.0282 -0.5771
-2.1241 1.0372 -0.5787
-2.4287 1.0732 0.1469
-2.4242 1.0724 0.1364
-2.4214 1.0697 0.1266
-2.4169 1.0690 0.1159
-2.4147 1.0654 0.1061
-2.4093 1.0655 0.0950
-2.4078 1.0611 0.0851
-2.4039 1.0593 0.0743
-2.4030 1.0539 0.0642
-2.3982 1.0532 0.0529
-2.3985 1.0459 0.0427
-2.3921 1.0470 0.0309
-2.3871 1.0462 0.0193
-2.3849 1.0417 0.0080
-2.3819 1.0382 -0.0036
-2.3775 1.0365 -0.0154
-2.3736 1.0339 -0.0274
-2.3697 1.0313 -0.0395
-2.3690 1.0241 -0.0520
-2.3630 1.0242 -0.0643
-2.3588 1.0216 -0.0769
-2.3540 1.0199 -0.0895
-2.3515 1.0146 -0.1029
-2.3477 1.0110 -0.1162
-2.3420 1.0103 -0.1290
-2.3386 1.0059 -0.1429
-2.3356 1.0005 -0.1572
-2.3330 0.9942 -0.1722
-2.3281 0.9916 -0.1862
-2.3247 0.9863 -0.2014
-2.3197 0.9837 -0.2159
-2.3126 0.9848 -0.2290
-2.3108 0.9758 -0.2465
-2.3064 0.9714 -0.2623
-2.3014 0.9679 -0.2779
-2.2968 0.9635 -0.2942
-2.2916 0.9600 -0.3103
-2.2868 0.9556 -0.3271
-2.2814 0.9521 -0.3436
-2.2722 0.9406 -0.3802
-2.2672 0.9353 -0.3987
-2.2648 0.9227 -0.4227
-2.2624 0.9091 -0.4481
-2.2580 0.9002 -0.4708
-2.2516 0.8968 -0.4895
-2.2453 0.8924 -0.5093
-2.2383 0.8899 -0.5277
-2.2241 0.8848 -0.5649
-2.2129 0.8969 -0.5701
-2.2013 0.9117 -0.5719
-2.1905 0.9247 -0.5748
-2.1812 0.9331 -0.5816
-2.1701 0.9506 -0.5784
-2.1598 0.9663 -0.5762
-2.1506 0.9784 -0.5771
-2.1413 0.9931 -0.5743
-2.1333 1.0024 -0.5771
-2.1250 1.0153 -0.5750
-2.4124 1.0688 0.1365
-2.4138 1.0613 0.1286
-2.4101 1.0596 0.1183
-2.4055 1.0587 0.1076
-2.4009 1.0579 0.0969
-2.3979 1.0552 0.0866
-2.3955 1.0516 0.0764
-2.3930 1.0479 0.0661
-2.3890 1.0462 0.0551
-2.3864 1.0425 0.0444
-2.3858 1.0360 0.0338
-2.3808 1.0352 0.0223
-2.3772 1.0325 0.0108
-2.3707 1.0336 -0.0010
-2.3670 1.0310 -0.0126
-2.3652 1.0254 -0.0244
-2.3626 1.0208 -0.0364
-2.3630 1.0115 -0.0489
-2.3551 1.0145 -0.0611
-2.3521 1.0100 -0.0738
-2.3473 1.0082 -0.0864
-2.3414 0.9982 -0.1131
-2.3357 0.9974 -0.1260
-2.3306 0.9957 -0.1392
-2.3281 0.9892 -0.1537
-2.3233 0.9866 -0.1675
-2.3190 0.9830 -0.1817
-2.3126 0.9831 -0.1949
-2.3081 0.9795 -0.2094
-2.3049 0.9731 -0.2252
-2.3015 0.9667 -0.2414
-2.2976 0.9612 -0.2576
-2.2879 0.9531 -0.2893
-2.2819 0.9514 -0.3043
-2.2787 0.9431 -0.3230
-2.2717 0.9433 -0.3372
-2.2681 0.9350 -0.3566
-2.2632 0.9296 -0.3747
-2.2571 0.9270 -0.3912
-2.2519 0.9215 -0.4098
-2.2354 0.8810 -0.5022
-2.2269 0.8562 -0.5558
-2.2185 0.8573 -0.5716
-2.2059 0.8753 -0.5720
-2.1940 0.8924 -0.5724
-2.1836 0.9048 -0.5764
-2.1725 0.9218 -0.5751
-2.1531 0.9484 -0.5775
-2.1434 0.9645 -0.5747
-2.1347 0.9768 -0.5751
-2.1187 0.9987 -0.5772
-2.1108 1.0119 -0.5746
-2.4075 1.0577 0.1396
-2.4006 1.0598 0.1281
-2.4009 1.0531 0.1197
-2.3948 1.0542 0.1085
-2.3942 1.0485 0.0994
-2.3919 1.0448 0.0894
-2.3887 1.0420 0.0790
-2.3854 1.0392 0.0685
-2.3814 1.0374 0.0576
-2.3744 1.0395 0.0459
-2.3746 1.0319 0.0358
-2.3703 1.0301 0.0245
-2.3667 1.0273 0.0133
-2.3631 1.0246 0.0018
-2.3600 1.0208 -0.0097
-2.3562 1.0181 -0.0214
-2.3535 1.0134 -0.0333
-2.3495 1.0106 -0.0454
-2.3473 1.0050 -0.0579
-2.3419 1.0042 -0.0701
-2.3382 1.0004 -0.0828
-2.3350 0.9957 -0.0959
-2.3306 0.9930 -0.1088
-2.3256 0.9912 -0.1217
-2.3226 0.9856 -0.1356
-2.3200 0.9790 -0.1500
-2.3147 0.9772 -0.1634
-2.3094 0.9755 -0.1770
-2.3035 0.9747 -0.1903
-2.2990 0.9710 -0.2047
-2.2949 0.9663 -0.2197
-2.2924 0.9578 -0.2365
-2.2871 0.9551 -0.2512
-2.2826 0.9504 -0.2670
-2.2780 0.9458 -0.2830
-2.2728 0.9421 -0.2988
-2.2675 0.9384 -0.3148
-2.2625 0.9338 -0.3315
-2.2567 0.9311 -0.3473
-2.2508 0.9284 -0.3633
-2.2471 0.9189 -0.3838
-2.2420 0.9133 -0.4022
-2.2388 0.9010 -0.4256
-2.2312 0.8774 -0.4736
-2.1968 0.8621 -0.5663
-2.1872 0.8700 -0.5754
-2.1763 0.8856 -0.5770
-2.1648 0.9059 -0.5732
-2.1454 0.9351 -0.5740
-2.1283 0.9584 -0.5778
-2.1121 0.9837 -0.5772
-2.1046 0.9954 -0.5769
-2.3964 1.0477 0.1315
-2.3919 1.0469 0.1211
-2.3874 1.0460 0.1106
-2.3829 1.0452 0.1001
-2.3821 1.0393 0.0909
-2.3772 1.0316 0.0706
-2.3731 1.0298 0.0598
-2.3691 1.0279 0.0489
-2.3649 1.0261 0.0379
-2.3628 1.0213 0.0272
-2.3591 1.0184 0.0160
-2.3542 1.0176 0.0045
-2.3517 1.0128 -0.0069
-2.3479 1.0099 -0.0185
-2.3394 1.0053 -0.0422
-2.3276 0.9958 -0.0790
-2.3256 0.9890 -0.0921
-2.3206 0.9872 -0.1047
-2.3177 0.9814 -0.1182
-2.3121 0.9806 -0.1309
-2.3111 0.9708 -0.1458
-2.3028 0.9749 -0.1576
-2.2990 0.9702 -0.1717
-2.2970 0.9614 -0.1873
-2.2929 0.9566 -0.2021
-2.2873 0.9548 -0.2160
-2.2834 0.9491 -0.2315
-2.2781 0.9463 -0.2461
-2.2681 0.9387 -0.2768
-2.2607 0.9233 -0.3123
-2.2524 0.9274 -0.3242
-2.2480 0.9207 -0.3421
-2.2427 0.9159 -0.3592
-2.2380 0.9092 -0.3777
-2.2331 0.9025 -0.3966
-2.2274 0.8977 -0.4146
-2.2154 0.8619 -0.4861
-2.2084 0.8591 -0.5041
-2.2022 0.8534 -0.5246
-2.1957 0.8477 -0.5454
-2.1879 0.8479 -0.5614
-2.1779 0.8590 -0.5680
-2.1692 0.8641 -0.5793
-2.1590 0.8791 -0.5813
-2.1479 0.9019 -0.5750
-2.1383 0.9178 -0.5742
-2.1299 0.9288 -0.5777
-2.1217 0.9398 -0.5805
-2.1132 0.9557 -0.5776
-2.1054 0.9686 -0.5771
-2.0983 0.9776 -0.5803
0.4772 -1.5638 0.7420
0.2625 -1.3514 0.6858
-0.0181 -1.1203 0.6235
-0.3617 -0.8331 0.5463
-0.5765 -0.6164 0.4889
-0.6538 -0.5575 0.4729
-0.7450 -0.4563 0.4464
-0.8051 -0.4231 0.4370
-0.8928 -0.3064 0.4068
-0.9588 -0.2373 0.3885
-1.0100 -0.2049 0.3795
-1.3247 0.0656 0.3070
-1.4282 0.1709 0.2791
-1.4593 0.2203 0.2665
-1.4879 0.2489 0.2589
-1.5151 0.2755 0.2518
-1.5418 0.2878 0.2483
-1.5677 0.3012 0.2444
-1.6140 0.3524 0.2310
-1.6372 0.3648 0.2275
-1.6577 0.3882 0.2213
-1.6810 0.3930 0.2197
-1.7177 0.4367 0.2083
-1.7553 0.4629 0.2011
-1.7729 0.4766 0.1974
-1.7906 0.4881 0.1942
-1.8041 0.5085 0.1889
-1.8185 0.5245 0.1847
-1.8296 0.5461 0.1793
-1.8483 0.5488 0.1782
-1.8598 0.5659 0.1738
-1.8772 0.5698 0.1725
-1.9020 0.5942 0.1660
-1.9137 0.6059 0.1629
-1.9242 0.6187 0.1596
-1.9534 0.6287 0.1565
-1.9752 0.6478 0.1514
-1.9795 0.6652 0.1471
-1.9906 0.6725 0.1450
-2.0044 0.6961 0.1390
1.6867 -2.6890 0.9442
1.4809 -2.5616 0.9119
0.4777 -1.5456 0.6679
0.3432 -1.4584 0.6460
0.1923 -1.3368 0.6161
0.0758 -1.2621 0.5973
-0.1619 -0.9668 0.5275
-0.3680 -0.8067 0.4881
-0.4716 -0.7120 0.4651
-0.5856 -0.5838 0.4346
-0.6703 -0.5070 0.4160
-0.8204 -0.3712 0.3831
-0.8872 -0.3113 0.3685
-0.9518 -0.2480 0.3532
-0.9934 -0.2493 0.3527
-1.1442 -0.1375 0.3250
-1.2017 -0.0435 0.3031
-1.2840 0.0236 0.2867
-1.3955 0.1453 0.2577
-1.4276 0.1672 0.2522
-1.4590 0.2196 0.2400
-1.4880 0.2295 0.2372
-1.5437 0.2604 0.2293
-1.5683 0.2989 0.2203
-1.6156 0.3453 0.2092
-1.6383 0.3631 0.2048
-1.6595 0.3842 0.1997
-1.6799 0.4032 0.1951
-1.7012 0.4145 0.1922
-1.7205 0.4313 0.1881
-1.7375 0.4525 0.1831
-1.7555 0.4672 0.1795
-1.7713 0.4863 0.1750
-1.8057 0.5092 0.1692
-1.8170 0.5328 0.1638
-1.8309 0.5476 0.1603
-1.8476 0.5547 0.1584
-1.8602 0.5695 0.1548
-1.8754 0.5778 0.1527
-1.8889 0.5882 0.1501
-1.9012 0.5998 0.1473
-1.9143 0.6092 0.1450
-1.9227 0.6253 0.1413
-1.9367 0.6314 0.1397
-1.9511 0.6364 0.1383
-1.9706 0.6336 0.1385
-1.9742 0.6531 0.1341
-1.9843 0.6625 0.1318
-1.9862 0.6821 0.1275
-1.9968 0.6894 0.1257
-2.0143 0.6877 0.1257
1.8732 -2.8990 0.8902
1.5138 -2.5792 0.8204
0.5755 -1.6705 0.6238
0.3721 -1.4842 0.5833
0.2565 -1.4218 0.5687
0.0877 -1.2648 0.5346
-0.0818 -1.0916 0.4973
-0.2223 -0.9542 0.4676
-0.4771 -0.6874 0.4103
-0.5808 -0.5813 0.3874
-0.6574 -0.5242 0.3747
-1.0994 -0.1507 0.2928
-1.1532 -0.0875 0.2793
-1.1918 -0.0833 0.2777
-1.2385 -0.0306 0.2665
-1.3231 0.0717 0.2448
-1.3596 0.1052 0.2375
-1.4273 0.1712 0.2232
-1.5435 0.2671 0.2021
-1.5671 0.3172 0.1918
-1.6167 0.3427 0.1858
-1.6403 0.3561 0.1827
-1.6605 0.3836 0.1769
-1.6819 0.3991 0.1735
-1.7209 0.4347 0.1657
-1.7406 0.4471 0.1629
-1.7738 0.4839 0.1550
-1.7911 0.4963 0.1523
-1.8069 0.5110 0.1491
-1.8238 0.5213 0.1467
-1.8400 0.5316 0.1444
-1.8542 0.5452 0.1414
-1.8698 0.5545 0.1393
-1.8775 0.5780 0.1345
-1.9061 0.5955 0.1305
-1.9122 0.6170 0.1262
-1.9294 0.6186 0.1256
-1.9416 0.6280 0.1235
-1.9569 0.6318 0.1224
-1.9741 0.6572 0.1171
-1.9878 0.6839 0.1116
-2.0002 0.6889 0.1104
-2.0124 0.6939 0.1092
1.6151 -2.6856 0.7434
1.3191 -2.4346 0.6947
0.5292 -1.7044 0.5542
0.5336 -1.8430 0.5780
0.2773 -1.5618 0.5248
-0.1807 -1.0148 0.4222
-0.7583 -0.3888 0.3037
-0.8199 -0.3498 0.2958
-1.3590 0.1086 0.2068
-1.4878 0.2293 0.1836
-1.5424 0.2889 0.1723
-1.5682 0.3085 0.1684
-1.5933 0.3249 0.1651
-1.6183 0.3360 0.1628
-1.6416 0.3535 0.1593
-1.6600 0.3917 0.1524
-1.6806 0.4104 0.1488
-1.7398 0.4548 0.1400
-1.7549 0.4790 0.1356
-1.8076 0.5139 0.1286
-1.8241 0.5252 0.1263
-1.8414 0.5333 0.1246
-1.8556 0.5468 0.1220
-1.8681 0.5626 0.1191
-1.8825 0.5729 0.1170
-1.9010 0.6089 0.1105
-1.9173 0.6126 0.1095
-1.9272 0.6263 0.1070
-1.9457 0.6257 0.1067
-1.9634 0.6263 0.1063
-1.9703 0.6422 0.1034
-1.9740 0.6614 0.1001
-1.9963 0.6768 0.0970
-2.0107 0.6796 0.0962
-2.0150 0.6945 0.0936
-2.0306 0.6951 0.0932
0.4964 -1.6348 0.4671
0.0771 -1.2130 0.3973
-0.0621 -1.0934 0.3771
-0.2291 -0.9116 0.3473
-0.3398 -0.8178 0.3315
-0.6483 -0.5197 0.2819
-0.7254 -0.4559 0.2711
-1.1422 -0.1152 0.2133
-1.2882 0.0801 0.1819
-1.3222 0.0833 0.1808
-1.4266 0.1783 0.1649
-1.4581 0.2233 0.1577
-1.5430 0.2826 0.1474
-1.5678 0.3182 0.1417
-1.5938 0.3259 0.1401
-1.6418 0.3575 0.1345
-1.6631 0.3804 0.1308
-1.6837 0.4011 0.1273
-1.7441 0.4452 0.1197
-1.7607 0.4660 0.1164
-1.7772 0.4837 0.1135
-1.7957 0.4938 0.1116
-1.8079 0.5180 0.1078
-1.8235 0.5314 0.1056
-1.8369 0.5481 0.1029
-1.8524 0.5583 0.1011
-1.8658 0.5717 0.0989
-1.8893 0.5646 0.0995
-1.9053 0.6058 0.0931
-1.9192 0.6139 0.0917
-1.9353 0.6176 0.0908
-1.9477 0.6269 0.0892
-1.9655 0.6274 0.0888
-1.9725 0.6432 0.0864
-1.9763 0.6623 0.0835
-1.9857 0.6727 0.0818
-1.9961 0.6809 0.0804
-2.0097 0.6848 0.0796
-2.0194 0.6930 0.0782
0.3124 -1.4547 0.3663
0.0890 -1.2154 0.3331
-0.0617 -1.0778 0.3136
-0.1968 -0.9546 0.2962
-0.3328 -0.8165 0.2769
-0.5401 -0.6287 0.2502
-0.6396 -0.5267 0.2360
-0.6938 -0.5188 0.2341
-0.9169 -0.3081 0.2044
-0.9772 -0.2580 0.1971
-1.2007 -0.0090 0.1628
-1.3214 0.0870 0.1489
-1.3582 0.1198 0.1442
-1.4574 0.1985 0.1328
-1.5430 0.2872 0.1205
-1.5692 0.3065 0.1176
-1.5967 0.3056 0.1173
-1.6216 0.3229 0.1147
-1.6665 0.3682 0.1084
-1.6835 0.4070 0.1033
-1.7046 0.4212 0.1012
-1.7401 0.4636 0.0954
-1.7571 0.4822 0.0928
-1.7782 0.4858 0.0920
-1.7979 0.4926 0.0908
-1.8104 0.5167 0.0877
-1.8270 0.5278 0.0860
-1.8549 0.5577 0.0819
-1.8711 0.5657 0.0806
-1.9077 0.6060 0.0750
-1.9197 0.6173 0.0734
-1.9304 0.6297 0.0717
-1.9455 0.6345 0.0709
-1.9639 0.6340 0.0706
-1.9701 0.6508 0.0684
-1.9778 0.6643 0.0666
-1.9913 0.6692 0.0658
-1.9977 0.6828 0.0640
-2.0114 0.6866 0.0633
-2.0175 0.6992 0.0617
-2.0304 0.7030 0.0610
0.2989 -1.4150 0.2905
-0.0711 -1.0456 0.2484
-0.2045 -0.9253 0.2344
-0.3109 -0.8431 0.2246
-0.4227 -0.7411 0.2128
-0.5239 -0.6493 0.2022
-0.5877 -0.6292 0.1991
-0.6596 -0.5871 0.1938
-0.7695 -0.4428 0.1779
-1.0259 -0.2282 0.1527
-1.1994 -0.0057 0.1282
-1.2357 -0.0068 0.1277
-1.3185 0.0729 0.1185
-1.3584 0.1318 0.1121
-1.4874 0.2227 0.1011
-1.5165 0.2461 0.0983
-1.5687 0.3162 0.0907
-1.5944 0.3302 0.0889
-1.6202 0.3378 0.0877
-1.6414 0.3699 0.0842
-1.6610 0.4020 0.0808
-1.6855 0.4033 0.0802
-1.7081 0.4121 0.0790
-1.7445 0.4542 0.0743
-1.7618 0.4727 0.0722
-1.7788 0.4890 0.0703
-1.8115 0.5186 0.0669
-1.8278 0.5308 0.0654
-1.8410 0.5483 0.0635
-1.8873 0.5775 0.0599
-1.8949 0.5994 0.0576
-1.9100 0.6063 0.0567
-1.9242 0.6143 0.0557
-1.9511 0.6303 0.0536
-1.9653 0.6362 0.0528
-1.9739 0.6497 0.0514
-1.9817 0.6631 0.0499
-1.9879 0.6777 0.0484
-1.9976 0.6869 0.0474
-2.0130 0.6885 0.0469
-2.0192 0.7010 0.0456
0.3420 -1.4629 0.2230
0.1982 -1.3573 0.2131
-0.1356 -1.0322 0.1844
-0.2884 -0.8702 0.1703
-0.3903 -0.7906 0.1629
-0.6118 -0.5627 0.1430
-0.7051 -0.4670 0.1346
-0.9744 -0.2448 0.1143
-1.0298 -0.2035 0.1105
-1.1884 -0.0491 0.0969
-1.3194 0.0904 0.0847
-1.3553 0.1103 0.0827
-1.4568 0.1994 0.0747
-1.4872 0.2404 0.0713
-1.5425 0.3026 0.0659
-1.5683 0.3259 0.0638
-1.5956 0.3251 0.0634
-1.6205 0.3411 0.0619
-1.6418 0.3729 0.0593
-1.6651 0.3858 0.0580
-1.6879 0.3977 0.0567
-1.7072 0.4212 0.0547
-1.7644 0.4697 0.0503
-1.7787 0.4944 0.0483
-1.7969 0.5054 0.0473
-1.8170 0.5100 0.0466
-1.8291 0.5327 0.0448
-1.8457 0.5427 0.0438
-1.8613 0.5537 0.0428
-1.8741 0.5690 0.0414
-1.8843 0.5876 0.0400
-1.8984 0.5976 0.0390
-1.9240 0.6189 0.0371
-1.9391 0.6247 0.0364
-1.9552 0.6284 0.0359
-1.9637 0.6428 0.0347
-1.9808 0.6685 0.0326
-1.9927 0.6754 0.0319
-2.0035 0.6835 0.0311
-2.0255 0.6975 0.0298
-2.0396 0.7002 0.0294
0.2114 -1.3601 0.1424
-0.2880 -0.8558 0.1116
-0.4026 -0.7521 0.1050
-0.6016 -0.5718 0.0937
-0.7689 -0.4198 0.0841
-0.9787 -0.2201 0.0717
-1.0352 -0.1739 0.0688
-1.1824 -0.0681 0.0616
-1.2268 -0.0361 0.0595
-1.3905 0.1463 0.0486
-1.4870 0.2412 0.0427
-1.5160 0.2632 0.0413
-1.5710 0.3000 0.0387
-1.5961 0.3253 0.0372
-1.6203 0.3475 0.0358
-1.6878 0.4037 0.0322
-1.7083 0.4218 0.0310
-1.7247 0.4515 0.0294
-1.7467 0.4571 0.0288
-1.7615 0.4837 0.0274
-1.8121 0.5269 0.0246
-1.8289 0.5378 0.0239
-1.8504 0.5372 0.0236
-1.8612 0.5587 0.0224
-1.8756 0.5708 0.0216
-1.8859 0.5892 0.0206
-1.9018 0.5960 0.0201
-1.9136 0.6092 0.0193
-1.9272 0.6181 0.0187
-1.9383 0.6303 0.0179
-1.9601 0.6254 0.0178
-1.9658 0.6440 0.0169
-1.9862 0.6652 0.0156
-1.9926 0.6796 0.0148
-2.0025 0.6887 0.0143
-2.0254 0.7015 0.0133
-2.0301 0.7149 0.0126
0.2802 -1.4509 0.0732
0.0545 -1.2065 0.0651
-0.2572 -0.8974 0.0544
-0.3759 -0.7893 0.0505
-0.4896 -0.6790 0.0467
-0.6886 -0.4803 0.0398
-0.9208 -0.2515 0.0319
-0.9785 -0.2099 0.0303
-1.0251 -0.1979 0.0293
-1.0797 -0.1530 0.0277
-1.1354 -0.0926 0.0256
-1.1845 -0.0476 0.0240
-1.2294 -0.0117 0.0227
-1.3541 0.1179 0.0183
-1.3891 0.1385 0.0174
-1.4233 0.1654 0.0163
-1.4870 0.2338 0.0140
-1.5161 0.2640 0.0130
-1.5973 0.3204 0.0107
-1.6895 0.4014 0.0078
-1.7068 0.4329 0.0069
-1.7289 0.4415 0.0064
-1.7662 0.4745 0.0052
-1.7844 0.4885 0.0047
-1.7982 0.5118 0.0040
-1.8150 0.5248 0.0035
-1.8306 0.5388 0.0030
-1.8489 0.5454 0.0026
-1.8600 0.5658 0.0020
-1.8875 0.5908 0.0011
-1.9017 0.6007 0.0007
-1.9160 0.6096 0.0003
-1.9291 0.6195 -0.0000
-1.9450 0.6242 -0.0004
-1.9607 0.6289 -0.0007
-1.9664 0.6473 -0.0011
-1.9773 0.6574 -0.0015
-1.9909 0.6631 -0.0018
-1.9950 0.6806 -0.0022
-2.0041 0.6907 -0.0025
-2.0136 0.6997 -0.0029
-2.0298 0.7002 -0.0031
0.3247 -1.5021 -0.0019
0.1257 -1.3067 -0.0034
-0.0157 -1.1918 -0.0046
-0.3619 -0.8016 -0.0067
-0.4474 -0.7508 -0.0076
-0.7266 -0.4993 -0.0098
-0.8166 -0.3983 -0.0103
-0.9598 -0.2567 -0.0114
-1.0209 -0.2010 -0.0118
-1.0778 -0.1493 -0.0123
-1.2711 0.0267 -0.0138
-1.3507 0.0951 -0.0144
-1.3879 0.1330 -0.0147
-1.4220 0.1495 -0.0150
-1.4870 0.2122 -0.0155
-1.5170 0.2401 -0.0157
-1.5447 0.2793 -0.0159
-1.6219 0.3468 -0.0165
-1.6468 0.3594 -0.0167
-1.6902 0.4033 -0.0170
-1.7104 0.4243 -0.0172
-1.7287 0.4474 -0.0173
-1.7681 0.4739 -0.0176
-1.7895 0.4794 -0.0179
-1.8179 0.5227 -0.0180
-1.8319 0.5408 -0.0181
-1.8502 0.5474 -0.0183
-1.8640 0.5624 -0.0184
-1.8942 0.5831 -0.0187
-1.9034 0.6023 -0.0187
-1.9221 0.6038 -0.0189
-1.9309 0.6210 -0.0189
-1.9462 0.6267 -0.0191
-1.9641 0.6282 -0.0193
-1.9759 0.6381 -0.0194
-1.9803 0.6575 -0.0194
-1.9916 0.6664 -0.0194
-2.0031 0.6743 -0.0196
-2.0134 0.6832 -0.0196
-2.0196 0.6964 -0.0196
-2.0315 0.7022 -0.0198
-2.0440 0.7069 -0.0199
0.0554 -1.1728 -0.0722
-0.2243 -0.9261 -0.0676
-0.3473 -0.8145 -0.0654
-0.4530 -0.7248 -0.0638
-0.8228 -0.3696 -0.0567
-0.9546 -0.2613 -0.0548
-1.0164 -0.2050 -0.0537
-1.0759 -0.1456 -0.0525
-1.2280 0.0009 -0.0496
-1.2678 0.0160 -0.0496
-1.3877 0.1410 -0.0470
-1.4223 0.1685 -0.0465
-1.4552 0.1879 -0.0463
-1.5169 0.2442 -0.0452
-1.5453 0.2740 -0.0446
-1.6217 0.3533 -0.0429
-1.6452 0.3740 -0.0425
-1.6919 0.4012 -0.0422
-1.7115 0.4251 -0.0417
-1.7346 0.4315 -0.0418
-1.7539 0.4493 -0.0414
-1.7721 0.4671 -0.0411
-1.7893 0.4850 -0.0407
-1.8063 0.5008 -0.0404
-1.8377 0.5325 -0.0397
-1.8520 0.5484 -0.0394
-1.8774 0.5813 -0.0386
-1.8941 0.5880 -0.0386
-1.9056 0.6029 -0.0382
-1.9213 0.6096 -0.0382
-1.9314 0.6246 -0.0379
-1.9413 0.6386 -0.0375
-1.9647 0.6317 -0.0381
-1.9721 0.6479 -0.0376
-1.9817 0.6598 -0.0373
-1.9914 0.6707 -0.0371
-2.0047 0.6765 -0.0371
-2.0090 0.6927 -0.0366
-2.0204 0.6995 -0.0365
-2.0305 0.7073 -0.0364
0.3403 -1.4871 -0.1575
0.1389 -1.2914 -0.1480
-0.3254 -0.8410 -0.1264
-0.4402 -0.7360 -0.1214
-0.7338 -0.4559 -0.1080
-0.8090 -0.3933 -0.1051
-0.8821 -0.3266 -0.1020
-1.0056 -0.2299 -0.0976
-1.2177 -0.0437 -0.0889
-1.3126 0.0863 -0.0822
-1.3891 0.1692 -0.0781
-1.4219 0.1722 -0.0783
-1.4548 0.1833 -0.0780
-1.5711 0.3177 -0.0713
-1.5975 0.3342 -0.0706
-1.6237 0.3455 -0.0702
-1.6701 0.3877 -0.0682
-1.6895 0.4176 -0.0667
-1.7113 0.4311 -0.0661
-1.7345 0.4375 -0.0660
-1.7537 0.4551 -0.0652
-1.7720 0.4728 -0.0643
-1.7922 0.4824 -0.0640
-1.8078 0.5022 -0.0630
-1.8249 0.5158 -0.0624
-1.8499 0.5577 -0.0601
-1.8725 0.5550 -0.0606
-1.8832 0.5749 -0.0595
-1.8854 0.6084 -0.0575
-1.9067 0.6057 -0.0579
-1.9193 0.6174 -0.0574
-1.9359 0.6220 -0.0573
-1.9542 0.6235 -0.0574
-1.9639 0.6374 -0.0567
-1.9757 0.6471 -0.0562
-1.9801 0.6663 -0.0551
-1.9905 0.6761 -0.0547
-2.0045 0.6808 -0.0546
-2.0081 0.6979 -0.0536
-2.0238 0.6994 -0.0537
0.3262 -1.4452 -0.2334
0.1650 -1.3152 -0.2238
-0.0033 -1.1601 -0.2120
-0.1626 -1.0048 -0.2001
-0.2945 -0.8839 -0.1910
-0.3866 -0.8283 -0.1871
-0.5276 -0.6623 -0.1741
-0.7335 -0.4438 -0.1571
-0.7949 -0.4175 -0.1555
-0.8543 -0.3922 -0.1540
-0.9987 -0.2414 -0.1423
-1.0628 -0.1718 -0.1369
-1.2256 0.0086 -0.1228
-1.2656 0.0225 -0.1221
-1.5169 0.2486 -0.1050
-1.5979 0.3358 -0.0982
-1.6227 0.3572 -0.0966
-1.6477 0.3705 -0.0957
-1.6689 0.3991 -0.0934
-1.6893 0.4237 -0.0915
-1.7148 0.4229 -0.0919
-1.7317 0.4526 -0.0894
-1.7564 0.4518 -0.0898
-1.7861 0.5043 -0.0855
-1.8020 0.5220 -0.0841
-1.8222 0.5274 -0.0839
-1.8397 0.5379 -0.0831
-1.8551 0.5516 -0.0821
-1.8793 0.5871 -0.0792
-1.9192 0.6222 -0.0766
-1.9345 0.6288 -0.0762
-1.9575 0.6230 -0.0770
-1.9673 0.6368 -0.0759
-1.9748 0.6527 -0.0745
-1.9884 0.6593 -0.0741
-1.9912 0.6794 -0.0724
-2.0036 0.6861 -0.0719
-2.0148 0.6938 -0.0714
-2.0281 0.6984 -0.0711
-2.0366 0.7082 -0.0704
0.2685 -1.3370 -0.3008
0.1789 -1.3187 -0.2996
0.0082 -1.1618 -0.2832
-0.1621 -0.9889 -0.2649
-0.2783 -0.8983 -0.2556
-0.4066 -0.7731 -0.2425
-0.5380 -0.6260 -0.2268
-0.7092 -0.4891 -0.2127
-0.7837 -0.4334 -0.2070
-0.8508 -0.3894 -0.2026
-0.9175 -0.3384 -0.1974
-0.9918 -0.2526 -0.1882
-1.0510 -0.2033 -0.1831
-1.1148 -0.1242 -0.1746
-1.2578 -0.0155 -0.1635
-1.3039 0.0412 -0.1574
-1.5165 0.2619 -0.1340
-1.5452 0.2880 -0.1313
-1.5742 0.2941 -0.1309
-1.5992 0.3304 -0.1269
-1.6233 0.3587 -0.1239
-1.6465 0.3830 -0.1213
-1.6697 0.4003 -0.1195
-1.6938 0.4096 -0.1187
-1.7121 0.4391 -0.1155
-1.7342 0.4494 -0.1145
-1.7499 0.4779 -0.1114
-1.7710 0.4863 -0.1106
-1.7896 0.4997 -0.1093
-1.8107 0.5051 -0.1089
-1.8212 0.5348 -0.1055
-1.8382 0.5463 -0.1044
-1.8540 0.5588 -0.1031
-1.8712 0.5673 -0.1023
-1.8829 0.5850 -0.1003
-1.8994 0.5925 -0.0997
-1.9136 0.6030 -0.0986
-1.9247 0.6177 -0.0970
-1.9415 0.6222 -0.0966
-1.9615 0.6216 -0.0969
-1.9736 0.6322 -0.0958
-1.9762 0.6552 -0.0932
-1.9867 0.6658 -0.0921
-2.0051 0.6883 -0.0896
-2.0129 0.7001 -0.0884
-2.0227 0.7088 -0.0874
-2.0356 0.7134 -0.0870
-2.0492 0.7170 -0.0868
0.2056 -1.3425 -0.3795
-0.0239 -1.0900 -0.3453
-0.1617 -0.9730 -0.3297
-0.2621 -0.9124 -0.3220
-0.3644 -0.8410 -0.3126
-0.5890 -0.6252 -0.2837
-0.7761 -0.4400 -0.2587
-0.8601 -0.3511 -0.2467
-0.9307 -0.2866 -0.2381
-0.9915 -0.2418 -0.2322
-1.0508 -0.1929 -0.2257
-1.1683 -0.0603 -0.2077
-1.2159 -0.0219 -0.2027
-1.2635 0.0303 -0.1956
-1.4539 0.1945 -0.1737
-1.5458 0.2821 -0.1620
-1.5726 0.3161 -0.1573
-1.6236 0.3623 -0.1511
-1.6483 0.3784 -0.1490
-1.6728 0.3906 -0.1475
-1.6941 0.4138 -0.1444
-1.7158 0.4300 -0.1423
-1.7346 0.4533 -0.1391
-1.7539 0.4706 -0.1368
-1.7688 0.4980 -0.1329
-1.7932 0.4953 -0.1336
-1.8082 0.5167 -0.1306
-1.8228 0.5361 -0.1280
-1.8394 0.5485 -0.1263
-1.8573 0.5569 -0.1253
-1.8710 0.5724 -0.1232
-1.8871 0.5819 -0.1220
-1.9021 0.5923 -0.1206
-1.9183 0.5998 -0.1197
-1.9265 0.6194 -0.1169
-1.9466 0.6188 -0.1172
-1.9647 0.6212 -0.1171
-1.9720 0.6389 -0.1146
-1.9805 0.6536 -0.1125
-1.9912 0.6642 -0.1111
-2.0013 0.6748 -0.1097
-2.0091 0.6875 -0.1079
-2.0154 0.7012 -0.1060
-2.0261 0.7089 -0.1050
-2.0382 0.7144 -0.1043
0.1926 -1.3027 -0.4512
0.0429 -1.1839 -0.4320
-0.2696 -0.8824 -0.3826
-0.3924 -0.7706 -0.3643
-0.5035 -0.6693 -0.3478
-0.7831 -0.4093 -0.3053
-0.8598 -0.3395 -0.2939
-0.9304 -0.2755 -0.2834
-0.9958 -0.2163 -0.2737
-1.0524 -0.1756 -0.2672
-1.1160 -0.0975 -0.2543
-1.2124 -0.0294 -0.2433
-1.2581 0.0077 -0.2373
-1.3000 0.0331 -0.2333
-1.3422 0.0763 -0.2262
-1.4181 0.1421 -0.2155
-1.4859 0.2536 -0.1968
-1.5730 0.3171 -0.1866
-1.6255 0.3550 -0.1805
-1.6492 0.3789 -0.1765
-1.6771 0.3751 -0.1774
-1.6951 0.4151 -0.1707
-1.7125 0.4481 -0.1651
-1.7370 0.4503 -0.1650
-1.7550 0.4725 -0.1613
-1.7783 0.4757 -0.1609
-1.8161 0.5022 -0.1567
-1.8452 0.5408 -0.1502
-1.8776 0.5645 -0.1464
-1.8957 0.5709 -0.1455
-1.9122 0.6148 -0.1380
-1.9326 0.6142 -0.1383
-1.9485 0.6206 -0.1374
-1.9673 0.6220 -0.1373
-1.9698 0.6466 -0.1330
-1.9804 0.6581 -0.1311
-1.9934 0.6656 -0.1300
-2.0068 0.6721 -0.1290
-2.0131 0.6868 -0.1265
-2.0221 0.6974 -0.1247
-2.0304 0.7080 -0.1230
-2.0390 0.7176 -0.1214
-2.0517 0.7221 -0.1207
0.5196 -1.4096 -0.5486
0.3768 -1.3228 -0.5322
0.2700 -1.2820 -0.5248
0.1931 -1.2844 -0.5259
-0.5883 -0.5982 -0.3935
-0.7677 -0.4350 -0.3619
-0.8498 -0.3541 -0.3462
-0.9219 -0.2887 -0.3336
-1.0404 -0.2070 -0.3180
-1.1584 -0.0831 -0.2939
-1.2553 0.0013 -0.2776
-1.3017 0.0567 -0.2668
-1.3420 0.0849 -0.2614
-1.3826 0.1386 -0.2509
-1.4185 0.1630 -0.2462
-1.5174 0.2424 -0.2310
-1.5463 0.2827 -0.2231
-1.5740 0.3113 -0.2175
-1.6027 0.3172 -0.2165
-1.6262 0.3558 -0.2089
-1.6499 0.3805 -0.2041
-1.6735 0.3985 -0.2007
-1.6933 0.4283 -0.1948
-1.7160 0.4403 -0.1926
-1.7357 0.4603 -0.1887
-1.7599 0.4625 -0.1884
-1.7788 0.4796 -0.1851
-1.8159 0.5079 -0.1797
-1.8276 0.5350 -0.1743
-1.8442 0.5482 -0.1718
-1.8774 0.5697 -0.1677
-1.8858 0.5940 -0.1629
-1.9007 0.6043 -0.1609
-1.9186 0.6087 -0.1602
-1.9300 0.6231 -0.1574
-1.9510 0.6214 -0.1578
-1.9665 0.6278 -0.1567
-1.9746 0.6442 -0.1534
-1.9854 0.6557 -0.1512
-1.9971 0.6651 -0.1494
-2.0090 0.6736 -0.1478
-2.0147 0.6891 -0.1447
-2.0262 0.6966 -0.1433
-2.0408 0.7001 -0.1427
-2.0425 0.7177 -0.1391
0.5416 -1.1138 -0.5630
0.4838 -1.1351 -0.5683
0.4105 -1.1374 -0.5693
0.3372 -1.1397 -0.5704
0.2378 -1.1048 -0.5630
0.1656 -1.1071 -0.5640
0.1050 -1.1275 -0.5691
-0.0010 -1.0752 -0.5578
-0.2925 -0.8085 -0.4981
-0.3916 -0.7414 -0.4832
-0.4594 -0.7299 -0.4810
-0.8398 -0.3684 -0.4001
-0.9133 -0.3015 -0.3851
-1.0379 -0.2040 -0.3634
-1.1007 -0.1358 -0.3480
-1.1569 -0.0791 -0.3353
-1.2005 -0.0687 -0.3332
-1.3002 0.0559 -0.3051
-1.3423 0.0984 -0.2955
-1.3833 0.1595 -0.2817
-1.4191 0.1877 -0.2754
-1.4531 0.2110 -0.2703
-1.5170 0.2567 -0.2601
-1.5470 0.2772 -0.2556
-1.5744 0.3124 -0.2476
-1.6273 0.3537 -0.2384
-1.6527 0.3704 -0.2347
-1.6768 0.3882 -0.2308
-1.7003 0.4040 -0.2273
-1.7211 0.4268 -0.2222
-1.7620 0.4616 -0.2144
-1.7793 0.4835 -0.2095
-1.8326 0.5286 -0.1994
-1.8449 0.5516 -0.1942
-1.8622 0.5618 -0.1919
-1.8778 0.5740 -0.1892
-1.8922 0.5872 -0.1863
-1.9052 0.6014 -0.1831
-1.9179 0.6146 -0.1801
-1.9386 0.6140 -0.1804
-1.9567 0.6173 -0.1797
-1.9650 0.6346 -0.1758
-1.9978 0.6687 -0.1681
-2.0065 0.6811 -0.1653
-2.0178 0.6895 -0.1635
-2.0278 0.6989 -0.1613
-2.0337 0.7124 -0.1583
-2.0461 0.7178 -0.1571
0.0969 -0.7948 -0.5575
0.0540 -0.8261 -0.5660
-0.2211 -0.8047 -0.5620
-0.3153 -0.7515 -0.5487
-0.4047 -0.7011 -0.5361
-0.4393 -0.7554 -0.5505
-1.0272 -0.2297 -0.4167
-1.0864 -0.1803 -0.4041
-1.1407 -0.1394 -0.3938
-1.1944 -0.0888 -0.3809
-1.3006 0.0696 -0.3402
-1.3415 0.1022 -0.3319
-1.3803 0.1329 -0.3241
-1.4177 0.1715 -0.3142
-1.4522 0.1868 -0.3104
-1.4857 0.2207 -0.3018
-1.5773 0.2865 -0.2852
-1.6016 0.3371 -0.2721
-1.6258 0.3692 -0.2638
-1.6492 0.3956 -0.2571
-1.6789 0.3840 -0.2603
-1.6976 0.4212 -0.2507
-1.7429 0.4469 -0.2443
-1.7650 0.4578 -0.2415
-1.7778 0.4932 -0.2324
-1.7997 0.4993 -0.2309
-1.8180 0.5133 -0.2274
-1.8350 0.5282 -0.2236
-1.8539 0.5373 -0.2213
-1.8621 0.5671 -0.2136
-1.8751 0.5841 -0.2092
-1.8953 0.5864 -0.2087
-1.9079 0.6015 -0.2049
-1.9321 0.5959 -0.2065
-1.9385 0.6189 -0.2005
-1.9683 0.6344 -0.1966
-1.9715 0.6576 -0.1906
-1.9999 0.6702 -0.1875
-2.0048 0.6875 -0.1830
-2.0169 0.6949 -0.1811
-2.0294 0.7013 -0.1795
-2.0415 0.7077 -0.1779
-2.0505 0.7171 -0.1755
0.1094 -0.6321 -0.5763
0.0407 -0.6218 -0.5737
-0.0447 -0.5879 -0.5642
-0.1193 -0.5662 -0.5583
-0.1681 -0.5802 -0.5626
-0.2256 -0.5820 -0.5634
-0.2692 -0.6065 -0.5707
-0.3202 -0.6206 -0.5751
-0.3787 -0.6224 -0.5759
-0.4498 -0.6006 -0.5699
-0.4959 -0.6261 -0.5776
-0.5819 -0.5692 -0.5614
-1.1989 -0.0549 -0.4147
-1.2545 0.0290 -0.3905
-1.2997 0.0737 -0.3777
-1.3365 0.0677 -0.3797
-1.4172 0.1748 -0.3489
-1.4520 0.1949 -0.3432
-1.4855 0.2217 -0.3355
-1.5176 0.2428 -0.3295
-1.5482 0.2669 -0.3227
-1.5767 0.2977 -0.3139
-1.6046 0.3189 -0.3078
-1.6523 0.3838 -0.2892
-1.6759 0.4042 -0.2833
-1.6993 0.4198 -0.2789
-1.7413 0.4579 -0.2680
-1.7655 0.4620 -0.2669
-1.7845 0.4796 -0.2619
-1.7973 0.5110 -0.2528
-1.8195 0.5151 -0.2517
-1.8375 0.5280 -0.2481
-1.8556 0.5390 -0.2450
-1.8692 0.5578 -0.2396
-1.8968 0.5886 -0.2307
-1.9129 0.5977 -0.2281
-1.9359 0.6278 -0.2195
-1.9617 0.6193 -0.2221
-1.9641 0.6452 -0.2146
-1.9757 0.6563 -0.2114
-1.9910 0.6616 -0.2099
-2.0014 0.6728 -0.2067
-2.0126 0.6821 -0.2040
-2.0160 0.7003 -0.1988
-2.0318 0.7027 -0.1981
-2.0449 0.7272 -0.1911
-2.0625 0.7267 -0.1913
-0.0881 -0.3730 -0.5559
-0.1400 -0.3747 -0.5566
-0.1919 -0.3763 -0.5574
-0.2632 -0.3508 -0.5494
-0.3143 -0.3524 -0.5502
-0.3593 -0.3634 -0.5539
-0.4048 -0.3744 -0.5576
-0.4515 -0.3844 -0.5610
-0.5081 -0.3776 -0.5591
-0.5598 -0.3792 -0.5598
-0.6115 -0.3809 -0.5605
-0.6675 -0.3731 -0.5582
-0.7310 -0.3474 -0.5502
-0.7815 -0.3490 -0.5509
-0.8357 -0.3411 -0.5486
-1.3318 0.0358 -0.4293
-1.3785 0.1327 -0.3983
-1.4162 0.1668 -0.3874
-1.4517 0.1991 -0.3772
-1.4854 0.2171 -0.3715
-1.5181 0.2324 -0.3667
-1.5480 0.2744 -0.3533
-1.5772 0.2983 -0.3457
-1.6016 0.3481 -0.3298
-1.6300 0.3530 -0.3283
-1.6532 0.3847 -0.3182
-1.6808 0.3867 -0.3177
-1.7049 0.4022 -0.3128
-1.7234 0.4350 -0.3023
-1.7454 0.4496 -0.2977
-1.7640 0.4719 -0.2906
-1.7854 0.4827 -0.2872
-1.7994 0.5109 -0.2782
-1.8205 0.5179 -0.2760
-1.8365 0.5356 -0.2704
-1.8536 0.5484 -0.2663
-1.8749 0.5515 -0.2654
-1.8993 0.5890 -0.2534
-1.9087 0.6097 -0.2468
-1.9271 0.6139 -0.2455
-1.9439 0.6200 -0.2436
-1.9674 0.6155 -0.2452
-1.9763 0.6601 -0.2309
-1.9901 0.6673 -0.2286
-2.0157 0.6827 -0.2237
-2.0200 0.6998 -0.2182
-2.0309 0.7080 -0.2156
-2.0539 0.7216 -0.2114
-2.0652 0.7279 -0.2094
-0.1233 -0.2556 -0.5693
-0.1788 -0.2488 -0.5671
-0.2208 -0.2586 -0.5707
-0.2758 -0.2518 -0.5685
-0.3244 -0.2534 -0.5692
-0.3729 -0.2549 -0.5699
-0.4159 -0.2648 -0.5735
-0.4699 -0.2579 -0.5712
-0.5134 -0.2678 -0.5749
-0.5622 -0.2693 -0.5755
-0.6064 -0.2793 -0.5792
-0.6682 -0.2556 -0.5710
-0.7200 -0.2496 -0.5691
-0.7718 -0.2427 -0.5668
-0.8130 -0.2601 -0.5731
-0.9065 -0.2716 -0.5774
-0.9677 -0.2337 -0.5642
-1.0197 -0.2192 -0.5592
-1.4512 0.1949 -0.4144
-1.4851 0.2374 -0.3994
-1.5454 0.3189 -0.3708
-1.5745 0.3313 -0.3666
-1.6037 0.3370 -0.3646
-1.6299 0.3599 -0.3566
-1.6536 0.3886 -0.3466
-1.6743 0.4230 -0.3345
-1.6996 0.4298 -0.3322
-1.7246 0.4366 -0.3299
-1.7467 0.4511 -0.3248
-1.7842 0.4916 -0.3106
-1.8059 0.4995 -0.3079
-1.8380 0.5373 -0.2946
-1.8498 0.5616 -0.2861
-1.8699 0.5667 -0.2844
-1.8870 0.5766 -0.2809
-1.9014 0.5903 -0.2761
-1.9143 0.6051 -0.2709
-1.9287 0.6160 -0.2671
-1.9595 0.6321 -0.2615
-1.9707 0.6450 -0.2570
-1.9797 0.6599 -0.2518
-1.9974 0.6622 -0.2510
-2.0132 0.6902 -0.2412
-2.0240 0.6993 -0.2380
-2.0342 0.7085 -0.2348
-2.0473 0.7137 -0.2330
-2.0574 0.7220 -0.2301
-2.0651 0.7322 -0.2265
-0.2696 -0.1262 -0.5717
-0.3598 -0.1290 -0.5730
-0.4203 -0.1092 -0.5655
-0.4648 -0.1106 -0.5662
-0.5092 -0.1120 -0.5668
-0.5403 -0.1347 -0.5756
-0.5854 -0.1361 -0.5762
-0.6426 -0.1162 -0.5687
-0.6976 -0.0982 -0.5618
-0.7485 -0.0856 -0.5571
-0.7946 -0.0814 -0.5556
-0.8408 -0.0763 -0.5537
-0.8839 -0.0776 -0.5543
-0.9270 -0.0790 -0.5550
-0.9701 -0.0803 -0.5556
-1.0132 -0.0817 -0.5562
-1.0582 -0.0765 -0.5543
-1.0994 -0.0844 -0.5574
-1.1527 -0.0418 -0.5411
-1.1882 -0.0740 -0.5536
-1.5778 0.3026 -0.4095
-1.6016 0.3593 -0.3878
-1.6534 0.3953 -0.3740
-1.6788 0.4077 -0.3693
-1.7034 0.4201 -0.3646
-1.7257 0.4382 -0.3577
-1.7474 0.4545 -0.3515
-1.7650 0.4803 -0.3416
-1.7834 0.4995 -0.3342
-1.8076 0.5006 -0.3339
-1.8242 0.5199 -0.3265
-1.8353 0.5487 -0.3154
-1.8515 0.5632 -0.3099
-1.8874 0.5810 -0.3031
-1.9072 0.5850 -0.3016
-1.9164 0.6064 -0.2934
-1.9274 0.6230 -0.2870
-1.9523 0.6166 -0.2896
-1.9678 0.6246 -0.2865
-1.9817 0.6618 -0.2722
-1.9921 0.6737 -0.2677
-2.0048 0.6818 -0.2646
-2.0099 0.6986 -0.2581
-2.0230 0.7047 -0.2558
-2.0349 0.7119 -0.2531
-2.0472 0.7181 -0.2507
-2.0573 0.7263 -0.2476
-0.3070 -0.0175 -0.5748
-0.3491 -0.0188 -0.5754
-0.3862 -0.0265 -0.5787
-0.4334 -0.0215 -0.5766
-0.4882 -0.0054 -0.5700
-0.5343 -0.0003 -0.5679
-0.5714 -0.0080 -0.5712
-0.6060 -0.0203 -0.5763
-0.6513 -0.0161 -0.5746
-0.6962 -0.0120 -0.5729
-0.7794 -0.0146 -0.5741
-0.8241 -0.0094 -0.5720
-0.8626 -0.0172 -0.5753
-0.9092 -0.0065 -0.5709
-0.9483 -0.0133 -0.5738
-0.9917 -0.0091 -0.5720
-1.0290 -0.0224 -0.5776
-1.0777 0.0004 -0.5682
-1.2526 0.0603 -0.5434
-1.2953 0.0852 -0.5331
-1.3356 0.1035 -0.5255
-1.3752 0.1266 -0.5159
-1.6558 0.3879 -0.4074
-1.6808 0.4040 -0.4007
-1.7019 0.4323 -0.3889
-1.7242 0.4493 -0.3819
-1.7406 0.4825 -0.3681
-1.7610 0.4977 -0.3617
-1.7890 0.4894 -0.3652
-1.8023 0.5198 -0.3526
-1.8233 0.5276 -0.3494
-1.8403 0.5429 -0.3430
-1.8857 0.5892 -0.3238
-1.9038 0.5961 -0.3209
-1.9180 0.6087 -0.3157
-1.9296 0.6242 -0.3092
-1.9528 0.6207 -0.3107
-1.9677 0.6296 -0.3070
-1.9725 0.6519 -0.2978
-1.9816 0.6665 -0.2916
-1.9993 0.6688 -0.2907
-2.0055 0.6854 -0.2838
-2.0201 0.6906 -0.2817
-2.0303 0.7005 -0.2775
-2.0424 0.7076 -0.2746
-2.0488 0.7205 -0.2692
-2.0590 0.7286 -0.2659
-2.0667 0.7387 -0.2617
-0.3884 0.1320 -0.5532
-0.4137 0.1163 -0.5602
-0.4400 0.1007 -0.5672
-0.4787 0.0994 -0.5678
-0.5174 0.0982 -0.5683
-0.5635 0.1070 -0.5644
-0.6090 0.1158 -0.5605
-0.6502 0.1191 -0.5589
-0.6852 0.1134 -0.5615
-0.7172 0.1022 -0.5666
-0.7525 0.0955 -0.5696
-0.7996 0.1098 -0.5631
-0.8424 0.1177 -0.5596
-0.8802 0.1165 -0.5601
-0.9205 0.1209 -0.5582
-0.9582 0.1197 -0.5587
-0.9937 0.1130 -0.5617
-1.0335 0.1173 -0.5598
-1.0727 0.1207 -0.5583
-1.1089 0.1149 -0.5608
-1.1478 0.1184 -0.5593
-1.1853 0.1172 -0.5598
-1.2238 0.1206 -0.5583
-1.2611 0.1195 -0.5588
-1.2992 0.1229 -0.5573
-1.3370 0.1264 -0.5557
-1.3764 0.1530 -0.5438
-1.7049 0.4257 -0.4213
-1.7207 0.4679 -0.4024
-1.7456 0.4718 -0.4007
-1.7656 0.4897 -0.3926
-1.7824 0.5133 -0.3820
-1.8047 0.5191 -0.3794
-1.8323 0.5117 -0.3827
-1.8631 0.5497 -0.3656
-1.8733 0.5754 -0.3541
-1.8856 0.5945 -0.3455
-1.9036 0.6014 -0.3425
-1.9367 0.6180 -0.3350
-1.9596 0.6154 -0.3362
-1.9695 0.6318 -0.3288
-1.9899 0.6599 -0.3162
-2.0036 0.6678 -0.3126
-2.0115 0.6824 -0.3061
-2.0231 0.6914 -0.3021
-2.0335 0.7012 -0.2976
-2.0397 0.7150 -0.2915
-2.0496 0.7239 -0.2874
-2.0607 0.7310 -0.2843
-2.0648 0.7448 -0.2781
-0.4295 0.1867 -0.5679
-0.4659 0.1855 -0.5684
-0.4955 0.1763 -0.5728
-0.5350 0.1788 -0.5716
-0.5716 0.1776 -0.5721
-0.6081 0.1765 -0.5726
-0.6446 0.1753 -0.5731
-0.6812 0.1742 -0.5736
-0.7177 0.1730 -0.5742
-0.7543 0.1719 -0.5747
-0.7908 0.1707 -0.5752
-0.8273 0.1696 -0.5757
-0.8662 0.1730 -0.5740
-0.9049 0.1764 -0.5724
-0.9411 0.1752 -0.5729
-0.9774 0.1741 -0.5734
-1.0846 0.1661 -0.5771
-1.3813 0.2213 -0.5502
-1.4166 0.2359 -0.5432
-1.4511 0.2578 -0.5326
-1.5185 0.2327 -0.5446
-1.7860 0.5090 -0.4112
-1.8046 0.5250 -0.4035
-1.8249 0.5345 -0.3989
-1.8456 0.5421 -0.3952
-1.8620 0.5573 -0.3879
-1.8761 0.5753 -0.3792
-1.8972 0.5783 -0.3777
-1.9105 0.5945 -0.3699
-1.9251 0.6069 -0.3639
-1.9526 0.6309 -0.3523
-1.9739 0.6302 -0.3526
-1.9776 0.6541 -0.3411
-1.9898 0.6648 -0.3359
-2.0035 0.6726 -0.3321
-2.0090 0.6900 -0.3238
-2.0246 0.6941 -0.3218
-2.0333 0.7058 -0.3161
-2.0413 0.7175 -0.3105
-2.0503 0.7274 -0.3057
-2.0551 0.7410 -0.2991
-2.0665 0.7471 -0.2962
-0.4766 0.2853 -0.5568
-0.5070 0.2807 -0.5591
-0.5438 0.2832 -0.5577
-0.5774 0.2822 -0.5582
-0.6081 0.2776 -0.5605
-0.6355 0.2685 -0.5651
-0.6694 0.2674 -0.5656
-0.7092 0.2744 -0.5619
-0.7429 0.2733 -0.5624
-0.7766 0.2723 -0.5629
-0.8125 0.2748 -0.5615
-0.8461 0.2738 -0.5620
-0.8797 0.2727 -0.5625
-0.9132 0.2717 -0.5629
-0.9468 0.2706 -0.5634
-0.9788 0.2659 -0.5658
-1.0140 0.2685 -0.5644
-1.0490 0.2711 -0.5630
-1.0852 0.2772 -0.5597
-1.1172 0.2726 -0.5621
-1.1506 0.2715 -0.5625
-1.1849 0.2741 -0.5611
-1.2173 0.2694 -0.5635
-1.2514 0.2720 -0.5621
-1.2840 0.2673 -0.5644
-1.3197 0.2818 -0.5569
-1.3516 0.2725 -0.5616
-1.3844 0.2679 -0.5639
-1.4177 0.2668 -0.5644
-1.4509 0.2658 -0.5649
-1.4841 0.2766 -0.5592
-1.5170 0.2756 -0.5597
-1.5512 0.2553 -0.5701
-1.6787 0.4315 -0.4790
-1.7032 0.4444 -0.4723
-1.7302 0.4454 -0.4717
-1.8122 0.5115 -0.4375
-1.8256 0.5385 -0.4236
-1.8424 0.5544 -0.4153
-1.8655 0.5555 -0.4147
-1.8759 0.5808 -0.4017
-1.8899 0.5968 -0.3934
-1.9077 0.6045 -0.3894
-1.9267 0.6094 -0.3868
-1.9435 0.6171 -0.3828
-1.9624 0.6211 -0.3807
-1.9738 0.6353 -0.3734
-1.9789 0.6571 -0.3621
-1.9861 0.6743 -0.3533
-2.0063 0.6737 -0.3536
-2.0219 0.6787 -0.3510
-2.0292 0.6931 -0.3435
-2.0365 0.7066 -0.3365
-2.0497 0.7125 -0.3334
-2.0634 0.7176 -0.3308
-2.0613 0.7387 -0.3199
-2.0767 0.7410 -0.3187
-0.5424 0.3276 -0.5704
-0.5717 0.3231 -0.5728
-0.6013 0.3185 -0.5752
-0.6340 0.3175 -0.5757
-0.6694 0.3200 -0.5742
-0.7020 0.3190 -0.5746
-0.7346 0.3179 -0.5751
-0.7672 0.3169 -0.5756
-0.7997 0.3159 -0.5760
-0.8323 0.3149 -0.5765
-0.8628 0.3103 -0.5789
-0.8975 0.3128 -0.5774
-0.9338 0.3190 -0.5739
-0.9644 0.3144 -0.5764
-1.0293 0.3123 -0.5773
-1.0632 0.3149 -0.5758
-1.0942 0.3103 -0.5782
-1.1255 0.3057 -0.5806
-1.5768 0.3397 -0.5606
-1.6062 0.3514 -0.5540
-1.6345 0.3660 -0.5459
-1.6589 0.3952 -0.5298
-1.8102 0.5221 -0.4597
-1.8318 0.5296 -0.4555
-1.8461 0.5518 -0.4432
-1.8626 0.5668 -0.4350
-1.8796 0.5789 -0.4282
-1.8928 0.5967 -0.4184
-1.9124 0.6015 -0.4157
-1.9254 0.6165 -0.4074
-1.9422 0.6242 -0.4032
-1.9623 0.6263 -0.4020
-1.9691 0.6469 -0.3906
-1.9828 0.6565 -0.3853
-1.9995 0.6614 -0.3825
-2.0099 0.6738 -0.3757
-2.0164 0.6900 -0.3668
-2.0283 0.6987 -0.3620
-2.0419 0.7255 -0.3472
-2.0633 0.7221 -0.3490
-2.0667 0.7374 -0.3406
-2.0831 0.7387 -0.3398
-0.5768 0.4064 -0.5604
-0.6102 0.4089 -0.5587
-0.6403 0.4080 -0.5591
-0.6704 0.4070 -0.5596
-0.7005 0.4061 -0.5600
-0.7278 0.4016 -0.5625
-0.7607 0.4042 -0.5608
-0.7883 0.3997 -0.5633
-0.8228 0.4050 -0.5601
-0.8487 0.3978 -0.5642
-0.8772 0.3942 -0.5662
-0.9091 0.3959 -0.5650
-0.9413 0.3985 -0.5634
-0.9729 0.4003 -0.5623
-1.0029 0.3993 -0.5627
-1.0300 0.3922 -0.5668
-1.0641 0.4001 -0.5620
-1.0929 0.3965 -0.5640
-1.1219 0.3929 -0.5660
-1.1539 0.3973 -0.5632
-1.1838 0.3963 -0.5637
-1.2137 0.3954 -0.5641
-1.2437 0.3945 -0.5645
-1.2730 0.3908 -0.5665
-1.3042 0.3962 -0.5633
-1.3331 0.3890 -0.5674
-1.3631 0.3880 -0.5678
-1.3929 0.3844 -0.5698
-1.4235 0.3924 -0.5650
-1.4533 0.3915 -0.5654
-1.4831 0.3870 -0.5679
-1.5129 0.3896 -0.5662
-1.5426 0.3914 -0.5651
-1.5723 0.3905 -0.5655
-1.6024 0.3868 -0.5675
-1.6318 0.3886 -0.5663
-1.6605 0.3931 -0.5636
-1.6907 0.3895 -0.5656
-1.8528 0.5430 -0.4753
-1.8684 0.5605 -0.4650
-1.9122 0.6069 -0.4377
-1.9640 0.6287 -0.4248
-1.9768 0.6409 -0.4176
-1.9841 0.6596 -0.4067
-1.9993 0.6664 -0.4027
-2.0105 0.6777 -0.3960
-2.0171 0.6938 -0.3866
-2.0444 0.7271 -0.3670
-2.0614 0.7284 -0.3662
-2.0747 0.7334 -0.3632
-0.6628 0.4404 -0.5727
-0.6921 0.4395 -0.5731
-0.7192 0.4359 -0.5751
-0.7507 0.4376 -0.5739
-0.7820 0.4393 -0.5727
-0.8131 0.4410 -0.5715
-0.8422 0.4401 -0.5719
-0.8754 0.4453 -0.5685
-0.9892 0.4382 -0.5723
-1.0169 0.4346 -0.5744
-1.0502 0.4425 -0.5693
-1.6239 0.4433 -0.5658
-1.6511 0.4479 -0.5628
-1.6758 0.4623 -0.5538
-1.7040 0.4587 -0.5558
-1.7302 0.4633 -0.5529
-1.7537 0.4751 -0.5455
-1.8295 0.5460 -0.5012
-1.8496 0.5552 -0.4954
-1.8803 0.5883 -0.4748
-1.8966 0.6003 -0.4673
-1.9143 0.6087 -0.4620
-1.9336 0.6134 -0.4589
-2.0030 0.6390 -0.4428
-1.9992 0.6713 -0.4228
-2.0104 0.6826 -0.4158
-2.0527 0.7224 -0.3909
-2.0613 0.7329 -0.3844
-2.0782 0.7341 -0.3835
-0.6909 0.5095 -0.5603
-0.7182 0.5087 -0.5607
-0.7432 0.5052 -0.5628
-0.7727 0.5070 -0.5615
-0.7979 0.5035 -0.5636
-0.8233 0.5000 -0.5657
-0.8508 0.4992 -0.5661
-0.8838 0.5061 -0.5613
-0.9074 0.5001 -0.5651
-0.9348 0.4992 -0.5655
-0.9638 0.5010 -0.5642
-0.9911 0.5001 -0.5646
-1.0198 0.5019 -0.5632
-1.0483 0.5036 -0.5619
-1.0730 0.4975 -0.5657
-1.1014 0.4993 -0.5644
-1.1265 0.4932 -0.5682
-1.1538 0.4923 -0.5686
-1.1821 0.4941 -0.5673
-1.2094 0.4933 -0.5676
-1.2360 0.4898 -0.5698
-1.2640 0.4915 -0.5684
-1.2901 0.4854 -0.5723
-1.3163 0.4775 -0.5773
-1.3455 0.4863 -0.5713
-1.3732 0.4881 -0.5700
-1.4011 0.4944 -0.5657
-1.4553 0.4953 -0.5647
-1.4823 0.4918 -0.5668
-1.5093 0.4936 -0.5655
-1.5364 0.4901 -0.5676
-1.5637 0.4875 -0.5692
-1.5906 0.4884 -0.5684
-1.6183 0.4831 -0.5717
-1.6456 0.4822 -0.5721
-1.6722 0.4841 -0.5707
-1.6981 0.4877 -0.5682
-1.7259 0.4842 -0.5703
-1.7535 0.4815 -0.5718
-1.7750 0.4968 -0.5617
-1.7944 0.5149 -0.5498
-1.8105 0.5383 -0.5343
-1.8294 0.5519 -0.5253
-1.8512 0.5575 -0.5215
-1.8708 0.5666 -0.5154
-1.9057 0.5895 -0.5003
-1.9184 0.6069 -0.4888
-1.9369 0.6134 -0.4844
-1.9597 0.6127 -0.4848
-1.9774 0.6192 -0.4804
-2.0021 0.6451 -0.4633
-2.0083 0.6644 -0.4506
-2.0344 0.6822 -0.4388
-2.0319 0.7081 -0.4219
-2.0360 0.7248 -0.4109
-2.0577 0.7215 -0.4130
-2.0629 0.7355 -0.4038
-2.0708 0.7459 -0.3969
-0.7391 0.5383 -0.5711
-0.7694 0.5418 -0.5685
-0.7936 0.5384 -0.5707
-0.8222 0.5401 -0.5692
-0.8486 0.5393 -0.5696
-0.8718 0.5341 -0.5730
-0.8952 0.5290 -0.5763
-0.9219 0.5282 -0.5767
-0.9497 0.5291 -0.5759
-0.9763 0.5282 -0.5763
-1.0004 0.5231 -0.5797
-1.0272 0.5222 -0.5800
-1.0553 0.5240 -0.5786
-1.0828 0.5249 -0.5778
-1.1094 0.5240 -0.5782
-1.1360 0.5232 -0.5785
-1.1610 0.5180 -0.5819
-1.5080 0.5301 -0.5710
-1.5336 0.5354 -0.5671
-1.5849 0.5365 -0.5660
-1.6360 0.5366 -0.5655
-1.6617 0.5358 -0.5659
-1.6886 0.5306 -0.5693
-1.7645 0.5326 -0.5674
-1.7867 0.5407 -0.5616
-1.8096 0.5461 -0.5577
-1.8328 0.5498 -0.5549
-1.8549 0.5553 -0.5510
-1.8757 0.5626 -0.5458
-1.8930 0.5753 -0.5369
-1.9258 0.5998 -0.5198
-1.9401 0.6134 -0.5103
-1.9631 0.6127 -0.5106
-1.9798 0.6210 -0.5047
-2.0040 0.6475 -0.4862
-2.0088 0.6685 -0.4717
-2.0320 0.6898 -0.4568
-2.0461 0.6965 -0.4522
-2.0630 0.6995 -0.4500
-2.0695 0.7133 -0.4404
-2.0742 0.7282 -0.4301
-0.7312 0.5921 -0.5625
-0.7562 0.5913 -0.5628
-0.7828 0.5922 -0.5619
-0.8100 0.5940 -0.5604
-0.8312 0.5890 -0.5639
-0.8611 0.5941 -0.5599
-0.8860 0.5934 -0.5602
-0.9095 0.5909 -0.5618
-0.9313 0.5858 -0.5653
-0.9563 0.5850 -0.5657
-0.9813 0.5843 -0.5660
-1.0074 0.5852 -0.5651
-1.0339 0.5870 -0.5636
-1.0564 0.5819 -0.5671
-1.0845 0.5871 -0.5630
-1.1072 0.5821 -0.5665
-1.1314 0.5795 -0.5681
-1.1564 0.5788 -0.5685
-1.1798 0.5737 -0.5720
-1.2086 0.5832 -0.5648
-1.2329 0.5807 -0.5664
-1.2570 0.5774 -0.5686
-1.2819 0.5766 -0.5690
-1.3069 0.5758 -0.5693
-1.3319 0.5750 -0.5697
-1.3572 0.5768 -0.5681
-1.3818 0.5734 -0.5704
-1.4066 0.5709 -0.5720
-1.4315 0.5684 -0.5736
-1.4567 0.5737 -0.5695
-1.4816 0.5782 -0.5661
-1.5064 0.5739 -0.5690
-1.5312 0.5731 -0.5693
-1.5562 0.5706 -0.5710
-1.5809 0.5716 -0.5700
-1.6064 0.5664 -0.5736
-1.6305 0.5700 -0.5707
-1.6549 0.5710 -0.5698
-1.6792 0.5720 -0.5689
-1.7044 0.5694 -0.5705
-1.7312 0.5625 -0.5753
-1.7540 0.5679 -0.5712
-1.7780 0.5689 -0.5703
-1.8050 0.5628 -0.5745
-1.8290 0.5638 -0.5735
-1.8500 0.5710 -0.5681
-1.8737 0.5720 -0.5672
-1.8919 0.5828 -0.5592
-1.9434 0.6135 -0.5364
-1.9641 0.6164 -0.5342
-1.9809 0.6246 -0.5280
-2.0053 0.6510 -0.5087
-2.0878 0.7376 -0.4451
-0.7461 0.6132 -0.5751
-0.7723 0.6141 -0.5741
-0.7991 0.6159 -0.5725
-0.8249 0.6168 -0.5715
-1.4813 0.6197 -0.5629
-1.5049 0.6154 -0.5659
-1.5286 0.6147 -0.5662
-1.5755 0.6167 -0.5643
-1.5979 0.6229 -0.5593
-1.6222 0.6170 -0.5636
-1.6469 0.6110 -0.5679
-1.6688 0.6172 -0.5629
-1.6937 0.6113 -0.5673
-1.7162 0.6140 -0.5649
-1.8134 0.6040 -0.5716
-1.8405 0.5962 -0.5773
-1.8608 0.6025 -0.5723
-1.8807 0.6089 -0.5672
-1.9001 0.6152 -0.5622
-1.9180 0.6233 -0.5558
-1.9421 0.6208 -0.5575
-1.9675 0.6166 -0.5605
-1.9857 0.6229 -0.5555
-1.9937 0.6426 -0.5404
-2.0085 0.6517 -0.5333
-2.0149 0.6706 -0.5188
-2.0275 0.6806 -0.5110
-2.0498 0.7016 -0.4948
-2.0586 0.7135 -0.4856
-2.0877 0.7421 -0.4635
-0.7700 0.6665 -0.5606
-0.7913 0.6641 -0.5623
-0.8110 0.6601 -0.5653
-0.8279 0.6526 -0.5711
-0.8587 0.6603 -0.5646
-0.8833 0.6612 -0.5636
-0.9090 0.6639 -0.5612
-0.9239 0.6531 -0.5697
-0.9484 0.6540 -0.5686
-0.9740 0.6567 -0.5662
-0.9947 0.6526 -0.5693
-1.0201 0.6552 -0.5669
-1.0421 0.6528 -0.5686
-1.0702 0.6605 -0.5621
-1.0921 0.6581 -0.5638
-1.1132 0.6540 -0.5668
-1.1378 0.6567 -0.5644
-1.1591 0.6526 -0.5675
-1.1821 0.6519 -0.5678
-1.2045 0.6494 -0.5695
-1.2506 0.6480 -0.5701
-1.2741 0.6490 -0.5691
-1.2967 0.6466 -0.5708
-1.3201 0.6475 -0.5697
-1.3427 0.6451 -0.5714
-1.3655 0.6427 -0.5731
-1.3897 0.6505 -0.5666
-1.4125 0.6498 -0.5669
-1.4354 0.6491 -0.5672
-1.4579 0.6398 -0.5745
-1.4810 0.6408 -0.5734
-1.5041 0.6383 -0.5751
-1.5266 0.6462 -0.5685
-1.5498 0.6421 -0.5716
-1.6179 0.6434 -0.5698
-1.6412 0.6409 -0.5715
-1.6650 0.6367 -0.5746
-1.7109 0.6353 -0.5753
-1.7333 0.6363 -0.5742
-1.7792 0.6349 -0.5749
-1.8029 0.6324 -0.5766
-1.8233 0.6369 -0.5727
-1.8498 0.6292 -0.5786
-1.8719 0.6302 -0.5775
-1.8928 0.6330 -0.5751
-1.9211 0.6235 -0.5824
-1.9408 0.6281 -0.5785
-1.9638 0.6274 -0.5788
-1.9794 0.6372 -0.5708
-1.9949 0.6462 -0.5634
-2.0111 0.6534 -0.5574
-2.0233 0.6651 -0.5479
-2.0310 0.6812 -0.5349
-2.0446 0.6894 -0.5282
