ply
format ascii 1.0
element vertex 2087
property float x
property float y
property float z
end_header
2.0479 -1.2937 -0.0596
2.0419 -1.2870 -0.1022
1.9976 -1.2510 -0.1529
2.0104 -1.2589 -0.1923
1.9760 -1.2305 -0.2402
1.9789 -1.2307 -0.2823
2.0936 -1.3165 -0.3135
2.2020 -1.3971 -0.3515
2.1960 -1.3902 -0.4023
2.1245 -1.3309 -0.5060
2.1652 -1.3594 -0.5579
2.1469 -1.3431 -0.6103
2.0826 -1.2919 -0.6593
2.0857 -1.2738 0.0796
2.0801 -1.2673 0.0382
2.0547 -1.2461 -0.0090
2.0489 -1.2394 -0.0510
2.0430 -1.2326 -0.0934
2.0273 -1.2186 -0.1382
2.0211 -1.2116 -0.1813
2.0093 -1.1979 -0.2687
2.0426 -1.2198 -0.3087
2.0655 -1.2285 -0.4461
2.0911 -1.2443 -0.4941
2.1188 -1.2616 -0.5444
2.1010 -1.2457 -0.5952
2.0863 -1.2201 0.0874
2.0907 -1.2205 0.0491
2.1156 -1.2355 0.0156
2.0791 -1.2065 -0.0351
2.0730 -1.1994 -0.0779
2.0679 -1.1928 -0.1210
2.0414 -1.1710 -0.1685
2.0067 -1.1435 -0.2168
2.0201 -1.1501 -0.2575
2.0331 -1.1562 -0.2996
2.0579 -1.1705 -0.3420
2.0871 -1.1845 -0.4338
2.1487 -1.2242 -0.4811
2.1902 -1.2495 -0.5323
2.2609 -1.2949 -0.5875
1.8770 -1.0220 -0.6671
2.1424 -1.2019 0.0722
2.1364 -1.1945 0.0295
2.1204 -1.1802 -0.0163
2.1044 -1.1659 -0.0620
2.0884 -1.1516 -0.1078
2.0724 -1.1373 -0.1535
2.0364 -1.1094 -0.2026
2.0310 -1.1023 -0.2464
2.0753 -1.1287 -0.2845
2.3228 -1.2874 -0.3576
2.2645 -1.2442 -0.4135
2.2209 -1.2109 -0.4671
2.2404 -1.2196 -0.5195
1.9149 -0.9920 -0.6581
1.9445 -1.0194 0.0565
2.1421 -1.1468 0.0800
2.1373 -1.1399 0.0379
2.1423 -1.1394 -0.0022
2.1055 -1.1114 -0.0532
2.0691 -1.0838 -0.1031
2.0630 -1.0760 -0.1463
2.0578 -1.0687 -0.1897
2.0419 -1.0545 -0.2352
2.0552 -1.0591 -0.2770
2.7941 -1.5246 -0.3076
3.3210 -1.8409 -0.5000
3.2642 -1.7976 -0.5799
3.6477 -1.8015 -3.2012
1.9044 -0.9453 0.0502
2.0543 -1.0367 0.0609
2.1693 -1.1054 0.0550
2.1422 -1.0841 0.0061
2.1579 -1.0897 -0.0319
2.1417 -1.0752 -0.0784
2.1362 -1.0673 -0.1227
2.1305 -1.0594 -0.1675
2.5250 -1.2819 -0.3160
2.9782 -1.5520 -0.3451
3.1198 -1.6156 -0.5582
1.9229 -0.9096 0.0629
2.1903 -1.0632 0.0692
2.1853 -1.0554 0.0260
2.1800 -1.0475 -0.0178
2.1637 -1.0329 -0.0645
2.1798 -1.0376 -0.1046
2.1525 -1.0164 -0.1540
2.1253 -0.9953 -0.2030
2.1300 -0.9930 -0.2471
2.3479 -1.1095 -0.3191
1.5835 -0.6361 -0.6406
1.9084 -0.8541 0.0646
1.9423 -0.8695 0.0405
1.5884 -0.6131 -0.4843
1.6113 -0.6119 -0.5947
1.6169 -0.6102 -0.6335
1.9016 -0.8043 0.0687
1.4893 -0.5679 -0.1231
1.4699 -0.5536 -0.1555
1.4595 -0.5443 -0.1853
1.4491 -0.5350 -0.2150
1.4562 -0.5352 -0.2410
1.4641 -0.5356 -0.2676
1.4448 -0.5215 -0.2997
1.4801 -0.5363 -0.3233
1.5221 -0.5502 -0.3797
1.5428 -0.5567 -0.4102
1.5362 -0.5488 -0.4438
1.5345 -0.5435 -0.4774
1.5398 -0.5416 -0.5115
1.5840 -0.5594 -0.5473
1.6655 -0.5903 -0.6270
1.5883 -0.5465 -0.6596
1.9108 -0.7637 0.0782
1.4919 -0.5341 -0.1171
1.4680 -0.5177 -0.1508
1.4666 -0.5131 -0.1780
1.4562 -0.5038 -0.2077
1.4546 -0.4990 -0.2356
1.4485 -0.4918 -0.2647
1.4564 -0.4917 -0.2915
1.4972 -0.5081 -0.3141
1.5353 -0.5182 -0.3711
1.5341 -0.5129 -0.4034
1.5339 -0.5081 -0.4361
1.5427 -0.5075 -0.4690
1.5705 -0.5160 -0.5028
1.6352 -0.5364 -0.5766
1.6350 -0.5308 -0.6149
1.6218 -0.5190 -0.6527
1.4886 -0.4934 -0.1396
1.4782 -0.4840 -0.1695
1.4677 -0.4747 -0.1994
1.4617 -0.4675 -0.2282
1.4699 -0.4671 -0.2544
1.4636 -0.4597 -0.2840
1.4908 -0.4681 -0.3086
1.5591 -0.4908 -0.3612
1.5642 -0.4881 -0.3932
1.5576 -0.4799 -0.4268
1.5508 -0.4716 -0.4607
1.6138 -0.4949 -0.4935
1.6073 -0.4864 -0.5296
1.6512 -0.5002 -0.5677
1.4775 -0.4535 -0.1376
1.4672 -0.4443 -0.1670
1.4569 -0.4351 -0.1965
1.4689 -0.4360 -0.2209
1.4904 -0.4412 -0.2442
1.4895 -0.4361 -0.2731
1.5098 -0.4431 -0.0699
1.4800 -0.4205 -0.1317
1.4833 -0.4173 -0.1573
1.4820 -0.4120 -0.1847
1.4850 -0.4085 -0.2115
2.4868 -0.8063 -0.1803
2.4828 -0.7955 -0.2331
2.4486 -0.7721 -0.2896
1.4916 -0.3916 -0.1232
1.4858 -0.3843 -0.1513
1.4891 -0.3806 -0.1774
1.4922 -0.3768 -0.2041
1.4772 -0.3655 -0.2352
2.4563 -0.7319 -0.1735
2.4808 -0.7318 -0.2216
2.5056 -0.7315 -0.2716
2.5956 -0.7554 -0.3183
1.5042 -0.3680 -0.0880
1.4986 -0.3607 -0.1159
1.4975 -0.3550 -0.1428
1.4871 -0.3458 -0.1725
1.4903 -0.3417 -0.1989
1.4754 -0.3306 -0.2298
2.2991 -0.5950 -0.2823
2.2814 -0.5792 -0.3328
2.4948 -0.6433 -0.3684
2.5817 -0.6507 -0.4784
1.4975 -0.3268 -0.1112
1.4907 -0.3189 -0.1395
1.4770 -0.3084 -0.1697
1.4668 -0.2993 -0.1990
1.5017 -0.3060 -0.2182
1.9279 -0.4242 -0.2747
1.9298 -0.4166 -0.3140
1.9582 -0.4175 -0.3516
2.0861 -0.4498 -0.3842
2.3216 -0.5144 -0.4185
2.4113 -0.5316 -0.4681
1.5080 -0.2972 -0.1030
1.4896 -0.2853 -0.1346
1.4610 -0.2700 -0.1688
1.4429 -0.2584 -0.1995
1.5028 -0.2661 -0.2401
1.5357 -0.2704 -0.2624
1.5912 -0.2813 -0.2829
1.6972 -0.3071 -0.2990
1.7360 -0.3114 -0.3284
1.9631 -0.3623 -0.3830
1.4522 -0.2407 -0.1405
1.4146 -0.2233 -0.1762
1.3888 -0.2098 -0.2079
1.4818 -0.2258 -0.2387
1.5230 -0.2316 -0.2586
1.6682 -0.2591 -0.2958
1.9130 -0.3013 -0.3774
1.8900 -0.2861 -0.4193
1.8597 -0.2692 -0.4610
1.4554 -0.2101 -0.1346
1.3816 -0.1831 -0.1804
1.3769 -0.1760 -0.2060
1.6120 -0.2061 -0.2971
1.8980 -0.2518 -0.3694
1.8837 -0.2391 -0.4102
1.8769 -0.2280 -0.4507
1.4291 -0.1718 -0.1376
1.3880 -0.1550 -0.1739
1.3751 -0.1457 -0.2015
1.3739 -0.1394 -0.2262
1.4022 -0.1403 -0.2447
1.4595 -0.1478 -0.2591
1.5573 -0.1641 -0.2689
1.5764 -0.1611 -0.2958
1.6194 -0.1633 -0.3207
1.6549 -0.1631 -0.3489
1.6788 -0.1600 -0.3803
1.8706 -0.1817 -0.4414
1.3741 -0.1281 -0.1496
1.3579 -0.1183 -0.1777
1.4528 -0.1142 -0.2547
1.4868 -0.1144 -0.2755
1.5482 -0.1198 -0.2937
1.5684 -0.1162 -0.3208
1.6389 -0.1220 -0.3433
1.6270 -0.1114 -0.3774
1.6444 -0.1061 -0.4093
1.6129 -0.0562 -0.5844
1.4890 -0.1311 -0.0846
1.3589 -0.0961 -0.1498
1.3156 -0.0807 -0.1853
1.3233 -0.0764 -0.2058
1.4264 -0.0775 -0.2546
1.4496 -0.0748 -0.2765
1.4925 -0.0754 -0.2965
1.5346 -0.0752 -0.3189
1.5693 -0.0731 -0.3446
1.6241 -0.0738 -0.3701
1.6407 -0.0677 -0.4017
1.5235 -0.0241 -0.5059
1.5174 -0.0146 -0.5386
1.5311 -0.0076 -0.5722
1.5413 0.0002 -0.6069
1.5524 -0.1337 0.0173
1.5006 -0.1024 -0.0761
1.3049 -0.0514 -0.1840
1.3129 -0.0468 -0.2041
1.3381 -0.0451 -0.2204
1.3466 -0.0401 -0.2420
1.4565 -0.0445 -0.2694
1.4997 -0.0438 -0.2892
1.5083 -0.0373 -0.3163
1.5167 -0.0305 -0.3444
1.5291 -0.0156 -0.4034
1.5540 -0.0103 -0.4329
1.5426 -0.0001 -0.4654
1.5109 0.0124 -0.4983
1.7398 0.0180 -0.6095
1.2892 -0.0159 -0.2062
1.3030 -0.0118 -0.2247
1.3726 -0.0088 -0.2553
1.4795 -0.0086 -0.2866
1.4918 -0.0023 -0.3125
1.5005 0.0048 -0.3400
1.6570 -0.0047 -0.3517
1.4635 0.0597 -0.5224
1.4622 0.0687 -0.5537
1.3166 0.0001 -0.1720
1.3152 0.0068 -0.1946
1.3030 0.0150 -0.2202
1.3238 0.0190 -0.2377
1.4717 0.0320 -0.3096
1.4795 0.0394 -0.3364
2.1848 0.0113 -0.3724
2.1903 0.0244 -0.4181
1.2517 0.1359 -0.6223
1.3568 -0.0048 -0.0678
1.3421 0.0037 -0.0946
1.3299 0.0118 -0.1202
1.3068 0.0278 -0.1707
1.3043 0.0347 -0.1933
1.3149 0.0402 -0.2126
1.3263 0.0459 -0.2324
1.4290 0.0587 -0.2841
1.4398 0.0658 -0.3087
2.2513 0.0575 -0.3567
2.3192 0.0687 -0.4000
2.2647 0.0857 -0.4512
1.3408 0.1376 -0.5363
1.2980 0.1469 -0.5631
1.3876 0.0180 -0.0523
1.3677 0.0271 -0.0814
1.3800 0.0326 -0.0991
1.3406 0.0436 -0.1342
1.3247 0.0520 -0.1611
1.3198 0.0594 -0.1845
1.3411 0.0645 -0.2011
1.3643 0.0698 -0.2183
1.3882 0.0755 -0.2366
1.4174 0.0812 -0.2551
1.4113 0.0896 -0.2818
1.4098 0.0977 -0.3080
2.8829 0.0722 -0.2338
2.8803 0.0910 -0.2938
3.0886 0.1057 -0.3420
1.3986 0.0368 -0.0227
1.3971 0.0581 -0.0890
1.3809 0.0667 -0.1169
1.3549 0.0759 -0.1475
1.3462 0.0837 -0.1725
1.3812 0.0964 -0.2092
1.3910 0.1036 -0.2309
1.4193 0.1102 -0.2494
1.4062 0.1189 -0.2773
1.4048 0.1272 -0.3032
3.1755 0.1340 -0.1882
3.1518 0.1553 -0.2561
3.3793 0.1774 -0.3075
1.5618 0.2124 -0.5564
1.3670 0.1018 -0.1395
1.3522 0.1099 -0.1664
1.4002 0.1155 -0.1757
1.4329 0.1222 -0.1911
1.4484 0.1300 -0.2122
1.4388 0.1386 -0.2398
1.4127 0.1475 -0.2707
1.4114 0.1560 -0.2965
3.4211 0.2083 -0.1453
3.4226 0.2317 -0.2158
3.3164 0.2525 -0.2952
1.4574 0.1175 -0.0829
1.4185 0.1427 -0.1659
1.4322 0.1507 -0.1864
1.4169 0.1676 -0.2394
1.4110 0.1760 -0.2657
1.4097 0.1846 -0.2912
3.3312 0.2811 -0.1402
3.3586 0.3055 -0.2057
3.3335 0.3280 -0.2776
4.1395 0.4296 -0.3944
1.6101 0.3083 -0.6100
1.6044 0.3198 -0.6450
1.4550 0.6650 -1.6954
3.3745 0.3569 -0.1196
3.2983 0.3757 -0.1961
3.1766 0.3904 -0.2741
3.3794 0.4303 -0.3286
3.7798 0.4914 -0.3860
1.4618 0.1990 -0.1442
1.5020 0.2183 -0.1835
3.2395 0.3512 0.0683
3.2396 0.3962 -0.0574
2.9761 0.3975 -0.1557
2.9544 0.4169 -0.2178
3.1008 0.4528 -0.2654
3.7363 0.6000 -0.4491
3.8837 0.6485 -0.5317
3.8907 0.6805 -0.6187
1.2953 0.6535 -1.4746
1.2184 0.6659 -1.5369
1.6145 0.2148 -0.0417
2.4579 0.2741 0.1505
3.1853 0.4151 0.0709
3.2557 0.4438 0.0223
3.0745 0.4493 -0.0689
2.7496 0.4374 -0.1727
2.6492 0.4461 -0.2386
2.7099 0.4730 -0.2863
2.8487 0.5111 -0.3321
4.0905 0.7345 -0.4207
4.0193 0.7565 -0.5104
2.7792 0.6116 -0.6354
2.6491 0.3192 0.2607
2.5042 0.3427 0.1289
3.2006 0.4607 0.1467
3.2235 0.4856 0.0913
3.0905 0.4937 0.0063
2.8535 0.4877 -0.0908
2.7130 0.4907 -0.1657
2.6936 0.5081 -0.2214
2.6741 0.5255 -0.2771
2.6706 0.5454 -0.3316
2.7516 0.5789 -0.3824
2.8400 0.6154 -0.4374
2.7763 0.6724 -0.6198
3.1935 0.5485 0.0981
2.9069 0.5333 -0.0147
2.7623 0.5341 -0.0937
2.6619 0.5396 -0.1613
2.6906 0.5641 -0.2098
2.7036 0.5867 -0.2619
2.7113 0.6520 -0.4276
2.7399 0.7023 -0.5434
2.7192 0.7208 -0.6025
2.6985 0.7393 -0.6617
2.5274 0.4447 0.1527
2.6348 0.4755 0.1371
2.7539 0.5096 0.1196
2.9425 0.5555 0.1127
2.9221 0.5738 0.0544
2.8133 0.5782 -0.0205
2.6938 0.5796 -0.0937
2.6595 0.5940 -0.1502
2.6255 0.6081 -0.2061
2.6844 0.6395 -0.2516
2.7540 0.7644 -0.5289
2.8053 0.8001 -0.5900
2.8982 0.8475 -0.6565
2.5116 0.4919 0.1567
2.5084 0.5089 0.1124
2.7041 0.5567 0.1172
2.8137 0.5938 0.0941
2.7617 0.6056 0.0318
2.7426 0.6226 -0.0229
2.6304 0.6225 -0.0935
2.6416 0.6447 -0.1417
2.5936 0.6555 -0.1989
2.8341 0.7262 -0.2229
2.7017 0.7867 -0.4574
2.6649 0.8003 -0.5146
2.6951 0.8312 -0.5724
2.6417 0.8404 -0.6289
2.3479 0.7813 -0.6675
2.3652 0.5172 0.1226
2.8110 0.6490 0.1039
2.7261 0.6537 0.0347
2.6312 0.6554 -0.0339
2.6130 0.6717 -0.0859
2.6246 0.6943 -0.1333
2.5766 0.7042 -0.1900
2.6018 0.7305 -0.2370
2.7553 0.8110 -0.3290
2.6954 0.8647 -0.5006
2.5802 0.8555 -0.5563
2.6232 0.8909 -0.6137
1.0761 0.7809 -1.3956
-0.1983 2.5932 -0.3262
-0.1213 1.0126 -0.5254
-0.1148 1.0070 -0.5254
-0.1083 1.0013 -0.5254
-0.1021 0.9946 -0.5253
-0.0960 0.9878 -0.5252
-0.0895 0.9822 -0.5252
-0.0834 0.9756 -0.5251
-0.0582 0.9522 -0.5250
-0.1289 1.0179 -0.5338
-0.1226 1.0111 -0.5337
-0.1161 1.0054 -0.5337
-0.1097 0.9998 -0.5337
-0.1032 0.9942 -0.5337
-0.0967 0.9885 -0.5337
-0.0903 0.9829 -0.5337
-0.0838 0.9773 -0.5337
-0.0777 0.9706 -0.5336
-0.0712 0.9650 -0.5335
-0.0519 0.9481 -0.5335
-0.0459 0.9415 -0.5334
-0.0395 0.9359 -0.5334
-0.0276 0.9229 -0.5332
-0.0149 0.9118 -0.5332
-0.0085 0.9062 -0.5331
-0.1366 1.0232 -0.5423
-0.1300 1.0176 -0.5423
-0.1235 1.0119 -0.5423
-0.1170 1.0062 -0.5423
-0.1105 1.0005 -0.5423
-0.1043 0.9938 -0.5422
-0.0978 0.9881 -0.5421
-0.0913 0.9824 -0.5421
-0.0718 0.9655 -0.5421
-0.0657 0.9588 -0.5420
-0.0592 0.9532 -0.5419
-0.0528 0.9475 -0.5419
-0.0459 0.9429 -0.5420
-0.0394 0.9372 -0.5420
-0.0334 0.9306 -0.5419
-0.0264 0.9259 -0.5420
-0.0210 0.9185 -0.5417
-0.0140 0.9137 -0.5418
-0.0081 0.9073 -0.5417
-0.0028 0.9000 -0.5415
0.0036 0.8944 -0.5415
0.0164 0.8832 -0.5414
0.0221 0.8769 -0.5413
0.0292 0.8721 -0.5414
0.0356 0.8665 -0.5414
0.0420 0.8609 -0.5414
0.0540 0.8491 -0.5412
0.0604 0.8435 -0.5412
0.0668 0.8380 -0.5412
0.0796 0.8269 -0.5412
0.0923 0.8157 -0.5412
0.0987 0.8102 -0.5411
0.1051 0.8046 -0.5411
0.1115 0.7990 -0.5411
0.1178 0.7935 -0.5411
0.1242 0.7879 -0.5411
0.1306 0.7824 -0.5411
0.1370 0.7768 -0.5410
0.1434 0.7712 -0.5410
-0.1053 0.9933 -0.5507
-0.0988 0.9877 -0.5506
-0.0923 0.9820 -0.5506
-0.0858 0.9763 -0.5506
-0.0793 0.9706 -0.5506
-0.0731 0.9640 -0.5505
-0.0667 0.9583 -0.5504
-0.0598 0.9536 -0.5506
-0.0537 0.9470 -0.5504
-0.0468 0.9423 -0.5505
-0.0403 0.9366 -0.5505
-0.0342 0.9300 -0.5504
-0.0272 0.9253 -0.5505
-0.0212 0.9187 -0.5503
-0.0142 0.9139 -0.5505
-0.0077 0.9082 -0.5504
-0.0024 0.9009 -0.5502
0.0041 0.8953 -0.5501
0.0106 0.8897 -0.5501
0.0170 0.8840 -0.5501
0.0215 0.8762 -0.5497
0.0286 0.8713 -0.5498
0.0357 0.8664 -0.5499
0.0429 0.8615 -0.5501
0.0479 0.8545 -0.5498
0.0543 0.8489 -0.5497
0.0607 0.8433 -0.5497
0.0663 0.8371 -0.5496
0.0800 0.8265 -0.5497
0.0864 0.8209 -0.5497
0.0928 0.8153 -0.5497
0.0992 0.8097 -0.5496
0.1057 0.8041 -0.5496
0.1140 0.7995 -0.5499
0.1185 0.7929 -0.5496
0.1249 0.7873 -0.5496
0.1314 0.7817 -0.5496
0.1378 0.7761 -0.5496
0.1442 0.7705 -0.5495
0.1517 0.7653 -0.5497
0.1571 0.7593 -0.5495
0.1635 0.7537 -0.5495
0.1688 0.7478 -0.5493
0.1752 0.7422 -0.5493
0.1816 0.7366 -0.5493
0.1880 0.7310 -0.5493
0.1956 0.7257 -0.5494
0.2008 0.7199 -0.5493
-0.1251 1.0158 -0.5601
-0.1123 1.0020 -0.5597
-0.1059 0.9951 -0.5596
-0.0994 0.9894 -0.5595
-0.0928 0.9837 -0.5595
-0.0862 0.9779 -0.5595
-0.0797 0.9722 -0.5595
-0.0734 0.9655 -0.5593
-0.0669 0.9598 -0.5593
-0.0607 0.9531 -0.5591
-0.0481 0.9407 -0.5589
-0.0420 0.9342 -0.5587
-0.0351 0.9294 -0.5589
-0.0215 0.9189 -0.5590
-0.0096 0.9059 -0.5587
-0.0019 0.9018 -0.5590
0.0046 0.8961 -0.5590
0.0105 0.8897 -0.5588
0.0157 0.8825 -0.5584
0.0235 0.8783 -0.5588
0.0300 0.8727 -0.5588
0.0344 0.8649 -0.5582
0.0423 0.8606 -0.5586
0.0481 0.8543 -0.5584
0.0553 0.8493 -0.5585
0.0602 0.8424 -0.5582
0.0674 0.8374 -0.5583
0.0747 0.8324 -0.5585
0.0804 0.8261 -0.5583
0.0886 0.8216 -0.5586
0.0951 0.8159 -0.5586
0.0998 0.8092 -0.5583
0.1062 0.8036 -0.5582
0.1127 0.7979 -0.5582
0.1201 0.7928 -0.5584
0.1266 0.7871 -0.5584
0.1321 0.7810 -0.5582
0.1386 0.7754 -0.5582
0.1440 0.7694 -0.5580
0.1504 0.7638 -0.5580
0.1580 0.7585 -0.5581
0.1644 0.7529 -0.5581
0.1709 0.7472 -0.5581
0.1762 0.7413 -0.5579
0.1838 0.7359 -0.5581
0.1903 0.7303 -0.5581
0.1968 0.7247 -0.5580
0.2020 0.7188 -0.5579
-0.1198 1.0085 -0.5687
-0.1132 1.0027 -0.5686
-0.1066 0.9969 -0.5686
-0.0999 0.9911 -0.5686
-0.0933 0.9853 -0.5686
-0.0864 0.9806 -0.5688
-0.0797 0.9748 -0.5688
-0.0734 0.9680 -0.5685
-0.0668 0.9622 -0.5685
-0.0605 0.9554 -0.5683
-0.0539 0.9497 -0.5683
-0.0477 0.9430 -0.5681
-0.0411 0.9372 -0.5681
-0.0345 0.9315 -0.5681
-0.0279 0.9257 -0.5681
-0.0213 0.9200 -0.5680
-0.0147 0.9142 -0.5680
-0.0027 0.9011 -0.5676
0.0033 0.8946 -0.5674
0.0104 0.8897 -0.5676
0.0170 0.8840 -0.5676
0.0228 0.8775 -0.5674
0.0287 0.8711 -0.5671
0.0424 0.8605 -0.5673
0.0490 0.8548 -0.5673
0.0547 0.8484 -0.5671
0.0612 0.8428 -0.5671
0.0677 0.8371 -0.5671
0.0743 0.8314 -0.5670
0.0791 0.8246 -0.5666
0.0864 0.8195 -0.5668
0.0938 0.8144 -0.5670
0.1003 0.8087 -0.5670
0.1059 0.8026 -0.5668
0.1133 0.7974 -0.5670
0.1198 0.7917 -0.5669
0.1263 0.7860 -0.5669
0.1328 0.7803 -0.5669
0.1393 0.7747 -0.5669
0.1437 0.7682 -0.5665
0.1502 0.7626 -0.5665
0.1567 0.7570 -0.5665
0.1631 0.7513 -0.5665
0.1696 0.7457 -0.5664
0.1761 0.7401 -0.5664
0.1825 0.7344 -0.5664
0.1902 0.7290 -0.5666
0.1967 0.7234 -0.5666
0.2019 0.7175 -0.5664
-0.1275 1.0150 -0.5777
-0.1206 1.0103 -0.5779
-0.1075 0.9975 -0.5776
-0.1008 0.9917 -0.5776
-0.0944 0.9848 -0.5774
-0.0877 0.9790 -0.5774
-0.0811 0.9732 -0.5773
-0.0744 0.9674 -0.5773
-0.0678 0.9616 -0.5773
-0.0607 0.9568 -0.5775
-0.0540 0.9509 -0.5775
-0.0411 0.9384 -0.5773
-0.0345 0.9326 -0.5772
-0.0283 0.9259 -0.5770
-0.0217 0.9201 -0.5770
-0.0156 0.9135 -0.5767
-0.0089 0.9077 -0.5767
-0.0029 0.9012 -0.5765
0.0043 0.8962 -0.5767
0.0103 0.8897 -0.5765
0.0163 0.8832 -0.5762
0.0287 0.8710 -0.5760
0.0360 0.8660 -0.5762
0.0491 0.8545 -0.5762
0.0607 0.8418 -0.5757
0.0680 0.8367 -0.5759
0.0746 0.8310 -0.5759
0.0811 0.8253 -0.5759
0.0942 0.8139 -0.5758
0.1008 0.8082 -0.5758
0.1073 0.8025 -0.5758
0.1129 0.7963 -0.5756
0.1195 0.7906 -0.5756
0.1270 0.7854 -0.5758
0.1335 0.7796 -0.5757
0.1401 0.7739 -0.5757
0.1466 0.7682 -0.5757
0.1521 0.7622 -0.5755
0.1575 0.7561 -0.5752
0.1640 0.7504 -0.5752
0.1706 0.7448 -0.5752
0.1771 0.7391 -0.5752
0.1824 0.7332 -0.5750
0.1889 0.7275 -0.5750
-0.1218 1.0098 -0.5868
-0.1084 0.9981 -0.5867
-0.1019 0.9912 -0.5865
-0.0952 0.9854 -0.5865
-0.0885 0.9795 -0.5864
-0.0821 0.9727 -0.5862
-0.0754 0.9668 -0.5862
-0.0688 0.9610 -0.5861
-0.0621 0.9552 -0.5861
-0.0550 0.9503 -0.5864
-0.0487 0.9435 -0.5861
-0.0416 0.9386 -0.5863
-0.0354 0.9319 -0.5861
-0.0292 0.9252 -0.5858
-0.0220 0.9203 -0.5860
-0.0087 0.9086 -0.5860
-0.0025 0.9020 -0.5857
0.0102 0.8896 -0.5855
0.0162 0.8831 -0.5852
0.0228 0.8773 -0.5852
0.0301 0.8723 -0.5854
0.0360 0.8658 -0.5852
0.0426 0.8600 -0.5851
0.0507 0.8556 -0.5856
0.0566 0.8491 -0.5854
0.0625 0.8427 -0.5851
0.0683 0.8364 -0.5848
0.0749 0.8306 -0.5848
0.0815 0.8249 -0.5848
0.0881 0.8191 -0.5848
0.0955 0.8139 -0.5850
0.1022 0.8082 -0.5850
0.1088 0.8024 -0.5850
0.1144 0.7962 -0.5847
0.1220 0.7909 -0.5850
0.1286 0.7851 -0.5850
0.1342 0.7789 -0.5847
0.1408 0.7732 -0.5847
0.1464 0.7670 -0.5844
0.1584 0.7553 -0.5841
0.1661 0.7499 -0.5844
0.1738 0.7444 -0.5846
0.1792 0.7384 -0.5843
0.1846 0.7324 -0.5841
0.1900 0.7265 -0.5838
0.1965 0.7208 -0.5838
-0.0890 0.9810 -0.5959
-0.0823 0.9751 -0.5959
-0.0556 0.9506 -0.5956
-0.0488 0.9447 -0.5955
-0.0430 0.9371 -0.5950
-0.0363 0.9312 -0.5950
-0.0296 0.9254 -0.5949
-0.0224 0.9204 -0.5952
-0.0167 0.9129 -0.5946
-0.0100 0.9070 -0.5946
-0.0033 0.9012 -0.5946
0.0033 0.8954 -0.5946
0.0227 0.8772 -0.5943
0.0301 0.8721 -0.5945
0.0367 0.8663 -0.5945
0.0427 0.8598 -0.5942
0.0508 0.8553 -0.5948
0.0560 0.8482 -0.5942
0.0619 0.8418 -0.5939
0.0685 0.8360 -0.5939
0.0760 0.8308 -0.5942
0.0826 0.8250 -0.5941
0.0893 0.8192 -0.5941
0.0951 0.8129 -0.5938
0.1017 0.8071 -0.5938
0.1093 0.8018 -0.5941
0.1159 0.7960 -0.5941
0.1216 0.7897 -0.5938
0.1283 0.7839 -0.5938
0.1359 0.7786 -0.5940
0.1425 0.7728 -0.5940
0.1492 0.7670 -0.5940
0.1559 0.7612 -0.5940
0.1625 0.7554 -0.5940
0.1681 0.7492 -0.5937
0.1736 0.7432 -0.5934
0.1802 0.7374 -0.5934
0.1856 0.7314 -0.5931
-0.1305 1.0182 -0.6056
-0.1237 1.0123 -0.6056
-0.1169 1.0063 -0.6056
-0.1100 1.0004 -0.6056
-0.1032 0.9944 -0.6056
-0.0964 0.9885 -0.6056
-0.0898 0.9815 -0.6052
-0.0830 0.9756 -0.6052
-0.0765 0.9686 -0.6049
-0.0694 0.9637 -0.6052
-0.0622 0.9587 -0.6055
-0.0558 0.9518 -0.6052
-0.0494 0.9450 -0.6048
-0.0098 0.9079 -0.6041
0.0166 0.8836 -0.6038
0.0294 0.8712 -0.6034
0.0367 0.8661 -0.6037
0.0421 0.8589 -0.6031
0.0487 0.8531 -0.6031
0.0554 0.8473 -0.6031
0.0629 0.8420 -0.6034
0.0680 0.8350 -0.6028
0.0746 0.8292 -0.6027
0.0805 0.8229 -0.6024
0.0888 0.8181 -0.6030
0.0963 0.8128 -0.6033
0.1030 0.8070 -0.6033
0.1088 0.8007 -0.6030
0.1155 0.7949 -0.6030
0.1212 0.7886 -0.6026
0.1289 0.7832 -0.6029
0.1355 0.7774 -0.6029
0.1412 0.7712 -0.6026
0.1479 0.7654 -0.6026
0.1545 0.7596 -0.6026
0.1623 0.7541 -0.6028
0.1689 0.7483 -0.6028
0.1745 0.7422 -0.6025
0.1811 0.7364 -0.6025
0.1878 0.7306 -0.6025
0.1944 0.7248 -0.6025
-0.1383 1.0260 -0.6154
-0.1316 1.0189 -0.6151
-0.1179 1.0069 -0.6151
-0.1108 1.0020 -0.6154
-0.1044 0.9939 -0.6147
-0.0975 0.9879 -0.6147
-0.0904 0.9829 -0.6150
-0.0835 0.9770 -0.6150
-0.0770 0.9700 -0.6146
-0.0698 0.9650 -0.6150
-0.0629 0.9590 -0.6149
-0.0564 0.9521 -0.6146
-0.0496 0.9461 -0.6146
-0.0295 0.9273 -0.6142
-0.0158 0.9154 -0.6142
-0.0090 0.9095 -0.6142
0.0035 0.8961 -0.6135
0.0232 0.8776 -0.6131
0.0361 0.8652 -0.6127
0.0495 0.8534 -0.6127
0.0563 0.8475 -0.6127
0.0824 0.8235 -0.6123
0.0883 0.8171 -0.6120
0.0950 0.8113 -0.6119
0.1017 0.8054 -0.6119
0.1151 0.7937 -0.6119
0.1218 0.7879 -0.6119
0.1285 0.7821 -0.6119
0.1342 0.7758 -0.6115
0.1409 0.7700 -0.6115
0.1486 0.7645 -0.6118
0.1553 0.7587 -0.6118
0.1620 0.7529 -0.6118
0.1687 0.7470 -0.6118
0.1754 0.7412 -0.6118
0.1821 0.7353 -0.6117
0.1888 0.7295 -0.6117
0.1943 0.7234 -0.6114
-0.1328 1.0184 -0.6243
-0.1120 1.0014 -0.6246
-0.1053 0.9944 -0.6243
-0.0986 0.9873 -0.6239
-0.0915 0.9823 -0.6242
-0.0846 0.9763 -0.6242
-0.0777 0.9703 -0.6242
-0.0712 0.9634 -0.6238
-0.0643 0.9574 -0.6238
-0.0574 0.9514 -0.6238
-0.0506 0.9454 -0.6238
-0.0364 0.9343 -0.6241
-0.0300 0.9274 -0.6237
-0.0241 0.9198 -0.6230
-0.0167 0.9146 -0.6233
-0.0099 0.9087 -0.6233
-0.0036 0.9019 -0.6230
0.0231 0.8774 -0.6225
0.0293 0.8708 -0.6222
0.0380 0.8669 -0.6232
0.0571 0.8478 -0.6225
0.0632 0.8412 -0.6221
0.0775 0.8300 -0.6224
0.0962 0.8112 -0.6216
0.1048 0.8062 -0.6223
0.1107 0.7998 -0.6220
0.1174 0.7939 -0.6220
0.1493 0.7637 -0.6212
0.1819 0.7340 -0.6207
-0.1405 1.0285 -0.6352
-0.1336 1.0224 -0.6351
-0.1194 1.0113 -0.6355
-0.1126 1.0041 -0.6351
-0.0991 0.9898 -0.6343
-0.0924 0.9827 -0.6339
-0.0646 0.9586 -0.6338
-0.0581 0.9516 -0.6334
-0.0512 0.9456 -0.6334
-0.0447 0.9387 -0.6330
-0.0304 0.9275 -0.6334
-0.0245 0.9198 -0.6326
-0.0023 0.9042 -0.6337
0.0099 0.8899 -0.6325
0.0161 0.8832 -0.6321
0.0230 0.8772 -0.6321
0.0305 0.8719 -0.6324
0.0373 0.8659 -0.6324
0.0442 0.8600 -0.6324
0.0525 0.8552 -0.6332
0.0579 0.8480 -0.6324
0.0656 0.8426 -0.6328
0.0717 0.8360 -0.6324
0.0785 0.8300 -0.6323
0.0983 0.8116 -0.6319
0.1043 0.8051 -0.6315
0.1120 0.7996 -0.6319
0.1179 0.7932 -0.6315
0.1247 0.7873 -0.6315
0.1325 0.7817 -0.6318
0.1404 0.7761 -0.6322
0.1472 0.7701 -0.6322
0.1551 0.7645 -0.6326
0.1620 0.7585 -0.6325
0.1678 0.7522 -0.6321
0.1736 0.7459 -0.6317
0.1793 0.7397 -0.6313
-0.1635 1.0308 -0.6393
-0.1569 1.0226 -0.6384
-0.1500 1.0202 -0.6396
-0.1433 1.0132 -0.6392
-0.1368 1.0051 -0.6384
-0.1297 1.0025 -0.6396
-0.1222 1.0010 -0.6412
-0.1161 0.9907 -0.6396
-0.1094 0.9849 -0.6395
-0.1024 0.9800 -0.6399
-0.0948 0.9771 -0.6412
-0.0883 0.9701 -0.6407
-0.0808 0.9661 -0.6416
-0.0743 0.9592 -0.6411
-0.0671 0.9541 -0.6415
-0.0595 0.9500 -0.6423
-0.0537 0.9413 -0.6411
-0.0457 0.9379 -0.6423
-0.0388 0.9319 -0.6423
-0.0332 0.9234 -0.6410
-0.0263 0.9174 -0.6410
-0.0195 0.9114 -0.6410
-0.0116 0.9070 -0.6418
-0.0042 0.9018 -0.6422
0.0022 0.8950 -0.6418
0.0085 0.8883 -0.6414
0.0141 0.8809 -0.6405
0.0210 0.8749 -0.6405
0.0278 0.8690 -0.6405
0.0366 0.8650 -0.6417
0.0442 0.8596 -0.6421
0.0504 0.8530 -0.6417
0.0573 0.8470 -0.6417
0.0642 0.8410 -0.6416
0.0710 0.8349 -0.6416
0.0779 0.8289 -0.6416
0.0824 0.8214 -0.6404
0.0884 0.8149 -0.6399
0.0969 0.8099 -0.6407
0.1055 0.8049 -0.6415
0.1124 0.7989 -0.6415
0.1184 0.7925 -0.6411
0.1252 0.7865 -0.6411
0.1302 0.7797 -0.6403
0.1390 0.7745 -0.6411
0.1478 0.7692 -0.6419
0.1547 0.7632 -0.6419
0.1596 0.7565 -0.6410
0.1675 0.7509 -0.6414
0.1733 0.7446 -0.6410
0.1780 0.7380 -0.6401
0.1859 0.7323 -0.6405
-0.1720 1.0146 -0.6405
-0.1267 0.9800 -0.6421
-0.1135 0.9698 -0.6425
-0.1082 0.9590 -0.6403
-0.1018 0.9535 -0.6403
-0.0935 0.9548 -0.6434
-0.0824 0.9377 -0.6407
-0.0746 0.9358 -0.6425
-0.0605 0.9272 -0.6437
-0.0539 0.9215 -0.6437
-0.0474 0.9158 -0.6437
-0.0431 0.9059 -0.6415
-0.0352 0.9027 -0.6428
-0.0253 0.9026 -0.6459
-0.0212 0.8929 -0.6437
-0.0141 0.8880 -0.6441
-0.0081 0.8815 -0.6436
-0.0010 0.8765 -0.6441
0.0056 0.8708 -0.6440
0.0122 0.8651 -0.6440
0.0181 0.8587 -0.6436
0.0247 0.8530 -0.6436
0.0312 0.8472 -0.6435
0.0378 0.8415 -0.6435
0.0429 0.8346 -0.6426
0.0494 0.8290 -0.6426
0.0559 0.8233 -0.6426
0.0640 0.8187 -0.6435
0.0721 0.8140 -0.6443
0.0771 0.8073 -0.6434
0.0845 0.8020 -0.6439
0.0884 0.7949 -0.6425
0.0949 0.7892 -0.6425
0.1024 0.7840 -0.6429
0.1089 0.7783 -0.6429
0.1145 0.7722 -0.6425
0.1219 0.7669 -0.6429
0.1305 0.7619 -0.6438
0.1370 0.7562 -0.6437
0.1436 0.7505 -0.6437
0.1523 0.7454 -0.6446
0.1578 0.7393 -0.6441
0.1622 0.7330 -0.6432
0.1710 0.7278 -0.6441
0.1868 0.7239 -0.6476
-0.6949 0.4402 -0.6446
-0.6819 0.4288 -0.6445
-0.6766 0.4229 -0.6449
-0.6571 0.4131 -0.6423
-0.6517 0.4072 -0.6427
-0.6151 0.3726 -0.6435
-0.5812 0.3453 -0.6425
-0.5676 0.3346 -0.6421
-0.5635 0.3273 -0.6433
-0.5326 0.2977 -0.6441
-0.5274 0.2907 -0.6449
-0.5119 0.2820 -0.6432
-0.4362 0.2095 -0.6451
-0.4300 0.2028 -0.6455
-0.4228 0.1989 -0.6446
-0.4155 0.1961 -0.6433
-0.4085 0.1924 -0.6424
-0.4035 0.1807 -0.6450
-0.3971 0.1739 -0.6454
-0.3905 0.1681 -0.6454
-0.3641 0.1462 -0.6449
-0.3571 0.1461 -0.6427
-0.7271 0.4407 -0.6443
-0.7190 0.4348 -0.6439
-0.7168 0.4279 -0.6455
-0.7006 0.4162 -0.6446
-0.6713 0.4003 -0.6414
-0.6157 0.3441 -0.6436
-0.5977 0.3345 -0.6415
-0.5926 0.3275 -0.6423
-0.5412 0.2762 -0.6442
-0.5336 0.2708 -0.6437
-0.5215 0.2565 -0.6449
-0.4857 0.2275 -0.6440
-0.4382 0.1821 -0.6451
-0.4309 0.1769 -0.6446
-0.4242 0.1698 -0.6450
-0.4172 0.1637 -0.6450
-0.4027 0.1535 -0.6442
-0.3956 0.1484 -0.6437
-0.3886 0.1423 -0.6437
-0.3820 0.1341 -0.6445
-0.3751 0.1279 -0.6445
-0.3676 0.1263 -0.6429
-0.3611 0.1157 -0.6444
-0.3540 0.1119 -0.6436
-0.7442 0.4213 -0.6448
-0.7368 0.4148 -0.6448
-0.7164 0.4031 -0.6429
-0.6840 0.3784 -0.6417
-0.6096 0.3044 -0.6441
-0.5823 0.2890 -0.6414
-0.5598 0.2706 -0.6409
-0.5558 0.2608 -0.6428
-0.5503 0.2523 -0.6439
-0.5143 0.2182 -0.6445
-0.4924 0.1977 -0.6448
-0.4651 0.1651 -0.6474
-0.4245 0.1407 -0.6439
-0.4174 0.1331 -0.6442
-0.3950 0.1135 -0.6442
-0.3801 0.1004 -0.6441
-0.3732 0.0882 -0.6460
-0.3650 0.0896 -0.6433
-0.3576 0.0819 -0.6437
-0.3501 0.0766 -0.6433
-0.6794 0.3407 -0.6406
-0.6200 0.2711 -0.6453
-0.6011 0.2594 -0.6439
-0.5938 0.2518 -0.6442
-0.5851 0.2454 -0.6438
-0.5606 0.2251 -0.6434
-0.5435 0.2127 -0.6427
-0.5277 0.1988 -0.6426
-0.5218 0.1886 -0.6440
-0.5048 0.1762 -0.6432
-0.4969 0.1692 -0.6432
-0.4822 0.1526 -0.6442
-0.3772 0.0667 -0.6422
-0.3695 0.0575 -0.6428
-0.3536 0.0447 -0.6424
-0.3456 0.0389 -0.6421
-0.7259 0.3298 -0.6429
-0.7003 0.3073 -0.6429
-0.6849 0.2912 -0.6434
-0.6504 0.2610 -0.6433
-0.6232 0.2396 -0.6426
-0.6153 0.2314 -0.6429
-0.6074 0.2232 -0.6432
-0.5975 0.2170 -0.6426
-0.5902 0.2081 -0.6432
-0.5809 0.2013 -0.6428
-0.5655 0.1839 -0.6437
-0.5563 0.1771 -0.6434
-0.5466 0.1711 -0.6427
-0.5395 0.1611 -0.6437
-0.5319 0.1519 -0.6443
-0.5236 0.1434 -0.6446
-0.5122 0.1410 -0.6426
-0.5041 0.1325 -0.6429
-0.4975 0.1205 -0.6445
-0.4869 0.1174 -0.6429
-0.4614 0.0938 -0.6431
-0.4521 0.0882 -0.6425
-0.4449 0.0756 -0.6440
-0.4350 0.0731 -0.6424
-0.4092 0.0505 -0.6423
-0.3931 0.0276 -0.6445
-0.3836 0.0268 -0.6426
-0.3664 0.0116 -0.6425
-0.8340 0.3684 -0.6442
-0.8213 0.3610 -0.6433
-0.7352 0.2880 -0.6425
-0.7166 0.2716 -0.6424
-0.7064 0.2640 -0.6421
-0.6894 0.2465 -0.6427
-0.6856 0.2342 -0.6447
-0.6621 0.2213 -0.6429
-0.6506 0.2150 -0.6420
-0.6361 0.1946 -0.6437
-0.6173 0.1781 -0.6436
-0.5978 0.1623 -0.6433
-0.5518 0.1193 -0.6437
-0.5423 0.1110 -0.6437
-0.5293 0.1097 -0.6413
-0.5200 0.1016 -0.6413
-0.5115 0.0916 -0.6418
-0.4743 0.0589 -0.6417
-0.4548 0.0456 -0.6408
-0.4463 0.0344 -0.6417
-0.4387 0.0188 -0.6437
-0.4185 0.0087 -0.6419
-0.4092 0.0005 -0.6418
-0.4008 -0.0145 -0.6436
-0.3909 -0.0193 -0.6427
-0.3815 -0.0276 -0.6426
-0.3715 -0.0287 -0.6408
-0.8893 0.3520 -0.6448
-0.8667 0.3463 -0.6418
-0.8653 0.3347 -0.6439
-0.7761 0.2654 -0.6418
-0.7047 0.2027 -0.6416
-0.6828 0.1861 -0.6410
-0.6714 0.1595 -0.6444
-0.6570 0.1545 -0.6428
-0.6428 0.1497 -0.6412
-0.6414 0.1305 -0.6449
-0.6267 0.1266 -0.6430
-0.6140 0.1206 -0.6419
-0.5633 0.0748 -0.6420
-0.5544 0.0632 -0.6428
-0.5454 0.0514 -0.6435
-0.5246 0.0332 -0.6435
-0.5131 0.0269 -0.6426
-0.4925 0.0088 -0.6426
-0.4626 -0.0226 -0.6435
-0.3890 -0.0795 -0.6417
-0.9125 0.3182 -0.6406
-0.9090 0.2918 -0.6449
-0.8424 0.2605 -0.6397
-0.7953 0.2062 -0.6419
-0.7668 0.1722 -0.6435
-0.7317 0.1621 -0.6396
-0.7228 0.1503 -0.6403
-0.6958 0.1137 -0.6426
-0.6386 0.0635 -0.6424
-0.6038 0.0343 -0.6421
-0.5380 -0.0326 -0.6435
-0.5221 -0.0310 -0.6406
-1.0720 0.3706 -0.6400
-1.0450 0.3352 -0.6418
-1.0321 0.3095 -0.6441
-1.0029 0.2878 -0.6434
-0.9900 0.2765 -0.6434
-0.9643 0.2539 -0.6433
-0.9392 0.2476 -0.6407
-0.8033 0.1439 -0.6378
-0.7526 0.0785 -0.6410
-0.7338 0.0737 -0.6390
-0.7291 0.0540 -0.6416
-0.6697 -0.0086 -0.6431
-1.1742 0.3189 -0.6433
-0.8559 0.0566 -0.6400
-0.5598 -0.2295 -0.6428
-0.4688 -0.2963 -0.6407
-1.1942 0.1811 -0.6422
-1.1311 0.1416 -0.6401
-1.0322 0.0522 -0.6402
-0.9894 0.0291 -0.6383
-0.9834 0.0066 -0.6403
-0.9581 -0.0301 -0.6420
-0.5962 -0.3358 -0.6395
-1.3610 0.2099 -0.6316
-1.3445 0.1928 -0.6318
-1.3280 0.1756 -0.6321
-1.2971 0.1632 -0.6305
-1.2732 0.1488 -0.6298
-1.2081 0.0797 -0.6308
-1.1460 0.0065 -0.6324
-1.0798 -0.0369 -0.6308
-0.9891 -0.1219 -0.6311
-0.9674 -0.1356 -0.6305
-0.9202 -0.1957 -0.6322
-0.8968 -0.2069 -0.6312
-0.8234 -0.2767 -0.6315
-0.8023 -0.2898 -0.6309
-0.7621 -0.3185 -0.6301
-0.6290 -0.4287 -0.6291
-0.5383 -0.5243 -0.6304
-0.5160 -0.5225 -0.6282
-0.4629 -0.5931 -0.6304
-1.3137 0.1539 -0.6079
-1.2056 0.0523 -0.6081
-1.1092 -0.0297 -0.6076
-1.0878 -0.0444 -0.6073
-1.0714 -0.0628 -0.6075
-1.0352 -0.0973 -0.6076
-0.9959 -0.1292 -0.6073
-0.9630 -0.1675 -0.6079
-0.9439 -0.1842 -0.6079
-0.9229 -0.1986 -0.6075
-0.9103 -0.2231 -0.6085
-0.8660 -0.2485 -0.6073
-0.8487 -0.2677 -0.6076
-0.8107 -0.3012 -0.6075
-0.7901 -0.3152 -0.6071
-0.7667 -0.3236 -0.6061
-0.7503 -0.3448 -0.6066
-0.7323 -0.3632 -0.6067
-0.7133 -0.3799 -0.6067
-0.6944 -0.3965 -0.6066
-0.6273 -0.4916 -0.6092
-1.3106 0.1515 -0.5833
-1.2898 0.1359 -0.5831
-1.2669 0.1212 -0.5827
-1.1846 0.0341 -0.5833
-1.1593 0.0213 -0.5827
-1.1452 0.0022 -0.5830
-1.0588 -0.0859 -0.5835
-1.0359 -0.0992 -0.5830
-1.0247 -0.1225 -0.5838
-0.9982 -0.1322 -0.5829
-0.9557 -0.1601 -0.5822
-0.9465 -0.1871 -0.5833
-0.9262 -0.2022 -0.5831
-0.9105 -0.2228 -0.5834
-0.8927 -0.2411 -0.5835
-0.8694 -0.2521 -0.5829
-0.8137 -0.3037 -0.5829
-0.7947 -0.3204 -0.5828
-0.7738 -0.3333 -0.5825
-0.7568 -0.3537 -0.5827
-0.7360 -0.3665 -0.5824
-0.6962 -0.3947 -0.5819
-0.6793 -0.4163 -0.5822
-0.6612 -0.4349 -0.5823
-0.6457 -0.4620 -0.5830
-0.6272 -0.4810 -0.5831
-0.6065 -0.4924 -0.5827
-1.3959 0.2103 -0.5599
-1.3747 0.1945 -0.5597
-1.3503 0.1798 -0.5594
-1.3372 0.1616 -0.5596
-1.2965 0.1299 -0.5593
-1.1346 -0.0217 -0.5592
-1.1123 -0.0358 -0.5589
-1.0970 -0.0548 -0.5591
-1.0618 -0.0898 -0.5591
-1.0350 -0.0997 -0.5586
-1.0147 -0.1147 -0.5584
-1.0028 -0.1374 -0.5588
-0.9638 -0.1690 -0.5586
-0.9436 -0.1839 -0.5584
-0.9229 -0.1981 -0.5582
-0.9074 -0.2184 -0.5584
-0.8540 -0.2722 -0.5585
-0.8362 -0.2905 -0.5586
-0.7581 -0.3523 -0.5581
-0.7406 -0.3717 -0.5582
-0.7045 -0.4089 -0.5583
-0.6847 -0.4235 -0.5581
-0.6650 -0.4380 -0.5580
-0.6296 -0.4787 -0.5582
-0.6074 -0.4845 -0.5577
-1.3571 0.1740 -0.5356
-1.2802 0.1093 -0.5353
-1.2430 0.0766 -0.5352
-1.1684 0.0111 -0.5350
-1.1498 -0.0052 -0.5349
-1.1311 -0.0216 -0.5349
-1.1125 -0.0380 -0.5348
-1.0193 -0.1198 -0.5346
-1.0006 -0.1361 -0.5345
-0.9835 -0.1540 -0.5345
-0.9461 -0.1868 -0.5344
-0.9247 -0.2000 -0.5342
-0.9048 -0.2147 -0.5341
-0.8689 -0.2490 -0.5341
-0.8556 -0.2731 -0.5342
-0.8368 -0.2896 -0.5342
-0.8153 -0.3016 -0.5340
-0.7982 -0.3207 -0.5340
-0.7780 -0.3344 -0.5339
-0.7607 -0.3536 -0.5339
-0.7452 -0.3769 -0.5340
-0.7263 -0.3934 -0.5340
-0.7062 -0.4070 -0.5339
-0.6846 -0.4164 -0.5336
-0.6644 -0.4286 -0.5335
-0.6458 -0.4449 -0.5334
-0.6265 -0.4591 -0.5333
-0.6092 -0.4798 -0.5334
-0.5920 -0.5017 -0.5334
-0.5744 -0.5227 -0.5335
-0.5568 -0.5450 -0.5335
-0.5383 -0.5640 -0.5335
-1.3804 0.1853 -0.5118
-1.1897 0.0234 -0.5112
-1.0764 -0.0732 -0.5109
-1.0465 -0.1119 -0.5108
-1.0207 -0.1221 -0.5107
-1.0052 -0.1412 -0.5107
-0.9784 -0.1495 -0.5106
-0.9650 -0.1710 -0.5106
-0.9444 -0.1849 -0.5105
-0.9259 -0.2012 -0.5105
-0.9094 -0.2198 -0.5104
-0.8549 -0.2704 -0.5102
-0.8363 -0.2867 -0.5102
-0.8149 -0.2986 -0.5101
-0.7980 -0.3176 -0.5101
-0.7805 -0.3357 -0.5100
-0.7638 -0.3559 -0.5099
-0.7466 -0.3752 -0.5099
-0.7061 -0.4010 -0.5098
-0.6855 -0.4122 -0.5097
-0.6689 -0.4337 -0.5097
-0.6510 -0.4521 -0.5096
-0.6324 -0.4685 -0.5096
-0.6138 -0.4849 -0.5095
-0.5420 -0.5644 -0.5093
-0.5231 -0.5810 -0.5092
-1.3143 0.1363 -0.4880
-1.3036 0.1172 -0.4878
-1.2775 0.1040 -0.4879
-1.2591 0.0879 -0.4879
-1.1786 0.0270 -0.4879
-1.1670 0.0070 -0.4876
-1.1570 -0.0143 -0.4873
-1.1402 -0.0318 -0.4872
-1.1180 -0.0457 -0.4873
-1.1047 -0.0658 -0.4870
-1.0414 -0.1088 -0.4871
-1.0229 -0.1251 -0.4871
-1.0013 -0.1384 -0.4871
-0.9777 -0.1494 -0.4873
-0.9631 -0.1692 -0.4871
-0.9461 -0.1869 -0.4870
-0.9365 -0.2134 -0.4865
-0.9179 -0.2298 -0.4865
-0.8921 -0.2370 -0.4867
-0.8768 -0.2575 -0.4865
-0.8540 -0.2677 -0.4867
-0.4505 -0.6372 -0.4852
-0.4321 -0.6562 -0.4851
-0.4139 -0.6791 -0.4849
-0.3957 -0.7049 -0.4846
-1.4788 0.2971 -0.4660
-1.4492 0.2641 -0.4656
-1.4273 0.2490 -0.4657
-1.4092 0.2332 -0.4657
-1.3887 0.2179 -0.4657
-1.3706 0.2021 -0.4657
-1.3431 0.1892 -0.4660
-1.3276 0.1727 -0.4659
-1.3188 0.1538 -0.4654
-1.3008 0.1380 -0.4653
-1.2805 0.1230 -0.4654
-1.2561 0.0861 -0.4647
-1.2337 0.0720 -0.4649
-1.2175 0.0551 -0.4647
-1.2063 0.0354 -0.4643
-1.1899 0.0182 -0.4641
-1.1696 0.0031 -0.4642
-1.1484 -0.0112 -0.4643
-1.1329 -0.0291 -0.4641
-1.1118 -0.0434 -0.4642
-1.0979 -0.0626 -0.4638
-1.0778 -0.0775 -0.4639
-1.0610 -0.0950 -0.4637
-1.0443 -0.1125 -0.4636
-1.0242 -0.1273 -0.4636
-1.0074 -0.1449 -0.4635
-0.9904 -0.1626 -0.4633
-0.9719 -0.1788 -0.4633
-0.9534 -0.1951 -0.4632
-0.9349 -0.2113 -0.4631
-0.9151 -0.2259 -0.4632
-0.8954 -0.2404 -0.4633
-0.8770 -0.2566 -0.4632
-0.8585 -0.2727 -0.4631
-0.8425 -0.2925 -0.4629
-0.8268 -0.3133 -0.4625
-0.8071 -0.3277 -0.4626
-0.7896 -0.3459 -0.4624
-0.7447 -0.3628 -0.4632
-0.7306 -0.3879 -0.4627
-0.7104 -0.4000 -0.4628
-0.6958 -0.4255 -0.4623
-0.6620 -0.4677 -0.4617
-0.6199 -0.4850 -0.4623
-0.5836 -0.5197 -0.4621
-0.5483 -0.5605 -0.4616
-0.5267 -0.5612 -0.4623
-0.4916 -0.6046 -0.4617
-0.4561 -0.6513 -0.4609
-0.4367 -0.6613 -0.4612
-0.4185 -0.6843 -0.4608
-0.3992 -0.6914 -0.4612
-0.3804 -0.7051 -0.4612
-0.3620 -0.7269 -0.4610
-0.3430 -0.7183 -0.4619
-0.3247 -0.7386 -0.4617
-1.4645 0.3139 -0.4451
-1.4779 0.2931 -0.4432
-1.4599 0.2773 -0.4432
-1.4394 0.2621 -0.4433
-1.4266 0.2452 -0.4429
-1.4111 0.2288 -0.4427
-1.3721 0.2186 -0.4440
-1.3495 0.2045 -0.4443
-1.3498 0.1835 -0.4430
-1.3319 0.1678 -0.4430
-1.3163 0.1513 -0.4428
-1.2916 0.1381 -0.4432
-1.2827 0.1189 -0.4425
-1.2647 0.1031 -0.4424
-1.2488 0.0864 -0.4422
-1.2224 0.0745 -0.4428
-1.1997 0.0362 -0.4417
-1.1875 0.0170 -0.4411
-1.1712 -0.0002 -0.4409
-1.1510 -0.0151 -0.4410
-1.1346 -0.0323 -0.4408
-1.1190 -0.0503 -0.4405
-1.1024 -0.0677 -0.4403
-1.0822 -0.0825 -0.4404
-1.0580 -0.0939 -0.4409
-1.0381 -0.1085 -0.4410
-1.0160 -0.1209 -0.4414
-0.9964 -0.1352 -0.4415
-0.9684 -0.1754 -0.4405
-0.9537 -0.1954 -0.4400
-0.9381 -0.2147 -0.4397
-0.9196 -0.2309 -0.4396
-0.8999 -0.2454 -0.4397
-0.8802 -0.2599 -0.4398
-0.8673 -0.2839 -0.4390
-0.8051 -0.3216 -0.4398
-0.7894 -0.3424 -0.4394
-0.7755 -0.3673 -0.4386
-0.7516 -0.3727 -0.4394
-0.7332 -0.3889 -0.4394
-0.6605 -0.4555 -0.4390
-0.6251 -0.4923 -0.4386
-0.6053 -0.5040 -0.4388
-0.5869 -0.5202 -0.4388
-0.5296 -0.5577 -0.4394
-0.5122 -0.5787 -0.4390
-0.4948 -0.6010 -0.4385
-0.4768 -0.6197 -0.4383
-0.4583 -0.6359 -0.4382
-0.4405 -0.6586 -0.4378
-0.4210 -0.6630 -0.4385
-0.4030 -0.6845 -0.4381
-0.3843 -0.6952 -0.4384
-0.3666 -0.7361 -0.4368
-0.3476 -0.7303 -0.4381
-0.3292 -0.7591 -0.4373
-1.4606 0.3105 -0.4234
-1.4648 0.2914 -0.4217
-1.4391 0.2774 -0.4222
-1.4385 0.2584 -0.4208
-1.4258 0.2415 -0.4203
-1.3915 0.2299 -0.4217
-1.3689 0.2158 -0.4220
-1.3672 0.1958 -0.4206
-1.3410 0.1827 -0.4213
-1.3234 0.1672 -0.4212
-1.3057 0.1517 -0.4212
-1.2982 0.1323 -0.4202
-1.2781 0.1176 -0.4203
-1.2647 0.1000 -0.4199
-1.2285 0.0925 -0.4216
-1.2110 0.0771 -0.4216
-1.1870 0.0404 -0.4203
-1.1692 0.0248 -0.4202
-1.1650 0.0011 -0.4187
-1.1412 -0.0112 -0.4193
-1.1233 -0.0269 -0.4192
-1.1053 -0.0427 -0.4192
-1.0729 -0.0769 -0.4186
-1.0498 -0.0886 -0.4192
-1.0286 -0.1015 -0.4196
-1.0124 -0.1186 -0.4193
-0.9976 -0.1372 -0.4189
-0.9797 -0.1530 -0.4188
-0.9632 -0.1703 -0.4185
-0.8663 -0.2810 -0.4163
-0.7801 -0.3225 -0.4187
-0.7745 -0.3616 -0.4160
-0.7078 -0.3831 -0.4187
-0.6408 -0.4590 -0.4172
-0.6282 -0.4929 -0.4154
-0.5908 -0.5229 -0.4155
-0.5523 -0.5467 -0.4161
-0.5371 -0.5786 -0.4146
-0.5173 -0.5874 -0.4152
-0.4997 -0.6085 -0.4148
-0.4625 -0.6383 -0.4149
-0.4441 -0.6545 -0.4148
-0.4257 -0.6707 -0.4148
-0.4071 -0.6841 -0.4149
-0.3885 -0.6961 -0.4152
-0.3704 -0.7164 -0.4148
-0.3523 -0.7479 -0.4135
-0.3337 -0.7614 -0.4137
-1.4664 0.2870 -0.3993
-1.4581 0.2697 -0.3983
-1.4259 0.2572 -0.3997
-1.3980 0.2442 -0.4008
-1.3782 0.2096 -0.3991
-1.3716 0.1909 -0.3978
-1.3405 0.1794 -0.3992
-1.3229 0.1640 -0.3992
-1.3077 0.1477 -0.3989
-1.2855 0.1340 -0.3993
-1.2802 0.1136 -0.3978
-1.2625 0.0980 -0.3978
-1.2350 0.0868 -0.3989
-1.2195 0.0703 -0.3986
-1.2070 0.0522 -0.3979
-1.1842 0.0393 -0.3985
-1.1626 0.0261 -0.3990
-1.1490 0.0084 -0.3984
-1.1275 -0.0047 -0.3989
-1.1100 -0.0201 -0.3988
-1.0960 -0.0381 -0.3982
-1.0829 -0.0568 -0.3975
-1.0608 -0.0690 -0.3981
-1.0414 -0.0831 -0.3983
-1.0255 -0.1000 -0.3980
-1.0095 -0.1169 -0.3977
-0.9902 -0.1309 -0.3979
-0.9741 -0.1480 -0.3976
-0.9587 -0.1658 -0.3971
-0.9438 -0.1846 -0.3966
-0.9232 -0.1970 -0.3970
-0.9055 -0.2125 -0.3970
-0.8890 -0.2298 -0.3967
-0.8700 -0.2437 -0.3969
-0.8535 -0.2610 -0.3966
-0.8405 -0.2839 -0.3954
-0.8225 -0.2997 -0.3954
-0.7845 -0.3273 -0.3958
-0.6960 -0.4079 -0.3953
-0.6789 -0.4257 -0.3950
-0.6438 -0.4595 -0.3946
-0.5729 -0.5274 -0.3938
-0.5358 -0.5542 -0.3943
-0.5187 -0.5750 -0.3937
-0.5002 -0.5883 -0.3939
-0.4826 -0.6067 -0.3936
-0.4659 -0.6343 -0.3923
-0.4476 -0.6503 -0.3922
-0.4296 -0.6690 -0.3919
-0.4116 -0.6891 -0.3914
-0.3753 -0.7339 -0.3901
-0.3565 -0.7375 -0.3913
-0.3381 -0.7465 -0.3919
-1.4598 0.2842 -0.3780
-1.4597 0.2653 -0.3759
-1.4420 0.2498 -0.3759
-1.4242 0.2342 -0.3758
-1.4090 0.2180 -0.3754
-1.3750 0.2069 -0.3775
-1.3600 0.1908 -0.3771
-1.3448 0.1746 -0.3767
-1.3272 0.1592 -0.3767
-1.3096 0.1437 -0.3766
-1.2806 0.1327 -0.3782
-1.2587 0.1192 -0.3788
-1.2569 0.0974 -0.3765
-1.2195 0.0675 -0.3767
-1.1957 0.0553 -0.3776
-1.1783 0.0400 -0.3775
-1.1709 0.0190 -0.3759
-1.1533 0.0036 -0.3758
-1.1356 -0.0119 -0.3758
-1.1124 -0.0237 -0.3767
-1.0985 -0.0416 -0.3760
-1.0827 -0.0584 -0.3756
-1.0616 -0.0711 -0.3762
-1.0440 -0.0865 -0.3762
-1.0298 -0.1048 -0.3755
-1.0122 -0.1203 -0.3754
-0.9945 -0.1358 -0.3754
-0.9784 -0.1528 -0.3750
-0.9578 -0.1652 -0.3756
-0.9387 -0.1790 -0.3759
-0.9169 -0.1894 -0.3768
-0.9036 -0.2098 -0.3758
-0.8874 -0.2269 -0.3754
-0.8685 -0.2406 -0.3757
-0.8547 -0.2614 -0.3746
-0.8388 -0.2797 -0.3741
-0.8147 -0.2850 -0.3758
-0.7972 -0.3003 -0.3758
-0.7840 -0.3235 -0.3744
-0.7653 -0.3370 -0.3747
-0.7511 -0.3596 -0.3735
-0.7124 -0.3835 -0.3745
-0.6969 -0.4043 -0.3737
-0.6808 -0.4242 -0.3730
-0.6452 -0.4555 -0.3729
-0.6267 -0.4688 -0.3731
-0.5756 -0.5252 -0.3717
-0.5561 -0.5337 -0.3726
-0.5218 -0.5725 -0.3715
-0.4883 -0.6207 -0.3693
-0.4707 -0.6419 -0.3686
-0.4524 -0.6580 -0.3685
-0.4344 -0.6781 -0.3680
-0.4158 -0.6901 -0.3684
-0.3966 -0.6910 -0.3702
-0.3785 -0.7069 -0.3701
-0.3424 -0.7429 -0.3695
-1.4614 0.2800 -0.3561
-1.4386 0.2658 -0.3568
-1.4212 0.2506 -0.3567
-1.4117 0.2335 -0.3555
-1.4019 0.2161 -0.3544
-1.3818 0.2014 -0.3547
-1.3519 0.1897 -0.3565
-1.3297 0.1760 -0.3572
-1.3196 0.1584 -0.3560
-1.3022 0.1432 -0.3560
-1.2940 0.1243 -0.3544
-1.2765 0.1089 -0.3544
-1.2523 0.0964 -0.3555
-1.2370 0.0801 -0.3550
-1.2260 0.0617 -0.3539
-1.2000 0.0505 -0.3553
-1.1908 0.0308 -0.3538
-1.1651 0.0199 -0.3552
-1.1595 -0.0025 -0.3529
-1.1361 -0.0143 -0.3540
-1.1166 -0.0285 -0.3543
-1.0973 -0.0425 -0.3546
-1.0798 -0.0579 -0.3546
-1.0676 -0.0773 -0.3534
-1.0500 -0.0928 -0.3533
-1.0274 -0.1039 -0.3544
-1.0132 -0.1222 -0.3536
-0.9957 -0.1376 -0.3536
-0.9781 -0.1530 -0.3535
-0.9606 -0.1684 -0.3535
-0.9445 -0.1854 -0.3530
-0.9255 -0.1992 -0.3534
-0.9051 -0.2112 -0.3541
-0.8904 -0.2300 -0.3533
-0.8728 -0.2454 -0.3532
-0.8553 -0.2608 -0.3532
-0.8377 -0.2762 -0.3531
-0.8178 -0.2879 -0.3538
-0.8077 -0.3157 -0.3513
-0.7883 -0.3283 -0.3518
-0.7665 -0.3359 -0.3533
-0.7489 -0.3512 -0.3532
-0.7343 -0.3728 -0.3520
-0.7130 -0.3799 -0.3535
-0.6964 -0.3973 -0.3531
-0.6797 -0.4149 -0.3526
-0.6488 -0.4581 -0.3505
-0.6292 -0.4680 -0.3513
-0.5788 -0.5253 -0.3495
-0.5610 -0.5410 -0.3494
-0.5416 -0.5493 -0.3505
-0.5239 -0.5648 -0.3505
-0.5061 -0.5804 -0.3504
-0.4903 -0.6089 -0.3485
-0.4720 -0.6220 -0.3488
-0.4362 -0.6535 -0.3487
-0.3827 -0.7062 -0.3478
-0.3651 -0.7348 -0.3460
-0.3471 -0.7637 -0.3442
-0.3287 -0.7667 -0.3459
-1.4692 0.2930 -0.3360
-1.4602 0.2763 -0.3346
-1.4428 0.2611 -0.3346
-1.4228 0.2464 -0.3350
-1.4107 0.2300 -0.3341
-1.3934 0.2147 -0.3340
-1.3835 0.1973 -0.3327
-1.3586 0.1842 -0.3339
-1.3436 0.1681 -0.3334
-1.3214 0.1545 -0.3342
-1.3041 0.1393 -0.3342
-1.2891 0.1231 -0.3337
-1.2762 0.1060 -0.3328
-1.2454 0.0965 -0.3353
-1.2282 0.0814 -0.3353
-1.2217 0.0611 -0.3331
-1.2021 0.0469 -0.3334
-1.1786 0.0350 -0.3347
-1.1613 0.0198 -0.3346
-1.1361 0.0094 -0.3363
-1.1384 -0.0179 -0.3320
-1.1285 -0.0383 -0.3302
-1.0941 -0.0421 -0.3340
-1.0877 -0.0653 -0.3314
-1.0719 -0.0821 -0.3309
-1.0491 -0.0933 -0.3321
-1.0300 -0.1072 -0.3325
-1.0142 -0.1240 -0.3320
-1.0015 -0.1439 -0.3307
-0.9746 -0.1500 -0.3332
-0.9588 -0.1668 -0.3327
-0.9399 -0.1804 -0.3331
-0.9297 -0.2040 -0.3309
-0.9150 -0.2228 -0.3300
-0.8906 -0.2296 -0.3321
-0.8719 -0.2431 -0.3325
-0.8532 -0.2565 -0.3329
-0.8334 -0.2680 -0.3337
-0.8138 -0.2794 -0.3345
-0.8057 -0.3099 -0.3310
-0.7926 -0.3332 -0.3292
-0.7676 -0.3346 -0.3322
-0.7542 -0.3581 -0.3304
-0.7269 -0.3527 -0.3347
-0.7191 -0.3889 -0.3303
-0.7042 -0.4107 -0.3289
-0.6832 -0.4175 -0.3306
-0.6649 -0.4306 -0.3310
-0.6505 -0.4550 -0.3292
-0.6328 -0.4705 -0.3292
-0.6138 -0.4813 -0.3300
-0.5998 -0.5098 -0.3276
-0.5793 -0.5145 -0.3295
-0.5642 -0.5410 -0.3274
-0.5436 -0.5429 -0.3298
-0.5265 -0.5609 -0.3293
-0.4927 -0.6008 -0.3277
-0.4727 -0.5993 -0.3304
-0.4562 -0.6226 -0.3291
-0.4383 -0.6354 -0.3295
-0.4222 -0.6686 -0.3266
-0.4030 -0.6634 -0.3298
-0.3863 -0.6943 -0.3274
-0.3691 -0.7269 -0.3247
-0.3515 -0.7644 -0.3214
-1.4589 0.2726 -0.3134
-1.4308 0.2598 -0.3153
-1.4098 0.2457 -0.3160
-1.4019 0.2285 -0.3142
-1.3899 0.2120 -0.3132
-1.3625 0.1998 -0.3151
-1.3479 0.1840 -0.3146
-1.3357 0.1674 -0.3135
-1.3208 0.1514 -0.3130
-1.2965 0.1389 -0.3144
-1.2759 0.1252 -0.3151
-1.2645 0.1079 -0.3138
-1.2496 0.0918 -0.3133
-1.2302 0.0777 -0.3137
-1.2087 0.0648 -0.3146
-1.1937 0.0487 -0.3141
-1.1745 0.0348 -0.3145
-1.1574 0.0198 -0.3145
-1.1483 -0.0001 -0.3125
-1.1310 -0.0152 -0.3125
-1.1118 -0.0291 -0.3129
-1.1021 -0.0495 -0.3109
-1.0847 -0.0647 -0.3109
-1.0602 -0.0744 -0.3127
-1.0369 -0.0845 -0.3144
-1.0359 -0.1134 -0.3097
-1.0119 -0.1228 -0.3116
-1.0010 -0.1441 -0.3096
-0.9773 -0.1531 -0.3115
-0.9569 -0.1651 -0.3124
-0.9412 -0.1819 -0.3119
-0.9225 -0.1953 -0.3123
-0.9095 -0.2156 -0.3108
-0.8894 -0.2273 -0.3118
-0.8748 -0.2460 -0.3107
-0.8587 -0.2631 -0.3102
-0.8401 -0.2765 -0.3106
-0.8263 -0.2974 -0.3091
-0.8100 -0.3147 -0.3086
-0.7892 -0.3241 -0.3100
-0.7739 -0.3434 -0.3090
-0.7565 -0.3588 -0.3089
-0.7370 -0.3699 -0.3098
-0.7215 -0.3894 -0.3088
-0.6996 -0.3939 -0.3112
-0.6875 -0.4223 -0.3082
-0.6699 -0.4377 -0.3082
-0.6532 -0.4553 -0.3076
-0.6335 -0.4638 -0.3091
-0.6012 -0.5039 -0.3070
-0.5666 -0.5373 -0.3064
-0.5495 -0.5552 -0.3059
-0.5313 -0.5682 -0.3063
-0.4937 -0.5836 -0.3091
-0.4777 -0.6094 -0.3071
-0.4611 -0.6328 -0.3056
-0.4441 -0.6551 -0.3043
-0.4253 -0.6584 -0.3065
-0.4085 -0.6863 -0.3042
-0.3910 -0.7076 -0.3032
-0.3721 -0.6932 -0.3083
-2.2080 0.9401 -0.2253
-2.2174 0.9730 -0.2186
-2.3828 1.1079 -0.1706
-2.3886 1.1482 -0.1632
-3.0615 2.2504 0.1203
-2.9530 2.2699 0.1062
-2.9231 2.3373 0.1122
-2.8934 2.4062 0.1184
-2.7727 2.4095 0.0997
-2.7074 2.4502 0.0958
-2.7387 2.8763 0.1689
-2.6861 2.9359 0.1701
-2.6336 2.9956 0.1713
-2.5468 3.0172 0.1609
-2.2110 2.7447 0.0637
-2.2409 2.8863 0.0912
-2.2332 2.9888 0.1063
-2.0126 2.8078 0.0422
-1.9406 2.8143 0.0318
-1.7542 2.6447 -0.0251
-1.6862 2.7420 -0.0204
-1.6559 2.7982 -0.0162
-1.6385 2.8798 -0.0060
-1.6431 3.0084 0.0153
-1.6479 3.1468 0.0382
-0.8379 1.6734 -0.3266
-0.8014 1.6329 -0.3389
-0.7738 1.6108 -0.3468
-0.7493 1.5934 -0.3535
-0.6991 1.5401 -0.3700
-0.6788 1.5230 -0.3760
-0.6416 1.4883 -0.3875
-0.6254 1.4749 -0.3922
-0.6107 1.4649 -0.3962
-0.5951 1.4458 -0.4017
-0.5830 1.4428 -0.4041
-0.5703 1.4322 -0.4078
-0.5579 1.4194 -0.4118
-2.0808 0.8356 -0.2922
-2.1278 0.8670 -0.2810
-2.1463 0.8975 -0.2740
-2.1807 0.9315 -0.2642
-2.2160 0.9678 -0.2539
-2.8412 2.1167 0.0012
-2.7954 2.1686 0.0022
-2.7664 2.2316 0.0072
-2.9159 2.4205 0.0558
-2.8286 2.4499 0.0476
-2.7437 2.4782 0.0397
-2.5070 2.4680 0.0045
-2.8332 2.8567 0.1071
-2.7992 2.9368 0.1139
-2.7449 2.9985 0.1151
-2.4655 2.9321 0.0658
-2.3275 2.8861 0.0395
-2.2397 2.8912 0.0277
-2.1314 2.8646 0.0085
-1.9792 2.7700 -0.0268
-1.8544 2.6992 -0.0548
-1.7499 2.6467 -0.0773
-1.6627 2.6112 -0.0948
-1.7038 2.7821 -0.0642
-1.6582 2.8140 -0.0661
-1.6408 2.8970 -0.0566
-1.6605 3.0573 -0.0306
-1.6580 3.1847 -0.0125
-0.7986 1.6340 -0.3590
-0.7694 1.6073 -0.3670
-0.7440 1.5864 -0.3737
-0.7229 1.5755 -0.3783
-0.6974 1.5447 -0.3863
-0.6755 1.5213 -0.3928
-0.6566 1.5046 -0.3979
-0.6405 1.4962 -0.4014
-0.6232 1.4777 -0.4066
-0.5915 1.4406 -0.4164
-0.5787 1.4319 -0.4195
-0.5669 1.4270 -0.4219
-0.5562 1.4259 -0.4236
-2.1260 0.8618 -0.3135
-2.1641 0.8944 -0.3046
-2.1861 0.9271 -0.2976
-2.2017 0.9606 -0.2913
-2.2390 0.9991 -0.2817
-2.2795 1.0406 -0.2713
-2.3735 1.0955 -0.2525
-2.3971 1.1397 -0.2438
-2.5089 1.2519 -0.2154
-4.8895 1.9836 0.1758
-5.5544 2.2927 0.2986
-2.9816 2.1143 -0.0451
-2.7651 2.1473 -0.0678
-2.7684 2.2311 -0.0565
-2.7058 2.2724 -0.0590
-2.7426 2.3857 -0.0398
-2.6776 2.4266 -0.0426
-2.6470 2.4943 -0.0377
-2.6653 2.6055 -0.0210
-2.7024 2.7399 0.0010
-2.7056 2.8502 0.0156
-2.6901 2.9470 0.0262
-2.5487 2.9146 0.0044
-2.3742 2.8355 -0.0276
-2.2717 2.8265 -0.0415
-2.1749 2.8177 -0.0547
-1.9086 2.6812 -0.1055
-1.9239 2.8074 -0.0873
-1.7772 2.6967 -0.1199
-1.6718 2.6350 -0.1410
-1.6700 2.7361 -0.1282
-1.6603 2.8296 -0.1173
-1.6504 2.9283 -0.1058
-1.6401 3.0324 -0.0936
-1.6292 3.1420 -0.0808
-1.7484 3.5463 -0.0137
-0.8291 1.6681 -0.3710
-0.7907 1.6210 -0.3818
-0.7655 1.6051 -0.3870
-0.7402 1.5843 -0.3929
-0.6945 1.5454 -0.4036
-0.6738 1.5261 -0.4087
-0.6552 1.5109 -0.4130
-0.6351 1.4842 -0.4189
-0.6191 1.4711 -0.4226
-0.5889 1.4410 -0.4302
-0.5753 1.4268 -0.4338
-0.5528 1.4193 -0.4376
-2.1500 0.8878 -0.3400
-2.1850 0.9219 -0.3324
-2.3559 1.0867 -0.2954
-2.3793 1.1305 -0.2879
-3.0528 2.0684 -0.1095
-2.9849 2.1127 -0.1117
-2.9748 2.1898 -0.1040
-2.8886 2.2221 -0.1095
-2.8770 2.3009 -0.1018
-2.8657 2.3826 -0.0938
-2.8721 2.4802 -0.0820
-2.5683 2.4303 -0.1201
-2.5326 2.9018 -0.0704
-2.3307 2.7919 -0.1045
-2.1691 2.7115 -0.1308
-2.0687 2.6928 -0.1437
-1.9646 2.6619 -0.1583
-1.8600 2.6218 -0.1741
-1.8554 2.7171 -0.1637
-1.8063 2.7499 -0.1652
-1.6650 2.7384 -0.1816
-1.6090 2.8642 -0.1733
-1.6424 3.0525 -0.1484
-0.8251 1.6666 -0.3931
-0.7895 1.6268 -0.4014
-0.7318 1.5677 -0.4143
-0.7091 1.5493 -0.4188
-0.6873 1.5298 -0.4233
-0.6681 1.5155 -0.4270
-0.6331 1.4881 -0.4338
-0.6155 1.4671 -0.4381
-0.6008 1.4559 -0.4410
-0.5854 1.4358 -0.4449
-0.5735 1.4328 -0.4465
-0.5598 1.4124 -0.4503
-2.2303 0.9875 -0.3563
-2.2775 1.0299 -0.3480
-2.3640 1.0830 -0.3351
-2.3521 1.1193 -0.3326
-2.9515 2.0906 -0.1846
-2.9594 2.1777 -0.1753
-2.9882 2.2816 -0.1626
-2.9578 2.3521 -0.1585
-2.9069 2.4098 -0.1573
-2.8369 2.4535 -0.1593
-2.6980 2.4420 -0.1727
-2.6661 2.5108 -0.1689
-2.6009 2.5522 -0.1706
-2.7633 2.7992 -0.1321
-2.7876 2.9343 -0.1167
-2.6026 2.8661 -0.1398
-2.5164 2.8891 -0.1452
-2.3021 2.7647 -0.1764
-2.1432 2.6864 -0.1981
-2.0237 2.6430 -0.2130
-1.9237 2.6151 -0.2246
-1.8922 2.6735 -0.2217
-1.8603 2.7326 -0.2187
-1.7851 2.7269 -0.2260
-1.6622 2.6386 -0.2455
-1.6461 2.7171 -0.2393
-1.6580 2.8501 -0.2252
-1.6327 2.9227 -0.2204
-1.6770 3.1377 -0.1955
-0.8135 1.6445 -0.4180
-0.7568 1.5982 -0.4275
-0.7325 1.5801 -0.4314
-0.7076 1.5548 -0.4361
-0.6845 1.5305 -0.4406
-0.6647 1.5139 -0.4439
-0.6474 1.5027 -0.4466
-0.6282 1.4788 -0.4506
-0.6145 1.4765 -0.4520
-0.5978 1.4548 -0.4556
-0.5830 1.4375 -0.4587
-0.5707 1.4318 -0.4603
-0.5578 1.4172 -0.4629
-0.5472 1.4162 -0.4639
-2.3465 1.0742 -0.3778
-3.2806 2.1792 -0.2218
-3.0130 2.1211 -0.2454
-2.9253 2.1545 -0.2489
-3.0340 2.3074 -0.2288
-2.9823 2.3661 -0.2276
-2.9103 2.4107 -0.2291
-2.8591 2.4689 -0.2279
-2.7351 2.4707 -0.2365
-2.7028 2.5413 -0.2330
-2.6875 2.6282 -0.2270
-2.4756 2.5392 -0.2492
-2.5859 2.7437 -0.2248
-2.4868 2.7527 -0.2310
-2.6788 3.0665 -0.1919
-2.6045 3.1089 -0.1937
-2.2946 2.8708 -0.2350
-2.0852 2.7256 -0.2616
-1.9783 2.6934 -0.2717
-1.9359 2.7415 -0.2708
-1.8936 2.7896 -0.2698
-1.7175 2.6324 -0.2951
-1.6504 2.6293 -0.3001
-1.6852 2.7951 -0.2841
-1.6834 2.9087 -0.2750
-1.6658 2.9999 -0.2688
-1.6880 3.1766 -0.2528
-0.8079 1.6384 -0.4403
-0.7779 1.6126 -0.4445
-0.7524 1.5947 -0.4478
-0.7272 1.5732 -0.4513
-0.6617 1.5135 -0.4608
-0.6447 1.5037 -0.4628
-0.6262 1.4827 -0.4658
-0.6119 1.4779 -0.4672
