ply
format ascii 1.0
element vertex 2095
property float x
property float y
property float z
end_header
-3.1873 0.7819 -0.5883
-3.1583 0.7806 -0.5887
-3.1310 0.7767 -0.5906
-3.0989 0.7806 -0.5878
-3.0290 0.8015 -0.5744
-2.9958 0.8107 -0.5684
-2.7063 1.1687 -0.3503
-2.6852 1.1900 -0.3372
-2.6299 1.2551 -0.2975
-2.6151 1.2687 -0.2892
-2.6016 1.2769 -0.2840
-2.5889 1.2782 -0.2831
-2.5764 1.2616 -0.2929
-2.5630 1.2494 -0.3000
-2.5491 1.2417 -0.3044
-2.5004 1.1879 -0.3359
-2.4835 1.1783 -0.3415
-2.4662 1.1695 -0.3465
-2.4218 1.1212 -0.3748
-2.3966 1.0943 -0.3906
-2.3752 1.0836 -0.3967
-2.3463 1.0538 -0.4141
-2.3214 1.0385 -0.4230
-1.9730 0.7302 -0.6028
-3.4790 0.7206 -0.5939
-3.4511 0.7158 -0.5963
-3.4170 0.7178 -0.5948
-3.3808 0.7225 -0.5917
-3.3451 0.7272 -0.5886
-3.3145 0.7258 -0.5890
-3.2839 0.7245 -0.5894
-3.2489 0.7292 -0.5864
-3.2226 0.7217 -0.5903
-3.1898 0.7238 -0.5887
-3.1592 0.7225 -0.5891
-3.1287 0.7211 -0.5895
-3.0920 0.7311 -0.5834
-3.0425 0.7675 -0.5623
-2.7284 1.1446 -0.3460
-2.6649 1.2099 -0.3084
-2.6151 1.2651 -0.2767
-2.6014 1.2762 -0.2703
-2.5888 1.2756 -0.2705
-2.5631 1.2502 -0.2845
-2.5494 1.2425 -0.2887
-2.5347 1.2283 -0.2965
-2.5185 1.2088 -0.3073
-2.4647 1.1579 -0.3354
-2.4447 1.1409 -0.3447
-2.4230 1.1211 -0.3556
-2.3988 1.0967 -0.3691
-2.3755 1.0795 -0.3785
-2.3467 1.0495 -0.3951
-2.3224 1.0358 -0.4025
-2.2913 1.0075 -0.4180
-2.2588 0.9801 -0.4331
-1.9487 0.6836 -0.5965
-1.9186 0.6822 -0.5969
-1.8816 0.6707 -0.6030
-1.8493 0.6666 -0.6049
-1.8188 0.6652 -0.6053
-1.7906 0.6666 -0.6042
-1.7632 0.6690 -0.6025
-1.7330 0.6677 -0.6029
-1.6995 0.6626 -0.6054
-1.6692 0.6612 -0.6058
-1.6423 0.6636 -0.6041
-1.6121 0.6622 -0.6045
-1.5846 0.6637 -0.6034
-3.5814 0.6398 -0.6034
-3.5480 0.6383 -0.6039
-3.5178 0.6334 -0.6062
-3.4843 0.6319 -0.6066
-3.4450 0.6373 -0.6033
-3.4061 0.6428 -0.6000
-3.3677 0.6484 -0.5967
-3.3297 0.6539 -0.5933
-3.2921 0.6595 -0.5900
-3.2598 0.6580 -0.5904
-3.2274 0.6566 -0.5909
-3.1971 0.6516 -0.5932
-3.1647 0.6501 -0.5936
-2.6823 1.1940 -0.3007
-2.6638 1.2113 -0.2914
-2.6292 1.2532 -0.2689
-2.6144 1.2688 -0.2605
-2.6009 1.2791 -0.2549
-2.5888 1.2740 -0.2575
-2.5632 1.2511 -0.2693
-2.5497 1.2442 -0.2728
-2.5347 1.2245 -0.2831
-2.5197 1.2148 -0.2881
-2.5034 1.2005 -0.2955
-2.4865 1.1871 -0.3024
-2.4664 1.1618 -0.3156
-2.4245 1.1219 -0.3362
-2.3782 1.0827 -0.3565
-2.3493 1.0516 -0.3727
-2.2252 0.9474 -0.4265
-1.9463 0.6716 -0.5695
-1.9144 0.6675 -0.5714
-1.8682 0.6428 -0.5840
-1.6442 0.5894 -0.6099
-1.6152 0.5917 -0.6084
-3.4481 0.5810 -0.5947
-3.3329 0.5922 -0.5881
-3.2963 0.5942 -0.5868
-3.2594 0.5971 -0.5850
-3.2233 0.5992 -0.5837
-2.8120 1.0497 -0.3568
-2.7238 1.1516 -0.3056
-2.6805 1.1980 -0.2822
-2.6610 1.2218 -0.2702
-2.6441 1.2393 -0.2614
-2.6290 1.2505 -0.2557
-2.6144 1.2653 -0.2482
-2.6006 1.2802 -0.2407
-2.5886 1.2733 -0.2441
-2.5763 1.2627 -0.2492
-2.5350 1.2244 -0.2678
-2.5025 1.1901 -0.2845
-2.4867 1.1839 -0.2874
-2.4684 1.1676 -0.2954
-2.4480 1.1457 -0.3060
-2.4274 1.1283 -0.3145
-2.4048 1.1072 -0.3247
-2.3800 1.0833 -0.3363
-2.3555 1.0640 -0.3457
-2.3274 1.0381 -0.3583
-2.3028 1.0242 -0.3649
-2.2629 0.9777 -0.3876
-2.2252 0.9414 -0.4053
-2.1469 0.8749 -0.4375
-1.9654 0.6944 -0.5253
-1.9162 0.6621 -0.5409
-1.8638 0.6278 -0.5574
-1.7394 0.5401 -0.5997
-1.7000 0.5310 -0.6039
-1.6661 0.5295 -0.6043
-1.6323 0.5280 -0.6048
-1.6048 0.5341 -0.6015
-1.5679 0.5288 -0.6038
-1.5376 0.5311 -0.6024
-1.5040 0.5296 -0.6029
-1.4667 0.5243 -0.6052
-3.7545 0.4812 -0.6053
-3.7166 0.4795 -0.6058
-3.6828 0.4734 -0.6084
-3.6409 0.4761 -0.6068
-3.5947 0.4842 -0.6027
-3.5535 0.4869 -0.6012
-3.5196 0.4808 -0.6037
-3.4821 0.4791 -0.6042
-3.4413 0.4819 -0.6026
-3.4008 0.4847 -0.6010
-3.3511 0.5018 -0.5928
-3.3088 0.5091 -0.5891
-2.7220 1.1535 -0.2869
-2.6279 1.2560 -0.2388
-2.6136 1.2701 -0.2322
-2.6006 1.2778 -0.2285
-2.5763 1.2629 -0.2352
-2.5634 1.2541 -0.2392
-2.5499 1.2415 -0.2449
-2.5354 1.2261 -0.2519
-2.4688 1.1652 -0.2796
-2.4479 1.1413 -0.2905
-2.4286 1.1284 -0.2963
-2.4059 1.1063 -0.3064
-2.3863 1.0980 -0.3100
-2.3604 1.0730 -0.3214
-2.3281 1.0347 -0.3389
-2.2642 0.9748 -0.3661
-2.2300 0.9457 -0.3793
-2.1971 0.9221 -0.3899
-2.1459 0.8665 -0.4153
-2.1067 0.8381 -0.4281
-1.9654 0.6864 -0.4972
-1.9222 0.6633 -0.5075
-1.8816 0.6458 -0.5153
-1.6683 0.4799 -0.5904
-1.6079 0.4459 -0.6057
-2.9184 0.9390 -0.3628
-2.6432 1.2374 -0.2330
-2.6274 1.2562 -0.2248
-2.6134 1.2686 -0.2194
-2.6004 1.2773 -0.2156
-2.5884 1.2730 -0.2174
-2.5762 1.2678 -0.2195
-2.5500 1.2388 -0.2318
-2.5360 1.2289 -0.2360
-2.5213 1.2181 -0.2406
-2.5055 1.2034 -0.2467
-2.4698 1.1657 -0.2628
-2.4510 1.1500 -0.2694
-2.4091 1.1129 -0.2851
-2.3614 1.0708 -0.3028
-2.3342 1.0455 -0.3136
-2.2662 0.9738 -0.3439
-2.2375 0.9559 -0.3515
-2.1114 0.8398 -0.4006
-2.0603 0.7930 -0.4204
-1.9404 0.6838 -0.4666
-1.9050 0.6729 -0.4710
-1.6079 0.3897 -0.5909
-1.5631 0.3784 -0.5955
-1.5207 0.3710 -0.5984
-1.4740 0.3587 -0.6034
-1.4450 0.3676 -0.5994
-1.4028 0.3611 -0.6020
-1.3693 0.3642 -0.6004
-3.8379 0.2810 -0.6041
-3.7891 0.2853 -0.6021
-3.7513 0.2771 -0.6052
-3.7029 0.2815 -0.6033
-3.6647 0.2732 -0.6064
-3.6119 0.2839 -0.6019
-3.5735 0.2757 -0.6050
-3.5347 0.2674 -0.6081
-3.4596 0.3145 -0.5890
-2.9104 0.9502 -0.3340
-2.7460 1.1196 -0.2659
-2.6423 1.2393 -0.2179
-2.6128 1.2708 -0.2053
-2.6002 1.2767 -0.2028
-2.5883 1.2725 -0.2045
-2.5762 1.2644 -0.2076
-2.5635 1.2517 -0.2126
-2.5361 1.2271 -0.2223
-2.5213 1.2143 -0.2273
-2.5053 1.1977 -0.2338
-2.4701 1.1634 -0.2473
-2.4532 1.1551 -0.2505
-2.4318 1.1317 -0.2597
-2.4121 1.1187 -0.2648
-2.3881 1.0942 -0.2744
-2.3621 1.0678 -0.2848
-2.3370 1.0480 -0.2925
-2.2707 0.9786 -0.3198
-2.1161 0.8417 -0.3735
-2.0647 0.7936 -0.3924
-1.8987 0.6553 -0.4466
-1.4642 0.2898 -0.5898
-1.3946 0.2521 -0.6045
-1.3595 0.2571 -0.6024
-1.3239 0.2611 -0.6006
-2.7204 1.1459 -0.2383
-2.6972 1.1750 -0.2275
-2.6588 1.2186 -0.2115
-2.6430 1.2311 -0.2069
-2.6262 1.2586 -0.1968
-2.6126 1.2702 -0.1925
-2.6001 1.2753 -0.1906
-2.5882 1.2710 -0.1921
-2.5762 1.2620 -0.1954
-2.5636 1.2501 -0.1997
-2.5507 1.2448 -0.2016
-2.5366 1.2291 -0.2073
-2.5221 1.2172 -0.2116
-2.4730 1.1735 -0.2274
-2.4338 1.1350 -0.2414
-2.4138 1.1199 -0.2468
-2.3647 1.0706 -0.2647
-2.3123 1.0268 -0.2806
-2.2419 0.9539 -0.3070
-2.2040 0.9182 -0.3199
-1.9069 0.6598 -0.4135
-1.8585 0.6303 -0.4241
-1.3312 0.1636 -0.5932
-1.2822 0.1548 -0.5962
-1.2209 0.1323 -0.6043
-1.1770 0.1303 -0.6049
-4.0507 0.0178 -0.6011
-4.0001 0.0155 -0.6018
-3.9419 0.0224 -0.5994
-3.8989 0.0110 -0.6032
-3.8616 -0.0087 -0.6097
-3.8172 -0.0202 -0.6135
-3.7406 0.0134 -0.6021
-2.6565 1.2271 -0.1942
-2.6402 1.2463 -0.1877
-2.6255 1.2608 -0.1828
-2.6123 1.2698 -0.1798
-2.5998 1.2768 -0.1774
-2.5880 1.2744 -0.1782
-2.5638 1.2571 -0.1840
-2.5367 1.2265 -0.1942
-2.5225 1.2173 -0.1972
-2.4733 1.1714 -0.2125
-2.4536 1.1486 -0.2201
-2.4369 1.1431 -0.2219
-2.3905 1.0926 -0.2387
-2.3696 1.0802 -0.2428
-2.3409 1.0485 -0.2534
-2.3108 1.0177 -0.2636
-2.1736 0.8947 -0.3046
-2.1291 0.8528 -0.3185
-2.0928 0.8293 -0.3263
-1.9190 0.6704 -0.3791
-1.8472 0.6054 -0.4008
-1.7835 0.5570 -0.4169
-1.1618 -0.0002 -0.6022
-1.0845 -0.0369 -0.6144
-1.0211 -0.0559 -0.6206
-0.9805 -0.0492 -0.6183
-3.8515 -0.0816 -0.5783
-3.8051 -0.0932 -0.5819
-2.9523 0.8918 -0.2822
-2.6565 1.2234 -0.1813
-2.6255 1.2575 -0.1710
-2.6120 1.2693 -0.1673
-2.5995 1.2774 -0.1649
-2.5761 1.2639 -0.1690
-2.5639 1.2557 -0.1715
-2.5509 1.2417 -0.1757
-2.5369 1.2257 -0.1806
-2.4915 1.1883 -0.1919
-2.4553 1.1521 -0.2029
-2.4357 1.1340 -0.2084
-2.4165 1.1207 -0.2124
-2.3950 1.1025 -0.2180
-2.3699 1.0765 -0.2259
-2.3420 1.0465 -0.2350
-2.2232 0.9463 -0.2654
-2.1756 0.8925 -0.2817
-2.1391 0.8650 -0.2901
-2.0343 0.7635 -0.3209
-1.9132 0.6537 -0.3542
-1.8471 0.5971 -0.3714
-1.6876 0.4587 -0.4134
-1.0227 -0.1219 -0.5896
-0.9555 -0.1431 -0.5960
-4.2887 -0.3546 -0.5978
-4.2173 -0.3442 -0.5950
-4.1371 -0.3217 -0.5890
-4.0683 -0.3123 -0.5864
-3.9255 -0.1989 -0.5555
-2.7865 1.0836 -0.2056
-2.6731 1.2051 -0.1725
-2.6562 1.2217 -0.1679
-2.6118 1.2689 -0.1550
-2.5993 1.2780 -0.1526
-2.5877 1.2746 -0.1535
-2.5761 1.2645 -0.1563
-2.5639 1.2542 -0.1591
-2.5511 1.2440 -0.1619
-2.4923 1.1892 -0.1770
-2.4754 1.1740 -0.1812
-2.4382 1.1395 -0.1906
-2.4157 1.1134 -0.1978
-2.3962 1.1019 -0.2010
-2.3219 1.0358 -0.2191
-2.2604 0.9780 -0.2350
-2.0978 0.8250 -0.2771
-1.9975 0.7374 -0.3011
-1.8776 0.6345 -0.3294
-1.7862 0.5435 -0.3544
-1.6840 0.4443 -0.3817
-4.2981 -0.5459 -0.5818
-3.8171 -0.0624 -0.4649
-2.8506 1.0097 -0.2055
-2.7352 1.1330 -0.1757
-2.6723 1.2051 -0.1582
-2.5988 1.2817 -0.1397
-2.5876 1.2753 -0.1413
-2.5639 1.2519 -0.1471
-2.5515 1.2474 -0.1482
-2.5234 1.2150 -0.1562
-2.5093 1.2076 -0.1580
-2.4769 1.1779 -0.1653
-2.4592 1.1616 -0.1694
-2.4377 1.1333 -0.1763
-2.4167 1.1129 -0.1813
-2.3968 1.0994 -0.1847
-2.3752 1.0829 -0.1888
-2.3505 1.0603 -0.1943
-2.3219 1.0308 -0.2016
-2.2913 1.0003 -0.2091
-2.2630 0.9786 -0.2145
-2.2255 0.9399 -0.2240
-2.1880 0.9051 -0.2326
-2.1558 0.8842 -0.2377
-2.0950 0.8134 -0.2552
-2.0540 0.7833 -0.2626
-2.0084 0.7482 -0.2713
-1.8862 0.6396 -0.2981
-1.7966 0.5499 -0.3202
-1.7293 0.4983 -0.3329
-1.4097 0.2154 -0.4027
-4.8003 -0.9093 -0.5907
-4.6738 -0.8522 -0.5789
-4.5993 -0.8555 -0.5799
-4.5102 -0.8399 -0.5769
-3.4167 0.3784 -0.3191
-3.0269 0.8220 -0.2252
-2.6384 1.2440 -0.1360
-2.6110 1.2703 -0.1305
-2.5988 1.2785 -0.1287
-2.5875 1.2751 -0.1295
-2.5760 1.2697 -0.1307
-2.5641 1.2544 -0.1340
-2.5514 1.2431 -0.1365
-2.5378 1.2268 -0.1401
-2.5243 1.2193 -0.1417
-2.5093 1.2039 -0.1451
-2.4931 1.1865 -0.1489
-2.4779 1.1790 -0.1506
-2.4195 1.1185 -0.1638
-2.3962 1.0929 -0.1693
-2.3771 1.0842 -0.1713
-2.3262 1.0368 -0.1816
-2.3020 1.0210 -0.1851
-2.2705 0.9902 -0.1919
-2.2340 0.9523 -0.2001
-2.2048 0.9333 -0.2043
-2.1569 0.8802 -0.2159
-2.1032 0.8219 -0.2286
-2.0072 0.7391 -0.2468
-1.9628 0.7087 -0.2535
-1.8304 0.5910 -0.2792
-1.4145 0.2104 -0.3625
-5.2453 -1.4519 -0.6121
-5.1789 -1.4865 -0.6189
-5.0161 -1.4018 -0.6039
-4.7819 -1.2166 -0.5706
-3.4099 0.3786 -0.2806
-2.7083 1.1657 -0.1376
-2.6880 1.1895 -0.1333
-2.6385 1.2396 -0.1242
-2.6108 1.2700 -0.1187
-2.5986 1.2784 -0.1172
-2.5874 1.2749 -0.1179
-2.5761 1.2616 -0.1204
-2.5384 1.2302 -0.1264
-2.5246 1.2187 -0.1286
-2.4777 1.1741 -0.1372
-2.4609 1.1615 -0.1396
-2.4435 1.1489 -0.1420
-2.4214 1.1212 -0.1473
-2.4013 1.1055 -0.1503
-2.3791 1.0857 -0.1541
-2.3573 1.0699 -0.1572
-2.3008 1.0130 -0.1680
-2.2424 0.9649 -0.1773
-2.2048 0.9277 -0.1844
-2.1286 0.8620 -0.1970
-2.0818 0.8184 -0.2053
-1.9678 0.7095 -0.2261
-1.9061 0.6544 -0.2367
-1.4386 0.2302 -0.3179
-1.1350 -0.0424 -0.3701
-5.3961 -1.7779 -0.5705
-5.3534 -1.8555 -0.5830
-5.0661 -1.6154 -0.5469
-3.0806 0.7570 -0.1850
-2.7526 1.1158 -0.1305
-2.7083 1.1617 -0.1235
-2.6695 1.2077 -0.1165
-2.6104 1.2708 -0.1069
-2.5985 1.2773 -0.1060
-2.5873 1.2748 -0.1064
-2.5760 1.2613 -0.1086
-2.5641 1.2518 -0.1102
-2.5517 1.2423 -0.1118
-2.5391 1.2358 -0.1129
-2.5111 1.2106 -0.1170
-2.4784 1.1743 -0.1229
-2.4614 1.1596 -0.1254
-2.4435 1.1448 -0.1278
-2.4244 1.1280 -0.1306
-2.3827 1.0923 -0.1365
-2.3576 1.0663 -0.1407
-2.3037 1.0151 -0.1491
-2.2713 0.9818 -0.1546
-2.2466 0.9687 -0.1568
-2.2117 0.9363 -0.1621
-2.0783 0.8058 -0.1835
-1.9081 0.6498 -0.2092
-1.8553 0.6116 -0.2156
-1.7515 0.5033 -0.2333
-1.6689 0.4319 -0.2450
-1.3593 0.1680 -0.2886
-1.1693 -0.0138 -0.3184
-5.3836 -1.9223 -0.4893
-4.9939 -1.5453 -0.4433
-2.6104 1.2677 -0.0959
-2.5983 1.2782 -0.0946
-2.5872 1.2737 -0.0952
-2.5389 1.2304 -0.1012
-2.5254 1.2197 -0.1027
-2.5114 1.2091 -0.1042
-2.4792 1.1745 -0.1089
-2.4627 1.1617 -0.1107
-2.4460 1.1509 -0.1122
-2.4276 1.1361 -0.1143
-2.3827 1.0879 -0.1209
-2.3590 1.0658 -0.1239
-2.2801 0.9970 -0.1335
-2.2212 0.9502 -0.1400
-2.0783 0.7993 -0.1606
-2.0430 0.7786 -0.1636
-1.9359 0.6855 -0.1764
-1.7115 0.4818 -0.2046
-1.5324 0.3303 -0.2256
-1.3842 0.1881 -0.2451
-1.0962 -0.0606 -0.2795
-5.6179 -2.1089 -0.4039
-5.2958 -1.8372 -0.3789
-4.9261 -1.4795 -0.3455
-2.6508 1.2310 -0.0879
-2.6224 1.2600 -0.0852
-2.6099 1.2706 -0.0842
-2.5872 1.2726 -0.0842
-2.5523 1.2478 -0.0870
-2.5110 1.2025 -0.0920
-2.4965 1.1927 -0.0931
-2.4807 1.1789 -0.0947
-2.4642 1.1650 -0.0963
-2.4452 1.1439 -0.0986
-2.4285 1.1351 -0.0996
-2.4073 1.1129 -0.1021
-2.3834 1.0855 -0.1051
-2.3630 1.0725 -0.1066
-2.3086 1.0175 -0.1127
-2.2470 0.9591 -0.1192
-2.2167 0.9355 -0.1219
-1.9875 0.7200 -0.1459
-1.8739 0.6239 -0.1567
-1.8097 0.5704 -0.1628
-1.3891 0.1835 -0.2060
-5.5183 -2.0135 -0.2914
-5.2398 -1.7916 -0.2775
-2.7460 1.1238 -0.0828
-2.6662 1.2130 -0.0769
-2.6503 1.2306 -0.0757
-2.6225 1.2559 -0.0741
-2.6096 1.2706 -0.0731
-2.5978 1.2792 -0.0725
-2.5869 1.2767 -0.0728
-2.5644 1.2543 -0.0748
-2.5525 1.2476 -0.0754
-2.5260 1.2189 -0.0778
-2.5115 1.2030 -0.0791
-2.4969 1.1922 -0.0801
-2.4809 1.1762 -0.0815
-2.4648 1.1642 -0.0825
-2.4455 1.1410 -0.0845
-2.4285 1.1310 -0.0854
-2.4076 1.1097 -0.0872
-2.3873 1.0935 -0.0886
-2.3411 1.0527 -0.0921
-2.3160 1.0312 -0.0940
-2.2880 1.0055 -0.0962
-2.2541 0.9694 -0.0993
-2.2241 0.9456 -0.1013
-2.1882 0.9124 -0.1042
-2.1540 0.8854 -0.1066
-2.1073 0.8385 -0.1106
-2.0593 0.7936 -0.1144
-1.8960 0.6498 -0.1268
-1.3125 0.1254 -0.1721
-1.1440 -0.0288 -0.1853
-5.3669 -1.8507 -0.1832
-2.7980 1.0624 -0.0702
-2.7692 1.0971 -0.0688
-2.7227 1.1473 -0.0669
-2.6498 1.2303 -0.0636
-2.6356 1.2430 -0.0632
-2.6214 1.2629 -0.0624
-2.6092 1.2716 -0.0621
-2.5976 1.2793 -0.0618
-2.5869 1.2737 -0.0622
-2.5759 1.2629 -0.0629
-2.5645 1.2542 -0.0634
-2.5525 1.2454 -0.0640
-2.5265 1.2196 -0.0655
-2.5128 1.2098 -0.0662
-2.4986 1.1989 -0.0668
-2.4824 1.1807 -0.0679
-2.4655 1.1635 -0.0689
-2.4464 1.1411 -0.0702
-2.4279 1.1249 -0.0712
-2.4079 1.1066 -0.0723
-2.3899 1.0975 -0.0730
-2.3665 1.0739 -0.0744
-2.2578 0.9726 -0.0805
-2.1903 0.9110 -0.0842
-2.1539 0.8796 -0.0862
-2.0557 0.7808 -0.0920
-2.0141 0.7502 -0.0940
-1.9584 0.6995 -0.0971
-1.9181 0.6761 -0.0987
-1.6700 0.4413 -0.1128
-5.3668 -1.8778 -0.0877
-5.2132 -1.8102 -0.0881
-2.7221 1.1454 -0.0527
-2.6346 1.2469 -0.0516
-2.6211 1.2618 -0.0514
-2.5976 1.2763 -0.0514
-2.5869 1.2717 -0.0516
-2.5759 1.2629 -0.0519
-2.5645 1.2531 -0.0523
-2.5397 1.2272 -0.0532
-2.5268 1.2194 -0.0535
-2.5127 1.2053 -0.0540
-2.4985 1.1954 -0.0544
-2.4829 1.1802 -0.0549
-2.4670 1.1671 -0.0554
-2.4312 1.1334 -0.0566
-2.3919 1.0996 -0.0578
-2.3669 1.0705 -0.0588
-2.3473 1.0604 -0.0592
-2.3197 1.0312 -0.0602
-2.2920 1.0052 -0.0611
-2.2634 0.9801 -0.0620
-2.2296 0.9465 -0.0632
-2.1935 0.9118 -0.0644
-2.1606 0.8866 -0.0654
-2.1107 0.8326 -0.0672
-2.0769 0.8115 -0.0681
-1.9146 0.6636 -0.0734
-1.8349 0.5835 -0.0761
-1.5037 0.2988 -0.0865
-5.3377 -1.8677 0.0072
-3.0940 0.7382 -0.0323
-3.0442 0.7829 -0.0331
-2.8229 1.0334 -0.0370
-2.7410 1.1277 -0.0384
-2.6333 1.2531 -0.0403
-2.5976 1.2744 -0.0409
-2.5868 1.2708 -0.0410
-2.5759 1.2630 -0.0411
-2.5529 1.2463 -0.0414
-2.5402 1.2312 -0.0415
-2.5272 1.2202 -0.0416
-2.4833 1.1786 -0.0421
-2.4687 1.1717 -0.0422
-2.4506 1.1511 -0.0424
-2.4331 1.1368 -0.0426
-2.4145 1.1214 -0.0428
-2.3701 1.0757 -0.0432
-2.3492 1.0612 -0.0434
-2.3222 1.0329 -0.0437
-2.1992 0.9180 -0.0449
-2.1633 0.8862 -0.0453
-2.1298 0.8618 -0.0457
-2.0848 0.8191 -0.0461
-2.0198 0.7464 -0.0467
-1.9644 0.6950 -0.0473
-1.9201 0.6649 -0.0478
-1.8521 0.6014 -0.0484
-5.2295 -1.7545 0.0961
-3.4541 0.3465 0.0090
-2.7401 1.1267 -0.0241
-2.6973 1.1783 -0.0263
-2.6632 1.2145 -0.0278
-2.6477 1.2327 -0.0286
-2.6336 1.2478 -0.0292
-2.5973 1.2756 -0.0305
-2.5866 1.2730 -0.0306
-2.5759 1.2620 -0.0305
-2.5528 1.2421 -0.0302
-2.5406 1.2332 -0.0301
-2.5273 1.2179 -0.0299
-2.5144 1.2121 -0.0299
-2.5005 1.2010 -0.0298
-2.4852 1.1856 -0.0296
-2.4689 1.1691 -0.0293
-2.4516 1.1516 -0.0291
-2.3932 1.0954 -0.0283
-2.3736 1.0820 -0.0282
-2.3542 1.0706 -0.0281
-2.3226 1.0293 -0.0274
-2.2439 0.9670 -0.0267
-2.2055 0.9254 -0.0260
-2.1655 0.8848 -0.0254
-2.1339 0.8635 -0.0253
-1.9922 0.7333 -0.0235
-1.9270 0.6685 -0.0226
-1.8765 0.6306 -0.0222
-1.7920 0.5460 -0.0210
-1.7024 0.4602 -0.0198
-1.6535 0.4349 -0.0198
-1.4557 0.2623 -0.0176
-5.2197 -1.6454 0.1794
-5.2294 -1.7803 0.1868
-3.4541 0.3365 0.0441
-2.7181 1.1481 -0.0115
-2.6200 1.2631 -0.0193
-2.6081 1.2721 -0.0200
-2.5866 1.2722 -0.0203
-2.5759 1.2643 -0.0201
-2.5647 1.2522 -0.0196
-2.5530 1.2432 -0.0193
-2.5285 1.2262 -0.0188
-2.5003 1.1964 -0.0176
-2.4856 1.1842 -0.0171
-2.4694 1.1676 -0.0165
-2.4533 1.1552 -0.0161
-2.4347 1.1354 -0.0153
-2.4154 1.1166 -0.0146
-2.3978 1.1063 -0.0143
-2.3751 1.0820 -0.0133
-2.3515 1.0587 -0.0124
-2.2097 0.9287 -0.0076
-2.1727 0.8933 -0.0063
-2.1403 0.8696 -0.0055
-1.9922 0.7267 -0.0000
-1.9478 0.6940 0.0010
-1.8952 0.6515 0.0025
-1.8129 0.5686 0.0057
-1.6623 0.4382 0.0105
-5.2035 -1.7721 0.2745
-3.0603 0.7795 0.0367
-3.0068 0.8356 0.0314
-2.8747 0.9819 0.0176
-2.8460 1.0062 0.0152
-2.7808 1.0884 0.0076
-2.7351 1.1354 0.0031
-2.6324 1.2500 -0.0077
-2.6196 1.2633 -0.0090
-2.6078 1.2734 -0.0100
-2.5967 1.2803 -0.0107
-2.5864 1.2735 -0.0103
-2.5647 1.2502 -0.0088
-2.5531 1.2433 -0.0085
-2.5411 1.2342 -0.0080
-2.5285 1.2230 -0.0073
-2.5147 1.2075 -0.0063
-2.5006 1.1951 -0.0056
-2.4861 1.1838 -0.0049
-2.4713 1.1736 -0.0044
-2.4550 1.1590 -0.0035
-2.4369 1.1401 -0.0023
-2.4175 1.1201 -0.0010
-2.3975 1.1011 0.0001
-2.3772 1.0842 0.0011
-2.3572 1.0706 0.0019
-2.3325 1.0460 0.0034
-2.3043 1.0160 0.0053
-2.2835 1.0066 0.0057
-2.1749 0.8921 0.0129
-2.1431 0.8694 0.0142
-2.0957 0.8204 0.0173
-2.0554 0.7877 0.0192
-2.0041 0.7397 0.0221
-1.9491 0.6893 0.0252
-1.9031 0.6564 0.0270
-1.7683 0.5365 0.0342
-1.6711 0.4416 0.0401
-1.4720 0.2635 0.0509
-5.3512 -1.8628 0.3738
-5.0819 -1.6368 0.3456
-2.7819 1.0810 0.0230
-2.7590 1.1025 0.0204
-2.6777 1.1953 0.0093
-2.6604 1.2192 0.0066
-2.6463 1.2314 0.0050
-2.6077 1.2715 0.0002
-2.5966 1.2785 -0.0007
-2.5863 1.2759 -0.0006
-2.5758 1.2637 0.0004
-2.5648 1.2535 0.0013
-2.5532 1.2423 0.0022
-2.5414 1.2353 0.0028
-2.5288 1.2230 0.0038
-2.5013 1.1960 0.0061
-2.4717 1.1722 0.0081
-2.4557 1.1586 0.0092
-2.4380 1.1407 0.0107
-2.4211 1.1292 0.0116
-2.3998 1.1046 0.0138
-2.3811 1.0920 0.0147
-2.3603 1.0750 0.0161
-2.3341 1.0460 0.0187
-2.3122 1.0310 0.0198
-2.2840 1.0030 0.0222
-2.2513 0.9683 0.0252
-2.2254 0.9510 0.0265
-2.1145 0.8485 0.0352
-2.0662 0.8003 0.0393
-1.9602 0.7001 0.0478
-1.9117 0.6625 0.0508
-1.8592 0.6216 0.0541
-1.4238 0.2365 0.0862
-6.2929 -2.9350 0.6169
-5.4072 -1.9608 0.4757
-2.9014 0.9546 0.0561
-2.8702 0.9824 0.0520
-2.6449 1.2368 0.0152
-2.6317 1.2492 0.0134
-2.6187 1.2659 0.0110
-2.6074 1.2719 0.0100
-2.5965 1.2778 0.0090
-2.5863 1.2720 0.0096
-2.5758 1.2618 0.0107
-2.5649 1.2559 0.0112
-2.5534 1.2435 0.0126
-2.5163 1.2138 0.0157
-2.5024 1.2002 0.0172
-2.4867 1.1801 0.0194
-2.4724 1.1719 0.0202
-2.4562 1.1571 0.0218
-2.4393 1.1423 0.0234
-2.4226 1.1308 0.0245
-2.4017 1.1072 0.0271
-2.3790 1.0813 0.0300
-2.3607 1.0719 0.0309
-2.3391 1.0547 0.0326
-2.2849 1.0005 0.0385
-2.2523 0.9655 0.0424
-2.2280 0.9515 0.0437
-2.1881 0.9076 0.0486
-2.1576 0.8857 0.0508
-2.1206 0.8538 0.0542
-2.0649 0.7920 0.0610
-2.0207 0.7544 0.0650
-1.9189 0.6667 0.0742
-1.7775 0.5340 0.0885
-1.7240 0.4981 0.0920
-1.4318 0.2367 0.1199
-5.3511 -1.9148 0.5572
-2.7093 1.1659 0.0378
-2.6183 1.2662 0.0208
-2.6071 1.2733 0.0195
-2.5963 1.2783 0.0186
-2.5862 1.2724 0.0192
-2.5758 1.2643 0.0203
-2.5649 1.2529 0.0218
-2.5538 1.2481 0.0223
-2.5417 1.2334 0.0242
-2.5292 1.2209 0.0259
-2.5161 1.2094 0.0274
-2.5027 1.1991 0.0287
-2.4880 1.1843 0.0306
-2.4728 1.1705 0.0324
-2.4574 1.1590 0.0338
-2.4412 1.1463 0.0354
-2.4253 1.1369 0.0365
-2.3840 1.0926 0.0424
-2.3618 1.0710 0.0452
-2.3353 1.0404 0.0493
-2.3166 1.0331 0.0501
-2.2858 0.9980 0.0548
-2.2598 0.9772 0.0574
-2.2296 0.9498 0.0609
-2.1920 0.9101 0.0662
-2.1224 0.8515 0.0737
-2.0373 0.7759 0.0834
-1.9830 0.7235 0.0903
-1.9290 0.6754 0.0965
-1.8674 0.6194 0.1037
-1.7822 0.5329 0.1151
-1.7369 0.5081 0.1180
-5.2966 -1.8699 0.6353
-2.8634 0.9885 0.0843
-2.6891 1.1909 0.0452
-2.6738 1.2034 0.0427
-2.6180 1.2666 0.0305
-2.6071 1.2705 0.0296
-2.5965 1.2722 0.0290
-2.5861 1.2717 0.0289
-2.5758 1.2636 0.0301
-2.5537 1.2440 0.0331
-2.5417 1.2303 0.0352
-2.5299 1.2254 0.0358
-2.5171 1.2139 0.0376
-2.5032 1.1990 0.0399
-2.4888 1.1852 0.0420
-2.4743 1.1747 0.0435
-2.4570 1.1532 0.0469
-2.4421 1.1459 0.0479
-2.4241 1.1287 0.0505
-2.4057 1.1125 0.0529
-2.3857 1.0941 0.0557
-2.3653 1.0768 0.0583
-2.3179 1.0320 0.0652
-2.2652 0.9847 0.0723
-2.2337 0.9537 0.0771
-2.2030 0.9272 0.0811
-2.1242 0.8492 0.0931
-2.0852 0.8157 0.0981
-2.0412 0.7765 0.1040
-1.9933 0.7339 0.1105
-1.9484 0.6990 0.1156
-1.8771 0.6268 0.1267
-2.8870 0.9714 0.1044
-2.8625 0.9858 0.1011
-2.7964 1.0677 0.0834
-2.7694 1.1007 0.0763
-2.7260 1.1472 0.0661
-2.6888 1.1886 0.0571
-2.6578 1.2203 0.0501
-2.5959 1.2792 0.0371
-2.5538 1.2421 0.0435
-2.5422 1.2338 0.0449
-2.5298 1.2211 0.0471
-2.5172 1.2118 0.0487
-2.5032 1.1957 0.0516
-2.4746 1.1724 0.0555
-2.4584 1.1562 0.0584
-2.4431 1.1467 0.0599
-2.4090 1.1198 0.0645
-2.3872 1.0946 0.0690
-2.3695 1.0850 0.0705
-2.2677 0.9856 0.0879
-2.2406 0.9635 0.0917
-2.1303 0.8549 0.1108
-2.0935 0.8246 0.1160
-2.0426 0.7727 0.1251
-1.9947 0.7297 0.1326
-1.9483 0.6924 0.1389
-1.8972 0.6504 0.1461
-1.8426 0.6061 0.1537
-5.4277 -1.8440 0.8012
-5.2849 -1.7827 0.7843
-5.0781 -1.6321 0.7463
-3.0169 0.8235 0.1566
-2.7494 1.1124 0.0866
-2.6427 1.2386 0.0563
-2.5959 1.2765 0.0468
-2.5859 1.2727 0.0474
-2.5757 1.2656 0.0488
-2.5651 1.2518 0.0516
-2.5540 1.2435 0.0531
-2.5422 1.2308 0.0557
-2.5306 1.2258 0.0565
-2.5173 1.2097 0.0598
-2.5038 1.1969 0.0623
-2.4901 1.1862 0.0643
-2.4426 1.1408 0.0732
-2.4259 1.1279 0.0757
-2.4089 1.1160 0.0779
-2.3889 1.0962 0.0818
-2.3687 1.0787 0.0852
-2.3473 1.0600 0.0889
-2.3214 1.0322 0.0944
-2.2994 1.0168 0.0973
-2.2447 0.9677 0.1069
-2.2129 0.9374 0.1128
-2.1744 0.8968 0.1209
-2.1431 0.8732 0.1254
-2.0147 0.7565 0.1482
-1.9577 0.7006 0.1592
-1.9174 0.6744 0.1641
-1.8426 0.5989 0.1790
-1.7609 0.5186 0.1948
-1.5185 0.3102 0.2352
-7.0287 -1.2981 0.8758
-6.7687 -1.0157 0.8198
-6.9304 -1.0313 0.8583
-6.7199 -0.7956 0.8131
-6.7155 -0.6995 0.8142
-5.8522 0.0631 0.6241
-5.6016 0.4050 0.5716
-5.3945 0.5683 0.5255
-5.3240 0.6618 0.5107
-5.2121 0.7692 0.4863
-5.1655 0.8459 0.4768
-4.7657 1.3381 0.3920
-4.7278 1.5375 0.3874
-4.7853 1.5804 0.4023
-4.8140 1.6281 0.4103
-5.6734 2.4491 0.6360
-5.8562 2.5722 0.6828
-6.7713 3.3340 0.9205
-5.7127 4.0776 0.6829
-5.6869 4.1354 0.6780
-7.0947 -1.3651 0.7942
-6.8259 -1.0733 0.7422
-6.7003 -0.8917 0.7188
-6.8168 -0.8752 0.7445
-6.7715 -0.7503 0.7374
-5.7862 0.0897 0.5416
-5.6940 0.2113 0.5242
-5.6661 0.3650 0.5215
-5.5038 0.5100 0.4894
-5.3419 0.6471 0.4572
-5.2245 0.8171 0.4354
-4.6141 1.4134 0.3158
-4.6011 1.5058 0.3150
-4.7520 1.5823 0.3495
-4.8199 1.6778 0.3664
-4.8723 1.7281 0.3789
-5.0238 1.8387 0.4142
-5.0889 1.8994 0.4297
-5.6334 2.4438 0.5601
-5.8118 2.5655 0.6015
-7.4752 3.9978 0.9947
-5.7401 4.1150 0.6199
-5.6901 4.1538 0.6099
-7.2643 -1.5091 0.7269
-6.8011 -1.0733 0.6461
-6.8382 -1.0028 0.6548
-6.8751 -0.9302 0.6635
-6.7470 -0.7503 0.6424
-5.9879 -0.0348 0.5101
-5.8112 0.1382 0.4794
-5.7843 0.2254 0.4760
-5.8042 0.2883 0.4812
-5.8007 0.3634 0.4821
-5.8439 0.4178 0.4916
-5.3909 0.6820 0.4093
-5.4056 0.7399 0.4133
-4.6840 1.3506 0.2861
-4.7985 1.6275 0.3141
-4.8616 1.6756 0.3273
-5.1590 1.9047 0.3898
-5.2455 2.0360 0.4093
-5.6014 2.2943 0.4837
-5.6616 2.3804 0.4972
-5.7960 2.4880 0.5255
-6.2031 2.6766 0.6084
-5.7207 4.1150 0.5448
-5.6940 4.1731 0.5409
-6.2962 4.9683 0.6743
-7.4494 -1.6663 0.6529
-6.9027 -1.1636 0.5698
-6.9416 -1.0915 0.5779
-6.7270 -0.8484 0.5462
-6.5319 -0.6280 0.5173
-5.7924 0.1382 0.4066
-6.0138 0.0964 0.4435
-6.0643 0.1503 0.4532
-5.6703 0.4159 0.3914
-5.4483 0.5856 0.3570
-5.3923 0.6746 0.3492
-4.7289 1.3381 0.2494
-5.0355 1.8402 0.3115
-5.1439 1.9047 0.3312
-5.5800 2.3666 0.4146
-5.7296 2.4764 0.4422
-6.0440 4.3047 0.5318
-5.7732 4.1736 0.4831
-5.6977 4.1924 0.4707
-6.0280 4.6509 0.5359
-6.1442 4.8490 0.5596
-7.3659 -1.6258 0.5335
-6.8724 -1.0614 0.4720
-6.7834 -0.9027 0.4619
-6.9062 -0.8849 0.4802
-6.4688 -0.5127 0.4233
-6.2977 -0.3207 0.4018
-5.6159 0.2939 0.3138
-5.6336 0.3546 0.3175
-5.5292 0.4741 0.3045
-5.3789 0.6092 0.2850
-4.7980 1.3201 0.2135
-4.7241 1.3852 0.2039
-5.6659 2.4654 0.3615
-6.0401 2.6440 0.4195
-7.4064 3.5112 0.6352
-5.6819 4.1149 0.3946
-5.6328 4.1538 0.3882
-5.9814 4.5390 0.4463
-6.1888 4.8162 0.4817
-6.0909 4.8202 0.4675
-5.8347 4.6666 0.4272
-7.4988 -1.6322 0.4421
-5.3451 0.6170 0.2197
-4.7021 1.3871 0.1550
-5.1137 1.9046 0.2141
-5.4733 2.1383 0.2619
-5.6353 2.2364 0.2833
-5.6762 2.3196 0.2898
-5.7182 2.4053 0.2964
-5.7146 2.4822 0.2973
-6.0188 2.6440 0.3371
-6.0433 2.7376 0.3417
-5.8627 4.1945 0.3453
-5.6399 4.0962 0.3165
-5.6589 4.1924 0.3205
-5.9322 4.5145 0.3593
-6.0133 4.6770 0.3720
-6.0389 4.7923 0.3772
-5.0998 0.6634 0.1353
-5.2628 0.6471 0.1509
-4.7725 1.3201 0.1144
-4.6802 1.3890 0.1066
-5.1134 1.9056 0.1570
-5.5324 2.2221 0.2027
-5.6132 2.3109 0.2120
-5.7703 2.4213 0.2290
-5.8925 2.5316 0.2427
-5.8126 4.2560 0.2632
-5.7099 4.2530 0.2532
-5.7796 4.3976 0.2623
-5.8796 4.5743 0.2749
-5.8757 4.6586 0.2759
-4.8023 1.3104 0.0678
-4.6776 1.3871 0.0600
-5.0114 1.9588 0.0926
-5.5692 2.3804 0.1391
-5.5876 2.4598 0.1416
-5.6937 4.1736 0.1753
-5.8399 4.3829 0.1889
-5.8897 4.5145 0.1945
-4.7786 1.3128 0.0167
-5.0829 1.9056 0.0391
-5.0801 1.9664 0.0398
-5.6159 2.3952 0.0707
-5.6341 2.4764 0.0726
-5.7501 4.1534 0.1015
-5.7222 4.2144 0.1011
-5.8723 4.4295 0.1111
-4.7236 1.3225 -0.0344
-4.6824 1.3811 -0.0345
-5.0397 1.9038 -0.0205
-5.1228 1.9717 -0.0179
-5.8346 2.4495 0.0029
-4.7015 1.3246 -0.0836
-4.6408 1.3871 -0.0825
-5.0669 1.9065 -0.0789
-5.0784 1.9690 -0.0782
-5.7113 2.5061 -0.0755
-6.7330 3.2063 -0.0730
-4.6285 1.3871 -0.1301
-5.0802 1.9084 -0.1391
-5.0916 1.9717 -0.1388
-5.6484 2.4159 -0.1520
-6.7060 3.2063 -0.1776
-4.6543 1.3792 -0.1799
-5.1094 1.9113 -0.2018
-5.1216 1.9760 -0.2019
-5.8777 2.4739 -0.2418
-4.6704 1.3733 -0.2309
-4.6394 1.4293 -0.2278
-5.1116 1.8487 -0.2651
-5.0633 1.9093 -0.2605
-7.2337 2.5482 -0.4422
-5.7774 2.4553 -0.3176
-5.6996 2.5187 -0.3104
-6.7862 3.2569 -0.3981
-7.0253 3.4677 -0.4170
-4.6384 1.3773 -0.2780
-4.6269 1.4293 -0.2763
-6.0051 2.5141 -0.4257
-6.1240 2.6365 -0.4384
-6.7634 3.1452 -0.5077
-3.1635 2.0994 -0.1056
-5.7751 0.0156 -0.4967
-5.6715 0.2286 -0.4809
-5.4102 0.5073 -0.4424
-5.2622 0.6443 -0.4207
-4.8107 1.1743 -0.3540
-4.6852 1.3648 -0.3352
-4.6727 1.4186 -0.3331
-6.0852 1.6133 -0.5321
-6.1768 1.7032 -0.5446
-5.0619 1.9113 -0.3856
-6.2918 2.1912 -0.5583
-6.2516 2.2838 -0.5521
-6.0206 2.3398 -0.5191
-5.7113 2.4494 -0.4747
-7.0885 3.1463 -0.6660
-7.0289 3.2488 -0.6570
-6.3923 3.2317 -0.5670
-6.2771 3.2852 -0.5504
-6.3086 3.4013 -0.5542
-6.3401 3.5194 -0.5580
-6.3734 3.6406 -0.5621
-6.2588 3.6815 -0.5456
-6.2192 3.7600 -0.5396
-6.3214 3.9239 -0.5532
-6.6392 4.2336 -0.5966
-6.7240 4.4049 -0.6077
-6.6734 4.4859 -0.6001
-6.5380 4.5017 -0.5808
-6.4116 4.5166 -0.5628
-5.7060 0.0445 -0.5666
-5.6555 0.1504 -0.5576
-5.5412 0.2883 -0.5376
-5.6716 0.2947 -0.5597
-5.5342 0.4384 -0.5358
-5.4478 0.5515 -0.5206
-5.3484 0.6657 -0.5033
-5.1897 0.7987 -0.4758
-5.1080 0.8942 -0.4615
-5.0316 0.9835 -0.4482
-4.8457 1.1041 -0.4161
-4.7859 1.1775 -0.4056
-4.7502 1.2413 -0.3993
-4.6822 1.3626 -0.3873
-4.6398 1.4222 -0.3798
-4.6774 1.4671 -0.3860
-5.5422 1.6367 -0.5323
-5.6526 1.7116 -0.5508
-5.0313 1.9103 -0.4444
-5.4302 2.2363 -0.5109
-5.5317 2.3330 -0.5277
-5.7926 2.4739 -0.5715
-5.6625 2.5250 -0.5492
-5.7252 2.7956 -0.5588
-5.7214 2.8791 -0.5578
-5.6866 3.6310 -0.5488
-5.6827 3.7146 -0.5478
-5.7784 3.9583 -0.5631
-5.8289 4.0870 -0.5712
-3.1593 2.1003 -0.1255
-3.1475 2.0989 -0.1235
-3.1136 2.0831 -0.1178
-5.5322 -0.3706 -0.6141
-5.5502 -0.3123 -0.6175
-5.5467 -0.2372 -0.6166
-5.5219 -0.1471 -0.6114
-5.4768 -0.0444 -0.6022
-5.4339 0.0546 -0.5934
-5.4903 0.0896 -0.6045
-5.4272 0.1991 -0.5917
-5.4036 0.2829 -0.5868
-5.5012 0.2998 -0.6061
-5.4565 0.3956 -0.5969
-5.4329 0.4788 -0.5920
-5.2808 0.6202 -0.5614
-5.0829 0.7734 -0.5217
-4.9938 0.8718 -0.5037
-4.9882 0.9934 -0.5023
-4.9314 1.0717 -0.4908
-4.8659 1.1497 -0.4776
-4.7576 1.2356 -0.4558
-4.6716 1.3104 -0.4385
-4.6791 1.3605 -0.4399
-4.6270 1.4222 -0.4294
-4.6544 1.4687 -0.4347
-5.4185 1.6414 -0.5860
-5.4564 1.7146 -0.5934
-5.4116 1.7892 -0.5843
-5.2580 1.8571 -0.5536
-5.0901 1.9154 -0.5200
-5.0871 1.9803 -0.5193
-5.3174 2.1467 -0.5646
-5.3521 2.2254 -0.5713
-5.3877 2.3065 -0.5781
-5.3842 2.3804 -0.5773
-5.4012 2.4598 -0.5804
-5.4181 2.5404 -0.5836
-5.3546 2.5957 -0.5708
-5.3319 2.6621 -0.5661
-5.3285 2.7349 -0.5652
-5.3444 2.8157 -0.5682
-5.3410 2.8890 -0.5673
-5.3376 2.9624 -0.5664
-5.3736 3.0556 -0.5733
-5.3500 3.1193 -0.5685
-5.3083 3.1715 -0.5600
-5.3241 3.2557 -0.5629
-5.3398 3.3410 -0.5658
-5.3364 3.4149 -0.5650
-5.3329 3.4888 -0.5641
-5.3495 3.5770 -0.5671
-5.4269 3.7119 -0.5821
-5.4233 3.7887 -0.5812
-5.1145 0.0669 -0.5947
-5.1115 0.1306 -0.5940
-5.0491 0.2348 -0.5796
-5.0754 0.2776 -0.5855
-5.0876 0.3309 -0.5882
-5.0997 0.3851 -0.5909
-5.1429 0.4222 -0.6007
-5.1560 0.4784 -0.6036
-5.1369 0.5521 -0.5992
-5.1469 0.6745 -0.6013
-5.0093 0.7987 -0.5698
-5.0064 0.8603 -0.5690
-4.9221 0.9531 -0.5497
-4.9064 1.0170 -0.5460
-4.9295 1.0675 -0.5512
-4.8515 1.1497 -0.5333
-4.6684 1.3080 -0.4914
-4.6363 1.3669 -0.4840
-4.6438 1.4167 -0.4856
-4.6817 1.4622 -0.4942
-5.3227 1.6449 -0.6401
-5.3574 1.7160 -0.6479
-5.3541 1.7887 -0.6470
-5.3507 1.8615 -0.6462
-4.9998 1.9103 -0.5661
-4.9415 1.9677 -0.5528
-4.9659 2.0323 -0.5582
-5.0057 2.1010 -0.5672
-5.0318 2.1696 -0.5731
-5.0897 2.2466 -0.5862
-4.9326 0.1329 -0.6137
-4.9168 0.2015 -0.6096
-4.9141 0.2601 -0.6089
-4.8994 0.3269 -0.6051
-4.9217 0.3687 -0.6109
-4.8940 0.4434 -0.6037
-4.8913 0.5016 -0.6031
-4.9006 0.5530 -0.6054
-4.9108 0.6044 -0.6081
-4.9080 0.6633 -0.6074
-4.9311 0.7095 -0.6133
-4.8778 0.7928 -0.5996
-4.8870 0.8458 -0.6020
-4.8843 0.9044 -0.6013
-4.8569 0.9725 -0.5942
-4.8424 1.0346 -0.5905
-4.6478 1.2582 -0.5404
-4.5689 1.3292 -0.5201
-4.5940 1.3733 -0.5265
-4.6112 1.4204 -0.5310
-4.6782 1.4607 -0.5482
-4.9762 1.4745 -0.6249
-4.9597 1.5379 -0.6207
-4.9404 1.6617 -0.6157
-4.8463 1.7244 -0.5915
-4.8320 1.7829 -0.5878
-4.8508 1.9010 -0.5927
-4.8480 1.9600 -0.5920
-4.8328 2.0173 -0.5880
-4.8185 2.0741 -0.5844
-4.8273 2.1345 -0.5866
-4.8371 2.1957 -0.5892
-4.8219 2.2516 -0.5852
-4.8441 2.3170 -0.5910
-4.8289 2.3725 -0.5871
-4.8262 2.4315 -0.5864
-4.8111 2.4859 -0.5825
-4.8207 2.5494 -0.5850
-4.8180 2.6083 -0.5843
-4.8153 2.6672 -0.5835
-4.8372 2.7381 -0.5892
-4.8221 2.7914 -0.5853
-4.8194 2.8507 -0.5846
-4.8289 2.9171 -0.5871
-4.8016 2.9619 -0.5800
-4.7867 3.0131 -0.5762
-4.7962 3.0798 -0.5786
-4.8057 3.1472 -0.5811
-4.8029 3.2065 -0.5804
-4.8376 3.2942 -0.5893
-4.8479 3.3650 -0.5920
-4.8321 3.4151 -0.5879
-4.6487 0.5402 -0.5940
-4.6969 0.5596 -0.6079
-4.6638 0.6314 -0.5985
-4.6416 0.6952 -0.5922
-4.6467 0.7933 -0.5938
-4.6025 0.9158 -0.5812
-4.6100 0.9623 -0.5835
-4.6224 1.1085 -0.5873
-4.5819 1.1729 -0.5757
-4.5522 1.2317 -0.5672
-4.5402 1.2842 -0.5639
-4.5837 1.3224 -0.5764
-4.5726 1.3752 -0.5733
-4.5702 1.4257 -0.5727
-4.6445 1.4640 -0.5941
-4.6624 1.5140 -0.5993
-4.6106 1.5725 -0.5845
-4.5512 1.6288 -0.5675
-4.5672 1.6782 -0.5722
-4.6130 1.7282 -0.5854
-4.5468 1.9315 -0.5667
-4.5445 1.9821 -0.5661
-4.5698 2.0371 -0.5734
-4.5961 2.0938 -0.5811
-4.5937 2.1460 -0.5805
-4.6008 2.2006 -0.5826
-4.5983 2.2531 -0.5820
-4.5864 2.3027 -0.5786
-4.5935 2.3581 -0.5807
-4.6179 2.4748 -0.5879
-4.5956 2.5197 -0.5815
-4.5743 2.5639 -0.5755
-4.5719 2.6161 -0.5749
-4.5937 2.7896 -0.5814
-4.5981 2.9018 -0.5828
-4.5957 2.9551 -0.5822
-4.5638 3.2059 -0.5734
-4.5691 0.3929 -0.6225
-4.5668 0.4424 -0.6219
-4.5556 0.4984 -0.6185
-4.5444 0.5538 -0.6151
-4.5333 0.6088 -0.6117
-4.5143 0.6683 -0.6058
-4.5209 0.7111 -0.6080
-4.5628 0.7338 -0.6214
-4.5242 0.8038 -0.6094
-4.5308 0.8479 -0.6116
-4.5536 0.9330 -0.6191
-4.5152 0.9989 -0.6070
-4.5052 1.0509 -0.6040
-4.5282 1.0896 -0.6114
-4.5149 1.1910 -0.6075
-4.4710 1.2528 -0.5937
-4.5209 1.4327 -0.6101
-4.4782 1.6334 -0.5971
-4.4723 1.9253 -0.5960
-4.4539 1.9720 -0.5903
-4.4763 2.0242 -0.5976
-4.4655 2.0716 -0.5943
-4.4633 2.1204 -0.5937
-4.4610 2.1691 -0.5931
-4.4512 2.2158 -0.5901
-4.4445 2.3614 -0.5884
-4.4497 2.4129 -0.5902
-4.4316 2.4549 -0.5846
-4.4452 2.5105 -0.5891
-4.4752 2.6260 -0.5989
-4.4636 2.6706 -0.5954
-4.4362 2.7055 -0.5868
-4.4098 2.7394 -0.5785
-4.4660 2.8252 -0.5966
-4.4545 2.8687 -0.5930
-4.4438 2.9123 -0.5898
-4.4332 2.9554 -0.5865
-4.4476 3.0172 -0.5913
-4.4370 3.0601 -0.5880
-4.4430 3.1163 -0.5901
-4.3754 0.6208 -0.6082
-4.3880 0.6549 -0.6127
-4.3760 0.7498 -0.6090
-4.3457 0.8120 -0.5986
-4.3719 0.8392 -0.6079
-4.3630 0.8877 -0.6050
-4.3735 0.9693 -0.6090
-4.3636 1.0179 -0.6058
-4.3693 1.0591 -0.6079
-4.2908 1.1362 -0.5809
-4.3024 1.1736 -0.5850
-4.3776 1.1885 -0.6113
-4.3051 1.2575 -0.5864
-4.2964 1.3028 -0.5835
-4.2809 1.3497 -0.5783
-4.2712 1.4363 -0.5753
-4.2817 1.4765 -0.5791
-4.2931 1.5172 -0.5833
-4.3045 1.5586 -0.5874
-4.2691 1.6058 -0.5753
-4.3004 1.6460 -0.5864
-4.3030 1.7332 -0.5877
-4.2744 1.7768 -0.5779
-4.2857 1.8204 -0.5820
-4.2777 1.9943 -0.5799
-4.2756 2.0378 -0.5794
-4.2605 2.0784 -0.5743
-4.2519 2.1198 -0.5715
-4.2762 2.1700 -0.5802
-4.2676 2.2117 -0.5773
-4.2590 2.2529 -0.5745
-4.2375 2.2889 -0.5672
-4.2811 2.3500 -0.5826
-4.2726 2.3912 -0.5798
-4.2910 2.4446 -0.5865
-4.2889 2.4891 -0.5860
-4.2730 2.5262 -0.5806
-4.2913 2.5816 -0.5872
-4.2827 2.6225 -0.5844
-4.3009 2.6795 -0.5910
-4.2722 2.7073 -0.5810
-4.2701 2.7516 -0.5805
-4.2607 2.7906 -0.5774
-4.2788 2.8497 -0.5840
-4.2841 2.9001 -0.5860
-3.1097 2.0841 -0.1728
-4.2863 0.5966 -0.6215
-4.2697 0.6902 -0.6157
-4.2804 0.7230 -0.6200
-4.2562 0.9826 -0.6123
-4.2485 1.0273 -0.6096
-4.2388 1.3585 -0.6078
-4.2187 1.4049 -0.6004
-4.2473 1.4393 -0.6115
-4.2273 1.4849 -0.6041
-4.2168 1.5690 -0.6006
-4.2375 1.6500 -0.6090
-4.2187 2.1998 -0.6049
-4.1830 2.4418 -0.5928
-4.1985 2.4927 -0.5990
-4.1791 2.5250 -0.5918
-4.1827 2.5699 -0.5934
-4.1753 2.6082 -0.5908
-4.1733 2.6498 -0.5903
-4.1888 2.7033 -0.5965
-4.1868 2.7455 -0.5960
-4.1794 2.7835 -0.5934
-4.1893 2.8347 -0.5974
-4.1755 2.8674 -0.5924
-4.1736 2.9094 -0.5919
-4.1952 2.9720 -0.6004
-3.1424 2.1012 -0.1951
-3.1065 2.0831 -0.1813
-4.1388 0.6688 -0.6064
-4.1294 0.7495 -0.6031
-4.1122 0.7990 -0.5964
-4.1104 0.8365 -0.5959
-4.1299 0.8595 -0.6041
-4.1070 0.9115 -0.5950
-4.1110 0.9454 -0.5970
-4.1141 0.9802 -0.5985
-4.1123 1.0181 -0.5980
-4.1040 1.0962 -0.5952
-4.1071 1.1316 -0.5967
-4.1005 1.1716 -0.5943
-4.1036 1.2072 -0.5958
-4.1048 1.2811 -0.5968
-4.1030 1.3191 -0.5964
-4.0866 1.4731 -0.5907
-4.0616 1.5888 -0.5812
-4.1050 1.6211 -0.5993
-4.1032 1.6596 -0.5989
-4.0641 1.7371 -0.5833
-4.0653 1.8120 -0.5843
-4.0635 1.8496 -0.5839
-4.0674 1.8876 -0.5858
-4.0703 1.9260 -0.5872
-4.0583 1.9621 -0.5826
-4.0621 2.0007 -0.5844
-4.0697 2.0405 -0.5878
-4.0485 2.0735 -0.5793
-4.0763 2.1193 -0.5911
-4.0644 2.1544 -0.5864
-4.0580 2.1908 -0.5841
-4.0462 2.2248 -0.5794
-4.0499 2.2645 -0.5813
-4.0482 2.3022 -0.5808
-4.0364 2.3352 -0.5762
-4.0447 2.3776 -0.5799
-4.0721 2.4309 -0.5916
-4.0658 2.4669 -0.5893
-4.0440 2.4934 -0.5805
-4.0277 2.5221 -0.5740
-4.0505 2.5756 -0.5837
-4.0288 2.6000 -0.5750
-4.0271 2.6375 -0.5745
-4.0551 2.6975 -0.5865
-4.0678 2.7473 -0.5921
-4.0615 2.7825 -0.5897
-4.0642 2.8251 -0.5912
-3.1068 2.0860 -0.1913
-4.0694 0.7184 -0.6172
-4.0675 0.8606 -0.6176
-4.0545 0.9400 -0.6125
-4.0638 1.0405 -0.6175
-4.0604 1.1139 -0.6166
-4.0438 1.3722 -0.6115
-3.9688 1.6693 -0.5808
-4.0230 1.9209 -0.6070
-4.0305 1.9591 -0.6107
-3.9739 2.2008 -0.5876
-3.9850 2.2417 -0.5929
-3.9706 2.2720 -0.5868
-3.9771 2.3115 -0.5900
-3.9755 2.3473 -0.5896
-3.9738 2.3832 -0.5892
-3.9624 2.4500 -0.5847
-3.9959 2.5078 -0.6001
-3.9835 2.5749 -0.5952
-3.9908 2.6179 -0.5988
-3.9935 2.6580 -0.6003
-3.9918 2.6948 -0.5999
-3.9767 2.7205 -0.5934
-3.9795 2.7608 -0.5950
-3.9867 2.8052 -0.5986
-3.1147 2.0874 -0.2048
-3.0927 2.0820 -0.1949
-3.9498 0.7788 -0.6004
-3.9406 0.8183 -0.5964
-3.9391 0.8512 -0.5960
-3.9528 0.8722 -0.6028
-3.9513 0.9056 -0.6024
-3.9383 0.9472 -0.5966
-3.9330 0.9829 -0.5944
-3.9353 1.0132 -0.5958
-3.9451 1.0390 -0.6008
-3.9360 1.0770 -0.5968
-3.9382 1.1079 -0.5982
-3.9443 1.1370 -0.6014
-3.9412 1.2039 -0.6006
-3.9471 1.3332 -0.6048
-3.9365 1.4033 -0.6004
-3.9266 1.4393 -0.5960
-3.9130 1.5740 -0.5909
-3.9226 1.6055 -0.5958
-3.9062 1.6406 -0.5884
-3.9084 1.6733 -0.5898
-3.8921 1.7072 -0.5823
-3.9164 1.7394 -0.5942
-3.9148 1.7729 -0.5938
-3.9059 1.8060 -0.5899
-3.9117 1.8398 -0.5930
-3.9065 1.8729 -0.5909
-3.9086 1.9067 -0.5922
-3.8925 1.9378 -0.5848
-3.8982 1.9722 -0.5880
-3.8894 2.0038 -0.5841
-3.8733 2.0331 -0.5767
-3.9054 2.0754 -0.5924
-3.8957 2.1064 -0.5881
-3.8869 2.1372 -0.5842
-3.8854 2.1703 -0.5838
-3.8839 2.2035 -0.5834
-3.8823 2.2366 -0.5831
-3.8844 2.2714 -0.5844
-3.8945 2.3106 -0.5896
-3.8669 2.3301 -0.5767
-3.8798 2.3712 -0.5832
-3.8711 2.4001 -0.5794
-3.8767 2.4377 -0.5824
-3.8752 2.4709 -0.5820
-3.8736 2.5041 -0.5816
-3.8721 2.5374 -0.5812
-3.8776 2.5761 -0.5843
-3.8761 2.6096 -0.5839
-3.8639 2.6342 -0.5783
-3.8695 2.6734 -0.5814
-3.8679 2.7068 -0.5810
-3.9072 0.8086 -0.6154
-3.9134 0.8343 -0.6188
-3.8834 0.8898 -0.6041
-3.8990 0.9079 -0.6123
-3.9013 0.9371 -0.6138
-3.8671 1.0837 -0.5981
-3.8879 1.2262 -0.6104
-3.8864 1.2583 -0.6100
-3.8924 1.2872 -0.6134
-3.8053 1.9247 -0.5764
-3.8202 1.9585 -0.5844
-3.8124 1.9881 -0.5808
-3.8159 2.0517 -0.5833
-3.8208 2.0849 -0.5862
-3.8024 2.2044 -0.5782
-3.7947 2.2322 -0.5746
-3.7960 2.2643 -0.5757
-3.8127 2.3372 -0.5851
-3.8051 2.3648 -0.5815
-3.8036 2.3960 -0.5811
-3.7960 2.4230 -0.5775
-3.7972 2.4559 -0.5785
-3.8055 2.4942 -0.5832
-3.8040 2.5256 -0.5828
-3.8061 2.5598 -0.5843
-3.8073 2.5936 -0.5853
-3.8128 2.6313 -0.5886
-3.8315 2.6814 -0.5987
-3.8189 0.8789 -0.6037
-3.8269 0.9007 -0.6084
-3.8256 0.9307 -0.6080
-3.8242 0.9607 -0.6077
-3.8106 1.0001 -0.6008
-3.8186 1.0229 -0.6054
-3.8134 1.0554 -0.6031
-3.8093 1.0872 -0.6012
-3.8013 1.1211 -0.5974
-3.7944 1.1541 -0.5940
-3.7865 1.1874 -0.5902
-3.8037 1.2062 -0.5998
-3.7931 1.2408 -0.5945
-3.7945 1.2689 -0.5956
-3.8047 1.3223 -0.6019
-3.7863 1.3882 -0.5927
-3.8033 1.4112 -0.6023
-3.7955 1.4433 -0.5985
-3.7978 1.4720 -0.6001
-3.7927 1.5029 -0.5978
-3.7794 1.5355 -0.5910
-3.7964 1.5613 -0.6005
-3.7922 1.5918 -0.5987
-3.7781 1.6235 -0.5914
-3.7804 1.6527 -0.5930
-3.7817 1.6821 -0.5942
-3.7762 1.7417 -0.5920
-3.7957 1.7716 -0.6030
-3.7852 1.8015 -0.5977
-3.7775 1.8311 -0.5939
-3.7694 1.8900 -0.5902
-3.7860 1.9227 -0.5997
-3.7810 1.9522 -0.5974
-3.7706 1.9802 -0.5921
-3.7714 2.0410 -0.5933
-3.7638 2.0689 -0.5896
-3.7598 2.0977 -0.5877
-3.7611 2.1284 -0.5889
-3.7597 2.1581 -0.5885
-3.7610 2.1891 -0.5896
-3.7569 2.2176 -0.5878
-3.7529 2.2460 -0.5860
-3.7480 2.2737 -0.5837
-3.7528 2.3068 -0.5867
-3.7452 2.3328 -0.5830
-3.7500 2.3663 -0.5860
-3.7487 2.3961 -0.5857
-3.7411 2.4215 -0.5819
-3.7520 2.4602 -0.5884
-3.7445 2.4853 -0.5846
-3.7493 2.5201 -0.5876
-3.7479 2.5500 -0.5873
-3.7491 2.5822 -0.5884
-3.7503 2.6147 -0.5895
-3.7524 2.6481 -0.5911
-3.7801 0.9343 -0.6152
-3.7690 0.9987 -0.6098
-3.7692 1.0538 -0.6107
-3.7470 1.1244 -0.5989
-3.7374 1.1580 -0.5938
-3.7500 1.1772 -0.6014
-3.7431 1.2087 -0.5979
-3.7363 1.2400 -0.5944
-3.7254 1.3000 -0.5890
-3.7228 1.3553 -0.5883
-3.7354 1.4326 -0.5968
-3.7276 1.6016 -0.5948
-3.7264 1.6860 -0.5954
-3.7238 1.7425 -0.5947
-3.7306 1.8281 -0.5999
-3.6972 1.9089 -0.5818
-3.6960 1.9927 -0.5823
-3.7107 2.0252 -0.5913
-3.7067 2.0526 -0.5894
-3.6988 2.1069 -0.5857
-3.6896 2.1315 -0.5807
-3.7042 2.1665 -0.5896
-3.7029 2.1948 -0.5893
-3.7029 2.2528 -0.5902
-3.7042 2.2827 -0.5914
-3.7029 2.3111 -0.5910
-3.6963 2.3361 -0.5876
-3.6819 2.3554 -0.5796
-3.6911 2.3908 -0.5854
-3.6976 2.4248 -0.5897
-3.6833 2.4430 -0.5817
-3.6898 2.4774 -0.5859
-3.6911 2.5079 -0.5871
-3.6923 2.5386 -0.5883
-3.6936 2.5694 -0.5895
-3.7180 0.9814 -0.6103
-3.7223 1.0040 -0.6133
-3.7266 1.0269 -0.6163
-3.6994 1.0745 -0.6004
-3.7130 1.0902 -0.6090
-3.7071 1.1207 -0.6059
-3.7105 1.1447 -0.6084
-3.7046 1.1749 -0.6053
-3.7006 1.2037 -0.6033
-3.6994 1.2306 -0.6030
-3.7036 1.2545 -0.6060
-3.6996 1.2831 -0.6040
-3.7011 1.3088 -0.6053
-3.6925 1.3394 -0.6006
-3.6931 1.3656 -0.6014
-3.6908 1.4726 -0.6017
-3.6766 1.5298 -0.5939
-3.6844 1.5544 -0.5991
-3.7011 1.5777 -0.6098
-3.6747 1.6096 -0.5941
-3.6959 1.6332 -0.6075
-3.6848 1.6617 -0.6011
-3.6880 1.6885 -0.6035
-3.6751 1.7164 -0.5961
-3.6810 1.7432 -0.6002
-3.6815 1.7703 -0.6009
-3.6731 1.7972 -0.5962
-3.6968 1.8261 -0.6112
-3.6777 1.8520 -0.6000
-3.6720 1.8786 -0.5969
-3.6734 1.9061 -0.5982
-3.6722 1.9332 -0.5979
-3.6753 1.9614 -0.6003
-3.6503 1.9823 -0.5853
-3.6658 2.0139 -0.5953
-3.6575 2.0386 -0.5906
-3.6519 2.0639 -0.5876
-3.6690 2.0978 -0.5987
-3.6581 2.1210 -0.5924
-3.6551 2.1472 -0.5910
-3.6609 2.1776 -0.5950
-3.6614 2.2056 -0.5958
-3.6531 2.2289 -0.5911
-3.6545 2.2575 -0.5924
-3.6506 2.2829 -0.5905
-3.6546 2.3133 -0.5934
-3.6533 2.3404 -0.5931
-3.6521 2.3676 -0.5927
-3.6482 2.3928 -0.5908
-3.6496 2.4219 -0.5921
-3.6432 2.4448 -0.5885
-3.6471 2.4762 -0.5914
-3.6432 2.5010 -0.5895
-3.6377 2.5241 -0.5865
-3.6433 2.5576 -0.5905
-3.6670 1.0945 -0.6100
-3.6600 1.1498 -0.6065
-3.6576 1.2014 -0.6059
-3.6492 1.2319 -0.6009
-3.6507 1.2559 -0.6024
-3.6386 1.2878 -0.5951
-3.6202 1.3225 -0.5838
-3.6444 1.3343 -0.5997
-3.6351 1.3639 -0.5942
-3.6448 1.3843 -0.6008
-3.6270 1.4417 -0.5904
-3.6292 1.4907 -0.5927
-3.6302 1.5657 -0.5947
-3.6251 1.6171 -0.5923
-3.6480 1.6391 -0.6076
-3.6254 1.6677 -0.5935
-3.6278 1.6929 -0.5955
-3.6266 1.7185 -0.5952
-3.6254 1.7441 -0.5948
-3.6095 1.8200 -0.5859
-3.6145 1.8459 -0.5896
-3.6239 1.8728 -0.5962
-3.6136 1.9227 -0.5904
-3.6125 1.9482 -0.5901
-3.6148 1.9746 -0.5921
-3.6136 2.0002 -0.5918
-3.6107 2.0252 -0.5904
-3.6095 2.0508 -0.5901
-3.6175 2.1064 -0.5963
-3.6146 2.1315 -0.5948
-3.6047 2.1530 -0.5888
-3.6053 2.1795 -0.5897
-3.6067 2.2065 -0.5911
-3.6098 2.2348 -0.5936
-3.6086 2.2606 -0.5933
-3.6031 2.2836 -0.5902
-3.6019 2.3093 -0.5899
-3.5982 2.3331 -0.5878
-3.6055 2.3653 -0.5932
-3.6043 2.3912 -0.5929
-3.6057 2.4192 -0.5943
-3.5960 2.4378 -0.5883
-3.5991 2.4673 -0.5908
-3.6021 2.4971 -0.5934
-3.5984 2.5206 -0.5914
-3.6220 1.0534 -0.6080
-3.6364 1.0650 -0.6181
-3.6307 1.0938 -0.6148
-3.6341 1.1153 -0.6175
-3.6156 1.1535 -0.6056
-3.6261 1.1939 -0.6136
-3.6231 1.2202 -0.6121
-3.6074 1.2543 -0.6020
-3.6081 1.2778 -0.6029
-3.6070 1.3023 -0.6027
-3.5977 1.3313 -0.5969
-3.6029 1.3524 -0.6009
-3.6242 1.3660 -0.6157
-3.5914 1.4294 -0.5945
-3.6008 1.4737 -0.6018
-3.5961 1.4995 -0.5991
-3.5938 1.5486 -0.5985
-3.5900 1.5737 -0.5964
-3.5916 1.5976 -0.5979
-3.6008 1.6450 -0.6052
-3.5961 1.6703 -0.6025
-3.5791 1.6964 -0.5913
-3.5832 1.7204 -0.5947
-3.6000 1.7946 -0.6076
-3.5813 1.8183 -0.5953
-3.5854 1.8434 -0.5986
-3.5948 1.8696 -0.6055
-3.5893 1.8938 -0.6022
-3.5785 1.9167 -0.5953
-3.5870 1.9436 -0.6017
-3.5884 1.9692 -0.6032
-3.5847 1.9934 -0.6011
-3.5774 2.0162 -0.5966
-3.5789 2.0419 -0.5981
-3.5855 2.0697 -0.6032
-3.5706 2.0888 -0.5933
-3.5677 2.1125 -0.5918
-3.5700 2.1388 -0.5939
-3.5706 2.1643 -0.5948
-3.5660 2.1871 -0.5921
-3.5683 2.2137 -0.5942
-3.5637 2.2362 -0.5915
-3.5660 2.2631 -0.5936
-3.5649 2.2878 -0.5933
-3.5680 2.3156 -0.5960
-3.5609 2.3358 -0.5916
-3.5640 2.3639 -0.5942
-3.5645 2.3901 -0.5951
-3.5592 2.4112 -0.5919
-3.5580 2.4359 -0.5916
-3.5628 2.4662 -0.5954
-3.5599 2.4894 -0.5940
-3.0875 2.0851 -0.2623
-3.0830 2.0892 -0.2592
-3.5804 1.0846 -0.6070
-3.5831 1.1966 -0.6114
-3.5802 1.2217 -0.6098
-3.5791 1.2455 -0.6095
-3.5681 1.2757 -0.6023
-3.5598 1.3035 -0.5969
-3.5695 1.3205 -0.6042
-3.5648 1.3461 -0.6014
-3.5566 1.3733 -0.5961
-3.5555 1.3966 -0.5958
-3.5580 1.4182 -0.5980
-3.5516 1.4439 -0.5940
-3.5540 1.4656 -0.5962
-3.5601 1.4864 -0.6010
-3.5448 1.5147 -0.5906
-3.5543 1.5345 -0.5979
-3.5500 1.6282 -0.5968
-3.5426 1.6757 -0.5925
-3.5492 1.7218 -0.5982
-3.5359 1.7456 -0.5891
-3.5435 1.7688 -0.5951
-3.5483 1.8162 -0.5996
-3.5454 1.8397 -0.5981
-3.5409 1.8628 -0.5953
-3.5493 1.8879 -0.6019
-3.5404 1.9101 -0.5960
-3.5417 1.9581 -0.5979
-3.5286 1.9781 -0.5889
-3.5292 2.0020 -0.5898
-3.5333 2.0272 -0.5933
-3.5288 2.0493 -0.5905
-3.5294 2.0734 -0.5915
-3.5266 2.0960 -0.5900
-3.5289 2.1211 -0.5922
-3.5378 2.1744 -0.5998
-3.5280 2.2172 -0.5936
-3.5252 2.2397 -0.5921
-3.5258 2.2644 -0.5930
-3.5247 2.2880 -0.5927
-3.5270 2.3143 -0.5949
-3.5301 2.3414 -0.5978
-3.5231 2.3603 -0.5931
-3.5279 2.3891 -0.5972
-3.5268 2.4129 -0.5969
-3.5240 2.4352 -0.5954
-3.0856 2.0953 -0.2717
-3.5525 1.1481 -0.6147
-3.5407 1.1797 -0.6065
-3.5388 1.2030 -0.6055
-3.5440 1.2210 -0.6099
-3.5411 1.2451 -0.6083
-3.5436 1.2654 -0.6107
-3.5444 1.2872 -0.6118
-3.5433 1.3101 -0.6115
-3.5440 1.3320 -0.6125
-3.5314 1.3614 -0.6037
-3.5251 1.3868 -0.5994
-3.5262 1.4745 -0.6023
-3.5250 1.5194 -0.6024
-3.5253 1.5865 -0.6043
-3.5215 1.6323 -0.6024
-3.5126 1.6562 -0.5962
-3.5081 1.6790 -0.5933
-3.5166 1.7006 -0.6003
-3.5147 1.7233 -0.5994
-3.5057 1.7684 -0.5936
-3.5124 1.7912 -0.5992
-3.5077 1.8362 -0.5967
-3.5084 1.8590 -0.5977
-3.5174 1.9065 -0.6057
-3.5112 1.9283 -0.6015
-3.5042 1.9494 -0.5967
-3.5074 1.9734 -0.5997
-3.5047 1.9956 -0.5981
-3.5053 2.0189 -0.5991
-3.5000 2.0399 -0.5956
-3.4998 2.0629 -0.5960
-3.5089 2.0904 -0.6035
-3.5045 2.1117 -0.6006
-3.4967 2.1309 -0.5952
-3.5007 2.1564 -0.5988
-3.5030 2.1813 -0.6011
-3.5070 2.2075 -0.6048
-3.4992 2.2260 -0.5993
-3.4948 2.2465 -0.5964
-3.4971 2.2718 -0.5987
-3.4993 2.2972 -0.6011
-3.4933 2.3161 -0.5969
-3.4864 2.3340 -0.5921
-3.4862 2.3573 -0.5925
-3.4868 2.3815 -0.5935
-3.4907 2.4090 -0.5971
-3.0874 2.1004 -0.2838
-3.5007 1.1247 -0.5997
-3.4970 1.1485 -0.5974
-3.4987 1.1676 -0.5992
-3.4977 1.1890 -0.5989
-3.4994 1.2083 -0.6008
-3.5037 1.2257 -0.6047
-3.5010 1.2487 -0.6030
-3.5044 1.2672 -0.6062
-3.5114 1.2836 -0.6122
-3.4980 1.3137 -0.6022
-3.4925 1.3380 -0.5985
-3.5029 1.3741 -0.6077
-3.4957 1.3993 -0.6026
-3.4886 1.4240 -0.5975
-3.4902 1.4443 -0.5993
-3.4892 1.4659 -0.5991
-3.4882 1.4875 -0.5988
-3.4846 1.5100 -0.5965
-3.4845 1.5312 -0.5969
-3.4808 1.5536 -0.5946
-3.4773 1.5757 -0.5923
-3.4763 1.5971 -0.5920
-3.4822 1.6170 -0.5973
-3.4829 1.6383 -0.5984
-3.4776 1.6605 -0.5947
-3.4749 1.6822 -0.5931
-3.4739 1.7037 -0.5928
-3.4789 1.7248 -0.5974
-3.4779 1.7465 -0.5971
-3.4735 1.7681 -0.5941
-3.4699 1.7895 -0.5918
-3.4732 1.8112 -0.5950
-3.4722 1.8328 -0.5947
-3.4755 1.8550 -0.5979
-3.4762 1.8771 -0.5990
-3.4752 1.8988 -0.5987
-3.4665 1.9188 -0.5923
-3.4782 1.9438 -0.6023
-3.4662 1.9623 -0.5932
-3.4652 1.9839 -0.5929
-3.4760 2.0100 -0.6022
-3.4725 2.0309 -0.5999
-3.4731 2.0535 -0.6010
-3.4545 2.0670 -0.5865
-3.4585 2.0910 -0.5903
-3.4634 2.1157 -0.5948
-3.4631 2.1602 -0.5956
-3.4562 2.1782 -0.5906
-3.4552 2.1998 -0.5903
-3.4542 2.2214 -0.5901
-3.4565 2.2454 -0.5925
-3.4580 2.2691 -0.5943
-3.4587 2.2922 -0.5954
-3.4560 2.3127 -0.5938
-3.4525 2.3322 -0.5915
-3.4540 2.3562 -0.5933
-3.4489 2.3740 -0.5896
-3.1022 2.1009 -0.3066
-3.4740 1.3463 -0.6086
-3.4713 1.3684 -0.6069
-3.4677 1.3909 -0.6045
-3.4676 1.4114 -0.6050
-3.4701 1.4306 -0.6076
-3.4674 1.4525 -0.6059
-3.4682 1.4727 -0.6071
-3.4611 1.4963 -0.6019
-3.4619 1.5165 -0.6030
-3.4575 1.5387 -0.5999
-3.4487 1.5619 -0.5933
-3.4467 1.6234 -0.5933
-3.4414 1.6652 -0.5899
-3.4463 1.7056 -0.5951
-3.4392 1.7677 -0.5908
-3.4450 1.7886 -0.5963
-3.4483 1.8097 -0.5996
-3.4447 1.8513 -0.5976
-3.4529 1.8953 -0.6056
-3.4485 1.9157 -0.6026
-3.4383 1.9342 -0.5945
-3.4499 1.9589 -0.6049
-3.4414 1.9775 -0.5983
-3.4438 1.9998 -0.6009
-3.4370 2.0184 -0.5957
-3.4385 2.0404 -0.5975
-3.4417 2.0634 -0.6008
-3.4248 2.0974 -0.5876
-3.4230 2.1175 -0.5867
-3.4287 2.1422 -0.5921
-3.4277 2.1630 -0.5918
-3.4358 2.1901 -0.5993
-3.4381 2.2136 -0.6019
-3.4396 2.2367 -0.6037
-3.4370 2.2567 -0.6021
-3.4335 2.2759 -0.5997
-3.4309 2.2956 -0.5980
-3.4357 2.3219 -0.6027
-3.4322 2.3409 -0.6004
-3.4296 2.3605 -0.5987
-3.1273 2.1109 -0.3395
-3.1163 2.1096 -0.3303
-3.1054 2.1076 -0.3211
-3.1001 2.1118 -0.3168
-3.4476 1.1644 -0.6054
-3.4414 1.1893 -0.6007
-3.4405 1.2092 -0.6004
-3.4431 1.2262 -0.6032
-3.4492 1.2405 -0.6089
-3.4360 1.2704 -0.5982
-3.4368 1.2890 -0.5995
-3.4359 1.3089 -0.5993
-3.4385 1.3264 -0.6020
-3.4349 1.3482 -0.5995
-3.4366 1.3665 -0.6015
-3.4322 1.3887 -0.5983
-3.4339 1.4071 -0.6003
-3.4425 1.4220 -0.6082
-3.4381 1.4441 -0.6050
-3.4337 1.4659 -0.6018
-3.4328 1.4860 -0.6016
-3.4327 1.5058 -0.6021
-3.4317 1.5259 -0.6018
