ply
format ascii 1.0
element vertex 2096
property float x
property float y
property float z
end_header
-4.8890 1.1505 0.1863
-4.8677 1.1693 0.1848
-4.8573 1.1951 0.1857
-4.8363 1.2135 0.1842
-4.8206 1.2356 0.1839
-4.7872 1.2434 0.1792
-4.7916 1.2820 0.1839
-4.7565 1.2867 0.1786
-4.7451 1.3121 0.1794
-4.7319 1.3362 0.1797
-4.7263 1.3684 0.1821
-4.7173 1.3979 0.1836
-4.7014 1.4203 0.1833
-5.9812 4.3821 0.6981
-5.9047 4.4245 0.6899
-5.8288 4.4641 0.6815
-5.4909 0.4902 0.1890
-5.4871 0.5142 0.1906
-5.4653 0.5393 0.1897
-5.4248 0.5647 0.1861
-5.4114 0.5892 0.1864
-5.3770 0.6135 0.1836
-5.3559 0.6377 0.1827
-5.3349 0.6617 0.1818
-5.3341 0.6869 0.1839
-5.3168 0.7113 0.1836
-5.2872 0.7344 0.1814
-5.2543 0.7566 0.1786
-5.2337 0.7800 0.1777
-5.2133 0.8032 0.1768
-5.2150 0.8305 0.1795
-5.1864 0.8522 0.1773
-5.1548 0.8726 0.1746
-5.1313 0.8944 0.1731
-5.1147 0.9179 0.1728
-5.0915 0.9393 0.1714
-5.0750 0.9627 0.1711
-5.0427 0.9802 0.1680
-5.0089 0.9963 0.1645
-5.0040 1.0236 0.1662
-4.9828 1.0442 0.1650
-4.9549 1.0612 0.1625
-4.9534 1.0911 0.1649
-4.9391 1.1150 0.1650
-4.9098 1.1302 0.1621
-4.8810 1.1448 0.1593
-4.8833 1.1788 0.1626
-4.8592 1.1959 0.1607
-4.8485 1.2222 0.1615
-4.8256 1.2395 0.1597
-4.7997 1.2537 0.1572
-4.7733 1.2667 0.1546
-4.7619 1.2922 0.1552
-4.7510 1.3186 0.1560
-4.7245 1.3299 0.1532
-4.7158 1.3980 0.1580
-4.6984 1.4187 0.1573
-6.2646 4.5306 0.6601
-5.9831 4.4070 0.6084
-5.9251 4.4887 0.6073
-5.8672 4.5703 0.6062
-5.8679 4.7829 0.6253
-5.2643 5.9393 0.6410
-5.4887 0.4623 0.1583
-5.4671 0.4871 0.1575
-5.4325 0.5359 0.1568
-5.4191 0.5602 0.1570
-5.4110 0.5847 0.1578
-5.3974 0.6093 0.1580
-5.3670 0.6337 0.1560
-5.3496 0.6582 0.1557
-5.3234 0.6821 0.1542
-5.3061 0.7065 0.1539
-5.2815 0.7300 0.1526
-5.2800 0.7562 0.1543
-5.2389 0.7772 0.1508
-5.2265 0.8020 0.1511
-5.2047 0.8253 0.1502
-5.2105 0.8541 0.1530
-5.1751 0.8744 0.1501
-5.1436 0.8948 0.1477
-5.0926 0.9371 0.1446
-5.0822 0.9627 0.1452
-5.0697 0.9878 0.1455
-5.0364 1.0051 0.1427
-5.0138 1.0258 0.1414
-4.9496 1.0572 0.1358
-4.9452 1.0855 0.1373
-4.9338 1.1108 0.1378
-4.9102 1.1294 0.1363
-4.8968 1.1537 0.1364
-4.8655 1.1665 0.1335
-4.8540 1.1919 0.1340
-4.8312 1.2093 0.1324
-4.8060 1.2243 0.1304
-4.8045 1.2578 0.1327
-4.7862 1.2781 0.1320
-4.7655 1.2961 0.1308
-4.7498 1.3183 0.1305
-4.7195 1.3259 0.1273
-4.7160 1.3604 0.1294
-4.7091 1.3923 0.1309
-4.6867 1.4071 0.1293
-6.1709 4.3871 0.5366
-5.9061 4.4738 0.5102
-5.9081 4.6833 0.5261
-5.2958 5.4737 0.5091
-5.1620 5.2597 0.4764
-5.1064 5.3380 0.4754
-5.4402 0.5309 0.1291
-5.4227 0.5555 0.1288
-5.4184 0.5800 0.1298
-5.3877 0.6048 0.1281
-5.3574 0.6292 0.1264
-5.3654 0.6547 0.1288
-5.3302 0.6785 0.1266
-5.3005 0.7020 0.1249
-5.3087 0.7289 0.1274
-5.2779 0.7521 0.1256
-5.2486 0.7750 0.1239
-5.2395 0.8007 0.1245
-5.2141 0.8237 0.1233
-5.1787 0.8442 0.1208
-5.1617 0.8682 0.1205
-5.1446 0.8921 0.1202
-5.1385 0.9192 0.1212
-5.1010 0.9371 0.1183
-5.0873 0.9619 0.1184
-5.0673 0.9846 0.1177
-5.0432 1.0056 0.1165
-5.0038 1.0501 0.1151
-4.9668 1.0638 0.1120
-4.9504 1.0868 0.1117
-4.9285 1.1067 0.1106
-4.9123 1.1295 0.1103
-4.8888 1.1479 0.1090
-4.8700 1.1688 0.1083
-4.8540 1.1914 0.1080
-4.8354 1.2121 0.1073
-4.8194 1.2346 0.1070
-4.8034 1.2571 0.1067
-4.7721 1.2664 0.1040
-4.7604 1.2921 0.1043
-4.7446 1.3143 0.1040
-4.7190 1.3266 0.1021
-4.7012 1.3461 0.1014
-5.9451 4.3774 0.4141
-5.8674 4.4189 0.4085
-5.8487 4.5827 0.4165
-5.8900 4.8914 0.4394
-5.9828 5.3476 0.4767
-5.8255 5.7543 0.4849
-5.4954 5.9442 0.4620
-5.2763 5.4585 0.4098
-5.1673 5.3406 0.3913
-5.1105 5.4206 0.3903
-5.0325 5.4022 0.3810
-5.5025 0.4744 0.1031
-5.4900 0.4993 0.1032
-5.4908 0.5236 0.1044
-5.4165 0.5754 0.1005
-5.3949 0.6004 0.0999
-5.3811 0.6253 0.0999
-5.3596 0.6501 0.0992
-5.3295 0.6743 0.0978
-5.2997 0.6980 0.0964
-5.3066 0.7248 0.0982
-5.2770 0.7482 0.0968
-5.2512 0.7717 0.0957
-5.2187 0.7938 0.0940
-5.2084 0.8193 0.0943
-5.1844 0.8422 0.0934
-5.1783 0.8689 0.0941
-5.1253 0.9127 0.0916
-5.1018 0.9347 0.0907
-5.1048 0.9652 0.0923
-5.0916 0.9910 0.0924
-5.0377 1.0013 0.0884
-5.0082 1.0503 0.0882
-4.8996 1.1211 0.0823
-4.8862 1.1454 0.0823
-4.8745 1.1711 0.0825
-4.8461 1.1855 0.0808
-4.8378 1.2136 0.0814
-4.8192 1.2344 0.0808
-4.8080 1.2611 0.0811
-4.7782 1.2721 0.0791
-4.7512 1.2845 0.0774
-4.7440 1.3147 0.0782
-4.7237 1.3325 0.0773
-5.8892 4.6969 0.3292
-6.0278 5.2360 0.3655
-6.0091 5.4465 0.3736
-5.6782 5.3823 0.3430
-5.5779 5.3631 0.3337
-5.5871 5.6800 0.3490
-5.5038 5.7117 0.3435
-5.3448 5.4635 0.3188
-5.2055 5.2461 0.2972
-5.1255 5.2312 0.2898
-5.0698 5.3096 0.2888
-5.0142 5.3880 0.2877
-5.4966 0.4699 0.0731
-5.4881 0.4944 0.0733
-5.4555 0.5205 0.0721
-5.4614 0.5448 0.0732
-5.4068 0.5710 0.0706
-5.3981 0.5959 0.0708
-5.3450 0.6453 0.0690
-5.3274 0.6700 0.0687
-5.3221 0.6956 0.0691
-5.2839 0.7187 0.0675
-5.2665 0.7432 0.0671
-5.2572 0.7689 0.0673
-5.2443 0.7943 0.0673
-5.2107 0.8163 0.0659
-5.1855 0.8392 0.0650
-5.1870 0.8678 0.0660
-5.1509 0.8878 0.0644
-5.1304 0.9113 0.0638
-5.1069 0.9336 0.0630
-5.0593 0.9771 0.0614
-5.0423 1.0009 0.0611
-4.9724 1.0325 0.0576
-4.9532 1.0541 0.0571
-4.9373 1.1090 0.0578
-4.9153 1.1291 0.0571
-4.8881 1.1457 0.0559
-4.8692 1.1669 0.0553
-4.8556 1.1915 0.0552
-4.8351 1.2113 0.0546
-4.8089 1.2264 0.0534
-4.7840 1.2417 0.0523
-4.7682 1.2639 0.0520
-4.7570 1.2904 0.0521
-4.7342 1.3063 0.0512
-4.7267 1.3368 0.0517
-5.8490 4.4294 0.2187
-5.8103 4.5528 0.2201
-5.7893 4.7217 0.2240
-5.8708 5.1484 0.2424
-5.7851 5.1858 0.2382
-5.4303 5.2273 0.2172
-5.3705 5.3116 0.2160
-5.2562 5.1973 0.2053
-5.1745 5.1838 0.1997
-5.1072 5.2170 0.1965
-5.0621 5.3421 0.1976
-5.0165 5.4715 0.1988
-5.4728 0.4905 0.0427
-5.4270 0.5172 0.0413
-5.4226 0.5414 0.0415
-5.4243 0.5660 0.0419
-5.4294 0.5912 0.0426
-5.4011 0.6167 0.0418
-5.3829 0.6422 0.0414
-5.3525 0.6671 0.0406
-5.3467 0.6933 0.0408
-5.2773 0.7406 0.0386
-5.2515 0.7644 0.0379
-5.2305 0.7886 0.0374
-5.2209 0.8146 0.0375
-5.2067 0.8401 0.0373
-5.1669 0.8601 0.0359
-5.1496 0.8845 0.0356
-5.1248 0.9069 0.0349
-5.1149 0.9333 0.0349
-5.0903 0.9554 0.0343
-5.0629 0.9760 0.0335
-5.0398 0.9977 0.0328
-5.0258 1.0229 0.0327
-4.8691 1.1662 0.0284
-4.8554 1.1909 0.0283
-4.8340 1.2103 0.0277
-4.8202 1.2351 0.0275
-4.7925 1.2488 0.0266
-4.7741 1.2694 0.0261
-4.7580 1.2920 0.0258
-4.7397 1.3124 0.0254
-4.7133 1.3244 0.0245
-5.8266 5.6049 0.1407
-5.6834 6.0998 0.1427
-5.4281 5.5635 0.1233
-5.2123 5.0903 0.1066
-5.1561 5.1694 0.1055
-5.1114 5.2971 0.1057
-5.0437 5.3277 0.1034
-4.9777 5.3595 0.1011
-5.5446 0.4552 0.0143
-5.5058 0.4830 0.0135
-5.4403 0.5359 0.0123
-5.3775 0.5868 0.0110
-5.3913 0.6120 0.0113
-5.3770 0.6376 0.0111
-5.3466 0.6625 0.0105
-5.3238 0.6875 0.0100
-5.3059 0.7127 0.0097
-5.2833 0.7374 0.0092
-5.2655 0.7625 0.0089
-5.2362 0.7859 0.0083
-5.2185 0.8107 0.0080
-5.1975 0.8350 0.0076
-5.1678 0.8571 0.0070
-5.1364 0.8782 0.0064
-5.1266 0.9045 0.0062
-5.1155 0.9308 0.0060
-5.1022 0.9567 0.0058
-5.0746 0.9777 0.0052
-5.0472 0.9984 0.0047
-5.0143 1.0161 0.0040
-4.9805 1.0637 0.0034
-4.9636 1.0876 0.0030
-4.9412 1.1084 0.0026
-4.9270 1.1337 0.0023
-4.9040 1.1536 0.0019
-4.8009 1.2559 -0.0001
-4.7798 1.2748 -0.0005
-4.7551 1.2900 -0.0010
-4.7322 1.3062 -0.0015
-5.6600 6.0816 0.0231
-5.3607 5.3842 0.0161
-5.2064 5.1226 0.0127
-5.1496 5.2026 0.0116
-5.0928 5.2826 0.0105
-5.0360 5.3625 0.0094
-4.9690 5.3925 0.0081
-5.5118 0.5022 -0.0176
-5.4213 0.5818 -0.0186
-5.3942 0.6075 -0.0190
-5.3673 0.6329 -0.0193
-5.3358 0.6577 -0.0196
-5.3264 0.6835 -0.0200
-5.2870 0.7070 -0.0203
-5.2774 0.7328 -0.0206
-5.2642 0.7585 -0.0210
-5.2418 0.7830 -0.0213
-5.2206 0.8076 -0.0217
-5.1840 0.8289 -0.0219
-5.1774 0.8560 -0.0223
-5.1415 0.8764 -0.0226
-5.1241 0.9009 -0.0229
-5.1035 0.9245 -0.0232
-5.0924 0.9509 -0.0236
-5.0588 0.9698 -0.0238
-5.0476 0.9962 -0.0242
-5.0244 1.0182 -0.0245
-5.0072 1.0423 -0.0248
-4.9995 1.0710 -0.0252
-4.9557 1.1149 -0.0258
-4.9385 1.1391 -0.0261
-4.9152 1.1595 -0.0264
-4.8878 1.1768 -0.0266
-4.8573 1.1913 -0.0267
-4.8358 1.2110 -0.0270
-4.8241 1.2381 -0.0274
-4.8003 1.2556 -0.0276
-4.7745 1.2707 -0.0278
-4.7521 1.2880 -0.0280
-4.7360 1.3107 -0.0283
-4.7132 1.3268 -0.0285
-4.7345 1.4317 -0.0300
-5.4836 5.5544 -0.0891
-5.2976 5.2161 -0.0842
-5.2254 5.2503 -0.0846
-5.1544 5.2828 -0.0850
-5.0630 5.2198 -0.0840
-5.0173 5.3480 -0.0858
-4.9134 5.1925 -0.0835
-5.5728 0.4170 -0.0482
-5.5539 0.4436 -0.0485
-5.5496 0.4690 -0.0492
-5.5214 0.4964 -0.0493
-5.5025 0.5231 -0.0497
-5.4393 0.5768 -0.0499
-5.4107 0.6029 -0.0500
-5.3567 0.6543 -0.0503
-5.3155 0.7053 -0.0509
-5.2926 0.7304 -0.0511
-5.2538 0.7534 -0.0509
-5.2132 0.7752 -0.0506
-5.2103 0.8023 -0.0513
-5.1970 0.8281 -0.0518
-5.1749 0.8522 -0.0520
-5.1571 0.8771 -0.0523
-5.1331 0.9004 -0.0525
-5.0979 0.9200 -0.0523
-5.0805 0.9444 -0.0526
-5.0803 0.9748 -0.0535
-5.0360 0.9896 -0.0529
-5.0314 1.0189 -0.0537
-5.0073 1.0405 -0.0538
-4.9844 1.0621 -0.0539
-4.9608 1.0831 -0.0540
-4.9501 1.1105 -0.0546
-4.9267 1.1311 -0.0546
-4.9070 1.1536 -0.0549
-4.8874 1.1759 -0.0551
-4.8704 1.1998 -0.0554
-4.8485 1.2200 -0.0555
-4.8365 1.2475 -0.0560
-4.8171 1.2695 -0.0562
-4.7785 1.2746 -0.0555
-4.7456 1.3209 -0.0561
-4.7289 1.4273 -0.0589
-5.8903 4.4077 -0.1738
-5.4974 5.6559 -0.2019
-5.2782 5.2010 -0.1834
-5.1691 5.0936 -0.1777
-5.0475 4.9085 -0.1695
-5.0238 5.1147 -0.1751
-4.9785 5.2384 -0.1777
-4.8870 5.1345 -0.1725
-5.5553 0.4631 -0.0816
-5.5518 0.4890 -0.0826
-5.5001 0.5180 -0.0816
-5.4671 0.5453 -0.0814
-5.4483 0.5717 -0.0817
-5.4245 0.5982 -0.0819
-5.3861 0.6242 -0.0813
-5.3640 0.6501 -0.0815
-5.3587 0.6768 -0.0825
-5.3177 0.7013 -0.0817
-5.2994 0.7271 -0.0821
-5.2605 0.7503 -0.0814
-5.2425 0.7757 -0.0817
-5.2045 0.7977 -0.0810
-5.2032 0.8258 -0.0822
-5.1658 0.8469 -0.0815
-5.1513 0.8726 -0.0820
-5.1410 0.8995 -0.0828
-5.1159 0.9225 -0.0827
-5.0982 0.9474 -0.0831
-5.0745 0.9703 -0.0830
-5.0500 0.9925 -0.0829
-5.0286 1.0156 -0.0830
-5.0083 1.0389 -0.0832
-4.9816 1.0591 -0.0829
-4.9708 1.0865 -0.0836
-4.9471 1.1076 -0.0835
-4.9184 1.1253 -0.0831
-4.9040 1.1508 -0.0836
-4.8929 1.1787 -0.0843
-4.8732 1.2012 -0.0845
-4.8479 1.2193 -0.0842
-4.8333 1.2451 -0.0847
-4.8163 1.2690 -0.0850
-4.7993 1.2930 -0.0853
-4.7800 1.3149 -0.0854
-4.7512 1.3274 -0.0847
-4.7150 1.3311 -0.0833
-4.7370 1.4386 -0.0891
-5.5693 5.9575 -0.3316
-5.3451 5.4988 -0.3008
-5.2394 5.4234 -0.2926
-5.1653 5.4559 -0.2907
-5.1296 5.6516 -0.2980
-5.0921 5.8551 -0.3056
-5.0782 6.1988 -0.3205
-5.5596 0.4572 -0.1144
-5.5455 0.4841 -0.1151
-5.4965 0.5391 -0.1152
-5.4660 0.5664 -0.1148
-5.4233 0.5934 -0.1136
-5.3996 0.6198 -0.1136
-5.3857 0.6464 -0.1143
-5.3479 0.6718 -0.1133
-5.3211 0.6973 -0.1131
-5.2934 0.7224 -0.1128
-5.2411 0.7717 -0.1123
-5.2230 0.7972 -0.1126
-5.1886 0.8196 -0.1117
-5.1632 0.8431 -0.1114
-5.1351 0.8949 -0.1127
-5.1173 0.9200 -0.1130
-5.1035 0.9464 -0.1137
-5.0816 0.9702 -0.1137
-5.0511 0.9906 -0.1129
-5.0229 1.0112 -0.1123
-5.0187 1.0415 -0.1138
-4.9666 1.0503 -0.1109
-4.9532 1.0762 -0.1116
-4.9243 1.1274 -0.1127
-4.9019 1.1485 -0.1125
-4.8898 1.1759 -0.1134
-4.8701 1.1985 -0.1135
-4.8505 1.2209 -0.1135
-4.8301 1.2426 -0.1135
-4.8131 1.2666 -0.1138
-4.7960 1.2906 -0.1141
-4.7745 1.3105 -0.1139
-4.7414 1.3189 -0.1122
-4.7118 1.3291 -0.1108
-4.7070 1.4508 -0.1179
-5.9531 4.3743 -0.3811
-5.8510 4.3771 -0.3744
-5.4054 6.1378 -0.4524
-5.2552 5.9020 -0.4278
-5.1093 5.6357 -0.4017
-5.0836 5.8983 -0.4160
-5.4877 0.5083 -0.1453
-5.4649 0.5352 -0.1453
-5.4597 0.5616 -0.1469
-5.4357 0.5885 -0.1468
-5.4117 0.6153 -0.1467
-5.3891 0.6419 -0.1467
-5.3607 0.6681 -0.1462
-5.3279 0.6935 -0.1452
-5.3047 0.7193 -0.1451
-5.2508 0.7692 -0.1441
-5.2292 0.7945 -0.1442
-5.2066 0.8194 -0.1440
-5.1617 0.8395 -0.1416
-5.1471 0.8652 -0.1422
-5.1334 0.8914 -0.1430
-5.1043 0.9134 -0.1421
-5.0866 0.9384 -0.1424
-5.0758 0.9657 -0.1436
-5.0550 0.9897 -0.1436
-5.0239 1.0094 -0.1423
-5.0063 1.0341 -0.1426
-4.9980 1.0631 -0.1441
-4.9447 1.1035 -0.1425
-4.9274 1.1280 -0.1428
-4.9074 1.1509 -0.1428
-4.8867 1.1732 -0.1426
-4.8727 1.1998 -0.1434
-4.8473 1.2183 -0.1426
-4.8198 1.2345 -0.1414
-4.8129 1.2667 -0.1432
-4.7881 1.2843 -0.1424
-4.7763 1.3130 -0.1435
-4.7359 1.3146 -0.1400
-4.7033 1.4487 -0.1475
-5.8127 4.1253 -0.4548
-5.9139 4.5309 -0.4953
-5.5231 5.9214 -0.5678
-5.3994 5.8225 -0.5490
-5.2843 5.7305 -0.5315
-5.1509 5.5329 -0.5042
-5.0423 5.4057 -0.4845
-4.9624 5.3868 -0.4759
-5.5108 0.4759 -0.1778
-5.5185 0.5011 -0.1811
-5.4725 0.5297 -0.1785
-5.4348 0.5572 -0.1769
-5.4294 0.5836 -0.1787
-5.4261 0.6106 -0.1809
-5.4068 0.6377 -0.1812
-5.3593 0.6635 -0.1783
-5.3451 0.6904 -0.1792
-5.3215 0.7166 -0.1790
-5.2660 0.7674 -0.1775
-5.2562 0.7950 -0.1790
-5.1348 0.8887 -0.1740
-5.1096 0.9120 -0.1734
-5.0847 0.9351 -0.1727
-5.0738 0.9624 -0.1740
-5.0627 0.9901 -0.1754
-5.0005 1.0296 -0.1721
-4.9894 1.0573 -0.1734
-4.9591 1.0759 -0.1717
-4.9043 1.1480 -0.1723
-4.8869 1.1725 -0.1726
-4.8719 1.1987 -0.1734
-4.8545 1.2233 -0.1737
-4.8323 1.2442 -0.1732
-4.8096 1.2642 -0.1725
-4.7878 1.2845 -0.1719
-4.7707 1.3086 -0.1722
-4.7399 1.3195 -0.1698
-4.7235 1.3855 -0.1741
-4.7130 1.4174 -0.1759
-4.7002 1.4474 -0.1773
-6.3578 3.9364 -0.5984
-6.3207 4.0643 -0.6062
-6.1818 4.0366 -0.5878
-6.0964 4.0847 -0.5827
-5.9701 4.0566 -0.5658
-5.8513 4.0299 -0.5498
-5.8128 4.1476 -0.5565
-5.7925 4.3068 -0.5692
-5.7711 4.4725 -0.5823
-5.8090 4.7848 -0.6159
-5.2332 4.9639 -0.5675
-5.1879 5.0930 -0.5745
-5.1173 5.1271 -0.5697
-5.0707 5.2580 -0.5768
-5.0339 5.4420 -0.5899
-4.9535 5.4230 -0.5790
-5.5019 0.4968 -0.2124
-5.4826 0.5241 -0.2127
-5.4422 0.5519 -0.2103
-5.4231 0.5788 -0.2107
-5.4089 0.6056 -0.2117
-5.3850 0.6324 -0.2114
-5.3707 0.6595 -0.2124
-5.3296 0.6849 -0.2096
-5.3062 0.7110 -0.2093
-5.3089 0.7397 -0.2128
-5.2820 0.7655 -0.2120
-5.2751 0.7940 -0.2142
-5.2141 0.8135 -0.2080
-5.1765 0.8357 -0.2054
-5.1583 0.8613 -0.2057
-5.1330 0.8851 -0.2049
-5.0795 0.9007 -0.1993
-5.0749 0.9293 -0.2018
-5.0322 1.0083 -0.2047
-4.9772 1.0498 -0.2018
-4.9534 1.0715 -0.2010
-4.9509 1.1039 -0.2042
-4.9070 1.1487 -0.2032
-4.8870 1.1718 -0.2030
-4.8662 1.1942 -0.2026
-4.8360 1.2095 -0.2002
-4.8235 1.2373 -0.2015
-4.8093 1.2642 -0.2026
-4.7845 1.2821 -0.2012
-4.7600 1.2996 -0.1997
-4.7408 1.3214 -0.1995
-4.7137 1.3766 -0.2019
-4.7120 1.4183 -0.2063
-4.7075 1.4587 -0.2101
-5.5244 4.1557 -0.6195
-5.3881 4.4620 -0.6347
-5.3062 4.4630 -0.6236
-5.2516 4.5399 -0.6246
-5.2333 4.7379 -0.6440
-5.1425 4.6936 -0.6267
-5.0879 4.7704 -0.6278
-5.0436 4.8891 -0.6348
-5.0085 5.0545 -0.6483
-4.9623 5.1809 -0.6559
-4.8961 5.2128 -0.6504
-5.4812 0.5189 -0.2459
-5.4310 0.5472 -0.2415
-5.4327 0.5736 -0.2451
-5.3894 0.6007 -0.2416
-5.3895 0.6278 -0.2451
-5.3889 0.6556 -0.2485
-5.3695 0.6830 -0.2489
-5.3262 0.7084 -0.2452
-5.3071 0.7353 -0.2455
-5.2670 0.7596 -0.2422
-5.2123 0.8096 -0.2398
-5.2148 0.8399 -0.2441
-5.1638 0.8592 -0.2384
-5.0938 0.9323 -0.2365
-5.0796 0.9591 -0.2376
-5.0480 0.9799 -0.2352
-5.0301 1.0052 -0.2355
-4.9798 1.0167 -0.2289
-4.9651 1.0424 -0.2299
-4.9691 1.0775 -0.2350
-4.9451 1.0994 -0.2339
-4.9223 1.1214 -0.2330
-4.9046 1.1463 -0.2334
-4.8812 1.1674 -0.2323
-4.8662 1.1937 -0.2332
-4.8431 1.2143 -0.2322
-4.8210 1.2353 -0.2313
-4.8036 1.2597 -0.2316
-4.7736 1.2732 -0.2285
-4.7617 1.3019 -0.2303
-4.7445 1.3261 -0.2306
-4.6932 1.4440 -0.2374
-5.5276 3.0315 -0.5730
-5.4598 3.0541 -0.5650
-5.4275 3.1351 -0.5702
-5.3724 3.3228 -0.5852
-5.3067 3.3425 -0.5772
-5.2934 3.4730 -0.5917
-5.2482 3.5367 -0.5926
-5.2330 3.6750 -0.6077
-5.1770 3.7149 -0.6038
-5.1596 3.8597 -0.6195
-5.1032 3.8985 -0.6154
-5.0745 4.0218 -0.6265
-5.0270 4.0888 -0.6274
-4.9710 4.1253 -0.6230
-4.9084 4.1321 -0.6139
-4.8477 4.1380 -0.6049
-4.7957 4.1739 -0.6012
-4.7505 4.2376 -0.6020
-4.7052 4.3013 -0.6029
-5.4653 0.5408 -0.2805
-5.4458 0.5683 -0.2809
-5.4263 0.5958 -0.2813
-5.3879 0.6230 -0.2781
-5.3686 0.6501 -0.2785
-5.3390 0.6766 -0.2769
-5.3109 0.7028 -0.2755
-5.2886 0.7292 -0.2752
-5.2916 0.7586 -0.2800
-5.2539 0.7830 -0.2765
-5.2616 0.8143 -0.2825
-5.2002 0.8334 -0.2739
-5.1732 0.8580 -0.2725
-5.1140 0.9043 -0.2683
-5.0987 0.9309 -0.2693
-5.0204 0.9991 -0.2647
-4.9897 1.0189 -0.2619
-4.9910 1.0524 -0.2670
-4.9889 1.0856 -0.2714
-4.9584 1.1049 -0.2686
-4.9190 1.1184 -0.2633
-4.8897 1.1362 -0.2604
-4.8755 1.1629 -0.2617
-4.8548 1.1853 -0.2611
-4.8460 1.2162 -0.2639
-4.8307 1.2428 -0.2649
-4.8055 1.2615 -0.2630
-4.7776 1.2771 -0.2601
-4.7560 1.2975 -0.2591
-4.7388 1.3217 -0.2594
-5.2374 3.0720 -0.6038
-5.0070 3.4604 -0.6174
-4.9876 3.5853 -0.6318
-4.9378 3.6218 -0.6279
-4.8890 3.6585 -0.6242
-4.8409 3.6944 -0.6205
-4.8113 3.7999 -0.6303
-4.7578 3.8113 -0.6221
-4.7109 3.8455 -0.6184
-4.6646 3.8787 -0.6147
-4.6332 3.9868 -0.6245
-5.4638 0.5356 -0.3142
-5.4442 0.5632 -0.3146
-5.4306 0.5908 -0.3162
-5.4050 0.6184 -0.3154
-5.3669 0.6453 -0.3118
-5.3613 0.6733 -0.3151
-5.3328 0.7001 -0.3135
-5.2901 0.7251 -0.3086
-5.2754 0.7525 -0.3100
-5.2445 0.7777 -0.3076
-5.2372 0.8063 -0.3107
-5.2097 0.8316 -0.3091
-5.1753 0.8550 -0.3057
-5.1758 0.8861 -0.3108
-5.1458 0.9099 -0.3084
-5.1269 0.9365 -0.3088
-5.0850 0.9555 -0.3031
-5.0495 0.9754 -0.2989
-4.9887 1.0494 -0.2982
-4.9395 1.0935 -0.2951
-4.8873 1.1338 -0.2907
-4.8371 1.2094 -0.2924
-4.8142 1.2300 -0.2910
-4.7967 1.2545 -0.2913
-4.7771 1.2772 -0.2909
-4.7669 1.3083 -0.2938
-4.7311 1.3152 -0.2874
-5.2991 2.3712 -0.5765
-5.2562 2.4098 -0.5738
-5.2132 2.4470 -0.5708
-5.1784 2.4959 -0.5715
-5.1437 2.5449 -0.5721
-5.1230 2.6191 -0.5798
-5.1019 2.6956 -0.5878
-5.0663 2.7458 -0.5885
-5.0173 2.7679 -0.5818
-4.9762 2.8042 -0.5791
-4.9293 2.8251 -0.5727
-4.9062 2.9028 -0.5804
-4.8879 2.9970 -0.5919
-4.8522 3.0472 -0.5925
-4.8327 3.1465 -0.6045
-4.8017 3.2152 -0.6092
-4.7452 3.1979 -0.5946
-4.6961 3.1986 -0.5844
-4.6611 3.2479 -0.5851
-4.6509 3.4026 -0.6080
-4.6442 3.5907 -0.6370
-4.5938 3.5832 -0.6253
-4.5312 3.4994 -0.5986
-5.4683 0.5301 -0.3495
-5.4438 0.5581 -0.3488
-5.4134 0.5858 -0.3467
-5.3846 0.6132 -0.3449
-5.3698 0.6407 -0.3464
-5.3594 0.6685 -0.3489
-5.3219 0.6948 -0.3449
-5.3026 0.7220 -0.3453
-5.2691 0.7476 -0.3420
-5.2458 0.7739 -0.3413
-5.2668 0.8073 -0.3522
-5.2170 0.8293 -0.3445
-5.2101 0.8590 -0.3482
-5.1866 0.8853 -0.3475
-5.1317 0.9030 -0.3378
-5.1130 0.9294 -0.3382
-5.1086 0.9604 -0.3427
-5.0793 0.9835 -0.3400
-5.0171 1.0262 -0.3332
-4.9743 1.0749 -0.3319
-4.9165 1.0800 -0.3193
-4.9159 1.1141 -0.3253
-4.8664 1.1555 -0.3212
-4.8544 1.1840 -0.3235
-4.8368 1.2089 -0.3238
-4.8328 1.2443 -0.3293
-4.8067 1.2629 -0.3265
-4.7692 1.2708 -0.3192
-4.7540 1.2972 -0.3204
-4.7345 1.3197 -0.3198
-5.2181 2.2675 -0.6024
-5.1848 2.3144 -0.6030
-5.1441 2.3502 -0.5999
-5.0848 2.4552 -0.6049
-5.0639 2.5245 -0.6124
-5.0181 2.5491 -0.6062
-4.9906 2.6078 -0.6103
-4.9454 2.6300 -0.6037
-4.7848 2.8777 -0.6106
-4.7515 2.9246 -0.6113
-4.7224 2.9855 -0.6154
-4.6889 3.0327 -0.6160
-4.6473 3.0497 -0.6094
-4.6142 3.0964 -0.6100
-4.5548 3.2215 -0.6186
-4.5213 3.2687 -0.6192
-4.4849 3.3001 -0.6163
-5.4824 0.5241 -0.3878
-5.4529 0.5525 -0.3857
-5.4271 0.5806 -0.3846
-5.3980 0.6084 -0.3825
-5.3680 0.6358 -0.3802
-5.3485 0.6633 -0.3806
-5.3200 0.6902 -0.3785
-5.2963 0.7171 -0.3777
-5.2856 0.7453 -0.3805
-5.2438 0.7696 -0.3745
-5.2383 0.7987 -0.3788
-5.2272 0.8275 -0.3816
-5.1956 0.8523 -0.3783
-5.1763 0.8794 -0.3787
-5.1374 0.9013 -0.3729
-5.1184 0.9280 -0.3733
-5.0881 0.9510 -0.3700
-5.0731 0.9787 -0.3715
-5.0543 1.0052 -0.3719
-4.9865 1.0446 -0.3622
-4.9500 1.0960 -0.3629
-4.9192 1.1147 -0.3586
-4.8922 1.1346 -0.3555
-4.8719 1.1582 -0.3549
-4.8628 1.1891 -0.3587
-4.8418 1.2122 -0.3578
-4.8239 1.2374 -0.3581
-4.7852 1.2853 -0.3576
-4.7624 1.3058 -0.3557
-4.7358 1.3220 -0.3520
-5.0542 2.0495 -0.5775
-5.0250 2.0906 -0.5781
-4.9959 2.1316 -0.5786
-4.9619 2.1647 -0.5763
-4.9329 2.2055 -0.5769
-4.9136 2.2639 -0.5834
-4.8844 2.3051 -0.5840
-4.8503 2.3367 -0.5814
-4.8170 2.3687 -0.5791
-4.7965 2.4289 -0.5856
-4.7629 2.4597 -0.5830
-4.7338 2.5008 -0.5836
-4.6975 2.5222 -0.5784
-4.6721 2.5728 -0.5818
-4.6464 2.6238 -0.5853
-4.6207 2.6764 -0.5890
-4.5915 2.7176 -0.5895
-4.5650 2.7697 -0.5930
-4.5416 2.8357 -0.5999
-4.5146 2.8900 -0.6036
-4.4794 2.9068 -0.5978
-4.4523 2.9614 -0.6016
-4.4178 2.9770 -0.5958
-5.3129 0.7142 -0.4170
-5.2878 0.7413 -0.4157
-5.2513 0.7666 -0.4108
-5.2278 0.7931 -0.4098
-5.2208 0.8225 -0.4142
-5.1933 0.8482 -0.4119
-5.1571 0.8715 -0.4066
-5.1507 0.9016 -0.4113
-5.1507 0.9344 -0.4183
-5.1037 0.9532 -0.4090
-5.0809 0.9788 -0.4081
-5.0518 1.0018 -0.4048
-5.0221 1.0239 -0.4011
-5.0035 1.0502 -0.4015
-4.9779 1.0731 -0.3991
-4.9225 1.1152 -0.3925
-4.8986 1.1374 -0.3905
-4.8829 1.1643 -0.3918
-4.8648 1.1899 -0.3921
-4.8413 1.2115 -0.3901
-4.8315 1.2432 -0.3942
-4.8082 1.2646 -0.3922
-4.7794 1.2807 -0.3874
-4.7566 1.3013 -0.3854
-4.7417 1.3289 -0.3871
-4.8958 2.0652 -0.5891
-4.8685 2.1036 -0.5896
-4.8499 2.1577 -0.5959
-4.8262 2.2041 -0.5992
-4.7948 2.2353 -0.5970
-4.7472 2.3301 -0.6039
-4.7227 2.3776 -0.6071
-4.6915 2.4085 -0.6049
-4.6206 2.5656 -0.6186
-4.5922 2.6056 -0.6191
-4.5638 2.6456 -0.6197
-4.5299 2.6640 -0.6140
-4.5071 2.7255 -0.6207
-4.4479 2.7941 -0.6187
-4.4152 2.8107 -0.6130
-4.3873 2.8501 -0.6135
-4.9667 1.1015 -0.4364
-4.9226 1.1506 -0.4342
-4.9103 1.1809 -0.4375
-4.8204 1.2345 -0.4221
-4.8023 1.2600 -0.4225
-4.7764 1.2786 -0.4188
-4.7536 1.2993 -0.4166
-4.7290 1.3177 -0.4133
-4.8984 1.7774 -0.5729
-4.8737 1.8121 -0.5733
-4.8531 1.8525 -0.5764
-4.8283 1.8874 -0.5768
-4.8074 1.9283 -0.5799
-4.7825 1.9633 -0.5804
-4.7577 1.9983 -0.5808
-4.7294 2.0267 -0.5787
-4.7014 2.0547 -0.5766
-4.6800 2.0963 -0.5797
-4.6583 2.1382 -0.5827
-4.6418 2.1939 -0.5906
-4.6167 2.2293 -0.5911
-4.5892 2.2583 -0.5894
-4.5615 2.2859 -0.5872
-4.5365 2.3210 -0.5877
-4.5116 2.3562 -0.5882
-4.4866 2.3913 -0.5886
-4.4595 2.4181 -0.5865
-4.4367 2.4616 -0.5896
-4.4194 2.5315 -0.6005
-4.3922 2.5584 -0.5984
-4.3649 2.5838 -0.5959
-4.3369 2.6022 -0.5915
-4.3104 2.6281 -0.5893
-4.4987 2.2194 -0.5956
-4.4496 2.2788 -0.5941
-4.4279 2.3190 -0.5970
-4.4044 2.3522 -0.5974
-4.3843 2.4015 -0.6031
-4.3620 2.4425 -0.6059
-4.3381 2.4762 -0.6064
-4.3155 2.5176 -0.6092
-4.2942 2.5687 -0.6149
-5.2738 0.7268 -0.5163
-5.2386 0.7828 -0.5187
-5.1087 0.9129 -0.5069
-5.1044 0.9446 -0.5139
-5.0813 0.9708 -0.5126
-5.0511 0.9940 -0.5080
-5.0319 1.0211 -0.5084
-5.0127 1.0481 -0.5087
-4.9893 1.0731 -0.5070
-4.7262 1.3172 -0.4778
-4.7599 1.6042 -0.5677
-4.7507 1.6508 -0.5769
-4.7291 1.6812 -0.5773
-4.7021 1.7031 -0.5735
-4.6833 1.7376 -0.5760
-4.6593 1.7634 -0.5743
-4.6212 1.8331 -0.5794
-4.6042 1.8730 -0.5840
-4.5803 1.8987 -0.5823
-4.5544 1.9192 -0.5785
-4.5350 1.9546 -0.5810
-4.5153 1.9902 -0.5836
-4.4937 2.0207 -0.5840
-4.4720 2.0512 -0.5844
-4.4487 2.0761 -0.5827
-4.4287 2.1122 -0.5852
-4.4055 2.1369 -0.5835
-4.3854 2.1732 -0.5860
-4.3652 2.2097 -0.5886
-4.3421 2.2342 -0.5869
-4.3217 2.2709 -0.5894
-4.2999 2.3015 -0.5898
-4.2771 2.3257 -0.5881
-4.2545 2.3495 -0.5864
-5.4249 0.5269 -0.5541
-5.3900 0.5554 -0.5488
-5.3657 0.5833 -0.5474
-5.3550 0.6111 -0.5513
-5.3451 0.6393 -0.5556
-5.3111 0.6666 -0.5503
-5.2956 0.6947 -0.5524
-5.2579 0.7208 -0.5453
-5.2477 0.7495 -0.5497
-5.2280 0.7772 -0.5500
-5.1993 0.8033 -0.5464
-5.1927 0.8333 -0.5525
-5.1525 0.8566 -0.5436
-5.1408 0.8858 -0.5475
-5.1250 0.9143 -0.5497
-5.1054 0.9419 -0.5501
-5.0786 0.9670 -0.5469
-5.0484 0.9904 -0.5419
-5.0256 1.0161 -0.5405
-5.0021 1.0413 -0.5387
-4.9797 1.0666 -0.5373
-4.9573 1.0917 -0.5358
-4.9416 1.1203 -0.5380
-4.9193 1.1452 -0.5366
-4.9003 1.1719 -0.5369
-4.8913 1.2054 -0.5431
-4.8572 1.2216 -0.5345
-4.8325 1.2437 -0.5313
-4.8023 1.2608 -0.5245
-4.7522 1.3441 -0.5292
-4.7265 1.3628 -0.5246
-4.7225 1.4049 -0.5353
-4.7013 1.4285 -0.5338
-4.6939 1.4690 -0.5427
-4.6871 1.5120 -0.5525
-4.4472 1.9912 -0.5980
-4.2991 2.1854 -0.5967
-4.2805 2.2260 -0.6012
-4.2638 2.2813 -0.6107
-4.2434 2.3163 -0.6129
-5.4164 0.4442 -0.5627
-5.4080 0.4701 -0.5673
-5.3982 0.4966 -0.5714
-5.3590 0.5249 -0.5638
-5.3457 0.5517 -0.5665
-5.3355 0.5786 -0.5706
-5.3162 0.6058 -0.5710
-5.2925 0.6329 -0.5695
-5.2689 0.6598 -0.5680
-5.2539 0.6871 -0.5702
-5.2210 0.7130 -0.5645
-5.2196 0.7419 -0.5728
-5.1962 0.7685 -0.5713
-5.1769 0.7956 -0.5717
-5.1448 0.8203 -0.5659
-5.1297 0.8480 -0.5682
-5.1153 0.8761 -0.5709
-5.0961 0.9031 -0.5713
-5.0769 0.9301 -0.5716
-5.0532 0.9556 -0.5696
-5.0306 0.9813 -0.5681
-5.0193 1.0112 -0.5727
-4.9959 1.0364 -0.5707
-4.9809 1.0653 -0.5734
-4.9486 1.0856 -0.5663
-4.9264 1.1105 -0.5647
-4.9107 1.1390 -0.5670
-4.8887 1.1637 -0.5654
-4.8812 1.1979 -0.5729
-4.8591 1.2227 -0.5714
-4.8372 1.2473 -0.5698
-4.8019 1.2607 -0.5593
-4.7888 1.2917 -0.5634
-4.7701 1.3181 -0.5638
-4.7566 1.3497 -0.5680
-4.7448 1.3837 -0.5735
-4.7214 1.4056 -0.5706
-4.6903 1.4179 -0.5614
-4.6716 1.4441 -0.5618
-4.6530 1.4703 -0.5621
-4.6496 1.5178 -0.5754
-4.6305 1.5446 -0.5757
-4.6115 1.5714 -0.5761
-4.5945 1.6017 -0.5784
-4.5734 1.6251 -0.5768
-4.5586 1.6600 -0.5815
-4.5450 1.6982 -0.5876
-4.5202 1.7141 -0.5822
-4.5011 1.7411 -0.5826
-4.4819 1.7682 -0.5829
-4.4627 1.7952 -0.5833
-4.4465 1.8306 -0.5875
-4.4272 1.8578 -0.5879
-4.4079 1.8850 -0.5882
-4.3872 1.9078 -0.5867
-4.3679 1.9349 -0.5871
-4.3487 1.9620 -0.5874
-4.3294 1.9891 -0.5878
-4.3102 2.0163 -0.5882
-4.2919 2.0483 -0.5904
-4.2716 2.0705 -0.5889
-4.2515 2.0926 -0.5873
-4.2347 2.1351 -0.5935
-5.3002 0.4985 -0.5655
-5.2380 0.5752 -0.5630
-5.1413 0.7287 -0.5705
-5.1089 0.7523 -0.5640
-4.9832 0.9294 -0.5663
-4.9556 0.9511 -0.5612
-4.9404 0.9772 -0.5630
-4.8723 1.0794 -0.5664
-4.8630 1.1096 -0.5722
-4.8186 1.1550 -0.5674
-4.7978 1.1780 -0.5658
-4.7799 1.2031 -0.5661
-4.7600 1.2265 -0.5649
-4.7374 1.2474 -0.5618
-4.7197 1.2722 -0.5621
-4.7001 1.2952 -0.5609
-4.6711 1.3517 -0.5666
-4.6473 1.3696 -0.5619
-4.6273 1.3915 -0.5603
-4.6098 1.4162 -0.5606
-4.6000 1.4519 -0.5680
-4.5881 1.4858 -0.5739
-4.5681 1.5077 -0.5722
-4.5482 1.5295 -0.5705
-4.5303 1.5546 -0.5708
-4.5177 1.5896 -0.5767
-4.5048 1.6251 -0.5827
-4.4293 1.7205 -0.5805
-4.3047 1.9068 -0.5865
-4.2146 2.0400 -0.5902
-5.2609 0.4509 -0.5651
-5.2508 0.4744 -0.5685
-5.2300 0.4990 -0.5673
-5.2209 0.5228 -0.5712
-5.1990 0.5474 -0.5695
-5.1817 0.5717 -0.5698
-5.1611 0.5961 -0.5686
-5.1406 0.6202 -0.5673
-5.1202 0.6443 -0.5661
-5.1168 0.6693 -0.5732
-5.0891 0.6928 -0.5683
-5.0719 0.7170 -0.5686
-5.0578 0.7416 -0.5705
-5.0405 0.7659 -0.5709
-5.0233 0.7901 -0.5712
-5.0089 0.8150 -0.5731
-4.9888 0.8386 -0.5719
-4.9781 0.8647 -0.5759
-4.9544 0.8872 -0.5725
-4.9372 0.9114 -0.5728
-4.9147 0.9338 -0.5700
-4.8976 0.9579 -0.5703
-4.8804 0.9820 -0.5707
-4.8741 1.0112 -0.5778
-4.8381 1.0261 -0.5661
-4.8314 1.0557 -0.5732
-4.8166 1.0812 -0.5751
-4.7971 1.1040 -0.5739
-4.7777 1.1267 -0.5726
-4.7605 1.1508 -0.5729
-4.7498 1.1799 -0.5780
-4.7305 1.2025 -0.5768
-4.7112 1.2250 -0.5755
-4.6894 1.2449 -0.5721
-4.6723 1.2689 -0.5725
-4.6552 1.2929 -0.5728
-4.6406 1.3197 -0.5752
-4.6271 1.3481 -0.5787
-4.6041 1.3650 -0.5738
-4.5893 1.3921 -0.5762
-4.5721 1.4162 -0.5765
-4.5598 1.4475 -0.5816
-4.5410 1.4694 -0.5804
-4.5207 1.4885 -0.5775
-4.5080 1.5205 -0.5826
-4.4893 1.5421 -0.5814
-4.4707 1.5637 -0.5801
-4.4579 1.5972 -0.5857
-4.4351 1.6092 -0.5791
-4.4192 1.6362 -0.5811
-4.4032 1.6634 -0.5830
-4.3837 1.6815 -0.5801
-4.3698 1.7151 -0.5853
-4.3539 1.7438 -0.5877
-4.3352 1.7638 -0.5859
-4.3161 1.7814 -0.5830
-4.2998 1.8090 -0.5850
-4.2818 1.8298 -0.5837
-4.2679 1.8694 -0.5910
-4.2489 1.8854 -0.5876
-4.2302 1.9023 -0.5847
-4.2116 1.9177 -0.5812
-4.1953 1.9469 -0.5837
-4.1787 1.9749 -0.5856
-5.1498 0.5226 -0.5691
-5.0677 0.6381 -0.5707
-5.0450 0.6609 -0.5677
-4.9900 0.7290 -0.5653
-4.9827 0.7532 -0.5706
-4.9634 0.7757 -0.5692
-4.9443 0.7981 -0.5679
-4.9071 0.8427 -0.5658
-4.8492 0.9366 -0.5714
-4.8237 0.9556 -0.5656
-4.8026 0.9760 -0.5626
-4.7842 0.9973 -0.5613
-4.7682 1.0199 -0.5616
-4.7291 1.0934 -0.5691
-4.7064 1.1115 -0.5645
-4.6861 1.1308 -0.5614
-4.6743 1.1567 -0.5651
-4.6644 1.1846 -0.5704
-4.6462 1.2055 -0.5690
-4.6282 1.2263 -0.5677
-4.6083 1.2450 -0.5646
-4.5941 1.2696 -0.5666
-4.5763 1.2900 -0.5652
-4.5586 1.3104 -0.5639
-4.5444 1.3351 -0.5658
-4.5316 1.3622 -0.5695
-4.5140 1.3825 -0.5681
-4.4949 1.4002 -0.5651
-4.4834 1.4302 -0.5704
-4.4711 1.4598 -0.5752
-4.4540 1.4808 -0.5744
-4.4365 1.5009 -0.5730
-4.4251 1.5339 -0.5795
-4.3322 1.6878 -0.5898
-4.2676 1.7881 -0.5944
-4.2509 1.8116 -0.5947
-5.1208 0.4781 -0.5685
-5.1145 0.4993 -0.5733
-5.0953 0.5217 -0.5719
-5.0705 0.5658 -0.5760
-5.0514 0.5881 -0.5745
-5.0357 0.6103 -0.5748
-5.0146 0.6323 -0.5723
-4.9926 0.6540 -0.5691
-4.9915 0.6771 -0.5775
-4.9676 0.6985 -0.5732
-4.9628 0.7220 -0.5798
-4.9362 0.7427 -0.5738
-4.9311 0.7667 -0.5804
-4.9124 0.7884 -0.5790
-4.8892 0.8089 -0.5747
-4.8863 0.8344 -0.5831
-4.8623 0.8544 -0.5781
-4.8395 0.8743 -0.5738
-4.8082 0.9183 -0.5744
-4.7968 0.9421 -0.5776
-4.7573 0.9824 -0.5724
-4.7433 1.0051 -0.5738
-4.7107 1.0481 -0.5733
-4.6988 1.0724 -0.5765
-4.6853 1.0960 -0.5785
-4.6711 1.1192 -0.5800
-4.6485 1.1356 -0.5745
-4.6416 1.1652 -0.5823
-4.6050 1.2045 -0.5783
-4.5925 1.2298 -0.5815
-4.5720 1.2465 -0.5771
-4.5552 1.2670 -0.5762
-4.5425 1.2925 -0.5795
-4.5252 1.3123 -0.5780
-4.4956 1.3586 -0.5803
-4.4800 1.3806 -0.5806
-4.4668 1.4068 -0.5839
-4.4473 1.4220 -0.5795
-4.4331 1.4466 -0.5815
-4.4188 1.4714 -0.5836
-4.4078 1.5037 -0.5904
-4.3919 1.5260 -0.5907
-4.3773 1.5513 -0.5927
-4.3561 1.5597 -0.5848
-4.3422 1.5869 -0.5880
-4.3254 1.6059 -0.5866
-4.3117 1.6345 -0.5904
-4.2968 1.6600 -0.5925
-4.2783 1.6723 -0.5875
-4.2626 1.6944 -0.5878
-4.2476 1.7200 -0.5898
-4.2311 1.7387 -0.5884
-4.2154 1.7608 -0.5887
-4.1993 1.7805 -0.5878
-4.1836 1.8026 -0.5881
-4.1683 1.8272 -0.5896
-5.0642 0.4797 -0.5682
-5.0344 0.5218 -0.5688
-4.9947 0.5641 -0.5639
-4.9821 0.5849 -0.5654
-4.9726 0.6057 -0.5687
-4.9577 0.6267 -0.5690
-4.9481 0.6479 -0.5723
-4.9280 0.6686 -0.5696
-4.9151 0.6898 -0.5710
-4.8913 0.7097 -0.5659
-4.8804 0.7310 -0.5686
-4.8555 0.7738 -0.5722
-4.8284 0.8165 -0.5746
-4.7940 0.8572 -0.5721
-4.7792 0.8782 -0.5724
-4.7584 0.8968 -0.5684
-4.7395 0.9159 -0.5657
-4.7196 0.9620 -0.5735
-4.7063 0.9838 -0.5750
-4.6616 1.0468 -0.5759
-4.6452 1.0668 -0.5749
-4.6338 1.0904 -0.5783
-4.6168 1.1098 -0.5767
-4.6006 1.1297 -0.5758
-4.5677 1.1684 -0.5733
-4.5498 1.1860 -0.5705
-4.5393 1.2115 -0.5751
-4.5244 1.2324 -0.5754
-4.5019 1.2838 -0.5839
-4.4751 1.2881 -0.5707
-4.4542 1.2994 -0.5636
-4.4354 1.3577 -0.5771
-4.4197 1.3769 -0.5761
-4.4103 1.4083 -0.5838
-4.3803 1.4505 -0.5843
-4.3686 1.4792 -0.5895
-4.3196 1.5330 -0.5842
-4.2291 1.6559 -0.5841
-4.2154 1.6828 -0.5875
-4.2011 1.7075 -0.5896
-4.1864 1.7312 -0.5911
-5.0306 0.4607 -0.5697
-5.0186 0.4806 -0.5712
-5.0020 0.5010 -0.5702
-4.9922 0.5208 -0.5730
-4.9734 0.5413 -0.5708
-4.9590 0.5615 -0.5710
-4.9491 0.5815 -0.5738
-4.9347 0.6018 -0.5741
-4.9182 0.6220 -0.5731
-4.9059 0.6423 -0.5747
-4.8936 0.6627 -0.5762
-4.8772 0.6828 -0.5752
-4.8559 0.7022 -0.5711
-4.8397 0.7220 -0.5701
-4.8360 0.7438 -0.5773
-4.8215 0.7641 -0.5776
-4.7765 0.8245 -0.5771
-4.7587 0.8436 -0.5749
-4.7461 0.8644 -0.5764
-4.7275 0.8829 -0.5735
-4.7190 0.9055 -0.5782
-4.6887 0.9452 -0.5775
-4.6690 0.9625 -0.5733
-4.6420 1.0035 -0.5751
-4.6299 1.0250 -0.5773
-4.6198 1.0482 -0.5814
-4.6026 1.0664 -0.5791
-4.5869 1.0855 -0.5781
-4.5680 1.1016 -0.5739
-4.5583 1.1258 -0.5787
-4.5478 1.1497 -0.5828
-4.5334 1.1700 -0.5830
-4.5136 1.1842 -0.5776
-4.4993 1.2043 -0.5778
-4.4851 1.2244 -0.5781
-4.4757 1.2511 -0.5841
-4.4650 1.2768 -0.5889
-4.4469 1.2917 -0.5847
-4.4280 1.3047 -0.5792
-4.4229 1.3406 -0.5917
-4.4037 1.3526 -0.5855
-4.3875 1.3694 -0.5832
-4.3723 1.3878 -0.5822
-4.3605 1.4135 -0.5863
-4.3460 1.4338 -0.5866
-4.3316 1.4541 -0.5869
-4.3172 1.4744 -0.5872
-4.3021 1.4926 -0.5861
-4.2871 1.5108 -0.5851
-4.2740 1.5352 -0.5880
-4.2596 1.5555 -0.5883
-4.2446 1.5736 -0.5872
-4.2297 1.5916 -0.5862
-4.2154 1.6118 -0.5865
-4.2010 1.6320 -0.5868
-4.1867 1.6522 -0.5870
-4.1723 1.6724 -0.5873
-4.1584 1.6951 -0.5889
-4.1436 1.7128 -0.5879
-4.1290 1.7304 -0.5868
-4.9641 0.4828 -0.5671
-4.9391 0.5210 -0.5689
-4.9161 0.5594 -0.5720
-4.9066 0.5786 -0.5749
-4.8822 0.5981 -0.5686
-4.7867 0.7326 -0.5704
-4.7694 0.7510 -0.5681
-4.7503 0.7689 -0.5644
-4.7368 0.7879 -0.5646
-4.7216 0.8064 -0.5635
-4.7064 0.8248 -0.5625
-4.6846 0.8645 -0.5670
-4.6694 0.8828 -0.5659
-4.6575 0.9025 -0.5675
-4.6440 0.9216 -0.5677
-4.6305 0.9406 -0.5680
-4.6125 0.9570 -0.5643
-4.5943 1.0006 -0.5727
-4.5778 1.0177 -0.5703
-4.5670 1.0389 -0.5733
-4.5494 1.0548 -0.5695
-4.5359 1.0738 -0.5698
-4.5224 1.0929 -0.5700
-4.5051 1.1082 -0.5663
-4.4942 1.1296 -0.5692
-4.4795 1.1473 -0.5681
-4.4718 1.1731 -0.5751
-4.4604 1.1951 -0.5780
-4.4467 1.2144 -0.5783
-4.4257 1.2230 -0.5692
-4.4018 1.2657 -0.5737
-4.3854 1.2799 -0.5699
-4.3737 1.3022 -0.5729
-4.3647 1.3300 -0.5798
-4.3544 1.3564 -0.5854
-4.3373 1.3685 -0.5803
-4.3099 1.4070 -0.5809
-4.2030 1.5726 -0.5897
-4.1908 1.6002 -0.5946
-4.1781 1.6270 -0.5990
-4.1645 1.6493 -0.6006
-4.1500 1.6666 -0.5995
-4.1345 1.6751 -0.5937
-4.9452 0.4640 -0.5733
-4.9342 0.4824 -0.5749
-4.9232 0.5009 -0.5765
-4.9054 0.5200 -0.5740
-4.8856 0.5391 -0.5702
-4.8767 0.5574 -0.5732
-4.8614 0.5761 -0.5721
-4.8482 0.5947 -0.5723
-4.8371 0.6133 -0.5739
-4.8280 0.6321 -0.5769
-4.8127 0.6506 -0.5758
-4.8014 0.6695 -0.5774
-4.7842 0.6877 -0.5749
-4.7729 0.7066 -0.5766
-4.7596 0.7253 -0.5768
-4.7482 0.7443 -0.5784
-4.7331 0.7626 -0.5773
-4.7181 0.7808 -0.5762
-4.7031 0.7990 -0.5751
-4.6848 0.8159 -0.5712
-4.6801 0.8373 -0.5783
-4.6650 0.8794 -0.5885
-4.6256 0.9112 -0.5780
-4.6108 0.9290 -0.5768
-4.5727 0.9856 -0.5790
-4.5622 1.0063 -0.5820
-4.4526 1.1518 -0.5798
-4.4273 1.1904 -0.5817
-4.4120 1.2060 -0.5792
-4.3998 1.2261 -0.5808
-4.3866 1.2447 -0.5811
-4.3744 1.2649 -0.5827
-4.3612 1.2835 -0.5830
-4.3506 1.3074 -0.5874
-4.3372 1.3261 -0.5877
-4.3223 1.3412 -0.5851
-4.3106 1.3636 -0.5882
-4.2965 1.3805 -0.5870
-4.2825 1.3972 -0.5859
-4.2679 1.4118 -0.5834
-4.2547 1.4304 -0.5836
-4.2422 1.4511 -0.5853
-4.2295 1.4719 -0.5869
-4.2174 1.4949 -0.5900
-4.2046 1.5159 -0.5916
-4.1912 1.5347 -0.5919
-4.1765 1.5465 -0.5879
-4.1633 1.5652 -0.5882
-4.1500 1.5838 -0.5884
-4.1375 1.6075 -0.5915
-4.1241 1.6262 -0.5917
-4.1105 1.6424 -0.5906
-4.8974 0.4511 -0.5612
-4.8896 0.4680 -0.5643
-4.8874 0.4843 -0.5709
-4.8702 0.5027 -0.5683
-4.8576 0.5205 -0.5685
-4.8395 0.5386 -0.5652
-4.8092 0.5915 -0.5709
-4.7997 0.6094 -0.5733
-4.7910 0.6274 -0.5764
-4.7743 0.6452 -0.5738
-4.7586 0.6628 -0.5719
-4.7489 0.6809 -0.5743
-4.7333 0.6984 -0.5724
-4.7108 0.7346 -0.5750
-4.6981 0.7525 -0.5752
-4.6540 0.8042 -0.5709
-4.6431 0.8225 -0.5726
-4.6106 0.8551 -0.5666
-4.6029 0.8748 -0.5712
-4.5942 0.8944 -0.5750
-4.5732 0.9077 -0.5674
-4.5584 0.9492 -0.5779
-4.5372 0.9614 -0.5695
-4.5330 0.9850 -0.5784
-4.5257 1.0070 -0.5844
-4.5148 1.0267 -0.5868
-4.4917 1.0358 -0.5755
-4.4803 1.0547 -0.5772
-4.4609 1.0658 -0.5695
-4.4496 1.0847 -0.5712
-4.4371 1.1023 -0.5714
-4.4297 1.1260 -0.5781
-4.4198 1.1473 -0.5820
-4.4023 1.1587 -0.5757
-4.3892 1.1757 -0.5752
-4.3674 1.2167 -0.5808
-4.3515 1.2288 -0.5760
-4.3024 1.3023 -0.5791
-4.2790 1.3427 -0.5832
-4.2549 1.3824 -0.5866
-4.2406 1.3953 -0.5832
-4.2282 1.4142 -0.5842
-4.2166 1.4364 -0.5873
-4.1651 1.5059 -0.5868
-4.1518 1.5203 -0.5849
-4.1400 1.5442 -0.5888
-4.1280 1.5671 -0.5919
-4.1156 1.5889 -0.5944
-4.8781 0.4504 -0.5725
-4.8513 0.4853 -0.5715
-4.8413 0.5022 -0.5732
-4.8045 0.5540 -0.5739
-4.7997 0.5711 -0.5793
-4.7831 0.5885 -0.5766
-4.7708 0.6059 -0.5768
-4.7534 0.6230 -0.5734
-4.7432 0.6404 -0.5751
-4.7280 0.6574 -0.5731
-4.7187 0.6749 -0.5755
-4.7074 0.6923 -0.5765
-4.6951 0.7096 -0.5768
-4.6696 0.7440 -0.5765
-4.6574 0.7612 -0.5767
-4.6451 0.7785 -0.5769
-4.6148 0.8110 -0.5722
-4.6108 0.8312 -0.5799
-4.5937 0.8465 -0.5756
-4.5799 0.8630 -0.5744
-4.5593 0.8993 -0.5786
-4.5493 0.9179 -0.5810
-4.5312 0.9316 -0.5753
-4.5137 0.9709 -0.5832
-4.5000 0.9872 -0.5820
-4.4812 0.9992 -0.5747
-4.4754 1.0219 -0.5825
-4.4643 1.0404 -0.5842
-4.4373 1.0726 -0.5817
-4.4245 1.0893 -0.5811
-4.3861 1.1389 -0.5796
-4.3729 1.1546 -0.5783
-4.3607 1.1718 -0.5786
-4.3514 1.1936 -0.5833
-4.3363 1.2061 -0.5790
-4.3264 1.2274 -0.5830
-4.3141 1.2447 -0.5832
-4.3047 1.2681 -0.5887
-4.2908 1.2819 -0.5860
-4.2777 1.2974 -0.5847
-4.2532 1.3320 -0.5852
-4.2399 1.3463 -0.5831
-4.2305 1.3727 -0.5901
-4.2163 1.3838 -0.5859
-4.2052 1.4054 -0.5891
-4.1907 1.4140 -0.5833
-4.1795 1.4357 -0.5866
-4.1693 1.4632 -0.5936
-4.1558 1.4749 -0.5901
-4.1431 1.4899 -0.5888
-4.1311 1.5097 -0.5905
-4.1188 1.5270 -0.5908
-4.1072 1.5507 -0.5948
-4.0938 1.5593 -0.5897
-4.8436 0.4380 -0.5653
-4.8319 0.4545 -0.5656
-4.8180 0.4713 -0.5642
-4.8165 0.4863 -0.5714
-4.8036 0.5030 -0.5708
-4.7897 0.5198 -0.5695
-4.7768 0.5364 -0.5690
-4.7630 0.5530 -0.5677
-4.7597 0.5692 -0.5740
-4.7458 0.5859 -0.5727
-4.7065 0.6355 -0.5703
-4.6957 0.6521 -0.5713
-4.6783 0.6680 -0.5669
-4.6713 0.6850 -0.5710
-4.6522 0.7003 -0.5650
-4.6433 0.7172 -0.5676
-4.6308 0.7334 -0.5670
-4.6201 0.7500 -0.5680
-4.6084 0.7664 -0.5682
-4.5968 0.7828 -0.5685
-4.5777 0.7966 -0.5617
-4.5711 0.8146 -0.5666
-4.5502 0.8483 -0.5693
-4.5378 0.8644 -0.5688
-4.5284 0.8819 -0.5713
-4.5124 0.8958 -0.5669
-4.4994 0.9112 -0.5656
-4.4920 0.9303 -0.5704
-4.4804 0.9467 -0.5707
-4.4707 0.9646 -0.5732
-4.4603 0.9822 -0.5750
-4.4270 1.0335 -0.5780
-4.4117 1.0463 -0.5735
-4.4006 1.0634 -0.5745
-4.3889 1.0799 -0.5748
-4.3767 1.0956 -0.5742
-4.3650 1.1121 -0.5744
-4.3538 1.1293 -0.5754
-4.3416 1.1450 -0.5749
-4.3286 1.1590 -0.5728
-4.3183 1.1778 -0.5753
-4.2987 1.2184 -0.5828
-4.2881 1.2377 -0.5853
-4.2636 1.2693 -0.5842
-4.2400 1.3026 -0.5847
-4.2259 1.3123 -0.5794
-4.2151 1.3319 -0.5820
-4.2027 1.3464 -0.5807
-4.1943 1.3757 -0.5903
-4.1823 1.3925 -0.5905
-4.1697 1.4060 -0.5884
-4.1338 1.4550 -0.5883
-4.1102 1.4897 -0.5895
-3.7374 0.0230 -0.3223
-3.7310 0.0320 -0.3225
-3.7245 0.0410 -0.3226
-3.7181 0.0500 -0.3227
-3.7111 0.0569 -0.3243
-3.7037 0.0630 -0.3267
-3.6966 0.0702 -0.3284
-3.6890 0.0765 -0.3308
-3.6821 0.0848 -0.3317
-3.6758 0.0949 -0.3310
-3.6681 0.1015 -0.3334
-3.6611 0.1099 -0.3343
-3.6473 0.1278 -0.3353
-3.6388 0.1339 -0.3385
-3.6316 0.1426 -0.3394
-3.6253 0.1528 -0.3388
-3.6176 0.1608 -0.3404
-3.6088 0.1674 -0.3436
-3.6020 0.1770 -0.3437
-3.5860 0.1936 -0.3471
-3.5780 0.2020 -0.3487
-3.5705 0.2112 -0.3496
-3.5641 0.2214 -0.3490
-3.5522 0.2268 -0.3552
-3.5470 0.2383 -0.3531
-3.5413 0.2491 -0.3516
-3.5126 0.2737 -0.3605
-3.4975 0.2933 -0.3615
-3.4858 0.3012 -0.3663
-3.4770 0.3107 -0.3680
-3.4403 0.3365 -0.3823
-3.4428 0.3501 -0.3731
-3.4262 0.3704 -0.3750
-3.4086 0.3907 -0.3775
-3.4002 0.4011 -0.3785
-3.3908 0.4114 -0.3801
-3.3786 0.4214 -0.3841
-3.3700 0.4320 -0.3851
-3.3643 0.4428 -0.3836
-3.3537 0.4534 -0.3861
-3.3420 0.4641 -0.3894
-3.3312 0.4749 -0.3918
-3.3203 0.4859 -0.3943
-3.3082 0.4971 -0.3975
-3.3036 0.5079 -0.3954
-3.2914 0.5193 -0.3986
-3.2791 0.5309 -0.4019
-3.2666 0.5426 -0.4051
-3.2620 0.5533 -0.4029
-3.2494 0.5653 -0.4062
-3.2449 0.5759 -0.4040
-3.2357 0.5873 -0.4049
-3.2216 0.5998 -0.4090
-3.7290 0.0325 -0.3103
-3.7223 0.0404 -0.3112
-3.7156 0.0483 -0.3120
-3.7089 0.0563 -0.3129
-3.7015 0.0623 -0.3152
-3.6950 0.0714 -0.3153
-3.6878 0.0786 -0.3169
-3.6820 0.0896 -0.3156
-3.6737 0.0942 -0.3194
-3.6663 0.1016 -0.3210
-3.6589 0.1091 -0.3226
-3.6522 0.1184 -0.3227
-3.6447 0.1261 -0.3243
-3.6376 0.1346 -0.3251
-3.6300 0.1424 -0.3267
-3.6223 0.1503 -0.3283
-3.6155 0.1598 -0.3285
-3.6077 0.1678 -0.3301
-3.6025 0.1794 -0.3280
-3.5947 0.1875 -0.3296
-3.5856 0.1944 -0.3327
-3.5765 0.2015 -0.3357
-3.5702 0.2118 -0.3351
-3.5532 0.2283 -0.3391
-3.5456 0.2375 -0.3400
-3.5386 0.2473 -0.3401
-3.5316 0.2570 -0.3402
-3.5212 0.2645 -0.3441
-3.5134 0.2740 -0.3449
-3.5048 0.2831 -0.3465
-3.4955 0.2919 -0.3489
-3.4868 0.3012 -0.3505
-3.4621 0.3171 -0.3605
-3.4382 0.3348 -0.3689
-3.4399 0.3482 -0.3609
-3.4368 0.3597 -0.3573
-3.4251 0.3689 -0.3611
-3.4186 0.3795 -0.3605
-3.4103 0.3896 -0.3614
-3.3814 0.4201 -0.3670
-3.3633 0.4410 -0.3696
-3.3528 0.4515 -0.3719
-3.3451 0.4621 -0.3721
-3.3355 0.4728 -0.3737
-3.3225 0.4837 -0.3776
-3.3017 0.5058 -0.3816
-3.2927 0.5168 -0.3825
-3.2849 0.5278 -0.3827
-3.2737 0.5392 -0.3851
-3.2624 0.5507 -0.3875
-3.2568 0.5614 -0.3861
-3.2441 0.5734 -0.3893
-3.2350 0.5847 -0.3902
-3.2246 0.5964 -0.3918
-3.7341 0.0275 -0.2961
-3.7201 0.0398 -0.2998
-3.7140 0.0498 -0.2992
-3.7076 0.0588 -0.2994
-3.7006 0.0657 -0.3009
-3.6938 0.0737 -0.3017
-3.6867 0.0808 -0.3033
-3.6795 0.0879 -0.3048
-3.6715 0.0934 -0.3078
-3.6653 0.1035 -0.3072
-3.6580 0.1109 -0.3087
-3.6518 0.1209 -0.3081
-3.6443 0.1285 -0.3097
-3.6368 0.1361 -0.3112
-3.6297 0.1446 -0.3120
-3.6226 0.1531 -0.3129
-3.6154 0.1617 -0.3137
-3.6077 0.1696 -0.3152
-3.6015 0.1797 -0.3147
-3.5932 0.1871 -0.3169
-3.5761 0.2022 -0.3214
-3.5693 0.2118 -0.3216
-3.5612 0.2202 -0.3231
-3.5537 0.2293 -0.3240
-3.5455 0.2378 -0.3255
-3.5386 0.2475 -0.3256
-3.5310 0.2567 -0.3265
-3.5212 0.2646 -0.3295
-3.5164 0.2757 -0.3275
-3.5043 0.2825 -0.3326
-3.4965 0.2920 -0.3334
-3.4792 0.3104 -0.3366
-3.4672 0.3185 -0.3410
-3.4411 0.3348 -0.3513
-3.4396 0.3471 -0.3464
-3.4357 0.3583 -0.3437
-3.4275 0.3683 -0.3446
-3.4184 0.3781 -0.3461
-3.4120 0.3886 -0.3455
-3.4028 0.3985 -0.3471
-3.3907 0.4082 -0.3508
-3.3729 0.4288 -0.3533
-3.3654 0.4393 -0.3534
-3.3508 0.4495 -0.3586
-3.3412 0.4602 -0.3602
-3.3315 0.4709 -0.3618
-3.3227 0.4816 -0.3626
-3.3183 0.4922 -0.3606
-3.3041 0.5034 -0.3651
-3.2819 0.5258 -0.3697
-3.2706 0.5372 -0.3720
-3.2628 0.5482 -0.3722
-3.2549 0.5592 -0.3723
-3.2470 0.5702 -0.3725
-3.2379 0.5815 -0.3733
-3.2264 0.5933 -0.3756
-3.7384 0.0194 -0.2841
-3.7328 0.0315 -0.2822
-3.7258 0.0369 -0.2844
-3.7192 0.0447 -0.2851
-3.7121 0.0503 -0.2873
-3.7054 0.0582 -0.2881
-3.6990 0.0671 -0.2882
-3.6923 0.0750 -0.2890
-3.6788 0.0910 -0.2906
-3.6720 0.0990 -0.2914
-3.6648 0.1063 -0.2929
-3.6579 0.1144 -0.2937
-3.6501 0.1210 -0.2959
-3.6436 0.1301 -0.2960
-3.6357 0.1368 -0.2982
-3.6286 0.1452 -0.2990
-3.6215 0.1537 -0.2998
-3.6139 0.1615 -0.3013
-3.5995 0.1787 -0.3029
-3.5922 0.1873 -0.3037
-3.5838 0.1948 -0.3059
-3.5679 0.2112 -0.3089
-3.5536 0.2297 -0.3098
-3.5455 0.2382 -0.3113
-3.5269 0.2540 -0.3164
-3.5207 0.2642 -0.3158
-3.5130 0.2735 -0.3166
-3.5045 0.2824 -0.3181
-3.4975 0.2922 -0.3183
-3.4905 0.3020 -0.3184
-3.4812 0.3107 -0.3206
-3.4693 0.3186 -0.3249
-3.4393 0.3460 -0.3322
-3.4355 0.3572 -0.3295
-3.4282 0.3673 -0.3297
-3.4201 0.3772 -0.3305
-3.4128 0.3874 -0.3306
-3.4037 0.3972 -0.3321
-3.3926 0.4069 -0.3351
-3.3842 0.4171 -0.3359
-3.3759 0.4274 -0.3367
-3.3625 0.4374 -0.3410
-3.3560 0.4479 -0.3405
-3.3444 0.4583 -0.3434
-3.3358 0.4688 -0.3442
-3.3283 0.4794 -0.3443
-3.3121 0.4904 -0.3501
-3.3055 0.5011 -0.3495
-3.3000 0.5116 -0.3482
-3.2868 0.5229 -0.3519
-3.2790 0.5337 -0.3520
-3.2690 0.5448 -0.3535
-3.2463 0.5678 -0.3580
-3.2324 0.5800 -0.3616
-3.2245 0.5910 -0.3618
-3.2178 0.6018 -0.3612
-3.7378 0.0269 -0.2685
-3.7311 0.0333 -0.2699
-3.7239 0.0375 -0.2726
-3.7174 0.0452 -0.2734
-3.7105 0.0519 -0.2748
-3.6976 0.0685 -0.2757
-3.6909 0.0763 -0.2765
-3.6838 0.0833 -0.2779
-3.6767 0.0903 -0.2793
-3.6699 0.0983 -0.2801
-3.6635 0.1073 -0.2802
-3.6567 0.1154 -0.2810
-3.6485 0.1210 -0.2837
-3.6429 0.1317 -0.2825
-3.6359 0.1400 -0.2833
-3.6285 0.1475 -0.2848
-3.6210 0.1551 -0.2862
-3.6144 0.1642 -0.2863
-3.6073 0.1727 -0.2871
-3.5991 0.1798 -0.2892
-3.5908 0.1870 -0.2913
-3.5763 0.2044 -0.2928
-3.5690 0.2131 -0.2936
-3.5603 0.2208 -0.2957
-3.5536 0.2302 -0.2959
-3.5380 0.2476 -0.2981
-3.5291 0.2556 -0.3002
-3.5132 0.2735 -0.3024
-3.5063 0.2831 -0.3026
-3.4971 0.2916 -0.3047
-3.4886 0.3005 -0.3061
-3.4832 0.3110 -0.3049
-3.4689 0.3178 -0.3110
-3.4421 0.3333 -0.3213
-3.4353 0.3560 -0.3155
-3.4263 0.3657 -0.3170
-3.4191 0.3758 -0.3171
-3.4109 0.3857 -0.3179
-3.4037 0.3958 -0.3181
-3.3945 0.4057 -0.3195
-3.3853 0.4157 -0.3210
-3.3770 0.4258 -0.3218
-3.3676 0.4359 -0.3233
-3.3531 0.4460 -0.3281
-3.3477 0.4564 -0.3269
-3.3371 0.4669 -0.3290
-3.3275 0.4774 -0.3305
-3.3167 0.4881 -0.3326
-3.3091 0.4987 -0.3328
-3.3016 0.5093 -0.3329
-3.2906 0.5202 -0.3351
-3.2818 0.5310 -0.3359
-3.2707 0.5422 -0.3380
-3.2606 0.5533 -0.3395
-3.2505 0.5645 -0.3410
-3.2379 0.5763 -0.3438
-3.2301 0.5872 -0.3440
-3.7292 0.0340 -0.2584
-3.7220 0.0382 -0.2610
-3.7163 0.0490 -0.2599
-3.7095 0.0556 -0.2612
-3.7030 0.0632 -0.2620
-3.6968 0.0720 -0.2621
-3.6821 0.0836 -0.2661
-3.6754 0.0915 -0.2668
-3.6690 0.1004 -0.2670
-3.6623 0.1084 -0.2677
-3.6550 0.1155 -0.2691
-3.6482 0.1236 -0.2698
-3.6418 0.1326 -0.2699
-3.6344 0.1399 -0.2713
-3.6265 0.1466 -0.2733
-3.6205 0.1565 -0.2728
-3.6140 0.1655 -0.2729
-3.6070 0.1739 -0.2737
-3.5982 0.1802 -0.2763
-3.5839 0.1972 -0.2778
-3.5755 0.2045 -0.2799
-3.5670 0.2120 -0.2819
-3.5603 0.2214 -0.2820
-3.5529 0.2302 -0.2828
-3.5449 0.2385 -0.2842
-3.5388 0.2484 -0.2836
-3.5293 0.2559 -0.2863
-3.5196 0.2635 -0.2890
-3.5105 0.2717 -0.2910
-3.5044 0.2818 -0.2905
-3.4967 0.2910 -0.2913
-3.4890 0.3003 -0.2920
-3.4821 0.3100 -0.2921
-3.4719 0.3183 -0.2948
-3.4392 0.3314 -0.3091
-3.4458 0.3460 -0.2990
-3.4387 0.3559 -0.2992
-3.4280 0.3649 -0.3018
-3.4181 0.3743 -0.3039
-3.4109 0.3844 -0.3040
-3.4047 0.3946 -0.3035
-3.3946 0.4042 -0.3056
-3.3864 0.4142 -0.3063
-3.3732 0.4239 -0.3103
-3.3658 0.4341 -0.3104
-3.3585 0.4444 -0.3106
-3.3490 0.4546 -0.3120
-3.3374 0.4650 -0.3147
-3.3246 0.4755 -0.3180
-3.3203 0.4859 -0.3163
-3.3129 0.4963 -0.3164
-3.3054 0.5068 -0.3165
-3.2911 0.5179 -0.3205
-3.2835 0.5285 -0.3207
-3.2724 0.5396 -0.3227
-3.2672 0.5499 -0.3216
-3.2511 0.5619 -0.3262
-3.2447 0.5725 -0.3257
-3.2407 0.5824 -0.3239
-3.7340 0.0284 -0.2457
-3.7274 0.0347 -0.2470
-3.7207 0.0410 -0.2483
-3.7142 0.0485 -0.2490
-3.7081 0.0572 -0.2491
-3.7012 0.0637 -0.2504
-3.6944 0.0704 -0.2518
-3.6874 0.0771 -0.2531
-3.6819 0.0878 -0.2520
-3.6752 0.0956 -0.2527
-3.6686 0.1034 -0.2534
-3.6602 0.1077 -0.2565
-3.6539 0.1165 -0.2567
-3.6475 0.1254 -0.2568
-3.6398 0.1318 -0.2587
-3.6334 0.1408 -0.2588
-3.6259 0.1481 -0.2601
-3.6195 0.1571 -0.2603
-3.6125 0.1654 -0.2610
-3.6039 0.1715 -0.2635
-3.5974 0.1806 -0.2636
-3.5914 0.1904 -0.2632
-3.5832 0.1975 -0.2651
-3.5760 0.2060 -0.2658
-3.5523 0.2302 -0.2698
-3.5450 0.2389 -0.2706
-3.5390 0.2488 -0.2701
-3.5288 0.2556 -0.2732
-3.5199 0.2636 -0.2752
-3.5108 0.2718 -0.2771
-3.5048 0.2818 -0.2766
-3.4995 0.2921 -0.2755
-3.4811 0.3089 -0.2795
-3.4684 0.3162 -0.2839
-3.4496 0.3215 -0.2926
-3.4407 0.3310 -0.2939
-3.4422 0.3439 -0.2879
-3.4368 0.3544 -0.2868
-3.4289 0.3640 -0.2876
-3.4236 0.3743 -0.2865
-3.4109 0.3831 -0.2903
-3.4038 0.3931 -0.2904
-3.3986 0.4034 -0.2893
-3.3885 0.4130 -0.2913
-3.3753 0.4224 -0.2951
-3.3650 0.4324 -0.2971
-3.3598 0.4427 -0.2960
-3.3514 0.4529 -0.2967
-3.3441 0.4631 -0.2968
-3.3336 0.4733 -0.2988
-3.3252 0.4836 -0.2996
-3.3144 0.4941 -0.3015
-3.3014 0.5049 -0.3048
-3.2939 0.5154 -0.3049
-3.2864 0.5259 -0.3050
-3.2754 0.5368 -0.3070
-3.2607 0.5485 -0.3109
-3.2579 0.5583 -0.3085
-3.2417 0.5705 -0.3130
-3.2390 0.5802 -0.3107
-3.2289 0.5914 -0.3120
-3.7260 0.0377 -0.2345
-3.7194 0.0439 -0.2358
-3.7124 0.0492 -0.2376
-3.7063 0.0577 -0.2377
-3.6995 0.0642 -0.2390
-3.6930 0.0719 -0.2397
-3.6864 0.0795 -0.2404
-3.6795 0.0862 -0.2416
-3.6744 0.0978 -0.2400
-3.6682 0.1065 -0.2401
-3.6607 0.1124 -0.2420
-3.6532 0.1185 -0.2438
-3.6460 0.1255 -0.2451
-3.6387 0.1327 -0.2464
-3.6319 0.1408 -0.2471
-3.6255 0.1497 -0.2472
-3.6175 0.1562 -0.2490
-3.6106 0.1645 -0.2497
-3.6047 0.1742 -0.2493
-3.5971 0.1818 -0.2505
-3.5883 0.1880 -0.2530
-3.5836 0.1991 -0.2513
-3.5753 0.2063 -0.2532
-3.5694 0.2160 -0.2527
-3.5603 0.2227 -0.2552
-3.5458 0.2400 -0.2566
-3.5364 0.2471 -0.2590
-3.5290 0.2559 -0.2597
-3.5216 0.2648 -0.2604
-3.5142 0.2737 -0.2611
-3.5015 0.2929 -0.2608
-3.4917 0.3007 -0.2633
-3.4816 0.3086 -0.2657
-3.4715 0.3168 -0.2682
-3.4485 0.3203 -0.2794
-3.4422 0.3307 -0.2790
-3.4368 0.3413 -0.2779
-3.4325 0.3638 -0.2717
-3.4167 0.3829 -0.2732
-3.4068 0.3922 -0.2750
-3.3978 0.4018 -0.2763
-3.3907 0.4117 -0.2765
-3.3786 0.4212 -0.2795
-3.3673 0.4309 -0.2820
-3.3590 0.4409 -0.2827
-3.3518 0.4511 -0.2829
-3.3435 0.4612 -0.2836
-3.3351 0.4714 -0.2843
-3.3256 0.4816 -0.2856
-3.3183 0.4919 -0.2857
-3.3087 0.5023 -0.2871
-3.3014 0.5125 -0.2872
-3.2847 0.5238 -0.2920
-3.2736 0.5348 -0.2940
-3.2685 0.5449 -0.2929
-3.2562 0.5562 -0.2954
-3.2486 0.5668 -0.2955
-3.2386 0.5778 -0.2969
-3.2322 0.5881 -0.2964
-3.7308 0.0323 -0.2222
-3.7245 0.0395 -0.2229
-3.7179 0.0457 -0.2241
-3.7116 0.0531 -0.2247
-3.7052 0.0605 -0.2254
-3.6981 0.0658 -0.2271
-3.6851 0.0809 -0.2285
-3.6728 0.0982 -0.2287
