ply
format ascii 1.0
element vertex 2065
property float x
property float y
property float z
end_header
-3.3994 0.3988 -0.0594
-3.3921 0.4073 -0.0596
-3.3836 0.4156 -0.0600
-3.3786 0.4244 -0.0600
-3.3689 0.4328 -0.0604
-3.3590 0.4413 -0.0608
-3.3528 0.4501 -0.0609
-3.3453 0.4589 -0.0612
-3.3340 0.4677 -0.0617
-3.3264 0.4766 -0.0619
-3.3213 0.4855 -0.0619
-3.3110 0.4946 -0.0624
-3.3020 0.5038 -0.0627
-3.2955 0.5128 -0.0628
-3.2891 0.5218 -0.0629
-3.2786 0.5313 -0.0634
-3.2693 0.5407 -0.0637
-3.7051 0.0591 -0.0407
-3.7002 0.0677 -0.0408
-3.6942 0.0727 -0.0410
-3.6884 0.0790 -0.0412
-3.6831 0.0864 -0.0413
-3.6765 0.0905 -0.0415
-3.6706 0.0969 -0.0417
-3.6653 0.1044 -0.0418
-3.6594 0.1108 -0.0420
-3.6540 0.1184 -0.0421
-3.6481 0.1249 -0.0422
-3.6421 0.1315 -0.0424
-3.6361 0.1381 -0.0425
-3.6295 0.1439 -0.0428
-3.6246 0.1525 -0.0428
-3.6173 0.1574 -0.0431
-3.6112 0.1642 -0.0433
-3.6037 0.1694 -0.0436
-3.5982 0.1772 -0.0437
-3.5926 0.1850 -0.0438
-3.5856 0.1912 -0.0440
-3.5793 0.1983 -0.0442
-3.5730 0.2054 -0.0444
-3.5594 0.2191 -0.0448
-3.5537 0.2271 -0.0449
-3.5457 0.2331 -0.0452
-3.5400 0.2411 -0.0453
-3.5334 0.2485 -0.0455
-3.5268 0.2560 -0.0456
-3.5210 0.2641 -0.0457
-3.5135 0.2711 -0.0460
-3.5060 0.2781 -0.0462
-3.5010 0.2868 -0.0463
-3.4952 0.2949 -0.0464
-3.4885 0.3026 -0.0465
-3.4798 0.3095 -0.0469
-3.4729 0.3174 -0.0471
-3.4422 0.3271 -0.0487
-3.4380 0.3365 -0.0487
-3.4411 0.3479 -0.0481
-3.4350 0.3563 -0.0482
-3.4301 0.3650 -0.0482
-3.4219 0.3729 -0.0485
-3.4159 0.3814 -0.0486
-3.4076 0.3895 -0.0488
-3.3981 0.3974 -0.0492
-3.3897 0.4057 -0.0495
-3.3824 0.4142 -0.0496
-3.3739 0.4226 -0.0499
-3.3689 0.4314 -0.0499
-3.3627 0.4400 -0.0500
-3.3540 0.4486 -0.0503
-3.3478 0.4573 -0.0504
-3.3365 0.4661 -0.0509
-3.3303 0.4749 -0.0510
-3.3227 0.4837 -0.0512
-3.3151 0.4926 -0.0514
-3.3048 0.5017 -0.0517
-3.2971 0.5108 -0.0519
-3.2920 0.5196 -0.0519
-3.2843 0.5286 -0.0521
-3.7031 0.0578 -0.0320
-3.6986 0.0676 -0.0320
-3.6925 0.0726 -0.0322
-3.6872 0.0800 -0.0323
-3.6819 0.0873 -0.0324
-3.6757 0.0925 -0.0325
-3.6695 0.0977 -0.0327
-3.6637 0.1041 -0.0329
-3.6583 0.1116 -0.0329
-3.6524 0.1181 -0.0331
-3.6460 0.1236 -0.0333
-3.6400 0.1301 -0.0334
-3.6351 0.1387 -0.0334
-3.6286 0.1444 -0.0336
-3.6237 0.1529 -0.0337
-3.6158 0.1569 -0.0339
-3.6103 0.1646 -0.0340
-3.6061 0.1740 -0.0341
-3.5987 0.1791 -0.0343
-3.5925 0.1860 -0.0344
-3.5793 0.1992 -0.0347
-3.5737 0.2070 -0.0348
-3.5666 0.2133 -0.0350
-3.5610 0.2212 -0.0351
-3.5547 0.2283 -0.0353
-3.5466 0.2342 -0.0355
-3.5394 0.2409 -0.0357
-3.5336 0.2489 -0.0358
-3.5271 0.2563 -0.0359
-3.5197 0.2632 -0.0361
-3.5148 0.2717 -0.0362
-3.5073 0.2787 -0.0364
-3.4997 0.2858 -0.0366
-3.4939 0.2939 -0.0367
-3.4862 0.3011 -0.0369
-3.4794 0.3089 -0.0370
-3.4697 0.3154 -0.0373
-3.4549 0.3203 -0.0379
-3.4428 0.3266 -0.0383
-3.4387 0.3359 -0.0383
-3.4419 0.3473 -0.0379
-3.4338 0.3551 -0.0382
-3.4288 0.3637 -0.0382
-3.4239 0.3724 -0.0383
-3.4168 0.3805 -0.0384
-3.4064 0.3881 -0.0387
-3.4014 0.3968 -0.0388
-3.3931 0.4049 -0.0390
-3.3893 0.4137 -0.0390
-3.3774 0.4216 -0.0394
-3.3689 0.4300 -0.0396
-3.3615 0.4385 -0.0397
-3.3516 0.4470 -0.0400
-3.3441 0.4557 -0.0402
-3.3379 0.4644 -0.0403
-3.3215 0.4820 -0.0407
-3.3152 0.4908 -0.0408
-3.3076 0.4997 -0.0409
-3.2973 0.5089 -0.0412
-3.7025 0.0614 -0.0232
-3.6973 0.0687 -0.0233
-3.6856 0.0798 -0.0235
-3.6790 0.0837 -0.0236
-3.6746 0.0934 -0.0237
-3.6693 0.1008 -0.0238
-3.6631 0.1060 -0.0239
-3.6572 0.1124 -0.0240
-3.6519 0.1198 -0.0241
-3.6455 0.1252 -0.0243
-3.6401 0.1327 -0.0243
-3.6336 0.1383 -0.0245
-3.6228 0.1534 -0.0247
-3.6168 0.1600 -0.0248
-3.6101 0.1658 -0.0249
-3.6040 0.1726 -0.0250
-3.5972 0.1785 -0.0251
-3.5910 0.1854 -0.0253
-3.5848 0.1923 -0.0254
-3.5786 0.1993 -0.0255
-3.5716 0.2055 -0.0256
-3.5667 0.2141 -0.0257
-3.5604 0.2211 -0.0258
-3.5540 0.2283 -0.0259
-3.5485 0.2361 -0.0260
-3.5412 0.2426 -0.0262
-3.5331 0.2487 -0.0263
-3.5274 0.2566 -0.0264
-3.5218 0.2645 -0.0265
-3.5134 0.2708 -0.0267
-3.5068 0.2783 -0.0268
-3.5011 0.2863 -0.0269
-3.4944 0.2939 -0.0270
-3.4877 0.3015 -0.0271
-3.4800 0.3087 -0.0273
-3.4713 0.3156 -0.0275
-3.4434 0.3261 -0.0280
-3.4416 0.3464 -0.0280
-3.4346 0.3544 -0.0281
-3.4297 0.3630 -0.0282
-3.4227 0.3711 -0.0283
-3.4156 0.3792 -0.0285
-3.4096 0.3876 -0.0286
-3.4014 0.3956 -0.0287
-3.3931 0.4037 -0.0289
-3.3858 0.4120 -0.0290
-3.3762 0.4201 -0.0292
-3.3713 0.4288 -0.0293
-3.3640 0.4372 -0.0294
-3.3554 0.4457 -0.0296
-3.3455 0.4542 -0.0298
-3.3380 0.4629 -0.0299
-3.3331 0.4715 -0.0300
-3.3269 0.4802 -0.0301
-3.3141 0.4892 -0.0303
-3.3105 0.4978 -0.0304
-3.3016 0.5067 -0.0306
-3.2940 0.5156 -0.0307
-3.2863 0.5246 -0.0308
-3.2814 0.5332 -0.0309
-3.7017 0.0638 -0.0146
-3.6961 0.0698 -0.0147
-3.6849 0.0820 -0.0148
-3.6797 0.0893 -0.0149
-3.6735 0.0943 -0.0150
-3.6683 0.1017 -0.0151
-3.6625 0.1079 -0.0152
-3.6562 0.1131 -0.0152
-3.6509 0.1205 -0.0153
-3.6451 0.1269 -0.0154
-3.6386 0.1324 -0.0155
-3.6327 0.1389 -0.0156
-3.6273 0.1464 -0.0157
-3.6213 0.1529 -0.0157
-3.6153 0.1596 -0.0158
-3.6093 0.1662 -0.0159
-3.6032 0.1729 -0.0160
-3.5964 0.1788 -0.0161
-3.5903 0.1856 -0.0161
-3.5834 0.1917 -0.0162
-3.5779 0.1994 -0.0163
-3.5716 0.2064 -0.0164
-3.5653 0.2134 -0.0165
-3.5590 0.2204 -0.0166
-3.5527 0.2275 -0.0167
-3.5463 0.2346 -0.0168
-3.5399 0.2418 -0.0169
-3.5334 0.2491 -0.0169
-3.5287 0.2575 -0.0171
-3.5204 0.2636 -0.0171
-3.5139 0.2710 -0.0172
-3.5007 0.2859 -0.0174
-3.4941 0.2934 -0.0175
-3.4874 0.3009 -0.0176
-3.4778 0.3072 -0.0177
-3.4680 0.3137 -0.0178
-3.4562 0.3195 -0.0178
-3.4472 0.3268 -0.0179
-3.4360 0.3334 -0.0180
-3.4404 0.3452 -0.0182
-3.4376 0.3544 -0.0183
-3.4307 0.3623 -0.0184
-3.4215 0.3698 -0.0185
-3.4167 0.3784 -0.0186
-3.4118 0.3869 -0.0187
-3.4013 0.3944 -0.0188
-3.3930 0.4025 -0.0189
-3.3847 0.4106 -0.0190
-3.3810 0.4193 -0.0191
-3.3702 0.4273 -0.0192
-3.3641 0.4358 -0.0193
-3.3568 0.4443 -0.0194
-3.3494 0.4527 -0.0195
-3.3407 0.4613 -0.0196
-3.3333 0.4699 -0.0197
-3.3258 0.4785 -0.0198
-3.3170 0.4873 -0.0199
-3.3108 0.4960 -0.0201
-3.3060 0.5046 -0.0202
-3.2956 0.5136 -0.0203
-3.2880 0.5225 -0.0204
-3.7005 0.0650 -0.0061
-3.6949 0.0710 -0.0062
-3.6898 0.0782 -0.0063
-3.6846 0.0854 -0.0064
-3.6795 0.0926 -0.0065
-3.6724 0.0953 -0.0064
-3.6667 0.1014 -0.0064
-3.6610 0.1077 -0.0065
-3.6552 0.1139 -0.0065
-3.6494 0.1202 -0.0066
-3.6441 0.1276 -0.0067
-3.6377 0.1330 -0.0067
-3.6330 0.1414 -0.0068
-3.6289 0.1508 -0.0070
-3.6217 0.1553 -0.0070
-3.6145 0.1600 -0.0070
-3.6031 0.1741 -0.0071
-3.5964 0.1800 -0.0071
-3.5903 0.1867 -0.0072
-3.5834 0.1927 -0.0072
-3.5772 0.1996 -0.0073
-3.5710 0.2065 -0.0073
-3.5655 0.2142 -0.0074
-3.5592 0.2211 -0.0075
-3.5529 0.2281 -0.0076
-3.5466 0.2352 -0.0076
-3.5402 0.2423 -0.0077
-3.5329 0.2489 -0.0077
-3.5265 0.2561 -0.0078
-3.5191 0.2628 -0.0078
-3.5144 0.2712 -0.0079
-3.5079 0.2785 -0.0080
-3.5004 0.2854 -0.0080
-3.4947 0.2934 -0.0081
-3.4881 0.3008 -0.0082
-3.4814 0.3083 -0.0083
-3.4579 0.3196 -0.0081
-3.4428 0.3245 -0.0079
-3.4388 0.3336 -0.0081
-3.4397 0.3541 -0.0087
-3.4327 0.3620 -0.0087
-3.4247 0.3696 -0.0088
-3.4200 0.3780 -0.0089
-3.4107 0.3856 -0.0089
-3.3954 0.4016 -0.0090
-3.3871 0.4096 -0.0091
-3.3811 0.4180 -0.0092
-3.3727 0.4261 -0.0092
-3.3642 0.4344 -0.0093
-3.3582 0.4429 -0.0094
-3.3496 0.4512 -0.0094
-3.3422 0.4597 -0.0095
-3.3361 0.4683 -0.0096
-3.3261 0.4769 -0.0097
-3.3186 0.4855 -0.0097
-3.3098 0.4943 -0.0098
-3.3036 0.5030 -0.0099
-3.2960 0.5118 -0.0100
-3.2884 0.5206 -0.0101
-3.2793 0.5297 -0.0101
-3.6993 0.0662 0.0022
-3.6938 0.0721 0.0022
-3.6882 0.0781 0.0022
-3.6826 0.0841 0.0022
-3.6775 0.0913 0.0021
-3.6714 0.0962 0.0021
-3.6657 0.1023 0.0021
-3.6615 0.1118 0.0019
-3.6547 0.1158 0.0020
-3.6490 0.1221 0.0020
-3.6426 0.1273 0.0020
-3.6374 0.1347 0.0019
-3.6309 0.1401 0.0019
-3.6256 0.1475 0.0018
-3.6203 0.1549 0.0018
-3.6144 0.1614 0.0017
-3.6077 0.1670 0.0018
-3.6017 0.1736 0.0017
-3.5957 0.1803 0.0017
-3.5910 0.1886 0.0015
-3.5842 0.1945 0.0016
-3.5780 0.2013 0.0015
-3.5719 0.2081 0.0015
-3.5649 0.2142 0.0015
-3.5579 0.2204 0.0016
-3.5524 0.2281 0.0015
-3.5469 0.2358 0.0014
-3.5389 0.2416 0.0015
-3.5333 0.2493 0.0014
-3.5278 0.2571 0.0013
-3.5205 0.2636 0.0013
-3.5122 0.2698 0.0014
-3.5084 0.2787 0.0012
-3.5010 0.2855 0.0012
-3.4953 0.2934 0.0011
-3.4887 0.3008 0.0010
-3.4811 0.3078 0.0011
-3.4735 0.3149 0.0011
-3.4657 0.3221 0.0011
-3.4466 0.3252 0.0018
-3.4407 0.3335 0.0017
-3.4400 0.3435 0.0013
-3.4396 0.3532 0.0009
-3.4316 0.3607 0.0009
-3.4247 0.3686 0.0008
-3.4200 0.3770 0.0007
-3.4153 0.3854 0.0005
-3.4037 0.3925 0.0007
-3.3990 0.4009 0.0005
-3.3931 0.4091 0.0004
-3.3848 0.4171 0.0004
-3.3752 0.4250 0.0005
-3.3668 0.4332 0.0005
-3.3608 0.4415 0.0004
-3.3523 0.4498 0.0004
-3.3463 0.4582 0.0003
-3.3351 0.4667 0.0004
-3.3316 0.4751 0.0002
-3.3128 0.4924 0.0002
-3.3080 0.5009 0.0001
-3.3005 0.5096 0.0000
-3.2944 0.5181 -0.0001
-3.6977 0.0662 0.0106
-3.6926 0.0733 0.0105
-3.6871 0.0792 0.0105
-3.6820 0.0864 0.0104
-3.6759 0.0912 0.0105
-3.6718 0.1006 0.0102
-3.6642 0.1021 0.0106
-3.6595 0.1105 0.0104
-3.6543 0.1177 0.0103
-3.6475 0.1218 0.0105
-3.6423 0.1291 0.0104
-3.6371 0.1364 0.0103
-3.6318 0.1437 0.0103
-3.6248 0.1481 0.0104
-3.6195 0.1554 0.0103
-3.6136 0.1619 0.0103
-3.6077 0.1684 0.0103
-3.6017 0.1749 0.0103
-3.5971 0.1832 0.0102
-3.5889 0.1873 0.0104
-3.5835 0.1948 0.0103
-3.5713 0.2083 0.0103
-3.5636 0.2136 0.0105
-3.5557 0.2190 0.0107
-3.5519 0.2281 0.0104
-3.5456 0.2351 0.0104
-3.5401 0.2427 0.0103
-3.5338 0.2498 0.0103
-3.5274 0.2569 0.0103
-3.5192 0.2628 0.0104
-3.5137 0.2706 0.0103
-3.5081 0.2784 0.0102
-3.5007 0.2851 0.0103
-3.4932 0.2919 0.0104
-3.4885 0.3003 0.0102
-3.4809 0.3072 0.0103
-3.4763 0.3155 0.0101
-3.4584 0.3186 0.0110
-3.4443 0.3237 0.0116
-3.4373 0.3316 0.0116
-3.4378 0.3420 0.0110
-3.4395 0.3524 0.0103
-3.4337 0.3604 0.0102
-3.4269 0.3682 0.0102
-3.4200 0.3760 0.0101
-3.4130 0.3839 0.0101
-3.4037 0.3914 0.0103
-3.3967 0.3994 0.0102
-3.3908 0.4076 0.0101
-3.3850 0.4158 0.0100
-3.3766 0.4238 0.0101
-3.3682 0.4319 0.0102
-3.3611 0.4401 0.0101
-3.3551 0.4485 0.0100
-3.3453 0.4567 0.0102
-3.3380 0.4651 0.0101
-3.3333 0.4735 0.0100
-3.3259 0.4819 0.0099
-3.3158 0.4906 0.0101
-3.3084 0.4991 0.0100
-3.3009 0.5078 0.0100
-3.2830 0.5255 0.0101
-3.6911 0.0733 0.0188
-3.6860 0.0804 0.0187
-3.6809 0.0875 0.0186
-3.6754 0.0934 0.0187
-3.6703 0.1005 0.0186
-3.6647 0.1065 0.0186
-3.6580 0.1103 0.0189
-3.6534 0.1186 0.0187
-3.6477 0.1247 0.0187
-3.6420 0.1309 0.0187
-3.6356 0.1361 0.0189
-3.6298 0.1423 0.0189
-3.6240 0.1487 0.0189
-3.6181 0.1550 0.0189
-3.6129 0.1624 0.0189
-3.6069 0.1688 0.0189
-3.6010 0.1753 0.0189
-3.5936 0.1801 0.0192
-3.5883 0.1876 0.0191
-3.5829 0.1950 0.0190
-3.5761 0.2009 0.0191
-3.5700 0.2076 0.0191
-3.5654 0.2159 0.0189
-3.5584 0.2220 0.0191
-3.5530 0.2295 0.0190
-3.5460 0.2357 0.0191
-3.5397 0.2427 0.0191
-3.5316 0.2484 0.0194
-3.5261 0.2561 0.0193
-3.5198 0.2632 0.0193
-3.5133 0.2703 0.0193
-3.5069 0.2775 0.0193
-3.5013 0.2852 0.0192
-3.4958 0.2930 0.0191
-3.4893 0.3003 0.0192
-3.4807 0.3067 0.0194
-3.4751 0.3145 0.0193
-3.4382 0.3312 0.0211
-3.4441 0.3432 0.0198
-3.4395 0.3515 0.0196
-3.4337 0.3595 0.0195
-3.4200 0.3750 0.0195
-3.4131 0.3829 0.0195
-3.4050 0.3905 0.0196
-3.3968 0.3983 0.0197
-3.3922 0.4066 0.0195
-3.3839 0.4145 0.0196
-3.3793 0.4228 0.0194
-3.3735 0.4309 0.0193
-3.3626 0.4388 0.0197
-3.3554 0.4470 0.0197
-3.3456 0.4552 0.0199
-3.3383 0.4636 0.0199
-3.3323 0.4719 0.0198
-3.3209 0.4805 0.0201
-3.3176 0.4888 0.0198
-3.3116 0.4972 0.0197
-3.3014 0.5060 0.0199
-3.2953 0.5145 0.0198
-3.2878 0.5231 0.0198
-3.6954 0.0687 0.0268
-3.6904 0.0757 0.0268
-3.6849 0.0815 0.0268
-3.6799 0.0886 0.0267
-3.6744 0.0944 0.0268
-3.6688 0.1003 0.0268
-3.6632 0.1063 0.0269
-3.6576 0.1123 0.0270
-3.6520 0.1184 0.0270
-3.6457 0.1234 0.0272
-3.6400 0.1296 0.0273
-3.6342 0.1358 0.0273
-3.6290 0.1430 0.0272
-3.6245 0.1512 0.0270
-3.6180 0.1566 0.0272
-3.6122 0.1629 0.0273
-3.6063 0.1693 0.0273
-3.6003 0.1757 0.0274
-3.5944 0.1822 0.0274
-3.5891 0.1896 0.0273
-3.5831 0.1961 0.0274
-3.5755 0.2011 0.0277
-3.5702 0.2086 0.0276
-3.5649 0.2161 0.0275
-3.5579 0.2221 0.0277
-3.5518 0.2289 0.0278
-3.5447 0.2350 0.0280
-3.5384 0.2419 0.0280
-3.5321 0.2489 0.0281
-3.5249 0.2553 0.0282
-3.5203 0.2635 0.0280
-3.5149 0.2712 0.0279
-3.5075 0.2777 0.0281
-3.5011 0.2849 0.0281
-3.4946 0.2921 0.0282
-3.4891 0.2998 0.0281
-3.4816 0.3066 0.0283
-3.4740 0.3135 0.0284
-3.4632 0.3193 0.0290
-3.4471 0.3234 0.0303
-3.4402 0.3311 0.0304
-3.4419 0.3417 0.0293
-3.4405 0.3510 0.0286
-3.4349 0.3590 0.0285
-3.4269 0.3664 0.0287
-3.4212 0.3743 0.0286
-3.4120 0.3816 0.0289
-3.4063 0.3897 0.0288
-3.3993 0.3975 0.0289
-3.3936 0.4056 0.0288
-3.3770 0.4213 0.0291
-3.3700 0.4293 0.0291
-3.3641 0.4375 0.0290
-3.3583 0.4457 0.0289
-3.3485 0.4538 0.0292
-3.3353 0.4703 0.0291
-3.3281 0.4787 0.0292
-3.3194 0.4871 0.0293
-3.3106 0.4956 0.0295
-3.3018 0.5042 0.0297
-3.2930 0.5129 0.0298
-3.2869 0.5214 0.0297
-3.6948 0.0712 0.0346
-3.6902 0.0794 0.0344
-3.6844 0.0839 0.0346
-3.6784 0.0885 0.0349
-3.6734 0.0955 0.0348
-3.6679 0.1014 0.0349
-3.6623 0.1073 0.0350
-3.6567 0.1132 0.0351
-3.6511 0.1192 0.0351
-3.6454 0.1253 0.0352
-3.6386 0.1293 0.0357
-3.6334 0.1365 0.0356
-3.6283 0.1437 0.0355
-3.6250 0.1539 0.0349
-3.6173 0.1572 0.0355
-3.6128 0.1653 0.0352
-3.6056 0.1698 0.0356
-3.5990 0.1753 0.0359
-3.5938 0.1826 0.0358
-3.5878 0.1891 0.0359
-3.5818 0.1956 0.0360
-3.5758 0.2022 0.0360
-3.5697 0.2088 0.0361
-3.5652 0.2170 0.0358
-3.5583 0.2229 0.0361
-3.5538 0.2310 0.0358
-3.5451 0.2357 0.0364
-3.5380 0.2419 0.0367
-3.5327 0.2494 0.0366
-3.5255 0.2557 0.0368
-3.5209 0.2639 0.0365
-3.5128 0.2698 0.0369
-3.5073 0.2774 0.0369
-3.4999 0.2840 0.0371
-3.4944 0.2917 0.0370
-3.4879 0.2989 0.0371
-3.4814 0.3061 0.0371
-3.4749 0.3134 0.0372
-3.4448 0.3219 0.0400
-3.4390 0.3300 0.0399
-3.4386 0.3399 0.0390
-3.4416 0.3506 0.0375
-3.4383 0.3590 0.0371
-3.4304 0.3663 0.0373
-3.4225 0.3736 0.0376
-3.4145 0.3811 0.0378
-3.4064 0.3886 0.0380
-3.3995 0.3964 0.0381
-3.3938 0.4045 0.0380
-3.3868 0.4123 0.0380
-3.3773 0.4200 0.0384
-3.3715 0.4281 0.0383
-3.3606 0.4360 0.0389
-3.3560 0.4442 0.0386
-3.3488 0.4524 0.0387
-3.3443 0.4606 0.0384
-3.3371 0.4688 0.0385
-3.3312 0.4770 0.0384
-3.3212 0.4854 0.0387
-3.3125 0.4938 0.0389
-3.3052 0.5022 0.0390
-3.2978 0.5107 0.0391
-3.6887 0.0794 0.0424
-3.6829 0.0839 0.0427
-3.6779 0.0908 0.0426
-3.6724 0.0966 0.0427
-3.6669 0.1024 0.0428
-3.6614 0.1083 0.0429
-3.6558 0.1142 0.0431
-3.6497 0.1190 0.0434
-3.6446 0.1261 0.0433
-3.6395 0.1332 0.0432
-3.6339 0.1393 0.0433
-3.6211 0.1496 0.0439
-3.6166 0.1578 0.0436
-3.6115 0.1649 0.0435
-3.6050 0.1703 0.0439
-3.5998 0.1775 0.0438
-3.5932 0.1830 0.0441
-3.5880 0.1903 0.0440
-3.5813 0.1959 0.0443
-3.5737 0.2008 0.0448
-3.5692 0.2090 0.0445
-3.5648 0.2171 0.0442
-3.5579 0.2230 0.0445
-3.5509 0.2290 0.0448
-3.5456 0.2364 0.0447
-3.5386 0.2425 0.0450
-3.5341 0.2506 0.0447
-3.5261 0.2562 0.0452
-3.5207 0.2637 0.0451
-3.5134 0.2701 0.0454
-3.5080 0.2777 0.0453
-3.5007 0.2842 0.0456
-3.4943 0.2913 0.0457
-3.4888 0.2989 0.0456
-3.4833 0.3066 0.0455
-3.4758 0.3133 0.0458
-3.4421 0.3304 0.0486
-3.4374 0.3388 0.0483
-3.4428 0.3501 0.0463
-3.4361 0.3576 0.0464
-3.4282 0.3649 0.0467
-3.4203 0.3722 0.0469
-3.4170 0.3806 0.0465
-3.4114 0.3884 0.0464
-3.4009 0.3955 0.0470
-3.3952 0.4035 0.0469
-3.3858 0.4110 0.0474
-3.3776 0.4188 0.0477
-3.3731 0.4270 0.0474
-3.3647 0.4349 0.0476
-3.3576 0.4429 0.0477
-3.3518 0.4510 0.0476
-3.3487 0.4591 0.0471
-3.3429 0.4672 0.0470
-3.3331 0.4754 0.0475
-3.3203 0.4838 0.0483
-3.3144 0.4921 0.0482
-3.3057 0.5005 0.0485
-3.2998 0.5088 0.0484
-3.2924 0.5173 0.0485
-3.6868 0.0782 0.0506
-3.6810 0.0826 0.0509
-3.6769 0.0920 0.0504
-3.6720 0.0989 0.0503
-3.6660 0.1035 0.0507
-3.6611 0.1104 0.0506
-3.6555 0.1163 0.0507
-3.6505 0.1233 0.0506
-3.6444 0.1281 0.0510
-3.6376 0.1319 0.0516
-3.6325 0.1390 0.0515
-3.6217 0.1522 0.0516
-3.6166 0.1594 0.0515
-3.6108 0.1655 0.0516
-3.6037 0.1699 0.0522
-3.5992 0.1780 0.0519
-3.5941 0.1852 0.0518
-3.5875 0.1907 0.0521
-3.5808 0.1962 0.0525
-3.5740 0.2019 0.0529
-3.5696 0.2100 0.0525
-3.5635 0.2165 0.0527
-3.5575 0.2231 0.0528
-3.5506 0.2290 0.0532
-3.5453 0.2364 0.0531
-3.5400 0.2438 0.0530
-3.5329 0.2499 0.0533
-3.5267 0.2567 0.0534
-3.5195 0.2630 0.0538
-3.5142 0.2705 0.0537
-3.5078 0.2774 0.0538
-3.5025 0.2849 0.0537
-3.4961 0.2919 0.0539
-3.4897 0.2990 0.0540
-3.4822 0.3056 0.0543
-3.4758 0.3128 0.0545
-3.4650 0.3183 0.0555
-3.4510 0.3229 0.0571
-3.4410 0.3293 0.0579
-3.4374 0.3380 0.0574
-3.4406 0.3487 0.0555
-3.4362 0.3568 0.0552
-3.4295 0.3643 0.0553
-3.4216 0.3715 0.0556
-3.4160 0.3794 0.0555
-3.4080 0.3868 0.0559
-3.4023 0.3947 0.0558
-3.3930 0.4020 0.0563
-3.3873 0.4100 0.0562
-3.3829 0.4181 0.0559
-3.3747 0.4258 0.0562
-3.3664 0.4336 0.0566
-3.3580 0.4415 0.0569
-3.3522 0.4496 0.0568
-3.3465 0.4577 0.0567
-3.3393 0.4657 0.0568
-3.3308 0.4739 0.0571
-3.3250 0.4820 0.0570
-3.3164 0.4903 0.0574
-3.3105 0.4985 0.0573
-3.3032 0.5068 0.0574
-3.6858 0.0794 0.0582
-3.6750 0.0907 0.0586
-3.6701 0.0977 0.0585
-3.6652 0.1046 0.0584
-3.6591 0.1092 0.0588
-3.6486 0.1220 0.0589
-3.6430 0.1279 0.0591
-3.6380 0.1349 0.0590
-3.6324 0.1409 0.0591
-3.6267 0.1469 0.0593
-3.6210 0.1529 0.0595
-3.6146 0.1581 0.0599
-3.6096 0.1652 0.0598
-3.6038 0.1714 0.0600
-3.5987 0.1785 0.0599
-3.5914 0.1830 0.0605
-3.5870 0.1911 0.0602
-3.5803 0.1966 0.0606
-3.5751 0.2038 0.0605
-3.5699 0.2110 0.0604
-3.5631 0.2167 0.0608
-3.5571 0.2233 0.0610
-3.5502 0.2291 0.0614
-3.5441 0.2358 0.0616
-3.5379 0.2425 0.0617
-3.5327 0.2499 0.0616
-3.5265 0.2566 0.0618
-3.5202 0.2634 0.0619
-3.5177 0.2726 0.0611
-3.5067 0.2766 0.0625
-3.5014 0.2841 0.0624
-3.4960 0.2916 0.0623
-3.4812 0.3047 0.0631
-3.4747 0.3119 0.0633
-3.4661 0.3182 0.0639
-3.4466 0.3206 0.0670
-3.4409 0.3286 0.0669
-3.4396 0.3380 0.0658
-3.4352 0.3557 0.0641
-3.4308 0.3637 0.0638
-3.4241 0.3712 0.0640
-3.4186 0.3789 0.0639
-3.4106 0.3862 0.0642
-3.4038 0.3938 0.0644
-3.3970 0.4015 0.0645
-3.3889 0.4090 0.0649
-3.3832 0.4169 0.0648
-3.3763 0.4247 0.0650
-3.3694 0.4325 0.0651
-3.3624 0.4404 0.0652
-3.3456 0.4562 0.0660
-3.3398 0.4643 0.0659
-3.3313 0.4724 0.0663
-3.3255 0.4805 0.0662
-3.3169 0.4887 0.0666
-3.3082 0.4970 0.0669
-3.3009 0.5053 0.0671
-3.2965 0.5134 0.0667
-4.0064 -0.4761 0.0998
-4.0193 -0.4953 0.1053
-4.0331 -0.5126 0.1106
-4.0476 -0.5238 0.1148
-4.0631 -0.5372 0.1196
-4.0796 -0.5551 0.1254
-4.1178 -0.6078 0.1409
-4.1380 -0.6258 0.1473
-4.1604 -0.6504 0.1552
-4.1814 -0.6571 0.1595
-4.2096 -0.6979 0.1713
-4.2378 -0.7278 0.1811
-4.2705 -0.7682 0.1935
-4.3005 -0.7886 0.2017
-4.3852 -0.8933 0.2339
-4.4343 -0.9504 0.2518
-4.5440 -1.0642 0.2893
-4.6205 -1.1585 0.3183
-4.8929 -1.4460 0.4123
-5.0196 -1.5815 0.4564
-5.0931 -1.6034 0.4712
-5.1641 -1.6149 0.4837
-7.5996 -1.8829 0.8888
-7.4353 -1.6834 0.8272
-7.2912 -1.5088 0.7732
-6.9212 -1.2263 0.6659
-6.9140 -1.1487 0.6502
-6.8870 -1.0650 0.6304
-6.7628 -0.9412 0.5889
-6.6032 -0.8102 0.5409
-6.5556 -0.7345 0.5197
-6.6035 -0.7001 0.5201
-6.4169 -0.5790 0.4701
-6.3564 -0.5112 0.4484
-6.3723 -0.4727 0.4435
-6.2820 -0.4018 0.4169
-6.2327 -0.3477 0.3995
-6.1873 -0.2976 0.3834
-6.1542 -0.2534 0.3703
-6.1893 -0.2283 0.3706
-3.9922 -0.4571 0.0802
-4.0039 -0.4865 0.0867
-4.0170 -0.4824 0.0877
-4.0307 -0.5130 0.0948
-4.0450 -0.5136 0.0967
-4.0606 -0.5360 0.1026
-4.0771 -0.5525 0.1076
-4.0964 -0.5912 0.1167
-4.1153 -0.6073 0.1220
-4.1348 -0.6189 0.1265
-4.1558 -0.6348 0.1320
-4.1781 -0.6512 0.1377
-4.2049 -0.6858 0.1472
-4.2331 -0.7168 0.1562
-4.2636 -0.7488 0.1657
-4.2936 -0.7705 0.1733
-4.3387 -0.8405 0.1912
-4.3843 -0.8981 0.2070
-4.4272 -0.9360 0.2191
-4.4922 -1.0282 0.2434
-4.6273 -1.1806 0.2872
-4.6934 -1.2343 0.3051
-4.7877 -1.3390 0.3354
-4.8776 -1.4188 0.3608
-4.9955 -1.5390 0.3968
-7.7700 -2.2072 0.8769
-7.5786 -1.9659 0.8105
-7.6224 -1.8846 0.8025
-6.9562 -1.2346 0.6038
-6.9037 -1.1335 0.5797
-6.8148 -1.0207 0.5487
-6.6797 -0.8940 0.5093
-6.6275 -0.8115 0.4884
-6.6444 -0.7616 0.4821
-6.5647 -0.6759 0.4570
-6.5213 -0.6087 0.4398
-6.3406 -0.4540 0.3896
-6.3212 -0.4059 0.3789
-6.1810 -0.2882 0.3403
-6.1385 -0.2419 0.3268
-6.1551 -0.2124 0.3240
-3.9898 -0.4594 0.0660
-4.0016 -0.4817 0.0708
-4.0147 -0.4857 0.0730
-4.0283 -0.5027 0.0771
-4.0431 -0.5322 0.0834
-4.0582 -0.5335 0.0853
-4.0757 -0.5678 0.0926
-4.0924 -0.5719 0.0952
-4.1111 -0.5893 0.1000
-4.1326 -0.6207 0.1073
-4.1543 -0.6413 0.1130
-4.1755 -0.6502 0.1169
-4.2038 -0.6928 0.1266
-4.2283 -0.7047 0.1313
-4.2632 -0.7573 0.1434
-4.2976 -0.7956 0.1533
-4.3310 -0.8211 0.1611
-4.4228 -0.9293 0.1883
-4.4806 -1.0017 0.2061
-4.6369 -1.2095 0.2560
-4.6874 -1.2255 0.2644
-4.7776 -1.3215 0.2896
-5.0045 -1.5590 0.3523
-5.0717 -1.5697 0.3619
-7.6084 -1.8638 0.7065
-7.1284 -1.3968 0.5791
-6.9155 -1.1292 0.5134
-6.8670 -1.0354 0.4935
-6.8016 -0.9391 0.4712
-6.6879 -0.8279 0.4409
-6.6023 -0.7353 0.4168
-6.5565 -0.6637 0.4006
-6.4985 -0.5916 0.3828
-6.3220 -0.4397 0.3390
-6.3025 -0.3921 0.3295
-6.2410 -0.3344 0.3135
-6.1950 -0.2844 0.3005
-6.1421 -0.2354 0.2868
-6.1575 -0.2055 0.2841
-3.9875 -0.4589 0.0514
-3.9993 -0.4783 0.0552
-4.0124 -0.4796 0.0567
-4.0259 -0.5085 0.0619
-4.0403 -0.5141 0.0642
-4.0722 -0.5511 0.0724
-4.0897 -0.5678 0.0764
-4.1096 -0.5987 0.0825
-4.1522 -0.6440 0.0930
-4.1746 -0.6598 0.0974
-4.2001 -0.6855 0.1034
-4.2951 -0.7955 0.1279
-4.3325 -0.8352 0.1370
-4.3748 -0.8820 0.1476
-4.4743 -0.9902 0.1723
-4.5269 -1.0363 0.1838
-4.6727 -1.1964 0.2202
-4.7781 -1.3269 0.2484
-5.0482 -1.6453 0.3186
-5.1006 -1.6237 0.3212
-7.7032 -2.0204 0.6453
-7.6691 -1.8879 0.6242
-7.6008 -1.7427 0.5980
-7.2549 -1.4548 0.5239
-6.8773 -1.0300 0.4284
-6.6104 -0.7293 0.3609
-6.4451 -0.6124 0.3282
-6.4201 -0.5546 0.3180
-6.3850 -0.4960 0.3066
-6.3393 -0.4370 0.2941
-6.2852 -0.3787 0.2807
-6.2451 -0.3277 0.2698
-6.2197 -0.2833 0.2613
-6.1360 -0.2263 0.2450
-6.1236 -0.1900 0.2390
-3.9972 -0.4695 0.0389
-4.0101 -0.4722 0.0404
-4.0382 -0.5274 0.0491
-4.0532 -0.5298 0.0507
-4.0700 -0.5547 0.0551
-4.0866 -0.5587 0.0570
-4.1053 -0.5796 0.0610
-4.1255 -0.6021 0.0654
-4.1488 -0.6369 0.0714
-4.1700 -0.6456 0.0743
-4.1955 -0.6735 0.0797
-4.2233 -0.7038 0.0856
-4.2559 -0.7465 0.0934
-4.2968 -0.8122 0.1045
-4.3285 -0.8292 0.1092
-4.3695 -0.8724 0.1178
-4.4162 -0.9235 0.1277
-4.4757 -1.0011 0.1418
-4.6080 -1.1493 0.1704
-4.6669 -1.1877 0.1800
-4.7790 -1.3332 0.2065
-5.0226 -1.5998 0.2585
-5.0989 -1.6231 0.2680
-7.6492 -1.9739 0.5378
-7.5443 -1.8006 0.5089
-7.7371 -1.8077 0.5271
-7.2428 -1.4368 0.4408
-6.9109 -1.0353 0.3657
-6.6185 -0.7231 0.3042
-6.5703 -0.6506 0.2918
-6.4827 -0.5681 0.2746
-6.3776 -0.4850 0.2557
-6.2964 -0.4150 0.2406
-6.2783 -0.3685 0.2337
-6.2173 -0.3119 0.2218
-6.1824 -0.2656 0.2135
-6.1491 -0.2220 0.2056
-6.1552 -0.1899 0.2025
-3.9831 -0.4510 0.0211
-3.9949 -0.4688 0.0236
-4.0076 -0.4794 0.0255
-4.0211 -0.4894 0.0275
-4.0352 -0.5016 0.0297
-4.0505 -0.5221 0.0328
-4.0668 -0.5406 0.0357
-4.0838 -0.5547 0.0383
-4.1029 -0.5803 0.0421
-4.1234 -0.6050 0.0460
-4.1457 -0.6324 0.0502
-4.1679 -0.6480 0.0533
-4.1942 -0.6803 0.0583
-4.2861 -0.7785 0.0744
-4.3244 -0.8232 0.0814
-4.3608 -0.8509 0.0868
-4.4066 -0.9008 0.0949
-4.4661 -0.9801 0.1067
-4.6024 -1.1410 0.1320
-4.6723 -1.2051 0.1432
-4.7762 -1.3314 0.1628
-4.9133 -1.5061 0.1894
-4.9978 -1.5557 0.2004
-5.0783 -1.5886 0.2095
-7.7512 -2.1442 0.4643
-7.7969 -2.0536 0.4595
-7.7587 -1.9157 0.4438
-7.4025 -1.6054 0.3880
-7.2600 -1.4345 0.3614
-7.1605 -1.2972 0.3411
-6.9751 -1.1270 0.3113
-6.9007 -1.0202 0.2957
-6.6772 -0.7367 0.2525
-6.5162 -0.6213 0.2296
-6.4466 -0.5465 0.2174
-6.3964 -0.4827 0.2077
-6.3365 -0.4194 0.1973
-6.3169 -0.3717 0.1914
-6.2437 -0.3113 0.1802
-6.1760 -0.2561 0.1700
-6.1239 -0.2082 0.1616
-3.9809 -0.4491 0.0061
-3.9925 -0.4681 0.0082
-4.0055 -0.4666 0.0089
-4.0187 -0.4950 0.0117
-4.0329 -0.5057 0.0134
-4.0481 -0.5222 0.0155
-4.0638 -0.5304 0.0171
-4.0814 -0.5543 0.0199
-4.1205 -0.6006 0.0257
-4.1667 -0.6562 0.0325
-4.1927 -0.6857 0.0363
-4.2200 -0.7118 0.0398
-4.2474 -0.7300 0.0428
-4.3629 -0.8662 0.0598
-4.4035 -0.8984 0.0646
-4.5232 -1.0446 0.0826
-4.6501 -1.1583 0.0986
-4.7520 -1.2834 0.1140
-5.0069 -1.5765 0.1509
-5.0703 -1.5767 0.1548
-5.1634 -1.6234 0.1639
-7.5597 -1.6816 0.3159
-7.4323 -1.5148 0.2960
-7.2884 -1.3507 0.2753
-7.1885 -1.2190 0.2596
-7.0026 -1.0563 0.2364
-6.7634 -0.8823 0.2090
-6.6693 -0.7816 0.1960
-6.5529 -0.6786 0.1813
-6.4780 -0.5981 0.1709
-6.4670 -0.5447 0.1663
-6.4288 -0.4846 0.1597
-6.3801 -0.4244 0.1523
-6.2750 -0.3511 0.1405
-6.2042 -0.2924 0.1319
-6.1590 -0.2440 0.1256
-6.1083 -0.1969 0.1191
-6.0698 -0.1554 0.1137
-3.9903 -0.4621 -0.0076
-4.0032 -0.4645 -0.0069
-4.0162 -0.4914 -0.0049
-4.0304 -0.5020 -0.0036
-4.0455 -0.5196 -0.0020
-4.0624 -0.5516 0.0004
-4.0791 -0.5565 0.0015
-4.0980 -0.5804 0.0036
-4.1180 -0.6011 0.0056
-4.1382 -0.6125 0.0072
-4.1601 -0.6291 0.0091
-4.1876 -0.6703 0.0125
-4.2125 -0.6861 0.0145
-4.2466 -0.7381 0.0188
-4.2797 -0.7726 0.0221
-4.3524 -0.8384 0.0290
-4.4027 -0.9034 0.0347
-4.5180 -1.0369 0.0471
-5.0528 -1.6676 0.1050
-5.0943 -1.6223 0.1046
-5.1481 -1.5992 0.1059
-7.6055 -1.9088 0.2376
-7.5028 -1.7389 0.2239
-7.5105 -1.6414 0.2192
-7.4516 -1.5127 0.2098
-7.3665 -1.3781 0.1988
-6.6255 -0.6973 0.1286
-6.4855 -0.5917 0.1165
-6.4310 -0.5233 0.1104
-6.3815 -0.4604 0.1048
-6.3348 -0.4019 0.0996
-6.2578 -0.3379 0.0926
-6.2186 -0.2883 0.0882
-6.1434 -0.2322 0.0818
-6.0927 -0.1857 0.0770
-3.9769 -0.4358 -0.0243
-3.9881 -0.4574 -0.0232
-4.0004 -0.4768 -0.0222
-4.0138 -0.4917 -0.0213
-4.0279 -0.4906 -0.0209
-4.0429 -0.5120 -0.0198
-4.0587 -0.5251 -0.0188
-4.0758 -0.5438 -0.0177
-4.1372 -0.6245 -0.0132
-4.1580 -0.6314 -0.0123
-4.1835 -0.6608 -0.0106
-4.2082 -0.6765 -0.0093
-4.2418 -0.7270 -0.0066
-4.2767 -0.7702 -0.0042
-4.3131 -0.8084 -0.0018
-4.3586 -0.8684 0.0015
-4.3981 -0.8966 0.0037
-4.4594 -0.9814 0.0083
-4.5282 -1.0710 0.0133
-4.6898 -1.2613 0.0245
-4.7565 -1.3022 0.0279
-4.8772 -1.4447 0.0362
-5.0387 -1.6440 0.0477
-5.1055 -1.6450 0.0499
-5.1900 -1.6719 0.0534
-5.3974 -1.8872 0.0668
-7.6691 -1.9352 0.1415
-7.6749 -1.8269 0.1383
-7.5688 -1.6611 0.1297
-6.9204 -1.0686 0.0903
-6.9131 -0.9940 0.0878
-6.8434 -0.8961 0.0825
-6.6507 -0.6972 0.0700
-6.5848 -0.6184 0.0655
-6.4366 -0.5163 0.0575
-6.3479 -0.4409 0.0523
-6.2796 -0.3767 0.0481
-6.3088 -0.3442 0.0480
-6.2238 -0.2816 0.0433
-6.1464 -0.2252 0.0391
-6.0691 -0.1726 0.0349
-3.9623 -0.4403 -0.0394
-3.9734 -0.4527 -0.0390
-3.9858 -0.4540 -0.0388
-3.9982 -0.4694 -0.0384
-4.0115 -0.4804 -0.0381
-4.0255 -0.5061 -0.0376
-4.0404 -0.5107 -0.0373
-4.0563 -0.5262 -0.0369
-4.0913 -0.5598 -0.0359
-4.1118 -0.5898 -0.0352
-4.1334 -0.6140 -0.0346
-4.1818 -0.6661 -0.0333
-4.2067 -0.6815 -0.0327
-4.2400 -0.7305 -0.0316
-4.2787 -0.7896 -0.0303
-4.3082 -0.7991 -0.0297
-4.3534 -0.8587 -0.0283
-4.3914 -0.8826 -0.0274
-4.5269 -1.0742 -0.0231
-4.5847 -1.1196 -0.0217
-4.6514 -1.1766 -0.0199
-4.7500 -1.2925 -0.0171
-4.8436 -1.3799 -0.0145
-4.9951 -1.5639 -0.0100
-5.0905 -1.6207 -0.0078
-5.1385 -1.5863 -0.0074
-5.3589 -1.8269 -0.0011
-7.6543 -1.9131 0.0393
-7.4491 -1.5823 0.0323
-6.8216 -1.0113 0.0157
-6.8599 -0.9596 0.0158
-6.8335 -0.8814 0.0145
-6.7509 -0.7847 0.0121
-6.6768 -0.6973 0.0100
-6.5287 -0.5888 0.0063
-6.4154 -0.5001 0.0034
-6.3529 -0.4338 0.0017
-6.2373 -0.3557 -0.0011
-6.1215 -0.2113 -0.0046
-6.0726 -0.1659 -0.0059
-6.0619 -0.1314 -0.0064
-3.9720 -0.4374 -0.0543
-3.9832 -0.4585 -0.0545
-3.9958 -0.4685 -0.0546
-4.0089 -0.4883 -0.0547
-4.0230 -0.4934 -0.0548
-4.0379 -0.5094 -0.0549
-4.0539 -0.5284 -0.0551
-4.0707 -0.5417 -0.0552
-4.0894 -0.5676 -0.0555
-4.1315 -0.6199 -0.0559
-4.1531 -0.6324 -0.0560
-4.1757 -0.6441 -0.0561
-4.2368 -0.7272 -0.0569
-4.2674 -0.7522 -0.0571
-4.3050 -0.7963 -0.0575
-4.3544 -0.8713 -0.0583
-4.3943 -0.8998 -0.0585
-4.5838 -1.1231 -0.0606
-4.6681 -1.2212 -0.0615
-4.7469 -1.2904 -0.0621
-4.8196 -1.3347 -0.0624
-5.0160 -1.6076 -0.0650
-5.0631 -1.5738 -0.0646
-5.1170 -1.5516 -0.0642
-5.2149 -1.5982 -0.0645
-7.6001 -1.8671 -0.0628
-7.4614 -1.6772 -0.0610
-7.2751 -1.4744 -0.0592
-6.8602 -1.0917 -0.0558
-6.7095 -0.9485 -0.0545
-6.6888 -0.8733 -0.0537
-6.6868 -0.7490 -0.0524
-6.6679 -0.6839 -0.0517
-6.4754 -0.5605 -0.0507
-6.4209 -0.4930 -0.0501
-6.3208 -0.4150 -0.0494
-6.2768 -0.3590 -0.0489
-6.2373 -0.3074 -0.0484
-6.2105 -0.2619 -0.0480
-3.9808 -0.4577 -0.0703
-3.9936 -0.4599 -0.0705
-4.0205 -0.5036 -0.0723
-4.0354 -0.5131 -0.0728
-4.0680 -0.5389 -0.0741
-4.0872 -0.5717 -0.0754
-4.1067 -0.5893 -0.0763
-4.1275 -0.6071 -0.0771
-4.1502 -0.6299 -0.0782
-4.1762 -0.6629 -0.0796
-4.2073 -0.7125 -0.0816
-4.2315 -0.7140 -0.0820
-4.2686 -0.7681 -0.0843
-4.3018 -0.7935 -0.0855
-4.3468 -0.8532 -0.0881
-4.3897 -0.8930 -0.0899
-4.4494 -0.9737 -0.0934
-5.0140 -1.6074 -0.1216
-5.0674 -1.5842 -0.1215
-5.1150 -1.5500 -0.1211
-5.2368 -1.6341 -0.1254
-7.5100 -1.7997 -0.1615
-7.4475 -1.6566 -0.1560
-7.0147 -1.1566 -0.1339
-6.7808 -0.9714 -0.1248
-6.6792 -0.8590 -0.1197
-6.5888 -0.7587 -0.1153
-6.5401 -0.6814 -0.1121
-6.4792 -0.6041 -0.1088
-6.4530 -0.5434 -0.1064
-6.4131 -0.4813 -0.1039
-6.3638 -0.4196 -0.1012
-6.3309 -0.3663 -0.0990
-6.2877 -0.3129 -0.0967
-3.9676 -0.4308 -0.0845
-3.9790 -0.4452 -0.0856
-3.9910 -0.4628 -0.0869
-4.0328 -0.5067 -0.0905
-4.0489 -0.5327 -0.0924
-4.0652 -0.5348 -0.0930
-4.0839 -0.5627 -0.0950
-4.1044 -0.5919 -0.0972
-4.1245 -0.6037 -0.0984
-4.1464 -0.6205 -0.1000
-4.2017 -0.6960 -0.1057
-4.2267 -0.7031 -0.1068
-4.2654 -0.7655 -0.1113
-4.2961 -0.7810 -0.1131
-4.3477 -0.8655 -0.1192
-4.3901 -0.9026 -0.1224
-4.5701 -1.1003 -0.1384
-4.6800 -1.2605 -0.1503
-4.7410 -1.2869 -0.1535
-4.9997 -1.5833 -0.1772
-5.0785 -1.6069 -0.1807
-5.1343 -1.5844 -0.1811
-7.4585 -1.7560 -0.2582
-6.5313 -0.6684 -0.1721
-6.4859 -0.5971 -0.1669
-6.4744 -0.5415 -0.1636
-6.4197 -0.4744 -0.1583
-6.3832 -0.4167 -0.1541
-6.3361 -0.3590 -0.1496
-6.2566 -0.2959 -0.1439
-3.9656 -0.4249 -0.0994
-3.9765 -0.4457 -0.1015
-3.9890 -0.4516 -0.1025
-4.0016 -0.4762 -0.1049
-4.0155 -0.4873 -0.1064
-4.0461 -0.5238 -0.1106
-4.0627 -0.5355 -0.1122
-4.0809 -0.5560 -0.1146
-4.1224 -0.6083 -0.1205
-4.1710 -0.6629 -0.1269
-4.1940 -0.6676 -0.1282
-4.2268 -0.7162 -0.1334
-4.3830 -0.8876 -0.1536
-4.5644 -1.0919 -0.1774
-4.6644 -1.2290 -0.1923
-4.7483 -1.3080 -0.2022
-4.8633 -1.4369 -0.2172
-4.9798 -1.5485 -0.2310
-5.0637 -1.5828 -0.2374
-5.1186 -1.5596 -0.2381
-5.2273 -1.6208 -0.2476
-7.4906 -1.6555 -0.3522
-7.2368 -1.4174 -0.3226
-6.9434 -1.0995 -0.2851
-6.8018 -0.9599 -0.2680
-6.7975 -0.8896 -0.2625
-6.8149 -0.8311 -0.2588
-6.6230 -0.6940 -0.2396
-6.5247 -0.6017 -0.2282
-6.5260 -0.5498 -0.2243
-6.4393 -0.4715 -0.2144
-6.3365 -0.3936 -0.2038
-6.2915 -0.3376 -0.1975
-6.2382 -0.2826 -0.1909
-6.1906 -0.2322 -0.1849
-6.0466 -0.0981 -0.1681
-3.9626 -0.4321 -0.1155
-3.9742 -0.4423 -0.1172
-3.9861 -0.4609 -0.1197
-3.9992 -0.4713 -0.1216
-4.0130 -0.4836 -0.1236
-4.0277 -0.5015 -0.1263
-4.0435 -0.5234 -0.1294
-4.0602 -0.5374 -0.1318
-4.0784 -0.5577 -0.1349
-4.0988 -0.5887 -0.1393
-4.1177 -0.5887 -0.1404
-4.1654 -0.6434 -0.1487
-4.1925 -0.6733 -0.1534
-4.2231 -0.7106 -0.1589
-4.2945 -0.7952 -0.1716
-4.3772 -0.8766 -0.1848
-4.4853 -0.9929 -0.2029
-4.5565 -1.0776 -0.2156
-4.7416 -1.2979 -0.2487
-4.8425 -1.3983 -0.2648
-5.0553 -1.5704 -0.2948
-5.1173 -1.5592 -0.2975
-6.1672 -2.9208 -0.4963
-6.6057 -2.7728 -0.5085
-6.7602 -2.7793 -0.5186
-7.6540 -1.9640 -0.4926
-7.5035 -1.7571 -0.4630
-6.9399 -1.1651 -0.3700
-6.8392 -1.0386 -0.3513
-6.8125 -0.9541 -0.3413
-6.5971 -0.6741 -0.3004
-6.5322 -0.5947 -0.2886
-6.5024 -0.5321 -0.2806
-6.4039 -0.4509 -0.2666
-6.3801 -0.3976 -0.2598
-6.0798 -0.1624 -0.2182
-6.0506 -0.1230 -0.2125
-3.9608 -0.4236 -0.1301
-3.9719 -0.4389 -0.1328
-3.9843 -0.4460 -0.1347
-3.9967 -0.4677 -0.1383
-4.0104 -0.4861 -0.1416
-4.0250 -0.4915 -0.1434
-4.0407 -0.5134 -0.1472
-4.0760 -0.5604 -0.1557
-4.1159 -0.5967 -0.1632
-4.1411 -0.6399 -0.1704
-4.1890 -0.6681 -0.1775
-4.2529 -0.7448 -0.1918
-4.3282 -0.8232 -0.2072
-4.3837 -0.9072 -0.2217
-4.5002 -1.0418 -0.2471
-4.6517 -1.2101 -0.2793
-4.7348 -1.2878 -0.2952
-4.8532 -1.4248 -0.3211
-5.0532 -1.5694 -0.3541
-5.1438 -1.6061 -0.3656
-5.8986 -2.5172 -0.5349
-6.0783 -2.6065 -0.5597
-6.1818 -2.5776 -0.5642
-6.2411 -2.4897 -0.5581
-6.2756 -2.3755 -0.5469
-6.3554 -2.3182 -0.5461
-6.4351 -2.2610 -0.5453
-6.5668 -2.2560 -0.5549
-6.5947 -2.1466 -0.5438
-6.6744 -2.0894 -0.5430
-6.7542 -2.0321 -0.5422
-7.4049 -1.7957 -0.5639
-7.3463 -1.6515 -0.5418
-7.2913 -1.5180 -0.5213
-6.5344 -0.7568 -0.3700
-6.5524 -0.7046 -0.3651
-6.4737 -0.6176 -0.3484
-6.4767 -0.5652 -0.3423
-6.4637 -0.5096 -0.3345
-6.4103 -0.4437 -0.3223
-6.3265 -0.3297 -0.3020
-6.0816 -0.1217 -0.2577
-3.9694 -0.4394 -0.1491
-3.9812 -0.4564 -0.1526
-3.9943 -0.4641 -0.1550
-4.0077 -0.4946 -0.1607
-4.0225 -0.4913 -0.1616
-4.0381 -0.5166 -0.1667
-4.0546 -0.5267 -0.1697
-4.0914 -0.5624 -0.1783
-4.1120 -0.5841 -0.1834
-4.1333 -0.5992 -0.1876
-4.1600 -0.6422 -0.1963
-4.1819 -0.6423 -0.1984
-4.2157 -0.6996 -0.2099
-4.2545 -0.7642 -0.2229
-4.2877 -0.7891 -0.2296
-4.3269 -0.8279 -0.2389
-4.3692 -0.8670 -0.2486
-4.4968 -1.0395 -0.2855
-4.5562 -1.0895 -0.2983
-4.6454 -1.2007 -0.3228
-4.7317 -1.2861 -0.3433
-4.8279 -1.3765 -0.3654
-5.0386 -1.5455 -0.4097
-5.1069 -1.5451 -0.4161
-5.2322 -1.6317 -0.4404
-5.5647 -2.0152 -0.5272
-5.7858 -1.9137 -0.5333
-5.8663 -1.8852 -0.5367
-6.0141 -1.8084 -0.5395
-6.0131 -1.6934 -0.5228
-6.0772 -1.6475 -0.5221
-6.1413 -1.6015 -0.5215
-6.2984 -1.6349 -0.5411
-6.8631 -1.3563 -0.5539
-6.9323 -1.3066 -0.5532
-6.9495 -1.2298 -0.5437
-6.9663 -1.1556 -0.5345
-6.3372 -0.5067 -0.3815
-6.4264 -0.4877 -0.3871
-6.3740 -0.4231 -0.3728
-6.3437 -0.3255 -0.3558
-6.1737 -0.2406 -0.3276
-6.0213 -0.1015 -0.2931
-6.0464 -0.0751 -0.2916
-3.9671 -0.4359 -0.1648
-3.9784 -0.4604 -0.1702
-3.9917 -0.4642 -0.1723
-4.0053 -0.4786 -0.1762
-4.0199 -0.4875 -0.1793
-4.0354 -0.5126 -0.1853
-4.0515 -0.5155 -0.1876
-4.0699 -0.5482 -0.1951
-4.0890 -0.5660 -0.2002
-4.1107 -0.5975 -0.2079
-4.1309 -0.6012 -0.2108
-4.1542 -0.6207 -0.2166
-4.1839 -0.6695 -0.2281
-4.2110 -0.6888 -0.2344
-4.2525 -0.7677 -0.2523
-4.2846 -0.7870 -0.2591
-4.3225 -0.8214 -0.2690
-4.3657 -0.8641 -0.2810
-4.4253 -0.9470 -0.3016
-4.4802 -0.9995 -0.3165
-4.5482 -1.0752 -0.3367
-4.6360 -1.1838 -0.3647
-4.7213 -1.2677 -0.3883
-4.8335 -1.3926 -0.4217
-4.9208 -1.4484 -0.4408
-5.0178 -1.5105 -0.4620
-5.0984 -1.5325 -0.4746
-5.2648 -1.6850 -0.5187
-5.4963 -1.7811 -0.5605
-5.5673 -1.7543 -0.5639
-5.5909 -1.6662 -0.5517
-5.6492 -1.6243 -0.5511
-5.6706 -1.5412 -0.5395
-5.7658 -1.5407 -0.5500
-5.8515 -1.5263 -0.5570
-5.9107 -1.4838 -0.5565
-5.9849 -1.4548 -0.5598
-6.0291 -1.3989 -0.5553
-6.2159 -1.1948 -0.5417
-6.4206 -1.1663 -0.5596
-6.4621 -1.1124 -0.5551
-6.4846 -1.0491 -0.5470
-6.5619 -1.0166 -0.5501
-6.6211 -0.9741 -0.5495
-6.6803 -0.9317 -0.5489
-6.6403 -0.8456 -0.5300
-6.2504 -0.2914 -0.3936
-6.1669 -0.2305 -0.3741
-6.1118 -0.1806 -0.3596
-6.0431 -0.1308 -0.3436
-5.9890 -0.0874 -0.3303
-3.9644 -0.4376 -0.1815
-3.9762 -0.4531 -0.1860
-3.9895 -0.4543 -0.1879
-4.0028 -0.4760 -0.1938
-4.0173 -0.4836 -0.1971
-4.0326 -0.4991 -0.2020
-4.0488 -0.5114 -0.2065
-4.0664 -0.5312 -0.2125
-4.1066 -0.5827 -0.2276
-4.1295 -0.6119 -0.2361
-4.1532 -0.6321 -0.2430
-4.1825 -0.6771 -0.2554
-4.2073 -0.6833 -0.2597
-4.2492 -0.7648 -0.2807
-4.2787 -0.7736 -0.2862
-4.3163 -0.8078 -0.2976
-4.3730 -0.8979 -0.3221
-4.4191 -0.9356 -0.3352
-4.4765 -0.9964 -0.3543
-4.5361 -1.0497 -0.3721
-4.6878 -1.1975 -0.4199
-4.9287 -1.4675 -0.5025
-5.0808 -1.6283 -0.5528
-5.1319 -1.5916 -0.5523
-5.1323 -1.4738 -0.5297
-5.1811 -1.4387 -0.5292
-5.2300 -1.4037 -0.5288
-5.3936 -1.3187 -0.5334
-5.4339 -1.2730 -0.5298
-5.4925 -1.2477 -0.5324
-5.5420 -1.2122 -0.5319
-5.6117 -1.1958 -0.5377
-5.6618 -1.1599 -0.5372
-6.0135 -0.9771 -0.5471
-6.0785 -0.9485 -0.5499
-6.1580 -0.9274 -0.5560
-6.2256 -0.8981 -0.5591
-6.2629 -0.8522 -0.5550
-6.3004 -0.8072 -0.5512
-6.3525 -0.7699 -0.5507
-6.3890 -0.7257 -0.5469
-6.4408 -0.6885 -0.5464
-6.4437 -0.6325 -0.5360
-6.3581 -0.5463 -0.5085
-6.2323 -0.2778 -0.4409
-6.0572 -0.1599 -0.3958
-5.9840 -0.1104 -0.3770
-5.9503 -0.0722 -0.3653
-5.9583 -0.0436 -0.3609
-3.9623 -0.4316 -0.1969
-3.9743 -0.4421 -0.2009
-3.9870 -0.4532 -0.2051
-4.0001 -0.4771 -0.2122
-4.0147 -0.4810 -0.2151
-4.0300 -0.5034 -0.2222
-4.0461 -0.5097 -0.2259
-4.0641 -0.5396 -0.2350
-4.0849 -0.5842 -0.2476
-4.1037 -0.5803 -0.2495
-4.1265 -0.6092 -0.2591
-4.1514 -0.6390 -0.2691
-4.1785 -0.6696 -0.2797
-4.2061 -0.6915 -0.2884
-4.2360 -0.7153 -0.2979
-4.3634 -0.8740 -0.3507
-4.4082 -0.9098 -0.3649
-4.4861 -1.0313 -0.4025
-4.5414 -1.0703 -0.4189
-4.6019 -1.1126 -0.4368
-4.8232 -1.3802 -0.5268
-5.2570 -1.2429 -0.5601
-5.4604 -1.1268 -0.5645
-5.4988 -1.0849 -0.5611
-5.5545 -1.0592 -0.5636
-5.8370 -0.8566 -0.5608
-5.8733 -0.8163 -0.5574
-5.9312 -0.7890 -0.5599
-5.9782 -0.7552 -0.5594
-6.0011 -0.7091 -0.5528
-6.0724 -0.6877 -0.5585
-6.1195 -0.6539 -0.5581
-6.1665 -0.6201 -0.5576
-6.2136 -0.5864 -0.5571
-6.2748 -0.5580 -0.5599
-6.3354 -0.5288 -0.5624
-6.3131 -0.4709 -0.5466
-6.0218 -0.1106 -0.4265
-6.0388 -0.0817 -0.4227
-5.9859 -0.0410 -0.4063
-6.0113 -0.0156 -0.4045
-3.9599 -0.4295 -0.2130
-3.9719 -0.4385 -0.2171
-3.9846 -0.4484 -0.2215
-3.9981 -0.4564 -0.2257
-4.0121 -0.4783 -0.2332
-4.0273 -0.5005 -0.2410
-4.0434 -0.5090 -0.2457
-4.0611 -0.5330 -0.2543
-4.0794 -0.5447 -0.2601
-4.0997 -0.5668 -0.2688
-4.1493 -0.6436 -0.2953
-4.1717 -0.6440 -0.2990
-4.1995 -0.6702 -0.3099
-4.3660 -0.8925 -0.3904
-4.4118 -0.9294 -0.4067
-4.4714 -0.9966 -0.4326
-4.5268 -1.0384 -0.4517
-4.6011 -1.1164 -0.4825
-4.7112 -1.2608 -0.5352
-4.7739 -1.2809 -0.5502
-4.8025 -1.2273 -0.5419
-4.8386 -1.1907 -0.5390
-4.9233 -1.1406 -0.5408
-4.9588 -1.1045 -0.5379
-5.0038 -1.0828 -0.5400
-5.0499 -1.0616 -0.5424
-5.1484 -1.0240 -0.5494
-5.1772 -0.9809 -0.5437
-5.2119 -0.9453 -0.5408
-5.2455 -0.9094 -0.5376
-5.2858 -0.8805 -0.5372
-5.3401 -0.8640 -0.5421
-5.3808 -0.8348 -0.5417
-5.4066 -0.7938 -0.5360
-5.4469 -0.7649 -0.5356
-5.4954 -0.7419 -0.5380
-5.5513 -0.7232 -0.5426
-5.5922 -0.6938 -0.5422
-5.6420 -0.6698 -0.5445
-5.7006 -0.6503 -0.5493
-5.7328 -0.6154 -0.5462
-5.7741 -0.5857 -0.5458
-5.8155 -0.5560 -0.5454
-5.8477 -0.5223 -0.5425
-5.8693 -0.4843 -0.5369
-5.9395 -0.4670 -0.5442
-6.0348 -0.4578 -0.5574
-6.0772 -0.4274 -0.5570
-6.0973 -0.3893 -0.5511
-6.1049 -0.3484 -0.5425
-6.1240 -0.3122 -0.5369
-6.1316 -0.2737 -0.5289
-6.0412 -0.0429 -0.4587
-3.9572 -0.4298 -0.2298
-3.9697 -0.4338 -0.2331
-3.9818 -0.4533 -0.2404
-3.9954 -0.4587 -0.2443
-4.0094 -0.4804 -0.2526
-4.0246 -0.5000 -0.2605
-4.0408 -0.5084 -0.2657
-4.0585 -0.5344 -0.2758
-4.0782 -0.5672 -0.2880
-4.0972 -0.5688 -0.2919
-4.1178 -0.5798 -0.2986
-4.1427 -0.6148 -0.3123
-4.1716 -0.6610 -0.3298
-4.1986 -0.6803 -0.3398
-4.2716 -0.7782 -0.3789
-4.3612 -0.8853 -0.4235
-4.3983 -0.8950 -0.4328
-4.4731 -1.0092 -0.4766
-4.5211 -1.0299 -0.4908
-4.6278 -1.1881 -0.5520
-5.9545 -0.3337 -0.5648
-5.9938 -0.3055 -0.5645
-6.0226 -0.2743 -0.5614
-6.0723 -0.2491 -0.5637
-6.0910 -0.2158 -0.5582
-6.0880 -0.1780 -0.5476
-6.0363 -0.0977 -0.5170
-3.9547 -0.4288 -0.2464
-3.9663 -0.4438 -0.2530
-3.9793 -0.4496 -0.2573
-3.9927 -0.4598 -0.2629
-4.0068 -0.4765 -0.2706
-4.0219 -0.4983 -0.2799
-4.0378 -0.4939 -0.2818
-4.0553 -0.5244 -0.2941
-4.0743 -0.5492 -0.3051
-4.0945 -0.5697 -0.3150
-4.1167 -0.5945 -0.3267
-4.1396 -0.6119 -0.3363
-4.1680 -0.6556 -0.3546
-4.2305 -0.7284 -0.3882
-4.2673 -0.7719 -0.4081
-4.3563 -0.8781 -0.4567
-4.4017 -0.9143 -0.4762
-4.4570 -0.9702 -0.5034
-4.5216 -1.0380 -0.5359
-4.5691 -1.0494 -0.5487
-4.6110 -1.0426 -0.5550
-4.6427 -1.0117 -0.5523
-4.6802 -0.9930 -0.5543
-4.7116 -0.9623 -0.5517
-4.7556 -0.9540 -0.5580
-4.7769 -0.9072 -0.5486
-4.8149 -0.8882 -0.5506
-4.8531 -0.8689 -0.5526
-4.8951 -0.8539 -0.5566
-4.9259 -0.8237 -0.5540
-4.9692 -0.8089 -0.5583
-4.9998 -0.7788 -0.5556
-5.0261 -0.7448 -0.5509
-5.0511 -0.7105 -0.5460
-5.0811 -0.6820 -0.5436
-5.1247 -0.6658 -0.5476
-5.1742 -0.6537 -0.5539
-5.2145 -0.6329 -0.5559
-5.2440 -0.6036 -0.5532
-5.2846 -0.5826 -0.5552
-5.3255 -0.5614 -0.5571
-5.3426 -0.5247 -0.5499
-5.3773 -0.4998 -0.5495
-5.4184 -0.4784 -0.5515
-5.4598 -0.4569 -0.5534
-5.4815 -0.4250 -0.5485
-5.5231 -0.4034 -0.5505
-5.5580 -0.3783 -0.5501
-5.6000 -0.3563 -0.5521
-5.6497 -0.3370 -0.5563
-5.7076 -0.3199 -0.5629
-5.7358 -0.2915 -0.5602
-5.7402 -0.2557 -0.5507
-5.7525 -0.2236 -0.5438
-5.7940 -0.2008 -0.5454
-5.8453 -0.1803 -0.5497
-5.8804 -0.1552 -0.5493
-5.9240 -0.1320 -0.5513
-5.9592 -0.1067 -0.5509
-5.9600 -0.0747 -0.5418
-5.9946 -0.0499 -0.5414
-6.0200 -0.0236 -0.5388
-3.9513 -0.4365 -0.2656
-3.9642 -0.4365 -0.2684
-3.9772 -0.4399 -0.2723
-3.9900 -0.4608 -0.2817
-4.0044 -0.4632 -0.2856
-4.0192 -0.4931 -0.2982
-4.0351 -0.4944 -0.3021
-4.0714 -0.5469 -0.3266
-4.0906 -0.5551 -0.3333
-4.1145 -0.6004 -0.3528
-4.1359 -0.6047 -0.3589
-4.1586 -0.6116 -0.3659
-4.1888 -0.6558 -0.3865
-4.2646 -0.7726 -0.4398
-4.3539 -0.8796 -0.4930
-4.3925 -0.8936 -0.5058
-4.4516 -0.9622 -0.5403
-5.0383 -0.5864 -0.5488
-5.7278 -0.1749 -0.5684
-5.7685 -0.1527 -0.5702
-5.8021 -0.1285 -0.5698
-5.8285 -0.1027 -0.5674
-5.8620 -0.0786 -0.5671
-5.8714 -0.0499 -0.5600
-5.9123 -0.0275 -0.5618
-5.9218 0.0002 -0.5551
-5.8837 0.0341 -0.5361
-3.9616 -0.4354 -0.2857
-3.9746 -0.4399 -0.2902
-3.9876 -0.4535 -0.2980
-4.0016 -0.4687 -0.3065
-4.0165 -0.4902 -0.3173
-4.0324 -0.4925 -0.3219
-4.0498 -0.5236 -0.3366
-4.0678 -0.5325 -0.3439
-4.0893 -0.5734 -0.3629
-4.1095 -0.5784 -0.3694
-4.1612 -0.6480 -0.4054
-4.1885 -0.6697 -0.4193
-4.2230 -0.7195 -0.4444
-4.2610 -0.7692 -0.4704
-4.2991 -0.8049 -0.4916
-4.3491 -0.8724 -0.5264
-4.4666 -0.9029 -0.5645
-4.5272 -0.8594 -0.5639
-4.5554 -0.8334 -0.5617
-4.6460 -0.7684 -0.5608
-4.6688 -0.7348 -0.5547
-4.6960 -0.7096 -0.5524
-4.7940 -0.6565 -0.5574
-4.8179 -0.6278 -0.5532
-4.8874 -0.5952 -0.5584
-4.9176 -0.5735 -0.5581
-4.9443 -0.5486 -0.5559
-4.9743 -0.5271 -0.5556
-5.0119 -0.5116 -0.5592
-5.0851 -0.4775 -0.5647
-5.1108 -0.4521 -0.5621
-5.1464 -0.4335 -0.5641
-5.1633 -0.4030 -0.5577
-5.1804 -0.3735 -0.5516
-5.2149 -0.3545 -0.5532
-5.2496 -0.3354 -0.5549
-5.2750 -0.3114 -0.5527
-5.3051 -0.2898 -0.5524
-5.3451 -0.2726 -0.5559
-5.3754 -0.2508 -0.5556
-5.4057 -0.2291 -0.5553
-5.4413 -0.2093 -0.5569
-5.4662 -0.1856 -0.5547
-5.4965 -0.1639 -0.5544
-5.5325 -0.1438 -0.5560
-5.5629 -0.1220 -0.5557
-5.5992 -0.1017 -0.5573
-5.6177 -0.0770 -0.5532
-5.6480 -0.0552 -0.5529
-5.6845 -0.0348 -0.5545
-5.7149 -0.0130 -0.5542
-5.7518 0.0077 -0.5558
-5.7823 0.0296 -0.5555
-5.8208 0.0504 -0.5575
-3.9722 -0.4351 -0.3066
-3.9850 -0.4509 -0.3157
-4.0297 -0.5031 -0.3464
-4.0467 -0.5137 -0.3546
-4.0648 -0.5269 -0.3641
-4.0851 -0.5556 -0.3798
-4.1085 -0.5969 -0.4010
-4.1305 -0.6062 -0.4100
-4.2554 -0.7569 -0.4973
-4.2927 -0.7905 -0.5192
-4.3364 -0.8366 -0.5473
-4.3671 -0.8282 -0.5520
-4.7615 -0.5601 -0.5536
-4.8766 -0.4832 -0.5546
-4.9075 -0.4656 -0.5559
-5.0555 -0.3697 -0.5583
-5.0963 -0.3199 -0.5503
-5.1287 -0.3023 -0.5521
-5.1971 -0.2681 -0.5569
-5.2254 -0.2478 -0.5566
-5.4393 -0.1102 -0.5604
-5.4576 -0.0868 -0.5564
-5.4907 -0.0676 -0.5578
-5.5478 -0.0267 -0.5572
-5.6629 0.0297 -0.5657
-5.6919 0.0505 -0.5654
-3.9572 -0.4235 -0.3169
-3.9698 -0.4302 -0.3230
-3.9823 -0.4518 -0.3349
-3.9966 -0.4517 -0.3388
-4.0111 -0.4764 -0.3525
-4.0439 -0.5127 -0.3759
-4.0636 -0.5585 -0.3993
-4.0823 -0.5553 -0.4032
-4.1280 -0.6084 -0.4367
-4.1547 -0.6423 -0.4574
-4.1799 -0.6525 -0.4683
-4.2173 -0.7195 -0.5050
-4.2518 -0.7535 -0.5279
-4.2873 -0.7800 -0.5481
-4.7905 -0.4902 -0.5713
-4.8337 -0.4411 -0.5637
-4.8548 -0.4169 -0.5599
-4.8843 -0.4003 -0.5614
-4.9140 -0.3835 -0.5629
-4.9439 -0.3665 -0.5644
-4.9644 -0.3428 -0.5607
-4.9977 -0.3280 -0.5639
-5.0211 -0.3066 -0.5619
-5.0479 -0.2874 -0.5616
-5.0711 -0.2663 -0.5596
-5.0977 -0.2471 -0.5594
-5.1207 -0.2262 -0.5573
-5.1549 -0.2106 -0.5606
-5.1817 -0.1914 -0.5603
-5.2085 -0.1722 -0.5600
-5.2353 -0.1530 -0.5598
-5.2620 -0.1338 -0.5595
-5.2845 -0.1132 -0.5575
-5.3112 -0.0940 -0.5573
-5.3423 -0.0762 -0.5587
-5.3645 -0.0558 -0.5567
-5.3959 -0.0378 -0.5582
-5.4226 -0.0186 -0.5579
-5.4494 0.0006 -0.5577
-5.4811 0.0189 -0.5592
-5.5080 0.0381 -0.5589
-5.5399 0.0566 -0.5604
-5.5721 0.0751 -0.5618
-5.5992 0.0945 -0.5616
-3.9547 -0.4211 -0.3337
-3.9669 -0.4325 -0.3421
-3.9798 -0.4469 -0.3519
-3.9936 -0.4594 -0.3613
-4.0084 -0.4735 -0.3716
-4.0241 -0.4813 -0.3795
-4.0410 -0.5084 -0.3959
-4.0597 -0.5376 -0.4137
-4.0796 -0.5570 -0.4277
-4.1023 -0.5923 -0.4493
-4.1232 -0.5918 -0.4552
-4.1504 -0.6318 -0.4801
-4.1788 -0.6630 -0.5016
-4.2121 -0.7075 -0.5301
-4.2434 -0.7277 -0.5478
-4.2715 -0.7266 -0.5556
-4.2961 -0.7089 -0.5554
-4.4212 -0.6259 -0.5570
-4.4397 -0.5947 -0.5492
-4.4707 -0.5904 -0.5565
-4.4971 -0.5759 -0.5581
-4.5155 -0.5470 -0.5513
-4.6437 -0.4663 -0.5548
-4.6666 -0.4464 -0.5531
-4.6975 -0.4355 -0.5576
-4.7204 -0.4157 -0.5559
-4.7360 -0.3889 -0.5492
-4.7749 -0.3845 -0.5587
-4.8020 -0.3684 -0.5599
-4.8270 -0.3504 -0.5596
-4.8498 -0.3307 -0.5580
-4.8693 -0.3089 -0.5545
-4.8997 -0.2949 -0.5575
-4.9272 -0.2786 -0.5586
-4.9497 -0.2591 -0.5570
-4.9685 -0.2377 -0.5535
-4.9844 -0.2151 -0.5486
-5.0209 -0.2035 -0.5544
-5.0430 -0.1843 -0.5528
-5.0611 -0.1634 -0.5493
-5.0926 -0.1487 -0.5523
-5.1275 -0.1349 -0.5567
-5.1525 -0.1169 -0.5564
-5.1670 -0.0953 -0.5516
-5.1919 -0.0775 -0.5513
-5.2200 -0.0607 -0.5525
-5.2527 -0.0450 -0.5554
-5.3284 -0.0154 -0.5651
-5.3491 0.0040 -0.5630
-5.3710 0.0230 -0.5614
-5.4050 0.0396 -0.5644
-5.4255 0.0588 -0.5623
-5.4471 0.0776 -0.5606
-5.4673 0.0966 -0.5586
-3.9519 -0.4223 -0.3521
-3.9650 -0.4218 -0.3560
-3.9771 -0.4454 -0.3704
-3.9907 -0.4623 -0.3823
-4.0055 -0.4762 -0.3932
-4.0213 -0.5027 -0.4100
-4.0382 -0.5095 -0.4184
-4.0570 -0.5417 -0.4387
-4.0760 -0.5459 -0.4466
-4.0997 -0.5956 -0.4764
-4.1211 -0.5981 -0.4842
-4.1750 -0.6573 -0.5277
-4.2026 -0.6720 -0.5430
-4.4885 -0.5615 -0.5827
-4.5067 -0.5328 -0.5755
-4.5983 -0.4560 -0.5696
-4.6488 -0.4242 -0.5711
-4.7337 -0.3444 -0.5618
-4.7645 -0.3334 -0.5665
-4.7906 -0.3180 -0.5677
-4.8124 -0.2990 -0.5660
-4.8418 -0.2857 -0.5692
-4.9058 -0.2287 -0.5636
-4.9323 -0.2130 -0.5648
-4.9589 -0.1973 -0.5661
-4.9802 -0.1787 -0.5644
-5.0014 -0.1601 -0.5627
-5.0281 -0.1443 -0.5639
-5.0521 -0.1271 -0.5637
-5.0761 -0.1099 -0.5634
-5.1001 -0.0927 -0.5632
-5.1177 -0.0733 -0.5600
-5.1373 -0.0548 -0.5578
-5.1752 -0.0421 -0.5640
-5.1993 -0.0248 -0.5637
-5.2165 -0.0058 -0.5605
-5.2404 0.0114 -0.5603
-5.2607 0.0293 -0.5586
-5.2954 0.0442 -0.5628
-5.3195 0.0614 -0.5625
-5.3398 0.0793 -0.5608
-5.3561 0.0977 -0.5577
-5.3877 0.1137 -0.5604
-3.9746 -0.4405 -0.3874
-3.9884 -0.4516 -0.3973
-4.0029 -0.4677 -0.4098
-4.0538 -0.5349 -0.4589
-4.0727 -0.5391 -0.4672
-4.0956 -0.5823 -0.4955
-4.1178 -0.5950 -0.5090
-4.1434 -0.6230 -0.5309
-4.1699 -0.6437 -0.5496
-4.1946 -0.6437 -0.5578
-4.2179 -0.6336 -0.5608
-4.2415 -0.6233 -0.5637
-4.2609 -0.5961 -0.5572
-4.2839 -0.5830 -0.5585
-4.3061 -0.5670 -0.5583
-4.3535 -0.5429 -0.5626
-4.3748 -0.5243 -0.5608
-4.3937 -0.5008 -0.5559
-4.4158 -0.4850 -0.5557
-4.4392 -0.4715 -0.5570
-4.4592 -0.4517 -0.5542
-4.4822 -0.4373 -0.5550
-4.5073 -0.4259 -0.5579
-4.5327 -0.4144 -0.5608
-4.5486 -0.3897 -0.5544
-4.5724 -0.3759 -0.5557
-4.5899 -0.3545 -0.5513
-4.6138 -0.3407 -0.5527
-4.6428 -0.3321 -0.5582
-4.6612 -0.3122 -0.5548
-4.6834 -0.2963 -0.5546
-4.7133 -0.2870 -0.5601
-4.7343 -0.2697 -0.5589
-4.7649 -0.2599 -0.5644
-4.7853 -0.2420 -0.5626
-4.8015 -0.2215 -0.5582
-4.8190 -0.2023 -0.5549
-4.8388 -0.1848 -0.5531
-4.8610 -0.1689 -0.5529
-4.8858 -0.1544 -0.5542
-4.9081 -0.1384 -0.5540
-4.9359 -0.1251 -0.5569
-4.9631 -0.1111 -0.5593
-4.9944 -0.0986 -0.5637
-5.0231 -0.0846 -0.5666
-5.0520 -0.0705 -0.5695
-5.0479 -0.0447 -0.5558
-5.0703 -0.0286 -0.5556
-5.0895 -0.0116 -0.5538
-5.1174 0.0029 -0.5562
-5.1500 0.0164 -0.5606
-5.1692 0.0335 -0.5588
-5.1988 0.0481 -0.5617
-5.2180 0.0651 -0.5599
-5.2516 0.0794 -0.5643
-5.2857 0.0939 -0.5688
-5.2973 0.1122 -0.5639
-5.3124 0.1296 -0.5606
-3.9586 -0.4332 -0.3984
-3.9720 -0.4378 -0.4055
-3.9861 -0.4397 -0.4114
-4.0000 -0.4681 -0.4307
-4.0157 -0.4766 -0.4405
-4.0323 -0.4975 -0.4570
-4.0504 -0.5207 -0.4752
-4.0914 -0.5679 -0.5136
-4.1124 -0.5715 -0.5228
-4.1391 -0.6126 -0.5531
-4.5645 -0.3238 -0.5572
-4.7402 -0.2383 -0.5760
-4.7716 -0.1982 -0.5668
-4.8126 -0.1382 -0.5509
-4.8913 -0.1003 -0.5596
-4.9419 -0.0728 -0.5635
-4.9585 -0.0554 -0.5606
-5.0212 -0.0312 -0.5705
-5.0261 -0.0102 -0.5616
-5.0531 0.0037 -0.5641
