ply
format ascii 1.0
element vertex 2081
property float x
property float y
property float z
end_header
-2.7292 2.4193 -0.0664
-2.7161 2.4230 -0.0668
-2.7042 2.4318 -0.0674
-2.6927 2.4447 -0.0682
-2.6924 2.6082 -0.0769
-2.6728 2.6066 -0.0771
-2.6515 2.5918 -0.0766
-2.6303 2.5688 -0.0756
-2.6108 2.5540 -0.0751
-2.5433 3.6010 -0.1318
-2.4624 2.7285 -0.0862
-2.4401 2.7238 -0.0862
-2.4194 2.7110 -0.0858
-2.3960 2.7144 -0.0863
-2.3728 2.7158 -0.0866
-2.3390 2.7574 -0.0893
-2.3039 2.7950 -0.0917
-2.2783 2.7963 -0.0921
-2.2540 2.7936 -0.0923
-2.2309 2.7879 -0.0923
-2.2032 2.7942 -0.0929
-2.1812 2.7864 -0.0928
-2.1624 2.7727 -0.0923
-2.1488 2.7500 -0.0913
-2.1395 2.7213 -0.0898
-2.1197 2.7146 -0.0897
-2.0888 2.7279 -0.0908
-2.0655 2.7273 -0.0911
-2.0448 2.7226 -0.0911
-2.0071 2.7439 -0.0927
-1.9652 2.7346 -0.0927
-1.9261 2.7548 -0.0943
-1.8973 2.7600 -0.0949
-1.8778 2.7534 -0.0948
-1.8338 2.7765 -0.0966
-1.7876 2.7437 -0.0954
-1.7956 2.7094 -0.0935
-1.7784 2.7028 -0.0933
-1.7616 2.6962 -0.0932
-2.8047 2.4273 -0.0801
-2.7898 2.4258 -0.0802
-2.7741 2.4224 -0.0802
-2.7594 2.4209 -0.0802
-2.7454 2.4215 -0.0805
-2.7294 2.4160 -0.0802
-2.7176 2.4238 -0.0810
-2.7050 2.4305 -0.0817
-2.6942 2.4463 -0.0831
-2.6814 2.4570 -0.0842
-2.6938 2.6097 -0.0964
-2.6731 2.6021 -0.0960
-2.6519 2.5873 -0.0951
-2.6310 2.5686 -0.0939
-2.5439 3.5992 -0.1784
-2.4618 2.7312 -0.1093
-2.4426 2.7044 -0.1073
-2.4221 2.6927 -0.1067
-2.3982 2.7001 -0.1076
-2.3754 2.7015 -0.1080
-2.3330 2.7759 -0.1146
-2.3037 2.7912 -0.1162
-2.2765 2.7975 -0.1171
-2.2530 2.7918 -0.1169
-2.2287 2.7891 -0.1170
-2.2223 2.7425 -0.1133
-2.2168 2.7000 -0.1100
-2.1727 2.6967 -0.1103
-2.1502 2.6961 -0.1105
-2.1278 2.6954 -0.1108
-2.1007 2.7027 -0.1117
-2.0755 2.7060 -0.1123
-2.0603 2.6935 -0.1115
-2.0325 2.7008 -0.1125
-2.0112 2.6981 -0.1125
-1.9828 2.7054 -0.1135
-1.9386 2.7021 -0.1138
-1.9158 2.7014 -0.1141
-1.8913 2.7028 -0.1145
-1.8564 2.7159 -0.1160
-1.8438 2.7034 -0.1152
-1.8154 2.7087 -0.1160
-1.7941 2.7060 -0.1160
-1.7749 2.7014 -0.1159
-1.7560 2.6969 -0.1158
-2.8254 2.4365 -0.0953
-2.8082 2.4310 -0.0950
-2.7914 2.4255 -0.0946
-2.7764 2.4241 -0.0947
-2.7623 2.4247 -0.0949
-2.7460 2.4192 -0.0946
-2.7329 2.4229 -0.0951
-2.7205 2.4295 -0.0960
-2.7074 2.4352 -0.0968
-2.6944 2.4428 -0.0978
-2.6819 2.4545 -0.0993
-2.6744 2.6036 -0.1156
-2.6531 2.5900 -0.1144
-2.6313 2.5643 -0.1119
-2.4612 2.7338 -0.1327
-2.4190 2.7066 -0.1304
-2.3972 2.7019 -0.1302
-2.3736 2.7053 -0.1309
-2.3305 2.7812 -0.1397
-2.2992 2.8024 -0.1425
-2.2746 2.7986 -0.1424
-2.2468 2.8049 -0.1435
-2.2260 2.7291 -0.1355
-2.2172 2.6948 -0.1319
-2.1938 2.6961 -0.1324
-2.1712 2.6954 -0.1326
-2.1475 2.6968 -0.1331
-2.1194 2.7060 -0.1345
-2.0976 2.7034 -0.1345
-2.0808 2.6929 -0.1336
-2.0569 2.6942 -0.1341
-2.0237 2.7093 -0.1362
-2.0088 2.6968 -0.1350
-1.9832 2.7001 -0.1358
-1.9574 2.7034 -0.1365
-1.9390 2.6968 -0.1360
-1.9082 2.7060 -0.1374
-1.8851 2.7053 -0.1377
-1.8671 2.6988 -0.1372
-1.8477 2.6942 -0.1370
-1.8121 2.7072 -0.1389
-1.7832 2.7124 -0.1399
-1.7676 2.7039 -0.1392
-1.7544 2.6935 -0.1382
-2.8291 2.4402 -0.1107
-2.8113 2.4337 -0.1100
-2.7947 2.4292 -0.1097
-2.7795 2.4278 -0.1097
-2.7614 2.4183 -0.1087
-2.7501 2.4270 -0.1100
-2.7358 2.4275 -0.1103
-2.7222 2.4311 -0.1110
-2.7090 2.4367 -0.1120
-2.6974 2.4503 -0.1140
-2.6869 2.4729 -0.1172
-2.6764 2.6101 -0.1362
-2.6535 2.5865 -0.1333
-2.6322 2.5660 -0.1308
-2.6132 2.5605 -0.1303
-2.6049 4.2990 -0.3684
-2.5399 4.0681 -0.3378
-2.3896 2.7343 -0.1574
-2.3605 2.7564 -0.1609
-2.3240 2.8011 -0.1675
-2.2961 2.8083 -0.1689
-2.2655 2.8224 -0.1713
-2.2409 2.8167 -0.1709
-2.2356 2.7618 -0.1635
-2.2272 2.7217 -0.1581
-2.2090 2.7092 -0.1567
-2.1840 2.7125 -0.1575
-2.1549 2.7236 -0.1594
-2.1334 2.7190 -0.1591
-2.1111 2.7164 -0.1591
-2.0888 2.7137 -0.1591
-2.0643 2.7150 -0.1596
-2.0397 2.7163 -0.1601
-2.0162 2.7156 -0.1604
-1.9941 2.7130 -0.1604
-1.9707 2.7123 -0.1606
-1.9488 2.7097 -0.1606
-1.9255 2.7091 -0.1608
-1.9038 2.7064 -0.1608
-1.8755 2.7116 -0.1619
-1.8453 2.7187 -0.1633
-1.8181 2.7219 -0.1642
-1.7925 2.7232 -0.1647
-1.7686 2.7225 -0.1650
-1.7641 2.7024 -0.1623
-1.7428 2.6998 -0.1623
-2.8553 2.4582 -0.1284
-2.8343 2.4467 -0.1268
-2.8185 2.4453 -0.1269
-2.7980 2.4328 -0.1251
-2.7773 2.4184 -0.1230
-2.7651 2.4240 -0.1242
-2.7514 2.4266 -0.1248
-2.7386 2.4321 -0.1259
-2.7240 2.4327 -0.1262
-2.7122 2.4442 -0.1283
-2.6974 2.4458 -0.1288
-2.6861 2.4643 -0.1321
-2.6773 2.6084 -0.1561
-2.6554 2.5940 -0.1540
-2.6341 2.5765 -0.1514
-2.6138 2.5611 -0.1492
-2.5955 2.5685 -0.1507
-2.6113 4.5862 -0.4843
-2.5380 4.3150 -0.4406
-2.3494 2.7989 -0.1927
-2.2860 2.8376 -0.2001
-2.2566 2.8447 -0.2017
-1.9005 2.8029 -0.2004
-1.7672 2.7189 -0.1885
-1.7626 2.6990 -0.1853
-1.7413 2.6964 -0.1852
-2.8861 2.4820 -0.1484
-2.8671 2.4766 -0.1477
-2.7961 2.4244 -0.1387
-2.7813 2.4240 -0.1389
-2.7669 2.4246 -0.1392
-2.7538 2.4291 -0.1403
-2.7386 2.4277 -0.1403
-2.7269 2.4382 -0.1425
-2.7119 2.4387 -0.1429
-2.6996 2.4501 -0.1453
-2.6861 2.4596 -0.1474
-2.6798 2.6176 -0.1782
-2.6551 2.5845 -0.1721
-2.6338 2.5662 -0.1689
-2.6145 2.5607 -0.1682
-2.6084 4.3365 -0.5135
-2.3687 2.8259 -0.2238
-2.3338 2.8593 -0.2309
-2.3075 2.8537 -0.2302
-2.2809 2.8499 -0.2299
-2.2555 2.8433 -0.2290
-1.8705 3.6962 -0.4011
-2.0282 2.9656 -0.2565
-2.0299 2.9037 -0.2445
-2.0193 2.8700 -0.2381
-1.9946 2.8634 -0.2372
-1.9521 2.8857 -0.2423
-1.9253 2.8820 -0.2420
-1.7801 2.8808 -0.2441
-1.7387 2.8953 -0.2476
-1.7095 2.8945 -0.2480
-1.6864 2.8870 -0.2469
-1.7714 2.7351 -0.2160
-1.7676 2.7134 -0.2118
-1.7533 2.7031 -0.2100
-1.7277 2.7044 -0.2107
-2.9538 2.5661 -0.1828
-2.8116 2.4224 -0.1532
-2.7968 2.4220 -0.1533
-2.7861 2.4314 -0.1556
-2.7710 2.4310 -0.1558
-2.7544 2.4266 -0.1551
-2.7404 2.4291 -0.1559
-2.7272 2.4346 -0.1573
-2.7146 2.4440 -0.1597
-2.6868 2.4579 -0.1632
-2.6808 2.6168 -0.1989
-2.6574 2.5947 -0.1944
-2.6355 2.5745 -0.1902
-2.6150 2.5593 -0.1872
-2.5967 2.5715 -0.1902
-2.3329 2.8588 -0.2590
-2.3051 2.8580 -0.2593
-2.2791 2.8514 -0.2583
-2.2505 2.8535 -0.2593
-2.0229 3.0363 -0.3041
-2.0371 2.9420 -0.2828
-2.0154 2.9248 -0.2793
-1.9280 2.9184 -0.2794
-0.3385 4.3842 -0.6348
-1.7479 2.7034 -0.2344
-1.7281 2.6989 -0.2337
-2.9822 2.5480 -0.1972
-2.9564 2.5657 -0.2021
-2.8316 2.4292 -0.1698
-2.8146 2.4249 -0.1690
-2.7992 2.4235 -0.1689
-2.7871 2.4299 -0.1708
-2.7728 2.4314 -0.1714
-2.7579 2.4320 -0.1718
-2.7430 2.4325 -0.1722
-2.7286 2.4350 -0.1731
-2.7155 2.4424 -0.1753
-2.7028 2.4537 -0.1783
-2.6882 2.4591 -0.1800
-2.6579 2.5911 -0.2140
-2.6156 2.5588 -0.2066
-2.5970 2.5670 -0.2090
-2.2988 2.8765 -0.2928
-2.2711 2.8728 -0.2924
-2.2357 2.8932 -0.2982
-2.0538 2.9655 -0.3198
-2.0410 2.9283 -0.3106
-2.0072 2.9341 -0.3127
-2.0137 2.7762 -0.2726
-1.0894 4.0396 -0.6095
-1.0364 4.0235 -0.6064
-0.9943 3.9942 -0.5997
-0.9108 4.0199 -0.6078
-0.8365 4.0323 -0.6123
-0.7733 4.0305 -0.6130
-0.7348 4.0003 -0.6060
-0.6212 4.0552 -0.6220
-1.7580 2.6884 -0.2550
-2.9956 2.5364 -0.2128
-2.9851 2.5476 -0.2162
-2.9626 2.5711 -0.2232
-2.9461 2.5754 -0.2248
-2.8196 2.4312 -0.1863
-2.8052 2.4327 -0.1870
-2.7907 2.4342 -0.1877
-2.7738 2.4299 -0.1868
-2.7575 2.4265 -0.1861
-2.7429 2.4280 -0.1868
-2.7307 2.4373 -0.1897
-2.7168 2.4427 -0.1915
-2.7043 2.4548 -0.1952
-2.6887 2.4563 -0.1959
-2.6823 2.6122 -0.2402
-2.6598 2.5980 -0.2366
-2.6373 2.5762 -0.2309
-2.6165 2.5612 -0.2270
-2.5974 2.5625 -0.2277
-2.5784 2.5813 -0.2334
-2.5586 2.5797 -0.2334
-2.5385 2.5859 -0.2355
-2.2919 2.8967 -0.3283
-2.2635 2.8930 -0.3278
-2.2301 2.9046 -0.3317
-2.1926 2.9257 -0.3384
-1.9152 3.5534 -0.5217
-1.8837 3.5111 -0.5103
-1.8538 3.4708 -0.4994
-1.2150 3.8455 -0.6178
-1.1400 3.8674 -0.6254
-1.0722 3.8780 -0.6297
-1.0229 3.8641 -0.6267
-0.9643 3.8624 -0.6273
-0.9057 3.8607 -0.6280
-0.8579 3.8468 -0.6250
-0.8099 3.8339 -0.6222
-0.7626 3.8210 -0.6194
-0.6714 3.8540 -0.6305
-3.0086 2.5249 -0.2279
-2.9835 2.5404 -0.2333
-2.9730 2.5526 -0.2373
-2.9635 2.5676 -0.2422
-2.9536 2.5836 -0.2474
-2.8241 2.4364 -0.2038
-2.8099 2.4388 -0.2048
-2.7926 2.4345 -0.2038
-2.7764 2.4321 -0.2034
-2.7609 2.4317 -0.2036
-2.7458 2.4322 -0.2040
-2.7331 2.4405 -0.2069
-2.7204 2.4506 -0.2103
-2.7048 2.4521 -0.2111
-2.6843 2.6170 -0.2633
-2.6617 2.6049 -0.2599
-2.6379 2.5745 -0.2509
-2.6169 2.5577 -0.2460
-2.5791 2.5929 -0.2578
-2.5588 2.5962 -0.2593
-2.5382 2.5985 -0.2604
-2.5172 2.6046 -0.2627
-2.4965 2.6040 -0.2629
-2.4758 2.6034 -0.2632
-2.4551 2.6028 -0.2634
-2.4319 2.6155 -0.2678
-2.2614 2.8948 -0.3589
-2.2246 2.9157 -0.3663
-2.1748 2.9688 -0.3839
-1.8745 3.5237 -0.5642
-1.8297 3.5148 -0.5623
-1.7573 3.5634 -0.5790
-1.7336 3.5121 -0.5633
-1.6984 3.4871 -0.5562
-1.9417 2.9277 -0.3756
-1.9092 2.9297 -0.3769
-1.2575 3.6218 -0.6073
-1.1992 3.6288 -0.6106
-1.1396 3.6366 -0.6142
-1.0786 3.6454 -0.6182
-1.0179 3.6532 -0.6219
-0.9105 3.7114 -0.6423
-0.9308 3.6306 -0.6165
-0.8595 3.6487 -0.6236
-3.0082 2.5198 -0.2451
-2.9573 2.5848 -0.2686
-2.9453 2.5987 -0.2736
-2.8337 2.4520 -0.2253
-2.8154 2.4468 -0.2239
-2.7933 2.4319 -0.2192
-2.7774 2.4305 -0.2191
-2.7626 2.4320 -0.2199
-2.7474 2.4325 -0.2204
-2.7333 2.4368 -0.2222
-2.7212 2.4488 -0.2266
-2.7075 2.4579 -0.2300
-2.6936 2.4680 -0.2338
-2.6878 2.6313 -0.2902
-2.6628 2.6049 -0.2816
-2.6387 2.5738 -0.2714
-2.6187 2.5723 -0.2713
-2.5991 2.5755 -0.2728
-2.5799 2.6073 -0.2842
-2.5589 2.6114 -0.2860
-2.5380 2.6089 -0.2856
-2.5164 2.6178 -0.2891
-2.4948 2.6210 -0.2907
-2.4742 2.6137 -0.2886
-2.4531 2.6131 -0.2888
-2.2634 2.9897 -0.4227
-2.2376 2.9671 -0.4154
-2.1924 3.0057 -0.4297
-2.1702 2.9756 -0.4198
-1.9342 2.9337 -0.4102
-1.9157 2.9132 -0.4035
-1.3681 3.5323 -0.6285
-1.3501 3.4899 -0.6142
-1.2895 3.5043 -0.6205
-1.2271 3.5197 -0.6271
-1.1710 3.5266 -0.6306
-1.1365 3.5085 -0.6251
-1.0954 3.4988 -0.6226
-1.0698 3.4733 -0.6143
-1.0220 3.4720 -0.6149
-1.7000 2.7046 -0.3360
-3.0099 2.5175 -0.2632
-3.0019 2.5315 -0.2686
-2.9905 2.5415 -0.2727
-2.9816 2.5564 -0.2785
-2.9688 2.5664 -0.2825
-2.9582 2.5812 -0.2883
-2.9446 2.5921 -0.2927
-2.9273 2.5973 -0.2950
-2.7977 2.4379 -0.2378
-2.7796 2.4317 -0.2359
-2.7643 2.4322 -0.2364
-2.7500 2.4355 -0.2380
-2.7372 2.4446 -0.2417
-2.7253 2.4584 -0.2471
-2.7093 2.4599 -0.2480
-2.6887 2.6291 -0.3122
-2.6402 2.5796 -0.2946
-2.6189 2.5658 -0.2899
-2.5993 2.5681 -0.2911
-2.5104 3.3393 -0.5834
-2.4688 3.3193 -0.5767
-2.3409 3.3213 -0.5802
-2.2984 3.3201 -0.5807
-2.2502 3.3451 -0.5912
-2.2629 2.9859 -0.4557
-2.2327 2.9775 -0.4532
-2.2054 2.9616 -0.4478
-2.1679 2.9756 -0.4539
-2.1222 3.0083 -0.4672
-1.9946 3.0613 -0.4899
-1.9659 3.0482 -0.4856
-1.9574 2.9998 -0.4676
-1.9501 2.9543 -0.4506
-1.9285 2.9367 -0.4444
-1.4720 3.2662 -0.5783
-1.3576 3.3525 -0.6133
-1.2958 3.3715 -0.6218
-1.2748 3.3436 -0.6117
-1.2247 3.3487 -0.6148
-1.1866 3.3410 -0.6127
-1.1679 3.3141 -0.6030
-1.1190 3.3183 -0.6056
-3.0224 2.5062 -0.2775
-3.0109 2.5143 -0.2811
-2.9896 2.5353 -0.2901
-2.9813 2.5510 -0.2967
-2.9721 2.5666 -0.3033
-2.9613 2.5813 -0.3096
-2.9449 2.5874 -0.3124
-2.9292 2.5954 -0.3161
-2.8297 2.4688 -0.2666
-2.8000 2.4389 -0.2551
-2.7837 2.4375 -0.2549
-2.7685 2.4390 -0.2558
-2.7582 2.4546 -0.2624
-2.7438 2.4608 -0.2653
-2.7261 2.4565 -0.2639
-2.7133 2.4702 -0.2698
-2.6899 2.6288 -0.3351
-2.6641 2.6000 -0.3239
-2.6195 2.5640 -0.3102
-2.5543 3.2932 -0.6094
-2.5128 3.2863 -0.6075
-2.4716 3.2786 -0.6053
-2.4290 3.2896 -0.6107
-2.3880 3.2828 -0.6089
-2.3483 3.2695 -0.6043
-2.3081 3.2627 -0.6025
-2.2998 2.9644 -0.4809
-2.2705 2.9533 -0.4770
-2.2387 2.9524 -0.4774
-2.2047 2.9579 -0.4804
-2.1699 2.9644 -0.4838
-2.1306 2.9811 -0.4915
-2.0910 2.9959 -0.4985
-2.0650 2.9792 -0.4923
-2.0373 2.9681 -0.4883
-2.0106 2.9561 -0.4840
-1.9826 2.9478 -0.4813
-1.9566 2.9368 -0.4774
-1.9353 2.9193 -0.4707
-1.9185 2.8963 -0.4617
-1.8844 2.9010 -0.4644
-1.8062 2.9222 -0.4748
-1.5354 3.1787 -0.5856
-1.4694 3.2096 -0.5997
-1.3895 3.2542 -0.6197
-1.3265 3.2767 -0.6304
-1.3174 3.2399 -0.6155
-1.2576 3.2148 -0.6066
-1.1880 3.2418 -0.6192
-3.0205 2.4993 -0.2936
-2.9925 2.5348 -0.3099
-2.9712 2.5602 -0.3216
-2.9683 2.5880 -0.3340
-2.9537 2.5979 -0.3386
-2.9395 2.6095 -0.3441
-2.8045 2.4447 -0.2747
-2.7898 2.4480 -0.2765
-2.7760 2.4541 -0.2795
-2.7657 2.4715 -0.2874
-2.7481 2.4691 -0.2868
-2.7300 2.4649 -0.2853
-2.7143 2.4691 -0.2875
-2.6912 2.6294 -0.3587
-2.6658 2.6045 -0.3483
-2.6200 2.5613 -0.3304
-2.5559 3.1728 -0.6012
-2.5186 3.1419 -0.5885
-2.4800 3.1557 -0.5955
-2.4420 3.1546 -0.5959
-2.4022 3.1684 -0.6029
-2.3730 3.1089 -0.5774
-2.3421 3.0773 -0.5642
-2.3341 2.9505 -0.5085
-2.3029 2.9468 -0.5076
-2.2672 2.9598 -0.5142
-2.2361 2.9551 -0.5129
-2.1863 3.0058 -0.5364
-2.1312 3.0620 -0.5624
-2.0939 3.0655 -0.5648
-2.0603 3.0599 -0.5632
-2.0287 3.0506 -0.5598
-1.9424 3.0789 -0.5743
-1.9011 3.0870 -0.5788
-1.9461 2.8956 -0.4935
-1.9352 2.8646 -0.4801
-1.9018 2.8692 -0.4829
-1.8654 2.8775 -0.4874
-1.8278 2.8867 -0.4923
-1.7903 2.8949 -0.4968
-1.7921 2.8540 -0.4788
-1.4926 3.1274 -0.6062
-1.4719 3.1073 -0.5978
-1.3980 3.1452 -0.6163
-1.3787 3.1241 -0.6075
-1.3407 3.1231 -0.6079
-1.3074 3.1175 -0.6062
-1.2648 3.1209 -0.6087
-1.2159 3.1297 -0.6137
-3.0223 2.4971 -0.3117
-3.0055 2.5225 -0.3241
-2.9985 2.5389 -0.3321
-2.9875 2.5506 -0.3379
-2.9792 2.5679 -0.3463
-2.9687 2.5833 -0.3538
-2.9541 2.5931 -0.3588
-2.9414 2.6075 -0.3659
-2.8135 2.4606 -0.2995
-2.7998 2.4676 -0.3032
-2.7831 2.4680 -0.3038
-2.7687 2.4750 -0.3075
-2.7511 2.4736 -0.3072
-2.7166 2.4726 -0.3076
-2.7000 2.4749 -0.3091
-2.6917 2.6253 -0.3804
-2.6662 2.5996 -0.3689
-2.6211 2.5660 -0.3541
-2.5572 3.0706 -0.5944
-2.5211 3.0825 -0.6009
-2.4845 3.0907 -0.6057
-2.4496 3.0758 -0.5995
-2.4126 3.0840 -0.6043
-2.3779 3.0737 -0.6003
-2.3283 2.9716 -0.5532
-2.2956 2.9706 -0.5536
-2.2667 2.9560 -0.5473
-2.2251 2.9843 -0.5618
-2.1717 3.0420 -0.5903
-2.1201 3.0848 -0.6119
-2.0804 3.0920 -0.6162
-2.0513 3.0736 -0.6082
-2.0109 3.0817 -0.6131
-1.9704 3.0889 -0.6174
-1.9522 3.0532 -0.6010
-1.9069 3.0695 -0.6098
-1.8810 3.0512 -0.6018
-1.9693 2.8523 -0.5055
-1.7742 3.0481 -0.6030
-1.8220 2.8480 -0.5071
-1.7970 2.8418 -0.5048
-1.7777 2.8292 -0.4993
-1.4285 3.0650 -0.6194
-1.3876 3.0685 -0.6220
-1.3473 3.0710 -0.6242
-1.3241 3.0574 -0.6183
-3.0284 2.5005 -0.3326
-3.0188 2.5112 -0.3383
-3.0119 2.5266 -0.3463
-2.9995 2.5354 -0.3510
-2.9813 2.5661 -0.3670
-2.9679 2.5767 -0.3728
-2.9550 2.5892 -0.3794
-2.9407 2.6007 -0.3856
-2.8359 2.4683 -0.3212
-2.8200 2.4706 -0.3228
-2.8051 2.4757 -0.3257
-2.7906 2.4826 -0.3296
-2.7720 2.4794 -0.3284
-2.7544 2.4788 -0.3286
-2.7349 2.4719 -0.3256
-2.7193 2.4778 -0.3290
-2.6939 2.6304 -0.4069
-2.6693 2.6131 -0.3988
-2.6214 2.5604 -0.3733
-2.5582 2.9898 -0.5924
-2.5247 2.9926 -0.5946
-2.4915 2.9879 -0.5931
-2.4581 2.9870 -0.5934
-2.4268 2.9705 -0.5859
-2.3914 2.9851 -0.5942
-2.3580 2.9841 -0.5945
-2.3222 2.9941 -0.6005
-2.2894 2.9895 -0.5990
-2.2590 2.9776 -0.5938
-2.2269 2.9730 -0.5922
-2.1899 2.9830 -0.5982
-2.1551 2.9856 -0.6005
-2.1185 2.9919 -0.6046
-2.0895 2.9801 -0.5993
-2.0577 2.9755 -0.5978
-2.0225 2.9782 -0.6000
-1.9808 2.9926 -0.6084
-1.9535 2.9799 -0.6027
-1.9199 2.9789 -0.6030
-1.9823 2.8256 -0.5238
-1.8142 2.9832 -0.6079
-1.7719 2.9939 -0.6144
-1.7493 2.9777 -0.6067
-1.7361 2.9507 -0.5934
-1.7172 2.9327 -0.5848
-1.7655 2.7717 -0.5020
-1.7168 2.7932 -0.5142
-1.4679 2.9815 -0.6158
-1.4609 2.9547 -0.6024
-1.3911 2.9876 -0.6209
-3.0506 2.4805 -0.3410
-3.0422 2.4912 -0.3470
-3.0226 2.5116 -0.3585
-3.0155 2.5269 -0.3670
-3.0037 2.5366 -0.3725
-2.9930 2.5490 -0.3795
-2.9828 2.5633 -0.3875
-2.9683 2.5720 -0.3926
-2.8540 2.5013 -0.3574
-2.8345 2.4980 -0.3561
-2.8139 2.4920 -0.3534
-2.7952 2.4896 -0.3526
-2.7772 2.4891 -0.3528
-2.7556 2.4775 -0.3472
-2.7375 2.4752 -0.3464
-2.7236 2.4885 -0.3539
-2.7093 2.5036 -0.3624
-2.6940 2.6234 -0.4275
-2.5268 2.9448 -0.6055
-2.4954 2.9302 -0.5985
-2.4650 2.9157 -0.5914
-2.4318 2.9284 -0.5991
-2.3995 2.9302 -0.6010
-2.3669 2.9329 -0.6033
-2.3333 2.9392 -0.6076
-2.3029 2.9311 -0.6040
-2.2657 2.9482 -0.6142
-2.2332 2.9473 -0.6146
-2.1656 2.9517 -0.6188
-2.1443 2.9229 -0.6038
-1.9443 2.9317 -0.6138
-2.0010 2.7903 -0.5359
-1.8447 2.9325 -0.6169
-1.8253 2.9137 -0.6072
-1.7798 2.9306 -0.6176
-1.7367 2.9431 -0.6254
-1.7038 2.9421 -0.6258
-1.6885 2.9207 -0.6146
-1.7112 2.7638 -0.5293
-1.6965 2.7506 -0.5225
-3.0540 2.4802 -0.3600
-3.0470 2.4927 -0.3674
-3.0334 2.4977 -0.3706
-3.0229 2.5074 -0.3765
-3.0165 2.5235 -0.3859
-2.9934 2.5445 -0.3986
-2.9872 2.5651 -0.4106
-2.9726 2.6090 -0.4362
-2.8792 2.5105 -0.3822
-2.8627 2.5145 -0.3850
-2.8360 2.4966 -0.3754
-2.8197 2.5006 -0.3782
-2.7962 2.4873 -0.3711
-2.7756 2.4795 -0.3672
-2.7565 2.4753 -0.3653
-2.7383 2.4730 -0.3645
-2.7261 2.4925 -0.3761
-2.6978 2.6373 -0.4600
-2.6715 2.6131 -0.4468
-2.6472 2.5934 -0.4361
-2.5599 2.8731 -0.5991
-2.5289 2.8939 -0.6119
-2.4987 2.8831 -0.6065
-2.4690 2.8732 -0.6017
-2.4399 2.8633 -0.5968
-2.4098 2.8625 -0.5971
-2.3821 2.8499 -0.5907
-2.3518 2.8518 -0.5926
-2.3214 2.8536 -0.5944
-2.2854 2.8743 -0.6073
-2.2597 2.8582 -0.5988
-2.2306 2.8546 -0.5975
-2.1963 2.8654 -0.6046
-2.1708 2.8529 -0.5982
-2.1396 2.8547 -0.6001
-2.1109 2.8512 -0.5988
-2.0828 2.8468 -0.5970
-2.0462 2.8584 -0.6047
-2.0211 2.8486 -0.5998
-1.9933 2.8442 -0.5980
-1.8889 2.8629 -0.6116
-1.8538 2.8682 -0.6156
-1.8109 2.8833 -0.6255
-1.7846 2.8762 -0.6221
-1.7203 2.8771 -0.6244
-1.7003 2.8638 -0.6173
-1.6672 2.8656 -0.6192
-1.6568 2.8436 -0.6069
-1.6380 2.8313 -0.6003
-1.6345 2.8050 -0.5853
-1.6699 2.7436 -0.5491
-1.6295 2.7551 -0.5568
-3.0711 2.4757 -0.3764
-3.0574 2.4798 -0.3793
-3.0473 2.4885 -0.3849
-3.0380 2.4990 -0.3915
-3.0295 2.5113 -0.3993
-3.0175 2.5200 -0.4049
-2.9980 2.5464 -0.4215
-2.9928 2.5687 -0.4352
-2.9779 2.5772 -0.4408
-2.9666 2.5931 -0.4508
-2.9388 2.5806 -0.4440
-2.8781 2.5034 -0.3987
-2.8546 2.4929 -0.3930
-2.8351 2.4896 -0.3915
-2.8142 2.4827 -0.3879
-2.7944 2.4777 -0.3854
-2.7769 2.4781 -0.3862
-2.7581 2.4748 -0.3847
-2.7453 2.4906 -0.3947
-2.7563 2.6849 -0.5127
-2.7300 2.6752 -0.5075
-2.6998 2.6411 -0.4876
-2.6726 2.6125 -0.4709
-2.6466 2.5803 -0.4521
-2.5327 2.7971 -0.5873
-2.5039 2.8070 -0.5942
-2.4186 2.8046 -0.5951
-2.3612 2.8056 -0.5973
-2.3320 2.8075 -0.5993
-2.3034 2.8067 -0.5996
-2.2782 2.7952 -0.5933
-2.2462 2.8050 -0.6002
-2.1901 2.8007 -0.5992
-2.1331 2.7991 -0.5998
-2.1033 2.8009 -0.6018
-2.0641 2.8196 -0.6142
-2.0379 2.8134 -0.6113
-2.0041 2.8205 -0.6165
-2.0529 2.6980 -0.5406
-2.0067 2.7281 -0.5602
-1.8927 2.8093 -0.6128
-1.8576 2.8163 -0.6181
-1.8375 2.8041 -0.6112
-1.7766 2.8059 -0.6141
-1.7254 2.8296 -0.6300
-1.7136 2.8095 -0.6181
-1.6844 2.8087 -0.6184
-1.6578 2.8052 -0.6170
-1.6377 2.7957 -0.6118
-1.6928 2.7164 -0.5620
-1.6809 2.7026 -0.5539
-3.0689 2.4689 -0.3918
-3.0601 2.4785 -0.3982
-3.0529 2.4907 -0.4063
-3.0384 2.4948 -0.4093
-3.0278 2.5043 -0.4158
-3.0179 2.5156 -0.4233
-3.0008 2.5454 -0.4430
-2.9932 2.5639 -0.4552
-2.9799 2.5751 -0.4628
-2.9686 2.5909 -0.4732
-2.9467 2.5893 -0.4729
-2.8514 2.4814 -0.4062
-2.8329 2.4800 -0.4058
-2.8164 2.4831 -0.4083
-2.7979 2.4817 -0.4079
-2.7855 2.4965 -0.4178
-2.7700 2.5049 -0.4237
-2.7583 2.6856 -0.5404
-2.7298 2.6669 -0.5292
-2.7039 2.6555 -0.5226
-2.6735 2.6109 -0.4948
-2.6490 2.5924 -0.4836
-2.5341 2.7656 -0.5985
-2.5071 2.7595 -0.5954
-2.4804 2.7543 -0.5928
-2.4529 2.7579 -0.5960
-2.4257 2.7572 -0.5963
-2.4000 2.7493 -0.5919
-2.3715 2.7556 -0.5968
-2.3448 2.7531 -0.5960
-2.3157 2.7594 -0.6009
-2.2893 2.7559 -0.5995
-2.2548 2.7755 -0.6130
-2.1780 2.7581 -0.6041
-2.1519 2.7547 -0.6027
-2.1246 2.7539 -0.6030
-2.1002 2.7478 -0.5998
-2.0741 2.7453 -0.5989
-2.0460 2.7463 -0.6004
-2.0534 2.6921 -0.5653
-2.0321 2.6853 -0.5615
-1.9658 2.7422 -0.6001
-1.9206 2.7659 -0.6167
-1.8988 2.7572 -0.6118
-1.8613 2.7686 -0.6202
-1.8495 2.7487 -0.6077
-1.8091 2.7627 -0.6179
-1.7860 2.7567 -0.6147
-1.7493 2.7654 -0.6214
-1.7400 2.7455 -0.6089
-1.7205 2.7370 -0.6039
-1.6951 2.7345 -0.6031
-1.7072 2.6974 -0.5788
-1.6909 2.6880 -0.5733
-1.6742 2.6795 -0.5683
-3.0517 2.4847 -0.4228
-3.0423 2.4951 -0.4301
-3.0365 2.5108 -0.4410
-3.0030 2.5435 -0.4642
-2.9912 2.5556 -0.4728
-2.9775 2.5658 -0.4801
-2.9690 2.5859 -0.4941
-2.9511 2.5916 -0.4985
-2.9271 2.5865 -0.4957
-2.8445 2.5000 -0.4395
-2.8249 2.4977 -0.4385
-2.8069 2.4990 -0.4399
-2.7882 2.4984 -0.4401
-2.7703 2.5006 -0.4421
-2.7576 2.5197 -0.4555
-2.7618 2.6924 -0.5727
-2.7333 2.6756 -0.5622
-2.7053 2.6553 -0.5493
-2.6759 2.6191 -0.5255
-2.6494 2.5874 -0.5047
-2.6054 2.5773 -0.4992
-2.5619 2.7291 -0.6037
-2.5091 2.7303 -0.6061
-2.4832 2.7251 -0.6034
-2.4575 2.7199 -0.6007
-2.4299 2.7280 -0.6070
-2.4044 2.7228 -0.6042
-2.3772 2.7265 -0.6076
-2.3526 2.7187 -0.6030
-2.3269 2.7162 -0.6021
-2.2716 2.7235 -0.6087
-2.0647 2.7104 -0.6061
-2.0668 2.6663 -0.5760
-2.0593 2.6404 -0.5587
-2.0453 2.6258 -0.5492
-1.9496 2.7213 -0.6170
-1.9250 2.7179 -0.6155
-1.8793 2.7078 -0.6100
-1.7828 2.6962 -0.6050
-1.7507 2.7014 -0.6096
-1.7335 2.6921 -0.6037
-1.7142 2.6854 -0.5997
-1.7000 2.6743 -0.5927
-1.6776 2.6710 -0.5911
-3.0670 2.4775 -0.4377
-3.0470 2.4962 -0.4518
-3.0326 2.5011 -0.4557
-3.0033 2.5389 -0.4837
-2.9933 2.5535 -0.4945
-2.9795 2.5637 -0.5022
-2.9677 2.5783 -0.5130
-2.9535 2.5902 -0.5220
-2.9375 2.6002 -0.5297
-2.8354 2.5165 -0.4729
-2.8123 2.5071 -0.4669
-2.7905 2.4994 -0.4621
-2.7740 2.5060 -0.4673
-2.7607 2.5240 -0.4807
-2.7444 2.5359 -0.4897
-2.7342 2.6717 -0.5872
-2.7043 2.6428 -0.5674
-2.6755 2.6086 -0.5439
-2.6284 2.5852 -0.5286
-2.6067 2.5873 -0.5308
-2.5625 2.6844 -0.6017
-2.5376 2.6801 -0.5994
-2.4870 2.6849 -0.6044
-2.4627 2.6780 -0.6002
-2.4377 2.6773 -0.6005
-2.4128 2.6766 -0.6008
-2.3864 2.6820 -0.6055
-2.3640 2.6708 -0.5982
-2.3391 2.6701 -0.5984
-2.3149 2.6676 -0.5975
-2.2873 2.6747 -0.6034
-2.2623 2.6740 -0.6037
-2.2354 2.6776 -0.6071
-2.2123 2.6726 -0.6042
-2.1873 2.6719 -0.6045
-2.1591 2.6772 -0.6092
-2.1449 2.6566 -0.5949
-2.1132 2.6680 -0.6040
-2.0899 2.6647 -0.6024
-2.0938 2.6200 -0.5703
-2.0775 2.6090 -0.5629
-2.0506 2.6135 -0.5670
-2.0046 2.6429 -0.5895
-1.9655 2.6611 -0.6038
-1.8764 2.6753 -0.6167
-1.8386 2.6601 -0.6070
-1.8137 2.6594 -0.6073
-1.7765 2.6706 -0.6165
-1.7574 2.6639 -0.6123
-1.7351 2.6607 -0.6107
-1.7119 2.6582 -0.6097
-1.6938 2.6516 -0.6055
-3.0591 2.4844 -0.4638
-3.0517 2.4973 -0.4738
-3.0392 2.5047 -0.4798
-3.0147 2.5224 -0.4939
-2.9855 2.5677 -0.5290
-2.9692 2.5751 -0.5350
-2.9538 2.5851 -0.5431
-2.9388 2.5969 -0.5524
-2.8648 2.5329 -0.5066
-2.8330 2.5058 -0.4873
-2.8083 2.4920 -0.4777
-2.7898 2.4924 -0.4786
-2.7728 2.4971 -0.4827
-2.7402 2.5154 -0.4975
-2.7057 2.6426 -0.5943
-2.6764 2.6068 -0.5684
-2.6286 2.5784 -0.5486
-2.6071 2.5822 -0.5521
-2.5157 2.6336 -0.5938
-2.4910 2.6434 -0.6019
-2.4430 2.6420 -0.6024
-2.3724 2.6347 -0.5993
-2.3457 2.6436 -0.6068
-2.2524 2.6331 -0.6019
-2.1525 2.6380 -0.6089
-2.1309 2.6331 -0.6058
-2.1101 2.6272 -0.6021
-2.1010 2.6043 -0.5852
-2.0767 2.6053 -0.5867
-2.0461 2.6149 -0.5950
-2.0174 2.6211 -0.6005
-1.9869 2.6289 -0.6074
-1.8924 2.6245 -0.6071
-1.8734 2.6187 -0.6034
-1.8386 2.6290 -0.6123
-1.8162 2.6267 -0.6112
-1.7948 2.6234 -0.6095
-1.7783 2.6160 -0.6044
-1.7507 2.6187 -0.6074
-3.0734 2.4563 -0.4624
-3.0520 2.4929 -0.4920
-3.0306 2.5131 -0.5087
-3.0253 2.5320 -0.5238
-3.0145 2.5446 -0.5342
-2.9976 2.5493 -0.5384
-2.9831 2.5584 -0.5461
-2.9685 2.5684 -0.5545
-2.9593 2.5889 -0.5710
-2.8361 2.5075 -0.5108
-2.8126 2.4973 -0.5035
-2.7895 2.4863 -0.4956
-2.7713 2.4875 -0.4972
-2.7533 2.4895 -0.4994
-2.7356 2.4934 -0.5030
-2.7189 2.5024 -0.5107
-2.6853 2.5283 -0.5323
-2.6520 2.5836 -0.5771
-2.6290 2.5734 -0.5698
-2.6072 2.5728 -0.5700
-2.5865 2.6077 -0.5983
-2.5635 2.6208 -0.6095
-2.5402 2.6184 -0.6084
-2.5179 2.6022 -0.5963
-2.4949 2.6033 -0.5979
-2.4706 2.6130 -0.6064
-2.4491 2.6020 -0.5984
-2.4232 2.6168 -0.6110
-2.3778 2.6103 -0.6074
-2.3571 2.6011 -0.6008
-2.3336 2.6021 -0.6024
-2.2856 2.6060 -0.6070
-2.2424 2.5978 -0.6020
-2.2178 2.6006 -0.6050
-2.2028 2.5846 -0.5929
-2.1717 2.5992 -0.6055
-2.1496 2.5969 -0.6044
-2.1245 2.5996 -0.6074
-2.1014 2.5990 -0.6077
-2.0759 2.6017 -0.6107
-2.0514 2.6027 -0.6123
-2.0360 2.5919 -0.6043
-2.0022 2.6048 -0.6156
-1.9816 2.6007 -0.6131
-1.9598 2.5984 -0.6119
-1.9381 2.5960 -0.6108
-1.9118 2.5987 -0.6138
-1.8983 2.5879 -0.6058
-1.8737 2.5890 -0.6074
-1.8524 2.5866 -0.6063
-1.8313 2.5843 -0.6051
-1.8010 2.5903 -0.6109
-1.7836 2.5847 -0.6070
-1.7508 2.5924 -0.6142
-3.0769 2.4558 -0.4823
-2.9879 2.5606 -0.5722
-2.9715 2.5678 -0.5787
-2.9586 2.5821 -0.5910
-2.9148 2.5808 -0.5914
-2.8454 2.5230 -0.5460
-2.8144 2.4964 -0.5250
-2.7911 2.4854 -0.5167
-2.7694 2.4770 -0.5106
-2.7497 2.4730 -0.5079
-2.7316 2.4742 -0.5095
-2.7157 2.4841 -0.5182
-2.6987 2.4922 -0.5255
-2.6803 2.4959 -0.5293
-2.6302 2.5778 -0.5988
-2.6075 2.5677 -0.5912
-2.5862 2.5809 -0.6028
-2.5198 2.5747 -0.6000
-2.4969 2.5817 -0.6066
-2.4754 2.5751 -0.6019
-2.4528 2.5770 -0.6043
-2.4309 2.5747 -0.6031
-2.3872 2.5709 -0.6014
-2.3416 2.5738 -0.6055
-2.3187 2.5749 -0.6072
-2.2760 2.5694 -0.6041
-2.2519 2.5730 -0.6079
-2.2355 2.5605 -0.5981
-2.2082 2.5700 -0.6069
-2.1884 2.5652 -0.6036
-2.1404 2.5698 -0.6091
-2.1209 2.5650 -0.6058
-2.0988 2.5643 -0.6060
-2.0130 2.5584 -0.6041
-1.9939 2.5544 -0.6015
-1.9659 2.5605 -0.6075
-1.9485 2.5549 -0.6034
-1.9159 2.5651 -0.6130
-1.9028 2.5553 -0.6053
-1.8869 2.5488 -0.6005
-1.8650 2.5482 -0.6007
-1.8432 2.5475 -0.6010
-1.8166 2.5511 -0.6048
-3.0616 2.4734 -0.5189
-3.0505 2.4816 -0.5264
-3.0430 2.4950 -0.5383
-3.0320 2.5049 -0.5473
-3.0228 2.5183 -0.5592
-2.9933 2.5635 -0.5994
-2.9745 2.5672 -0.6033
-2.9494 2.5605 -0.5984
-2.9314 2.5660 -0.6037
-2.9035 2.5533 -0.5937
-2.8730 2.5336 -0.5778
-2.8454 2.5175 -0.5648
-2.8202 2.5048 -0.5547
-2.7692 2.4710 -0.5272
-2.7486 2.4644 -0.5223
-2.7314 2.4682 -0.5262
-2.7120 2.4642 -0.5234
-2.6941 2.4663 -0.5259
-2.6773 2.4743 -0.5334
-2.6279 2.5445 -0.5960
-2.6073 2.5524 -0.6036
-2.5859 2.5561 -0.6075
-2.5644 2.5495 -0.6026
-2.5431 2.5446 -0.5991
-2.5216 2.5474 -0.6023
-2.5003 2.5468 -0.6025
-2.4786 2.5487 -0.6050
-2.4578 2.5439 -0.6015
-2.4372 2.5399 -0.5988
-2.4156 2.5410 -0.6005
-2.3706 2.5482 -0.6084
-2.3479 2.5510 -0.6116
-2.3294 2.5419 -0.6044
-2.3094 2.5379 -0.6016
-2.2881 2.5373 -0.6019
-2.2633 2.5443 -0.6088
-2.2469 2.5336 -0.6001
-2.2266 2.5313 -0.5989
-2.2007 2.5391 -0.6065
-2.1595 2.5353 -0.6048
-2.1382 2.5347 -0.6050
-2.1018 2.5252 -0.5980
-2.0652 2.5446 -0.6161
-2.0611 2.5223 -0.5970
-2.0373 2.5250 -0.6002
-2.0133 2.5277 -0.6034
-1.9929 2.5263 -0.6029
-1.9615 2.5365 -0.6128
-1.9571 2.5185 -0.5974
-1.9336 2.5203 -0.5998
-1.9143 2.5181 -0.5986
-1.8870 2.5233 -0.6040
-1.8659 2.5227 -0.6043
-1.8437 2.5229 -0.6052
-3.0596 2.4665 -0.5345
-3.0544 2.4816 -0.5484
-3.0440 2.4915 -0.5577
-3.0323 2.5004 -0.5662
-3.0264 2.5180 -0.5824
-3.0174 2.5330 -0.5963
-2.9974 2.5333 -0.5972
-2.9366 2.5332 -0.5994
-2.8755 2.5332 -0.6016
-2.8481 2.5180 -0.5889
-2.8282 2.5183 -0.5899
-2.8029 2.5049 -0.5787
-2.7787 2.4923 -0.5682
-2.7506 2.4653 -0.5448
-2.7310 2.4613 -0.5419
-2.7098 2.4506 -0.5330
-2.6915 2.4492 -0.5324
-2.6556 2.4499 -0.5343
-2.6058 2.5195 -0.5992
-2.5852 2.5155 -0.5964
-2.5237 2.5172 -0.6001
-2.5030 2.5183 -0.6019
-2.4830 2.5135 -0.5982
-2.4612 2.5213 -0.6061
-2.4421 2.5123 -0.5987
-2.4205 2.5167 -0.6035
-2.4001 2.5153 -0.6030
-2.3607 2.5091 -0.5988
-2.3399 2.5094 -0.5998
-2.3209 2.5054 -0.5969
-2.2991 2.5082 -0.6002
-2.2790 2.5068 -0.5997
-2.2561 2.5112 -0.6045
-2.2405 2.5014 -0.5963
-2.2159 2.5083 -0.6034
-2.1954 2.5077 -0.6037
-2.1749 2.5072 -0.6039
-2.1566 2.5033 -0.6010
-2.1374 2.5010 -0.5997
-2.1133 2.5054 -0.6046
-2.0689 2.5084 -0.6089
-2.0538 2.5012 -0.6029
-2.0341 2.4997 -0.6024
-2.0160 2.4967 -0.6003
-2.0044 2.4870 -0.5920
-1.9778 2.4931 -0.5984
-1.9626 2.4875 -0.5940
-1.9338 2.4952 -0.6019
-1.9054 2.5020 -0.6091
-1.8811 2.5047 -0.6124
-1.8604 2.5041 -0.6127
-1.8475 2.4969 -0.6067
-3.2175 1.1203 -0.5970
-3.1949 1.1220 -0.5949
-3.1567 1.1192 -0.5968
-3.1367 1.1185 -0.5970
-3.1130 1.1218 -0.5934
-3.0946 1.1196 -0.5951
-3.0747 1.1190 -0.5954
-3.0529 1.1207 -0.5932
-3.0318 1.1216 -0.5919
-3.0102 1.1234 -0.5898
-2.9940 1.1180 -0.5946
-2.9326 1.1192 -0.5922
-2.9142 1.1162 -0.5947
-2.8962 1.1124 -0.5980
-2.8734 1.1173 -0.5928
-2.7536 1.1183 -0.5894
-2.7328 1.1226 -0.5849
-2.7109 1.1325 -0.5750
-2.6070 1.2777 -0.4345
-2.5930 1.2788 -0.4331
-2.5789 1.2580 -0.4527
-2.4219 1.1100 -0.5905
-2.3986 1.0970 -0.6024
-2.3793 1.0980 -0.6011
-2.3220 1.1011 -0.5970
-2.3011 1.0980 -0.5995
-2.2805 1.0957 -0.6013
-2.2616 1.0967 -0.5999
-2.2395 1.0919 -0.6041
-2.1798 1.0899 -0.6047
-2.1599 1.0893 -0.6049
-2.1413 1.0903 -0.6035
-2.1215 1.0897 -0.6037
-2.1043 1.0924 -0.6008
-2.0867 1.0943 -0.5987
-2.0664 1.0928 -0.5997
-2.0421 1.0871 -0.6046
-2.0223 1.0865 -0.6048
-2.0033 1.0867 -0.6042
-1.9852 1.0877 -0.6028
-1.9637 1.0854 -0.6046
-1.9403 1.0814 -0.6080
-1.9204 1.0807 -0.6082
-3.1529 1.0962 -0.5935
-3.1309 1.0971 -0.5922
-3.1075 1.0996 -0.5894
-3.0837 1.1030 -0.5859
-3.0634 1.1023 -0.5861
-3.0444 1.1001 -0.5878
-3.0259 1.0970 -0.5903
-3.0009 1.1028 -0.5845
-2.9824 1.0997 -0.5870
-2.9637 1.0966 -0.5894
-2.9429 1.0968 -0.5889
-2.9226 1.0961 -0.5891
-2.9023 1.0955 -0.5893
-2.8808 1.0972 -0.5873
-2.8594 1.0990 -0.5852
-2.8393 1.0984 -0.5855
-2.8191 1.0977 -0.5857
-2.7999 1.0946 -0.5881
-2.7805 1.0915 -0.5906
-2.7587 1.0958 -0.5863
-2.7349 1.1090 -0.5738
-2.6069 1.2754 -0.4196
-2.5929 1.2791 -0.4160
-2.5790 1.2696 -0.4244
-2.5643 1.2543 -0.4381
-2.5285 1.1921 -0.4940
-2.4708 1.1532 -0.5284
-2.3968 1.0857 -0.5886
-2.3752 1.0808 -0.5926
-2.3538 1.0769 -0.5958
-2.3338 1.0770 -0.5952
-2.3153 1.0806 -0.5917
-2.2944 1.0782 -0.5934
-2.2729 1.0751 -0.5959
-2.2512 1.0719 -0.5984
-2.2308 1.0712 -0.5986
-2.2130 1.0748 -0.5950
-2.1933 1.0749 -0.5945
-2.1708 1.0709 -0.5977
-2.1510 1.0711 -0.5972
-2.1307 1.0704 -0.5974
-2.1117 1.0715 -0.5961
-2.0935 1.0734 -0.5940
-2.0719 1.0710 -0.5957
-2.0510 1.0695 -0.5967
-2.0307 1.0689 -0.5969
-2.0089 1.0665 -0.5986
-1.9878 1.0650 -0.5996
-1.9683 1.0652 -0.5991
-1.9480 1.0645 -0.5993
-1.9277 1.0639 -0.5995
-1.9046 1.0606 -0.6020
-3.2643 1.0666 -0.5965
-3.2445 1.0643 -0.5981
-3.2213 1.0652 -0.5969
-3.1975 1.0669 -0.5950
-3.1730 1.0695 -0.5923
-3.1480 1.0728 -0.5890
-3.1290 1.0697 -0.5913
-3.1091 1.0674 -0.5930
-3.0892 1.0651 -0.5947
-3.0666 1.0660 -0.5934
-3.0465 1.0637 -0.5951
-3.0263 1.0614 -0.5968
-3.0049 1.0607 -0.5970
-2.9825 1.0616 -0.5958
-2.9622 1.0593 -0.5974
-2.9366 1.0660 -0.5912
-2.9168 1.0628 -0.5936
-2.8943 1.0646 -0.5916
-2.8739 1.0623 -0.5933
-2.8538 1.0591 -0.5957
-2.8325 1.0584 -0.5959
-2.8088 1.0643 -0.5903
-2.7845 1.0735 -0.5819
-2.6217 1.2621 -0.4148
-2.6067 1.2749 -0.4033
-2.5928 1.2794 -0.3991
-2.5790 1.2673 -0.4094
-2.5645 1.2544 -0.4204
-2.5493 1.2439 -0.4293
-2.5107 1.1786 -0.4855
-2.3456 1.0493 -0.5952
-2.3242 1.0478 -0.5961
-2.3035 1.0479 -0.5956
-2.2832 1.0489 -0.5944
-2.2588 1.0415 -0.6004
-2.2349 1.0357 -0.6050
-2.2154 1.0384 -0.6023
-2.1992 1.0462 -0.5952
-2.1755 1.0413 -0.5991
-2.1527 1.0381 -0.6015
-2.1279 1.0323 -0.6061
-2.1078 1.0333 -0.6049
-2.0890 1.0360 -0.6022
-2.0678 1.0353 -0.6024
-2.0487 1.0372 -0.6004
-2.0224 1.0305 -0.6058
-2.0011 1.0298 -0.6060
-1.9813 1.0308 -0.6048
-1.9584 1.0284 -0.6065
-1.9405 1.0312 -0.6037
-1.9201 1.0313 -0.6032
-1.8989 1.0307 -0.6035
-1.8768 1.0291 -0.6044
-3.1892 1.0464 -0.5864
-3.1673 1.0457 -0.5866
-3.1426 1.0483 -0.5841
-3.1201 1.0484 -0.5836
-3.0991 1.0469 -0.5845
-3.0786 1.0445 -0.5861
-3.0361 1.0415 -0.5880
-2.9914 1.0417 -0.5870
-2.9705 1.0394 -0.5886
-2.9477 1.0403 -0.5875
-2.9246 1.0421 -0.5856
-2.9033 1.0405 -0.5866
-2.8594 1.0400 -0.5863
-2.8364 1.0426 -0.5838
-2.8160 1.0385 -0.5868
-2.6565 1.2189 -0.4342
-2.6375 1.2460 -0.4114
-2.6214 1.2606 -0.3990
-2.6064 1.2761 -0.3859
-2.5928 1.2739 -0.3874
-2.5790 1.2651 -0.3946
-2.5644 1.2478 -0.4087
-2.5496 1.2432 -0.4123
-2.5328 1.2233 -0.4285
-2.5156 1.2093 -0.4399
-2.3163 1.0223 -0.5920
-2.2953 1.0233 -0.5908
-2.2737 1.0226 -0.5910
-2.2512 1.0202 -0.5927
-2.2290 1.0187 -0.5936
-2.2063 1.0163 -0.5952
-2.1855 1.0173 -0.5940
-2.1643 1.0174 -0.5936
-2.1178 1.0117 -0.5975
-2.0960 1.0110 -0.5978
-2.0741 1.0103 -0.5980
-2.0522 1.0096 -0.5982
-2.0318 1.0106 -0.5970
-1.9632 1.0050 -0.6006
-1.9413 1.0043 -0.6008
-1.9227 1.0071 -0.5982
-1.9009 1.0064 -0.5984
-1.8818 1.0083 -0.5965
-1.8573 1.0049 -0.5989
-3.2967 1.0023 -0.5971
-3.2735 1.0016 -0.5974
-3.2438 1.0074 -0.5923
-3.2162 1.0116 -0.5886
-3.1978 1.0059 -0.5928
-3.1748 1.0052 -0.5930
-3.1275 1.0053 -0.5922
-3.1096 0.9980 -0.5977
-3.0852 0.9989 -0.5966
-3.0621 0.9981 -0.5969
-3.0368 1.0007 -0.5945
-3.0138 0.9999 -0.5947
-2.9918 0.9975 -0.5963
-2.9668 1.0001 -0.5938
-2.9465 0.9944 -0.5981
-2.9218 0.9969 -0.5957
-2.8995 0.9945 -0.5972
-2.8765 0.9938 -0.5975
-2.8514 0.9981 -0.5937
-2.6968 1.1744 -0.4517
-2.6738 1.2058 -0.4265
-2.6369 1.2461 -0.3940
-2.6208 1.2634 -0.3800
-2.6060 1.2782 -0.3681
-2.5926 1.2752 -0.3703
-2.5791 1.2663 -0.3771
-2.5648 1.2540 -0.3867
-2.5497 1.2416 -0.3962
-2.5333 1.2241 -0.4098
-2.5158 1.2066 -0.4234
-2.4974 1.1899 -0.4364
-2.2813 0.9847 -0.5956
-2.2554 0.9770 -0.6013
-2.2316 0.9746 -0.6029
-2.2068 0.9704 -0.6058
-2.1836 0.9696 -0.6060
-2.1636 0.9741 -0.6022
-2.1396 0.9716 -0.6038
-2.1165 0.9708 -0.6041
-2.0924 0.9684 -0.6057
-2.0705 0.9693 -0.6045
-2.0475 0.9686 -0.6048
-2.0272 0.9713 -0.6023
-2.0086 0.9758 -0.5985
-1.9866 0.9759 -0.5980
-1.9585 0.9691 -0.6030
-1.9325 0.9649 -0.6060
-1.9111 0.9659 -0.6049
-1.8865 0.9634 -0.6065
-1.8635 0.9626 -0.6067
-1.8369 0.9584 -0.6097
-1.8101 0.9541 -0.6126
-3.0310 0.9659 -0.5937
-3.0041 0.9701 -0.5901
-2.9328 0.9678 -0.5908
-2.9075 0.9704 -0.5885
-2.8821 0.9739 -0.5856
-2.8573 0.9765 -0.5832
-2.6928 1.1875 -0.4220
-2.6530 1.2324 -0.3876
-2.6362 1.2481 -0.3755
-2.6059 1.2753 -0.3546
-2.5926 1.2732 -0.3560
-2.5791 1.2685 -0.3594
-2.5650 1.2552 -0.3692
-2.5344 1.2302 -0.3875
-2.4984 1.1914 -0.4163
-2.4801 1.1797 -0.4248
-2.4583 1.1559 -0.4424
-2.2824 0.9809 -0.5718
-2.2506 0.9602 -0.5870
-2.2218 0.9482 -0.5957
-2.1963 0.9439 -0.5985
-2.1745 0.9466 -0.5962
-2.1519 0.9476 -0.5951
-2.1283 0.9469 -0.5954
-2.1047 0.9461 -0.5956
-2.0811 0.9453 -0.5958
-2.0606 0.9489 -0.5928
-2.0358 0.9464 -0.5944
-2.0090 0.9413 -0.5979
-1.9839 0.9388 -0.5994
-1.9587 0.9362 -0.6010
-1.9096 0.9329 -0.6028
-1.8858 0.9322 -0.6030
-1.8654 0.9349 -0.6007
-1.8478 0.9403 -0.5963
-1.8216 0.9369 -0.5986
-3.3818 0.9318 -0.5948
-3.3523 0.9351 -0.5920
-3.3273 0.9343 -0.5923
-3.3006 0.9352 -0.5913
-3.2795 0.9302 -0.5946
-3.2559 0.9277 -0.5961
-3.2307 0.9269 -0.5964
-3.2069 0.9244 -0.5979
-3.1803 0.9252 -0.5969
-3.1539 0.9261 -0.5959
-3.1270 0.9278 -0.5944
-3.1060 0.9211 -0.5989
-3.0785 0.9236 -0.5967
-3.0518 0.9254 -0.5952
-3.0233 0.9305 -0.5911
-2.9985 0.9297 -0.5914
-2.9710 0.9340 -0.5880
-2.9500 0.9255 -0.5937
-2.9224 0.9307 -0.5897
-2.8913 0.9452 -0.5789
-2.7443 1.1182 -0.4533
-2.7145 1.1621 -0.4215
-2.6928 1.1829 -0.4062
-2.6355 1.2492 -0.3581
-2.6198 1.2669 -0.3453
-2.6058 1.2733 -0.3405
-2.5925 1.2746 -0.3394
-2.5791 1.2655 -0.3457
-2.5650 1.2521 -0.3551
-2.5340 1.2227 -0.3758
-2.5180 1.2135 -0.3821
-2.4988 1.1896 -0.3990
-2.2128 0.9232 -0.5860
-2.1773 0.9005 -0.6018
-2.1514 0.8979 -0.6033
-2.1254 0.8953 -0.6048
-2.0987 0.8919 -0.6070
-2.0764 0.8955 -0.6041
-2.0526 0.8964 -0.6031
-2.0277 0.8956 -0.6034
-2.0015 0.8930 -0.6049
-1.9765 0.8922 -0.6051
-1.9515 0.8914 -0.6054
-1.9280 0.8924 -0.6044
-1.9031 0.8916 -0.6047
-1.8805 0.8934 -0.6031
-1.8532 0.8900 -0.6052
-1.8266 0.8874 -0.6067
-1.8016 0.8866 -0.6070
-1.7766 0.8857 -0.6072
-1.7516 0.8849 -0.6075
-3.2629 0.8817 -0.5984
-3.2081 0.8825 -0.5972
-3.1554 0.8808 -0.5978
-3.1290 0.8800 -0.5980
-3.0643 0.8979 -0.5851
-3.0367 0.9005 -0.5831
-3.0050 0.9108 -0.5757
-2.9820 0.9057 -0.5789
-2.9586 0.9006 -0.5821
-2.9312 0.9040 -0.5794
-2.8959 0.9273 -0.5633
-2.7130 1.1634 -0.4009
-2.6530 1.2241 -0.3590
-2.6352 1.2479 -0.3427
-2.6195 1.2665 -0.3299
-2.6052 1.2800 -0.3206
-2.5922 1.2796 -0.3207
-2.5791 1.2661 -0.3297
-2.5652 1.2535 -0.3381
-2.5348 1.2264 -0.3561
-2.5188 1.2154 -0.3634
-2.5004 1.1948 -0.3772
-2.4811 1.1759 -0.3898
-2.4601 1.1543 -0.4042
-2.4406 1.1441 -0.4109
-2.3940 1.1051 -0.4368
-2.1723 0.8838 -0.5844
-2.1389 0.8679 -0.5948
-1.8482 0.8498 -0.6037
-1.8021 0.8544 -0.6001
-1.7807 0.8580 -0.5974
-3.4067 0.8386 -0.5975
-3.3750 0.8420 -0.5950
-3.3536 0.8343 -0.5997
-3.3176 0.8428 -0.5939
-3.2923 0.8393 -0.5958
-3.2647 0.8384 -0.5961
-3.2385 0.8358 -0.5975
-3.2077 0.8392 -0.5950
-3.1766 0.8434 -0.5920
-3.1510 0.8400 -0.5939
-3.1236 0.8391 -0.5942
-3.0946 0.8408 -0.5928
-3.0673 0.8399 -0.5931
-3.0376 0.8433 -0.5906
-3.0113 0.8407 -0.5920
-2.9722 0.8649 -0.5761
-2.9342 0.8900 -0.5595
-2.7367 1.1348 -0.4003
-2.7147 1.1517 -0.3892
-2.6696 1.2108 -0.3508
-2.6348 1.2475 -0.3269
-2.6194 1.2637 -0.3164
-2.6052 1.2764 -0.3081
-2.5922 1.2786 -0.3065
-2.5791 1.2659 -0.3145
-2.5653 1.2523 -0.3231
-2.5508 1.2413 -0.3301
-2.5186 1.2103 -0.3496
-2.4625 1.1602 -0.3812
-2.4416 1.1428 -0.3921
-2.4201 1.1272 -0.4019
-2.3931 1.0974 -0.4208
-2.3681 1.0781 -0.4329
-2.1287 0.8420 -0.5820
-2.0892 0.8179 -0.5971
-2.0579 0.8098 -0.6020
-2.0307 0.8089 -0.6022
-2.0034 0.8080 -0.6025
-1.9743 0.8045 -0.6045
-1.9431 0.7982 -0.6082
-1.9122 0.7928 -0.6114
-1.8846 0.7919 -0.6117
-1.8606 0.7955 -0.6091
-1.8354 0.7973 -0.6077
-1.8080 0.7964 -0.6079
-1.7806 0.7955 -0.6082
-1.7557 0.7974 -0.6068
-1.7284 0.7965 -0.6071
-1.7038 0.7983 -0.6056
-3.4572 0.7785 -0.6031
-3.4230 0.7827 -0.6002
-3.3938 0.7817 -0.6005
-3.3668 0.7782 -0.6024
-3.3331 0.7824 -0.5995
-3.3012 0.7849 -0.5977
-3.1444 0.7985 -0.5881
-3.1144 0.8002 -0.5868
-3.0227 0.8105 -0.5797
-2.9820 0.8366 -0.5634
-2.7589 1.1156 -0.3923
-2.7357 1.1335 -0.3812
-2.7121 1.1575 -0.3664
-2.6692 1.2084 -0.3352
-2.6345 1.2463 -0.3119
-2.6051 1.2754 -0.2939
-2.5792 1.2675 -0.2985
-2.5655 1.2546 -0.3062
-2.5512 1.2436 -0.3128
-2.5358 1.2280 -0.3221
-2.4420 1.1399 -0.3746
-2.4175 1.1134 -0.3904
-2.3942 1.0958 -0.4009
-2.3696 1.0773 -0.4119
-2.3089 1.0204 -0.4458
-2.0892 0.8103 -0.5711
-2.0455 0.7814 -0.5883
-2.0092 0.7670 -0.5967
-3.4598 0.7346 -0.5952
-3.4270 0.7362 -0.5940
-3.3965 0.7353 -0.5943
-3.3661 0.7343 -0.5946
-3.3356 0.7333 -0.5950
-3.3032 0.7349 -0.5938
-3.2747 0.7313 -0.5956
-3.2401 0.7364 -0.5924
-3.2098 0.7355 -0.5927
-3.1757 0.7406 -0.5895
-3.1457 0.7396 -0.5898
-3.1156 0.7387 -0.5901
-3.0828 0.7430 -0.5874
-3.0305 0.7869 -0.5619
-2.8153 1.0570 -0.4059
-2.7581 1.1132 -0.3733
-2.6871 1.1914 -0.3281
-2.6684 1.2086 -0.3181
-2.6500 1.2313 -0.3050
-2.6342 1.2442 -0.2976
-2.6189 1.2615 -0.2875
-2.6048 1.2763 -0.2790
-2.5920 1.2768 -0.2786
-2.5792 1.2665 -0.2843
-2.5657 1.2554 -0.2906
-2.5515 1.2433 -0.2974
-2.5197 1.2101 -0.3161
-2.5030 1.1979 -0.3229
-2.4651 1.1627 -0.3427
-2.4434 1.1405 -0.3552
-2.4234 1.1292 -0.3615
-2.3746 1.0865 -0.3855
-2.3425 1.0497 -0.4063
-2.3118 1.0219 -0.4219
-1.9736 0.7016 -0.6020
-1.9436 0.7007 -0.6023
-1.9110 0.6960 -0.6047
-1.8789 0.6923 -0.6066
-1.8460 0.6877 -0.6090
-1.8205 0.6931 -0.6057
-1.7904 0.6921 -0.6060
-1.7579 0.6884 -0.6078
-1.7300 0.6902 -0.6066
-1.6974 0.6864 -0.6085
-1.6756 0.6946 -0.6036
-1.6482 0.6964 -0.6024
-1.6184 0.6955 -0.6027
-1.5885 0.6945 -0.6030
-3.5623 0.6510 -0.6069
-3.5262 0.6534 -0.6053
-3.4934 0.6524 -0.6056
-3.4605 0.6513 -0.6060
-3.4219 0.6573 -0.6025
-3.3838 0.6633 -0.5991
-3.3488 0.6657 -0.5975
-3.3140 0.6682 -0.5959
-3.1477 0.6727 -0.5923
-2.7800 1.0972 -0.3621
-2.7561 1.1144 -0.3526
-2.7061 1.1732 -0.3208
-2.6854 1.1951 -0.3089
-2.6671 1.2116 -0.2999
-2.6490 1.2345 -0.2875
-2.6332 1.2493 -0.2794
-2.6184 1.2633 -0.2719
-2.6046 1.2772 -0.2643
-2.5920 1.2741 -0.2659
-2.5792 1.2683 -0.2689
-2.5658 1.2543 -0.2763
-2.5519 1.2458 -0.2808
-2.5027 1.1919 -0.3093
-2.4861 1.1841 -0.3134
-2.4475 1.1522 -0.3302
-2.4239 1.1262 -0.3440
-2.3755 1.0841 -0.3663
-2.3448 1.0506 -0.3840
-2.3184 1.0326 -0.3935
-2.2467 0.9627 -0.4305
-1.9412 0.6886 -0.5754
-1.8961 0.6655 -0.5875
-3.6037 0.5977 -0.5976
-3.5694 0.5966 -0.5980
-3.5319 0.5990 -0.5965
-3.4977 0.5979 -0.5969
-3.4663 0.5933 -0.5990
-3.4265 0.5992 -0.5958
-3.3891 0.6026 -0.5939
-3.3583 0.5970 -0.5965
-3.3187 0.6039 -0.5928
-3.2900 0.5948 -0.5972
-3.2488 0.6053 -0.5917
-3.2103 0.6122 -0.5880
-2.8107 1.0585 -0.3614
-2.7523 1.1221 -0.3292
-2.6854 1.1908 -0.2942
-2.6487 1.2324 -0.2731
-2.6330 1.2473 -0.2655
-2.6178 1.2669 -0.2556
-2.6045 1.2737 -0.2521
-2.5919 1.2733 -0.2522
-2.5792 1.2665 -0.2556
-2.5660 1.2561 -0.2607
-2.5519 1.2420 -0.2677
-2.5370 1.2288 -0.2743
-2.5039 1.1950 -0.2911
-2.4868 1.1835 -0.2968
-2.4671 1.1629 -0.3070
-2.4244 1.1233 -0.3266
-2.4030 1.1089 -0.3337
-2.3777 1.0854 -0.3454
-2.3479 1.0535 -0.3613
-2.3229 1.0381 -0.3688
-2.2886 1.0034 -0.3861
-2.2527 0.9695 -0.4029
-2.1743 0.9006 -0.4371
-1.9435 0.6839 -0.5446
-1.9110 0.6792 -0.5467
-1.7722 0.5692 -0.6012
-1.7325 0.5598 -0.6057
-1.6988 0.5587 -0.6061
-1.6652 0.5576 -0.6064
-1.6316 0.5565 -0.6068
-1.5979 0.5554 -0.6071
-1.5719 0.5627 -0.6033
-1.5385 0.5617 -0.6036
-1.5051 0.5606 -0.6040
-3.6956 0.4893 -0.6114
-3.6542 0.4926 -0.6097
-3.6122 0.4967 -0.6075
-3.5796 0.4902 -0.6104
-3.5459 0.4845 -0.6130
-3.4871 0.5110 -0.6002
-3.3269 0.5278 -0.5916
-3.2938 0.5222 -0.5941
-2.7256 1.1512 -0.2963
-2.6835 1.1957 -0.2753
-2.6655 1.2126 -0.2673
-2.6043 1.2748 -0.2378
-2.5917 1.2762 -0.2371
-2.5792 1.2666 -0.2415
-2.5662 1.2579 -0.2455
-2.5524 1.2465 -0.2508
-2.5371 1.2258 -0.2605
-2.5219 1.2152 -0.2653
-2.4701 1.1723 -0.2852
-2.4045 1.1087 -0.3147
-2.3527 1.0612 -0.3368
-2.3254 1.0392 -0.3470
-2.2556 0.9700 -0.3791
-2.2211 0.9423 -0.3919
-1.9411 0.6718 -0.5174
-1.9066 0.6643 -0.5208
-1.7749 0.5637 -0.5673
-1.7022 0.5100 -0.5922
-1.6074 0.4766 -0.6074
-3.6885 0.4435 -0.5908
-3.6539 0.4378 -0.5932
-3.5766 0.4353 -0.5940
-3.5346 0.4385 -0.5924
-3.4538 0.4415 -0.5908
-3.4124 0.4448 -0.5893
-3.3743 0.4435 -0.5897
-2.9599 0.9018 -0.3883
-2.9162 0.9447 -0.3694
-2.7246 1.1503 -0.2790
-2.6480 1.2292 -0.2443
-2.6311 1.2564 -0.2324
-2.6172 1.2662 -0.2281
-2.5916 1.2783 -0.2227
-2.5793 1.2686 -0.2269
-2.5663 1.2571 -0.2318
-2.5524 1.2428 -0.2380
-2.5375 1.2256 -0.2455
-2.5057 1.1987 -0.2571
-2.4878 1.1806 -0.2649
-2.4688 1.1624 -0.2728
-2.4486 1.1432 -0.2811
-2.4298 1.1334 -0.2853
-2.4056 1.1076 -0.2964
-2.3578 1.0700 -0.3127
-2.3236 1.0291 -0.3304
-2.2977 1.0135 -0.3371
-2.2628 0.9800 -0.3516
-2.0873 0.8161 -0.4224
-2.0486 0.7936 -0.4321
-1.9606 0.6946 -0.4749
-1.9152 0.6690 -0.4859
-1.5956 0.4062 -0.5993
-1.5459 0.3898 -0.6063
-1.5079 0.3885 -0.6067
-1.4699 0.3873 -0.6071
-1.4318 0.3861 -0.6075
-1.3842 0.3744 -0.6124
-1.3504 0.3779 -0.6108
-3.7893 0.3186 -0.6002
-3.7574 0.3054 -0.6054
-3.7105 0.3095 -0.6037
-3.6777 0.2963 -0.6089
-3.6213 0.3131 -0.6020
-3.5668 0.3291 -0.5954
-3.5209 0.3341 -0.5932
-3.4796 0.3328 -0.5937
-2.8372 1.0245 -0.3127
-2.7232 1.1513 -0.2611
-2.7019 1.1730 -0.2523
-2.6639 1.2138 -0.2358
-2.6464 1.2365 -0.2265
-2.6311 1.2519 -0.2203
-2.6168 1.2682 -0.2136
-2.6039 1.2752 -0.2108
-2.5916 1.2749 -0.2109
-2.5793 1.2670 -0.2140
-2.5527 1.2437 -0.2234
-2.5385 1.2321 -0.2280
-2.5230 1.2167 -0.2342
-2.4709 1.1674 -0.2540
-2.4516 1.1509 -0.2606
-2.4064 1.1056 -0.2787
-2.3833 1.0872 -0.2861
-2.3591 1.0687 -0.2935
-2.3000 1.0136 -0.3156
-2.2641 0.9770 -0.3303
-2.0856 0.8061 -0.3988
-1.9276 0.6798 -0.4494
-1.4896 0.3084 -0.5982
-1.4354 0.2898 -0.6056
-1.3899 0.2827 -0.6083
-1.3492 0.2814 -0.6087
-1.3084 0.2801 -0.6092
-3.6348 0.2229 -0.5909
-3.5854 0.2288 -0.5886
-3.4916 0.3029 -0.5609
-2.7742 1.0893 -0.2672
-2.7006 1.1743 -0.2354
-2.6461 1.2346 -0.2129
-2.6306 1.2529 -0.2060
-2.6165 1.2675 -0.2006
-2.5915 1.2743 -0.1980
-2.5792 1.2626 -0.2024
-2.5664 1.2537 -0.2057
-2.5531 1.2457 -0.2086
-2.5389 1.2330 -0.2133
-2.5239 1.2194 -0.2183
-2.4715 1.1660 -0.2381
-2.4536 1.1551 -0.2422
-2.3342 1.0459 -0.2826
-2.3068 1.0243 -0.2906
-2.2355 0.9543 -0.3165
-2.1435 0.8601 -0.3514
-2.0513 0.7837 -0.3796
-1.9276 0.6716 -0.4212
-1.8833 0.6485 -0.4297
-1.3574 0.1829 -0.6020
-1.3198 0.1882 -0.6000
-1.2707 0.1801 -0.6029
-1.2213 0.1719 -0.6059
-1.1778 0.1705 -0.6063
-4.0647 0.0367 -0.6077
-4.0149 0.0351 -0.6082
-3.9650 0.0335 -0.6088
-3.9010 0.0495 -0.6033
-3.8653 0.0303 -0.6098
-3.8217 0.0203 -0.6132
-3.7656 0.0270 -0.6108
-2.6986 1.1786 -0.2178
-2.6610 1.2229 -0.2027
-2.6456 1.2347 -0.1987
-2.6164 1.2660 -0.1880
-2.6035 1.2750 -0.1849
-2.5914 1.2765 -0.1844
-2.5667 1.2577 -0.1908
-2.5390 1.2303 -0.2001
-2.5241 1.2175 -0.2045
-2.4731 1.1694 -0.2208
-2.4529 1.1478 -0.2281
-2.4336 1.1339 -0.2329
-2.3880 1.0917 -0.2472
-2.3618 1.0662 -0.2559
-2.3390 1.0531 -0.2604
-2.3087 1.0237 -0.2704
-2.1516 0.8688 -0.3230
-2.1167 0.8478 -0.3302
-1.9393 0.6818 -0.3866
-1.8897 0.6498 -0.3975
-1.7323 0.5129 -0.4440
-1.1552 0.0344 -0.6067
-1.1080 0.0328 -0.6072
-3.7841 -0.0130 -0.5710
-3.6758 0.0705 -0.5452
-2.7411 1.1318 -0.2166
-2.6605 1.2219 -0.1887
-2.6441 1.2414 -0.1826
-2.6300 1.2515 -0.1795
-2.6031 1.2793 -0.1709
-2.5793 1.2661 -0.1750
-2.5667 1.2561 -0.1781
-2.5392 1.2294 -0.1864
-2.5240 1.2127 -0.1916
-2.4925 1.1897 -0.1987
-2.4745 1.1719 -0.2043
-2.4545 1.1502 -0.2110
-2.4352 1.1353 -0.2156
-2.3895 1.0917 -0.2291
-2.3656 1.0718 -0.2353
-2.2422 0.9569 -0.2710
-2.2026 0.9184 -0.2829
-2.1709 0.8992 -0.2889
-2.1215 0.8498 -0.3042
-1.9468 0.6854 -0.3552
-1.9039 0.6630 -0.3622
-1.8193 0.5819 -0.3874
-1.7499 0.5280 -0.4041
-1.6701 0.4643 -0.4239
-1.0969 -0.0466 -0.5825
-0.9991 -0.1033 -0.6001
-0.9484 -0.1049 -0.6006
-4.2391 -0.3275 -0.6057
-4.1793 -0.3294 -0.6064
-4.1103 -0.3191 -0.6036
-3.9985 -0.2495 -0.5843
-3.8574 -0.1317 -0.5515
-2.6769 1.2042 -0.1795
-2.6601 1.2200 -0.1751
-2.6438 1.2397 -0.1696
-2.6159 1.2649 -0.1626
-2.6031 1.2770 -0.1592
-2.5912 1.2766 -0.1594
-2.5793 1.2666 -0.1622
-2.5669 1.2575 -0.1647
-2.5538 1.2465 -0.1678
-2.5251 1.2185 -0.1757
-2.5090 1.2007 -0.1807
-2.4942 1.1954 -0.1822
-2.4763 1.1765 -0.1875
-2.4584 1.1624 -0.1915
-2.4364 1.1357 -0.1990
-2.4149 1.1157 -0.2046
-2.3908 1.0908 -0.2116
-2.3202 1.0413 -0.2255
-2.2445 0.9560 -0.2495
-2.1698 0.8909 -0.2678
-2.1258 0.8510 -0.2790
-2.0902 0.8296 -0.2851
-1.9635 0.7041 -0.3204
-1.7470 0.5149 -0.3736
-0.8189 -0.2620 -0.5921
-4.2334 -0.1344 -0.4959
-4.2738 -0.4663 -0.5788
-4.1690 -0.4134 -0.5658
-2.8208 1.0408 -0.2056
-2.7384 1.1323 -0.1829
-2.7170 1.1530 -0.1778
-2.6765 1.2022 -0.1656
-2.6293 1.2502 -0.1537
-2.6153 1.2682 -0.1492
-2.6029 1.2766 -0.1471
-2.5911 1.2772 -0.1470
-2.5793 1.2671 -0.1496
-2.5669 1.2560 -0.1524
-2.5543 1.2507 -0.1537
-2.5400 1.2308 -0.1587
-2.5109 1.2095 -0.1641
-2.4942 1.1915 -0.1687
-2.4771 1.1763 -0.1725
-2.4579 1.1563 -0.1775
-2.4390 1.1411 -0.1814
-2.4169 1.1180 -0.1872
-2.3713 1.0787 -0.1971
-2.3475 1.0604 -0.2018
-2.2189 0.9397 -0.2322
-2.1688 0.8827 -0.2466
-2.1317 0.8553 -0.2535
-2.0891 0.8208 -0.2622
-1.9827 0.7271 -0.2859
-1.9220 0.6746 -0.2992
-1.7611 0.5256 -0.3368
-1.6737 0.4499 -0.3559
-0.6544 -0.4603 -0.5857
-0.5437 -0.5173 -0.6002
-4.7243 -0.8659 -0.6007
-4.6497 -0.8683 -0.6015
-4.5603 -0.8516 -0.5981
-4.4433 -0.7967 -0.5864
-2.7378 1.1298 -0.1671
-2.6281 1.2585 -0.1390
-2.6154 1.2639 -0.1379
-2.6029 1.2733 -0.1358
-2.5911 1.2768 -0.1351
-2.5794 1.2706 -0.1365
-2.5670 1.2545 -0.1401
-2.5540 1.2433 -0.1426
-2.5402 1.2292 -0.1458
-2.5262 1.2199 -0.1479
-2.5112 1.2077 -0.1506
-2.4944 1.1885 -0.1549
-2.4783 1.1782 -0.1572
-2.4598 1.1600 -0.1613
-2.4186 1.1195 -0.1704
-2.3936 1.0903 -0.1769
-2.3720 1.0759 -0.1802
-2.3486 1.0585 -0.1841
-2.3242 1.0410 -0.1880
-2.2937 1.0116 -0.1946
-2.2222 0.9408 -0.2104
-2.1866 0.9112 -0.2171
-2.0936 0.8220 -0.2371
-2.0297 0.7544 -0.2522
-1.9876 0.7275 -0.2583
-1.9220 0.6667 -0.2719
-1.8686 0.6287 -0.2804
-1.1685 -0.0020 -0.4219
-4.8474 -1.0346 -0.5569
-4.7863 -1.0593 -0.5619
-4.6726 -1.0176 -0.5544
-2.7329 1.1430 -0.1484
-2.7114 1.1670 -0.1439
-2.6915 1.1900 -0.1395
-2.6426 1.2378 -0.1306
-2.6027 1.2730 -0.1240
-2.5911 1.2726 -0.1241
-2.5794 1.2663 -0.1254
-2.5405 1.2285 -0.1328
-2.5264 1.2182 -0.1348
-2.5118 1.2079 -0.1369
-2.4783 1.1742 -0.1434
-2.4618 1.1648 -0.1453
-2.4421 1.1444 -0.1493
-2.3734 1.0751 -0.1629
-2.3548 1.0705 -0.1638
-2.3222 1.0310 -0.1716
-2.2954 1.0104 -0.1756
-2.0998 0.8264 -0.2117
-1.9356 0.6799 -0.2405
-1.8835 0.6427 -0.2479
-1.7934 0.5539 -0.2653
-1.7344 0.5145 -0.2731
-1.1760 -0.0059 -0.3752
-5.3036 -1.7311 -0.5890
-5.0074 -1.4761 -0.5488
-3.9419 -0.2335 -0.3514
-2.9692 0.8728 -0.1757
-2.7564 1.1126 -0.1376
-2.7116 1.1619 -0.1298
-2.6912 1.1871 -0.1258
-2.6577 1.2198 -0.1206
-2.6277 1.2546 -0.1151
-2.6145 1.2691 -0.1128
-2.6025 1.2747 -0.1120
-2.5910 1.2743 -0.1121
-2.5794 1.2650 -0.1137
-2.5673 1.2557 -0.1153
-2.5547 1.2473 -0.1167
