ply
format ascii 1.0
element vertex 2097
property float x
property float y
property float z
end_header
-4.0335 1.5206 -0.5878
-4.0189 1.4949 -0.5831
-4.0085 1.4742 -0.5827
-4.0011 1.4571 -0.5856
-3.9948 1.4414 -0.5895
-3.9872 1.4250 -0.5908
-3.9742 1.4043 -0.5839
-3.9695 1.3914 -0.5882
-3.9627 1.3772 -0.5890
-3.9545 1.3622 -0.5870
-3.9462 1.3476 -0.5843
-3.9404 1.3354 -0.5850
-3.9325 1.3219 -0.5818
-3.9326 1.3147 -0.5911
-3.9265 1.3033 -0.5902
-5.6535 5.2390 0.3123
-5.5112 4.8755 0.1904
-5.5092 4.2454 -0.6199
-5.0266 3.3504 -0.5967
-4.8109 2.9287 -0.6142
-4.6063 2.5531 -0.5994
-4.4837 2.3197 -0.6015
-4.4374 2.2296 -0.6046
-4.3808 2.1288 -0.5964
-4.2986 1.9778 -0.5904
-4.2301 1.8542 -0.5827
-4.2045 1.8061 -0.5823
-4.1915 1.7743 -0.5916
-4.1447 1.6902 -0.5858
-4.1160 1.6312 -0.5921
-4.0787 1.5670 -0.5838
-4.0624 1.5275 -0.5949
-4.0282 1.4736 -0.5811
-4.0284 1.4637 -0.5943
-4.0105 1.4379 -0.5838
-4.0044 1.4233 -0.5879
-3.9996 1.4101 -0.5931
-3.9905 1.3938 -0.5922
-3.9834 1.3795 -0.5932
-3.9721 1.3623 -0.5876
-3.9661 1.3498 -0.5892
-3.9572 1.3355 -0.5859
-3.9538 1.3255 -0.5905
-3.9468 1.3134 -0.5891
-3.9397 1.3015 -0.5871
-5.7639 5.2238 0.3379
-5.6588 4.9473 0.2197
-6.0066 5.3440 -0.0765
-5.1928 3.4867 -0.6153
-4.9107 2.9810 -0.6190
-4.6938 2.6019 -0.6089
-4.5166 2.3026 -0.5868
-4.4991 2.2540 -0.6099
-4.4299 2.1405 -0.5968
-4.3827 2.0587 -0.5937
-4.3461 1.9927 -0.5946
-4.2839 1.8802 -0.5967
-4.2353 1.8068 -0.5793
-4.2197 1.7729 -0.5872
-4.1992 1.7348 -0.5893
-4.1855 1.7052 -0.5963
-4.1370 1.6268 -0.5856
-4.1212 1.5981 -0.5863
-4.1119 1.5766 -0.5927
-4.0778 1.5210 -0.5858
-4.0672 1.5004 -0.5880
-4.0640 1.4870 -0.5982
-4.0448 1.4601 -0.5886
-4.0280 1.4268 -0.5930
-4.0186 1.4101 -0.5931
-4.0024 1.3801 -0.5945
-3.9869 1.3603 -0.5842
-3.9864 1.3519 -0.5940
-3.9771 1.3376 -0.5910
-3.9699 1.3251 -0.5905
-3.9611 1.3120 -0.5871
-3.9566 1.3020 -0.5896
-3.9513 1.2918 -0.5906
-5.8056 6.1789 1.8354
-5.7223 4.9332 0.3367
-5.6472 4.7269 0.2288
-5.7550 4.8464 0.1446
-5.8353 4.4244 -0.6110
-5.5718 3.9720 -0.6225
-5.2670 3.4765 -0.5982
-5.1894 3.3194 -0.6340
-4.7748 2.6368 -0.6127
-4.5390 2.2485 -0.6007
-4.4665 2.1355 -0.5883
-4.4353 2.0758 -0.5978
-4.3924 2.0043 -0.5967
-4.3133 1.8762 -0.5898
-4.2806 1.8228 -0.5874
-4.2473 1.7707 -0.5822
-4.2101 1.7018 -0.5906
-4.1873 1.6647 -0.5888
-4.1676 1.6319 -0.5883
-4.1545 1.6064 -0.5930
-4.1399 1.5803 -0.5950
-4.1173 1.5476 -0.5876
-4.0931 1.5040 -0.5915
-4.0661 1.4606 -0.5886
-4.0580 1.4444 -0.5923
-4.0350 1.4078 -0.5893
-4.0295 1.3949 -0.5942
-4.0187 1.3785 -0.5919
-4.0048 1.3603 -0.5847
-3.9900 1.3346 -0.5856
-3.9839 1.3232 -0.5872
-3.9754 1.3106 -0.5850
-3.9730 1.3021 -0.5910
-3.9666 1.2914 -0.5910
-5.8506 4.9626 0.3651
-5.7233 4.6754 0.2486
-5.7846 4.7105 0.1618
-5.9866 4.8274 -0.1225
-6.0317 4.8259 -0.2240
-5.9926 4.6956 -0.3180
-5.9042 4.4955 -0.3998
-5.8706 4.3811 -0.4841
-5.8623 4.3054 -0.5704
-5.8079 4.1667 -0.6424
-5.6165 3.8439 -0.6665
-5.2596 3.3097 -0.6177
-4.9520 2.8246 -0.6099
-4.8750 2.6921 -0.6234
-4.7757 2.5363 -0.6198
-4.4805 2.0825 -0.5961
-4.4084 1.9807 -0.5778
-4.3806 1.9311 -0.5851
-4.2835 1.7772 -0.5838
-4.2554 1.7335 -0.5822
-4.2158 1.6663 -0.5877
-4.1830 1.6221 -0.5765
-4.1779 1.6048 -0.5892
-4.1448 1.5512 -0.5902
-4.1275 1.5251 -0.5882
-4.1107 1.5002 -0.5855
-4.1048 1.4850 -0.5936
-4.0921 1.4647 -0.5936
-4.0732 1.4402 -0.5857
-4.0669 1.4261 -0.5913
-4.0463 1.3933 -0.5914
-4.0343 1.3763 -0.5883
-4.0290 1.3646 -0.5930
-4.0159 1.3479 -0.5871
-4.0042 1.3327 -0.5823
-3.9914 1.3102 -0.5851
-3.9880 1.3011 -0.5901
-3.9846 1.2923 -0.5948
-6.2314 5.6456 0.7820
-5.8703 4.9484 0.5697
-5.9120 4.9484 0.4805
-5.8288 4.7415 0.3664
-5.8209 4.6620 0.2712
-5.7902 4.5479 0.1757
-5.9509 4.7339 0.0948
-5.9411 4.6514 -0.0006
-5.9068 4.5338 -0.0934
-5.8738 4.4207 -0.1823
-5.9135 4.4154 -0.2748
-5.9290 4.3743 -0.3658
-6.0208 4.4392 -0.4704
-5.8875 4.1936 -0.5322
-5.1008 2.9309 -0.6333
-4.6607 2.2851 -0.6043
-4.6169 2.2113 -0.6147
-4.5231 2.0854 -0.5920
-4.4621 1.9990 -0.5836
-4.4367 1.9529 -0.5944
-4.3595 1.8383 -0.5912
-4.2681 1.7033 -0.5864
-4.2395 1.6630 -0.5823
-4.2014 1.6030 -0.5855
-4.1763 1.5693 -0.5795
-4.1744 1.5560 -0.5941
-4.1389 1.5155 -0.5754
-4.1343 1.5012 -0.5858
-4.1087 1.4610 -0.5878
-4.0983 1.4436 -0.5902
-4.0863 1.4255 -0.5900
-4.0701 1.4050 -0.5844
-4.0672 1.3943 -0.5932
-4.0562 1.3784 -0.5923
-4.0444 1.3625 -0.5894
-4.0363 1.3494 -0.5907
-4.0282 1.3367 -0.5913
-4.0192 1.3237 -0.5902
-4.0124 1.3125 -0.5916
-4.0064 1.3021 -0.5936
-5.9560 4.9774 0.6883
-6.0259 5.0219 0.6076
-5.9621 4.8498 0.4925
-5.8786 4.6515 0.3803
-5.8939 4.6109 0.2903
-5.9092 4.5702 0.2002
-5.8544 4.4256 0.1058
-5.8692 4.3861 0.0184
-5.9073 4.3799 -0.0692
-5.9703 4.4075 -0.1599
-6.0366 4.4372 -0.2545
-6.0265 4.3609 -0.3432
-6.0944 4.3893 -0.4427
-6.1102 4.3473 -0.5356
-6.0467 4.2041 -0.6101
-5.4858 3.3959 -0.6111
-5.1116 2.8642 -0.6010
-5.0654 2.7755 -0.6330
-4.7225 2.3015 -0.6048
-4.5823 2.1050 -0.5970
-4.5395 2.0397 -0.6022
-4.4873 1.9671 -0.5985
-4.4062 1.8517 -0.5968
-4.3163 1.7355 -0.5777
-4.2153 1.5811 -0.5906
-4.1897 1.5487 -0.5842
-4.1614 1.5047 -0.5890
-4.1406 1.4786 -0.5834
-4.1252 1.4574 -0.5820
-4.1034 1.4231 -0.5861
-4.0890 1.4044 -0.5832
-4.0818 1.3910 -0.5876
-4.0729 1.3768 -0.5895
-4.0655 1.3640 -0.5927
-4.0496 1.3464 -0.5852
-4.0487 1.3381 -0.5951
-4.0367 1.3237 -0.5911
-4.0238 1.3092 -0.5852
-4.0192 1.2997 -0.5893
-5.7166 4.3081 0.4382
-5.8354 4.4289 0.3768
-5.9184 4.4917 0.3021
-5.9569 4.4865 0.2173
-5.9480 4.4128 0.1274
-5.9389 4.3398 0.0393
-5.9535 4.3008 -0.0471
-6.0418 4.3607 -0.1365
-6.1625 4.4596 -0.2337
-6.2647 4.5296 -0.3363
-6.5614 4.7722 -0.5763
-6.3444 4.4371 -0.6311
-5.4391 3.2025 -0.6211
-5.1897 2.8787 -0.5944
-5.1120 2.7571 -0.6163
-4.8753 2.4385 -0.6075
-4.5008 1.9441 -0.5795
-4.4216 1.8183 -0.6047
-4.3179 1.6827 -0.5950
-4.2507 1.5890 -0.5972
-4.1982 1.5256 -0.5847
-4.1825 1.5032 -0.5860
-4.1297 1.4269 -0.5916
-4.1156 1.4087 -0.5901
-4.0980 1.3888 -0.5839
-4.0921 1.3767 -0.5896
-4.0680 1.3463 -0.5857
-4.0589 1.3260 -0.5971
-5.9230 0.0537 0.4011
-5.6883 0.2838 0.3642
-5.6535 0.3242 0.3592
-5.5797 0.3688 0.3455
-5.5593 0.4051 0.3435
-5.5462 0.4404 0.3431
-5.5032 0.4778 0.3360
-5.3043 0.6775 0.3050
-5.2823 0.7084 0.3023
-5.2482 0.7374 0.2966
-5.2411 0.7691 0.2973
-5.2109 0.7972 0.2925
-5.2082 0.8296 0.2943
-5.1805 0.8570 0.2900
-5.1243 0.8766 0.2784
-5.1059 0.9040 0.2762
-5.0877 0.9311 0.2741
-5.0686 0.9574 0.2716
-5.0548 0.9852 0.2706
-5.0370 1.0112 0.2684
-5.0062 1.0314 0.2628
-4.9857 1.0550 0.2598
-4.9337 1.0947 0.2508
-4.9266 1.1232 0.2513
-4.8732 1.1571 0.2415
-4.8579 1.1796 0.2397
-4.8408 1.2005 0.2373
-4.8202 1.2183 0.2339
-4.8162 1.2479 0.2352
-4.7923 1.2621 0.2307
-4.7829 1.2873 0.2305
-4.7594 1.3003 0.2260
-4.7459 1.3211 0.2244
-4.7195 1.3294 0.2189
-5.8716 0.0970 0.3535
-5.8403 0.1409 0.3499
-5.7168 0.2738 0.3330
-5.6044 0.3610 0.3153
-5.5643 0.4002 0.3096
-5.5199 0.4386 0.3029
-5.5070 0.4736 0.3025
-5.4940 0.5085 0.3022
-5.3930 0.6121 0.2880
-5.2895 0.7066 0.2727
-5.2470 0.7679 0.2679
-5.2124 0.7956 0.2625
-5.1923 0.8249 0.2603
-5.1734 0.8541 0.2583
-5.0767 0.9270 0.2430
-5.0660 0.9560 0.2427
-5.0481 0.9824 0.2407
-5.0161 1.0029 0.2354
-4.9956 1.0270 0.2327
-4.9693 1.0479 0.2286
-4.9274 1.0920 0.2228
-4.8988 1.1410 0.2202
-4.8699 1.1562 0.2151
-4.8602 1.1825 0.2149
-4.8320 1.1961 0.2099
-4.8270 1.2250 0.2108
-4.7957 1.2345 0.2049
-4.7864 1.2597 0.2046
-4.7744 1.2827 0.2037
-4.7765 1.3177 0.2065
-4.7445 1.3226 0.2001
-4.7320 1.4125 0.2036
-4.7210 1.4360 0.2029
-5.8533 0.0954 0.3104
-5.8057 0.1430 0.3043
-5.8075 0.1787 0.3068
-5.6020 0.3567 0.2789
-5.5692 0.3952 0.2751
-5.5296 0.4336 0.2699
-5.5047 0.4698 0.2674
-5.5035 0.5042 0.2692
-5.4484 0.5407 0.2611
-5.4599 0.5750 0.2653
-5.2309 0.7637 0.2336
-5.2193 0.7950 0.2333
-5.1619 0.8502 0.2258
-5.1422 0.8786 0.2238
-5.1268 0.9077 0.2226
-5.0592 0.9531 0.2127
-5.0311 0.9759 0.2088
-4.9826 1.0540 0.2043
-4.9595 1.0760 0.2013
-4.9307 1.0944 0.1970
-4.8839 1.1335 0.1906
-4.8685 1.1566 0.1891
-4.8457 1.1745 0.1858
-4.8444 1.2061 0.1875
-4.8110 1.2153 0.1818
-4.8096 1.2470 0.1834
-4.7876 1.2629 0.1802
-4.7658 1.2780 0.1770
-4.7566 1.3030 0.1768
-4.7361 1.3179 0.1738
-4.7378 1.4222 0.1804
-6.7156 5.0152 0.7642
-5.9123 0.0369 0.2776
-5.8705 0.0847 0.2732
-5.6142 0.3156 0.2428
-5.6007 0.3521 0.2424
-5.5740 0.3902 0.2399
-5.5606 0.4264 0.2396
-5.5212 0.4645 0.2350
-5.5080 0.5001 0.2347
-5.4531 0.5370 0.2275
-5.4173 0.5719 0.2234
-5.3932 0.6058 0.2212
-5.3625 0.6733 0.2196
-5.3400 0.7061 0.2175
-5.2410 0.7630 0.2041
-5.2163 0.7926 0.2016
-5.1918 0.8216 0.1990
-5.1590 0.8481 0.1950
-5.1267 0.8736 0.1910
-5.1322 0.9081 0.1936
-5.0667 0.9550 0.1853
-5.0376 0.9779 0.1816
-5.0093 1.0327 0.1798
-4.9927 1.0588 0.1784
-4.9588 1.0761 0.1737
-4.9388 1.0991 0.1716
-4.9381 1.1319 0.1731
-4.8976 1.1424 0.1670
-4.8355 1.2017 0.1598
-4.8285 1.2298 0.1601
-4.7982 1.2404 0.1556
-4.7861 1.2639 0.1548
-4.7722 1.2858 0.1537
-4.7697 1.3172 0.1549
-4.7286 1.3139 0.1479
-4.7042 1.3240 0.1444
-4.7161 1.4033 0.1504
-4.7174 1.4399 0.1525
-5.9027 0.0329 0.2352
-5.8699 0.0785 0.2324
-5.8623 0.1173 0.2330
-5.8051 0.1674 0.2270
-5.6832 0.2995 0.2154
-5.6474 0.3408 0.2121
-5.6048 0.3819 0.2078
-5.5521 0.4228 0.2021
-5.4882 0.4629 0.1947
-5.4694 0.4983 0.1936
-5.4380 0.5339 0.1906
-5.3818 0.5688 0.1842
-5.3671 0.6362 0.1849
-5.2132 0.7903 0.1697
-5.1749 0.8168 0.1654
-5.1562 0.8795 0.1654
-5.1209 0.9040 0.1615
-5.0902 0.9286 0.1582
-5.0171 1.0028 0.1510
-4.9927 1.0258 0.1485
-4.9792 1.0529 0.1477
-4.9648 1.0794 0.1468
-4.9515 1.1062 0.1461
-4.9107 1.1179 0.1408
-4.8905 1.1725 0.1402
-4.8321 1.2010 0.1332
-4.8224 1.2272 0.1329
-4.8073 1.2494 0.1317
-4.7924 1.2713 0.1305
-4.7784 1.2935 0.1295
-4.7612 1.3125 0.1279
-4.7313 1.3193 0.1239
-4.7170 1.3733 0.1242
-4.7258 1.4172 0.1273
-6.5789 4.8519 0.5357
-5.8931 0.0289 0.1927
-5.8679 0.0725 0.1912
-5.8453 0.1151 0.1900
-5.8216 0.1577 0.1886
-5.7809 0.2034 0.1853
-5.6815 0.2946 0.1767
-5.5760 0.3808 0.1671
-5.5495 0.4187 0.1652
-5.5103 0.4571 0.1619
-5.4855 0.4935 0.1602
-5.4598 0.5295 0.1584
-5.4524 0.5646 0.1587
-5.4111 0.5996 0.1550
-5.3633 0.6677 0.1516
-5.3133 0.6987 0.1468
-5.2618 0.7277 0.1417
-5.2283 0.7908 0.1398
-5.1857 0.8171 0.1357
-5.1825 0.8502 0.1364
-5.1583 0.8787 0.1345
-5.1221 0.9033 0.1311
-5.0282 1.0069 0.1235
-4.9997 1.0288 0.1208
-4.9590 1.0441 0.1165
-4.9486 1.0721 0.1163
-4.9382 1.1001 0.1160
-4.9194 1.1234 0.1145
-4.8970 1.1441 0.1126
-4.8776 1.1659 0.1110
-4.8566 1.1859 0.1092
-4.8259 1.1985 0.1060
-4.8162 1.2247 0.1058
-4.7933 1.2408 0.1036
-4.7767 1.2611 0.1023
-4.7672 1.2867 0.1021
-4.7483 1.3040 0.1004
-4.7322 1.3231 0.0992
-4.7187 1.3442 0.0983
-4.7227 1.3824 0.1000
-5.9011 0.0199 0.1518
-5.8618 0.1048 0.1502
-5.8208 0.1518 0.1475
-5.7801 0.1977 0.1448
-5.6725 0.2909 0.1369
-5.5410 0.4152 0.1276
-5.5344 0.4510 0.1279
-5.4830 0.4897 0.1240
-5.4401 0.5265 0.1208
-5.4142 0.5964 0.1201
-5.3779 0.6305 0.1176
-5.2780 0.7271 0.1105
-5.2423 0.7569 0.1079
-5.2027 0.7848 0.1048
-5.1910 0.8164 0.1045
-5.1709 0.8463 0.1034
-5.1302 0.9044 0.1010
-5.0214 1.0040 0.0932
-4.9959 1.0272 0.0913
-4.9659 1.0474 0.0890
-4.9363 1.0666 0.0867
-4.9449 1.1041 0.0884
-4.9307 1.1304 0.0877
-4.9054 1.1501 0.0858
-4.8804 1.1689 0.0839
-4.8377 1.2083 0.0809
-4.8172 1.2273 0.0794
-4.8047 1.2517 0.0788
-4.7880 1.2725 0.0778
-4.7638 1.2863 0.0758
-4.7492 1.3075 0.0750
-4.7355 1.3292 0.0742
-4.7236 1.3522 0.0737
-5.8761 0.0572 0.1086
-5.6945 0.2819 0.0993
-5.5063 0.4491 0.0887
-5.4620 0.4871 0.0862
-5.4206 0.5235 0.0839
-5.4246 0.5579 0.0847
-5.4116 0.5930 0.0844
-5.3820 0.6276 0.0828
-5.3692 0.6622 0.0825
-5.3129 0.6935 0.0790
-5.1930 0.8151 0.0725
-5.1677 0.8441 0.0711
-5.1437 0.8727 0.0699
-5.1189 0.9003 0.0686
-5.0883 0.9255 0.0668
-5.0851 0.9585 0.0671
-5.0500 0.9806 0.0650
-5.0037 1.0304 0.0625
-4.9516 1.0744 0.0596
-4.9383 1.1014 0.0591
-4.9305 1.1312 0.0590
-4.8989 1.1474 0.0570
-4.8767 1.1679 0.0558
-4.8584 1.1901 0.0548
-4.8394 1.2112 0.0538
-4.8012 1.2511 0.0518
-4.7699 1.2602 0.0497
-4.7620 1.2874 0.0496
-4.7407 1.3028 0.0483
-4.7246 1.3221 0.0475
-4.7046 1.3369 0.0463
-6.2369 4.6646 0.2093
-5.6998 0.2391 0.0593
-5.6709 0.3171 0.0585
-5.6413 0.3582 0.0574
-5.6049 0.3992 0.0561
-5.4276 0.5543 0.0489
-5.4322 0.5897 0.0494
-5.3611 0.6589 0.0466
-5.1973 0.7801 0.0398
-5.1803 0.8110 0.0392
-5.1190 0.8655 0.0367
-5.1076 0.8963 0.0364
-5.0932 0.9261 0.0360
-5.0819 0.9568 0.0357
-5.0509 0.9805 0.0344
-4.9901 1.0248 0.0319
-4.9449 1.0716 0.0301
-4.9251 1.0953 0.0294
-4.9026 1.1168 0.0285
-4.8896 1.1431 0.0281
-4.8820 1.1725 0.0279
-4.8690 1.1986 0.0275
-4.8384 1.2122 0.0262
-4.8231 1.2355 0.0256
-4.8002 1.2526 0.0247
-4.7801 1.2709 0.0239
-4.7610 1.2892 0.0231
-4.7330 1.2989 0.0219
-4.7278 1.3281 0.0218
-4.7159 1.3512 0.0215
-4.7177 1.3882 0.0218
-6.2860 4.7809 0.1202
-5.8585 0.0862 0.0229
-5.6313 0.3181 0.0174
-5.4455 0.4802 0.0130
-5.4155 0.5163 0.0123
-5.4026 0.5512 0.0119
-5.3537 0.6205 0.0107
-5.2627 0.7530 0.0085
-5.1687 0.8072 0.0063
-5.1529 0.8380 0.0059
-5.1412 0.8695 0.0055
-5.0970 0.9264 0.0045
-5.0707 0.9525 0.0038
-5.0701 0.9869 0.0038
-5.0004 1.0291 0.0021
-4.9791 1.0540 0.0016
-4.9579 1.0783 0.0011
-4.9370 1.1021 0.0006
-4.9108 1.1222 -0.0000
-4.8858 1.1420 -0.0006
-4.8782 1.1715 -0.0008
-4.8563 1.1918 -0.0014
-4.8356 1.2120 -0.0019
-4.8255 1.2393 -0.0021
-4.8017 1.2559 -0.0027
-4.7764 1.2704 -0.0033
-4.7642 1.2946 -0.0036
-4.7503 1.3171 -0.0039
-4.7406 1.3433 -0.0042
-4.7034 1.3424 -0.0050
-6.0529 -0.0933 -0.0189
-5.9844 -0.0327 -0.0194
-5.7597 0.2158 -0.0216
-5.7211 0.2608 -0.0220
-5.6829 0.3047 -0.0223
-5.6019 0.3901 -0.0231
-5.4364 0.5115 -0.0240
-5.3814 0.5828 -0.0246
-5.3794 0.6180 -0.0250
-5.3502 0.6524 -0.0253
-5.3373 0.6872 -0.0257
-5.3191 0.7215 -0.0260
-5.2748 0.7522 -0.0262
-5.1628 0.8385 -0.0269
-5.1510 0.8705 -0.0272
-5.1182 0.8969 -0.0274
-5.0897 0.9234 -0.0276
-5.0871 0.9572 -0.0280
-5.0590 0.9825 -0.0282
-4.9854 1.0571 -0.0288
-4.9511 1.0755 -0.0289
-4.9367 1.1026 -0.0292
-4.8883 1.1445 -0.0295
-4.8895 1.1798 -0.0299
-4.8499 1.1891 -0.0299
-4.8292 1.2094 -0.0301
-4.8191 1.2366 -0.0303
-4.7826 1.2434 -0.0303
-4.7539 1.2885 -0.0308
-4.7442 1.3146 -0.0310
-4.7272 1.3338 -0.0312
-4.7087 1.3510 -0.0313
-4.7151 1.3930 -0.0318
-6.0146 -0.0493 -0.0658
-5.9676 0.0042 -0.0656
-5.8330 0.1174 -0.0642
-5.7280 0.2539 -0.0640
-5.6886 0.2984 -0.0638
-5.6428 0.3428 -0.0635
-5.4324 0.5432 -0.0617
-5.3549 0.6142 -0.0610
-5.3527 0.6495 -0.0617
-5.3267 0.7197 -0.0624
-5.2296 0.7791 -0.0609
-5.1553 0.8354 -0.0600
-5.1224 0.8624 -0.0596
-5.1227 0.8970 -0.0603
-5.0992 0.9252 -0.0602
-5.0836 0.9554 -0.0604
-5.0451 0.9772 -0.0598
-5.0376 1.0092 -0.0602
-4.9859 1.0575 -0.0598
-4.9610 1.0807 -0.0596
-4.8907 1.1470 -0.0590
-4.8802 1.1754 -0.0592
-4.8609 1.1980 -0.0592
-4.8444 1.2218 -0.0592
-4.8067 1.2296 -0.0583
-4.7892 1.2857 -0.0590
-4.7470 1.3201 -0.0585
-4.7187 1.3290 -0.0579
-4.7163 1.3619 -0.0585
-5.6643 0.2970 -0.1046
-5.4748 0.5017 -0.1006
-5.4360 0.5394 -0.0997
-5.4106 0.5758 -0.0994
-5.3786 0.6476 -0.0998
-5.3537 0.6827 -0.0996
-5.2913 0.7136 -0.0972
-5.2361 0.7780 -0.0962
-5.1609 0.8350 -0.0939
-5.0995 0.8897 -0.0922
-5.0957 0.9233 -0.0930
-5.0560 0.9458 -0.0916
-5.0484 0.9779 -0.0921
-5.0370 1.0088 -0.0924
-5.0340 1.0431 -0.0933
-4.9268 1.0989 -0.0892
-4.9098 1.1244 -0.0891
-4.8929 1.1495 -0.0890
-4.8559 1.1617 -0.0873
-4.8395 1.1855 -0.0872
-4.8405 1.2209 -0.0883
-4.8276 1.2470 -0.0884
-4.8197 1.2769 -0.0888
-4.7828 1.2831 -0.0871
-4.7580 1.2975 -0.0862
-4.7457 1.3220 -0.0862
-4.7062 1.3204 -0.0841
-4.7031 1.3523 -0.0849
-4.7115 1.3968 -0.0867
-6.0880 4.5416 -0.2529
-6.0553 4.6300 -0.2537
-5.9432 4.5617 -0.2458
-6.0300 -0.0286 -0.1627
-5.7009 0.2475 -0.1476
-5.6618 0.2920 -0.1463
-5.6550 0.3307 -0.1472
-5.6402 0.3708 -0.1476
-5.5740 0.4160 -0.1442
-5.3834 0.6082 -0.1367
-5.3051 0.7124 -0.1346
-5.2664 0.7442 -0.1328
-5.1573 0.8326 -0.1277
-5.1206 0.8941 -0.1272
-5.0260 1.0043 -0.1240
-5.0118 1.0339 -0.1241
-4.9894 1.0596 -0.1233
-4.9236 1.0979 -0.1196
-4.8968 1.1181 -0.1183
-4.8950 1.1519 -0.1195
-4.8669 1.1699 -0.1180
-4.8477 1.1925 -0.1173
-4.8288 1.2146 -0.1167
-4.8101 1.2362 -0.1161
-4.7948 1.2598 -0.1158
-4.7798 1.2832 -0.1155
-4.7370 1.3172 -0.1135
-4.7050 1.3225 -0.1112
-4.7064 1.3592 -0.1127
-4.7029 1.3918 -0.1137
-6.5213 4.8541 -0.3928
-6.0462 4.4942 -0.3412
-6.0346 4.6214 -0.3453
-6.0433 4.7923 -0.3527
-6.0689 -0.0893 -0.2128
-6.0300 -0.0363 -0.2113
-5.7004 0.2799 -0.1922
-5.6015 0.4084 -0.1881
-5.4622 0.5308 -0.1794
-5.4237 0.5685 -0.1772
-5.3151 0.6744 -0.1710
-5.1692 0.8691 -0.1652
-5.1394 0.8978 -0.1635
-5.1099 0.9256 -0.1617
-5.0699 0.9845 -0.1604
-5.0263 1.0042 -0.1568
-4.9972 1.0278 -0.1549
-4.9896 1.0599 -0.1557
-4.9538 1.0787 -0.1528
-4.9428 1.1085 -0.1531
-4.9184 1.1310 -0.1517
-4.8871 1.1840 -0.1510
-4.8668 1.2069 -0.1500
-4.8451 1.2280 -0.1487
-4.8036 1.2335 -0.1446
-4.7884 1.2572 -0.1442
-4.7652 1.2738 -0.1426
-4.7600 1.3049 -0.1436
-4.7404 1.3233 -0.1424
-4.7330 1.3895 -0.1448
-6.1672 4.5936 -0.4520
-6.0674 4.5633 -0.4400
-6.0344 4.6525 -0.4409
-5.9811 4.7012 -0.4377
-6.0471 -0.0904 -0.2600
-5.9807 0.0114 -0.2572
-5.6907 0.2759 -0.2346
-5.6284 0.3241 -0.2292
-5.6069 0.3649 -0.2288
-5.5845 0.4054 -0.2282
-5.5840 0.4437 -0.2304
-5.5628 0.4840 -0.2300
-5.4332 0.5647 -0.2177
-5.3533 0.6371 -0.2115
-5.3234 0.6720 -0.2096
-5.2467 0.7731 -0.2054
-5.0736 0.9141 -0.1909
-5.0352 0.9719 -0.1893
-5.0274 1.0044 -0.1902
-5.0076 1.0322 -0.1892
-4.9639 1.0841 -0.1865
-4.9358 1.1056 -0.1841
-4.8635 1.2063 -0.1805
-4.8527 1.2353 -0.1808
-4.8304 1.2556 -0.1790
-4.8033 1.2713 -0.1764
-4.7791 1.2880 -0.1742
-4.7641 1.3114 -0.1736
-4.7389 1.3251 -0.1711
-4.7414 1.3641 -0.1737
-4.7382 1.3985 -0.1753
-4.7356 1.4342 -0.1770
-6.5492 4.6293 -0.6029
-6.3988 4.5512 -0.5786
-6.0554 4.7254 -0.5436
-6.0216 4.8165 -0.5445
-6.0297 -0.0517 -0.3100
-5.9912 0.0010 -0.3076
-5.9531 0.0527 -0.3051
-5.9060 0.1057 -0.3013
-5.6894 0.3093 -0.2809
-5.6419 0.3551 -0.2766
-5.6125 0.3974 -0.2748
-5.5605 0.4411 -0.2696
-5.5254 0.4819 -0.2668
-5.3865 0.5980 -0.2528
-5.3449 0.6337 -0.2487
-5.2625 0.7365 -0.2427
-5.2446 0.7706 -0.2422
-5.1846 0.8331 -0.2370
-5.1071 0.9229 -0.2309
-5.0828 0.9516 -0.2290
-5.0122 1.0341 -0.2235
-4.9888 1.0601 -0.2216
-4.9675 1.0863 -0.2200
-4.9385 1.1078 -0.2169
-4.8708 1.1767 -0.2109
-4.8508 1.1996 -0.2093
-4.8201 1.2142 -0.2054
-4.8212 1.2510 -0.2081
-4.7911 1.2641 -0.2042
-4.7807 1.2920 -0.2045
-4.7760 1.3247 -0.2060
-4.7373 1.3268 -0.2000
-4.7350 1.3614 -0.2021
-4.7348 1.3989 -0.2046
-4.7313 1.4339 -0.2064
-4.7239 1.4652 -0.2074
-6.3325 3.6236 -0.6102
-6.2998 3.7120 -0.6111
-6.2671 3.8004 -0.6119
-6.2343 3.8887 -0.6128
-6.2016 3.9771 -0.6137
-6.1688 4.0655 -0.6146
-6.1578 4.1890 -0.6213
-6.1034 4.2422 -0.6164
-6.0917 4.3675 -0.6231
-6.0801 4.4956 -0.6301
-6.0900 4.6677 -0.6434
-6.0340 4.7166 -0.6379
-5.9799 4.7660 -0.6328
-5.9069 4.7724 -0.6216
-6.0467 -0.1064 -0.3597
-6.0293 -0.0595 -0.3601
-5.9909 -0.0065 -0.3572
-5.9423 0.0483 -0.3525
-5.8667 0.1084 -0.3432
-5.8034 0.1633 -0.3358
-5.7274 0.2188 -0.3260
-5.6872 0.2651 -0.3222
-5.6564 0.3090 -0.3199
-5.6257 0.3520 -0.3176
-5.6031 0.3935 -0.3167
-5.5881 0.4339 -0.3171
-5.5441 0.4763 -0.3123
-5.5432 0.5154 -0.3152
-5.4536 0.5568 -0.3018
-5.3957 0.5946 -0.2940
-5.3416 0.6303 -0.2868
-5.3170 0.6657 -0.2851
-5.2744 0.7354 -0.2826
-5.1042 0.9211 -0.2657
-5.0668 0.9458 -0.2607
-5.0475 0.9753 -0.2594
-5.0121 1.0341 -0.2575
-4.9932 1.0623 -0.2562
-4.9497 1.0782 -0.2494
-4.9349 1.1067 -0.2489
-4.8640 1.1739 -0.2410
-4.8440 1.1968 -0.2391
-4.8276 1.2214 -0.2380
-4.8145 1.2482 -0.2377
-4.7845 1.2614 -0.2331
-4.7798 1.2939 -0.2348
-4.7536 1.3081 -0.2311
-4.7387 1.3314 -0.2302
-4.7247 1.4312 -0.2354
-5.8687 2.9469 -0.5669
-5.8887 3.0767 -0.5809
-5.9431 3.2574 -0.6052
-5.9151 3.3331 -0.6059
-5.8706 3.3852 -0.6018
-5.7964 3.3906 -0.5884
-5.7541 3.4401 -0.5845
-5.7421 3.5372 -0.5899
-5.6487 4.1198 -0.6184
-5.9108 0.0494 -0.3959
-5.9146 0.0896 -0.4003
-5.8205 0.1529 -0.3859
-5.7514 0.2077 -0.3760
-5.6853 0.2597 -0.3666
-5.6379 0.3064 -0.3606
-5.6316 0.3460 -0.3628
-5.5936 0.3896 -0.3586
-5.5861 0.4293 -0.3605
-5.5562 0.4710 -0.3578
-5.5338 0.5115 -0.3567
-5.4119 0.5911 -0.3378
-5.3732 0.6281 -0.3328
-5.3198 0.6629 -0.3245
-5.3014 0.6985 -0.3238
-5.2721 0.7326 -0.3206
-5.2481 0.7666 -0.3185
-5.2204 0.7994 -0.3155
-5.2027 0.8332 -0.3147
-5.1841 0.8666 -0.3137
-5.1485 0.8953 -0.3087
-5.0474 0.9747 -0.2942
-5.0200 1.0009 -0.2907
-4.9708 1.0889 -0.2880
-4.9383 1.1092 -0.2829
-4.9132 1.1321 -0.2796
-4.8893 1.1546 -0.2765
-4.8597 1.1726 -0.2718
-4.8373 1.1940 -0.2689
-4.8356 1.2292 -0.2717
-4.8184 1.2534 -0.2702
-4.7940 1.2714 -0.2666
-4.7811 1.2978 -0.2662
-4.7628 1.3193 -0.2642
-4.7300 1.3266 -0.2579
-4.6786 1.3137 -0.2458
-5.7539 2.9189 -0.6176
-5.7186 3.1826 -0.6336
-5.6661 3.2122 -0.6250
-5.6406 3.2810 -0.6257
-5.6021 3.3286 -0.6217
-5.5397 3.4440 -0.6187
-5.5145 3.5118 -0.6194
-5.4530 3.6246 -0.6163
-5.4169 3.6688 -0.6125
-5.7262 0.2863 -0.4248
-5.7026 0.3305 -0.4235
-5.6143 0.3821 -0.4074
-5.5766 0.4254 -0.4026
-5.5255 0.4686 -0.3946
-5.4761 0.5099 -0.3868
-5.4753 0.5485 -0.3904
-5.4216 0.5875 -0.3813
-5.3829 0.6250 -0.3757
-5.3569 0.6619 -0.3731
-5.3200 0.6972 -0.3677
-5.2846 0.7315 -0.3626
-5.2605 0.7660 -0.3602
-5.2317 0.7992 -0.3566
-5.1912 0.8667 -0.3535
-5.1547 0.8956 -0.3476
-5.1103 0.9208 -0.3394
-5.0683 0.9448 -0.3316
-5.0398 0.9716 -0.3274
-5.0280 1.0037 -0.3277
-4.9866 1.0235 -0.3197
-4.9715 1.0531 -0.3190
-4.9600 1.0842 -0.3193
-4.9484 1.1152 -0.3196
-4.9130 1.1330 -0.3129
-4.9017 1.1633 -0.3132
-4.8621 1.1756 -0.3048
-4.8454 1.2012 -0.3033
-4.8256 1.2240 -0.3008
-4.7923 1.2360 -0.2940
-4.7929 1.2731 -0.2978
-4.7823 1.3017 -0.2981
-4.7531 1.3138 -0.2923
-4.7258 1.3260 -0.2869
-4.7013 1.4537 -0.2937
-5.4713 2.4842 -0.5816
-5.4898 2.5929 -0.5969
-5.4880 2.6787 -0.6049
-5.4462 2.7108 -0.5980
-5.4143 2.7550 -0.5947
-5.3834 2.7994 -0.5917
-5.3710 2.8720 -0.5959
-5.3685 2.9623 -0.6043
-5.3076 3.2518 -0.6184
-5.2852 3.3123 -0.6190
-5.5381 0.3862 -0.4330
-5.5235 0.4257 -0.4334
-5.4868 0.5441 -0.4365
-5.4382 0.5838 -0.4278
-5.3802 0.6215 -0.4163
-5.3723 0.6595 -0.4183
-5.3174 0.6942 -0.4073
-5.2654 0.7268 -0.3969
-5.2423 0.7612 -0.3945
-5.2292 0.7967 -0.3948
-5.1960 0.8283 -0.3893
-5.1373 0.8899 -0.3803
-5.1247 0.9239 -0.3806
-5.0168 0.9992 -0.3598
-4.9935 1.0263 -0.3565
-5.0125 1.0718 -0.3666
-4.9411 1.1122 -0.3519
-4.9059 1.1300 -0.3443
-4.8627 1.1413 -0.3339
-4.8344 1.1596 -0.3283
-4.8385 1.1983 -0.3337
-4.8018 1.2090 -0.3249
-4.7944 1.2399 -0.3263
-4.7918 1.2748 -0.3294
-4.7678 1.2923 -0.3249
-4.7496 1.3138 -0.3224
-4.7263 1.3298 -0.3178
-4.7048 1.4624 -0.3266
-5.3749 2.3759 -0.6075
-5.3548 2.4302 -0.6080
-5.3024 2.6048 -0.6130
-5.2822 2.6594 -0.6136
-5.2500 2.7824 -0.6184
-5.2215 2.8233 -0.6152
-5.1865 2.8513 -0.6089
-5.1665 2.9053 -0.6094
-5.1465 2.9593 -0.6100
-5.1278 3.1121 -0.6217
-5.4689 0.5800 -0.4798
-5.2209 0.7933 -0.4316
-5.1830 0.8240 -0.4240
-5.1748 0.8599 -0.4259
-5.1423 0.8899 -0.4198
-5.1167 0.9206 -0.4159
-5.1132 0.9575 -0.4193
-5.0365 0.9695 -0.3978
-4.9896 1.0247 -0.3905
-4.9743 1.0549 -0.3896
-4.9454 1.0781 -0.3837
-4.9339 1.1092 -0.3841
-4.9114 1.1342 -0.3804
-4.8775 1.1514 -0.3723
-4.8631 1.1794 -0.3714
-4.8463 1.2054 -0.3695
-4.7846 1.2347 -0.3547
-4.7717 1.2612 -0.3540
-4.7635 1.2916 -0.3552
-4.7377 1.3063 -0.3493
-4.7153 1.3229 -0.3446
-4.6984 1.3437 -0.3421
-4.7067 1.3900 -0.3501
-5.1944 2.1614 -0.5885
-5.1767 2.2094 -0.5889
-5.1589 2.2573 -0.5894
-5.1545 2.3242 -0.5962
-5.1299 2.3629 -0.5935
-5.0933 2.3821 -0.5849
-5.0757 2.4296 -0.5854
-5.0701 2.4970 -0.5918
-5.0650 2.6482 -0.6085
-5.0288 2.6635 -0.5995
-4.9990 2.6888 -0.5937
-4.9813 2.7367 -0.5942
-4.9749 2.8089 -0.6010
-5.8927 -0.0558 -0.5800
-5.8760 -0.0107 -0.5805
-5.8684 0.0318 -0.5835
-5.8325 0.0821 -0.5784
-5.7704 0.1379 -0.5654
-5.7025 0.1931 -0.5504
-5.6704 0.2388 -0.5459
-5.6472 0.2822 -0.5440
-5.5846 0.3313 -0.5299
-5.5334 0.3767 -0.5191
-5.4913 0.4195 -0.5110
-5.0134 0.9974 -0.4304
-5.0014 1.0297 -0.4307
-4.9565 1.0471 -0.4183
-4.9518 1.0818 -0.4213
-4.9189 1.1022 -0.4132
-4.8983 1.1279 -0.4099
-4.8804 1.1545 -0.4075
-4.8626 1.1806 -0.4051
-4.8450 1.2064 -0.4027
-4.8000 1.2488 -0.3935
-4.7806 1.2710 -0.3901
-4.7699 1.2999 -0.3904
-4.7387 1.3104 -0.3816
-5.1135 2.0693 -0.6038
-5.1090 2.1307 -0.6104
-5.0920 2.1764 -0.6109
-5.0691 2.2137 -0.6083
-5.0464 2.2504 -0.6057
-5.0296 2.2957 -0.6061
-5.0185 2.3502 -0.6096
-5.0017 2.3957 -0.6101
-4.9793 2.4316 -0.6075
-4.9225 2.6339 -0.6154
-4.9005 2.6688 -0.6128
-5.6959 -0.0343 -0.5639
-5.6890 0.0035 -0.5668
-5.6660 0.0465 -0.5647
-5.6589 0.0847 -0.5676
-5.6360 0.1274 -0.5655
-5.6133 0.1697 -0.5634
-5.5984 0.2100 -0.5638
-5.6052 0.2458 -0.5714
-5.5901 0.2866 -0.5718
-5.5686 0.3284 -0.5700
-5.5462 0.3699 -0.5679
-5.5448 0.4089 -0.5730
-5.5162 0.4508 -0.5687
-5.4941 0.4916 -0.5666
-5.4720 0.5321 -0.5645
-5.4572 0.5722 -0.5649
-5.3776 0.6110 -0.5421
-4.9903 1.0251 -0.4627
-4.9672 1.0522 -0.4583
-4.9622 1.0874 -0.4616
-4.9504 1.1195 -0.4619
-4.9244 1.1436 -0.4560
-4.8995 1.1673 -0.4505
-4.8847 1.1964 -0.4494
-4.8540 1.2144 -0.4410
-4.8048 1.2549 -0.4292
-4.7854 1.2776 -0.4255
-4.7532 1.2886 -0.4156
-4.7502 1.3240 -0.4195
-4.7239 1.3379 -0.4121
-4.9872 1.8598 -0.5803
-4.9818 1.9122 -0.5858
-4.9809 1.9715 -0.5939
-4.9703 2.0190 -0.5969
-4.9459 2.0472 -0.5922
-4.9255 2.0804 -0.5897
-4.9104 2.1212 -0.5901
-4.8953 2.1620 -0.5905
-4.8981 2.2331 -0.6016
-4.8784 2.2671 -0.5994
-4.8464 2.2777 -0.5895
-4.8478 2.3498 -0.6002
-4.8452 2.4165 -0.6088
-4.8211 2.4408 -0.6036
-4.7979 2.4654 -0.5989
-5.6108 -0.0115 -0.5806
-5.6033 0.0249 -0.5833
-5.5889 0.0638 -0.5837
-5.5823 0.1003 -0.5867
-5.5601 0.1414 -0.5844
-5.5391 0.1819 -0.5825
-5.5183 0.2221 -0.5806
-5.5040 0.2606 -0.5810
-5.4897 0.2992 -0.5814
-5.4469 0.4147 -0.5825
-5.4254 0.4539 -0.5802
-5.4112 0.4922 -0.5806
-5.2424 0.7140 -0.5493
-5.2034 0.7467 -0.5392
-5.1959 0.7829 -0.5419
-5.1099 0.9155 -0.5289
-5.0137 0.9600 -0.4985
-4.9947 0.9898 -0.4958
-4.9828 1.0220 -0.4961
-4.9632 1.0507 -0.4929
-4.9547 1.0843 -0.4948
-4.9170 1.1405 -0.4888
-4.8987 1.1682 -0.4860
-4.8734 1.1908 -0.4796
-4.8500 1.2136 -0.4741
-4.8230 1.2328 -0.4666
-4.7677 1.3040 -0.4561
-4.7457 1.3232 -0.4505
-4.7173 1.3352 -0.4414
-4.9128 1.6197 -0.5606
-4.9228 1.8454 -0.5991
-4.8694 2.0059 -0.6030
-4.8474 2.0329 -0.5987
-4.8086 2.2210 -0.6125
-4.7871 2.2469 -0.6081
-4.7398 2.3555 -0.6065
-5.4585 0.0056 -0.5643
-5.4512 0.0386 -0.5667
-5.4382 0.0738 -0.5671
-5.4251 0.1090 -0.5674
-5.4065 0.1458 -0.5657
-5.3990 0.1794 -0.5681
-5.3914 0.2132 -0.5705
-5.3848 0.2471 -0.5733
-5.3770 0.2814 -0.5757
-5.3585 0.3181 -0.5740
-5.3338 0.3554 -0.5699
-5.3156 0.3914 -0.5682
-5.3026 0.4264 -0.5685
-5.2896 0.4615 -0.5689
-5.2715 0.4969 -0.5672
-5.2686 0.5314 -0.5716
-5.2456 0.5668 -0.5679
-5.2277 0.6016 -0.5661
-5.2149 0.6365 -0.5665
-5.2020 0.6713 -0.5668
-5.1938 0.7065 -0.5693
-5.1809 0.7415 -0.5696
-5.1679 0.7764 -0.5700
-5.1504 0.8105 -0.5682
-5.1329 0.8443 -0.5665
-5.1101 0.8765 -0.5623
-5.0848 0.9074 -0.5568
-5.0305 0.9283 -0.5376
-4.9991 0.9544 -0.5288
-4.9941 0.9893 -0.5324
-4.9864 1.0235 -0.5348
-4.9633 1.0510 -0.5298
-4.9405 1.0779 -0.5247
-4.9213 1.1058 -0.5212
-4.8932 1.1282 -0.5132
-4.8744 1.1549 -0.5097
-4.8365 1.2063 -0.5024
-4.8105 1.2259 -0.4948
-4.7879 1.2468 -0.4888
-4.7633 1.2651 -0.4815
-4.7421 1.2850 -0.4759
-4.7367 1.3184 -0.4792
-4.8119 1.5184 -0.5435
-4.8167 1.6177 -0.5618
-4.8382 1.6932 -0.5832
-4.8285 1.7327 -0.5857
-4.8194 1.7733 -0.5886
-4.8062 1.8088 -0.5889
-4.7892 1.8387 -0.5867
-4.7761 1.8740 -0.5871
-4.7668 1.9153 -0.5900
-4.7536 1.9508 -0.5903
-4.7405 1.9863 -0.5907
-4.7333 2.0325 -0.5953
-4.7235 2.0748 -0.5982
-4.7010 2.0928 -0.5917
-4.6879 2.1283 -0.5921
-4.6714 2.1567 -0.5899
-4.6583 2.1921 -0.5903
-5.3360 0.1912 -0.5827
-5.3397 0.2209 -0.5896
-5.3109 0.2590 -0.5834
-5.2457 0.3344 -0.5674
-5.1200 0.6629 -0.5690
-4.9872 0.9498 -0.5599
-4.9641 0.9776 -0.5545
-4.9490 1.0079 -0.5530
-4.9339 1.0380 -0.5516
-4.9156 1.0663 -0.5483
-4.8924 1.1289 -0.5489
-4.8776 1.1582 -0.5475
-4.8526 1.1807 -0.5402
-4.8294 1.2034 -0.5338
-4.8151 1.2315 -0.5324
-4.7863 1.2481 -0.5224
-4.7648 1.2691 -0.5165
-4.7458 1.2913 -0.5118
-4.7380 1.3229 -0.5139
-4.7453 1.3694 -0.5254
-4.7764 1.4419 -0.5521
-4.7676 1.4762 -0.5542
-4.7587 1.5559 -0.5642
-4.7645 1.6094 -0.5762
-4.7144 1.8957 -0.6041
-4.6434 2.1111 -0.6102
-4.6366 2.1587 -0.6156
-5.2839 0.0598 -0.5726
-5.2768 0.0896 -0.5748
-5.2651 0.1211 -0.5751
-5.2445 0.1555 -0.5717
-5.2286 0.1881 -0.5701
-5.2170 0.2193 -0.5705
-5.2054 0.2505 -0.5708
-5.2024 0.2797 -0.5748
-5.1866 0.3120 -0.5733
-5.1750 0.3433 -0.5736
-5.1675 0.3739 -0.5757
-5.1518 0.4059 -0.5742
-5.1361 0.4377 -0.5726
-5.1205 0.4693 -0.5711
-5.1130 0.5001 -0.5733
-5.0975 0.5314 -0.5717
-5.0899 0.5625 -0.5739
-5.0783 0.5937 -0.5742
-5.0667 0.6249 -0.5745
-5.0552 0.6560 -0.5748
-5.0436 0.6872 -0.5751
-5.0321 0.7184 -0.5754
-5.0122 0.7484 -0.5715
-5.0090 0.7808 -0.5761
-4.9974 0.8120 -0.5764
-4.9742 0.8404 -0.5706
-4.9628 0.8712 -0.5709
-4.9549 0.9032 -0.5731
-4.9434 0.9341 -0.5734
-4.9285 0.9638 -0.5718
-4.9204 0.9960 -0.5740
-4.9198 1.0319 -0.5804
-4.9082 1.0632 -0.5807
-4.8966 1.0945 -0.5811
-4.8818 1.1240 -0.5795
-4.8631 1.1508 -0.5755
-4.8485 1.1798 -0.5740
-4.8340 1.2085 -0.5724
-4.8080 1.2285 -0.5637
-4.7968 1.2588 -0.5640
-4.7796 1.2841 -0.5605
-4.7604 1.3071 -0.5556
-4.7443 1.3321 -0.5526
-4.7333 1.3617 -0.5529
-4.7146 1.3833 -0.5479
-4.7058 1.4148 -0.5497
-4.7004 1.4504 -0.5538
-4.7017 1.4943 -0.5626
-4.7013 1.5376 -0.5705
-4.7085 1.5919 -0.5841
-4.6995 1.6266 -0.5864
-4.6905 1.6616 -0.5886
-4.6813 1.6967 -0.5908
-4.6697 1.7282 -0.5911
-4.6556 1.7558 -0.5895
-4.6415 1.7832 -0.5879
-4.6323 1.8186 -0.5902
-4.6183 1.8458 -0.5886
-4.6067 1.8771 -0.5889
-4.5951 1.9084 -0.5892
-4.5835 1.9397 -0.5895
-4.5763 1.9803 -0.5936
-4.5689 2.0214 -0.5978
-4.5571 2.0531 -0.5981
-5.2021 0.1114 -0.5780
-5.1954 0.1398 -0.5802
-5.1931 0.1669 -0.5845
-4.8921 0.8829 -0.5733
-4.8687 0.9745 -0.5797
-4.8454 0.9985 -0.5725
-4.8256 1.0232 -0.5673
-4.8270 1.0585 -0.5750
-4.8106 1.0846 -0.5718
-4.7968 1.1478 -0.5774
-4.7674 1.2009 -0.5730
-4.7377 1.2524 -0.5681
-4.7351 1.2882 -0.5739
-4.7243 1.3173 -0.5742
-4.7057 1.3388 -0.5689
-4.6881 1.3604 -0.5642
-4.6699 1.3807 -0.5590
-4.6574 1.4066 -0.5577
-4.6631 1.4539 -0.5701
-4.6643 1.4976 -0.5794
-4.6581 1.5328 -0.5832
-4.5634 1.8563 -0.5993
-4.5500 1.8819 -0.5976
-4.5410 1.9166 -0.5999
-5.1228 0.1115 -0.5704
-5.1169 0.1378 -0.5727
-5.1065 0.1659 -0.5730
-5.0994 0.1929 -0.5748
-5.0890 0.2210 -0.5751
-5.0786 0.2492 -0.5754
-5.0649 0.2782 -0.5741
-5.0609 0.3047 -0.5775
-5.0399 0.3353 -0.5726
-5.0296 0.3633 -0.5729
-5.0130 0.3924 -0.5700
-5.0088 0.4193 -0.5734
-5.0025 0.4467 -0.5758
-4.9851 0.4755 -0.5724
-4.9777 0.5032 -0.5743
-4.9615 0.5315 -0.5714
-4.9512 0.5593 -0.5717
-4.9505 0.5871 -0.5772
-4.9363 0.6151 -0.5754
-4.9231 0.6429 -0.5741
-4.9127 0.6708 -0.5744
-4.9024 0.6987 -0.5747
-4.8948 0.7270 -0.5765
-4.8880 0.7557 -0.5789
-4.8584 0.8097 -0.5742
-4.8394 0.8351 -0.5692
-4.8352 0.8645 -0.5732
-4.8249 0.8923 -0.5735
-4.8197 0.9219 -0.5769
-4.8119 0.9509 -0.5787
-4.7990 0.9777 -0.5774
-4.7887 1.0056 -0.5777
-4.7760 1.0322 -0.5764
-4.7704 1.0628 -0.5799
-4.7577 1.0893 -0.5786
-4.7474 1.1172 -0.5788
-4.7370 1.1451 -0.5791
-4.7267 1.1730 -0.5794
-4.7186 1.2027 -0.5812
-4.7134 1.2349 -0.5852
-4.7008 1.2612 -0.5839
-4.6975 1.2959 -0.5895
-4.6771 1.3146 -0.5824
-4.6695 1.3454 -0.5848
-4.6523 1.3661 -0.5797
-4.6399 1.3916 -0.5784
-4.6317 1.4217 -0.5803
-4.6168 1.4438 -0.5769
-4.6091 1.4748 -0.5793
-4.6046 1.5104 -0.5843
-4.5942 1.5384 -0.5846
-4.5882 1.5729 -0.5886
-4.5777 1.6010 -0.5889
-4.5691 1.6321 -0.5908
-4.5586 1.6604 -0.5910
-4.5447 1.6824 -0.5881
-4.5360 1.7137 -0.5900
-4.5255 1.7419 -0.5903
-4.5151 1.7700 -0.5906
-4.5031 1.7948 -0.5892
-4.4927 1.8229 -0.5895
-4.4802 1.8462 -0.5877
-4.4683 1.8705 -0.5863
-5.0238 0.2606 -0.5800
-5.0202 0.2859 -0.5835
-5.0069 0.3138 -0.5822
-4.9493 0.3999 -0.5682
-4.9456 0.4253 -0.5717
-4.9230 0.4786 -0.5706
-4.8295 0.7157 -0.5697
-4.8331 0.7443 -0.5782
-4.7888 0.8202 -0.5696
-4.7791 0.8464 -0.5699
-4.7618 0.8700 -0.5652
-4.7471 0.8941 -0.5621
-4.7475 0.9241 -0.5690
-4.7354 0.9491 -0.5676
-4.7346 0.9795 -0.5740
-4.7272 1.0071 -0.5759
-4.7053 1.0585 -0.5747
-4.6797 1.1070 -0.5708
-4.6678 1.1315 -0.5694
-4.6640 1.1622 -0.5741
-4.6314 1.2734 -0.5802
-4.6195 1.2978 -0.5788
-4.6118 1.3264 -0.5807
-4.6040 1.3552 -0.5827
-4.5482 1.4389 -0.5692
-4.4578 1.7574 -0.5883
-4.4526 1.7948 -0.5936
-4.9846 0.1780 -0.5691
-4.9753 0.2033 -0.5693
-4.9659 0.2285 -0.5696
-4.9598 0.2527 -0.5715
-4.9504 0.2780 -0.5718
-4.9379 0.3042 -0.5703
-4.9369 0.3273 -0.5752
-4.9275 0.3528 -0.5754
-4.9211 0.3776 -0.5774
-4.9177 0.4020 -0.5811
-4.8972 0.4295 -0.5750
-4.8957 0.4538 -0.5799
-4.8862 0.4794 -0.5801
-4.8767 0.5050 -0.5804
-4.8615 0.5309 -0.5772
-4.8520 0.5564 -0.5774
-4.8379 0.5818 -0.5748
-4.8313 0.6072 -0.5768
-4.8219 0.6326 -0.5770
-4.7838 0.7074 -0.5714
-4.7816 0.7337 -0.5763
-4.7748 0.7596 -0.5783
-4.7585 0.7833 -0.5739
-4.7535 0.8097 -0.5771
-4.7415 0.8342 -0.5756
-4.7372 0.8612 -0.5793
-4.7278 0.8866 -0.5796
-4.7184 0.9120 -0.5798
-4.7041 0.9351 -0.5766
-4.6972 0.9616 -0.5786
-4.6918 0.9890 -0.5818
-4.6784 1.0122 -0.5791
-4.6690 1.0375 -0.5794
-4.6574 1.0613 -0.5779
-4.6503 1.0881 -0.5799
-4.6387 1.1118 -0.5784
-4.6279 1.1359 -0.5774
-4.6164 1.1592 -0.5760
-4.6128 1.1894 -0.5809
-4.6090 1.2200 -0.5858
-4.5975 1.2435 -0.5843
-4.5846 1.2653 -0.5816
-4.5719 1.2870 -0.5790
-4.5679 1.3183 -0.5839
-4.5598 1.3452 -0.5853
-4.5490 1.3691 -0.5844
-4.5377 1.3919 -0.5829
-4.5302 1.4198 -0.5849
-4.5208 1.4452 -0.5851
-4.5163 1.4780 -0.5901
-4.5020 1.4960 -0.5857
-4.4955 1.5263 -0.5888
-4.4878 1.5548 -0.5909
-4.4766 1.5773 -0.5894
-4.4705 1.6092 -0.5931
-4.4550 1.6230 -0.5869
-4.4439 1.6451 -0.5854
-4.4362 1.6738 -0.5874
-4.4278 1.7015 -0.5889
-4.4158 1.7210 -0.5862
-4.4049 1.7427 -0.5847
-4.8942 0.3124 -0.5748
-4.8904 0.3353 -0.5781
-4.8472 0.4341 -0.5748
-4.7485 0.7007 -0.5775
-4.7351 0.7242 -0.5747
-4.7146 0.7717 -0.5733
-4.7126 0.7976 -0.5784
-4.6604 0.8878 -0.5672
-4.6652 0.9177 -0.5778
-4.6523 0.9399 -0.5750
-4.6458 0.9652 -0.5771
-4.6243 1.0410 -0.5821
-4.5900 1.1081 -0.5767
-4.5811 1.1321 -0.5769
-4.5743 1.1580 -0.5790
-4.5343 1.2838 -0.5845
-4.5221 1.3042 -0.5817
-4.4236 1.5699 -0.5843
-4.4120 1.5885 -0.5815
-4.4073 1.6216 -0.5867
-4.8985 0.1825 -0.5734
-4.8942 0.2040 -0.5762
-4.8856 0.2273 -0.5764
-4.8769 0.2507 -0.5766
-4.8757 0.2715 -0.5813
-4.8649 0.2957 -0.5802
-4.8510 0.3207 -0.5773
-4.8403 0.3445 -0.5763
-4.8317 0.3678 -0.5765
-4.8190 0.3920 -0.5743
-4.8104 0.4152 -0.5745
-4.8078 0.4374 -0.5785
-4.7932 0.4615 -0.5749
-4.7905 0.4840 -0.5790
-4.7732 0.5081 -0.5735
-4.7713 0.5308 -0.5782
-4.7627 0.5541 -0.5784
-4.7540 0.5774 -0.5786
-4.7454 0.6007 -0.5789
-4.7285 0.6236 -0.5734
-4.7245 0.6470 -0.5768
-4.7195 0.6705 -0.5796
-4.7127 0.6941 -0.5811
-4.6919 0.7400 -0.5790
-4.6773 0.7618 -0.5748
-4.6747 0.7865 -0.5794
-4.6678 0.8102 -0.5809
-4.6608 0.8341 -0.5825
-4.6505 0.8568 -0.5814
-4.6330 0.8764 -0.5747
-4.6333 0.9034 -0.5819
-4.6262 0.9275 -0.5834
-4.6144 0.9491 -0.5811
-4.6020 0.9702 -0.5781
-4.5957 0.9947 -0.5803
-4.5871 1.0178 -0.5805
-4.5815 1.0431 -0.5833
-4.5678 1.0626 -0.5790
-4.5642 1.0897 -0.5837
-4.5570 1.1142 -0.5852
-4.5470 1.1362 -0.5842
-4.5384 1.1595 -0.5844
-4.5359 1.1889 -0.5904
-4.5224 1.2075 -0.5862
-4.5125 1.2294 -0.5851
-4.5039 1.2527 -0.5854
-4.4965 1.2775 -0.5869
-4.4898 1.3033 -0.5890
-4.4792 1.3242 -0.5873
-4.4706 1.3475 -0.5876
-4.4619 1.3709 -0.5878
-4.4509 1.3905 -0.5855
-4.4435 1.4157 -0.5870
-4.4348 1.4389 -0.5872
-4.4262 1.4622 -0.5875
-4.4204 1.4906 -0.5909
-4.4100 1.5109 -0.5892
-4.3993 1.5299 -0.5869
-4.3896 1.5510 -0.5858
-4.3821 1.5764 -0.5873
-4.3755 1.6043 -0.5901
-4.3683 1.6311 -0.5923
-4.3606 1.6570 -0.5938
-4.7761 0.4185 -0.5794
-4.7638 0.4416 -0.5770
-4.7333 0.5091 -0.5738
-4.7194 0.5316 -0.5700
-4.6949 0.5976 -0.5707
-4.6940 0.6199 -0.5762
-4.6858 0.6421 -0.5764
-4.6740 0.6639 -0.5740
-4.6711 0.6868 -0.5782
-4.6409 0.7285 -0.5680
-4.6345 0.7507 -0.5696
-4.6281 0.7731 -0.5711
-4.6233 0.7960 -0.5740
-4.6085 0.8407 -0.5757
-4.5972 0.8615 -0.5733
-4.5890 0.8835 -0.5735
-4.5777 0.9039 -0.5711
-4.5681 0.9250 -0.5700
-4.5615 0.9477 -0.5715
-4.5504 0.9677 -0.5691
-4.5423 0.9895 -0.5693
-4.5328 1.0103 -0.5682
-4.5247 1.0320 -0.5684
-4.5267 1.0617 -0.5779
-4.5171 1.0826 -0.5768
-4.5103 1.1059 -0.5784
-4.4926 1.1487 -0.5775
-4.4831 1.1694 -0.5764
-4.4749 1.1914 -0.5766
-4.4542 1.2622 -0.5813
-4.4497 1.2894 -0.5855
-4.4073 1.3990 -0.5853
-4.3825 1.4658 -0.5859
-4.3753 1.4902 -0.5875
-4.3660 1.5103 -0.5864
-4.3588 1.5348 -0.5879
-4.8226 0.1873 -0.5757
-4.8125 0.2097 -0.5745
-4.8024 0.2320 -0.5734
-4.8009 0.2509 -0.5777
-4.7887 0.2739 -0.5752
-4.7787 0.2960 -0.5740
-4.7791 0.3148 -0.5797
-4.7670 0.3375 -0.5772
-4.7590 0.3590 -0.5774
-4.7531 0.3800 -0.5790
-4.7451 0.4015 -0.5792
-4.7391 0.4226 -0.5808
-4.7272 0.4449 -0.5782
-4.7212 0.4661 -0.5798
-4.7171 0.4871 -0.5828
-4.7052 0.5091 -0.5803
-4.6954 0.5307 -0.5791
-4.6874 0.5522 -0.5793
-4.6776 0.5737 -0.5782
-4.6715 0.5951 -0.5797
-4.6654 0.6167 -0.5813
-4.6556 0.6381 -0.5802
-4.6494 0.6597 -0.5818
-4.6484 0.6822 -0.5875
-4.6369 0.7033 -0.5849
-4.6238 0.7239 -0.5810
-4.6142 0.7450 -0.5799
-4.6096 0.7673 -0.5828
-4.5983 0.7878 -0.5803
-4.5904 0.8092 -0.5805
-4.5824 0.8306 -0.5807
-4.5555 0.8933 -0.5786
-4.5492 0.9155 -0.5802
-4.5219 1.0040 -0.5852
-4.5196 1.0299 -0.5909
-4.5031 1.0448 -0.5828
-4.4952 1.0662 -0.5831
-4.4859 1.0864 -0.5819
-4.4779 1.1077 -0.5821
-4.4687 1.1277 -0.5809
-4.4648 1.1532 -0.5853
-4.4607 1.1791 -0.5897
-4.4501 1.1977 -0.5871
-4.4434 1.2208 -0.5887
-4.4379 1.2455 -0.5917
-4.4262 1.2622 -0.5878
-4.4158 1.2803 -0.5852
-4.4114 1.3070 -0.5896
-4.4035 1.3286 -0.5898
-4.3955 1.3502 -0.5900
-4.3863 1.3698 -0.5888
-4.3806 1.3953 -0.5918
-4.3704 1.4129 -0.5893
-4.3635 1.4365 -0.5909
-4.3545 1.4559 -0.5897
-4.3485 1.4818 -0.5927
-4.3415 1.5057 -0.5943
-4.3315 1.5227 -0.5917
-4.3216 1.5396 -0.5892
-4.3146 1.5635 -0.5908
-4.7642 0.2261 -0.5683
-4.7545 0.2473 -0.5671
-4.7523 0.2656 -0.5709
-4.7447 0.2860 -0.5711
-4.7351 0.3072 -0.5699
-4.7409 0.3233 -0.5793
-4.7312 0.3446 -0.5781
-4.7165 0.3672 -0.5733
-4.7119 0.3869 -0.5757
-4.7082 0.4066 -0.5787
-4.7045 0.4265 -0.5818
-4.6910 0.4483 -0.5777
-4.6872 0.4683 -0.5807
-4.6728 0.4899 -0.5760
-4.6699 0.5100 -0.5797
-4.6585 0.5309 -0.5771
-4.6500 0.5515 -0.5766
-4.6160 0.6334 -0.5745
-4.6102 0.6541 -0.5762
-4.6043 0.6748 -0.5778
-4.5933 0.6948 -0.5752
-4.5874 0.7155 -0.5768
-4.5781 0.7356 -0.5756
-4.5570 0.7975 -0.5776
-4.5518 0.8189 -0.5800
-4.5419 0.8385 -0.5780
-4.5282 0.8802 -0.5799
-4.5191 0.8999 -0.5786
-4.5032 0.9157 -0.5709
-4.5009 0.9391 -0.5762
-4.4694 1.0463 -0.5837
-4.4568 1.0902 -0.5869
-4.3976 1.2278 -0.5819
-4.3740 1.3210 -0.5914
-4.3427 1.4031 -0.5915
-4.3350 1.4239 -0.5917
-4.3201 1.4666 -0.5928
-4.3119 1.4863 -0.5923
-4.3023 1.5024 -0.5896
-4.7496 0.2116 -0.5774
-4.7400 0.2325 -0.5762
-4.7327 0.2524 -0.5764
-4.7274 0.2714 -0.5780
-4.7138 0.2937 -0.5738
-4.7127 0.3113 -0.5784
-4.6991 0.3332 -0.5742
-4.6918 0.3530 -0.5744
-4.6855 0.3725 -0.5753
-4.6751 0.3931 -0.5733
-4.6728 0.4117 -0.5772
-4.6634 0.4319 -0.5759
-4.6551 0.4519 -0.5754
-4.6574 0.4702 -0.5830
-4.6443 0.4910 -0.5788
-4.6454 0.5100 -0.5856
-4.6268 0.5309 -0.5769
-4.6240 0.5505 -0.5808
-4.6139 0.5705 -0.5788
-4.6092 0.5904 -0.5812
-4.6036 0.6104 -0.5829
-4.5918 0.6301 -0.5794
-4.5827 0.6498 -0.5781
-4.5814 0.6704 -0.5835
-4.5681 0.6894 -0.5785
-4.5649 0.7100 -0.5824
-4.5575 0.7300 -0.5826
-4.5461 0.7488 -0.5791
-4.5403 0.7691 -0.5808
-4.5306 0.7881 -0.5788
-4.5264 0.8091 -0.5819
-4.5183 0.8287 -0.5814
-4.5117 0.8489 -0.5823
-4.4982 0.8657 -0.5766
-4.4924 0.8862 -0.5782
-4.4852 0.9302 -0.5861
-4.4792 0.9512 -0.5878
-4.4675 0.9682 -0.5835
-4.4601 0.9880 -0.5837
-4.4507 1.0062 -0.5817
-4.4468 1.0290 -0.5856
-4.4394 1.0489 -0.5858
-4.4280 1.0650 -0.5815
-4.4213 1.0855 -0.5825
-4.4153 1.1067 -0.5842
-4.4037 1.1501 -0.5883
-4.3951 1.1685 -0.5870
-4.3865 1.1869 -0.5857
-4.3791 1.2068 -0.5859
-4.3741 1.2301 -0.5891
-4.3638 1.2457 -0.5855
-4.3581 1.2682 -0.5880
-4.3507 1.2882 -0.5882
-4.3461 1.3129 -0.5921
-4.3370 1.3300 -0.5901
-4.3275 1.3459 -0.5873
-4.3212 1.3679 -0.5890
-4.3138 1.3878 -0.5892
-4.3074 1.4100 -0.5909
-4.3010 1.4322 -0.5926
-4.2936 1.4522 -0.5928
-4.2866 1.4734 -0.5937
-4.2801 1.4959 -0.5954
-4.7098 0.2100 -0.5681
-4.7001 0.2460 -0.5716
-4.6920 0.2654 -0.5710
-4.6891 0.2828 -0.5742
-4.6852 0.3007 -0.5767
-4.6781 0.3199 -0.5769
-4.6639 0.3582 -0.5773
-4.6508 0.3791 -0.5729
-4.6497 0.3965 -0.5777
-4.6455 0.4150 -0.5802
-4.6326 0.4355 -0.5758
-4.6226 0.4551 -0.5737
-4.6127 0.4746 -0.5715
-4.6085 0.4932 -0.5740
-4.6015 0.5122 -0.5742
-4.5919 0.5500 -0.5784
-4.5803 0.5692 -0.5748
-4.5724 0.5882 -0.5742
-4.5680 0.6073 -0.5767
-4.5592 0.6262 -0.5754
-4.5513 0.6452 -0.5748
-4.5417 0.6638 -0.5727
-4.5398 0.6836 -0.5775
-4.5302 0.7021 -0.5754
-4.5232 0.7211 -0.5755
-4.5145 0.7397 -0.5742
-4.5051 0.7579 -0.5721
-4.5005 0.7775 -0.5746
-4.4927 0.7962 -0.5740
-4.4888 0.8164 -0.5773
-4.4809 0.8350 -0.5767
-4.4676 0.8734 -0.5778
-4.4576 0.8907 -0.5749
-4.4528 0.9110 -0.5774
-4.4458 0.9300 -0.5776
-4.4409 0.9505 -0.5801
-4.4324 0.9685 -0.5788
-4.4233 0.9858 -0.5766
-4.4176 1.0059 -0.5784
-4.4106 1.0249 -0.5786
-4.3963 1.0369 -0.5702
-4.3913 1.0575 -0.5728
-4.3895 1.0819 -0.5791
-4.3850 1.1037 -0.5824
-4.3810 1.1265 -0.5865
-4.3668 1.1650 -0.5869
-4.3585 1.1826 -0.5855
-4.3490 1.1983 -0.5826
-4.3437 1.2200 -0.5851
-4.3240 1.2803 -0.5880
-4.3137 1.2937 -0.5836
-4.3119 1.3228 -0.5915
-4.3058 1.3442 -0.5933
-4.2971 1.3604 -0.5911
-4.2889 1.3775 -0.5898
-4.2747 1.4160 -0.5902
-4.2685 1.4376 -0.5919
-3.5816 0.1799 -0.2581
-3.5766 0.1838 -0.2613
-3.5720 0.1890 -0.2636
-3.5669 0.1933 -0.2668
-3.5622 0.1988 -0.2692
-3.5575 0.2044 -0.2715
-3.5532 0.2111 -0.2732
-3.5478 0.2161 -0.2763
-3.5435 0.2231 -0.2779
-3.5374 0.2277 -0.2818
-3.5323 0.2341 -0.2842
-3.5221 0.2475 -0.2890
-3.5169 0.2544 -0.2914
-3.5097 0.2594 -0.2961
-3.5031 0.2654 -0.3000
-3.4983 0.2735 -0.3017
-3.4833 0.2856 -0.3111
-3.4783 0.2942 -0.3127
-3.4719 0.3019 -0.3159
-3.4380 0.3176 -0.3408
-3.4340 0.3283 -0.3409
-3.4336 0.3410 -0.3372
-3.4212 0.3602 -0.3420
-3.4046 0.3786 -0.3507
-3.3950 0.3878 -0.3562
-3.3877 0.3982 -0.3594
-3.3711 0.4190 -0.3674
-3.3569 0.4288 -0.3768
-3.3249 0.4629 -0.3942
-3.3176 0.4753 -0.3966
-3.3042 0.4876 -0.4045
-3.2848 0.5136 -0.4132
-3.2692 0.5274 -0.4227
-3.0214 0.7725 -0.5630
-3.0084 0.7931 -0.5678
-2.9912 0.8158 -0.5758
-2.9832 0.8348 -0.5768
-2.9731 0.8548 -0.5793
-2.9661 0.8734 -0.5794
-2.9592 0.8920 -0.5796
-2.9500 0.9117 -0.5814
-3.5799 0.1802 -0.2492
-3.5759 0.1861 -0.2507
-3.5662 0.1954 -0.2561
-3.5605 0.1989 -0.2598
-3.5563 0.2054 -0.2614
-3.5515 0.2112 -0.2637
-3.5466 0.2170 -0.2660
-3.5428 0.2247 -0.2668
-3.5373 0.2301 -0.2699
-3.5299 0.2333 -0.2751
-3.5254 0.2406 -0.2767
-3.5202 0.2473 -0.2790
-3.5144 0.2535 -0.2821
-3.5078 0.2592 -0.2859
-3.4970 0.2739 -0.2905
-3.4853 0.2887 -0.2959
-3.4783 0.2955 -0.2997
-3.4705 0.3021 -0.3042
-3.4655 0.3109 -0.3058
-3.4440 0.3091 -0.3245
-3.4365 0.3175 -0.3283
-3.4325 0.3282 -0.3284
-3.4336 0.3416 -0.3233
-3.4290 0.3517 -0.3242
-3.4197 0.3599 -0.3295
-3.4111 0.3687 -0.3341
-3.4016 0.3776 -0.3394
-3.3943 0.3876 -0.3425
-3.3877 0.3980 -0.3448
-3.3803 0.4084 -0.3479
-3.3703 0.4185 -0.3532
-3.3586 0.4286 -0.3601
-3.3363 0.4505 -0.3722
-3.3291 0.4624 -0.3746
-3.3159 0.4742 -0.3822
-3.3068 0.4866 -0.3861
-3.2959 0.4992 -0.3914
-3.2839 0.5123 -0.3975
-3.2745 0.5256 -0.4014
-3.2595 0.5396 -0.4098
-3.2490 0.5537 -0.4144
-3.2392 0.5680 -0.4183
-2.9632 0.8397 -0.5683
-2.9551 0.8591 -0.5692
-2.9448 0.8795 -0.5716
-2.9344 0.9002 -0.5741
-2.9273 0.9192 -0.5743
-3.5782 0.1805 -0.2403
-3.5742 0.1864 -0.2418
-3.5696 0.1914 -0.2440
-3.5645 0.1956 -0.2469
-3.5598 0.2010 -0.2492
-3.5551 0.2065 -0.2514
-3.5508 0.2130 -0.2529
-3.5460 0.2188 -0.2551
-3.5411 0.2248 -0.2573
-3.5305 0.2364 -0.2625
-3.5235 0.2406 -0.2668
-3.5196 0.2487 -0.2676
-3.5144 0.2555 -0.2699
-3.5091 0.2624 -0.2721
-3.5025 0.2682 -0.2758
-3.4964 0.2749 -0.2787
-3.4896 0.2812 -0.2824
-3.4840 0.2889 -0.2846
-3.4777 0.2962 -0.2876
-3.4727 0.3048 -0.2891
-3.4627 0.3100 -0.2956
-3.4433 0.3096 -0.3115
-3.4357 0.3178 -0.3152
-3.4340 0.3297 -0.3132
-3.4345 0.3425 -0.3089
-3.4283 0.3518 -0.3112
-3.4198 0.3602 -0.3156
-3.4089 0.3680 -0.3222
-3.4025 0.3780 -0.3244
-3.3756 0.4070 -0.3377
-3.3688 0.4178 -0.3400
-3.3612 0.4286 -0.3430
-3.3510 0.4393 -0.3481
-3.3389 0.4501 -0.3547
-3.3301 0.4617 -0.3584
-3.3203 0.4735 -0.3629
-3.3086 0.4856 -0.3688
-3.2968 0.4980 -0.3746
-3.2876 0.5109 -0.3784
-3.2746 0.5241 -0.3850
-3.2614 0.5379 -0.3916
-3.2508 0.5518 -0.3961
-3.2392 0.5662 -0.4013
-3.2126 0.5966 -0.4138
-2.9094 0.9083 -0.5676
-2.8932 0.9324 -0.5736
-2.8847 0.9527 -0.5745
-3.5725 0.1867 -0.2329
-3.5674 0.1907 -0.2357
-3.5638 0.1978 -0.2365
-3.5592 0.2030 -0.2386
-3.5550 0.2094 -0.2401
-3.5496 0.2140 -0.2429
-3.5448 0.2198 -0.2450
-3.5387 0.2240 -0.2485
-3.5349 0.2317 -0.2493
-3.5293 0.2371 -0.2521
-3.5236 0.2428 -0.2550
-3.5197 0.2508 -0.2557
-3.5132 0.2561 -0.2593
-3.5079 0.2629 -0.2614
-3.5019 0.2693 -0.2643
-3.4958 0.2759 -0.2671
-3.4883 0.2815 -0.2713
-3.4828 0.2892 -0.2735
-3.4765 0.2964 -0.2763
-3.4708 0.3044 -0.2785
-3.4615 0.3101 -0.2841
-3.4447 0.3114 -0.2966
-3.4365 0.3191 -0.3009
-3.4325 0.3295 -0.3010
-3.4347 0.3431 -0.2955
-3.4285 0.3523 -0.2977
-3.4192 0.3602 -0.3026
-3.4114 0.3692 -0.3062
-3.4034 0.3784 -0.3098
-3.3962 0.3881 -0.3126
-3.3790 0.4076 -0.3205
-3.3690 0.4175 -0.3254
-3.3597 0.4279 -0.3297
-3.3520 0.4388 -0.3326
-3.3390 0.4494 -0.3396
-3.3267 0.4606 -0.3460
-3.3169 0.4723 -0.3503
-3.3061 0.4844 -0.3552
-3.2987 0.4969 -0.3574
-3.2728 0.5228 -0.3702
-3.2633 0.5362 -0.3738
-3.2499 0.5503 -0.3802
-3.2354 0.5649 -0.3873
-3.2227 0.5798 -0.3930
-3.2078 0.5954 -0.4001
-3.1957 0.6110 -0.4051
-3.1710 0.6432 -0.4151
-3.5754 0.1822 -0.2220
-3.5708 0.1869 -0.2241
-3.5622 0.1980 -0.2275
-3.5580 0.2041 -0.2289
-3.5533 0.2095 -0.2310
-3.5474 0.2132 -0.2343
-3.5425 0.2190 -0.2364
-3.5370 0.2240 -0.2391
-3.5338 0.2325 -0.2392
-3.5294 0.2395 -0.2406
-3.5230 0.2442 -0.2440
-3.5166 0.2492 -0.2474
-3.5114 0.2559 -0.2494
-3.5061 0.2628 -0.2515
-3.5014 0.2705 -0.2529
-3.4940 0.2757 -0.2570
-3.4878 0.2825 -0.2597
-3.4823 0.2900 -0.2618
-3.4752 0.2966 -0.2652
-3.4695 0.3046 -0.2673
-3.4573 0.3081 -0.2753
-3.4441 0.3119 -0.2840
-3.4351 0.3190 -0.2888
-3.4342 0.3311 -0.2862
-3.4265 0.3517 -0.2864
-3.4187 0.3603 -0.2898
-3.4021 0.3780 -0.2974
-3.3932 0.3871 -0.3015
-3.3850 0.3968 -0.3049
-3.3784 0.4072 -0.3070
-3.3659 0.4164 -0.3138
-3.3591 0.4273 -0.3159
-3.3522 0.4383 -0.3180
-3.3392 0.4487 -0.3247
-3.3278 0.4598 -0.3302
-3.3189 0.4715 -0.3337
-3.3072 0.4834 -0.3391
-3.2980 0.4957 -0.3426
-3.2879 0.5083 -0.3467
-3.2767 0.5212 -0.3515
-3.2597 0.5350 -0.3603
-3.2519 0.5484 -0.3624
-3.2403 0.5625 -0.3672
-3.2218 0.5780 -0.3767
-3.2088 0.5932 -0.3822
-3.1957 0.6088 -0.3877
-3.1854 0.6241 -0.3912
-3.1740 0.6400 -0.3954
-3.1534 0.6587 -0.4056
-3.1386 0.6763 -0.4117
-3.1278 0.6931 -0.4152
-3.5703 0.1893 -0.2140
-3.5662 0.1951 -0.2154
-3.5616 0.2001 -0.2173
-3.5586 0.2081 -0.2174
-3.5522 0.2106 -0.2213
-3.5480 0.2169 -0.2226
-3.5419 0.2208 -0.2259
-3.5376 0.2274 -0.2272
-3.5320 0.2326 -0.2298
-3.5270 0.2387 -0.2318
-3.5219 0.2449 -0.2338
-3.5168 0.2514 -0.2358
-3.5128 0.2594 -0.2365
-3.5003 0.2709 -0.2424
-3.4935 0.2767 -0.2456
-3.4873 0.2834 -0.2483
-3.4804 0.2897 -0.2515
-3.4755 0.2980 -0.2529
-3.4698 0.3058 -0.2549
-3.4420 0.3114 -0.2729
-3.4367 0.3207 -0.2743
-3.4352 0.3444 -0.2694
-3.4267 0.3522 -0.2733
-3.4198 0.3610 -0.2759
-3.4111 0.3694 -0.2799
-3.3959 0.3880 -0.2858
-3.3845 0.3965 -0.2917
-3.3770 0.4066 -0.2943
-3.3695 0.4168 -0.2970
-3.3602 0.4270 -0.3009
-3.3508 0.4375 -0.3049
-3.3421 0.4484 -0.3082
-3.3298 0.4592 -0.3140
-3.3182 0.4706 -0.3193
-3.3083 0.4824 -0.3232
-3.2769 0.5199 -0.3358
-3.2627 0.5333 -0.3423
-3.2531 0.5467 -0.3457
-3.2376 0.5611 -0.3528
-3.2248 0.5757 -0.3581
-3.2109 0.5909 -0.3640
-3.2007 0.6057 -0.3674
-3.1585 0.6548 -0.3845
-3.1386 0.6737 -0.3937
-3.1184 0.6933 -0.4028
-3.1011 0.7126 -0.4101
-3.0921 0.7294 -0.4122
-3.5558 0.2064 -0.2098
-3.5517 0.2126 -0.2111
-3.5421 0.2235 -0.2149
-3.5347 0.2258 -0.2192
-3.5309 0.2334 -0.2199
