ply
format ascii 1.0
element vertex 2061
property float x
property float y
property float z
end_header
-3.5919 0.1868 -0.0761
-3.5858 0.1931 -0.0765
-3.5804 0.2002 -0.0768
-3.5735 0.2059 -0.0774
-3.5673 0.2124 -0.0778
-3.5617 0.2198 -0.0781
-3.5546 0.2258 -0.0787
-3.5489 0.2333 -0.0790
-3.5424 0.2402 -0.0795
-3.5383 0.2491 -0.0794
-3.5317 0.2561 -0.0799
-3.5260 0.2638 -0.0801
-3.5168 0.2693 -0.0811
-3.5109 0.2772 -0.0814
-3.5042 0.2846 -0.0819
-3.4965 0.2917 -0.0825
-3.4913 0.3002 -0.0826
-3.4844 0.3079 -0.0831
-3.4765 0.3153 -0.0837
-3.4555 0.3175 -0.0869
-3.4454 0.3248 -0.0879
-3.4389 0.3336 -0.0882
-3.4420 0.3456 -0.0867
-3.4386 0.3552 -0.0864
-3.4322 0.3639 -0.0867
-3.4227 0.3719 -0.0875
-3.4152 0.3806 -0.0880
-3.4097 0.3897 -0.0881
-3.4032 0.3986 -0.0884
-3.3913 0.4069 -0.0896
-3.3824 0.4159 -0.0903
-3.3768 0.4252 -0.0904
-3.3656 0.4342 -0.0914
-3.3576 0.4436 -0.0919
-3.3485 0.4531 -0.0926
-3.3439 0.4627 -0.0925
-3.3334 0.4723 -0.0934
-3.3252 0.4821 -0.0939
-3.3134 0.4922 -0.0949
-3.3062 0.5021 -0.0952
-3.2966 0.5123 -0.0959
-3.2894 0.5224 -0.0962
-3.2834 0.5324 -0.0963
-3.2673 0.5439 -0.0980
-3.2611 0.5540 -0.0981
-3.2537 0.5644 -0.0984
-3.2424 0.5756 -0.0993
-3.2362 0.5859 -0.0994
-3.6724 0.0986 -0.0620
-3.6671 0.1035 -0.0624
-3.6623 0.1096 -0.0626
-3.6569 0.1147 -0.0630
-3.6514 0.1199 -0.0634
-3.6459 0.1252 -0.0638
-3.6414 0.1326 -0.0639
-3.6353 0.1370 -0.0644
-3.6297 0.1426 -0.0648
-3.6257 0.1511 -0.0647
-3.6193 0.1558 -0.0653
-3.6141 0.1625 -0.0655
-3.6089 0.1693 -0.0657
-3.6024 0.1743 -0.0663
-3.5971 0.1812 -0.0665
-3.5917 0.1882 -0.0668
-3.5857 0.1943 -0.0671
-3.5803 0.2014 -0.0674
-3.5679 0.2142 -0.0682
-3.5609 0.2200 -0.0687
-3.5561 0.2281 -0.0688
-3.5497 0.2348 -0.0692
-3.5425 0.2409 -0.0698
-3.5368 0.2485 -0.0700
-3.5311 0.2560 -0.0703
-3.5245 0.2631 -0.0707
-3.5154 0.2686 -0.0715
-3.5103 0.2770 -0.0716
-3.5044 0.2849 -0.0719
-3.4976 0.2923 -0.0723
-3.4899 0.2994 -0.0728
-3.4838 0.3075 -0.0731
-3.4750 0.3144 -0.0738
-3.4457 0.3245 -0.0771
-3.4402 0.3336 -0.0772
-3.4415 0.3449 -0.0762
-3.4391 0.3547 -0.0759
-3.4328 0.3633 -0.0762
-3.4243 0.3715 -0.0767
-3.4179 0.3803 -0.0770
-3.4104 0.3889 -0.0774
-3.4028 0.3976 -0.0778
-3.3941 0.4063 -0.0784
-3.3875 0.4153 -0.0787
-3.3776 0.4241 -0.0794
-3.3697 0.4332 -0.0798
-3.3527 0.4518 -0.0809
-3.3459 0.4612 -0.0811
-3.3402 0.4707 -0.0813
-3.3238 0.4806 -0.0828
-3.3119 0.4906 -0.0837
-3.3048 0.5005 -0.0840
-3.2976 0.5105 -0.0843
-3.2879 0.5208 -0.0849
-3.2870 0.5301 -0.0843
-3.2747 0.5408 -0.0853
-3.2623 0.5519 -0.0862
-3.2536 0.5624 -0.0866
-3.2409 0.5738 -0.0876
-3.2347 0.5841 -0.0877
-3.6709 0.0987 -0.0538
-3.6608 0.1097 -0.0543
-3.6559 0.1159 -0.0545
-3.6509 0.1221 -0.0547
-3.6450 0.1262 -0.0551
-3.6405 0.1336 -0.0552
-3.6349 0.1390 -0.0556
-3.6293 0.1445 -0.0559
-3.6242 0.1510 -0.0561
-3.6190 0.1576 -0.0563
-3.6145 0.1651 -0.0564
-3.6081 0.1700 -0.0569
-3.6022 0.1758 -0.0572
-3.5969 0.1826 -0.0574
-3.5896 0.1870 -0.0580
-3.5856 0.1956 -0.0580
-3.5802 0.2026 -0.0582
-3.5727 0.2073 -0.0587
-3.5672 0.2145 -0.0590
-3.5609 0.2210 -0.0593
-3.5561 0.2289 -0.0594
-3.5490 0.2349 -0.0599
-3.5434 0.2423 -0.0601
-3.5362 0.2485 -0.0606
-3.5305 0.2560 -0.0608
-3.5239 0.2630 -0.0611
-3.5173 0.2701 -0.0615
-3.5106 0.2773 -0.0618
-3.5039 0.2846 -0.0622
-3.4988 0.2930 -0.0623
-3.4893 0.2990 -0.0630
-3.4824 0.3066 -0.0634
-3.4764 0.3148 -0.0636
-3.4480 0.3249 -0.0662
-3.4406 0.3333 -0.0665
-3.4430 0.3448 -0.0657
-3.4397 0.3543 -0.0655
-3.4344 0.3631 -0.0656
-3.4270 0.3714 -0.0660
-3.4186 0.3796 -0.0665
-3.4100 0.3879 -0.0670
-3.4025 0.3966 -0.0673
-3.3938 0.4052 -0.0678
-3.3883 0.4143 -0.0680
-3.3795 0.4231 -0.0685
-3.3717 0.4322 -0.0688
-3.3650 0.4413 -0.0691
-3.3525 0.4504 -0.0700
-3.3456 0.4598 -0.0702
-3.3352 0.4693 -0.0709
-3.3283 0.4789 -0.0711
-3.3165 0.4888 -0.0719
-3.3070 0.4987 -0.0724
-3.3011 0.5085 -0.0725
-3.2915 0.5186 -0.0730
-3.2831 0.5287 -0.0734
-3.2746 0.5390 -0.0738
-3.2647 0.5495 -0.0743
-3.2548 0.5602 -0.0748
-3.2421 0.5715 -0.0756
-3.2292 0.5831 -0.0764
-3.6650 0.1060 -0.0456
-3.6602 0.1121 -0.0458
-3.6554 0.1182 -0.0460
-3.6495 0.1221 -0.0463
-3.6456 0.1305 -0.0463
-3.6385 0.1325 -0.0469
-3.6334 0.1389 -0.0471
-3.6284 0.1453 -0.0472
-3.6227 0.1508 -0.0475
-3.6182 0.1584 -0.0476
-3.6130 0.1649 -0.0478
-3.6079 0.1716 -0.0480
-3.6014 0.1765 -0.0484
-3.5955 0.1824 -0.0486
-3.5902 0.1892 -0.0488
-3.5842 0.1953 -0.0491
-3.5781 0.2014 -0.0494
-3.5734 0.2092 -0.0495
-3.5665 0.2148 -0.0499
-3.5603 0.2212 -0.0502
-3.5555 0.2292 -0.0503
-3.5499 0.2364 -0.0504
-3.5420 0.2417 -0.0509
-3.5364 0.2492 -0.0511
-3.5307 0.2566 -0.0513
-3.5233 0.2630 -0.0517
-3.5109 0.2777 -0.0522
-3.5025 0.2839 -0.0527
-3.4957 0.2912 -0.0530
-3.4897 0.2992 -0.0532
-3.4828 0.3067 -0.0535
-3.4768 0.3147 -0.0537
-3.4623 0.3193 -0.0548
-3.4455 0.3236 -0.0561
-3.4420 0.3333 -0.0560
-3.4406 0.3435 -0.0557
-3.4413 0.3541 -0.0552
-3.4340 0.3623 -0.0555
-3.4256 0.3703 -0.0559
-3.4193 0.3789 -0.0561
-3.4097 0.3870 -0.0567
-3.3989 0.3951 -0.0573
-3.3924 0.4040 -0.0575
-3.3858 0.4129 -0.0577
-3.3803 0.4221 -0.0578
-3.3737 0.4311 -0.0580
-3.3693 0.4403 -0.0580
-3.3569 0.4492 -0.0588
-3.3478 0.4585 -0.0592
-3.3350 0.4679 -0.0599
-3.3281 0.4774 -0.0602
-3.3212 0.4870 -0.0604
-3.3130 0.4967 -0.0607
-3.2997 0.5069 -0.0614
-3.2867 0.5265 -0.0618
-3.2796 0.5364 -0.0620
-3.2698 0.5468 -0.0625
-3.2599 0.5573 -0.0629
-3.2473 0.5685 -0.0636
-3.2399 0.5788 -0.0638
-3.6544 0.1193 -0.0377
-3.6495 0.1254 -0.0378
-3.6441 0.1305 -0.0381
-3.6392 0.1367 -0.0382
-3.6331 0.1409 -0.0385
-3.6275 0.1463 -0.0387
-3.6224 0.1527 -0.0389
-3.6173 0.1592 -0.0390
-3.6116 0.1648 -0.0392
-3.6058 0.1704 -0.0395
-3.6012 0.1780 -0.0396
-3.5947 0.1830 -0.0399
-3.5894 0.1897 -0.0400
-3.5841 0.1966 -0.0402
-3.5781 0.2027 -0.0404
-3.5720 0.2089 -0.0406
-3.5658 0.2151 -0.0409
-3.5611 0.2230 -0.0410
-3.5541 0.2287 -0.0413
-3.5478 0.2352 -0.0415
-3.5430 0.2432 -0.0416
-3.5350 0.2486 -0.0420
-3.5293 0.2560 -0.0421
-3.5228 0.2629 -0.0424
-3.5162 0.2699 -0.0426
-3.5104 0.2775 -0.0428
-3.5037 0.2847 -0.0430
-3.4961 0.2915 -0.0433
-3.4902 0.2993 -0.0435
-3.4833 0.3067 -0.0438
-3.4754 0.3139 -0.0441
-3.4685 0.3215 -0.0443
-3.4498 0.3248 -0.0454
-3.4396 0.3319 -0.0459
-3.4382 0.3422 -0.0457
-3.4399 0.3531 -0.0453
-3.4337 0.3615 -0.0455
-3.4263 0.3697 -0.0458
-3.4211 0.3785 -0.0459
-3.4105 0.3863 -0.0464
-3.4051 0.3951 -0.0465
-3.3954 0.4034 -0.0469
-3.3889 0.4122 -0.0471
-3.3812 0.4210 -0.0473
-3.3746 0.4300 -0.0475
-3.3645 0.4388 -0.0479
-3.3567 0.4479 -0.0482
-3.3452 0.4571 -0.0487
-3.3384 0.4664 -0.0489
-3.3304 0.4758 -0.0492
-3.3235 0.4853 -0.0494
-3.3153 0.4949 -0.0496
-3.3033 0.5049 -0.0501
-3.2782 0.5348 -0.0510
-3.2684 0.5451 -0.0513
-3.2612 0.5551 -0.0515
-3.2499 0.5660 -0.0520
-3.2412 0.5765 -0.0522
-3.6573 0.1122 -0.0295
-3.6486 0.1266 -0.0296
-3.6421 0.1294 -0.0299
-3.6372 0.1356 -0.0300
-3.6328 0.1429 -0.0301
-3.6266 0.1472 -0.0303
-3.6204 0.1516 -0.0305
-3.6153 0.1581 -0.0306
-3.6102 0.1646 -0.0307
-3.6057 0.1721 -0.0308
-3.6005 0.1787 -0.0310
-3.5946 0.1844 -0.0311
-3.5887 0.1903 -0.0313
-3.5834 0.1971 -0.0315
-3.5774 0.2031 -0.0316
-3.5720 0.2100 -0.0318
-3.5659 0.2162 -0.0319
-3.5582 0.2211 -0.0322
-3.5527 0.2282 -0.0323
-3.5472 0.2354 -0.0325
-3.5416 0.2426 -0.0326
-3.5344 0.2486 -0.0328
-3.5279 0.2554 -0.0330
-3.5222 0.2629 -0.0332
-3.5165 0.2704 -0.0333
-3.5090 0.2768 -0.0335
-3.5032 0.2845 -0.0337
-3.4965 0.2917 -0.0339
-3.4897 0.2990 -0.0341
-3.4819 0.3059 -0.0343
-3.4760 0.3139 -0.0344
-3.4681 0.3210 -0.0347
-3.4513 0.3250 -0.0353
-3.4401 0.3316 -0.0357
-3.4398 0.3422 -0.0356
-3.4386 0.3521 -0.0355
-3.4354 0.3613 -0.0355
-3.4250 0.3687 -0.0359
-3.4187 0.3772 -0.0360
-3.4102 0.3853 -0.0363
-3.4038 0.3940 -0.0364
-3.3962 0.4025 -0.0366
-3.3909 0.4114 -0.0368
-3.3821 0.4200 -0.0370
-3.3744 0.4288 -0.0372
-3.3667 0.4377 -0.0374
-3.3600 0.4467 -0.0376
-3.3486 0.4557 -0.0379
-3.3407 0.4650 -0.0382
-3.3314 0.4743 -0.0384
-3.3127 0.4935 -0.0390
-3.3045 0.5031 -0.0392
-3.3013 0.5124 -0.0392
-3.2905 0.5225 -0.0395
-3.2795 0.5328 -0.0398
-3.2737 0.5424 -0.0400
-3.2652 0.5526 -0.0402
-3.2566 0.5628 -0.0404
-3.2440 0.5739 -0.0408
-3.2339 0.5846 -0.0411
-3.6467 0.1255 -0.0215
-3.6418 0.1316 -0.0216
-3.6374 0.1388 -0.0217
-3.6320 0.1439 -0.0218
-3.6258 0.1481 -0.0220
-3.6214 0.1555 -0.0221
-3.6164 0.1618 -0.0222
-3.6100 0.1663 -0.0223
-3.6049 0.1728 -0.0224
-3.5998 0.1793 -0.0225
-3.5946 0.1859 -0.0226
-3.5880 0.1909 -0.0227
-3.5835 0.1984 -0.0228
-3.5760 0.2028 -0.0230
-3.5707 0.2097 -0.0231
-3.5653 0.2166 -0.0232
-3.5576 0.2213 -0.0233
-3.5529 0.2292 -0.0234
-3.5474 0.2363 -0.0235
-3.5427 0.2441 -0.0236
-3.5339 0.2487 -0.0238
-3.5274 0.2554 -0.0239
-3.5226 0.2634 -0.0240
-3.5161 0.2703 -0.0242
-3.5103 0.2778 -0.0243
-3.4961 0.2914 -0.0246
-3.4902 0.2992 -0.0247
-3.4843 0.3069 -0.0248
-3.4775 0.3143 -0.0249
-3.4489 0.3237 -0.0255
-3.4427 0.3321 -0.0256
-3.4374 0.3408 -0.0257
-3.4403 0.3521 -0.0257
-3.4341 0.3603 -0.0258
-3.4268 0.3684 -0.0260
-3.4205 0.3768 -0.0261
-3.4110 0.3846 -0.0263
-3.4068 0.3936 -0.0264
-3.3982 0.4018 -0.0265
-3.3907 0.4104 -0.0267
-3.3842 0.4191 -0.0268
-3.3754 0.4277 -0.0270
-3.3665 0.4365 -0.0272
-3.3587 0.4454 -0.0273
-3.3473 0.4544 -0.0276
-3.3418 0.4636 -0.0277
-3.3338 0.4728 -0.0278
-3.3245 0.4822 -0.0280
-3.3152 0.4917 -0.0282
-3.3095 0.5011 -0.0283
-3.2879 0.5211 -0.0288
-3.2821 0.5306 -0.0289
-3.2724 0.5408 -0.0291
-3.2639 0.5509 -0.0292
-3.2567 0.5608 -0.0294
-3.2454 0.5716 -0.0296
-3.6360 0.1388 -0.0136
-3.6306 0.1439 -0.0137
-3.6250 0.1491 -0.0138
-3.6200 0.1554 -0.0138
-3.6156 0.1627 -0.0139
-3.6093 0.1671 -0.0140
-3.6042 0.1735 -0.0140
-3.5984 0.1791 -0.0141
-3.5932 0.1857 -0.0142
-3.5880 0.1923 -0.0143
-3.5828 0.1990 -0.0143
-3.5761 0.2041 -0.0144
-3.5708 0.2109 -0.0145
-3.5647 0.2170 -0.0145
-3.5585 0.2231 -0.0146
-3.5523 0.2294 -0.0147
-3.5477 0.2372 -0.0148
-3.5414 0.2436 -0.0148
-3.5342 0.2495 -0.0149
-3.5286 0.2567 -0.0150
-3.5221 0.2634 -0.0151
-3.5156 0.2702 -0.0151
-3.5090 0.2771 -0.0152
-3.5033 0.2847 -0.0153
-3.4908 0.2994 -0.0155
-3.4781 0.3144 -0.0157
-3.4664 0.3197 -0.0157
-3.4465 0.3224 -0.0157
-3.4403 0.3308 -0.0158
-3.4421 0.3520 -0.0161
-3.4359 0.3602 -0.0162
-3.4266 0.3676 -0.0163
-3.4214 0.3762 -0.0164
-3.4141 0.3844 -0.0165
-3.4077 0.3929 -0.0166
-3.4003 0.4012 -0.0167
-3.3905 0.4093 -0.0167
-3.3829 0.4179 -0.0168
-3.3753 0.4266 -0.0169
-3.3711 0.4355 -0.0171
-3.3598 0.4442 -0.0171
-3.3520 0.4531 -0.0172
-3.3429 0.4622 -0.0173
-3.3337 0.4714 -0.0174
-3.3232 0.4808 -0.0175
-3.3139 0.4903 -0.0177
-3.3082 0.4996 -0.0178
-3.3026 0.5090 -0.0179
-3.2957 0.5185 -0.0180
-3.2834 0.5287 -0.0181
-3.2777 0.5382 -0.0182
-3.2666 0.5486 -0.0183
-3.2581 0.5586 -0.0185
-3.6254 0.1521 -0.0057
-3.6205 0.1583 -0.0058
-3.6143 0.1625 -0.0057
-3.6092 0.1689 -0.0058
-3.6042 0.1752 -0.0058
-3.5926 0.1864 -0.0059
-3.5867 0.1921 -0.0059
-3.5815 0.1987 -0.0059
-3.5770 0.2062 -0.0060
-3.5702 0.2113 -0.0060
-3.5641 0.2173 -0.0060
-3.5580 0.2235 -0.0060
-3.5526 0.2304 -0.0061
-3.5455 0.2360 -0.0060
-3.5401 0.2431 -0.0061
-3.5345 0.2502 -0.0062
-3.5290 0.2574 -0.0062
-3.5217 0.2634 -0.0062
-3.5161 0.2708 -0.0063
-3.5104 0.2781 -0.0063
-3.4981 0.2925 -0.0064
-3.4914 0.2996 -0.0064
-3.4846 0.3067 -0.0065
-3.4787 0.3144 -0.0065
-3.4709 0.3213 -0.0065
-3.4481 0.3226 -0.0060
-3.4449 0.3320 -0.0062
-3.4408 0.3409 -0.0063
-3.4408 0.3511 -0.0066
-3.4347 0.3592 -0.0067
-3.4285 0.3674 -0.0067
-3.4244 0.3762 -0.0069
-3.4172 0.3842 -0.0069
-3.4076 0.3919 -0.0069
-3.3915 0.4084 -0.0069
-3.3863 0.4172 -0.0070
-3.3799 0.4258 -0.0071
-3.3710 0.4344 -0.0071
-3.3598 0.4429 -0.0071
-3.3520 0.4518 -0.0071
-3.3404 0.4608 -0.0071
-3.3337 0.4700 -0.0072
-3.3257 0.4792 -0.0072
-3.3176 0.4885 -0.0073
-3.3108 0.4979 -0.0074
-3.3026 0.5073 -0.0074
-3.2944 0.5169 -0.0075
-3.2791 0.5362 -0.0076
-3.2680 0.5465 -0.0076
-3.2511 0.5666 -0.0078
-3.6235 0.1510 0.0023
-3.6173 0.1552 0.0025
-3.6129 0.1624 0.0024
-3.6085 0.1697 0.0023
-3.6028 0.1751 0.0023
-3.5971 0.1806 0.0024
-3.5913 0.1861 0.0024
-3.5861 0.1927 0.0024
-3.5816 0.2001 0.0023
-3.5757 0.2059 0.0024
-3.5697 0.2118 0.0024
-3.5636 0.2177 0.0024
-3.5575 0.2238 0.0025
-3.5521 0.2307 0.0024
-3.5459 0.2369 0.0025
-3.5396 0.2433 0.0025
-3.5349 0.2510 0.0024
-3.5277 0.2569 0.0025
-3.5213 0.2635 0.0026
-3.5148 0.2702 0.0026
-3.5091 0.2775 0.0026
-3.5025 0.2844 0.0026
-3.4977 0.2923 0.0025
-3.4910 0.2993 0.0025
-3.4824 0.3055 0.0027
-3.4775 0.3136 0.0026
-3.4518 0.3237 0.0034
-3.4406 0.3300 0.0036
-3.4427 0.3511 0.0027
-3.4355 0.3588 0.0027
-3.4283 0.3667 0.0027
-3.4221 0.3749 0.0027
-3.4170 0.3834 0.0026
-3.4075 0.3910 0.0027
-3.4001 0.3993 0.0027
-3.3937 0.4077 0.0027
-3.3851 0.4160 0.0027
-3.3775 0.4245 0.0027
-3.3698 0.4331 0.0028
-3.3621 0.4418 0.0028
-3.3544 0.4506 0.0028
-3.3429 0.4595 0.0029
-3.3349 0.4685 0.0029
-3.3282 0.4777 0.0029
-3.3227 0.4867 0.0028
-3.3134 0.4961 0.0028
-3.3053 0.5055 0.0028
-3.2971 0.5150 0.0028
-3.2792 0.5344 0.0029
-3.2695 0.5444 0.0029
-3.2611 0.5544 0.0029
-3.2512 0.5646 0.0030
-3.6116 0.1623 0.0104
-3.6072 0.1696 0.0104
-3.6029 0.1768 0.0103
-3.5964 0.1813 0.0105
-3.5906 0.1868 0.0106
-3.5869 0.1950 0.0104
-3.5796 0.1990 0.0107
-3.5751 0.2064 0.0106
-3.5691 0.2122 0.0107
-3.5639 0.2189 0.0107
-3.5586 0.2257 0.0107
-3.5532 0.2325 0.0107
-3.5487 0.2400 0.0106
-3.5416 0.2455 0.0108
-3.5345 0.2512 0.0109
-3.5290 0.2582 0.0109
-3.5226 0.2647 0.0110
-3.5162 0.2713 0.0111
-3.5088 0.2774 0.0113
-3.5031 0.2848 0.0113
-3.4965 0.2917 0.0114
-3.4917 0.2996 0.0113
-3.4840 0.3062 0.0114
-3.4772 0.3133 0.0115
-3.4684 0.3197 0.0118
-3.4464 0.3212 0.0132
-3.4413 0.3298 0.0131
-3.4371 0.3387 0.0129
-3.4414 0.3501 0.0120
-3.4353 0.3582 0.0120
-3.4282 0.3660 0.0120
-3.4220 0.3741 0.0120
-3.4158 0.3823 0.0120
-3.4096 0.3906 0.0120
-3.4000 0.3983 0.0122
-3.3948 0.4069 0.0121
-3.3838 0.4148 0.0125
-3.3698 0.4320 0.0125
-3.3645 0.4407 0.0124
-3.3580 0.4494 0.0124
-3.3478 0.4582 0.0126
-3.3387 0.4671 0.0127
-3.3295 0.4762 0.0129
-3.3228 0.4853 0.0128
-3.3096 0.4948 0.0132
-3.3067 0.5038 0.0129
-3.2972 0.5133 0.0131
-3.2890 0.5229 0.0131
-3.2807 0.5325 0.0132
-3.2710 0.5424 0.0133
-3.2654 0.5518 0.0132
-3.2556 0.5619 0.0133
-3.2414 0.5730 0.0137
-3.6059 0.1695 0.0184
-3.6009 0.1757 0.0184
-3.5965 0.1830 0.0183
-3.5908 0.1884 0.0185
-3.5864 0.1957 0.0184
-3.5805 0.2013 0.0185
-3.5746 0.2069 0.0187
-3.5679 0.2119 0.0190
-3.5618 0.2178 0.0191
-3.5565 0.2245 0.0191
-3.5504 0.2306 0.0193
-3.5466 0.2389 0.0191
-3.5412 0.2457 0.0191
-3.5324 0.2500 0.0196
-3.5278 0.2577 0.0195
-3.5214 0.2642 0.0196
-3.5149 0.2707 0.0198
-3.5094 0.2779 0.0198
-3.5019 0.2841 0.0201
-3.4971 0.2920 0.0200
-3.4895 0.2984 0.0202
-3.4847 0.3064 0.0201
-3.4780 0.3134 0.0202
-3.4400 0.3289 0.0226
-3.4369 0.3381 0.0223
-3.4413 0.3495 0.0211
-3.4384 0.3584 0.0208
-3.4313 0.3661 0.0209
-3.4219 0.3734 0.0213
-3.4157 0.3815 0.0213
-3.4073 0.3893 0.0215
-3.4011 0.3976 0.0215
-3.3936 0.4058 0.0217
-3.3862 0.4141 0.0218
-3.3786 0.4224 0.0219
-3.3698 0.4308 0.0221
-3.3621 0.4394 0.0222
-3.3556 0.4481 0.0222
-3.3491 0.4569 0.0222
-3.3413 0.4657 0.0224
-3.3309 0.4747 0.0227
-3.3242 0.4837 0.0227
-3.3136 0.4930 0.0230
-3.3055 0.5023 0.0231
-3.2987 0.5116 0.0231
-3.2865 0.5215 0.0236
-3.2836 0.5304 0.0232
-3.2740 0.5402 0.0234
-3.2656 0.5499 0.0235
-3.2572 0.5598 0.0236
-3.6046 0.1694 0.0263
-3.5960 0.1837 0.0261
-3.5902 0.1891 0.0264
-3.5844 0.1946 0.0266
-3.5793 0.2010 0.0266
-3.5733 0.2067 0.0268
-3.5681 0.2132 0.0269
-3.5637 0.2206 0.0268
-3.5577 0.2264 0.0270
-3.5516 0.2324 0.0272
-3.5462 0.2392 0.0273
-3.5392 0.2446 0.0276
-3.5346 0.2522 0.0275
-3.5283 0.2585 0.0277
-3.5211 0.2642 0.0280
-3.5155 0.2713 0.0281
-3.5100 0.2785 0.0281
-3.5035 0.2851 0.0283
-3.4969 0.2919 0.0285
-3.4912 0.2992 0.0286
-3.4845 0.3061 0.0288
-3.4778 0.3131 0.0290
-3.4418 0.3291 0.0317
-3.4377 0.3379 0.0314
-3.4422 0.3493 0.0300
-3.4372 0.3575 0.0299
-3.4290 0.3648 0.0302
-3.4240 0.3731 0.0301
-3.4157 0.3807 0.0305
-3.4095 0.3889 0.0305
-3.4010 0.3967 0.0308
-3.3948 0.4050 0.0309
-3.3862 0.4130 0.0312
-3.3786 0.4214 0.0313
-3.3723 0.4299 0.0314
-3.3634 0.4383 0.0317
-3.3569 0.4469 0.0317
-3.3492 0.4556 0.0319
-3.3389 0.4644 0.0323
-3.3297 0.4733 0.0326
-3.3269 0.4822 0.0322
-3.3164 0.4914 0.0327
-3.2947 0.5189 0.0329
-3.2825 0.5288 0.0335
-3.2783 0.5378 0.0332
-3.2644 0.5483 0.0339
-3.2560 0.5581 0.0341
-3.5897 0.1898 0.0341
-3.5854 0.1970 0.0341
-3.5780 0.2008 0.0347
-3.5736 0.2081 0.0346
-3.5693 0.2153 0.0345
-3.5641 0.2218 0.0346
-3.5556 0.2253 0.0354
-3.5495 0.2313 0.0356
-3.5450 0.2388 0.0355
-3.5397 0.2455 0.0356
-3.5334 0.2517 0.0358
-3.5271 0.2580 0.0361
-3.5217 0.2649 0.0362
-3.5153 0.2714 0.0364
-3.5097 0.2785 0.0365
-3.5023 0.2845 0.0369
-3.4957 0.2912 0.0372
-3.4900 0.2985 0.0372
-3.4834 0.3054 0.0375
-3.4776 0.3128 0.0376
-3.4718 0.3203 0.0376
-3.4517 0.3222 0.0401
-3.4436 0.3293 0.0405
-3.4386 0.3377 0.0404
-3.4372 0.3569 0.0388
-3.4322 0.3650 0.0387
-3.4240 0.3724 0.0391
-3.4179 0.3804 0.0392
-3.4095 0.3880 0.0396
-3.4045 0.3964 0.0395
-3.3937 0.4039 0.0402
-3.3874 0.4122 0.0403
-3.3811 0.4205 0.0403
-3.3748 0.4289 0.0404
-3.3659 0.4373 0.0408
-3.3571 0.4457 0.0412
-3.3493 0.4543 0.0414
-3.3403 0.4631 0.0418
-3.3337 0.4719 0.0418
-3.3284 0.4807 0.0417
-3.3192 0.4897 0.0421
-3.3112 0.4988 0.0423
-3.3018 0.5081 0.0427
-3.2936 0.5174 0.0429
-3.2841 0.5269 0.0433
-3.2744 0.5366 0.0437
-3.2647 0.5465 0.0441
-3.2577 0.5560 0.0441
-3.2521 0.5653 0.0440
-3.5827 0.1951 0.0423
-3.5783 0.2023 0.0423
-3.5673 0.2142 0.0427
-3.5621 0.2207 0.0428
-3.5544 0.2250 0.0435
-3.5491 0.2316 0.0436
-3.5447 0.2391 0.0435
-3.5385 0.2451 0.0438
-3.5331 0.2519 0.0439
-3.5268 0.2581 0.0442
-3.5214 0.2650 0.0443
-3.5141 0.2708 0.0449
-3.5095 0.2785 0.0448
-3.5030 0.2850 0.0451
-3.4964 0.2916 0.0454
-3.4908 0.2989 0.0455
-3.4842 0.3057 0.0458
-3.4785 0.3130 0.0459
-3.4707 0.3195 0.0464
-3.4525 0.3222 0.0488
-3.4455 0.3296 0.0491
-3.4405 0.3379 0.0490
-3.4409 0.3478 0.0479
-3.4382 0.3566 0.0474
-3.4311 0.3641 0.0477
-3.4251 0.3720 0.0478
-3.4179 0.3796 0.0481
-3.4095 0.3872 0.0486
-3.4022 0.3951 0.0489
-3.3960 0.4033 0.0490
-3.3898 0.4115 0.0490
-3.3812 0.4195 0.0495
-3.3736 0.4278 0.0498
-3.3661 0.4361 0.0501
-3.3597 0.4446 0.0502
-3.3520 0.4531 0.0504
-3.3430 0.4618 0.0509
-3.3352 0.4705 0.0512
-3.3220 0.4881 0.0513
-3.3127 0.4972 0.0518
-3.3087 0.5059 0.0515
-3.2952 0.5156 0.0525
-3.2871 0.5249 0.0528
-3.2775 0.5345 0.0533
-3.2692 0.5440 0.0535
-3.2594 0.5539 0.0540
-3.2510 0.5636 0.0542
-3.5720 0.2084 0.0503
-3.5669 0.2148 0.0504
-3.5609 0.2204 0.0508
-3.5549 0.2262 0.0511
-3.5496 0.2328 0.0513
-3.5443 0.2394 0.0514
-3.5399 0.2468 0.0513
-3.5337 0.2528 0.0517
-3.5283 0.2596 0.0518
-3.5211 0.2652 0.0524
-3.5148 0.2715 0.0528
-3.5083 0.2779 0.0531
-3.5028 0.2849 0.0533
-3.4963 0.2915 0.0536
-3.4897 0.2982 0.0540
-3.4850 0.3059 0.0539
-3.4794 0.3132 0.0540
-3.4716 0.3197 0.0546
-3.4454 0.3291 0.0580
-3.4383 0.3366 0.0583
-3.4441 0.3483 0.0560
-3.4382 0.3560 0.0561
-3.4311 0.3634 0.0564
-3.4263 0.3715 0.0563
-3.4191 0.3791 0.0567
-3.4119 0.3868 0.0570
-3.4058 0.3948 0.0571
-3.3973 0.4025 0.0577
-3.3899 0.4105 0.0580
-3.3837 0.4187 0.0581
-3.3738 0.4267 0.0589
-3.3662 0.4350 0.0593
-3.3598 0.4434 0.0594
-3.3522 0.4519 0.0597
-3.3470 0.4605 0.0596
-3.3380 0.4691 0.0601
-3.3288 0.4779 0.0607
-3.3223 0.4867 0.0608
-3.3170 0.4954 0.0607
-3.3050 0.5047 0.0617
-3.2969 0.5138 0.0620
-3.2874 0.5232 0.0625
-3.2792 0.5326 0.0628
-3.2681 0.5424 0.0636
-3.2584 0.5523 0.0641
-3.2528 0.5615 0.0640
-3.5657 0.2145 0.0583
-3.5597 0.2201 0.0587
-3.5554 0.2274 0.0586
-3.5502 0.2339 0.0588
-3.5449 0.2405 0.0590
-3.5388 0.2464 0.0594
-3.5326 0.2524 0.0598
-3.5263 0.2585 0.0602
-3.5200 0.2647 0.0606
-3.5136 0.2709 0.0610
-3.5100 0.2791 0.0607
-3.5026 0.2849 0.0613
-3.4971 0.2920 0.0615
-3.4915 0.2991 0.0617
-3.4839 0.3053 0.0623
-3.4772 0.3120 0.0627
-3.4705 0.3189 0.0631
-3.4442 0.3283 0.0669
-3.4393 0.3365 0.0668
-3.4408 0.3467 0.0652
-3.4371 0.3551 0.0649
-3.4323 0.3631 0.0648
-3.4252 0.3706 0.0652
-3.4192 0.3784 0.0653
-3.4131 0.3863 0.0655
-3.3974 0.4016 0.0665
-3.3925 0.4099 0.0664
-3.3851 0.4179 0.0668
-3.3752 0.4257 0.0677
-3.3714 0.4342 0.0673
-3.3537 0.4507 0.0686
-3.3460 0.4592 0.0690
-3.3369 0.4678 0.0696
-3.3317 0.4764 0.0695
-3.3252 0.4851 0.0696
-3.3146 0.4941 0.0705
-3.3107 0.5027 0.0702
-3.2972 0.5122 0.0715
-3.2933 0.5209 0.0712
-3.2809 0.5307 0.0723
-3.2713 0.5402 0.0729
-3.2616 0.5500 0.0735
-3.9701 -0.4330 0.0981
-3.9831 -0.4457 0.1023
-3.9968 -0.4516 0.1053
-4.0117 -0.4800 0.1129
-4.0279 -0.5062 0.1203
-4.0443 -0.5143 0.1240
-4.0612 -0.5196 0.1272
-4.0808 -0.5451 0.1349
-4.1034 -0.5816 0.1452
-4.1505 -0.6304 0.1610
-4.1757 -0.6512 0.1685
-4.2046 -0.6814 0.1782
-4.2432 -0.7431 0.1956
-4.2754 -0.7674 0.2047
-4.3114 -0.7984 0.2155
-4.3554 -0.8465 0.2309
-4.4776 -1.0070 0.2789
-4.5285 -1.0418 0.2925
-4.6053 -1.1293 0.3199
-4.7958 -1.3399 0.3868
-4.9605 -1.5545 0.4513
-7.9163 -2.3083 0.9811
-7.7164 -2.0673 0.9069
-7.7628 -1.9917 0.8975
-7.6582 -1.8308 0.8517
-7.2457 -1.4300 0.7180
-7.0114 -1.2355 0.6487
-6.9612 -1.1435 0.6237
-6.8739 -1.0393 0.5915
-6.7228 -0.9130 0.5467
-6.6553 -0.8302 0.5213
-6.6728 -0.7861 0.5147
-6.7074 -0.7498 0.5117
-6.5164 -0.5884 0.4547
-6.4662 -0.5299 0.4365
-6.4085 -0.4721 0.4174
-3.9486 -0.2138 0.0415
-3.9560 -0.4152 0.0791
-3.9681 -0.4309 0.0834
-3.9810 -0.4487 0.0881
-4.0096 -0.4788 0.0969
-4.0610 -0.5411 0.1142
-4.0786 -0.5433 0.1166
-4.1225 -0.5948 0.1311
-4.1481 -0.6279 0.1401
-4.1746 -0.6554 0.1482
-4.2035 -0.6852 0.1570
-4.2399 -0.7374 0.1707
-4.2688 -0.7494 0.1762
-4.3098 -0.7988 0.1900
-4.3516 -0.8400 0.2023
-4.4007 -0.8935 0.2177
-4.6873 -1.2167 0.3098
-4.7749 -1.2993 0.3350
-5.0108 -1.4318 0.3864
-7.8287 -2.0173 0.8193
-7.4759 -1.7124 0.7229
-7.2356 -1.4125 0.6404
-7.0485 -1.2429 0.5878
-6.8898 -1.0983 0.5431
-6.8462 -1.0159 0.5230
-6.6641 -0.8240 0.4670
-6.8033 -0.8282 0.4839
-6.4559 -0.5584 0.3945
-6.4352 -0.5108 0.3834
-3.9473 -0.2102 0.0312
-3.9663 -0.4224 0.0676
-3.9790 -0.4465 0.0728
-3.9928 -0.4496 0.0747
-4.0074 -0.4738 0.0802
-4.0398 -0.5076 0.0890
-4.0578 -0.5273 0.0940
-4.0984 -0.5739 0.1058
-4.1186 -0.5820 0.1092
-4.1463 -0.6288 0.1197
-4.1708 -0.6458 0.1250
-4.1995 -0.6755 0.1328
-4.2677 -0.7524 0.1523
-4.3101 -0.8056 0.1653
-4.3581 -0.8656 0.1800
-4.4051 -0.9109 0.1922
-4.4673 -0.9877 0.2111
-4.6028 -1.1295 0.2481
-4.7803 -1.3120 0.2961
-5.0386 -1.5868 0.3674
-7.6911 -2.0237 0.7130
-7.7377 -1.9484 0.7056
-7.5306 -1.7305 0.6488
-7.5084 -1.6282 0.6299
-7.0634 -1.2388 0.5207
-6.9659 -1.1236 0.4919
-6.7978 -0.9252 0.4423
-6.7602 -0.8538 0.4269
-6.6262 -0.7480 0.3958
-6.4717 -0.5973 0.3554
-6.4104 -0.5340 0.3388
-6.4029 -0.4915 0.3311
-3.9542 -0.2130 0.0226
-3.9771 -0.4353 0.0562
-3.9907 -0.4461 0.0589
-4.0053 -0.4726 0.0640
-4.0206 -0.4798 0.0664
-4.0371 -0.4963 0.0703
-4.0559 -0.5292 0.0767
-4.0753 -0.5503 0.0814
-4.0962 -0.5730 0.0865
-4.1173 -0.5867 0.0904
-4.1431 -0.6217 0.0977
-4.1714 -0.6589 0.1056
-4.1970 -0.6725 0.1098
-4.2342 -0.7295 0.1213
-4.2652 -0.7499 0.1271
-4.3056 -0.7962 0.1373
-4.3543 -0.8590 0.1506
-4.4050 -0.9154 0.1633
-4.4595 -0.9709 0.1761
-4.7712 -1.2952 0.2505
-5.0316 -1.5748 0.3139
-5.1108 -1.6001 0.3247
-7.7567 -2.0505 0.6300
-7.7642 -1.9500 0.6165
-7.6947 -1.8101 0.5903
-7.5302 -1.6267 0.5493
-7.1264 -1.2583 0.4602
-7.0931 -1.1723 0.4450
-6.6664 -0.8051 0.3540
-6.5719 -0.7171 0.3329
-6.5158 -0.6487 0.3181
-6.4651 -0.5859 0.3045
-6.3799 -0.5149 0.2867
-6.4089 -0.4847 0.2851
-6.4514 -0.4591 0.2853
-3.9446 -0.2069 0.0111
-3.9526 -0.2133 0.0125
-3.9621 -0.4247 0.0389
-3.9886 -0.4425 0.0431
-4.0031 -0.4639 0.0469
-4.0191 -0.4956 0.0520
-4.0358 -0.5106 0.0551
-4.0544 -0.5370 0.0598
-4.0943 -0.5743 0.0674
-4.1163 -0.5937 0.0715
-4.1421 -0.6282 0.0777
-4.1697 -0.6605 0.0838
-4.2314 -0.7261 0.0966
-4.2619 -0.7441 0.1012
-4.3001 -0.7837 0.1090
-4.3481 -0.8450 0.1202
-4.3970 -0.8970 0.1303
-4.5929 -1.1123 0.1719
-4.9238 -1.4894 0.2436
-5.0068 -1.5308 0.2551
-5.1239 -1.6219 0.2754
-7.8249 -2.0783 0.5434
-7.7515 -1.9281 0.5195
-7.6106 -1.7486 0.4866
-7.1167 -1.2417 0.3863
-6.9691 -1.1026 0.3579
-6.6588 -0.7920 0.2958
-6.6115 -0.7228 0.2837
-6.5682 -0.6586 0.2725
-6.4860 -0.5841 0.2570
-6.4231 -0.5205 0.2444
-6.4285 -0.4821 0.2401
-6.4326 -0.4445 0.2359
-3.9431 -0.2060 0.0011
-3.9514 -0.2097 0.0021
-3.9599 -0.4264 0.0243
-3.9728 -0.4398 0.0265
-3.9865 -0.4539 0.0288
-4.0011 -0.4701 0.0314
-4.0166 -0.4831 0.0338
-4.0331 -0.5005 0.0366
-4.0515 -0.5268 0.0404
-4.0699 -0.5381 0.0428
-4.0913 -0.5663 0.0470
-4.1128 -0.5833 0.0502
-4.1389 -0.6211 0.0557
-4.1600 -0.6195 0.0569
-4.2256 -0.7095 0.0703
-4.2568 -0.7318 0.0746
-4.3021 -0.7966 0.0840
-4.3499 -0.8562 0.0932
-4.3997 -0.9096 0.1018
-4.4659 -0.9968 0.1149
-4.5197 -1.0377 0.1226
-4.5832 -1.0928 0.1323
-4.9947 -1.5097 0.2013
-5.1302 -1.6322 0.2225
-8.2324 -2.5677 0.5214
-8.1268 -2.3697 0.4946
-7.9405 -2.1346 0.4587
-7.5881 -1.8179 0.4037
-7.3984 -1.6160 0.3709
-7.0183 -1.2525 0.3094
-6.9437 -1.1456 0.2937
-6.8959 -1.0573 0.2817
-6.7553 -0.8756 0.2542
-6.6673 -0.7854 0.2393
-6.6042 -0.7101 0.2276
-6.5316 -0.6356 0.2154
-6.4649 -0.5675 0.2041
-6.4047 -0.5054 0.1939
-6.4100 -0.4673 0.1905
-6.4015 -0.4263 0.1858
-3.9417 -0.2050 -0.0089
-3.9498 -0.2100 -0.0081
-3.9710 -0.4287 0.0103
-3.9844 -0.4453 0.0123
-4.0142 -0.4744 0.0162
-4.0306 -0.4929 0.0186
-4.0486 -0.5155 0.0213
-4.0678 -0.5373 0.0240
-4.0895 -0.5688 0.0277
-4.1096 -0.5752 0.0293
-4.1354 -0.6116 0.0335
-4.1592 -0.6257 0.0359
-4.2224 -0.7039 0.0454
-4.2543 -0.7292 0.0491
-4.2975 -0.7872 0.0560
-4.3428 -0.8391 0.0625
-4.3914 -0.8902 0.0692
-4.5131 -1.0247 0.0863
-4.5854 -1.1010 0.0962
-4.7839 -1.3265 0.1246
-4.9259 -1.4957 0.1455
-5.0106 -1.5386 0.1534
-5.1028 -1.5857 0.1620
-7.2078 -1.4970 0.2673
-7.1163 -1.3666 0.2521
-7.1068 -1.2857 0.2452
-7.0496 -1.1853 0.2342
-6.8254 -1.0137 0.2087
-6.6597 -0.7722 0.1808
-6.6447 -0.7156 0.1755
-6.5695 -0.6398 0.1655
-6.5000 -0.5703 0.1563
-6.3983 -0.4944 0.1449
-6.3901 -0.4523 0.1412
-6.3719 -0.4088 0.1368
-3.9320 -0.2028 -0.0194
-3.9478 -0.2154 -0.0181
-3.9566 -0.2187 -0.0175
-3.9560 -0.4196 -0.0060
-3.9686 -0.4353 -0.0046
-3.9825 -0.4318 -0.0042
-4.0127 -0.4960 0.0007
-4.0286 -0.4937 0.0012
-4.0458 -0.5055 0.0026
-4.0869 -0.5643 0.0076
-4.1085 -0.5820 0.0095
-4.1325 -0.6068 0.0119
-4.1611 -0.6473 0.0154
-4.2186 -0.6962 0.0205
-4.2939 -0.7810 0.0284
-4.3470 -0.8584 0.0350
-4.3998 -0.9200 0.0407
-4.6954 -1.2492 0.0715
-5.0093 -1.5367 0.1007
-5.0955 -1.5731 0.1063
-7.5787 -1.9896 0.2304
-7.4469 -1.8048 0.2145
-7.3281 -1.4659 0.1902
-7.1748 -1.3077 0.1749
-6.9697 -1.1352 0.1567
-6.6028 -0.7396 0.1192
-6.5142 -0.6566 0.1108
-6.3994 -0.5268 0.0987
-6.3919 -0.4834 0.0959
-6.3839 -0.4415 0.0932
-6.4139 -0.4122 0.0927
-3.9390 -0.2004 -0.0293
-3.9468 -0.2092 -0.0288
-3.9553 -0.2138 -0.0284
-3.9532 -0.4313 -0.0207
-3.9666 -0.4317 -0.0203
-4.0261 -0.4862 -0.0167
-4.0440 -0.5108 -0.0154
-4.0618 -0.5171 -0.0146
-4.0831 -0.5494 -0.0129
-4.1061 -0.5795 -0.0112
-4.1307 -0.6086 -0.0095
-4.1558 -0.6289 -0.0081
-4.1813 -0.6440 -0.0069
-4.2154 -0.6906 -0.0043
-4.2930 -0.7842 0.0012
-4.3418 -0.8475 0.0048
-4.3846 -0.8803 0.0071
-4.4510 -0.9696 0.0121
-4.6031 -1.1489 0.0227
-4.7033 -1.2691 0.0297
-4.8125 -1.3888 0.0369
-5.0450 -1.6013 0.0508
-5.0946 -1.5713 0.0511
-5.1375 -1.5308 0.0508
-7.5659 -1.9675 0.1324
-7.6920 -1.9389 0.1349
-7.0306 -1.1525 0.0888
-6.7130 -0.8265 0.0685
-6.6960 -0.7660 0.0659
-6.5985 -0.6783 0.0601
-6.4966 -0.5945 0.0543
-6.4059 -0.5199 0.0492
-6.3855 -0.4723 0.0469
-6.3304 -0.4164 0.0434
-3.9780 -0.4431 -0.0356
-3.9924 -0.4563 -0.0352
-4.0079 -0.4833 -0.0346
-4.0241 -0.4905 -0.0343
-4.0413 -0.5019 -0.0339
-4.0608 -0.5302 -0.0332
-4.0812 -0.5518 -0.0327
-4.1023 -0.5670 -0.0322
-4.1287 -0.6092 -0.0312
-4.1520 -0.6194 -0.0308
-4.1826 -0.6604 -0.0298
-4.2163 -0.7031 -0.0287
-4.2492 -0.7318 -0.0279
-4.3860 -0.8894 -0.0238
-4.4549 -0.9848 -0.0216
-4.5172 -1.0466 -0.0199
-4.7856 -1.3358 -0.0122
-4.9106 -1.4702 -0.0086
-5.0316 -1.5778 -0.0055
-5.1005 -1.5810 -0.0045
-5.1651 -1.5736 -0.0037
-7.7185 -1.9402 0.0367
-7.1119 -1.3276 0.0199
-7.0518 -1.2220 0.0176
-6.7038 -0.8681 0.0080
-6.6870 -0.8054 0.0069
-6.6711 -0.7459 0.0059
-6.5749 -0.6596 0.0033
-6.5176 -0.5923 0.0016
-6.4252 -0.5171 -0.0007
-6.3540 -0.4534 -0.0025
-6.2894 -0.3954 -0.0042
-3.9519 -0.2178 -0.0499
-3.9625 -0.4247 -0.0517
-3.9761 -0.4285 -0.0517
-3.9902 -0.4585 -0.0519
-4.0054 -0.4638 -0.0520
-4.0216 -0.4817 -0.0521
-4.0398 -0.5129 -0.0524
-4.0573 -0.5144 -0.0524
-4.1240 -0.5921 -0.0531
-4.1514 -0.6274 -0.0534
-4.1776 -0.6454 -0.0535
-4.2125 -0.6953 -0.0539
-4.2487 -0.7374 -0.0543
-4.2865 -0.7747 -0.0546
-4.3212 -0.7923 -0.0547
-4.3845 -0.8903 -0.0556
-4.5800 -1.1011 -0.0573
-4.6884 -1.2417 -0.0585
-4.7754 -1.3168 -0.0591
-4.8990 -1.4494 -0.0603
-5.0304 -1.5761 -0.0613
-5.0800 -1.5461 -0.0610
-7.5040 -1.9007 -0.0633
-7.4108 -1.7426 -0.0620
-7.0758 -1.2967 -0.0582
-6.9704 -1.1700 -0.0571
-6.9644 -1.0977 -0.0565
-6.8519 -0.9813 -0.0555
-6.6611 -0.7845 -0.0539
-6.6291 -0.7195 -0.0533
-6.5365 -0.6357 -0.0526
-6.4967 -0.5754 -0.0521
-6.4457 -0.5146 -0.0516
-6.3727 -0.4502 -0.0511
-6.3289 -0.3984 -0.0506
-3.9510 -0.2078 -0.0605
-3.9737 -0.4382 -0.0680
-3.9880 -0.4451 -0.0685
-4.0033 -0.4683 -0.0694
-4.0197 -0.4883 -0.0702
-4.0373 -0.5075 -0.0711
-4.0570 -0.5375 -0.0723
-4.0762 -0.5450 -0.0728
-4.0986 -0.5710 -0.0739
-4.1216 -0.5895 -0.0748
-4.1505 -0.6342 -0.0766
-4.2104 -0.6950 -0.0793
-4.2829 -0.7684 -0.0825
-4.3288 -0.8233 -0.0849
-4.3777 -0.8751 -0.0872
-4.5926 -1.1342 -0.0982
-4.6861 -1.2393 -0.1027
-4.7693 -1.3063 -0.1059
-4.8970 -1.4469 -0.1120
-5.0171 -1.5527 -0.1170
-5.0795 -1.5449 -0.1176
-5.2349 -1.6820 -0.1239
-7.0827 -1.2127 -0.1339
-6.8888 -1.0510 -0.1263
-6.7823 -0.9394 -0.1213
-6.7062 -0.8478 -0.1175
-6.6712 -0.7780 -0.1148
-6.6726 -0.7256 -0.1132
-6.6397 -0.6629 -0.1108
-6.4897 -0.5633 -0.1056
-6.3990 -0.4900 -0.1021
-6.3413 -0.4315 -0.0995
-6.2773 -0.3745 -0.0969
-3.9410 -0.2022 -0.0708
-3.9493 -0.2091 -0.0714
-3.9581 -0.4237 -0.0833
-3.9718 -0.4273 -0.0839
-3.9859 -0.4438 -0.0852
-4.0011 -0.4738 -0.0872
-4.0171 -0.4761 -0.0878
-4.0347 -0.4999 -0.0896
-4.0523 -0.5047 -0.0903
-4.0732 -0.5360 -0.0926
-4.0959 -0.5663 -0.0949
-4.1202 -0.5944 -0.0970
-4.1425 -0.5999 -0.0980
-4.1733 -0.6443 -0.1012
-4.2052 -0.6809 -0.1041
-4.2801 -0.7652 -0.1107
-4.3261 -0.8206 -0.1150
-4.5774 -1.1014 -0.1371
-4.6735 -1.2144 -0.1458
-4.7748 -1.3196 -0.1543
-4.8804 -1.4163 -0.1625
-5.0158 -1.5508 -0.1735
-5.1126 -1.6004 -0.1788
-5.1872 -1.6053 -0.1811
-8.0183 -2.5805 -0.3113
-7.5907 -1.9260 -0.2641
-6.6287 -0.7507 -0.1740
-6.5337 -0.6631 -0.1666
-6.4490 -0.5847 -0.1600
-6.4398 -0.5368 -0.1572
-6.4053 -0.4828 -0.1533
-6.3599 -0.4282 -0.1491
-6.2819 -0.3672 -0.1436
-3.9322 -0.1902 -0.0803
-3.9397 -0.1999 -0.0814
-3.9474 -0.2129 -0.0827
-3.9569 -0.2095 -0.0828
-3.9696 -0.4285 -0.1004
-3.9837 -0.4436 -0.1021
-3.9988 -0.4675 -0.1046
-4.0152 -0.4883 -0.1069
-4.0322 -0.4945 -0.1081
-4.0517 -0.5253 -0.1113
-4.0711 -0.5371 -0.1130
-4.0938 -0.5671 -0.1163
-4.1168 -0.5862 -0.1187
-4.1421 -0.6099 -0.1216
-4.2015 -0.6731 -0.1290
-4.3642 -0.8451 -0.1491
-4.5080 -1.0391 -0.1701
-4.6745 -1.2194 -0.1910
-4.7810 -1.3345 -0.2043
-4.8789 -1.4146 -0.2146
-5.0271 -1.5717 -0.2329
-5.0910 -1.5638 -0.2349
-5.2107 -1.6414 -0.2459
-7.4660 -1.8352 -0.3542
-7.4086 -1.7000 -0.3414
-7.3890 -1.5938 -0.3323
-7.2781 -1.4448 -0.3162
-6.6189 -0.7903 -0.2380
-6.5544 -0.7112 -0.2292
-6.3662 -0.5027 -0.2053
-6.3345 -0.4510 -0.1999
-6.3287 -0.4097 -0.1965
-3.9310 -0.1866 -0.0904
-3.9390 -0.1912 -0.0913
-3.9462 -0.2080 -0.0934
-3.9536 -0.4238 -0.1157
-3.9674 -0.4273 -0.1168
-3.9815 -0.4351 -0.1184
-3.9966 -0.4740 -0.1232
-4.0126 -0.4761 -0.1243
-4.0294 -0.4835 -0.1260
-4.0687 -0.5348 -0.1333
-4.0913 -0.5645 -0.1376
-4.1140 -0.5813 -0.1406
-4.1405 -0.6133 -0.1453
-4.2034 -0.6913 -0.1567
-4.2405 -0.7369 -0.1634
-4.3225 -0.8210 -0.1765
-4.3826 -0.9065 -0.1885
-4.6688 -1.2095 -0.2351
-4.7624 -1.2982 -0.2493
-4.8722 -1.4030 -0.2660
-5.0260 -1.5703 -0.2915
-5.1116 -1.5982 -0.2991
-5.1791 -1.5903 -0.3021
-6.6421 -2.8464 -0.5107
-6.6758 -2.7170 -0.4995
-7.3327 -1.8429 -0.4475
-7.2493 -1.6894 -0.4273
-7.2368 -1.4097 -0.3983
-7.0863 -1.2522 -0.3739
-6.9550 -1.1148 -0.3527
-6.8181 -0.9841 -0.3319
-6.6130 -0.7236 -0.2941
-6.5503 -0.6490 -0.2830
-6.2968 -0.4705 -0.2508
-6.3038 -0.4323 -0.2473
-6.3106 -0.3953 -0.2440
-6.3162 -0.3592 -0.2406
-3.9220 -0.1809 -0.0996
-3.9292 -0.1881 -0.1010
-3.9365 -0.1989 -0.1029
-3.9448 -0.2055 -0.1043
-3.9534 -0.2131 -0.1059
-3.9650 -0.4295 -0.1338
-3.9943 -0.4677 -0.1406
-4.0104 -0.4778 -0.1430
-4.0275 -0.4907 -0.1458
-4.0456 -0.5030 -0.1487
-4.0664 -0.5336 -0.1539
-4.0870 -0.5467 -0.1570
-4.1102 -0.5699 -0.1616
-4.1705 -0.6627 -0.1774
-4.1976 -0.6742 -0.1808
-4.2370 -0.7308 -0.1906
-4.2761 -0.7723 -0.1985
-4.3650 -0.8582 -0.2156
-4.4362 -0.9618 -0.2335
-4.6725 -1.2206 -0.2825
-4.7523 -1.2794 -0.2955
-4.8419 -1.3463 -0.3101
-5.0185 -1.5573 -0.3490
-5.0759 -1.5378 -0.3505
-5.1947 -1.6138 -0.3684
-6.0262 -2.5615 -0.5455
-6.1320 -2.5395 -0.5501
-6.2168 -2.4882 -0.5496
-6.2547 -2.3814 -0.5389
-6.3379 -2.3312 -0.5385
-6.4462 -2.3076 -0.5431
-6.5303 -2.2568 -0.5426
-6.5873 -2.1804 -0.5371
-6.6983 -2.1553 -0.5417
-6.8109 -2.1291 -0.5463
-6.8368 -2.0297 -0.5357
-6.9199 -1.9794 -0.5352
-7.2374 -1.6688 -0.5186
-7.2233 -1.5656 -0.5046
-7.1226 -1.4204 -0.4794
-6.9142 -0.9505 -0.4059
-6.5271 -0.6304 -0.3387
-6.4279 -0.5484 -0.3214
-6.3929 -0.4927 -0.3120
-6.3344 -0.4327 -0.3004
-6.3654 -0.4023 -0.2987
-3.9276 -0.1883 -0.1117
-3.9430 -0.2067 -0.1157
-3.9519 -0.2106 -0.1170
-3.9630 -0.4223 -0.1497
-3.9771 -0.4346 -0.1527
-3.9920 -0.4614 -0.1580
-4.0254 -0.4932 -0.1656
-4.0444 -0.5187 -0.1710
-4.0635 -0.5268 -0.1738
-4.0863 -0.5593 -0.1806
-4.1099 -0.5832 -0.1862
-4.1354 -0.6082 -0.1921
-4.1599 -0.6177 -0.1956
-4.1880 -0.6388 -0.2011
-4.2179 -0.6600 -0.2068
-4.2697 -0.7559 -0.2256
-4.3189 -0.8220 -0.2396
-4.3699 -0.8791 -0.2525
-4.6699 -1.2178 -0.3286
-4.7742 -1.3269 -0.3538
-4.8354 -1.3350 -0.3602
-5.0173 -1.5556 -0.4086
-5.0962 -1.5715 -0.4177
-5.5483 -2.0240 -0.5238
-5.6567 -2.0405 -0.5354
-5.7553 -2.0376 -0.5433
-5.7951 -1.9569 -0.5347
-5.9692 -1.7962 -0.5254
-6.0545 -1.7724 -0.5291
-6.1775 -1.7824 -0.5410
-6.7169 -1.4275 -0.5337
-6.8107 -1.3997 -0.5375
-6.8328 -1.3297 -0.5289
-6.8536 -1.2617 -0.5204
-6.8504 -1.1838 -0.5085
-6.6782 -1.0268 -0.4704
-6.5809 -0.6903 -0.4118
-6.5353 -0.6231 -0.3979
-6.4784 -0.5558 -0.3830
-6.3097 -0.3769 -0.3420
-3.9267 -0.1823 -0.1214
-3.9340 -0.1916 -0.1237
-3.9414 -0.2055 -0.1269
-3.9501 -0.2129 -0.1290
-3.9606 -0.4257 -0.1672
-3.9897 -0.4506 -0.1744
-4.0059 -0.4809 -0.1813
-4.0229 -0.4890 -0.1844
-4.0413 -0.5054 -0.1891
-4.0835 -0.5545 -0.2019
-4.1048 -0.5623 -0.2054
-4.1334 -0.6093 -0.2164
-4.1581 -0.6196 -0.2207
-4.2263 -0.7034 -0.2421
-4.3709 -0.8880 -0.2887
-4.4203 -0.9270 -0.3004
-4.4926 -1.0164 -0.3232
-4.5487 -1.0501 -0.3346
-4.6576 -1.1932 -0.3704
-4.7438 -1.2662 -0.3917
-5.0293 -1.5778 -0.4745
-5.0679 -1.5235 -0.4689
-5.1482 -1.5381 -0.4795
-5.3993 -1.8005 -0.5502
-5.4831 -1.7947 -0.5576
-5.5454 -1.7570 -0.5572
-5.6078 -1.7193 -0.5569
-5.6831 -1.6967 -0.5605
-5.7198 -1.6298 -0.5525
-5.7949 -1.6062 -0.5558
-5.8572 -1.5685 -0.5555
-5.9055 -1.5176 -0.5514
-5.9819 -1.4932 -0.5548
-6.0443 -1.4555 -0.5544
-6.1392 -1.4440 -0.5619
-6.2314 -1.3424 -0.5534
-6.3742 -1.2790 -0.5566
-6.4371 -1.2410 -0.5563
-6.4808 -1.1917 -0.5520
-6.5245 -1.1434 -0.5480
-6.5663 -1.0952 -0.5437
-6.6678 -1.0786 -0.5510
-6.7512 -1.0511 -0.5545
-6.7108 -0.9655 -0.5355
-6.3214 -0.4102 -0.3999
-6.2917 -0.3627 -0.3887
-6.2976 -0.3271 -0.3831
-3.9325 -0.1905 -0.1345
-3.9404 -0.1994 -0.1372
-3.9487 -0.2091 -0.1401
-3.9577 -0.2185 -0.1430
-3.9583 -0.4243 -0.1841
-3.9727 -0.4271 -0.1863
-3.9874 -0.4489 -0.1923
-4.0033 -0.4655 -0.1975
-4.0206 -0.4870 -0.2037
-4.0385 -0.4966 -0.2077
-4.0594 -0.5307 -0.2169
-4.0810 -0.5529 -0.2238
-4.1052 -0.5816 -0.2323
-4.1310 -0.6082 -0.2406
-4.1612 -0.6481 -0.2520
-4.1921 -0.6783 -0.2616
-4.2305 -0.7303 -0.2763
-4.2604 -0.7361 -0.2809
-4.2987 -0.7666 -0.2914
-4.3665 -0.8805 -0.3219
-4.4111 -0.9060 -0.3321
-4.4937 -1.0235 -0.3650
-4.5534 -1.0649 -0.3801
-4.6582 -1.1975 -0.4186
-4.7572 -1.2960 -0.4496
-4.9780 -1.4861 -0.5128
-5.0807 -1.5448 -0.5363
-5.1044 -1.4678 -0.5237
-5.1555 -1.4369 -0.5234
-5.2220 -1.4275 -0.5292
-5.2821 -1.4071 -0.5320
-5.3175 -1.3549 -0.5257
-5.3773 -1.3336 -0.5283
-5.4291 -1.3023 -0.5280
-5.5195 -1.3115 -0.5402
-5.5826 -1.2893 -0.5430
-5.6257 -1.2473 -0.5396
-5.6682 -1.2057 -0.5362
-5.6989 -1.1552 -0.5297
-5.7510 -1.1237 -0.5294
-6.0636 -0.9986 -0.5403
-6.1170 -0.9663 -0.5400
-6.1998 -0.9504 -0.5464
-6.2539 -0.9177 -0.5461
-6.3081 -0.8850 -0.5458
-6.3780 -0.8598 -0.5488
-6.4003 -0.8121 -0.5419
-6.4541 -0.7796 -0.5416
-6.4911 -0.7402 -0.5380
-6.4965 -0.6891 -0.5284
-3.9313 -0.1869 -0.1449
-3.9389 -0.1969 -0.1481
-3.9471 -0.2078 -0.1516
-3.9701 -0.4382 -0.2064
-3.9851 -0.4484 -0.2106
-4.0011 -0.4704 -0.2176
-4.0179 -0.4783 -0.2216
-4.0358 -0.4901 -0.2266
-4.1033 -0.5850 -0.2567
-4.1284 -0.6060 -0.2647
-4.1576 -0.6404 -0.2762
-4.1904 -0.6805 -0.2895
-4.3664 -0.8863 -0.3587
-4.4095 -0.9066 -0.3688
-4.4907 -1.0204 -0.4050
-4.5530 -1.0676 -0.4237
-4.6368 -1.1527 -0.4537
-4.8292 -1.3270 -0.5179
-5.1906 -1.2839 -0.5553
-5.4604 -1.1627 -0.5632
-5.5596 -1.1027 -0.5626
-5.6091 -1.0728 -0.5624
-5.9067 -0.8930 -0.5607
-5.9923 -0.8841 -0.5699
-6.0302 -0.8466 -0.5664
-6.0804 -0.8162 -0.5661
-6.1183 -0.7797 -0.5628
-6.1546 -0.7431 -0.5593
-6.2042 -0.7131 -0.5590
-6.2407 -0.6775 -0.5558
-6.3034 -0.6532 -0.5585
-6.3963 -0.6400 -0.5676
-6.4177 -0.5988 -0.5612
-6.4081 -0.5480 -0.5485
-6.4771 -0.4803 -0.5423
-3.9372 -0.1969 -0.1596
-3.9463 -0.1981 -0.1612
-3.9682 -0.4229 -0.2207
-3.9828 -0.4455 -0.2285
-3.9985 -0.4540 -0.2329
-4.0341 -0.5009 -0.2499
-4.0536 -0.5161 -0.2565
-4.0759 -0.5476 -0.2676
-4.1026 -0.5976 -0.2841
-4.1266 -0.6090 -0.2904
-4.3674 -0.8957 -0.3973
-4.4099 -0.9127 -0.4078
-4.5573 -1.0818 -0.4716
-4.6311 -1.1428 -0.4976
-4.7407 -1.2662 -0.5445
-4.7876 -1.2480 -0.5468
-4.8176 -1.1984 -0.5387
-4.8600 -1.1728 -0.5385
-4.8978 -1.1398 -0.5358
-4.9502 -1.1295 -0.5408
-4.9929 -1.1037 -0.5406
-5.0461 -1.0917 -0.5453
-5.0892 -1.0657 -0.5451
-5.1266 -1.0330 -0.5424
-5.1636 -1.0006 -0.5396
-5.2185 -0.9876 -0.5444
-5.2616 -0.9615 -0.5441
-5.3047 -0.9355 -0.5439
-5.3410 -0.9034 -0.5412
-5.3769 -0.8716 -0.5384
-5.5554 -0.7738 -0.5400
-5.5902 -0.7427 -0.5372
-5.6587 -0.7327 -0.5447
-5.7020 -0.7065 -0.5445
-5.7454 -0.6804 -0.5443
-5.7887 -0.6542 -0.5440
-5.8514 -0.6376 -0.5490
-5.8847 -0.6062 -0.5460
-5.9187 -0.5756 -0.5433
-5.9827 -0.5582 -0.5483
-6.0265 -0.5318 -0.5480
-6.1045 -0.5183 -0.5560
-6.1141 -0.4788 -0.5475
-6.1354 -0.4446 -0.5421
-6.1557 -0.4110 -0.5366
-6.2097 -0.3885 -0.5388
-6.3270 -0.3838 -0.5548
-6.2790 -0.2950 -0.5255
-3.9208 -0.1767 -0.1633
-3.9285 -0.1821 -0.1660
-3.9358 -0.1944 -0.1706
-3.9437 -0.2074 -0.1755
-3.9527 -0.2165 -0.1794
-3.9662 -0.4134 -0.2360
-3.9804 -0.4427 -0.2464
-3.9963 -0.4643 -0.2550
-4.0131 -0.4720 -0.2598
-4.0517 -0.5222 -0.2800
-4.0731 -0.5427 -0.2891
-4.0999 -0.5945 -0.3077
-4.1218 -0.5924 -0.3107
-4.1497 -0.6212 -0.3232
-4.1826 -0.6638 -0.3403
-4.2999 -0.7912 -0.3945
-4.3485 -0.8421 -0.4164
-4.3931 -0.8698 -0.4312
-4.4827 -1.0084 -0.4841
-4.6163 -1.1127 -0.5345
-4.6964 -1.0732 -0.5365
-4.7768 -1.0324 -0.5382
-5.5863 -0.6323 -0.5584
-5.6269 -0.6078 -0.5581
-5.6674 -0.5833 -0.5579
-5.7333 -0.5713 -0.5652
-5.7838 -0.5508 -0.5677
-5.8071 -0.5178 -0.5624
-5.8383 -0.4889 -0.5594
-5.8791 -0.4643 -0.5592
-5.9391 -0.4469 -0.5641
-5.9907 -0.4258 -0.5666
-6.0321 -0.4008 -0.5663
-6.0734 -0.3758 -0.5661
-6.1259 -0.3541 -0.5686
-6.1675 -0.3290 -0.5684
-6.1860 -0.2977 -0.5627
-6.2051 -0.2673 -0.5574
-6.2458 -0.2426 -0.5571
-2.7052 -5.1231 -1.4578
-3.9195 -0.1744 -0.1736
-3.9268 -0.1821 -0.1772
-3.9344 -0.1919 -0.1815
-3.9427 -0.2002 -0.1855
-3.9520 -0.2034 -0.1881
-3.9782 -0.4376 -0.2638
-3.9939 -0.4547 -0.2717
-4.0106 -0.4678 -0.2787
-4.0285 -0.4824 -0.2863
-4.0483 -0.5070 -0.2972
-4.0701 -0.5358 -0.3099
-4.0952 -0.5759 -0.3265
-4.1204 -0.5983 -0.3378
-4.1482 -0.6257 -0.3510
-4.1760 -0.6421 -0.3609
-4.2999 -0.7985 -0.4303
-4.3611 -0.8887 -0.4685
-4.3944 -0.8786 -0.4713
-4.4637 -0.9628 -0.5092
-4.6061 -0.9906 -0.5429
-4.6506 -0.9859 -0.5494
-4.6869 -0.9639 -0.5492
-4.7198 -0.9363 -0.5466
-4.7559 -0.9145 -0.5464
-4.8470 -0.8971 -0.5573
-4.8798 -0.8695 -0.5548
-4.9123 -0.8421 -0.5523
-4.9452 -0.8156 -0.5501
-5.0221 -0.7757 -0.5517
-5.0545 -0.7495 -0.5495
-5.0909 -0.7275 -0.5493
-5.1221 -0.7009 -0.5468
-5.1738 -0.6918 -0.5532
-5.2105 -0.6696 -0.5530
-5.2530 -0.6516 -0.5551
-5.2958 -0.6335 -0.5572
-5.3269 -0.6070 -0.5547
-5.3513 -0.5768 -0.5498
-5.3824 -0.5513 -0.5476
-5.4245 -0.5325 -0.5494
-5.4678 -0.5141 -0.5515
-5.4976 -0.4883 -0.5490
-5.5281 -0.4632 -0.5468
-5.5708 -0.4441 -0.5486
-5.6222 -0.4285 -0.5530
-5.6591 -0.4062 -0.5528
-5.6883 -0.3808 -0.5503
-5.7329 -0.3616 -0.5524
-5.7779 -0.3421 -0.5545
-5.8150 -0.3197 -0.5543
-5.8437 -0.2947 -0.5518
-5.8634 -0.2672 -0.5470
-5.9000 -0.2451 -0.5468
-5.9289 -0.2210 -0.5446
-5.9822 -0.2032 -0.5487
-6.0190 -0.1810 -0.5485
-3.9175 -0.1757 -0.1850
-3.9249 -0.1833 -0.1889
-3.9322 -0.1954 -0.1943
-3.9410 -0.2000 -0.1975
-3.9505 -0.2008 -0.1997
-3.9758 -0.4347 -0.2818
-3.9915 -0.4505 -0.2900
-4.0081 -0.4613 -0.2968
-4.0268 -0.4962 -0.3119
-4.0454 -0.4992 -0.3165
-4.0675 -0.5331 -0.3320
-4.0920 -0.5687 -0.3485
-4.1157 -0.5819 -0.3575
-4.1433 -0.6102 -0.3722
-4.1752 -0.6491 -0.3912
-4.2085 -0.6817 -0.4084
-4.2929 -0.7811 -0.4576
-4.3515 -0.8643 -0.4964
-4.3930 -0.8799 -0.5095
-5.6815 -0.3009 -0.5683
-5.7238 -0.2820 -0.5702
-5.7519 -0.2584 -0.5679
-5.7565 -0.2281 -0.5588
-3.9162 -0.1734 -0.1954
-3.9314 -0.1882 -0.2039
-3.9399 -0.1939 -0.2077
-3.9483 -0.2063 -0.2139
-3.9735 -0.4297 -0.2990
-3.9891 -0.4519 -0.3103
-4.0058 -0.4614 -0.3172
-4.0238 -0.4821 -0.3284
-4.0427 -0.4946 -0.3368
-4.0649 -0.5303 -0.3542
-4.0895 -0.5677 -0.3728
-4.1134 -0.5816 -0.3828
-4.1451 -0.6344 -0.4083
-4.1771 -0.6706 -0.4280
-4.2063 -0.6813 -0.4379
-4.2959 -0.7993 -0.4990
-4.3456 -0.8521 -0.5283
-4.4679 -0.8784 -0.5634
-4.5320 -0.8397 -0.5631
-4.5597 -0.8121 -0.5590
-4.6869 -0.7352 -0.5583
-4.7159 -0.7122 -0.5562
-4.7447 -0.6894 -0.5541
-4.8426 -0.6356 -0.5555
-4.8776 -0.6199 -0.5573
-4.9129 -0.6041 -0.5590
-4.9412 -0.5815 -0.5569
-4.9971 -0.5368 -0.5527
-5.0287 -0.5177 -0.5525
-5.0683 -0.5047 -0.5562
-5.1001 -0.4854 -0.5560
-5.1362 -0.4691 -0.5578
-5.1681 -0.4498 -0.5576
-5.2000 -0.4305 -0.5574
-5.2226 -0.4060 -0.5534
-5.2543 -0.3868 -0.5532
-5.2909 -0.3702 -0.5549
-5.3226 -0.3510 -0.5548
-5.3596 -0.3341 -0.5565
-5.3967 -0.3171 -0.5583
-5.4341 -0.2999 -0.5600
-5.4443 -0.2720 -0.5521
-5.4704 -0.2508 -0.5501
-5.5076 -0.2337 -0.5518
-5.5452 -0.2165 -0.5535
-5.5710 -0.1954 -0.5514
-5.6026 -0.1763 -0.5513
-5.6405 -0.1588 -0.5530
-5.6850 -0.1429 -0.5566
-5.7170 -0.1235 -0.5565
-5.7425 -0.1027 -0.5544
-3.9074 -0.1669 -0.2025
-3.9223 -0.1773 -0.2099
-3.9299 -0.1857 -0.2149
-3.9379 -0.1960 -0.2207
-3.9466 -0.2048 -0.2260
-3.9560 -0.4273 -0.3138
-3.9867 -0.4434 -0.3270
-4.0032 -0.4529 -0.3344
-4.0216 -0.4882 -0.3522
-4.0405 -0.4963 -0.3596
-4.0631 -0.5368 -0.3803
-4.0863 -0.5605 -0.3948
-4.1106 -0.5783 -0.4071
-4.1410 -0.6238 -0.4315
-4.1720 -0.6559 -0.4509
-4.2033 -0.6780 -0.4666
-4.3243 -0.7898 -0.5371
-4.4169 -0.7566 -0.5453
-4.7082 -0.5849 -0.5454
-4.8331 -0.5234 -0.5501
-4.8780 -0.5201 -0.5590
-4.8983 -0.4938 -0.5535
-4.9210 -0.4703 -0.5496
-4.9471 -0.4502 -0.5478
-5.1465 -0.3578 -0.5575
-5.2061 -0.3218 -0.5572
-5.2409 -0.3061 -0.5591
-5.3454 -0.2279 -0.5527
-5.3806 -0.2120 -0.5545
-5.4309 -0.2011 -0.5618
-5.5153 -0.1446 -0.5592
-5.5404 -0.1252 -0.5574
-5.5703 -0.1071 -0.5572
-5.6054 -0.0902 -0.5587
-3.9059 -0.1658 -0.2131
-3.9129 -0.1723 -0.2175
-3.9209 -0.1749 -0.2206
-3.9280 -0.1867 -0.2272
-3.9364 -0.1934 -0.2320
-3.9842 -0.4468 -0.3484
-4.0008 -0.4518 -0.3545
-4.0191 -0.4858 -0.3731
-4.0378 -0.4907 -0.3796
-4.0600 -0.5298 -0.4012
-4.0842 -0.5635 -0.4211
-4.1072 -0.5710 -0.4298
-4.1372 -0.6152 -0.4554
-4.1685 -0.6499 -0.4774
-4.2003 -0.6747 -0.4954
-4.2348 -0.7011 -0.5147
-4.5756 -0.6282 -0.5678
-4.6868 -0.5567 -0.5654
-4.8311 -0.4738 -0.5664
-4.8507 -0.4491 -0.5609
-4.8727 -0.4272 -0.5573
-4.9038 -0.4127 -0.5589
-4.9285 -0.3934 -0.5570
-4.9498 -0.3720 -0.5533
-4.9809 -0.3574 -0.5549
-5.0228 -0.3493 -0.5617
-5.0546 -0.3344 -0.5633
-5.0755 -0.3132 -0.5597
-5.1036 -0.2962 -0.5595
-5.1317 -0.2792 -0.5594
-5.1717 -0.2679 -0.5645
-5.2042 -0.2526 -0.5661
-5.2285 -0.2336 -0.5641
-5.2484 -0.2130 -0.5605
-5.2765 -0.1960 -0.5603
-5.3137 -0.1821 -0.5637
-5.3375 -0.1634 -0.5618
-5.3611 -0.1448 -0.5599
-5.3893 -0.1278 -0.5597
-5.4175 -0.1108 -0.5595
-5.4408 -0.0924 -0.5576
-5.4739 -0.0767 -0.5592
-5.5021 -0.0596 -0.5591
-5.5355 -0.0437 -0.5607
-3.9047 -0.1623 -0.2229
-3.9115 -0.1699 -0.2280
-3.9193 -0.1737 -0.2317
-3.9261 -0.1877 -0.2397
-3.9349 -0.1909 -0.2434
-3.9430 -0.2052 -0.2518
-3.9525 -0.2122 -0.2574
-3.9818 -0.4469 -0.3688
-3.9984 -0.4550 -0.3767
-4.0166 -0.4834 -0.3940
-4.0358 -0.4995 -0.4062
-4.0567 -0.5188 -0.4202
-4.0816 -0.5613 -0.4454
-4.1042 -0.5657 -0.4533
-4.1645 -0.6411 -0.5024
-4.2302 -0.6909 -0.5416
-4.2615 -0.6975 -0.5527
-4.2882 -0.6846 -0.5539
-4.5268 -0.5510 -0.5573
-4.5479 -0.5276 -0.5525
-4.5755 -0.5141 -0.5537
-4.5981 -0.4940 -0.5508
-4.6733 -0.4444 -0.5485
-4.7037 -0.4334 -0.5516
-4.7655 -0.4110 -0.5579
-4.7838 -0.3882 -0.5526
-4.8128 -0.3749 -0.5543
-4.8413 -0.3609 -0.5556
-4.8731 -0.3491 -0.5587
-4.8830 -0.3219 -0.5492
-4.9055 -0.3040 -0.5472
-4.9400 -0.2938 -0.5517
-4.9723 -0.2817 -0.5548
-4.9958 -0.2644 -0.5533
-5.0219 -0.2486 -0.5531
-5.0510 -0.2342 -0.5544
-5.0950 -0.2267 -0.5626
-5.1338 -0.1884 -0.5558
-5.1632 -0.1738 -0.5571
-5.1940 -0.1595 -0.5588
-5.2249 -0.1451 -0.5605
-5.2549 -0.1301 -0.5617
-5.2815 -0.1140 -0.5616
-5.2951 -0.0941 -0.5563
-5.3215 -0.0782 -0.5562
-5.3528 -0.0635 -0.5579
-5.3931 -0.0509 -0.5628
-5.4198 -0.0347 -0.5627
-3.9032 -0.1612 -0.2336
-3.9101 -0.1675 -0.2385
-3.9251 -0.1817 -0.2494
-3.9332 -0.1906 -0.2558
-3.9414 -0.2036 -0.2642
-3.9514 -0.2039 -0.2671
-3.9794 -0.4406 -0.3864
-3.9959 -0.4528 -0.3968
-4.0137 -0.4706 -0.4101
-4.0552 -0.5311 -0.4502
-4.0782 -0.5531 -0.4670
-4.1016 -0.5644 -0.4788
-4.1304 -0.6019 -0.5045
-4.1646 -0.6542 -0.5387
-4.2754 -0.6485 -0.5669
-4.3798 -0.5960 -0.5713
-4.6594 -0.4270 -0.5698
-4.6802 -0.4070 -0.5662
-4.7055 -0.3917 -0.5660
-4.7865 -0.3502 -0.5691
-4.8088 -0.3325 -0.5669
-4.8293 -0.3137 -0.5638
-4.8570 -0.3002 -0.5652
-4.9274 -0.2513 -0.5618
-4.9552 -0.2376 -0.5631
-4.9738 -0.2190 -0.5595
-4.9901 -0.1996 -0.5550
-5.0238 -0.1888 -0.5593
-5.0529 -0.1754 -0.5611
-5.0780 -0.1602 -0.5610
-5.1031 -0.1451 -0.5608
-5.1347 -0.1323 -0.5636
-5.1566 -0.1159 -0.5620
-5.1852 -0.1018 -0.5633
-5.2186 -0.0890 -0.5666
-5.2440 -0.0737 -0.5665
-5.2573 -0.0550 -0.5614
-5.2862 -0.0407 -0.5628
-5.3115 -0.0255 -0.5626
-5.3456 -0.0122 -0.5659
-5.3659 0.0042 -0.5638
-3.9090 -0.1640 -0.2484
-3.9165 -0.1689 -0.2531
-3.9317 -0.1880 -0.2672
-3.9401 -0.1987 -0.2750
-3.9494 -0.2056 -0.2813
-3.9770 -0.4311 -0.4024
-3.9934 -0.4380 -0.4107
-4.0110 -0.4630 -0.4284
-4.0300 -0.4820 -0.4435
-4.0508 -0.5061 -0.4618
-4.0755 -0.5509 -0.4915
-4.0985 -0.5590 -0.5024
-4.1267 -0.5934 -0.5280
-4.1833 -0.6263 -0.5613
-4.2069 -0.6120 -0.5611
-4.2283 -0.5897 -0.5563
-4.2525 -0.5782 -0.5577
-4.2751 -0.5614 -0.5560
-4.2975 -0.5447 -0.5543
-4.3249 -0.5407 -0.5605
-4.3474 -0.5240 -0.5588
-4.3686 -0.5049 -0.5555
-4.3932 -0.4931 -0.5569
-4.4621 -0.4484 -0.5550
-4.5089 -0.4201 -0.5547
-4.5322 -0.4060 -0.5546
-4.5826 -0.3818 -0.5575
-4.6024 -0.3636 -0.5542
-4.6238 -0.3475 -0.5525
-4.6471 -0.3334 -0.5524
-4.6746 -0.3231 -0.5554
-4.7002 -0.3107 -0.5568
-4.7342 -0.3049 -0.5640
-4.7558 -0.2887 -0.5623
-4.7843 -0.2777 -0.5652
-4.8082 -0.2633 -0.5651
-4.8246 -0.2439 -0.5603
-4.8414 -0.2254 -0.5560
-4.8596 -0.2081 -0.5528
-4.8711 -0.1876 -0.5459
-4.8988 -0.1760 -0.5483
-4.9268 -0.1643 -0.5508
-4.9560 -0.1530 -0.5538
-4.9795 -0.1388 -0.5537
-5.0091 -0.1272 -0.5566
-5.0380 -0.1149 -0.5591
-5.0563 -0.0986 -0.5564
-5.0921 -0.0886 -0.5620
-5.1227 -0.0763 -0.5649
-5.1467 -0.0618 -0.5648
-5.1707 -0.0473 -0.5647
-5.1911 -0.0318 -0.5630
-5.2004 -0.0137 -0.5566
-5.2178 0.0021 -0.5539
-5.2515 0.0141 -0.5579
-5.2713 0.0292 -0.5562
-3.9070 -0.1652 -0.2606
-3.9144 -0.1711 -0.2660
-3.9206 -0.1881 -0.2770
