ply
format ascii 1.0
element vertex 2104
property float x
property float y
property float z
end_header
0.2535 4.3032 -0.1130
0.2434 4.3121 -0.2001
0.1774 4.2703 -0.2841
0.2800 4.3835 -0.3865
0.2116 4.3398 -0.4721
0.3203 4.4615 -0.5892
-0.7120 3.5378 -0.5991
-1.3483 2.9691 -0.6083
-1.5834 2.7540 -0.5879
-1.6542 2.6914 -0.5919
-1.7108 2.6423 -0.5999
-1.8253 2.5400 -0.6019
-1.9101 2.4658 -0.6108
-1.9712 2.4073 -0.5929
-2.0395 2.3465 -0.5951
-2.0701 2.3192 -0.5957
-2.1239 2.2713 -0.5976
-2.1662 2.2350 -0.6054
-2.2122 2.1924 -0.5993
-2.2538 2.1533 -0.5906
-2.2663 2.1436 -0.5979
-2.2826 2.1287 -0.5967
-2.2994 2.1129 -0.5927
-2.3092 2.1059 -0.6015
-2.3365 2.0808 -0.5985
-2.3488 2.0697 -0.5977
-2.3584 2.0620 -0.6023
-2.3814 2.0403 -0.5972
-2.3990 2.0257 -0.6027
-2.4088 2.0163 -0.6002
-2.4183 2.0071 -0.5970
-2.4269 1.9991 -0.5955
-2.4341 1.9933 -0.5984
-2.4417 1.9865 -0.5984
-2.4483 1.9813 -0.6019
0.5207 4.5043 0.6799
0.3665 4.3839 0.5701
0.4152 4.4450 0.5035
0.3486 4.4024 0.4143
0.2835 4.3610 0.3268
0.2924 4.4056 0.1668
0.2826 4.4156 0.0825
0.2442 4.3990 -0.0038
0.3209 4.4912 -0.0922
0.3416 4.5318 -0.1851
0.2408 4.4567 -0.2721
0.2598 4.4965 -0.3688
0.0260 4.2905 -0.4318
0.1781 4.4612 -0.5526
-0.4453 3.8836 -0.5955
-1.7028 2.6401 -0.3368
-1.3432 3.0425 -0.6169
-1.6582 2.7314 -0.5541
-1.6809 2.7171 -0.5849
-1.7336 2.6697 -0.5950
-1.8563 2.5530 -0.5901
-1.9341 2.4827 -0.6034
-2.0265 2.3924 -0.5890
-2.0560 2.3654 -0.5930
-2.0767 2.3486 -0.6045
-2.1432 2.2828 -0.5906
-2.1609 2.2680 -0.5994
-2.1878 2.2415 -0.5936
-2.2065 2.2246 -0.5972
-2.2243 2.2086 -0.6005
-2.2440 2.1897 -0.5988
-2.2599 2.1753 -0.6017
-2.2953 2.1404 -0.5950
-2.3066 2.1314 -0.6019
-2.3197 2.1195 -0.6038
-2.3356 2.1030 -0.5973
-2.3715 2.0688 -0.5955
-2.3811 2.0605 -0.5986
-2.3931 2.0478 -0.5927
-2.4018 2.0403 -0.5957
-2.4100 2.0334 -0.5993
-2.4189 2.0250 -0.5992
-2.4272 2.0172 -0.5996
-2.4365 2.0074 -0.5947
-2.4444 1.9998 -0.5941
-2.4515 1.9934 -0.5954
0.5379 4.6433 0.7261
0.3494 4.4867 0.6048
0.3121 4.4706 0.5209
0.3030 4.4813 0.4419
0.2374 4.4384 0.3532
0.2001 4.4223 0.2694
0.1900 4.4324 0.1878
-1.7146 2.6583 -0.2639
-1.7337 2.6465 -0.2925
-1.7416 2.6466 -0.3245
-1.3710 3.0846 -0.6103
-1.7981 2.6602 -0.6045
-1.8752 2.5796 -0.5876
-1.9000 2.5601 -0.6076
-2.0402 2.4169 -0.5903
-2.0984 2.3608 -0.5965
-2.1166 2.3458 -0.6090
-2.1484 2.3127 -0.6022
-2.1768 2.2832 -0.5966
-2.1962 2.2651 -0.6012
-2.2207 2.2395 -0.5958
-2.2564 2.2050 -0.5996
-2.2750 2.1859 -0.5970
-2.2914 2.1696 -0.5965
-2.3061 2.1553 -0.5975
-2.3201 2.1417 -0.5986
-2.3343 2.1272 -0.5969
-2.3478 2.1134 -0.5952
-2.3580 2.1046 -0.6003
-2.3722 2.0887 -0.5931
-2.3912 2.0717 -0.6002
-2.4114 2.0510 -0.5977
-2.4198 2.0434 -0.6004
-2.4282 2.0354 -0.6016
-2.4364 2.0274 -0.6022
-2.4452 2.0179 -0.5988
-2.4529 2.0101 -0.5983
-2.4599 2.0036 -0.5998
-2.4669 1.9965 -0.5997
0.2112 4.4961 0.5381
-1.7203 2.6652 -0.1310
-1.7304 2.6627 -0.1606
-1.7349 2.6663 -0.1914
-1.7425 2.6668 -0.2221
-1.7413 2.6771 -0.2556
-1.7460 2.6812 -0.2886
-1.2659 3.2674 -0.6057
-1.7200 2.7750 -0.5349
-1.8100 2.7011 -0.6081
-1.8851 2.6187 -0.5927
-1.9235 2.5811 -0.6016
-1.9653 2.5383 -0.6042
-1.9995 2.5043 -0.6105
-2.0865 2.4088 -0.5925
-2.1085 2.3886 -0.6024
-2.1353 2.3611 -0.6042
-2.1638 2.3306 -0.6010
-2.1849 2.3098 -0.6054
-2.2158 2.2740 -0.5923
-2.2347 2.2551 -0.5951
-2.2513 2.2391 -0.5997
-2.2691 2.2206 -0.6002
-2.3045 2.1824 -0.5953
-2.3150 2.1742 -0.6052
-2.3313 2.1559 -0.6005
-2.3563 2.1306 -0.6033
-2.3705 2.1142 -0.5973
-2.3803 2.1053 -0.6021
-2.3923 2.0917 -0.5982
-2.4016 2.0831 -0.6017
-2.4210 2.0625 -0.6007
-2.4314 2.0501 -0.5948
-2.4383 2.0448 -0.6016
-2.4475 2.0338 -0.5966
-2.4548 2.0269 -0.5991
-2.4630 2.0173 -0.5952
-2.4692 2.0123 -0.6005
0.1492 4.5372 0.6373
-1.7479 2.6553 -0.0359
-1.7420 2.6702 -0.0642
-1.7467 2.6736 -0.0931
-1.7509 2.6777 -0.1226
-1.7506 2.6872 -0.1534
-1.7554 2.6910 -0.1843
-1.7741 2.6790 -0.2129
-1.2234 3.4064 -0.6299
-1.7574 2.7887 -0.5216
-1.7624 2.8091 -0.6095
-1.8448 2.7145 -0.5948
-1.8751 2.6871 -0.6148
-1.9536 2.5935 -0.5898
-2.0283 2.5140 -0.5979
-2.1026 2.4307 -0.5917
-2.1243 2.4100 -0.6020
-2.1560 2.3736 -0.5969
-2.2068 2.3173 -0.5944
-2.2456 2.2764 -0.6000
-2.2873 2.2278 -0.5907
-2.2991 2.2178 -0.6005
-2.3121 2.2053 -0.6065
-2.3292 2.1851 -0.6015
-2.3432 2.1697 -0.6014
-2.3575 2.1532 -0.5985
-2.3680 2.1432 -0.6038
-2.3817 2.1264 -0.5981
-2.3926 2.1149 -0.5991
-2.4019 2.1059 -0.6035
-2.4133 2.0921 -0.5990
-2.4234 2.0804 -0.5969
-2.4314 2.0730 -0.6015
-2.4414 2.0603 -0.5958
-2.4497 2.0513 -0.5960
-2.4568 2.0448 -0.6002
-2.4650 2.0348 -0.5971
-2.4715 2.0291 -0.6017
-2.4788 2.0205 -0.5999
-2.4853 2.0137 -0.6012
-1.7754 2.6604 -0.0014
-1.7774 2.6668 -0.0285
-1.7950 2.6644 -0.0840
-1.7950 2.6737 -0.1130
-1.7894 2.6901 -0.1437
-0.9462 3.8118 -0.6009
-1.2799 3.4295 -0.6114
-1.7784 2.8232 -0.5179
-1.7510 2.8755 -0.5816
-1.7778 2.8540 -0.6114
-1.8430 2.7782 -0.6099
-1.9524 2.6507 -0.6066
-2.0107 2.5790 -0.5928
-2.0422 2.5452 -0.6009
-2.0775 2.5045 -0.6016
-2.1044 2.4758 -0.6090
-2.1735 2.3911 -0.5939
-2.1981 2.3629 -0.5945
-2.2182 2.3412 -0.5994
-2.2369 2.3212 -0.6045
-2.2618 2.2898 -0.5962
-2.2805 2.2683 -0.5963
-2.2944 2.2545 -0.6035
-2.3124 2.2327 -0.6005
-2.3273 2.2159 -0.6018
-2.3424 2.1980 -0.6004
-2.3567 2.1810 -0.5988
-2.3715 2.1622 -0.5934
-2.3808 2.1540 -0.6015
-2.3938 2.1375 -0.5970
-2.4032 2.1282 -0.6020
-2.4148 2.1134 -0.5976
-2.4240 2.1037 -0.6004
-2.4341 2.0911 -0.5974
-2.4526 2.0681 -0.5923
-2.4671 2.0535 -0.5992
-2.4816 2.0369 -0.5997
-2.4883 2.0293 -0.6004
-2.4942 2.0242 -0.6057
-1.7873 2.6826 0.0333
-1.8044 2.6714 0.0057
-1.8216 2.6694 -0.0485
-1.8094 2.6942 -0.0769
-1.8220 2.6888 -0.1051
-1.8417 2.6743 -0.1325
-1.8181 2.7149 -0.1664
-0.8579 4.0203 -0.5518
-0.8756 4.0251 -0.6273
-1.1011 3.7485 -0.6222
-1.2875 3.5187 -0.6146
-1.7700 2.9187 -0.5808
-1.8034 2.8868 -0.6064
-1.8789 2.7912 -0.5961
-1.9705 2.6832 -0.6065
-2.0289 2.6070 -0.5919
-2.0629 2.5673 -0.5971
-2.0946 2.5303 -0.6015
-2.1389 2.4709 -0.5864
-2.1532 2.4604 -0.6062
-2.1866 2.4166 -0.5975
-2.2062 2.3957 -0.6058
-2.2308 2.3650 -0.6036
-2.2549 2.3339 -0.5990
-2.2763 2.3068 -0.5959
-2.2919 2.2897 -0.6015
-2.3249 2.2499 -0.6027
-2.3418 2.2280 -0.5987
-2.3583 2.2056 -0.5925
-2.3696 2.1937 -0.5978
-2.3807 2.1818 -0.6025
-2.4038 2.1539 -0.6033
-2.4157 2.1379 -0.5990
-2.4257 2.1260 -0.5997
-2.4354 2.1142 -0.5997
-2.4438 2.1052 -0.6032
-2.4529 2.0936 -0.6018
-2.4629 2.0785 -0.5933
-2.4703 2.0704 -0.5959
-2.4765 2.0655 -0.6039
-2.4848 2.0532 -0.5976
-2.4917 2.0448 -0.5977
-2.4986 2.0359 -0.5961
-2.5041 2.0319 -0.6038
-1.8247 2.6732 0.0642
-1.8211 2.6873 0.0396
-1.8262 2.6908 0.0132
-1.8240 2.7037 -0.0133
-1.8197 2.7197 -0.0410
-1.7753 2.7884 -0.0713
-1.8708 2.6857 -0.1244
-1.8651 2.7047 -0.1550
-0.9246 4.0891 -0.6127
-1.1566 3.7877 -0.6051
-1.8031 2.9065 -0.4757
-1.8374 2.8718 -0.5006
-1.8262 2.9067 -0.5546
-1.8102 2.9506 -0.6159
-1.8929 2.8381 -0.6000
-1.9417 2.7773 -0.6051
-2.0321 2.6456 -0.5646
-2.0654 2.6056 -0.5722
-2.0840 2.5896 -0.5931
-2.1066 2.5662 -0.6081
-2.1437 2.5161 -0.6019
-2.1738 2.4770 -0.6007
-2.2068 2.4309 -0.5913
-2.2278 2.4059 -0.5966
-2.2515 2.3746 -0.5945
-2.2682 2.3560 -0.6022
-2.3067 2.3059 -0.6007
-2.3407 2.2611 -0.5978
-2.3548 2.2436 -0.5997
-2.3682 2.2270 -0.6013
-2.3808 2.2113 -0.6028
-2.3963 2.1876 -0.5929
-2.4059 2.1778 -0.5995
-2.4178 2.1613 -0.5964
-2.4273 2.1503 -0.5999
-2.4371 2.1382 -0.6008
-2.4553 2.1149 -0.6015
-2.4717 2.0948 -0.6039
-2.4806 2.0807 -0.5970
-2.4875 2.0732 -0.6005
-2.4951 2.0620 -0.5967
-2.5011 2.0565 -0.6028
-2.5083 2.0449 -0.5966
-1.8373 2.6740 0.1441
-1.8401 2.6799 0.1205
-1.8061 2.7332 0.1036
-1.8259 2.7181 0.0749
-1.8285 2.7253 0.0490
-1.8334 2.7297 0.0221
-1.8071 2.7761 -0.0036
-1.7886 2.8132 -0.0325
-1.7851 2.8307 -0.0634
-1.8934 2.7056 -0.1170
-1.9142 2.6883 -0.1436
-1.1605 3.9055 -0.6086
-1.8855 2.8663 -0.4801
-1.8430 2.9553 -0.5557
-1.8626 2.9433 -0.5910
-1.9214 2.8638 -0.5925
-2.0307 2.6937 -0.5406
-2.0745 2.6339 -0.5398
-2.0960 2.6121 -0.5580
-2.0949 2.6316 -0.6015
-2.1251 2.5930 -0.6075
-2.1626 2.5388 -0.5999
-2.1952 2.4921 -0.5941
-2.2404 2.4339 -0.6023
-2.2618 2.4057 -0.6043
-2.2905 2.3601 -0.5885
-2.3039 2.3466 -0.5999
-2.3180 2.3310 -0.6084
-2.3384 2.2996 -0.5997
-2.3650 2.2673 -0.6093
-2.3820 2.2404 -0.6000
-2.3948 2.2230 -0.6000
-2.4069 2.2065 -0.6000
-2.4186 2.1902 -0.5989
-2.4301 2.1733 -0.5960
-2.4400 2.1601 -0.5968
-2.4486 2.1505 -0.6018
-2.4578 2.1382 -0.6022
-2.4664 2.1268 -0.6029
-2.4755 2.1128 -0.5988
-2.4908 2.0925 -0.6002
-2.4977 2.0842 -0.6028
-2.5050 2.0727 -0.5992
-2.5116 2.0639 -0.5996
-2.5182 2.0539 -0.5970
-1.7504 2.8114 0.2312
-1.7837 2.7790 0.1964
-1.7814 2.7930 0.1726
-1.7960 2.7848 0.1438
-1.8066 2.7821 0.1160
-1.8192 2.7767 0.0877
-1.8317 2.7712 0.0594
-1.8418 2.7694 0.0313
-1.8614 2.7541 0.0025
-1.8714 2.7523 -0.0256
-1.8773 2.7565 -0.0539
-1.8857 2.7572 -0.0827
-1.9238 2.7142 -0.1088
-1.9557 2.6793 -0.1335
-1.9619 2.6828 -0.1614
-1.8770 2.8278 -0.2121
-1.8655 2.8619 -0.2510
-1.1079 4.1250 -0.6356
-1.3654 3.7389 -0.6014
-1.9137 2.8720 -0.4284
-1.9264 2.8696 -0.4639
-1.9211 2.8991 -0.5127
-1.9263 2.9111 -0.5561
-1.9448 2.8994 -0.5895
-1.9981 2.8226 -0.5891
-2.0213 2.8001 -0.6137
-2.0661 2.7350 -0.6122
-2.1124 2.6642 -0.6030
-2.1541 2.5998 -0.5934
-2.2320 2.4925 -0.6042
-2.2767 2.4292 -0.6067
-2.2977 2.3985 -0.6056
-2.3198 2.3636 -0.5985
-2.3374 2.3380 -0.5981
-2.3535 2.3150 -0.5983
-2.3792 2.2828 -0.6092
-2.3945 2.2583 -0.6035
-2.4077 2.2383 -0.6014
-2.4190 2.2229 -0.6034
-2.4315 2.2027 -0.5983
-2.4423 2.1862 -0.5965
-2.4526 2.1707 -0.5947
-2.4615 2.1587 -0.5969
-2.4705 2.1456 -0.5964
-2.4790 2.1332 -0.5961
-2.4866 2.1238 -0.5994
-2.4940 2.1144 -0.6021
-2.5014 2.1038 -0.6022
-2.5085 2.0933 -0.6016
-2.5154 2.0822 -0.5993
-2.5217 2.0739 -0.6010
-2.5278 2.0657 -0.6023
-2.5338 2.0570 -0.6018
-1.7136 2.8655 0.3583
-1.7404 2.8417 0.3232
-1.7559 2.8324 0.2936
-1.7628 2.8345 0.2675
-1.7832 2.8187 0.2362
-1.8206 2.7793 0.1999
-1.8300 2.7778 0.1734
-1.8535 2.7567 0.1430
-1.8498 2.7738 0.1195
-1.8711 2.7555 0.0902
-1.8877 2.7439 0.0623
-1.8954 2.7451 0.0357
-1.9014 2.7489 0.0089
-1.9094 2.7499 -0.0184
-1.9235 2.7419 -0.0461
-1.9300 2.7455 -0.0740
-1.9600 2.7126 -0.1002
-1.9848 2.6871 -0.1255
-1.9911 2.6908 -0.1530
-1.9621 2.7530 -0.1896
-1.9436 2.7996 -0.2276
-1.9208 2.9131 -0.3894
-1.9412 2.8973 -0.4206
-1.9513 2.9000 -0.4580
-1.9568 2.9118 -0.4995
-1.9425 2.9875 -0.6103
-2.0033 2.8917 -0.6040
-2.0379 2.8458 -0.6181
-2.0864 2.7688 -0.6120
-2.1337 2.6910 -0.6005
-2.1641 2.6470 -0.6053
-2.1888 2.6137 -0.6146
-2.2234 2.5563 -0.6049
-2.2515 2.5113 -0.6005
-2.2935 2.4500 -0.6063
-2.3365 2.3792 -0.5958
-2.3497 2.3639 -0.6055
-2.3670 2.3358 -0.6020
-2.3972 2.2873 -0.5972
-2.4102 2.2675 -0.5972
-2.4224 2.2487 -0.5969
-2.4335 2.2323 -0.5981
-2.4435 2.2190 -0.6020
-2.4543 2.2015 -0.5996
-2.4637 2.1877 -0.6010
-2.4733 2.1720 -0.5987
-2.4811 2.1628 -0.6044
-2.4898 2.1481 -0.6015
-2.4982 2.1335 -0.5978
-2.5055 2.1233 -0.5996
-2.5123 2.1145 -0.6030
-2.5193 2.1031 -0.6015
-2.5263 2.0892 -0.5948
-2.5325 2.0801 -0.5954
-2.5381 2.0737 -0.6002
-1.7614 2.8416 0.3767
-1.7708 2.8402 0.3504
-1.7981 2.8144 0.3156
-1.8222 2.7926 0.2832
-1.8175 2.8107 0.2631
-1.8392 2.7919 0.2321
-1.8466 2.7934 0.2066
-1.8719 2.7691 0.1752
-1.8818 2.7668 0.1490
-1.8874 2.7711 0.1238
-1.8933 2.7753 0.0980
-1.9115 2.7607 0.0696
-1.9194 2.7620 0.0431
-1.9297 2.7595 0.0160
-1.9477 2.7451 -0.0116
-1.9637 2.7335 -0.0387
-1.9623 2.7501 -0.0661
-1.9925 2.7150 -0.0921
-2.0166 2.6892 -0.1171
-2.0246 2.6904 -0.1439
-1.9965 2.7548 -0.1796
-1.9722 2.8148 -0.2187
-1.9627 2.8504 -0.2569
-1.9785 2.8409 -0.2874
-1.9757 2.8662 -0.3267
-1.8023 3.2183 -0.4614
-1.8287 3.1955 -0.4993
-1.9673 2.9495 -0.4585
-1.9921 2.9240 -0.4865
-1.9769 2.9808 -0.5472
-1.9597 3.0445 -0.6151
-2.0209 2.9417 -0.6081
-2.0596 2.8842 -0.6179
-2.1108 2.7958 -0.6075
-2.1604 2.7067 -0.5911
-2.1839 2.6758 -0.6047
-2.2160 2.6224 -0.6020
-2.2438 2.5769 -0.6013
-2.2703 2.5327 -0.5986
-2.3133 2.4639 -0.6002
-2.3287 2.4439 -0.6096
-2.3484 2.4099 -0.6058
-2.3678 2.3748 -0.5987
-2.3839 2.3477 -0.5968
-2.3977 2.3264 -0.5986
-2.4103 2.3075 -0.6017
-2.4354 2.2659 -0.5998
-2.4582 2.2259 -0.5941
-2.4686 2.2073 -0.5909
-2.4768 2.1978 -0.5978
-2.4853 2.1854 -0.6005
-2.4937 2.1717 -0.6005
-2.5020 2.1574 -0.5987
-2.5092 2.1476 -0.6024
-2.5169 2.1329 -0.5981
-2.5235 2.1247 -0.6027
-2.5305 2.1103 -0.5970
-2.5368 2.0995 -0.5960
-2.5428 2.0909 -0.5979
-2.5484 2.0831 -0.6006
-2.5540 2.0747 -0.6016
-1.8385 2.7735 0.3745
-1.8520 2.7656 0.3479
-1.8773 2.7408 0.3153
-1.8786 2.7499 0.2952
-1.8797 2.7599 0.2747
-1.8790 2.7727 0.2544
-1.8782 2.7862 0.2334
-1.8854 2.7880 0.2086
-1.8808 2.8080 0.1874
-1.8973 2.7960 0.1588
-1.9094 2.7908 0.1316
-1.9191 2.7894 0.1050
-1.9430 2.7652 0.0755
-1.9514 2.7657 0.0493
-1.9538 2.7765 0.0235
-1.9676 2.7684 -0.0040
-1.9906 2.7446 -0.0314
-2.0009 2.7422 -0.0582
-2.0024 2.7555 -0.0858
-2.0426 2.6999 -0.1096
-2.0527 2.6976 -0.1358
-2.0344 2.7847 -0.2327
-1.9937 2.8843 -0.2841
-2.0057 2.8826 -0.3171
-1.8436 3.2368 -0.4476
-1.8335 3.2891 -0.5084
-2.0158 2.9602 -0.4824
-2.0294 2.9578 -0.5191
-2.0012 3.0513 -0.5972
-2.0370 2.9997 -0.6149
-2.0918 2.9003 -0.6061
-2.1226 2.8550 -0.6197
-2.1811 2.7373 -0.5902
-2.2301 2.6648 -0.6108
-2.2646 2.5977 -0.5976
-2.2877 2.5593 -0.5999
-2.3074 2.5285 -0.6056
-2.3293 2.4892 -0.6028
-2.3457 2.4647 -0.6094
-2.3659 2.4261 -0.6028
-2.3828 2.3959 -0.6009
-2.3997 2.3636 -0.5951
-2.4130 2.3418 -0.5973
-2.4245 2.3258 -0.6037
-2.4376 2.3013 -0.6005
-2.4503 2.2764 -0.5952
-2.4611 2.2579 -0.5952
-2.4706 2.2433 -0.5985
-2.4807 2.2244 -0.5957
-2.4893 2.2116 -0.5993
-2.4973 2.2005 -0.6040
-2.5063 2.1814 -0.5976
-2.5142 2.1661 -0.5949
-2.5213 2.1561 -0.5986
-2.5283 2.1440 -0.5987
-2.5350 2.1328 -0.5992
-2.5415 2.1203 -0.5968
-2.5474 2.1129 -0.6017
-2.5533 2.1013 -0.5992
-2.5589 2.0926 -0.6008
-2.5642 2.0841 -0.6020
-1.8426 2.7928 0.4294
-1.8560 2.7849 0.4028
-1.8791 2.7627 0.3704
-1.8881 2.7610 0.3468
-1.8991 2.7562 0.3220
-1.9102 2.7514 0.2972
-1.9251 2.7406 0.2704
-1.9232 2.7559 0.2517
-1.9211 2.7719 0.2322
-1.9133 2.7976 0.2141
-1.9110 2.8151 0.1927
-1.9147 2.8236 0.1683
-1.9369 2.8018 0.1380
-1.9489 2.7966 0.1110
-1.9648 2.7847 0.0832
-1.9784 2.7766 0.0561
-2.0029 2.7495 0.0277
-2.0060 2.7597 0.0023
-2.0194 2.7518 -0.0243
-2.0276 2.7533 -0.0509
-2.0414 2.7444 -0.0774
-2.0713 2.7048 -0.1019
-2.0841 2.6971 -0.1273
-2.0997 2.6839 -0.1519
-2.0506 2.8009 -0.1949
-2.0532 2.8163 -0.2272
-2.0257 2.8959 -0.2738
-2.0280 2.9151 -0.3113
-2.0240 2.9492 -0.3542
-1.9429 3.1909 -0.5028
-2.0559 2.9901 -0.5136
-2.0438 3.0523 -0.5775
-2.0649 3.0338 -0.6099
-2.1250 2.9128 -0.5927
-2.1515 2.8754 -0.6107
-2.1889 2.8060 -0.6094
-2.2178 2.7568 -0.6156
-2.2555 2.6785 -0.6012
-2.2760 2.6481 -0.6126
-2.3065 2.5838 -0.5994
-2.3297 2.5392 -0.5961
-2.3627 2.4875 -0.6104
-2.3832 2.4441 -0.6010
-2.3984 2.4173 -0.6029
-2.4143 2.3852 -0.5985
-2.4284 2.3583 -0.5966
-2.4398 2.3411 -0.6025
-2.4535 2.3107 -0.5941
-2.4646 2.2901 -0.5938
-2.4736 2.2790 -0.6025
-2.4843 2.2564 -0.5976
-2.4933 2.2410 -0.5995
-2.5024 2.2226 -0.5970
-2.5106 2.2083 -0.5981
-2.5185 2.1941 -0.5985
-2.5261 2.1793 -0.5971
-2.5330 2.1691 -0.6010
-2.5403 2.1494 -0.5909
-2.5465 2.1409 -0.5956
-2.5525 2.1333 -0.6010
-2.5584 2.1207 -0.5982
-2.5640 2.1132 -0.6028
-2.5694 2.1008 -0.5988
-2.5747 2.0949 -0.6048
-1.8747 2.7939 0.4295
-1.9030 2.7630 0.3933
-1.8989 2.7812 0.3784
-1.9099 2.7764 0.3536
-1.9269 2.7624 0.3254
-1.9359 2.7607 0.3018
-1.9500 2.7509 0.2755
-1.9578 2.7512 0.2525
-1.9737 2.7384 0.2256
-1.9624 2.7709 0.2105
-1.9666 2.7780 0.1878
-1.9584 2.8069 0.1689
-1.9629 2.8146 0.1447
-1.9799 2.8006 0.1164
-1.9939 2.7915 0.0892
-2.0004 2.7962 0.0637
-2.0056 2.8036 0.0378
-2.0273 2.7801 0.0097
-2.0412 2.7711 -0.0171
-2.0530 2.7660 -0.0436
-2.0677 2.7552 -0.0700
-2.0995 2.7094 -0.0943
-2.1162 2.6932 -0.1187
-2.1348 2.6725 -0.1420
-2.0535 2.9156 -0.2652
-2.0262 3.0049 -0.3178
-2.0106 3.0713 -0.3703
-1.8281 3.5444 -0.5402
-1.8462 3.5448 -0.5929
-2.1004 2.9773 -0.4911
-2.0768 3.0755 -0.5673
-2.0723 3.1266 -0.6297
-2.1396 2.9768 -0.6033
-2.1727 2.9185 -0.6130
-2.2524 2.7484 -0.5926
-2.2721 2.7205 -0.6084
-2.2962 2.6758 -0.6122
-2.3249 2.6120 -0.6009
-2.3446 2.5759 -0.6048
-2.3646 2.5359 -0.6037
-2.3829 2.4997 -0.6031
-2.3997 2.4664 -0.6025
-2.4135 2.4433 -0.6083
-2.4442 2.3741 -0.5952
-2.4554 2.3558 -0.6005
-2.4665 2.3362 -0.6034
-2.4783 2.3087 -0.5973
-2.4881 2.2910 -0.5996
-2.4978 2.2712 -0.5984
-2.5067 2.2547 -0.5997
-2.5152 2.2383 -0.6001
-2.5233 2.2222 -0.5997
-2.5383 2.1919 -0.5982
-2.5451 2.1792 -0.5993
-2.5515 2.1705 -0.6049
-2.5638 2.1443 -0.6019
-2.5695 2.1307 -0.5982
-2.5749 2.1231 -0.6028
-2.5801 2.1104 -0.5990
-1.8647 2.8593 0.4592
-1.9043 2.8098 0.4137
-1.9207 2.7966 0.3852
-1.9266 2.8002 0.3637
-1.9498 2.7755 0.3313
-1.9626 2.7677 0.3057
-1.9753 2.7599 0.2802
-1.9880 2.7521 0.2549
-2.0125 2.7377 0.2049
-2.0063 2.7635 0.1877
-1.9835 2.8203 0.1755
-1.9735 2.8555 0.1564
-1.9895 2.8432 0.1278
-2.0053 2.8309 0.0995
-2.0174 2.8257 0.0724
-2.0260 2.8274 0.0458
-2.0508 2.7966 0.0170
-2.0806 2.7738 -0.0365
-2.0982 2.7561 -0.0626
-2.1204 2.7280 -0.0875
-2.1455 2.6925 -0.1107
-2.1552 2.6906 -0.1356
-2.1592 2.7020 -0.1623
-1.9302 3.3396 -0.3741
-1.8761 3.5642 -0.5237
-2.1101 3.0199 -0.4521
-2.1343 2.9887 -0.4782
-2.1377 3.0165 -0.5256
-2.1320 3.0744 -0.5874
-2.1994 2.9482 -0.6081
-2.2276 2.8975 -0.6194
-2.2670 2.8042 -0.6051
-2.2979 2.7346 -0.5987
-2.3224 2.6839 -0.5996
-2.3667 2.5885 -0.5964
-2.3801 2.5727 -0.6129
-2.4013 2.5196 -0.6013
-2.4153 2.4958 -0.6090
-2.4325 2.4529 -0.5999
-2.4472 2.4188 -0.5955
-2.4597 2.3934 -0.5965
-2.4719 2.3666 -0.5947
-2.4824 2.3474 -0.5985
-2.5021 2.3088 -0.6024
-2.5118 2.2853 -0.5982
-2.5206 2.2653 -0.5962
-2.5363 2.2355 -0.6002
-2.5435 2.2223 -0.6030
-2.5505 2.2077 -0.6031
-2.5572 2.1917 -0.6005
-2.5635 2.1767 -0.5981
-2.5695 2.1648 -0.5990
-2.5753 2.1547 -0.6016
-2.5806 2.1400 -0.5969
-2.5908 2.1194 -0.5980
-2.5958 2.1126 -0.6030
-1.9225 2.8318 0.4233
-1.9496 2.8002 0.3871
-1.9505 2.8126 0.3692
-1.9647 2.8025 0.3423
-1.9877 2.7766 0.3101
-1.9997 2.7698 0.2851
-2.0059 2.7735 0.2634
-2.0123 2.7771 0.2412
-2.0260 2.7672 0.2152
-2.0369 2.7625 0.1907
-2.0249 2.8019 0.1754
-1.9956 2.8766 0.1646
-1.9992 2.8886 0.1398
-2.0167 2.8731 0.1104
-2.0291 2.8678 0.0826
-2.0448 2.8554 0.0542
-2.0836 2.7933 0.0230
-2.0980 2.7823 -0.0034
-2.1135 2.7684 -0.0296
-2.1237 2.7664 -0.0554
-2.1415 2.7467 -0.0807
-2.1725 2.6951 -0.1032
-2.1889 2.6769 -0.1263
-2.1910 2.6935 -0.1527
-1.9051 3.5835 -0.4562
-1.9232 3.5845 -0.5076
-2.1679 2.9598 -0.4171
-2.1854 2.9443 -0.4466
-2.1998 2.9381 -0.4790
-2.2170 2.9227 -0.5077
-2.2260 2.9347 -0.5476
-2.2332 2.9547 -0.5922
-2.2598 2.9042 -0.6040
-2.2943 2.8192 -0.5951
-2.3194 2.7654 -0.5984
-2.3659 2.6593 -0.5969
-2.3830 2.6281 -0.6057
-2.4189 2.5457 -0.6038
-2.4366 2.4983 -0.5946
-2.4509 2.4658 -0.5942
-2.4626 2.4457 -0.6018
-2.4868 2.3890 -0.5994
-2.4972 2.3678 -0.6021
-2.5168 2.3235 -0.6019
-2.5258 2.3021 -0.6005
-2.5340 2.2850 -0.6023
-2.5420 2.2657 -0.6006
-2.5496 2.2449 -0.5961
-2.5566 2.2283 -0.5951
-2.5632 2.2175 -0.6002
-2.5696 2.2028 -0.5997
-2.5814 2.1786 -0.6027
-2.5869 2.1659 -0.6023
-2.5921 2.1525 -0.6001
-2.6021 2.1338 -0.6050
-2.6066 2.1224 -0.6033
-1.9005 2.9093 0.4814
-1.9878 2.8313 0.3306
-1.9973 2.8297 0.3064
-2.0180 2.8067 0.2755
-2.0594 2.7593 0.2159
-2.0586 2.7777 0.1974
-2.0582 2.7959 0.1777
-2.0020 2.9311 0.1793
-2.0112 2.9329 0.1520
-2.0202 2.9356 0.1244
-2.0368 2.9218 0.0946
-2.0513 2.9122 0.0655
-2.0738 2.8845 0.0353
-2.1222 2.7954 0.0035
-2.1539 2.7645 -0.0483
-2.1743 2.7367 -0.0730
-2.1951 2.7073 -0.0965
-2.2118 2.6869 -0.1194
-2.2148 2.7028 -0.1454
-2.2114 2.7371 -0.1749
-1.9115 3.6666 -0.4023
-1.9583 3.5832 -0.4363
-2.2003 2.9284 -0.3600
-2.1995 2.9706 -0.4054
-2.2153 2.9597 -0.4363
-2.2346 2.9357 -0.4622
-2.2533 2.9129 -0.4875
-2.2629 2.9235 -0.5257
-2.2692 2.9487 -0.5713
-2.2806 2.9552 -0.6100
-2.3109 2.8806 -0.6085
-2.3378 2.8139 -0.6071
-2.3587 2.7704 -0.6151
-2.3820 2.7094 -0.6102
-2.4058 2.6392 -0.5961
-2.4207 2.6122 -0.6063
-2.4543 2.5213 -0.5957
-2.4678 2.4892 -0.5965
-2.4795 2.4661 -0.6025
-2.5025 2.4102 -0.6023
-2.5132 2.3809 -0.5986
-2.5224 2.3630 -0.6036
-2.5317 2.3376 -0.6004
-2.5402 2.3167 -0.6001
-2.5483 2.2968 -0.5996
-2.5559 2.2721 -0.5928
-2.5697 2.2506 -0.6062
-2.5822 2.2180 -0.6038
-2.5936 2.1918 -0.6053
-2.5987 2.1764 -0.6019
-2.6035 2.1620 -0.5988
-2.6083 2.1517 -0.6005
-2.6132 2.1431 -0.6039
-1.9354 2.9046 0.4790
-1.9115 2.9649 0.4814
-1.9279 2.9519 0.4507
-1.9516 2.9247 0.4147
-1.9772 2.9111 0.3600
-2.0474 2.8071 0.2777
-2.0764 2.7827 0.2247
-2.0777 2.7983 0.2053
-1.9994 3.0099 0.1989
-1.9927 3.0492 0.1766
-2.0024 3.0526 0.1469
-2.0527 2.9868 0.0790
-2.1729 2.7648 -0.0165
-2.1886 2.7478 -0.0414
-2.1984 2.7461 -0.0661
-2.2112 2.7363 -0.0905
-2.2261 2.7206 -0.1143
-2.2379 2.7130 -0.1383
-2.2337 2.7529 -0.1680
-2.2396 2.8663 -0.3002
-2.2483 2.8753 -0.3327
-2.2549 2.8927 -0.3685
-2.2495 2.9577 -0.4206
-2.2635 2.9516 -0.4522
-2.2788 2.9408 -0.4821
-2.2967 2.9178 -0.5068
-2.3058 2.9334 -0.5472
-2.3055 2.9953 -0.6100
-2.3373 2.9045 -0.6023
-2.3616 2.8432 -0.6048
-2.3836 2.7880 -0.6074
-2.4021 2.7470 -0.6151
-2.4414 2.6318 -0.6026
-2.4714 2.5528 -0.6023
-2.4845 2.5192 -0.6032
-2.4974 2.4806 -0.5982
-2.5086 2.4521 -0.5991
-2.5198 2.4151 -0.5913
-2.5290 2.3984 -0.5989
-2.5378 2.3845 -0.6081
-2.5468 2.3526 -0.5997
-2.5549 2.3313 -0.5997
-2.5626 2.3077 -0.5961
-2.5697 2.2886 -0.5956
-2.5765 2.2754 -0.6005
-2.5830 2.2591 -0.6011
-2.5950 2.2302 -0.6038
-2.6002 2.2119 -0.5990
-2.6055 2.1994 -0.6006
-2.6151 2.1724 -0.5985
-2.6198 2.1620 -0.6004
-2.6242 2.1516 -0.6017
-2.6286 2.1421 -0.6037
-1.9294 2.9943 0.4943
-1.9315 3.0091 0.4748
-1.9528 3.0060 0.4213
-1.9617 3.0082 0.3956
-1.9745 3.0027 0.3670
-2.0547 2.8530 0.2938
-2.0894 2.7970 0.2539
-2.0977 2.7978 0.2313
-2.0951 2.8233 0.2144
-1.9957 3.0990 0.2210
-1.9774 3.1706 0.2029
-1.9836 3.1853 0.1726
-2.1948 2.7802 -0.0097
-2.2081 2.7693 -0.0347
-2.2212 2.7584 -0.0593
-2.2311 2.7567 -0.0841
-2.2411 2.7550 -0.1089
-2.2448 2.7735 -0.1358
-2.2505 2.7867 -0.1632
-2.2476 2.8298 -0.1959
-2.2588 2.8276 -0.2234
-2.2681 2.8323 -0.2524
-2.2729 2.8546 -0.2858
-2.2788 2.8747 -0.3202
-2.3036 2.9738 -0.4783
-2.3205 2.9543 -0.5050
-2.3386 2.9273 -0.5279
-2.3387 2.9962 -0.5920
-2.3611 2.9446 -0.6036
-2.3859 2.8729 -0.6024
-2.4020 2.8485 -0.6225
-2.4243 2.7770 -0.6149
-2.4445 2.7107 -0.6065
-2.4620 2.6543 -0.6005
-2.4750 2.6304 -0.6126
-2.4907 2.5713 -0.5993
-2.5031 2.5380 -0.6012
-2.5148 2.5042 -0.6007
-2.5361 2.4375 -0.5948
-2.5540 2.3879 -0.5961
-2.5621 2.3696 -0.6006
-2.5698 2.3445 -0.5976
-2.5771 2.3256 -0.5993
-2.5839 2.3061 -0.5992
-2.5903 2.2868 -0.5981
-2.6024 2.2571 -0.6026
-2.6075 2.2366 -0.5970
-2.6127 2.2222 -0.5973
-2.6183 2.2145 -0.6051
-2.6221 2.1937 -0.5957
-2.6273 2.1862 -0.6025
-2.6312 2.1715 -0.5991
-2.6359 2.1633 -0.6040
-1.9561 3.0070 0.4999
-1.9230 3.1182 0.4926
-1.9428 3.0989 0.4571
-1.9629 3.0785 0.4219
-2.0828 2.8554 0.2966
-2.1207 2.7888 0.2538
-2.1227 2.8040 0.2355
-2.1065 2.8639 0.2274
-1.9591 3.2802 0.2621
-1.8358 3.7166 0.2166
-2.1768 2.8838 0.0272
-2.2128 2.8073 -0.0025
-2.2309 2.7815 -0.0280
-2.2429 2.7736 -0.0526
-2.2538 2.7689 -0.0772
-2.2671 2.7892 -0.1289
-2.2732 2.8027 -0.1562
-2.2769 2.8262 -0.1858
-2.2861 2.8312 -0.2139
-2.2954 2.8362 -0.2425
-2.3050 2.8410 -0.2716
-2.1446 3.7581 -0.6247
-2.1959 3.6058 -0.6305
-2.3076 3.2005 -0.5810
-2.3564 3.0879 -0.6136
-2.3809 3.0199 -0.6204
-2.4089 2.9163 -0.6063
-2.4270 2.8744 -0.6184
-2.4480 2.8008 -0.6110
-2.4668 2.7325 -0.6027
-2.4812 2.6967 -0.6102
-2.4960 2.6472 -0.6072
-2.5095 2.6010 -0.6037
-2.5214 2.5663 -0.6055
-2.5329 2.5263 -0.6017
-2.5430 2.4986 -0.6049
-2.5527 2.4666 -0.6032
-2.5617 2.4278 -0.5940
-2.5777 2.3876 -0.6021
-2.5847 2.3541 -0.5921
-2.5918 2.3403 -0.5990
-2.5981 2.3187 -0.5974
-2.6042 2.2999 -0.5974
-2.6102 2.2857 -0.6012
-2.6154 2.2655 -0.5976
-2.6210 2.2541 -0.6027
-2.6249 2.2309 -0.5935
-2.6301 2.2206 -0.5982
-2.6349 2.2095 -0.6015
-2.6391 2.1960 -0.6011
-2.6430 2.1827 -0.6000
-2.6466 2.1695 -0.5983
-2.6516 2.1646 -0.6074
-1.9431 3.1519 0.5068
-1.9568 3.1460 0.4760
-2.1174 2.8405 0.2939
-2.1391 2.8090 0.2618
-2.1163 2.8880 0.2607
-2.0213 3.1864 0.2794
-1.8803 3.7344 0.2277
-2.2059 2.8834 0.0334
-2.2507 2.8032 -0.0211
-2.2645 2.7889 -0.0459
-2.2755 2.7842 -0.0705
-2.2864 2.7795 -0.0951
-2.2949 2.7841 -0.1204
-2.3038 2.7876 -0.1461
-2.3142 2.8283 -0.2037
-2.3208 2.8458 -0.2339
-2.3284 2.8610 -0.2648
-2.2905 3.4335 -0.6009
-2.3293 3.2969 -0.5972
-2.3535 3.2421 -0.6181
-2.4089 3.0512 -0.6161
-2.4326 2.9654 -0.6121
-2.4891 2.7583 -0.6009
-2.5030 2.7210 -0.6083
-2.5167 2.6726 -0.6071
-2.5294 2.6237 -0.6029
-2.5405 2.5931 -0.6083
-2.5512 2.5553 -0.6071
-2.5610 2.5151 -0.6020
-2.5700 2.4817 -0.5999
-2.5784 2.4531 -0.5999
-2.5861 2.4231 -0.5970
-2.5934 2.3987 -0.5973
-2.6002 2.3754 -0.5973
-2.6065 2.3515 -0.5953
-2.6129 2.3358 -0.5999
-2.6188 2.3185 -0.6020
-2.6287 2.2773 -0.5964
-2.6337 2.2623 -0.5978
-2.6392 2.2525 -0.6045
-2.6470 2.2187 -0.5989
-2.6513 2.2076 -0.6018
-2.6559 2.1983 -0.6063
-2.1229 2.8728 0.3290
-2.1414 2.8487 0.2983
-2.1586 2.8271 0.2692
-2.0672 3.1585 0.2772
-2.2726 2.8186 -0.0144
-2.2885 2.7956 -0.0393
-2.2993 2.7909 -0.0637
-2.3094 2.7894 -0.0882
-2.3203 2.7847 -0.1127
-2.3319 2.7769 -0.1369
-2.3421 2.7753 -0.1616
-2.3461 2.8029 -0.1907
-2.4168 2.6331 -0.2552
-2.3583 3.3644 -0.6015
-2.3830 3.2997 -0.6205
-2.4102 3.2008 -0.6227
-2.4790 2.9152 -0.6041
-2.5092 2.8339 -0.6258
-2.5380 2.6935 -0.6039
-2.5603 2.6137 -0.6066
-2.5702 2.5649 -0.5986
-2.5791 2.5260 -0.5951
-2.5955 2.4706 -0.5990
-2.6098 2.4208 -0.6018
-2.6225 2.3765 -0.6040
-2.6270 2.3433 -0.5929
-2.6324 2.3248 -0.5942
-2.6385 2.3146 -0.6028
-2.6428 2.2928 -0.5988
-2.6509 2.2562 -0.5947
-2.6558 2.2455 -0.5998
-2.6601 2.2332 -0.6024
-2.6636 2.2185 -0.6013
-2.6666 2.2030 -0.5985
-2.6701 2.1910 -0.5992
-2.6744 2.1835 -0.6051
-2.1082 3.1383 0.2765
-2.2223 2.8817 0.1445
-2.2569 2.8639 0.0684
-2.2714 2.8469 0.0423
-2.2860 2.8289 0.0167
-2.3013 2.8067 -0.0085
-2.3163 2.7847 -0.0329
-2.3269 2.7801 -0.0567
-2.3448 2.7432 -0.0793
-2.3594 2.7184 -0.1011
-2.3710 2.7066 -0.1231
-2.3751 2.7320 -0.1487
-2.3862 2.7234 -0.1712
-2.3923 2.7421 -0.1978
-2.4028 2.7376 -0.2213
-2.4595 2.6022 -0.2822
-2.4152 3.3452 -0.6176
-2.4419 3.2296 -0.6150
-2.4639 3.1461 -0.6200
-2.5037 2.9625 -0.6096
-2.5342 2.8375 -0.6109
-2.5477 2.7674 -0.6026
-2.5594 2.7390 -0.6149
-2.5704 2.6875 -0.6116
-2.5803 2.6317 -0.6029
-2.5895 2.5927 -0.6025
-2.5977 2.5502 -0.5975
-2.6051 2.5101 -0.5919
-2.6129 2.4892 -0.5988
-2.6193 2.4563 -0.5952
-2.6267 2.4424 -0.6053
-2.6320 2.4109 -0.5998
-2.6387 2.3973 -0.6084
-2.6435 2.3709 -0.6046
-2.6481 2.3475 -0.6021
-2.6565 2.3049 -0.5975
-2.6611 2.2903 -0.6003
-2.6644 2.2704 -0.5967
-2.6693 2.2605 -0.6030
-2.6727 2.2444 -0.6018
-2.6755 2.2276 -0.5988
-2.6795 2.2172 -0.6025
-2.6824 2.2033 -0.6013
-2.6857 2.1921 -0.6028
-2.1899 2.8611 0.3059
-2.2208 2.8218 0.2501
-2.2274 2.8289 0.2299
-2.1934 2.9684 0.2405
-2.1973 2.9897 0.2196
-2.2127 2.9731 0.1903
-2.2730 2.8652 0.0980
-2.2895 2.8391 0.0710
-2.2981 2.8434 0.0475
-2.3132 2.8208 0.0219
-2.3343 2.7708 -0.0039
-2.3497 2.7432 -0.0274
-2.3613 2.7312 -0.0498
-2.3728 2.7192 -0.0719
-2.3831 2.7128 -0.0940
-2.4023 2.7064 -0.1384
-2.4791 2.6014 -0.2729
-2.4212 3.5129 -0.6114
-2.4746 3.2462 -0.6027
-2.4942 3.1739 -0.6130
-2.5125 3.1011 -0.6196
-2.5585 2.8576 -0.6049
-2.5706 2.8054 -0.6074
-2.5912 2.6847 -0.5945
-2.6010 2.6625 -0.6071
-2.6081 2.5936 -0.5882
-2.6163 2.5671 -0.5945
-2.6268 2.4637 -0.5657
-2.6339 2.4497 -0.5760
-2.6408 2.4347 -0.5850
-2.6494 2.4370 -0.6077
-2.6532 2.4024 -0.5988
-2.6573 2.3747 -0.5941
-2.6630 2.3612 -0.6012
-2.6668 2.3386 -0.5987
-2.6756 2.3068 -0.6038
-2.6824 2.2720 -0.6021
-2.6859 2.2575 -0.6031
-2.6875 2.2368 -0.5962
-2.6915 2.2271 -0.6010
-2.6956 2.2183 -0.6065
-2.2130 2.8688 0.3101
-2.2261 2.8560 0.2840
-2.2556 2.8176 0.2296
-2.2261 2.9522 0.2399
-2.3116 2.8507 0.0772
-2.3257 2.8314 0.0517
-2.3726 2.7415 -0.0216
-2.3843 2.7272 -0.0437
-2.3949 2.7186 -0.0656
-2.4155 2.7025 -0.1087
-2.4240 2.7060 -0.1310
-2.4983 2.5981 -0.2632
-2.5051 3.3148 -0.6094
-2.5245 3.2132 -0.6104
-2.5415 3.1383 -0.6174
-2.5571 3.0466 -0.6134
-2.5709 2.9568 -0.6057
-2.5832 2.8972 -0.6085
-2.5937 2.8128 -0.5954
-2.6165 2.5941 -0.5505
-2.6253 2.5821 -0.5665
-2.6348 2.5801 -0.5888
-2.6396 2.4439 -0.5380
-2.6459 2.4269 -0.5454
-2.6529 2.4187 -0.5590
-2.6611 2.4193 -0.5793
-2.6681 2.4112 -0.5925
-2.6731 2.3926 -0.5963
-2.6774 2.3723 -0.5976
-2.6825 2.3578 -0.6033
-2.6889 2.3162 -0.5997
-2.6916 2.2966 -0.5975
-2.6954 2.2827 -0.6002
-2.7013 2.2525 -0.6008
-2.7045 2.2398 -0.6027
-2.7074 2.2273 -0.6041
-2.7112 2.2185 -0.6093
-2.2241 2.8855 0.3393
-2.2338 2.8834 0.3165
-2.2670 2.7998 0.2691
-2.2745 2.8040 0.2496
-2.2495 2.9280 0.2609
-2.2581 2.9327 0.2384
-2.2611 2.9597 0.2204
-2.3799 2.7720 0.0072
-2.3917 2.7575 -0.0155
-2.4040 2.7386 -0.0378
-2.4271 2.7055 -0.0806
-2.4372 2.6970 -0.1016
-2.4448 2.7073 -0.1240
-2.5372 3.3953 -0.6193
-2.5712 3.1593 -0.6082
-2.5972 2.9876 -0.6033
-2.6232 2.5757 -0.5035
-2.6331 2.5829 -0.5303
-2.6426 2.5830 -0.5534
-2.6518 2.5791 -0.5740
-2.6558 2.4598 -0.5367
-2.6610 2.4366 -0.5400
-2.6673 2.4245 -0.5505
-2.6742 2.4173 -0.5645
-2.6819 2.4150 -0.5822
-2.6897 2.4127 -0.6000
-2.6962 2.3658 -0.5972
-2.7028 2.3284 -0.5984
-2.7062 2.3122 -0.6002
-2.7092 2.2962 -0.6012
-2.7109 2.2766 -0.5976
-2.7146 2.2656 -0.6023
-2.7165 2.2490 -0.6002
-2.7191 2.2363 -0.6016
-2.7219 2.2247 -0.6036
-2.2458 2.8965 0.3444
-2.2579 2.8859 0.3190
-2.2892 2.8025 0.2718
-2.2771 2.8830 0.2741
-2.2804 2.9073 0.2582
-2.2767 2.9627 0.2487
-2.2788 2.9972 0.2321
-2.3622 2.8387 0.0854
-2.3761 2.8144 0.0601
-2.3883 2.7984 0.0364
-2.3991 2.7894 0.0135
-2.4100 2.7794 -0.0092
-2.4211 2.7670 -0.0317
-2.4572 2.6988 -0.0952
-2.4642 2.7162 -0.1178
-2.4731 2.7188 -0.1400
-2.4831 2.7102 -0.1610
-2.6214 2.5731 -0.4462
-2.6299 2.5662 -0.4642
-2.6401 2.5789 -0.4929
-2.6500 2.5844 -0.5182
-2.6605 2.5938 -0.5465
-2.6696 2.5898 -0.5671
-2.6762 2.4474 -0.5353
-2.6816 2.4311 -0.5429
-2.6884 2.4238 -0.5568
-2.6951 2.4166 -0.5704
-2.7030 2.4154 -0.5888
-2.7094 2.4072 -0.6014
-2.7134 2.3894 -0.6050
-2.7149 2.3630 -0.5998
-2.7171 2.3416 -0.5980
-2.7189 2.3204 -0.5952
-2.7227 2.3080 -0.6002
-2.7249 2.2910 -0.5998
-2.7267 2.2741 -0.5985
-2.7285 2.2583 -0.5976
-2.7355 2.2391 -0.6078
-2.2984 2.8951 0.2797
-2.3096 2.8869 0.2554
-2.3139 2.9104 0.2389
-2.3169 2.9421 0.2232
-2.3968 2.8251 0.0660
-2.4073 2.8183 0.0430
-2.4177 2.8116 0.0201
-2.4297 2.7933 -0.0031
-2.4795 2.7718 -0.1150
-2.5602 2.5873 -0.2556
-2.6205 2.5822 -0.3969
-2.6287 2.5720 -0.4134
-2.6387 2.5853 -0.4408
-2.6480 2.5868 -0.4632
-2.6675 2.5948 -0.5116
-2.6791 2.6107 -0.5434
-2.6871 2.5985 -0.5589
-2.6882 2.4881 -0.5312
-2.6899 2.4499 -0.5249
-2.6961 2.4395 -0.5368
-2.7022 2.4292 -0.5484
-2.7101 2.4280 -0.5667
-2.7185 2.4288 -0.5867
-2.7226 2.4116 -0.5918
-2.7265 2.3946 -0.5963
-2.7300 2.3776 -0.6000
-2.7327 2.3589 -0.6012
-2.7355 2.3423 -0.6034
-2.7354 2.3170 -0.5963
-2.7379 2.3017 -0.5979
-2.7416 2.2913 -0.6039
-2.7445 2.2790 -0.6075
-2.7442 2.2583 -0.6009
-3.6845 3.5876 0.5101
-3.5884 3.4106 0.4558
-3.1640 2.1826 0.1100
-3.1522 2.1763 0.1070
-3.1410 2.1673 0.1034
-3.1302 2.1654 0.1015
-3.6580 3.4978 0.4401
-3.6115 3.5102 0.4373
-3.2602 2.4169 0.1600
-3.1630 2.1849 0.0984
-3.1512 2.1751 0.0949
-3.1399 2.1674 0.0919
-3.1291 2.1667 0.0905
-3.1188 2.1573 0.0872
-3.1087 2.1551 0.0856
-3.7374 3.5967 0.4221
-3.6642 3.5262 0.4005
-3.5934 3.4449 0.3771
-3.2809 2.4332 0.1472
-3.2591 2.4176 0.1418
-3.2355 2.3777 0.1315
-3.1501 2.1726 0.0825
-3.1389 2.1661 0.0801
-3.1280 2.1643 0.0786
-3.1178 2.1550 0.0756
-3.1076 2.1541 0.0744
-3.0976 2.1543 0.0733
-3.0883 2.1493 0.0713
-3.0694 2.1491 0.0693
-6.0519 4.4401 0.7431
-6.1175 4.6418 0.7841
-3.6666 3.3671 0.3263
-3.6628 3.5269 0.3534
-3.2990 2.4289 0.1293
-3.2743 2.4005 0.1220
-3.2538 2.3892 0.1181
-3.2338 2.3729 0.1133
-3.1490 2.1725 0.0706
-3.1377 2.1685 0.0688
-3.1269 2.1632 0.0668
-3.1163 2.1613 0.0655
-3.1065 2.1530 0.0631
-3.0966 2.1520 0.0620
-3.0873 2.1471 0.0602
-3.0774 2.1496 0.0597
-3.0682 2.1482 0.0586
-3.0600 2.1428 0.0568
-5.9552 4.3360 0.6250
-6.1083 4.6211 0.6809
-6.0139 4.8204 0.7026
-3.2924 2.3999 0.1051
-3.2726 2.3967 0.1029
-3.2528 2.3899 0.1002
-3.2329 2.3749 0.0962
-3.2145 2.3651 0.0931
-3.1479 2.1747 0.0589
-3.1366 2.1721 0.0575
-3.1258 2.1632 0.0552
-3.1152 2.1613 0.0541
-3.1054 2.1519 0.0518
-3.0952 2.1535 0.0512
-3.0860 2.1474 0.0494
-3.0766 2.1461 0.0484
-3.0671 2.1473 0.0478
-3.0581 2.1458 0.0468
-3.0497 2.1429 0.0456
-3.0410 2.1425 0.0448
-3.0334 2.1380 0.0435
-3.0255 2.1360 0.0425
-3.0171 2.1366 0.0419
-3.0093 2.1357 0.0411
-6.3455 4.8475 0.6278
-6.4815 5.1497 0.6765
-5.8548 5.5300 0.6779
-3.2923 2.4046 0.0869
-3.2711 2.3940 0.0840
-3.2512 2.3862 0.0815
-3.2309 2.3679 0.0776
-3.2135 2.3671 0.0762
-3.1354 2.1720 0.0455
-3.1246 2.1632 0.0435
-3.1140 2.1602 0.0424
-3.1038 2.1570 0.0412
-3.0940 2.1537 0.0400
-3.0843 2.1514 0.0390
-3.0751 2.1477 0.0378
-3.0661 2.1451 0.0368
-3.0574 2.1424 0.0358
-3.0487 2.1408 0.0350
-3.0414 2.1338 0.0335
-3.0316 2.1399 0.0336
-3.0233 2.1393 0.0329
-3.0159 2.1359 0.0319
-3.0077 2.1364 0.0313
-2.9985 2.1410 0.0312
-5.9676 4.3257 0.4401
-6.0265 4.5161 0.4639
-5.2612 5.2498 0.4919
-4.9703 4.9529 0.4422
-4.9169 5.0701 0.4510
-4.8807 5.2328 0.4658
-4.8613 5.4495 0.4873
-3.3199 2.4437 0.0737
-3.2949 2.4232 0.0699
-3.1344 2.1683 0.0330
-3.1235 2.1608 0.0315
-3.1129 2.1602 0.0307
-3.1029 2.1534 0.0294
-3.0928 2.1526 0.0287
-3.0830 2.1516 0.0279
-3.0736 2.1492 0.0271
-3.0646 2.1467 0.0262
-3.0551 2.1479 0.0258
-3.0465 2.1451 0.0249
-3.0380 2.1435 0.0242
-3.0294 2.1431 0.0236
-3.0217 2.1399 0.0228
-3.0136 2.1392 0.0222
-3.0049 2.1412 0.0219
-2.9960 2.1445 0.0216
-6.0488 4.5270 0.3671
-6.0545 5.1753 0.4205
-5.9089 5.3766 0.4294
-5.8332 5.4810 0.4340
-5.6246 5.3900 0.4156
-5.3015 5.0977 0.3747
-5.0319 4.8535 0.3405
-4.9424 4.8982 0.3395
-4.7064 4.6595 0.3075
-4.8337 5.1337 0.3531
-4.9135 5.5650 0.3926
-4.8722 5.7656 0.4069
-4.8280 5.9829 0.4224
-3.3146 2.4237 0.0512
-3.2919 2.4128 0.0492
-3.2132 2.2358 0.0305
-3.1986 2.2326 0.0295
-3.1845 2.2302 0.0286
-3.1711 2.2323 0.0280
-3.1331 2.1729 0.0212
-3.1224 2.1607 0.0196
-3.1118 2.1578 0.0188
-3.1025 2.1438 0.0172
-3.0932 2.1367 0.0161
-3.0837 2.1356 0.0155
-3.0733 2.1420 0.0155
-3.0648 2.1369 0.0146
-3.0544 2.1444 0.0147
-3.0453 2.1443 0.0142
-3.0357 2.1479 0.0140
-3.0270 2.1476 0.0135
-3.0176 2.1511 0.0133
-3.0113 2.1426 0.0123
-3.0025 2.1446 0.0120
-2.9931 2.1493 0.0119
-5.8901 4.3581 0.2502
-6.1772 4.7936 0.2876
-5.8039 5.0358 0.2865
-5.7015 5.0869 0.2854
-5.6287 5.1802 0.2879
-5.4968 5.1891 0.2830
-5.3164 5.1153 0.2713
-5.0634 4.9022 0.2484
-5.0116 5.0199 0.2532
-4.8623 4.9584 0.2435
-4.8066 5.0757 0.2481
-4.7846 5.2785 0.2591
-4.7998 5.5940 0.2783
-3.3376 2.4350 0.0326
-3.2111 2.2262 0.0152
-3.1971 2.2274 0.0147
-3.1832 2.2273 0.0141
-3.1435 2.1507 0.0080
-3.1327 2.1398 0.0069
-3.1223 2.1346 0.0061
-3.1127 2.1242 0.0051
-3.1032 2.1209 0.0046
-3.0938 2.1186 0.0040
-3.0851 2.1136 0.0034
-3.0757 2.1160 0.0031
-3.0670 2.1145 0.0027
-3.0582 2.1155 0.0024
-3.0477 2.1253 0.0025
-3.0364 2.1379 0.0028
-3.0233 2.1572 0.0034
-3.0140 2.1596 0.0032
-2.9960 2.1628 0.0026
-2.9861 2.1677 0.0025
-5.8815 4.3387 0.1534
-6.0975 4.6989 0.1725
-6.0662 4.8219 0.1759
-6.1040 5.0319 0.1845
-5.0750 4.9170 0.1503
-5.0026 4.9994 0.1511
-4.9486 5.1223 0.1539
-4.7801 5.0192 0.1453
-4.7222 5.1394 0.1479
-4.8098 5.6191 0.1674
-3.2951 2.3413 0.0071
-3.2428 2.2461 0.0022
-3.2243 2.2230 0.0008
-3.2095 2.2199 0.0003
-3.1658 2.1631 -0.0030
-3.1537 2.1496 -0.0039
-3.1425 2.1332 -0.0048
-3.1218 2.1216 -0.0058
-3.1123 2.1136 -0.0063
-3.1032 2.1066 -0.0069
-3.0945 2.1005 -0.0073
-3.0855 2.1004 -0.0076
-3.0767 2.1002 -0.0079
-3.0679 2.1011 -0.0081
-3.0591 2.1032 -0.0083
-3.0493 2.1104 -0.0083
-3.0397 2.1164 -0.0084
-5.8730 4.3193 0.0567
-5.7581 4.3364 0.0549
-6.0564 4.7998 0.0655
-6.0242 5.2961 0.0707
-5.2490 4.9950 0.0537
-5.1085 4.9686 0.0510
-4.9935 4.9789 0.0491
-4.9592 5.1397 0.0504
-4.7712 4.9991 0.0454
-4.6637 5.0092 0.0437
-4.9073 5.8537 0.0578
-3.2066 2.2028 -0.0146
-3.1911 2.1819 -0.0151
-3.1525 2.1380 -0.0163
-3.1414 2.1228 -0.0167
-3.1310 2.1200 -0.0169
-3.1213 2.1087 -0.0172
-3.1117 2.1055 -0.0174
-3.1028 2.0984 -0.0177
-3.0852 2.0934 -0.0180
-3.0767 2.0919 -0.0182
-3.0689 2.0878 -0.0184
-3.0600 2.0911 -0.0185
-3.0499 2.1007 -0.0186
-3.0407 2.1053 -0.0187
-3.0297 2.1177 -0.0187
-2.9277 2.4363 -0.0167
-2.9106 2.4506 -0.0169
-2.8969 2.4528 -0.0171
-5.9517 4.3853 -0.0407
-5.8893 4.4610 -0.0420
-6.1167 4.8534 -0.0455
-5.1660 5.0608 -0.0532
-4.9265 4.8537 -0.0520
-4.8539 4.9334 -0.0534
-4.8728 5.2072 -0.0566
-4.7389 5.1758 -0.0570
-4.7314 5.4342 -0.0602
-3.2368 2.2197 -0.0290
-3.2205 2.2084 -0.0290
-3.2053 2.2000 -0.0290
-3.1759 2.1610 -0.0287
-3.1631 2.1457 -0.0285
-3.1513 2.1310 -0.0284
-3.1404 2.1182 -0.0283
-3.1301 2.1119 -0.0283
-3.1202 2.1077 -0.0283
-3.1113 2.0950 -0.0282
-3.1023 2.0915 -0.0282
-3.0939 2.0854 -0.0282
-3.0848 2.0877 -0.0283
-3.0769 2.0825 -0.0282
-3.0684 2.0833 -0.0283
-3.0596 2.0866 -0.0284
-3.0503 2.0923 -0.0285
-3.0404 2.1007 -0.0287
-3.0303 2.1092 -0.0288
-2.9259 2.4343 -0.0334
-2.9107 2.4419 -0.0335
-2.8959 2.4481 -0.0337
-5.9728 4.3946 -0.1418
-5.9407 4.5026 -0.1456
-5.8345 4.8565 -0.1578
-5.5474 4.8443 -0.1554
-5.3737 4.7857 -0.1521
-4.9825 4.5586 -0.1412
-4.9886 4.7554 -0.1485
-4.9178 4.8339 -0.1508
-4.8272 4.8791 -0.1519
-4.8438 5.1456 -0.1617
-4.7840 5.2754 -0.1661
-4.8857 5.8048 -0.1860
-3.2039 2.1960 -0.0433
-3.1879 2.1677 -0.0421
-3.1746 2.1562 -0.0416
-3.1619 2.1409 -0.0410
-3.1503 2.1286 -0.0404
-3.1394 2.1136 -0.0398
-3.1292 2.1061 -0.0395
-3.1194 2.1020 -0.0393
-3.1105 2.0917 -0.0388
-3.1016 2.0870 -0.0386
-3.0931 2.0822 -0.0384
-3.0849 2.0783 -0.0382
-3.0761 2.0805 -0.0382
-3.0676 2.0813 -0.0382
-3.0590 2.0833 -0.0382
-3.0497 2.0891 -0.0383
-3.0404 2.0949 -0.0385
-3.0307 2.1020 -0.0387
-3.0192 2.1156 -0.0391
-2.9237 2.4336 -0.0501
-2.9038 2.4571 -0.0508
-2.8903 2.4582 -0.0507
-5.9639 4.3743 -0.2428
-5.8714 4.4205 -0.2439
-6.0271 4.7333 -0.2659
-6.0654 5.1216 -0.2903
-4.9995 4.7689 -0.2486
-4.8920 5.0009 -0.2608
-4.8749 5.7803 -0.3080
-4.7424 5.7821 -0.3056
-4.6131 5.7834 -0.3032
-3.2842 2.3059 -0.0660
-3.2362 2.2272 -0.0603
-3.2196 2.2163 -0.0593
-3.2031 2.1974 -0.0578
-3.1736 2.1558 -0.0547
-3.1608 2.1373 -0.0534
-3.1491 2.1206 -0.0521
-3.1383 2.1180 -0.0518
-3.1284 2.1004 -0.0505
-3.1185 2.0986 -0.0502
-3.1095 2.0895 -0.0495
-3.1010 2.0814 -0.0488
-3.0926 2.0765 -0.0484
-3.0841 2.0751 -0.0481
-3.0756 2.0760 -0.0480
-3.0669 2.0781 -0.0480
-3.0581 2.0813 -0.0480
-3.0486 2.0884 -0.0483
-3.0392 2.0942 -0.0485
-3.0298 2.1000 -0.0486
-2.9027 2.4524 -0.0677
-2.8884 2.4562 -0.0677
-6.5191 4.7422 -0.3947
-5.8670 4.2690 -0.3337
-5.8055 4.3423 -0.3381
-6.1650 5.0424 -0.4094
-6.1312 5.1883 -0.4209
-3.7661 2.7542 -0.1380
-3.2605 2.2797 -0.0814
-3.2378 2.2428 -0.0775
-3.2191 2.2196 -0.0750
-3.2011 2.1871 -0.0716
-3.1873 2.1849 -0.0710
-3.1723 2.1510 -0.0676
-3.1597 2.1359 -0.0659
-3.1482 2.1282 -0.0649
-3.1374 2.1101 -0.0630
-3.1273 2.1005 -0.0619
-3.1181 2.0860 -0.0603
-3.1089 2.0827 -0.0598
-3.1003 2.0769 -0.0590
-3.0921 2.0709 -0.0582
-3.0838 2.0695 -0.0578
-3.0745 2.0752 -0.0580
-3.0660 2.0761 -0.0579
-3.0567 2.0819 -0.0581
-3.0480 2.0851 -0.0581
-3.0386 2.0909 -0.0583
-3.0277 2.1031 -0.0590
-2.9127 2.4556 -0.0856
-2.8984 2.4582 -0.0854
-2.8844 2.4607 -0.0852
-6.3488 4.5721 -0.4888
-5.9162 4.3051 -0.4402
-5.8535 4.3800 -0.4458
-3.8797 2.7982 -0.1838
-3.7859 2.7157 -0.1705
-3.7281 2.6844 -0.1645
-3.6283 2.6338 -0.1545
-3.2615 2.2906 -0.1003
-3.2392 2.2582 -0.0958
-3.1853 2.1714 -0.0838
-3.1590 2.1455 -0.0797
-3.1471 2.1247 -0.0769
-3.1268 2.0846 -0.0716
-3.1176 2.0769 -0.0703
-3.1087 2.0713 -0.0693
-3.0997 2.0714 -0.0689
-3.0914 2.0677 -0.0682
-3.0824 2.0711 -0.0681
-3.0736 2.0733 -0.0680
-3.0649 2.0754 -0.0678
-3.0564 2.0774 -0.0677
-3.0471 2.0831 -0.0679
-3.0375 2.0902 -0.0683
-3.0277 2.0973 -0.0686
-3.0159 2.1121 -0.0698
-2.9078 2.4638 -0.1041
-2.8933 2.4666 -0.1037
-2.8816 2.4613 -0.1026
-6.2913 4.3683 -0.5731
-6.0295 4.2674 -0.5446
-5.9986 4.3726 -0.5572
-5.7880 4.3026 -0.5357
-4.0985 2.9702 -0.2585
-3.6961 2.6257 -0.1888
-3.6408 2.5891 -0.1807
-3.5763 2.5259 -0.1684
-3.5385 2.5104 -0.1642
-3.4548 2.5168 -0.1603
-3.4143 2.4760 -0.1524
-3.2407 2.2745 -0.1151
-3.1564 2.0926 -0.0856
-3.1458 2.0902 -0.0846
-3.1261 2.0768 -0.0817
-3.1164 2.0783 -0.0814
-3.1074 2.0739 -0.0803
-3.0985 2.0728 -0.0796
-3.0898 2.0716 -0.0789
-3.0813 2.0703 -0.0783
-3.0725 2.0725 -0.0781
-3.0636 2.0758 -0.0780
-3.0547 2.0791 -0.0780
-3.0457 2.0837 -0.0781
-3.0357 2.0920 -0.0787
-3.0243 2.1054 -0.0799
-2.9018 2.4758 -0.1234
-2.8870 2.4788 -0.1230
-2.8763 2.4697 -0.1212
-7.1905 3.4569 -0.5986
-7.5023 3.6891 -0.6579
-6.5940 3.8760 -0.6252
-5.9619 4.0704 -0.6128
-5.7669 4.0168 -0.5906
-5.7334 4.1073 -0.6029
-5.3026 4.1770 -0.5844
-3.8672 2.7739 -0.2573
-3.6199 2.5481 -0.2035
-3.5803 2.5337 -0.1985
-3.4988 2.4863 -0.1851
-3.4682 2.4795 -0.1819
-3.3551 2.3619 -0.1550
-3.3292 2.3451 -0.1505
-3.1664 2.0937 -0.0984
-3.1553 2.0871 -0.0966
-3.1448 2.0846 -0.0954
-3.1347 2.0842 -0.0947
-3.1249 2.0791 -0.0932
-3.1154 2.0773 -0.0922
-3.1060 2.0775 -0.0916
-3.0974 2.0719 -0.0901
-3.0884 2.0731 -0.0897
-3.0803 2.0695 -0.0885
-3.0714 2.0717 -0.0882
-3.0625 2.0750 -0.0882
-3.0531 2.0808 -0.0885
-3.0440 2.0854 -0.0886
-3.0339 2.0937 -0.0892
-3.0218 2.1097 -0.0910
-2.9068 2.4998 -0.1462
-2.8908 2.5045 -0.1459
-2.8795 2.4947 -0.1435
-6.9575 3.2607 -0.6426
-6.1397 3.4807 -0.6166
-6.0371 3.5024 -0.6123
-5.9359 3.5233 -0.6079
-5.8369 3.5443 -0.6037
-5.8088 3.6164 -0.6149
-5.7096 3.6363 -0.6105
-5.6341 3.6740 -0.6114
-5.4967 3.6583 -0.5971
-5.3662 3.6435 -0.5835
-5.3497 3.7317 -0.5988
-5.3916 3.8838 -0.6308
-5.2387 3.8430 -0.6106
-5.1816 3.8999 -0.6166
-5.0557 3.8785 -0.6022
-3.4413 2.4101 -0.1929
-3.4017 2.3686 -0.1818
-3.3728 2.3502 -0.1759
-3.3510 2.3501 -0.1741
-3.2968 2.2972 -0.1597
-3.2567 2.2790 -0.1530
-3.1922 2.1360 -0.1207
-3.1774 2.1050 -0.1137
-3.1655 2.0945 -0.1107
-3.1544 2.0891 -0.1088
-3.1438 2.0867 -0.1075
-3.1336 2.0842 -0.1062
-3.1237 2.0837 -0.1052
-3.1142 2.0785 -0.1035
-3.1050 2.0766 -0.1024
-3.0963 2.0721 -0.1008
-3.0872 2.0734 -0.1003
-3.0785 2.0734 -0.0996
-3.0693 2.0768 -0.0995
-3.0603 2.0803 -0.0994
-3.0517 2.0812 -0.0989
-3.0417 2.0895 -0.0996
-3.0309 2.1004 -0.1008
-2.8828 2.5226 -0.1680
-2.8682 2.5222 -0.1667
-2.8505 2.5321 -0.1671
-6.0709 3.0559 -0.6071
-5.9190 3.0458 -0.5904
-5.8743 3.0888 -0.5953
-5.8298 3.1328 -0.6005
-5.8897 3.2389 -0.6290
-5.7377 3.2223 -0.6109
-5.6138 3.2189 -0.5984
-5.5310 3.2395 -0.5949
-5.5196 3.3094 -0.6088
-5.4895 3.3691 -0.6187
-5.4403 3.4165 -0.6242
-5.3046 3.3950 -0.6066
-5.2551 3.4415 -0.6118
-5.2045 3.4885 -0.6171
-5.1378 3.5218 -0.6179
-4.8321 3.6091 -0.6074
-4.7431 3.6122 -0.5995
-4.6236 3.5718 -0.5794
-3.9423 2.8117 -0.3513
-3.8490 2.7407 -0.3271
-3.7782 2.6955 -0.3107
-3.3719 2.3488 -0.1974
-3.2702 2.2625 -0.1692
-3.2513 2.2534 -0.1654
-3.1759 2.0962 -0.1245
-3.1536 2.0965 -0.1224
-3.1428 2.0932 -0.1207
-3.1325 2.0885 -0.1187
-3.1227 2.0814 -0.1163
-3.1131 2.0797 -0.1150
-3.1039 2.0756 -0.1132
-3.0948 2.0747 -0.1122
-3.0860 2.0736 -0.1111
-3.0770 2.0748 -0.1105
-3.0682 2.0760 -0.1099
-3.0596 2.0770 -0.1093
-3.0496 2.0853 -0.1101
-3.0397 2.0924 -0.1107
-3.0294 2.1008 -0.1115
-2.8038 2.7184 -0.2225
-5.4460 3.0343 -0.6108
-5.3715 3.0542 -0.6075
-5.2977 3.0737 -0.6042
-5.0052 3.2197 -0.6076
-4.6817 3.3315 -0.5993
-4.6647 3.4071 -0.6157
-3.5678 2.5065 -0.2789
-3.3697 2.3437 -0.2181
-3.1763 2.1147 -0.1418
-3.1638 2.0983 -0.1364
-3.1527 2.1027 -0.1363
-3.1314 2.0906 -0.1311
-3.1217 2.0792 -0.1273
-3.1119 2.0798 -0.1263
-3.1029 2.0746 -0.1241
-3.0934 2.0772 -0.1237
-3.0851 2.0716 -0.1214
-3.0758 2.0751 -0.1213
-3.0669 2.0763 -0.1206
-3.0580 2.0786 -0.1202
-3.0484 2.0845 -0.1206
-3.0382 2.0928 -0.1215
-3.0276 2.1024 -0.1226
-2.8287 2.7468 -0.2564
-2.8057 2.7605 -0.2572
-2.7961 2.7317 -0.2492
-5.4399 2.7840 -0.6118
-5.3191 2.8303 -0.6095
-5.2787 2.8645 -0.6137
-5.2249 2.8913 -0.6143
-5.1588 2.9103 -0.6113
-5.0934 2.9290 -0.6083
-5.0520 2.9636 -0.6126
-4.9872 2.9820 -0.6096
-4.9562 3.0254 -0.6174
-4.9247 3.0702 -0.6256
-4.8383 3.0703 -0.6150
-4.7749 3.0880 -0.6120
-4.7121 3.1054 -0.6090
-4.6687 3.1410 -0.6132
-4.5884 3.1392 -0.6029
-4.5282 3.1564 -0.6002
-4.4091 3.1890 -0.5943
-4.3298 3.1780 -0.5817
-3.6916 2.6110 -0.3514
-3.6289 2.5617 -0.3305
-3.3652 2.3311 -0.2364
-3.2673 2.2564 -0.2044
-3.1764 2.1309 -0.1596
-3.1634 2.1137 -0.1534
-3.1517 2.1045 -0.1495
-3.1407 2.0918 -0.1447
-3.1305 2.0840 -0.1414
-3.1202 2.0870 -0.1409
-3.1111 2.0754 -0.1367
-3.1018 2.0736 -0.1351
-3.0927 2.0727 -0.1337
-3.0834 2.0753 -0.1332
-3.0749 2.0731 -0.1316
-3.0656 2.0766 -0.1314
-3.0564 2.0801 -0.1313
-3.0462 2.0884 -0.1322
-3.0364 2.0944 -0.1326
-3.0254 2.1053 -0.1342
-2.8215 2.7595 -0.2848
-2.8070 2.7442 -0.2789
-2.7956 2.7219 -0.2715
-5.0910 2.7483 -0.6167
-4.9615 2.7777 -0.6078
-4.8745 2.7763 -0.5955
-4.8362 2.8061 -0.5991
-4.8357 2.8640 -0.6162
-4.7682 2.8742 -0.6100
-4.7199 2.8983 -0.6105
-4.6979 2.9446 -0.6212
-4.5750 2.9707 -0.6122
-4.4707 3.0110 -0.6100
-4.3952 3.0049 -0.5979
-4.3547 3.0358 -0.6015
-4.2882 3.0359 -0.5925
-4.2477 3.0668 -0.5961
-3.8620 2.7542 -0.4512
-3.6360 2.5743 -0.3673
-3.2469 2.2442 -0.2167
-3.1755 2.1324 -0.1739
-3.1398 2.0851 -0.1551
-3.1294 2.0850 -0.1536
-3.1195 2.0792 -0.1506
-3.1097 2.0787 -0.1491
-3.1003 2.0770 -0.1473
-3.0914 2.0740 -0.1452
-3.0821 2.0754 -0.1444
-3.0730 2.0768 -0.1435
-3.0643 2.0769 -0.1424
-3.0545 2.0828 -0.1428
-3.0440 2.0923 -0.1442
-3.0327 2.1044 -0.1462
-3.0235 2.1068 -0.1457
-2.8219 2.7458 -0.3072
-2.7968 2.7658 -0.3097
-2.7952 2.7121 -0.2936
-4.9755 2.5806 -0.6030
-4.9406 2.6075 -0.6064
-4.8963 2.6297 -0.6070
-4.8345 2.6414 -0.6015
-4.7906 2.6633 -0.6020
-4.7550 2.6907 -0.6055
-4.7109 2.7127 -0.6060
-4.6590 2.7291 -0.6035
-4.6151 2.7510 -0.6040
-4.5712 2.7729 -0.6045
-4.5416 2.8068 -0.6111
-4.5042 2.8350 -0.6146
-4.4529 2.8510 -0.6121
-4.4021 2.8668 -0.6096
-4.3580 2.8888 -0.6101
-4.3139 2.9109 -0.6106
-4.2583 2.9196 -0.6051
-4.2202 2.9481 -0.6086
-4.2029 3.0045 -0.6242
-3.8762 2.7738 -0.5007
-3.8292 2.7729 -0.4933
-3.2642 2.2494 -0.2393
-3.2466 2.2476 -0.2361
-3.1495 2.0965 -0.1727
-3.1387 2.0892 -0.1687
-3.1184 2.0792 -0.1624
-3.1086 2.0787 -0.1608
-3.0990 2.0782 -0.1592
-3.0903 2.0730 -0.1562
-3.0809 2.0756 -0.1556
-3.0719 2.0758 -0.1543
-3.0625 2.0795 -0.1541
-3.0529 2.0843 -0.1542
-3.0417 2.0962 -0.1564
-3.0309 2.1059 -0.1579
-2.8135 2.7621 -0.3375
-2.7954 2.7584 -0.3336
-4.7026 2.5563 -0.6019
-4.6695 2.5813 -0.6053
-4.5880 2.6715 -0.6237
-4.5528 2.6976 -0.6270
-4.4910 2.7031 -0.6188
-4.4495 2.7238 -0.6193
-4.3904 2.7291 -0.6115
-4.3375 2.7386 -0.6062
-4.3134 2.7749 -0.6150
-4.2265 2.8109 -0.6134
-4.1708 2.8144 -0.6055
-4.1305 2.8346 -0.6060
-4.0394 2.7894 -0.5751
-4.0164 2.8293 -0.5854
-3.9775 2.8487 -0.5859
-3.8759 2.7708 -0.5418
-3.8258 2.7652 -0.5316
-3.3672 2.3424 -0.3078
-3.2634 2.2498 -0.2583
-3.2450 2.2442 -0.2533
-3.2290 2.2501 -0.2527
-3.1718 2.1046 -0.1922
-3.1485 2.0931 -0.1843
-3.1376 2.0879 -0.1808
-3.1271 2.0858 -0.1783
-3.1168 2.0867 -0.1769
-3.1074 2.0787 -0.1726
-3.0981 2.0760 -0.1701
-3.0889 2.0743 -0.1680
-3.0708 2.0749 -0.1652
-3.0611 2.0797 -0.1653
-3.0501 2.0916 -0.1677
-3.0392 2.1012 -0.1693
-3.0270 2.1157 -0.1724
-2.8098 2.7620 -0.3640
-2.7987 2.7359 -0.3530
-2.7994 2.6776 -0.3326
-4.7818 2.4671 -0.6305
-4.6854 2.4566 -0.6094
-4.6274 2.4646 -0.6021
-4.5829 2.4795 -0.5998
-4.5397 2.4948 -0.5979
-4.5142 2.5211 -0.6034
-4.4765 2.5399 -0.6038
-4.4388 2.5588 -0.6042
-4.4237 2.5946 -0.6152
-4.3739 2.6048 -0.6102
-4.3414 2.6283 -0.6133
-4.2826 2.6294 -0.6033
-4.2450 2.6482 -0.6037
-4.1989 2.6586 -0.5994
-4.1748 2.6906 -0.6073
-4.1284 2.7001 -0.6027
-4.0949 2.7231 -0.6054
-4.0616 2.7471 -0.6086
-4.0163 2.7561 -0.6039
-3.9755 2.7702 -0.6020
-3.9485 2.8036 -0.6099
-3.8847 2.7820 -0.5903
-3.3349 2.3093 -0.3128
-3.3058 2.2767 -0.2952
-3.2824 2.2580 -0.2840
-3.2443 2.2456 -0.2725
-3.2287 2.2554 -0.2734
-3.2126 2.2614 -0.2728
-3.1590 2.1037 -0.2034
-3.1475 2.1021 -0.2007
-3.1259 2.0888 -0.1918
-3.1158 2.0855 -0.1887
-3.1062 2.0798 -0.1849
-3.0966 2.0783 -0.1826
-3.0871 2.0788 -0.1811
