ply
format ascii 1.0
element vertex 2119
property float x
property float y
property float z
end_header
-3.1923 2.1259 -0.2147
-3.1523 2.3137 -0.3084
-3.2586 2.2179 -0.2549
-3.2723 2.2156 -0.2529
-3.2849 2.2187 -0.2535
-3.2970 2.2264 -0.2564
-3.3089 2.2386 -0.2616
-3.3214 2.2509 -0.2667
-3.3346 2.2606 -0.2706
-3.3482 2.2796 -0.2789
-3.3626 2.2932 -0.2845
-3.3780 2.3126 -0.2929
-3.4092 2.3272 -0.2979
-3.4255 2.3374 -0.3018
-3.5740 2.4778 -0.3600
-3.5972 2.4929 -0.3658
-3.6232 2.5141 -0.3743
-3.8486 2.7363 -0.4671
-3.9181 2.7779 -0.4827
-3.9628 2.8134 -0.4969
-4.2423 3.0792 -0.6072
-4.2757 3.0849 -0.6078
-3.0873 2.0519 -0.1760
-3.0968 2.0526 -0.1758
-3.1056 2.0541 -0.1759
-3.1151 2.0548 -0.1756
-3.1209 2.0595 -0.1774
-3.1290 2.0618 -0.1780
-3.1371 2.0642 -0.1786
-3.1441 2.0682 -0.1799
-3.1543 2.0680 -0.1793
-3.1608 2.0729 -0.1811
-3.1681 2.0770 -0.1825
-3.1724 2.0861 -0.1863
-3.1782 2.0937 -0.1894
-3.1839 2.1021 -0.1929
-3.1923 2.1063 -0.1943
-3.1966 2.1192 -0.1998
-3.1961 2.1444 -0.2112
-3.1484 2.3269 -0.2966
-3.1690 2.3183 -0.2915
-3.2427 2.2290 -0.2467
-3.2584 2.2205 -0.2419
-3.2723 2.2173 -0.2396
-3.2845 2.2222 -0.2411
-3.2962 2.2326 -0.2451
-3.3085 2.2422 -0.2486
-3.3212 2.2518 -0.2522
-3.3343 2.2616 -0.2558
-3.3479 2.2695 -0.2586
-3.3772 2.3082 -0.2743
-3.3928 2.3211 -0.2792
-3.4082 2.3266 -0.2808
-3.4245 2.3378 -0.2848
-3.4423 2.3549 -0.2915
-3.5216 2.4245 -0.3182
-3.5976 2.5011 -0.3482
-3.6200 2.5124 -0.3519
-3.6472 2.5349 -0.3604
-3.7752 2.6437 -0.4019
-3.8204 2.6908 -0.4204
-3.8528 2.7103 -0.4273
-3.9521 2.8040 -0.4636
-3.9961 2.8368 -0.4758
-4.0476 2.8793 -0.4919
-4.3048 3.1804 -0.6124
-4.3368 3.1812 -0.6108
-3.0903 2.0511 -0.1659
-3.0990 2.0525 -0.1661
-3.1076 2.0540 -0.1662
-3.1163 2.0555 -0.1664
-3.1235 2.0586 -0.1673
-3.1315 2.0609 -0.1678
-3.1396 2.0633 -0.1683
-3.1483 2.0648 -0.1685
-3.1552 2.0688 -0.1698
-3.1623 2.0728 -0.1711
-3.1667 2.0811 -0.1743
-3.1727 2.0878 -0.1768
-3.1790 2.0945 -0.1793
-3.1851 2.1022 -0.1822
-3.1902 2.1125 -0.1862
-3.1968 2.1211 -0.1895
-3.2034 2.1307 -0.1932
-3.1506 2.3243 -0.2773
-3.2433 2.2290 -0.2322
-3.2584 2.2222 -0.2285
-3.2714 2.2234 -0.2284
-3.2843 2.2247 -0.2282
-3.2961 2.2343 -0.2315
-3.3083 2.2439 -0.2349
-3.3213 2.2480 -0.2359
-3.3342 2.2596 -0.2401
-3.3476 2.2704 -0.2439
-3.3617 2.2983 -0.2548
-3.3766 2.3103 -0.2590
-3.3917 2.3166 -0.2609
-3.4415 2.3572 -0.2752
-3.4595 2.3716 -0.2802
-3.4800 2.3949 -0.2889
-3.4988 2.4066 -0.2927
-3.5179 2.4174 -0.2962
-3.6198 2.5188 -0.3332
-3.6418 2.5282 -0.3359
-3.7993 2.6579 -0.3817
-3.8329 2.6816 -0.3898
-3.9445 2.7996 -0.4333
-4.0030 2.8568 -0.4540
-4.0529 2.8964 -0.4679
-4.1255 2.9683 -0.4941
-4.4076 3.2927 -0.6148
-3.0823 2.0511 -0.1570
-3.0918 2.0518 -0.1568
-3.1004 2.0533 -0.1569
-3.1090 2.0547 -0.1571
-3.1168 2.0570 -0.1576
-3.1254 2.0585 -0.1577
-3.1333 2.0608 -0.1582
-3.1427 2.0615 -0.1580
-3.1506 2.0638 -0.1585
-3.1556 2.0703 -0.1608
-3.1603 2.0778 -0.1635
-3.1670 2.0827 -0.1650
-3.1735 2.0886 -0.1670
-3.1787 2.0971 -0.1700
-3.1833 2.1074 -0.1738
-3.1904 2.1143 -0.1761
-3.1986 2.1195 -0.1778
-3.2046 2.1300 -0.1815
-3.1505 2.3278 -0.2610
-3.2427 2.2334 -0.2198
-3.2584 2.2238 -0.2153
-3.2721 2.2214 -0.2137
-3.2842 2.2263 -0.2150
-3.2963 2.2331 -0.2170
-3.3085 2.2409 -0.2195
-3.3340 2.2586 -0.2251
-3.3471 2.2741 -0.2304
-3.3612 2.2975 -0.2388
-3.3760 2.3085 -0.2424
-3.3911 2.3187 -0.2456
-3.4063 2.3251 -0.2473
-3.4395 2.3517 -0.2560
-3.4762 2.3837 -0.2666
-3.5161 2.4171 -0.2776
-3.5412 2.4480 -0.2883
-3.5635 2.4651 -0.2939
-3.5924 2.4995 -0.3058
-3.6144 2.5109 -0.3091
-3.6400 2.5305 -0.3154
-3.7662 2.6405 -0.3519
-3.7997 2.6662 -0.3602
-3.8333 2.6900 -0.3678
-3.9406 2.8014 -0.4057
-3.9964 2.8547 -0.4237
-4.0459 2.8945 -0.4367
-4.4934 3.4272 -0.6213
-4.5348 3.4343 -0.6220
-3.0838 2.0518 -0.1479
-3.0932 2.0525 -0.1477
-3.1017 2.0539 -0.1479
-3.1110 2.0546 -0.1477
-3.1188 2.0569 -0.1481
-3.1295 2.0558 -0.1473
-3.1359 2.0598 -0.1484
-3.1444 2.0613 -0.1486
-3.1504 2.0661 -0.1500
-3.1553 2.0727 -0.1522
-3.1612 2.0785 -0.1540
-3.1673 2.0843 -0.1558
-3.1737 2.0902 -0.1576
-3.1799 2.0970 -0.1598
-3.1874 2.1021 -0.1613
-3.2023 2.1373 -0.1732
-3.1517 2.3277 -0.2434
-3.2427 2.2351 -0.2063
-3.2591 2.2226 -0.2011
-3.2722 2.2220 -0.2003
-3.2846 2.2251 -0.2009
-3.2964 2.2329 -0.2031
-3.3083 2.2435 -0.2064
-3.3207 2.2533 -0.2094
-3.3335 2.2641 -0.2127
-3.3468 2.2750 -0.2160
-3.4057 2.3272 -0.2320
-3.5611 2.4640 -0.2740
-3.5856 2.4864 -0.2809
-3.6116 2.5100 -0.2882
-3.6347 2.5235 -0.2920
-3.6579 2.5361 -0.2955
-3.8012 2.6765 -0.3393
-3.9814 2.8386 -0.3892
-4.0155 2.8550 -0.3935
-4.0586 2.8844 -0.4021
-4.5389 3.5058 -0.6028
-3.0861 2.0517 -0.1386
-3.0963 2.0515 -0.1382
-3.1039 2.0538 -0.1386
-3.1124 2.0552 -0.1387
-3.1223 2.0550 -0.1383
-3.1307 2.0564 -0.1384
-3.1398 2.0570 -0.1383
-3.1455 2.0619 -0.1396
-3.1508 2.0676 -0.1413
-3.1563 2.0734 -0.1430
-3.1633 2.0775 -0.1440
-3.1727 2.0781 -0.1439
-3.1898 2.0820 -0.1445
-3.1972 2.0862 -0.1455
-3.2426 2.2377 -0.1933
-3.2587 2.2260 -0.1888
-3.2726 2.2217 -0.1868
-3.2850 2.2238 -0.1871
-3.2962 2.2353 -0.1904
-3.3080 2.2461 -0.1934
-3.3204 2.2549 -0.1958
-3.3332 2.2649 -0.1986
-3.3464 2.2768 -0.2020
-3.3750 2.3145 -0.2132
-3.3900 2.3238 -0.2156
-3.4051 2.3293 -0.2168
-3.5324 2.4303 -0.2448
-3.5574 2.4587 -0.2531
-3.6095 2.5110 -0.2682
-3.6309 2.5205 -0.2705
-3.6535 2.5321 -0.2734
-3.6851 2.5636 -0.2824
-3.7129 2.5838 -0.2879
-3.7898 2.6616 -0.3103
-3.8246 2.6888 -0.3179
-4.0127 2.8590 -0.3661
-4.0473 2.8756 -0.3702
-4.6756 3.7177 -0.6207
-4.7238 3.7259 -0.6215
-3.0756 2.0542 -0.1307
-3.0876 2.0523 -0.1298
-3.0969 2.0530 -0.1296
-3.1053 2.0544 -0.1298
-3.1145 2.0550 -0.1296
-3.1236 2.0556 -0.1295
-3.1327 2.0562 -0.1294
-3.1396 2.0593 -0.1301
-3.1459 2.0633 -0.1310
-3.1518 2.0682 -0.1323
-3.1598 2.0705 -0.1327
-3.1690 2.0712 -0.1326
-3.1775 2.0726 -0.1327
-3.1856 2.0750 -0.1332
-3.1926 2.0791 -0.1341
-3.1979 2.0868 -0.1363
-3.1949 2.1583 -0.1575
-3.1566 2.3209 -0.2071
-3.2590 2.2266 -0.1756
-3.2726 2.2231 -0.1741
-3.2842 2.2300 -0.1758
-3.2962 2.2359 -0.1771
-3.3081 2.2448 -0.1794
-3.3204 2.2527 -0.1813
-3.3460 2.2824 -0.1892
-3.3597 2.2935 -0.1920
-3.3744 2.3145 -0.1978
-3.3894 2.3249 -0.2003
-3.4043 2.3303 -0.2015
-3.4196 2.3368 -0.2029
-3.4530 2.3630 -0.2095
-3.4723 2.3848 -0.2153
-3.4901 2.3956 -0.2179
-3.5559 2.4604 -0.2349
-3.6057 2.5069 -0.2470
-3.6280 2.5194 -0.2499
-3.6800 2.5585 -0.2598
-3.7094 2.5830 -0.2660
-3.7844 2.6581 -0.2858
-3.8205 2.6886 -0.2936
-3.8569 2.7172 -0.3008
-3.9938 2.8370 -0.3317
-4.0388 2.8710 -0.3402
-3.0789 2.0532 -0.1214
-3.0908 2.0513 -0.1205
-3.1000 2.0519 -0.1204
-3.1091 2.0525 -0.1203
-3.1174 2.0539 -0.1205
-3.1256 2.0553 -0.1206
-3.1332 2.0576 -0.1210
-3.1408 2.0599 -0.1214
-3.1464 2.0647 -0.1225
-3.1529 2.0688 -0.1234
-3.1614 2.0703 -0.1236
-3.1723 2.0682 -0.1227
-3.1790 2.0723 -0.1236
-3.1880 2.0729 -0.1235
-3.1918 2.0823 -0.1259
-3.1923 2.0991 -0.1304
-3.1960 2.1115 -0.1336
-3.2406 2.2495 -0.1691
-3.2584 2.2310 -0.1636
-3.2717 2.2293 -0.1628
-3.2836 2.2343 -0.1638
-3.2954 2.2422 -0.1656
-3.3076 2.2492 -0.1671
-3.3201 2.2553 -0.1684
-3.3328 2.2643 -0.1704
-3.3593 2.2973 -0.1784
-3.3739 2.3155 -0.1829
-3.3885 2.3219 -0.1842
-3.4033 2.3283 -0.1855
-3.4188 2.3379 -0.1876
-3.4555 2.3843 -0.1989
-3.4726 2.3932 -0.2008
-3.4915 2.4081 -0.2042
-3.5097 2.4181 -0.2064
-3.5547 2.4631 -0.2171
-3.6022 2.5036 -0.2265
-3.6246 2.5172 -0.2295
-3.8165 2.6883 -0.2696
-3.8474 2.7074 -0.2738
-3.9896 2.8386 -0.3047
-4.0345 2.8727 -0.3125
-4.0715 2.8928 -0.3168
-3.0823 2.0521 -0.1123
-3.0923 2.0519 -0.1120
-3.1412 2.0612 -0.1130
-3.1475 2.0653 -0.1138
-3.1565 2.0658 -0.1138
-3.1655 2.0664 -0.1137
-3.1732 2.0687 -0.1140
-3.1821 2.0692 -0.1140
-3.1877 2.0751 -0.1152
-3.1947 2.0793 -0.1160
-3.1969 2.0925 -0.1191
-3.2021 2.1013 -0.1211
-3.2074 2.1111 -0.1233
-3.2011 2.2078 -0.1464
-3.2090 2.2645 -0.1597
-3.2226 2.2668 -0.1599
-3.2379 2.2625 -0.1585
-3.2528 2.2581 -0.1572
-3.3061 2.2633 -0.1571
-3.3190 2.2695 -0.1583
-3.3318 2.2796 -0.1604
-3.3451 2.2918 -0.1629
-3.3590 2.3090 -0.1667
-3.3734 2.3173 -0.1684
-3.3881 2.3258 -0.1700
-3.4030 2.3333 -0.1714
-3.4585 2.4090 -0.1881
-3.5151 2.4463 -0.1956
-3.5332 2.4524 -0.1966
-3.5545 2.4689 -0.2001
-3.5780 2.4897 -0.2044
-3.6005 2.5054 -0.2076
-3.6205 2.5128 -0.2089
-3.6752 2.5607 -0.2190
-3.8125 2.6880 -0.2460
-3.8385 2.6984 -0.2478
-4.0205 2.8590 -0.2816
-4.0642 2.8901 -0.2880
-3.0838 2.0527 -0.1037
-3.1819 2.0715 -0.1058
-3.1891 2.0747 -0.1064
-3.1934 2.0834 -0.1081
-3.1976 2.0931 -0.1100
-3.2023 2.1029 -0.1120
-3.2084 2.1109 -0.1135
-3.2060 2.1970 -0.1316
-3.2109 2.2188 -0.1360
-3.2270 2.2534 -0.1430
-3.2379 2.2642 -0.1450
-3.2496 2.2742 -0.1469
-3.2583 2.3026 -0.1526
-3.2723 2.3069 -0.1533
-3.2862 2.3133 -0.1544
-3.3296 2.3237 -0.1557
-3.3442 2.3233 -0.1553
-3.3587 2.3237 -0.1552
-3.3730 2.3232 -0.1548
-3.4043 2.3565 -0.1611
-3.4407 2.4045 -0.1705
-3.4589 2.4186 -0.1731
-3.4779 2.4338 -0.1759
-3.4976 2.4491 -0.1787
-3.5164 2.4583 -0.1803
-3.5327 2.4571 -0.1797
-3.5496 2.4590 -0.1798
-3.5981 2.5051 -0.1885
-3.6172 2.5104 -0.1893
-3.6688 2.5521 -0.1970
-3.8068 2.6842 -0.2220
-3.8378 2.7045 -0.2256
-4.0142 2.8571 -0.2542
-4.0598 2.8918 -0.2606
-3.1816 2.0737 -0.0977
-3.1883 2.0779 -0.0983
-3.1936 2.0848 -0.0995
-3.1944 2.1010 -0.1024
-3.1862 2.1608 -0.1133
-3.1952 2.1663 -0.1142
-3.1996 2.1841 -0.1174
-3.2071 2.1964 -0.1195
-3.2170 2.2032 -0.1205
-3.2243 2.2194 -0.1234
-3.2324 2.2359 -0.1262
-3.2418 2.2505 -0.1288
-3.2532 2.2595 -0.1302
-3.2658 2.2647 -0.1310
-3.2756 2.2874 -0.1349
-3.2869 2.3084 -0.1386
-3.2975 2.3463 -0.1453
-3.3122 2.3559 -0.1468
-3.3280 2.3525 -0.1460
-3.4064 2.3891 -0.1515
-3.4230 2.3979 -0.1528
-3.4405 2.4110 -0.1549
-3.4584 2.4231 -0.1569
-3.4768 2.4352 -0.1588
-3.4964 2.4506 -0.1613
-3.5159 2.4630 -0.1633
-3.5321 2.4618 -0.1628
-3.5547 2.4827 -0.1663
-3.5776 2.5016 -0.1694
-3.5994 2.5154 -0.1716
-3.6210 2.5271 -0.1734
-3.6892 2.6080 -0.1870
-3.7179 2.6300 -0.1906
-3.7425 2.6412 -0.1923
-3.7711 2.6602 -0.1953
-3.8039 2.6859 -0.1995
-3.8372 2.7106 -0.2035
-3.8709 2.7345 -0.2073
-3.9686 2.8284 -0.2229
-4.0113 2.8608 -0.2281
-4.0525 2.8889 -0.2326
-4.0963 2.9195 -0.2375
-3.0741 2.0566 -0.0876
-3.1744 2.1213 -0.0965
-3.1807 2.1506 -0.1009
-3.1893 2.1562 -0.1017
-3.1973 2.1636 -0.1028
-3.2057 2.1711 -0.1038
-3.2119 2.1853 -0.1059
-3.2183 2.2015 -0.1084
-3.2275 2.2112 -0.1098
-3.2371 2.2209 -0.1112
-3.2453 2.2385 -0.1138
-3.2569 2.2445 -0.1146
-3.2663 2.2633 -0.1174
-3.2785 2.2705 -0.1183
-3.2895 2.2895 -0.1211
-3.3013 2.3097 -0.1241
-3.3144 2.3251 -0.1263
-3.3275 2.3567 -0.1310
-3.3424 2.3804 -0.1345
-3.3766 2.4601 -0.1464
-3.3940 2.4550 -0.1454
-3.4112 2.4539 -0.1451
-3.4266 2.4383 -0.1426
-3.6043 2.5365 -0.1559
-3.6275 2.5516 -0.1580
-3.6909 2.6190 -0.1677
-3.7187 2.6390 -0.1705
-3.7398 2.6426 -0.1709
-3.7646 2.6539 -0.1724
-3.8010 2.6874 -0.1771
-3.8306 2.7057 -0.1796
-3.8702 2.7407 -0.1846
-3.9679 2.8353 -0.1982
-4.0071 2.8622 -0.2019
-4.0401 2.8780 -0.2040
-3.1496 2.0830 -0.0822
-3.1564 2.0872 -0.0826
-3.1597 2.0970 -0.0839
-3.1640 2.1058 -0.0849
-3.1677 2.1167 -0.0863
-3.1730 2.1257 -0.0874
-3.1807 2.1311 -0.0880
-3.1868 2.1403 -0.0892
-3.1959 2.1439 -0.0896
-3.2011 2.1570 -0.0912
-3.2061 2.1721 -0.0930
-3.2144 2.1807 -0.0941
-3.2218 2.1931 -0.0956
-3.2298 2.2057 -0.0971
-3.2397 2.2135 -0.0981
-3.2492 2.2243 -0.0994
-3.2580 2.2411 -0.1014
-3.2687 2.2521 -0.1028
-3.2797 2.2641 -0.1042
-3.2905 2.2823 -0.1064
-3.3023 2.2996 -0.1086
-3.3153 2.3120 -0.1100
-3.3282 2.3366 -0.1131
-3.3424 2.3614 -0.1161
-3.4809 2.5755 -0.1423
-3.5306 2.5382 -0.1374
-3.6263 2.6086 -0.1458
-3.7309 2.6744 -0.1535
-3.7527 2.6781 -0.1539
-3.7746 2.6819 -0.1543
-3.8026 2.6979 -0.1561
-3.8527 2.7553 -0.1631
-3.8909 2.7863 -0.1668
-3.9323 2.8209 -0.1709
-3.9591 2.8285 -0.1718
-4.0007 2.8601 -0.1755
-4.0393 2.8850 -0.1785
-4.0857 2.9205 -0.1827
-3.1400 2.0725 -0.0725
-3.1449 2.0784 -0.0731
-3.1507 2.0835 -0.0736
-3.1548 2.0914 -0.0743
-3.1600 2.0984 -0.0750
-3.1649 2.1065 -0.0758
-3.1702 2.1146 -0.0766
-3.1769 2.1208 -0.0772
-3.1824 2.1300 -0.0781
-3.1897 2.1364 -0.0788
-3.1952 2.1476 -0.0799
-3.2008 2.1598 -0.0811
-3.2096 2.1654 -0.0816
-3.2176 2.1740 -0.0824
-3.2247 2.1865 -0.0837
-3.2333 2.1961 -0.0846
-3.2412 2.2098 -0.0860
-3.2508 2.2197 -0.0869
-3.2600 2.2335 -0.0883
-3.2698 2.2475 -0.0897
-3.2808 2.2586 -0.0908
-3.2916 2.2748 -0.0923
-3.3035 2.2871 -0.0935
-3.3155 2.3076 -0.0956
-3.3284 2.3283 -0.0976
-3.3420 2.3594 -0.1006
-3.3572 2.3784 -0.1025
-3.3736 2.4089 -0.1055
-3.8893 2.8337 -0.1472
-3.9653 2.8877 -0.1525
-3.1390 2.0756 -0.0644
-3.1460 2.0789 -0.0647
-3.1498 2.0867 -0.0653
-3.1565 2.0910 -0.0656
-3.1609 2.0990 -0.0662
-3.1658 2.1071 -0.0668
-3.1732 2.1114 -0.0672
-3.1776 2.1215 -0.0679
-3.1846 2.1278 -0.0684
-3.1904 2.1371 -0.0691
-3.1957 2.1484 -0.0699
-3.2033 2.1558 -0.0705
-3.2112 2.1634 -0.0710
-3.2173 2.1768 -0.0720
-3.2260 2.1845 -0.0726
-3.2344 2.1942 -0.0733
-3.2428 2.2060 -0.0742
-3.2517 2.2179 -0.0751
-3.2616 2.2278 -0.0759
-3.2715 2.2399 -0.0768
-3.2820 2.2520 -0.0777
-3.2930 2.2642 -0.0786
-3.3038 2.2846 -0.0801
-3.3159 2.3002 -0.0813
-3.3281 2.3281 -0.0833
-3.3420 2.3429 -0.0845
-3.3567 2.3764 -0.0869
-3.3723 2.3873 -0.0878
-3.5153 3.2775 -0.1519
-3.6390 3.3411 -0.1570
-5.1600 4.9181 -0.2767
-5.2056 4.8825 -0.2743
-5.2353 4.8246 -0.2704
-3.1395 2.0769 -0.0563
-3.1457 2.0811 -0.0565
-3.1502 2.0881 -0.0569
-3.1550 2.0952 -0.0572
-3.1613 2.1004 -0.0575
-3.1695 2.1029 -0.0577
-3.1729 2.1139 -0.0582
-3.1784 2.1221 -0.0587
-3.1848 2.1295 -0.0591
-3.1910 2.1378 -0.0595
-3.1994 2.1424 -0.0598
-3.2038 2.1567 -0.0605
-3.2105 2.1672 -0.0610
-3.2198 2.1719 -0.0613
-3.2270 2.1835 -0.0619
-3.2359 2.1913 -0.0623
-3.2441 2.2031 -0.0629
-3.2518 2.2190 -0.0637
-3.2623 2.2260 -0.0641
-3.2728 2.2340 -0.0646
-3.2834 2.2442 -0.0651
-3.2928 2.2666 -0.0662
-3.3045 2.2769 -0.0668
-3.3162 2.2946 -0.0677
-3.3282 2.3216 -0.0690
-3.3417 2.3426 -0.0701
-3.3562 2.3680 -0.0714
-3.3714 2.3790 -0.0720
-3.3886 2.4162 -0.0738
-3.4708 3.2233 -0.1109
-3.5168 3.3124 -0.1153
-3.5637 3.3777 -0.1187
-3.6088 3.4124 -0.1207
-3.6569 3.4561 -0.1231
-3.7008 3.4709 -0.1242
-3.7597 3.5486 -0.1282
-4.3787 5.7985 -0.2352
-4.5988 6.2411 -0.2571
-4.8133 5.4724 -0.2245
-4.8890 5.4531 -0.2243
-4.9341 5.3682 -0.2209
-4.9764 5.2870 -0.2177
-5.0312 5.2402 -0.2161
-4.9465 4.9250 -0.2011
-4.9828 4.8646 -0.1987
-4.9692 4.7197 -0.1921
-5.0509 4.7524 -0.1943
-5.1212 4.7645 -0.1955
-5.2051 4.7986 -0.1978
-5.4482 5.0807 -0.2128
-3.1392 2.0792 -0.0482
-3.1455 2.0834 -0.0483
-3.1512 2.0886 -0.0485
-3.1566 2.0947 -0.0487
-3.1622 2.1009 -0.0489
-3.1681 2.1072 -0.0491
-3.1732 2.1154 -0.0493
-3.1797 2.1218 -0.0495
-3.1855 2.1301 -0.0498
-3.1926 2.1365 -0.0500
-3.2004 2.1421 -0.0502
-3.2051 2.1555 -0.0505
-3.2129 2.1631 -0.0508
-3.2205 2.1717 -0.0510
-3.2289 2.1795 -0.0513
-3.2359 2.1932 -0.0517
-3.2437 2.2061 -0.0520
-3.2542 2.2110 -0.0522
-3.2643 2.2180 -0.0525
-3.2745 2.2261 -0.0528
-3.2837 2.2434 -0.0533
-3.2951 2.2495 -0.0535
-3.3034 2.2876 -0.0544
-3.3152 2.3064 -0.0549
-3.3281 2.3202 -0.0553
-3.3416 2.3298 -0.0557
-3.3557 2.3500 -0.0563
-3.3708 2.3757 -0.0570
-3.3881 2.4206 -0.0581
-3.5149 3.3166 -0.0769
-3.5590 3.3619 -0.0784
-3.6098 3.4376 -0.0805
-3.6529 3.4524 -0.0814
-3.6980 3.4748 -0.0824
-3.7456 3.5050 -0.0836
-4.3980 5.9135 -0.1385
-4.4766 5.8431 -0.1382
-4.6042 5.9488 -0.1420
-4.6377 5.7523 -0.1387
-4.7318 5.2967 -0.1313
-4.7791 5.2199 -0.1305
-4.8623 5.2342 -0.1319
-4.7937 4.9195 -0.1250
-4.8568 4.9073 -0.1256
-4.9443 4.9453 -0.1275
-4.9557 4.8372 -0.1256
-5.0542 4.8971 -0.1281
-5.1144 4.8864 -0.1287
-5.1191 4.7835 -0.1268
-5.2173 4.8412 -0.1293
-5.3959 5.0228 -0.1352
-3.1390 2.0814 -0.0401
-3.1445 2.0866 -0.0401
-3.1503 2.0918 -0.0402
-3.1563 2.0971 -0.0403
-3.1619 2.1033 -0.0403
-3.1678 2.1096 -0.0404
-3.1734 2.1169 -0.0404
-3.1799 2.1233 -0.0405
-3.1857 2.1317 -0.0406
-3.1932 2.1372 -0.0407
-3.1992 2.1467 -0.0407
-3.2061 2.1552 -0.0408
-3.2137 2.1629 -0.0409
-3.2206 2.1735 -0.0409
-3.2290 2.1813 -0.0410
-3.2370 2.1911 -0.0411
-3.2469 2.1960 -0.0413
-3.2558 2.2060 -0.0414
-3.2655 2.2140 -0.0415
-3.2748 2.2261 -0.0416
-3.2844 2.2394 -0.0417
-3.2944 2.2548 -0.0417
-3.3041 2.2808 -0.0417
-3.3154 2.3017 -0.0418
-3.3280 2.3176 -0.0419
-3.3414 2.3283 -0.0421
-3.3552 2.3402 -0.0423
-3.3706 2.3914 -0.0422
-3.3874 2.4196 -0.0423
-3.5125 3.3153 -0.0388
-3.5596 3.3867 -0.0392
-3.6032 3.4142 -0.0398
-3.6558 3.4866 -0.0403
-3.7045 3.5245 -0.0409
-4.3117 5.6103 -0.0383
-4.4736 5.8704 -0.0396
-4.6147 6.0223 -0.0412
-4.7499 6.1363 -0.0429
-4.8398 6.1063 -0.0447
-4.9104 6.0297 -0.0464
-4.8508 5.6310 -0.0480
-4.7639 5.2117 -0.0491
-4.7053 4.9018 -0.0501
-4.8030 4.9651 -0.0514
-4.8088 4.8320 -0.0524
-4.8812 4.8444 -0.0536
-4.9414 4.8336 -0.0548
-5.0520 4.9170 -0.0562
-5.0726 4.8360 -0.0571
-5.1708 4.8940 -0.0585
-5.2432 4.9065 -0.0598
-5.4436 5.1224 -0.0620
-3.1312 2.0813 -0.0319
-3.1387 2.0837 -0.0319
-3.1443 2.0889 -0.0319
-3.1488 2.0960 -0.0318
-3.1561 2.0994 -0.0318
-3.1605 2.1076 -0.0317
-3.1681 2.1110 -0.0317
-3.1726 2.1203 -0.0315
-3.1802 2.1248 -0.0316
-3.1859 2.1332 -0.0314
-3.1929 2.1397 -0.0314
-3.1985 2.1503 -0.0312
-3.2066 2.1559 -0.0312
-3.2130 2.1666 -0.0310
-3.2206 2.1753 -0.0309
-3.2303 2.1791 -0.0310
-3.2382 2.1890 -0.0308
-3.2469 2.1979 -0.0307
-3.2569 2.2028 -0.0308
-3.2662 2.2119 -0.0307
-3.2752 2.2251 -0.0305
-3.2839 2.2436 -0.0301
-3.2930 2.2664 -0.0296
-3.3030 2.2915 -0.0290
-3.3153 2.3011 -0.0290
-3.3280 2.3118 -0.0290
-3.3409 2.3353 -0.0285
-3.3548 2.3578 -0.0281
-3.3702 2.3966 -0.0272
-3.3868 2.4229 -0.0268
-3.4048 2.4515 -0.0263
-3.5575 3.3900 0.0001
-3.6020 3.4253 0.0002
-3.6454 3.4466 -0.0001
-3.6908 3.4746 -0.0002
-3.7466 3.5437 0.0007
-4.3831 5.5764 0.0508
-4.5589 5.8724 0.0563
-4.6868 5.9773 0.0567
-4.8201 6.0863 0.0572
-4.8908 6.0123 0.0533
-4.9089 5.8133 0.0466
-4.7741 5.2649 0.0322
-4.7472 5.0242 0.0252
-4.8123 5.0109 0.0233
-4.8888 5.0241 0.0220
-4.9525 5.0116 0.0202
-4.9642 4.9009 0.0164
-5.0112 4.8653 0.0142
-5.0962 4.9012 0.0135
-5.1548 4.8900 0.0118
-5.2131 4.8798 0.0102
-3.1302 2.0845 -0.0237
-3.1378 2.0869 -0.0238
-3.1440 2.0911 -0.0237
-3.1478 2.0993 -0.0233
-3.1552 2.1027 -0.0233
-3.1602 2.1100 -0.0231
-3.1661 2.1164 -0.0229
-3.1724 2.1228 -0.0227
-3.1846 2.1377 -0.0221
-3.1908 2.1463 -0.0218
-3.1986 2.1519 -0.0217
-3.2051 2.1616 -0.0213
-3.2131 2.1683 -0.0212
-3.2221 2.1731 -0.0211
-3.2293 2.1839 -0.0207
-3.2373 2.1939 -0.0204
-3.2477 2.1967 -0.0205
-3.2573 2.2027 -0.0204
-3.2661 2.2138 -0.0200
-3.2739 2.2334 -0.0191
-3.2828 2.2520 -0.0183
-3.2920 2.2750 -0.0172
-3.3033 2.2877 -0.0168
-3.3149 2.3046 -0.0162
-3.3276 2.3154 -0.0159
-3.3402 2.3507 -0.0142
-3.3544 2.3875 -0.0126
-3.3700 2.4083 -0.0118
-3.3861 2.4218 -0.0115
-3.4033 2.4430 -0.0107
-3.5040 3.2752 0.0336
-3.5481 3.3363 0.0359
-3.6007 3.4364 0.0402
-3.6453 3.4643 0.0406
-3.6896 3.4859 0.0406
-3.7418 3.5398 0.0422
-4.5189 5.7731 0.1477
-4.6289 5.8316 0.1481
-4.7703 5.9769 0.1526
-4.8245 5.8652 0.1448
-4.8453 5.6813 0.1339
-4.7838 5.3174 0.1149
-4.7226 4.9931 0.0982
-4.7985 5.0061 0.0969
-4.8502 4.9678 0.0934
-4.9375 5.0064 0.0933
-4.9620 4.9206 0.0878
-5.0217 4.9084 0.0855
-5.1350 4.9942 0.0873
-5.1396 4.8868 0.0811
-5.2110 4.8991 0.0799
-3.0049 2.1203 -0.0090
-3.1224 2.0844 -0.0155
-3.1285 2.0886 -0.0154
-3.1354 2.0920 -0.0153
-3.1410 2.0973 -0.0151
-3.1476 2.1016 -0.0149
-3.1537 2.1070 -0.0147
-3.1587 2.1143 -0.0142
-3.1641 2.1217 -0.0138
-3.1710 2.1272 -0.0136
-3.1760 2.1367 -0.0130
-3.1833 2.1423 -0.0127
-3.1910 2.1479 -0.0125
-3.1983 2.1545 -0.0122
-3.2035 2.1673 -0.0113
-3.2120 2.1731 -0.0111
-3.2189 2.1840 -0.0105
-3.2274 2.1919 -0.0101
-3.2367 2.1978 -0.0099
-3.2471 2.2006 -0.0100
-3.2565 2.2077 -0.0097
-3.2654 2.2189 -0.0091
-3.2813 2.2626 -0.0060
-3.2909 2.2837 -0.0046
-3.3020 2.3006 -0.0036
-3.3139 2.3167 -0.0026
-3.3271 2.3211 -0.0027
-3.3539 2.3915 0.0022
-3.3692 2.4006 0.0025
-3.3858 2.4304 0.0044
-3.4040 2.4627 0.0064
-3.5478 3.3533 0.0741
-3.5913 3.3921 0.0759
-3.6379 3.4400 0.0784
-3.6855 3.4826 0.0803
-3.7286 3.4976 0.0802
-4.4087 5.7431 0.2411
-4.4283 5.4974 0.2206
-4.1316 3.9679 0.1059
-4.7211 5.1906 0.1867
-4.7312 5.0392 0.1742
-4.8077 5.0523 0.1729
-4.8364 4.9634 0.1648
-4.9105 4.9761 0.1635
-5.0372 5.0917 0.1690
-4.9702 4.8354 0.1503
-5.0919 4.9404 0.1550
-5.1375 4.9061 0.1508
-5.1946 4.8943 0.1481
-5.4033 5.1307 0.1608
-3.0847 2.0856 -0.0063
-3.0948 2.0852 -0.0067
-3.1023 2.0875 -0.0067
-3.1099 2.0899 -0.0067
-3.1183 2.0914 -0.0068
-3.1238 2.0966 -0.0065
-3.1316 2.0991 -0.0065
-3.1387 2.1025 -0.0064
-3.1440 2.1088 -0.0059
-3.1502 2.1142 -0.0055
-3.1567 2.1197 -0.0052
-3.1604 2.1301 -0.0042
-3.1663 2.1376 -0.0036
-3.1746 2.1412 -0.0036
-3.1801 2.1508 -0.0027
-3.1869 2.1585 -0.0022
-3.1937 2.1673 -0.0015
-3.2012 2.1751 -0.0009
-3.2106 2.1789 -0.0009
-3.2169 2.1919 0.0003
-3.2364 2.2007 0.0005
-3.2465 2.2046 0.0006
-3.2567 2.2085 0.0006
-3.2642 2.2261 0.0022
-3.2694 2.2606 0.0057
-3.2774 2.2881 0.0083
-3.2889 2.2998 0.0091
-3.3007 2.3127 0.0101
-3.3129 2.3278 0.0112
-3.3385 2.3898 0.0168
-3.3535 2.4086 0.0183
-3.3689 2.4124 0.0182
-3.3853 2.4347 0.0199
-3.5030 3.3075 0.1076
-3.5450 3.3505 0.1106
-3.5881 3.3894 0.1132
-3.6331 3.4297 0.1159
-3.6858 3.5017 0.1216
-3.7289 3.5156 0.1216
-4.5110 6.1661 0.3729
-4.6023 6.1351 0.3664
-4.7065 6.1529 0.3646
-4.7643 6.0314 0.3498
-4.8187 5.9180 0.3360
-4.6949 5.3484 0.2804
-4.7788 5.3628 0.2790
-4.7517 5.1137 0.2538
-4.8174 5.1000 0.2500
-4.8699 5.0602 0.2440
-4.8847 4.9476 0.2317
-4.9450 4.9351 0.2282
-4.9801 4.8771 0.2209
-5.0509 4.8892 0.2197
-5.1484 4.9483 0.2225
-5.1525 4.8458 0.2116
-5.3069 4.9972 0.2221
-3.0211 2.1098 0.0073
-3.0275 2.1142 0.0076
-3.0387 2.1139 0.0071
-3.0470 2.1164 0.0071
-3.0581 2.1162 0.0066
-3.0801 2.1035 0.0041
-3.0938 2.0993 0.0031
-3.0993 2.1046 0.0035
-3.1096 2.1042 0.0031
-3.1183 2.1057 0.0029
-3.1284 2.1053 0.0025
-3.1343 2.1106 0.0029
-3.1385 2.1190 0.0039
-3.1443 2.1255 0.0045
-3.1497 2.1330 0.0052
-3.1561 2.1395 0.0058
-3.1633 2.1451 0.0063
-3.1696 2.1528 0.0070
-3.1719 2.1696 0.0091
-3.1768 2.1825 0.0105
-3.1890 2.1802 0.0098
-3.2029 2.2011 0.0119
-3.2133 2.2040 0.0119
-3.2244 2.2048 0.0116
-3.2348 2.2077 0.0115
-3.2456 2.2096 0.0114
-3.2534 2.2240 0.0129
-3.2673 2.2734 0.0187
-3.2864 2.3194 0.0239
-3.3097 2.3671 0.0292
-3.3229 2.3945 0.0322
-3.3379 2.3982 0.0321
-3.3530 2.4062 0.0325
-3.3685 2.4198 0.0337
-3.4041 2.4872 0.0410
-3.5001 3.2998 0.1420
-3.5393 3.3240 0.1436
-3.5778 3.3372 0.1438
-3.6296 3.4270 0.1533
-3.6817 3.4983 0.1605
-3.7262 3.5201 0.1616
-4.6871 6.4714 0.5046
-4.7987 6.4906 0.5027
-4.8848 5.6589 0.3921
-4.7380 5.1077 0.3267
-4.7579 4.9908 0.3109
-4.7980 4.9299 0.3015
-4.8480 4.8958 0.2951
-4.9675 5.0038 0.3044
-5.0026 4.9431 0.2952
-5.0876 4.9795 0.2966
-5.2025 5.0670 0.3034
-5.2473 5.0299 0.2968
-5.2611 4.9447 0.2853
-3.0258 2.1077 0.0154
-3.0349 2.1092 0.0152
-3.0440 2.1108 0.0151
-3.0522 2.1133 0.0151
-3.0595 2.1168 0.0153
-3.0687 2.1183 0.0151
-3.0787 2.1189 0.0148
-3.0871 2.1215 0.0148
-3.0962 2.1230 0.0147
-3.1124 2.1291 0.0149
-3.1182 2.1356 0.0156
-3.1358 2.1408 0.0157
-3.1398 2.1514 0.0171
-3.1471 2.1571 0.0177
-3.1525 2.1668 0.0189
-3.1589 2.1756 0.0200
-3.1780 2.2075 0.0240
-3.1898 2.2074 0.0235
-3.2018 2.2061 0.0228
-3.2130 2.2069 0.0224
-3.2231 2.2109 0.0226
-3.2339 2.2127 0.0224
-3.2498 2.2408 0.0260
-3.2792 2.3758 0.0453
-3.2928 2.3880 0.0466
-3.3074 2.3960 0.0472
-3.3222 2.4030 0.0476
-3.3373 2.4088 0.0478
-3.3526 2.4214 0.0491
-3.3685 2.4439 0.0518
-3.3854 2.4644 0.0542
-3.4973 3.2919 0.1756
-3.5367 3.3218 0.1784
-3.5767 3.3474 0.1806
-3.6261 3.4241 0.1902
-3.6707 3.4582 0.1934
-3.7168 3.4936 0.1968
-4.6016 6.5954 0.6315
-4.6838 6.5016 0.6137
-4.8128 6.5777 0.6197
-4.8129 5.5073 0.4566
-4.8066 5.2992 0.4251
-4.7235 4.9370 0.3735
-4.8413 5.0486 0.3854
-4.8344 4.8911 0.3617
-4.9051 4.9032 0.3605
-5.0130 4.9867 0.3686
-5.0598 4.9517 0.3612
-5.1311 4.9640 0.3600
-5.1882 4.9517 0.3557
-5.2450 4.9405 0.3515
-5.4555 5.1782 0.3787
-3.0305 2.1054 0.0232
-3.0366 2.1098 0.0237
-3.0465 2.1104 0.0233
-3.0574 2.1100 0.0227
-3.0628 2.1154 0.0234
-3.0719 2.1170 0.0233
-3.0793 2.1204 0.0235
-3.0892 2.1210 0.0232
-3.0967 2.1245 0.0234
-3.1044 2.1281 0.0237
-3.1129 2.1306 0.0237
-3.1193 2.1362 0.0244
-3.1267 2.1408 0.0249
-3.1355 2.1434 0.0249
-3.1413 2.1510 0.0260
-3.1480 2.1577 0.0268
-3.1544 2.1655 0.0279
-3.1612 2.1733 0.0290
-3.1653 2.1873 0.0312
-3.1895 2.2103 0.0341
-3.1996 2.2143 0.0343
-3.2076 2.2245 0.0358
-3.2305 2.2262 0.0350
-3.2386 2.2398 0.0370
-3.2657 2.3664 0.0579
-3.2791 2.3765 0.0591
-3.2924 2.3920 0.0612
-3.3071 2.3979 0.0615
-3.3218 2.4071 0.0624
-3.3367 2.4196 0.0639
-3.3521 2.4367 0.0662
-3.3680 2.4472 0.0673
-3.4596 3.2955 0.2120
-3.4968 3.3086 0.2125
-3.5350 3.3262 0.2138
-3.5764 3.3632 0.2184
-3.6174 3.3891 0.2210
-3.6643 3.4415 0.2280
-3.7188 3.5196 0.2391
-3.7707 3.5728 0.2460
-4.6135 6.6855 0.7529
-4.5889 5.8796 0.6126
-4.7122 5.9806 0.6245
-4.8889 6.2249 0.6591
-4.7625 5.6200 0.5588
-4.8103 5.5307 0.5409
-4.8965 5.5454 0.5394
-4.8723 5.3051 0.4983
-4.8390 5.0688 0.4584
-4.8437 4.9343 0.4346
-4.8916 4.8993 0.4262
-5.0109 5.0062 0.4393
-5.0203 4.9014 0.4205
-5.0901 4.9134 0.4193
-5.1335 4.8798 0.4114
-5.2429 4.9595 0.4202
-3.0373 2.1113 0.0323
-3.0491 2.1100 0.0314
-3.0580 2.1115 0.0312
-3.0678 2.1121 0.0309
-3.0750 2.1155 0.0312
-3.0823 2.1190 0.0315
-3.0897 2.1225 0.0318
-3.0980 2.1251 0.0319
-3.1049 2.1296 0.0324
-3.1140 2.1312 0.0323
-3.1204 2.1367 0.0331
-3.1297 2.1383 0.0329
-3.1365 2.1439 0.0337
-3.1428 2.1506 0.0347
-3.1494 2.1573 0.0357
-3.1558 2.1651 0.0369
-3.1619 2.1740 0.0383
-3.1685 2.1829 0.0398
-3.1716 2.2002 0.0431
-3.1184 2.3518 0.0759
-3.1636 2.3551 0.0742
-3.2380 2.3578 0.0709
-3.2509 2.3678 0.0723
-3.2644 2.3757 0.0732
-3.2789 2.3793 0.0731
-3.2940 2.3763 0.0718
-3.3369 2.3982 0.0739
-3.3517 2.4175 0.0770
-3.3673 2.4369 0.0801
-3.4547 3.2501 0.2370
-3.4941 3.3004 0.2449
-3.5325 3.3248 0.2478
-3.5744 3.3677 0.2542
-3.6183 3.4121 0.2608
-3.6556 3.4118 0.2588
-3.7040 3.4658 0.2671
-4.8212 5.5887 0.6314
-4.9670 5.7476 0.6555
-5.2203 5.7565 0.6443
-5.1567 5.4609 0.5889
-5.1914 5.3820 0.5715
-5.3693 5.4404 0.5740
-5.5057 5.5509 0.5890
-3.0418 2.1089 0.0397
-3.0488 2.1124 0.0401
-3.0587 2.1129 0.0397
-3.0684 2.1135 0.0393
-3.0765 2.1160 0.0394
-3.0837 2.1195 0.0398
-3.0919 2.1220 0.0399
-3.1001 2.1245 0.0400
-3.1068 2.1291 0.0406
-3.1145 2.1326 0.0410
-3.1236 2.1342 0.0408
-3.1308 2.1388 0.0415
-3.1368 2.1455 0.0426
-3.1444 2.1501 0.0432
-3.1497 2.1589 0.0449
-3.1577 2.1636 0.0455
-3.1643 2.1715 0.0469
-3.1697 2.1826 0.0490
-3.1756 2.1937 0.0511
-3.1507 2.3513 0.0873
-3.1661 2.3505 0.0863
-3.1793 2.3562 0.0868
-3.1946 2.3554 0.0858
-3.2091 2.3568 0.0853
-3.2249 2.3527 0.0836
-3.2380 2.3595 0.0844
-3.2516 2.3652 0.0849
-3.2662 2.3654 0.0841
-3.2813 2.3613 0.0824
-3.2941 2.3747 0.0846
-3.3085 2.3761 0.0841
-3.3225 2.3852 0.0854
-3.3360 2.4179 0.0919
-3.4174 3.2320 0.2673
-3.4536 3.2596 0.2714
-3.4930 3.3102 0.2805
-3.5314 3.3348 0.2838
-3.5706 3.3583 0.2868
-3.6119 3.3901 0.2916
-3.6570 3.4361 0.2993
-3.7028 3.4765 0.3057
-3.7539 3.5336 0.3155
1.1606 3.6019 0.8694
1.1003 3.4857 0.8604
0.9575 3.3382 0.8332
0.8623 3.2142 0.8162
0.8083 3.1085 0.8083
0.6478 2.9684 0.7764
0.4341 2.8178 0.7322
0.7609 2.8351 0.8100
0.4053 2.6515 0.7333
0.4423 2.3361 0.7573
1.3189 2.1816 0.9757
-0.7584 1.6059 0.5035
-0.7686 1.5470 0.5038
-0.7634 1.4868 0.5080
-0.7288 1.4226 0.5194
-0.3331 1.1604 0.6272
-0.2819 1.0754 0.6436
-0.2495 0.9915 0.6554
-0.2624 0.9175 0.6559
0.5224 0.6064 0.8597
-2.6294 1.2609 0.0698
-2.6319 1.2468 0.0699
-2.6478 1.2452 0.0661
-2.6492 1.2305 0.0665
-2.6554 1.2206 0.0655
-2.6625 1.2118 0.0642
-2.6695 1.2033 0.0629
-2.6775 1.1961 0.0613
-2.6854 1.1893 0.0598
-2.6923 1.1817 0.0585
-2.7010 1.1766 0.0566
-2.7032 1.1638 0.0567
0.7780 3.8492 0.6845
0.8362 3.8004 0.6993
0.7476 3.6736 0.6856
0.9592 3.6972 0.7306
0.9033 3.5856 0.7234
0.8116 3.4595 0.7090
1.3017 3.5857 0.8101
0.8949 3.3256 0.7330
0.6921 3.1608 0.6961
1.0261 3.1991 0.7671
0.7334 3.0082 0.7118
0.3830 2.8111 0.6442
0.4803 2.6808 0.6711
0.5653 2.6205 0.6923
0.3259 2.4814 0.6463
-0.5897 1.8525 0.4747
-0.9002 1.6683 0.4152
-0.8017 1.6090 0.4393
-0.8260 1.5518 0.4365
-0.7638 1.4878 0.4529
-0.4776 1.2570 0.5254
-0.3088 1.1550 0.5666
-0.2999 1.0780 0.5719
-0.2678 0.9943 0.5826
-0.2128 0.9018 0.5986
-2.6296 1.2421 0.0575
-2.6388 1.2341 0.0558
-2.6517 1.2301 0.0532
-2.6569 1.2192 0.0525
-2.6611 1.2074 0.0521
-2.6682 1.1988 0.0510
-2.6789 1.1945 0.0488
-2.6830 1.1834 0.0484
-2.6945 1.1810 0.0460
-2.6977 1.1692 0.0458
-2.7045 1.1620 0.0447
0.8965 3.6810 0.6323
1.0007 3.6458 0.6540
0.9041 3.5148 0.6404
0.9111 3.3450 0.6486
0.9598 3.1871 0.6644
0.3930 2.8238 0.5687
0.6642 2.7407 0.6248
0.6486 2.6504 0.6253
0.0542 1.9752 0.5368
-0.8753 1.6699 0.3682
-0.7579 1.6092 0.3935
-0.7634 1.4887 0.3972
-0.6969 1.4201 0.4129
-0.4375 1.2502 0.4702
-0.3053 1.1536 0.4997
-0.2956 1.0759 0.5047
-0.2861 0.9970 0.5098
-0.2547 0.9109 0.5193
-2.6201 1.2477 0.0457
-2.6303 1.2400 0.0441
-2.6422 1.2346 0.0420
-2.6485 1.2242 0.0412
-2.6574 1.2168 0.0397
-2.6654 1.2089 0.0385
-2.6697 1.1973 0.0381
-2.6803 1.1930 0.0362
-2.6845 1.1818 0.0359
-2.6932 1.1761 0.0344
-2.7000 1.1686 0.0334
-2.7058 1.1602 0.0326
0.8138 3.7369 0.5296
0.9936 3.7441 0.5601
0.9366 3.6299 0.5545
0.6944 3.4330 0.5201
0.8952 3.1755 0.5638
0.8007 3.0536 0.5520
0.2690 2.7169 0.4732
-0.4388 2.3184 0.3665
-0.6536 2.2107 0.3336
0.0092 1.9757 0.4554
-0.8346 1.6715 0.3221
-0.8162 1.6128 0.3273
-0.8123 1.5535 0.3301
-0.8074 1.4933 0.3332
-0.7585 1.4275 0.3439
-0.4737 1.2559 0.3987
-0.3011 1.1520 0.4320
-0.2240 1.0590 0.4485
-0.1899 0.9716 0.4575
-0.2273 0.9011 0.4537
0.0407 0.7403 0.5053
-2.6203 1.2620 0.0315
-2.6266 1.2507 0.0308
-2.6300 1.2371 0.0307
-2.6401 1.2297 0.0293
-2.6538 1.2265 0.0270
-2.6590 1.2154 0.0265
-2.6660 1.2064 0.0257
-2.6712 1.1957 0.0252
-2.6809 1.1904 0.0237
-2.6878 1.1822 0.0228
-2.7014 1.1668 0.0210
-2.7081 1.1595 0.0201
0.8828 3.8717 0.4501
0.9064 3.8003 0.4558
0.9702 3.7475 0.4669
1.0381 3.6933 0.4786
1.0214 3.5966 0.4793
1.1802 3.5767 0.5033
1.0301 3.4207 0.4861
0.9291 3.2898 0.4754
0.8718 3.1789 0.4705
0.4317 2.7755 0.4186
-0.5651 2.1744 0.2911
-0.1070 2.1165 0.3603
0.0420 1.9833 0.3865
-0.0741 1.8974 0.3721
-0.8268 1.5556 0.2723
-0.7930 1.4930 0.2792
-0.7586 1.4281 0.2864
-0.4717 1.2553 0.3341
-0.3625 1.1630 0.3531
-0.3320 1.0812 0.3602
-0.2789 0.9916 0.3709
-0.2462 0.9039 0.3785
0.1359 0.7085 0.4409
-2.6210 1.2601 0.0176
-2.6245 1.2462 0.0175
-2.6464 1.2329 0.0147
-2.6535 1.2233 0.0140
-2.6624 1.2159 0.0129
-2.6764 1.1982 0.0114
-2.6869 1.1939 0.0100
-2.6919 1.1838 0.0096
-2.6942 1.1705 0.0097
-2.7028 1.1651 0.0086
-2.7059 1.1532 0.0085
0.8995 3.8967 0.3639
0.9468 3.7510 0.3737
1.0567 3.7174 0.3882
1.2186 3.7025 0.4085
1.1552 3.5804 0.4041
1.0491 3.4424 0.3948
0.8647 3.2772 0.3767
0.7326 3.1390 0.3643
0.7928 3.0738 0.3735
0.5585 2.9080 0.3493
0.3786 2.7688 0.3310
-0.3733 2.4744 0.2466
-0.6779 2.1581 0.2179
-0.0278 2.1331 0.2986
-0.7918 1.6753 0.2172
-0.8592 1.6175 0.2105
-0.7825 1.5544 0.2217
-0.7631 1.4915 0.2258
-0.6951 1.4216 0.2361
-0.4498 1.2514 0.2710
-0.3594 1.1616 0.2846
-0.3064 1.0743 0.2936
-0.2975 0.9944 0.2969
-0.2176 0.8937 0.3095
1.4396 0.1818 0.5331
-2.6209 1.2574 0.0037
-2.6263 1.2451 0.0034
-2.6316 1.2330 0.0031
-2.6453 1.2290 0.0015
-2.6524 1.2193 0.0009
-2.6594 1.2098 0.0003
-2.6692 1.2036 -0.0008
-2.6779 1.1967 -0.0016
-2.6812 1.1841 -0.0017
-2.6934 1.1822 -0.0031
-2.6984 1.1721 -0.0035
-2.7025 1.1611 -0.0037
0.9978 3.9669 0.2828
0.9646 3.7755 0.2841
0.9070 3.6597 0.2811
1.0156 3.6233 0.2927
1.0418 3.5447 0.2971
0.9818 3.4279 0.2939
0.8817 3.2968 0.2871
0.6731 3.1284 0.2705
0.3416 2.8463 0.2444
0.3895 2.7818 0.2506
0.0332 2.5983 0.2198
-0.2808 2.4419 0.1925
-0.5685 2.2453 0.1687
-0.5450 2.1888 0.1724
-0.4288 2.1463 0.1848
-0.3213 2.0963 0.1966
-0.6888 1.9232 0.1644
-0.6668 1.8639 0.1680
-0.8704 1.7929 0.1496
-0.9213 1.7346 0.1459
-0.8066 1.6775 0.1586
-0.8457 1.6188 0.1561
-0.8123 1.5574 0.1608
-0.7782 1.4937 0.1657
-0.6781 1.4203 0.1773
-0.6041 1.3446 0.1864
-0.3857 1.2406 0.2103
-0.3774 1.1643 0.2129
-0.3465 1.0818 0.2179
-0.3377 1.0024 0.2206
-0.2840 0.9095 0.2281
-2.6217 1.2555 -0.0105
-2.6299 1.2456 -0.0111
-2.6408 1.2387 -0.0120
-2.6479 1.2286 -0.0125
-2.6540 1.2180 -0.0128
-2.6647 1.2122 -0.0138
-2.6726 1.2041 -0.0143
-2.6786 1.1942 -0.0147
-2.6836 1.1836 -0.0150
-2.6913 1.1763 -0.0155
-2.7017 1.1726 -0.0165
-2.7106 1.1519 -0.0169
0.8536 3.9035 0.1811
0.9163 3.8527 0.1867
0.9410 3.7790 0.1899
1.0948 3.7671 0.2015
1.0775 3.6673 0.2021
1.0174 3.5484 0.2000
1.0430 3.4678 0.2034
0.8994 3.3170 0.1957
0.8415 3.2046 0.1936
0.8249 3.1089 0.1942
0.6553 2.9617 0.1845
0.3063 2.7655 0.1624
-0.2779 2.4498 0.1253
-0.4787 2.2708 0.1139
-0.5078 2.2015 0.1131
-0.4069 2.1553 0.1215
-0.0407 2.1424 0.1487
-0.8817 1.7378 0.0944
-0.9045 1.6801 0.0938
-0.8454 1.6205 0.0993
-0.8271 1.5596 0.1018
-0.7933 1.4959 0.1055
-0.4036 1.2432 0.1392
-0.3737 1.1628 0.1429
-0.3217 1.0751 0.1484
-0.3122 0.9943 0.1507
-0.3029 0.9123 0.1530
-2.6245 1.2553 -0.0251
-2.6416 1.2366 -0.0260
-2.6496 1.2274 -0.0264
-2.6548 1.2157 -0.0266
-2.6682 1.2127 -0.0275
-2.6715 1.1997 -0.0275
-2.6793 1.1918 -0.0279
-2.6843 1.1810 -0.0281
-2.6964 1.1789 -0.0290
-2.6988 1.1655 -0.0289
-2.7063 1.1588 -0.0293
-2.7139 1.1523 -0.0297
0.8929 3.8562 0.0935
0.9173 3.7825 0.0957
0.9007 3.6868 0.0963
0.8841 3.5910 0.0970
0.8676 3.4953 0.0976
0.8109 3.3823 0.0965
0.9166 3.3373 0.1023
0.8587 3.2238 0.1012
0.7232 3.0841 0.0966
0.6325 2.9651 0.0940
0.4775 2.8291 0.0884
0.2409 2.6758 0.0791
0.0329 2.5406 0.0710
-0.3684 2.3672 0.0540
-0.4575 2.2815 0.0509
-0.4306 2.2223 0.0531
-0.3844 2.1646 0.0562
-0.0485 2.0707 0.0740
-0.0620 1.9923 0.0745
-0.9023 1.6239 0.0390
-0.8567 1.5626 0.0421
-0.8231 1.4994 0.0447
-0.5467 1.3371 0.0605
-0.3575 1.2354 0.0713
-0.3272 1.1530 0.0740
-0.3178 1.0729 0.0756
-0.2851 0.9857 0.0785
-2.6399 1.2492 -0.0403
-2.6425 1.2346 -0.0402
-2.6532 1.2279 -0.0406
-2.6539 1.2117 -0.0404
-2.6680 1.2095 -0.0410
-2.6758 1.2012 -0.0413
-2.6809 1.1903 -0.0414
-2.6851 1.1785 -0.0414
-2.6945 1.1731 -0.0418
-2.7047 1.1692 -0.0422
-2.7087 1.1581 -0.0423
-2.7128 1.1471 -0.0423
0.8695 3.8596 0.0002
0.8137 3.7443 0.0001
0.9186 3.7110 0.0029
0.9857 3.6543 0.0051
0.9686 3.5556 0.0057
0.9093 3.4386 0.0056
0.8924 3.3409 0.0062
0.8348 3.2274 0.0060
0.8181 3.1307 0.0066
0.7610 3.0201 0.0064
0.5582 2.8651 0.0033
-0.0119 2.5366 -0.0066
-0.2609 2.4005 -0.0110
-0.3567 2.3101 -0.0123
-0.4091 2.2324 -0.0127
-0.3613 2.1741 -0.0110
0.2844 2.2027 0.0038
0.3005 2.1196 0.0051
0.2231 2.0256 0.0042
-0.8464 1.6240 -0.0166
-0.8422 1.5632 -0.0158
-0.8381 1.5016 -0.0151
-0.4598 1.2519 -0.0037
-0.4101 1.1681 -0.0016
-0.3365 1.0756 0.0011
-0.1850 0.9588 0.0058
0.9190 0.4516 0.0369
-2.6209 1.2467 -0.0541
-2.6263 1.2340 -0.0541
-2.6461 1.2351 -0.0546
-2.6495 1.2213 -0.0545
-2.6592 1.2140 -0.0547
-2.6671 1.2053 -0.0547
-2.6748 1.1969 -0.0548
-2.6790 1.1848 -0.0548
-2.6876 1.1779 -0.0549
-2.6935 1.1683 -0.0550
-2.7063 1.1676 -0.0553
-2.7120 1.1586 -0.0553
0.8461 3.8631 -0.0930
0.7905 3.7478 -0.0922
0.8132 3.6736 -0.0918
1.0035 3.6782 -0.0923
1.0749 3.6192 -0.0921
1.0573 3.5173 -0.0914
0.7871 3.3108 -0.0895
0.8513 3.2467 -0.0893
0.7539 3.1194 -0.0883
0.7373 3.0236 -0.0877
-0.2568 2.4086 -0.0817
-0.3336 2.3218 -0.0810
-0.3665 2.2469 -0.0805
-0.3980 2.1733 -0.0799
-0.3488 2.1129 -0.0797
-0.3194 2.0469 -0.0794
-0.3533 1.9724 -0.0789
-0.8758 1.6266 -0.0755
-0.8571 1.5654 -0.0752
-0.8087 1.5002 -0.0750
-0.5245 1.3344 -0.0746
-0.4572 1.2512 -0.0743
-0.4070 1.1667 -0.0739
-0.3331 1.0735 -0.0735
-0.2771 0.9798 -0.0731
-0.0899 0.8456 -0.0728
1.0207 -0.9919 -0.0645
-2.6219 1.2449 -0.0691
-2.6300 1.2345 -0.0690
-2.6416 1.2279 -0.0689
-2.6487 1.2175 -0.0689
-2.6679 1.2030 -0.0687
-2.6748 1.1935 -0.0687
-2.6843 1.1873 -0.0686
-2.6910 1.1785 -0.0685
-2.6986 1.1709 -0.0685
-2.7044 1.1616 -0.0684
-2.7102 1.1525 -0.0683
0.9287 3.8366 -0.1892
0.8297 3.6972 -0.1862
0.7734 3.5822 -0.1844
0.7966 3.5058 -0.1849
0.8205 3.4279 -0.1855
0.9270 3.3826 -0.1885
0.7870 3.2344 -0.1843
0.7302 3.1229 -0.1825
0.6373 3.0006 -0.1797
0.5131 2.8717 -0.1759
0.5686 2.8020 -0.1774
-0.3388 2.3951 -0.1510
-0.3089 2.3340 -0.1518
-0.3418 2.2580 -0.1507
-0.3123 2.1942 -0.1515
-0.3248 2.1219 -0.1510
-0.2937 2.0552 -0.1518
-0.2165 1.9910 -0.1539
-0.8616 1.6280 -0.1350
-0.8720 1.5676 -0.1346
-0.7779 1.4987 -0.1372
-0.4829 1.3289 -0.1454
-0.4124 1.2435 -0.1472
-0.4464 1.1735 -0.1462
-0.4381 1.0954 -0.1463
-0.2247 0.9647 -0.1522
0.0589 0.8013 -0.1600
-2.6122 1.2334 -0.0845
-2.6320 1.2334 -0.0840
-2.6409 1.2242 -0.0837
-2.6488 1.2145 -0.0835
-2.6637 1.2124 -0.0831
-2.6697 1.2016 -0.0829
-2.6739 1.1892 -0.0827
-2.6808 1.1799 -0.0825
-2.6918 1.1759 -0.0822
-2.6994 1.1683 -0.0820
-2.7009 1.1535 -0.0819
-2.7152 1.1552 -0.0815
-2.7175 1.1418 -0.0814
0.8226 3.7965 -0.2809
0.7664 3.6805 -0.2782
0.7895 3.6050 -0.2797
0.9369 3.5858 -0.2879
0.9633 3.5054 -0.2896
0.9458 3.4045 -0.2889
0.8441 3.2702 -0.2838
0.7463 3.1413 -0.2788
0.6515 3.0171 -0.2740
0.5256 2.8865 -0.2675
0.6187 2.8276 -0.2728
0.3592 2.6649 -0.2590
-0.3347 2.4032 -0.2217
-0.3051 2.3416 -0.2235
-0.3176 2.2692 -0.2231
-0.2193 2.2170 -0.2286
-0.2323 2.1418 -0.2282
-0.1502 2.0789 -0.2329
-0.8909 1.6306 -0.1936
-0.8870 1.5698 -0.1940
-0.8088 1.5022 -0.1985
-0.4391 1.3231 -0.2194
-0.4518 1.2497 -0.2189
-0.4646 1.1762 -0.2184
-0.4355 1.0934 -0.2203
-0.3158 0.9855 -0.2272
-2.6206 1.2559 -0.0997
-2.6259 1.2428 -0.0995
-2.6331 1.2315 -0.0991
-2.6428 1.2230 -0.0986
-2.6524 1.2150 -0.0981
-2.6638 1.2092 -0.0975
-2.6715 1.2003 -0.0971
-2.6758 1.1878 -0.0969
-2.6825 1.1784 -0.0966
-2.6970 1.1784 -0.0958
-2.7019 1.1677 -0.0955
-2.7060 1.1561 -0.0953
-2.7118 1.1468 -0.0951
0.7209 3.7580 -0.3690
0.7047 3.6642 -0.3684
0.7658 3.6085 -0.3739
0.8296 3.5506 -0.3795
0.8538 3.4713 -0.3821
0.9209 3.4082 -0.3881
0.7392 3.2415 -0.3746
0.7224 3.1448 -0.3739
0.6281 3.0206 -0.3672
0.5029 2.8899 -0.3580
0.4187 2.7770 -0.3520
0.4710 2.7059 -0.3568
0.3066 2.4910 -0.3450
0.4583 2.4372 -0.3579
0.2290 2.2202 -0.3408
0.4101 2.1584 -0.3561
0.6145 2.0890 -0.3733
0.5214 1.9841 -0.3665
-0.9507 1.6927 -0.2484
-0.8771 1.6320 -0.2549
-0.8439 1.5689 -0.2581
-0.7616 1.4994 -0.2654
-0.4573 1.3258 -0.2916
-0.4491 1.2489 -0.2929
-0.4410 1.1708 -0.2942
-0.3443 1.0718 -0.3029
0.8087 0.4679 -0.4018
-2.6119 1.2457 -0.1161
-2.6218 1.2362 -0.1154
-2.6324 1.2279 -0.1146
-2.6456 1.2227 -0.1135
-2.6518 1.2111 -0.1131
-2.6630 1.2052 -0.1122
-2.6708 1.1961 -0.1117
-2.6802 1.1893 -0.1110
-2.6835 1.1759 -0.1108
-2.6953 1.1728 -0.1099
-2.7045 1.1672 -0.1091
-2.7094 1.1566 -0.1088
-2.7160 1.1484 -0.1084
-2.7241 1.1428 -0.1077
0.8436 3.1094 -0.4854
0.5883 2.9293 -0.4598
0.5352 2.8232 -0.4554
0.5554 2.7398 -0.4586
0.5390 2.6450 -0.4580
0.5598 2.5590 -0.4613
0.4354 2.4405 -0.4493
0.1919 2.3055 -0.4244
0.2073 2.2234 -0.4271
0.5310 2.1811 -0.4629
0.6285 2.0967 -0.4746
0.7332 2.0069 -0.4871
-0.8780 1.6339 -0.3163
-0.8885 1.5727 -0.3159
-0.6897 1.4266 -0.3394
-0.4336 1.3228 -0.3685
-0.4258 1.2447 -0.3704
-0.4802 1.1775 -0.3653
-0.3861 1.0796 -0.3768
-0.0207 0.9070 -0.4187
0.2448 0.7401 -0.4497
0.1297 0.6751 -0.4380
0.8551 0.3285 -0.5214
1.0363 0.1394 -0.5435
0.9632 0.0406 -0.5367
0.9948 -0.1005 -0.5420
-2.6212 1.2509 -0.1311
-2.6371 1.2471 -0.1294
-2.6450 1.2367 -0.1287
-2.6494 1.2233 -0.1284
-2.6598 1.2161 -0.1273
-2.6641 1.2030 -0.1270
-2.6752 1.1976 -0.1259
-2.6803 1.1859 -0.1255
-2.6862 1.1755 -0.1250
-2.6929 1.1662 -0.1244
-2.7071 1.1667 -0.1228
-2.7120 1.1561 -0.1224
-2.7177 1.1467 -0.1219
-2.7258 1.1410 -0.1211
0.6853 3.4240 -0.5610
0.7081 3.3453 -0.5655
0.5770 3.2019 -0.5500
0.1404 2.4683 -0.5031
-0.0929 2.3364 -0.4735
-0.2520 2.2295 -0.4537
-0.3537 2.1394 -0.4413
-0.1840 2.0907 -0.4653
-0.7050 1.8284 -0.3988
-0.9354 1.6371 -0.3706
-0.8746 1.5734 -0.3800
-0.7616 1.5016 -0.3967
-0.5415 1.4112 -0.4283
-0.2485 1.2977 -0.4702
-0.4358 1.1681 -0.4469
0.1067 0.6785 -0.5294
0.4019 0.4787 -0.5732
0.4223 0.3625 -0.5779
0.3298 0.2898 -0.5666
0.1721 0.2502 -0.5457
0.1891 0.1377 -0.5500
0.1051 0.0735 -0.5396
0.1219 -0.0400 -0.5439
0.1724 -0.1748 -0.5531
0.0554 -0.2137 -0.5378
0.1382 -0.3722 -0.5519
0.1211 -0.4710 -0.5512
0.2078 -0.6423 -0.5660
-2.6215 1.2484 -0.1471
-2.6365 1.2437 -0.1452
-2.6444 1.2332 -0.1443
-2.6462 1.2170 -0.1443
-2.6583 1.2114 -0.1428
-2.6729 1.2090 -0.1408
-2.6712 1.1897 -0.1414
-2.6796 1.1817 -0.1404
-2.6881 1.1740 -0.1394
-2.6947 1.1647 -0.1386
-2.7038 1.1588 -0.1375
-2.7121 1.1523 -0.1364
-2.7250 1.1359 -0.1350
-0.2314 2.4597 -0.5297
-0.2445 2.3839 -0.5292
-0.1867 2.3234 -0.5401
-0.3809 2.2114 -0.5106
-0.4142 2.1351 -0.5068
-0.2744 2.0838 -0.5309
-0.2641 2.0100 -0.5343
-0.3233 1.9290 -0.5263
-0.5242 1.8423 -0.4952
-0.6648 1.5641 -0.4782
-0.1469 0.9344 -0.5773
-0.2900 0.8855 -0.5548
-0.2546 0.7882 -0.5628
-0.2434 0.6963 -0.5667
0.0354 0.4032 -0.6190
-0.0992 0.3623 -0.5978
-0.1612 0.0046 -0.5955
-0.1484 -0.1018 -0.5999
-0.1641 -0.1920 -0.5994
-0.1797 -0.2823 -0.5988
-2.6255 1.2490 -0.1627
-2.6291 1.2339 -0.1625
-2.6473 1.2329 -0.1595
-2.6551 1.2227 -0.1584
-2.6646 1.2145 -0.1571
-2.6663 1.1987 -0.1571
-2.6790 1.1949 -0.1551
-2.6858 1.1851 -0.1542
-2.6899 1.1726 -0.1538
-2.6958 1.1622 -0.1531
-2.7090 1.1614 -0.1509
-2.7155 1.1528 -0.1501
-2.7219 1.1444 -0.1492
-0.1530 3.2714 -0.6011
-0.1889 3.1851 -0.5966
-0.2475 3.0888 -0.5879
-0.2601 3.0159 -0.5874
-0.2943 2.9335 -0.5830
-0.2853 2.8701 -0.5865
-0.2530 2.8148 -0.5942
-0.2882 2.7325 -0.5896
-0.3232 2.6514 -0.5851
-0.3358 2.5785 -0.5846
-0.3043 2.5186 -0.5923
-0.3171 2.4445 -0.5918
-0.3518 2.3652 -0.5873
-0.4070 2.2825 -0.5789
-0.5187 2.1911 -0.5598
-0.3684 2.1483 -0.5899
-0.5299 1.3366 -0.5807
-0.6143 1.2011 -0.5681
-0.6267 1.1293 -0.5677
-0.6009 1.0478 -0.5749
-0.6135 0.9749 -0.5744
-0.6261 0.9020 -0.5739
-0.5992 0.8154 -0.5815
-0.6514 0.7562 -0.5730
-0.6826 0.6909 -0.5687
-0.6572 0.6018 -0.5761
-0.7077 0.5462 -0.5678
-0.7019 0.4646 -0.5711
-0.6953 0.3814 -0.5747
-0.6890 0.2970 -0.5782
-0.6828 0.2115 -0.5816
-0.6769 0.1248 -0.5851
-0.7462 0.0875 -0.5728
-0.7589 0.0140 -0.5723
-2.6266 1.2654 -0.1784
-2.6268 1.2473 -0.1789
-2.6356 1.2369 -0.1775
-2.6451 1.2277 -0.1759
-2.6504 1.2147 -0.1752
-2.6684 1.1974 -0.1722
-2.6760 1.1880 -0.1710
-2.6827 1.1779 -0.1700
-2.6927 1.1721 -0.1682
-2.6985 1.1617 -0.1674
-2.7092 1.1577 -0.1654
-2.7165 1.1501 -0.1642
-2.7245 1.1438 -0.1629
-0.6573 2.6652 -0.5864
-0.6515 2.6074 -0.5895
-0.6795 2.5371 -0.5856
-0.7546 2.4525 -0.5717
-0.8114 2.3765 -0.5615
-0.7762 2.3278 -0.5709
-0.7669 2.2099 -0.5767
-0.8347 2.0758 -0.5660
-0.8776 1.8280 -0.5644
-0.6632 1.5673 -0.6202
-0.9671 1.1393 -0.5666
-0.9638 1.0725 -0.5694
-0.9641 0.8019 -0.5780
-1.0048 0.7505 -0.5707
-2.6185 1.2557 -0.1971
-2.6282 1.2455 -0.1952
-2.6335 1.2319 -0.1945
-2.6422 1.2217 -0.1929
-2.6584 1.2195 -0.1894
-2.6636 1.2069 -0.1886
-2.6696 1.1953 -0.1877
-2.6747 1.1829 -0.1869
-2.6872 1.1794 -0.1843
-2.6905 1.1657 -0.1840
-2.7004 1.1602 -0.1820
-2.7086 1.1530 -0.1804
-2.7191 1.1495 -0.1782
-2.7247 1.1399 -0.1772
-0.7801 3.1181 -0.6059
-0.7903 3.0593 -0.6055
-0.8005 3.0004 -0.6051
-0.8389 2.9263 -0.5983
-0.8630 2.8609 -0.5946
-0.8450 2.8170 -0.6008
-0.8263 2.7721 -0.6071
-0.8365 2.7128 -0.6068
-0.8468 2.6536 -0.6064
-0.8993 2.5775 -0.5960
-0.9094 2.5194 -0.5957
-0.9058 2.4660 -0.5985
-0.9160 2.4075 -0.5982
-0.9261 2.3490 -0.5978
-1.0013 2.2727 -0.5818
-0.9597 2.2287 -0.5938
-0.9288 2.1796 -0.6034
-0.9259 2.1230 -0.6062
-0.9899 2.0543 -0.5927
-0.9839 1.9410 -0.5984
-0.9941 1.8822 -0.5980
-1.0172 1.8225 -0.5944
-1.0749 1.7052 -0.5843
-1.0349 1.6467 -0.5965
-1.1031 1.4742 -0.5858
-1.1131 1.4164 -0.5854
-1.1107 1.3566 -0.5883
-1.1332 1.3009 -0.5847
-1.1062 1.2348 -0.5939
-1.0646 1.1626 -0.6070
-1.1013 1.1098 -0.5998
-1.1368 1.0582 -0.5928
-1.1470 0.9993 -0.5924
-1.1692 0.9450 -0.5888
-1.2032 0.8964 -0.5821
-1.2013 0.8333 -0.5849
-1.1632 0.7522 -0.5975
-1.1980 0.7051 -0.5905
-1.2082 0.6462 -0.5901
-1.2416 0.6008 -0.5834
-1.2285 0.5285 -0.5894
-1.2263 0.4616 -0.5924
-1.2591 0.3519 -0.5883
-1.2919 0.3101 -0.5816
-2.6208 1.2548 -0.2135
-2.6338 1.2477 -0.2105
-2.6383 1.2333 -0.2099
-2.6461 1.2223 -0.2084
-2.6488 1.2065 -0.2083
-2.6632 1.2030 -0.2048
-2.6733 1.1958 -0.2025
-2.6784 1.1835 -0.2017
-2.6875 1.1761 -0.1997
-2.6958 1.1682 -0.1979
-2.7056 1.1627 -0.1957
-2.7105 1.1515 -0.1949
-2.7162 1.1415 -0.1938
-2.7258 1.1372 -0.1916
-2.7305 1.1266 -0.1907
-1.0996 2.7472 -0.5941
-1.1044 2.6010 -0.5989
-1.1462 2.5344 -0.5900
-1.2076 2.4616 -0.5758
-1.1746 2.4269 -0.5866
-1.1939 2.3717 -0.5835
-1.2131 2.3171 -0.5804
-1.1875 2.1773 -0.5935
-1.2179 2.1201 -0.5873
-1.2862 2.0078 -0.5729
-1.2749 1.9603 -0.5781
-1.3037 1.9070 -0.5723
-1.2826 1.8593 -0.5802
-1.3498 1.8043 -0.5637
-1.3102 1.7564 -0.5768
-1.3190 1.7055 -0.5765
-1.3473 1.6549 -0.5707
-1.3262 1.5511 -0.5810
-1.4005 1.4044 -0.5664
-1.4091 1.3543 -0.5660
-1.3990 1.2999 -0.5712
-1.3891 1.2444 -0.5763
-1.4422 0.8813 -0.5767
-1.4511 0.7734 -0.5788
-1.5136 0.4692 -0.5741
-2.6257 1.2561 -0.2293
-2.6336 1.2444 -0.2276
-2.6414 1.2331 -0.2258
-2.6458 1.2188 -0.2252
-2.6602 1.2147 -0.2213
-2.6662 1.2027 -0.2202
-2.6738 1.1928 -0.2185
-2.6813 1.1831 -0.2168
-2.6920 1.1776 -0.2140
-2.7018 1.1717 -0.2115
-2.7083 1.1622 -0.2101
-2.7116 1.1489 -0.2097
-2.7220 1.1452 -0.2069
-2.7292 1.1377 -0.2053
-1.2300 2.7757 -0.6076
-1.2577 2.7165 -0.6018
-1.2565 2.6734 -0.6042
-1.2648 2.6251 -0.6039
-1.3078 2.4724 -0.5978
-1.3160 2.4245 -0.5975
-1.3067 2.3834 -0.6024
-1.3151 2.3350 -0.6020
-1.3327 2.2836 -0.5990
-1.3226 2.2411 -0.6042
-1.3116 2.1979 -0.6096
-1.3394 2.1439 -0.6035
-1.3660 2.0912 -0.5978
-1.3608 1.7071 -0.6176
-1.3965 1.6574 -0.6089
-1.4307 1.5103 -0.6052
-1.4392 1.4106 -0.6073
-1.4993 1.3216 -0.5929
-1.4825 1.2670 -0.6007
-1.5076 1.2230 -0.5950
-1.4995 1.1694 -0.6000
-1.5327 1.0780 -0.5940
-1.5248 1.0228 -0.5991
-1.5578 0.9329 -0.5931
-1.5582 0.8804 -0.5955
-1.5666 0.8318 -0.5952
-1.5583 0.7735 -0.6005
-1.5835 0.7346 -0.5946
-1.5840 0.6809 -0.5969
-1.6081 0.6428 -0.5913
-1.6242 0.6001 -0.5883
-2.6171 1.2457 -0.2497
-2.6308 1.2389 -0.2458
-2.6437 1.2321 -0.2421
-2.6522 1.2218 -0.2399
-2.6583 1.2094 -0.2387
-2.6716 1.2050 -0.2347
-2.6751 1.1906 -0.2343
-2.6818 1.1799 -0.2328
-2.6932 1.1753 -0.2294
-2.7014 1.1673 -0.2273
-2.7095 1.1597 -0.2251
-2.7152 1.1494 -0.2238
-2.7200 1.1382 -0.2229
-2.7280 1.1316 -0.2207
-2.7374 1.1276 -0.2180
-1.4634 2.6110 -0.5887
-1.4327 2.5882 -0.6004
-1.4404 2.5441 -0.6001
-1.4932 2.4782 -0.5856
-1.5361 2.4191 -0.5740
-1.4709 2.3678 -0.5990
-1.5012 2.3150 -0.5914
-1.4779 2.2826 -0.6010
-1.5009 2.2332 -0.5958
-1.5594 2.1736 -0.5790
-1.5313 2.1411 -0.5903
-1.5388 2.0977 -0.5900
-1.5885 2.0445 -0.5759
-1.5684 1.9661 -0.5869
-1.5966 1.9197 -0.5797
-1.6114 1.8343 -0.5792
-1.5991 1.7500 -0.5878
-1.6201 1.7063 -0.5829
-1.6216 1.6196 -0.5870
-1.7071 1.5821 -0.5598
-1.6733 1.3602 -0.5830
-1.6937 1.3203 -0.5782
-1.7139 1.2811 -0.5733
-1.7149 1.2366 -0.5754
-1.6896 1.1823 -0.5868
-1.6941 0.9951 -0.5951
-1.7693 0.8447 -0.5775
-1.7949 0.8136 -0.5704
-1.7782 0.7544 -0.5792
-1.7609 0.6930 -0.5883
-2.6203 1.2455 -0.2665
-2.6315 1.2365 -0.2631
-2.6418 1.2271 -0.2601
-2.6520 1.2183 -0.2571
-2.6589 1.2066 -0.2554
-2.6697 1.1995 -0.2521
-2.6748 1.1867 -0.2510
-2.6847 1.1796 -0.2480
-2.6921 1.1701 -0.2460
-2.6987 1.1600 -0.2443
-2.7076 1.1532 -0.2416
-2.7187 1.1499 -0.2380
-2.7236 1.1388 -0.2369
-2.7260 1.1245 -0.2368
-1.5104 2.6678 -0.6144
-1.5314 2.6180 -0.6095
-1.5532 2.5313 -0.6064
-1.5666 2.4868 -0.6040
-1.5465 2.4206 -0.6153
-1.6732 1.8713 -0.6001
-1.6912 1.6239 -0.6077
-1.6663 1.5797 -0.6195
-1.7244 1.5424 -0.6001
-1.7372 1.2864 -0.6102
-1.7626 1.2501 -0.6029
-1.7815 1.2127 -0.5980
-1.7528 1.1576 -0.6119
-1.7914 1.0839 -0.6018
-1.7882 0.9916 -0.6083
-1.8254 0.9207 -0.5986
-1.8213 0.8723 -0.6029
-1.8225 0.8265 -0.6051
-1.8247 0.7810 -0.6070
-2.6178 1.2403 -0.2857
-2.6257 1.2279 -0.2835
-2.6376 1.2198 -0.2795
-2.6543 1.2172 -0.2735
-2.6595 1.2038 -0.2723
-2.6719 1.1983 -0.2680
-2.6754 1.1836 -0.2676
-2.6861 1.1774 -0.2640
-2.6959 1.1707 -0.2608
-2.7040 1.1625 -0.2582
-2.7089 1.1507 -0.2571
-2.7192 1.1463 -0.2535
-2.7256 1.1372 -0.2517
-2.7303 1.1261 -0.2505
-2.7343 1.1141 -0.2497
-1.6968 2.5952 -0.5892
-1.6980 2.5279 -0.5930
-1.7097 2.4877 -0.5909
-1.6879 2.4657 -0.6010
-1.7174 2.4160 -0.5923
-1.7124 2.3843 -0.5963
-1.7320 2.2714 -0.5956
-1.7612 2.1902 -0.5890
-1.7787 2.1493 -0.5845
-1.7801 2.1140 -0.5862
