ply
format ascii 1.0
element vertex 2092
property float x
property float y
property float z
end_header
-3.6379 0.1292 -0.3275
-3.6293 0.1407 -0.3250
-3.6205 0.1514 -0.3232
-3.6102 0.1598 -0.3232
-3.6032 0.1723 -0.3195
-3.5942 0.1820 -0.3183
-3.5858 0.1922 -0.3164
-3.5758 0.2005 -0.3165
-3.5664 0.2094 -0.3159
-3.5570 0.2182 -0.3153
-3.5477 0.2270 -0.3148
-3.5412 0.2380 -0.3117
-3.5328 0.2471 -0.3104
-3.5251 0.2568 -0.3086
-3.5162 0.2653 -0.3080
-3.4999 0.2832 -0.3056
-3.4903 0.2911 -0.3057
-3.4840 0.3008 -0.3032
-3.4753 0.3091 -0.3026
-3.4666 0.3173 -0.3020
-3.4454 0.3203 -0.3104
-3.4375 0.3291 -0.3092
-3.4344 0.3506 -0.2984
-3.4300 0.3598 -0.2953
-3.4227 0.3680 -0.2941
-3.4176 0.3767 -0.2916
-3.4095 0.3845 -0.2910
-3.4004 0.3920 -0.2910
-3.3957 0.4004 -0.2885
-3.3866 0.4078 -0.2886
-3.3821 0.4160 -0.2861
-3.3709 0.4230 -0.2874
-3.3666 0.4310 -0.2849
-3.3577 0.4384 -0.2850
-3.3513 0.4459 -0.2838
-3.3449 0.4534 -0.2825
-3.3399 0.4609 -0.2807
-3.3350 0.4683 -0.2788
-3.8891 -0.1525 -0.3504
-3.8774 -0.1416 -0.3499
-3.8655 -0.1263 -0.3469
-3.8539 -0.1088 -0.3428
-3.8426 -0.0960 -0.3410
-3.8312 -0.0856 -0.3405
-3.8089 -0.0615 -0.3376
-3.7980 -0.0491 -0.3359
-3.7874 -0.0348 -0.3329
-3.7771 -0.0207 -0.3299
-3.7659 -0.0126 -0.3306
-3.7559 0.0013 -0.3277
-3.7454 0.0122 -0.3265
-3.7350 0.0230 -0.3254
-3.7047 0.0559 -0.3213
-3.6659 0.0991 -0.3155
-3.6559 0.1085 -0.3150
-3.6472 0.1202 -0.3126
-3.6391 0.1325 -0.3096
-3.6298 0.1424 -0.3085
-3.6201 0.1515 -0.3079
-3.6120 0.1627 -0.3056
-3.6020 0.1710 -0.3056
-3.5924 0.1800 -0.3051
-3.5847 0.1909 -0.3027
-3.5765 0.2010 -0.3009
-3.5654 0.2079 -0.3022
-3.5501 0.2284 -0.2981
-3.5438 0.2392 -0.2951
-3.5341 0.2472 -0.2952
-3.5244 0.2552 -0.2952
-3.5162 0.2642 -0.2941
-3.5081 0.2732 -0.2929
-3.4993 0.2816 -0.2923
-3.4835 0.2991 -0.2900
-3.4757 0.3078 -0.2889
-3.4680 0.3164 -0.2877
-3.4486 0.3200 -0.2945
-3.4362 0.3268 -0.2964
-3.4350 0.3379 -0.2909
-3.4381 0.3500 -0.2830
-3.4279 0.3573 -0.2837
-3.4236 0.3664 -0.2807
-3.4155 0.3743 -0.2802
-3.4096 0.3826 -0.2784
-3.4026 0.3905 -0.2772
-3.3958 0.3984 -0.2760
-3.3902 0.4064 -0.2743
-3.3824 0.4140 -0.2737
-3.3758 0.4216 -0.2725
-3.3658 0.4288 -0.2732
-3.3605 0.4365 -0.2714
-3.3541 0.4440 -0.2703
-3.3491 0.4515 -0.2685
-3.3455 0.4590 -0.2661
-3.3382 0.4662 -0.2655
-3.8861 -0.1473 -0.3317
-3.8748 -0.1471 -0.3364
-3.8629 -0.1270 -0.3313
-3.8514 -0.1051 -0.3250
-3.8179 -0.0695 -0.3212
-3.8071 -0.0561 -0.3189
-3.7962 -0.0448 -0.3178
-3.7858 -0.0306 -0.3150
-3.7754 -0.0186 -0.3133
-3.7534 -0.0016 -0.3141
-3.7438 0.0131 -0.3106
-3.7338 0.0248 -0.3090
-3.7236 0.0355 -0.3079
-3.7141 0.0479 -0.3056
-3.7044 0.0592 -0.3039
-3.6943 0.0688 -0.3034
-3.6859 0.0825 -0.3000
-3.6470 0.1213 -0.2968
-3.6391 0.1335 -0.2939
-3.6294 0.1426 -0.2934
-3.6208 0.1531 -0.2917
-3.6108 0.1614 -0.2918
-3.6002 0.1690 -0.2925
-3.5935 0.1813 -0.2890
-3.5755 0.1996 -0.2874
-3.5597 0.2195 -0.2840
-3.5506 0.2281 -0.2835
-3.5437 0.2383 -0.2812
-3.5259 0.2553 -0.2802
-3.5178 0.2642 -0.2791
-3.5083 0.2721 -0.2791
-3.4925 0.2896 -0.2769
-3.4855 0.2988 -0.2752
-3.4822 0.3095 -0.2712
-3.4694 0.3155 -0.2736
-3.4396 0.3265 -0.2807
-3.4319 0.3351 -0.2796
-3.4389 0.3486 -0.2697
-3.4327 0.3571 -0.2680
-3.4246 0.3649 -0.2675
-3.4166 0.3727 -0.2670
-3.4096 0.3807 -0.2659
-3.4027 0.3886 -0.2648
-3.3982 0.3969 -0.2625
-3.3938 0.4051 -0.2602
-3.3827 0.4120 -0.2614
-3.3761 0.4196 -0.2603
-3.3649 0.4266 -0.2615
-3.3583 0.4423 -0.2564
-3.3509 0.4495 -0.2558
-3.3448 0.4568 -0.2547
-3.3375 0.4640 -0.2542
-3.8717 -0.1362 -0.3151
-3.8601 -0.1174 -0.3108
-3.8489 -0.1036 -0.3086
-3.8376 -0.0943 -0.3087
-3.8053 -0.0505 -0.3006
-3.7943 -0.0425 -0.3013
-3.7838 -0.0304 -0.2997
-3.7732 -0.0194 -0.2986
-3.7635 -0.0045 -0.2954
-3.7532 0.0062 -0.2944
-3.7427 0.0160 -0.2939
-3.7333 0.0295 -0.2912
-3.7231 0.0391 -0.2907
-3.7126 0.0478 -0.2908
-3.7021 0.0564 -0.2908
-3.6932 0.0694 -0.2881
-3.6842 0.0814 -0.2860
-3.6747 0.0916 -0.2849
-3.6660 0.1034 -0.2828
-3.6566 0.1134 -0.2817
-3.6465 0.1217 -0.2818
-3.6377 0.1324 -0.2802
-3.6291 0.1429 -0.2786
-3.6122 0.1637 -0.2754
-3.6018 0.1712 -0.2760
-3.5924 0.1800 -0.2755
-3.5843 0.1902 -0.2739
-3.5697 0.2113 -0.2696
-3.5601 0.2193 -0.2696
-3.5504 0.2273 -0.2697
-3.5408 0.2352 -0.2698
-3.5326 0.2443 -0.2687
-3.5252 0.2538 -0.2671
-3.5100 0.2720 -0.2644
-3.5014 0.2803 -0.2639
-3.4936 0.2890 -0.2629
-3.4885 0.2989 -0.2602
-3.4801 0.3070 -0.2597
-3.4691 0.3138 -0.2608
-3.4402 0.3250 -0.2671
-3.4355 0.3347 -0.2644
-3.4427 0.3482 -0.2549
-3.4346 0.3559 -0.2544
-3.4277 0.3640 -0.2534
-3.4197 0.3717 -0.2529
-3.4139 0.3799 -0.2513
-3.4050 0.3872 -0.2513
-3.3984 0.3950 -0.2503
-3.3918 0.4028 -0.2492
-3.3841 0.4102 -0.2487
-3.3765 0.4176 -0.2482
-3.3713 0.4254 -0.2466
-3.3588 0.4402 -0.2444
-3.3527 0.4475 -0.2434
-3.3454 0.4547 -0.2429
-3.3382 0.4618 -0.2424
-3.8807 -0.1511 -0.3017
-3.8690 -0.1345 -0.2987
-3.8464 -0.0997 -0.2915
-3.8353 -0.0894 -0.2910
-3.8244 -0.0769 -0.2895
-3.8133 -0.0689 -0.2901
-3.8029 -0.0534 -0.2870
-3.7924 -0.0402 -0.2850
-3.7819 -0.0292 -0.2840
-3.7721 -0.0142 -0.2809
-3.7614 -0.0054 -0.2810
-3.7512 0.0054 -0.2800
-3.7410 0.0161 -0.2790
-3.7309 0.0267 -0.2780
-3.7215 0.0391 -0.2760
-3.6936 0.0737 -0.2709
-3.6848 0.0855 -0.2689
-3.6761 0.0973 -0.2668
-3.6645 0.1023 -0.2690
-3.6556 0.1131 -0.2675
-3.6451 0.1206 -0.2681
-3.6378 0.1335 -0.2650
-3.6288 0.1433 -0.2640
-3.6110 0.1625 -0.2620
-3.5936 0.1815 -0.2600
-3.5845 0.1902 -0.2595
-3.5760 0.1995 -0.2585
-3.5676 0.2088 -0.2575
-3.5579 0.2167 -0.2576
-3.5517 0.2276 -0.2550
-3.5369 0.2467 -0.2519
-3.5290 0.2556 -0.2509
-3.5204 0.2638 -0.2505
-3.5103 0.2710 -0.2511
-3.5049 0.2812 -0.2485
-3.4932 0.2874 -0.2501
-3.4881 0.2974 -0.2475
-3.4806 0.3058 -0.2465
-3.4733 0.3142 -0.2455
-3.4513 0.3162 -0.2530
-3.4420 0.3354 -0.2478
-3.4336 0.3539 -0.2426
-3.4256 0.3616 -0.2422
-3.4208 0.3702 -0.2401
-3.4130 0.3778 -0.2396
-3.3986 0.3931 -0.2381
-3.3886 0.4002 -0.2387
-3.3809 0.4077 -0.2382
-3.3792 0.4161 -0.2351
-3.3729 0.4235 -0.2341
-3.3667 0.4310 -0.2331
-3.3556 0.4378 -0.2342
-3.3546 0.4456 -0.2311
-3.3460 0.4526 -0.2311
-3.3414 0.4599 -0.2296
-3.8780 -0.1517 -0.2863
-3.8550 -0.1118 -0.2775
-3.8440 -0.0969 -0.2751
-3.8331 -0.0856 -0.2742
-3.8223 -0.0732 -0.2727
-3.8114 -0.0642 -0.2728
-3.8008 -0.0520 -0.2714
-3.7907 -0.0367 -0.2685
-3.7800 -0.0279 -0.2685
-3.7697 -0.0170 -0.2676
-3.7596 -0.0052 -0.2662
-3.7494 0.0055 -0.2652
-3.7393 0.0162 -0.2643
-3.7301 0.0296 -0.2619
-3.7191 0.0363 -0.2629
-3.7102 0.0495 -0.2605
-3.7015 0.0625 -0.2581
-3.6916 0.0718 -0.2576
-3.6817 0.0811 -0.2572
-3.6723 0.0912 -0.2563
-3.6634 0.1021 -0.2548
-3.6550 0.1136 -0.2529
-3.6450 0.1219 -0.2529
-3.6374 0.1340 -0.2505
-3.6290 0.1444 -0.2491
-3.6104 0.1621 -0.2482
-3.6029 0.1729 -0.2462
-3.5943 0.1823 -0.2453
-3.5841 0.1896 -0.2459
-3.5769 0.2002 -0.2439
-3.5692 0.2100 -0.2425
-3.5597 0.2178 -0.2425
-3.5516 0.2269 -0.2416
-3.5435 0.2359 -0.2406
-3.5362 0.2453 -0.2392
-3.5261 0.2525 -0.2398
-3.5159 0.2598 -0.2403
-3.5121 0.2711 -0.2369
-3.5045 0.2797 -0.2359
-3.4944 0.2868 -0.2365
-3.4886 0.2963 -0.2345
-3.4794 0.3038 -0.2346
-3.4721 0.3122 -0.2336
-3.4500 0.3141 -0.2407
-3.4380 0.3322 -0.2373
-3.4346 0.3525 -0.2299
-3.4308 0.3614 -0.2274
-3.4230 0.3690 -0.2270
-3.4185 0.3774 -0.2250
-3.3999 0.3915 -0.2256
-3.3946 0.3994 -0.2241
-3.3894 0.4072 -0.2227
-3.3796 0.4141 -0.2232
-3.3746 0.4218 -0.2218
-3.3660 0.4288 -0.2218
-3.3586 0.4360 -0.2214
-3.3514 0.4432 -0.2209
-3.3441 0.4504 -0.2205
-3.3408 0.4577 -0.2185
-3.8859 -0.1447 -0.2644
-3.8635 -0.1216 -0.2626
-3.8525 -0.1101 -0.2618
-3.8416 -0.0964 -0.2599
-3.8202 -0.0694 -0.2563
-3.8094 -0.0605 -0.2564
-3.7990 -0.0484 -0.2550
-3.7894 -0.0311 -0.2513
-3.7793 -0.0192 -0.2500
-3.7679 -0.0157 -0.2524
-3.7572 -0.0080 -0.2529
-3.7472 0.0037 -0.2516
-3.7377 0.0163 -0.2498
-3.7285 0.0297 -0.2475
-3.7182 0.0382 -0.2475
-3.7008 0.0643 -0.2429
-3.6917 0.0753 -0.2416
-3.6820 0.0845 -0.2412
-3.6739 0.0970 -0.2389
-3.6644 0.1061 -0.2384
-3.6549 0.1150 -0.2380
-3.6441 0.1216 -0.2390
-3.6361 0.1329 -0.2372
-3.6287 0.1449 -0.2349
-3.6206 0.1551 -0.2335
-3.6103 0.1624 -0.2341
-3.6012 0.1711 -0.2337
-3.5933 0.1811 -0.2323
-3.5843 0.1897 -0.2319
-3.5760 0.1989 -0.2310
-3.5684 0.2087 -0.2296
-3.5602 0.2178 -0.2287
-3.5515 0.2262 -0.2283
-3.5456 0.2369 -0.2260
-3.5371 0.2451 -0.2256
-3.5270 0.2522 -0.2261
-3.5185 0.2604 -0.2257
-3.5084 0.2676 -0.2262
-3.5057 0.2792 -0.2225
-3.4882 0.2948 -0.2221
-3.4791 0.3023 -0.2222
-3.4736 0.3115 -0.2203
-3.4609 0.3173 -0.2223
-3.4432 0.3213 -0.2267
-3.4359 0.3298 -0.2258
-3.4365 0.3409 -0.2210
-3.4366 0.3514 -0.2168
-3.4298 0.3594 -0.2159
-3.4176 0.3753 -0.2136
-3.4122 0.3833 -0.2122
-3.4024 0.3902 -0.2128
-3.3949 0.3976 -0.2123
-3.3898 0.4053 -0.2110
-3.3836 0.4128 -0.2101
-3.3762 0.4200 -0.2096
-3.3702 0.4274 -0.2087
-3.3642 0.4346 -0.2078
-3.3571 0.4417 -0.2074
-3.3525 0.4489 -0.2060
-3.8724 -0.1433 -0.2523
-3.8610 -0.1257 -0.2493
-3.8391 -0.0970 -0.2454
-3.8285 -0.0811 -0.2428
-3.8180 -0.0689 -0.2415
-3.8077 -0.0556 -0.2398
-3.7970 -0.0469 -0.2399
-3.7868 -0.0349 -0.2386
-3.7766 -0.0241 -0.2378
-3.7668 -0.0113 -0.2361
-3.7574 0.0024 -0.2339
-3.7475 0.0129 -0.2331
-3.7375 0.0223 -0.2327
-3.7275 0.0318 -0.2323
-3.7176 0.0411 -0.2319
-3.7092 0.0551 -0.2293
-3.6998 0.0653 -0.2285
-3.6912 0.0771 -0.2268
-3.6808 0.0845 -0.2273
-3.6724 0.0961 -0.2256
-3.6531 0.1132 -0.2252
-3.6442 0.1230 -0.2244
-3.6363 0.1342 -0.2227
-3.6194 0.1540 -0.2206
-3.6103 0.1627 -0.2202
-3.6024 0.1728 -0.2189
-3.5846 0.1899 -0.2181
-3.5757 0.1984 -0.2177
-3.5669 0.2069 -0.2173
-3.5594 0.2165 -0.2161
-3.5514 0.2255 -0.2152
-3.5450 0.2356 -0.2135
-3.5372 0.2444 -0.2126
-3.5302 0.2536 -0.2114
-3.5203 0.2607 -0.2119
-3.5127 0.2693 -0.2110
-3.5028 0.2763 -0.2115
-3.4961 0.2853 -0.2102
-3.4896 0.2942 -0.2089
-3.4851 0.3039 -0.2067
-3.4743 0.3104 -0.2077
-3.4654 0.3178 -0.2078
-3.4468 0.3212 -0.2123
-3.4347 0.3277 -0.2137
-3.4320 0.3583 -0.2031
-3.4178 0.3736 -0.2018
-3.4113 0.3813 -0.2010
-3.4027 0.3884 -0.2011
-3.3987 0.3965 -0.1993
-3.3866 0.4028 -0.2007
-3.3840 0.4109 -0.1985
-3.3767 0.4181 -0.1981
-3.3720 0.4256 -0.1968
-3.3673 0.4330 -0.1955
-3.3603 0.4400 -0.1951
-3.3532 0.4470 -0.1947
-3.3463 0.4539 -0.1943
-3.8584 -0.1167 -0.2312
-3.8476 -0.1041 -0.2300
-3.8264 -0.0783 -0.2273
-3.8160 -0.0650 -0.2256
-3.8058 -0.0529 -0.2245
-3.7955 -0.0421 -0.2237
-3.7853 -0.0313 -0.2229
-3.7752 -0.0206 -0.2221
-3.7654 -0.0089 -0.2210
-3.7557 0.0027 -0.2198
-3.7457 0.0122 -0.2194
-3.7359 0.0226 -0.2186
-3.7271 0.0358 -0.2166
-3.7170 0.0441 -0.2167
-3.7072 0.0534 -0.2163
-3.6985 0.0653 -0.2147
-3.6718 0.0969 -0.2115
-3.6531 0.1148 -0.2108
-3.6457 0.1268 -0.2088
-3.6350 0.1332 -0.2097
-3.6279 0.1451 -0.2076
-3.6183 0.1530 -0.2077
-3.6093 0.1616 -0.2073
-3.6020 0.1724 -0.2057
-3.5836 0.1887 -0.2054
-3.5761 0.1985 -0.2042
-3.5687 0.2082 -0.2030
-3.5514 0.2249 -0.2023
-3.5428 0.2331 -0.2019
-3.5328 0.2402 -0.2024
-3.5274 0.2506 -0.2003
-3.5198 0.2593 -0.1996
-3.5048 0.2764 -0.1980
-3.4983 0.2853 -0.1968
-3.4920 0.2942 -0.1956
-3.4830 0.3015 -0.1956
-3.4760 0.3098 -0.1948
-3.4680 0.3175 -0.1945
-3.4496 0.3208 -0.1988
-3.4385 0.3275 -0.1997
-3.4354 0.3372 -0.1972
-3.4321 0.3567 -0.1913
-3.4245 0.3641 -0.1910
-3.4180 0.3719 -0.1902
-3.4138 0.3801 -0.1885
-3.4019 0.3864 -0.1899
-3.3979 0.3944 -0.1882
-3.3917 0.4019 -0.1874
-3.3845 0.4091 -0.1871
-3.3772 0.4162 -0.1867
-3.3738 0.4239 -0.1850
-3.3679 0.4311 -0.1842
-3.3609 0.4380 -0.1839
-3.3513 0.4448 -0.1843
-3.8453 -0.0987 -0.2138
-3.8347 -0.0864 -0.2127
-3.8241 -0.0777 -0.2128
-3.8137 -0.0667 -0.2121
-3.8034 -0.0557 -0.2113
-3.7930 -0.0459 -0.2110
-3.7834 -0.0308 -0.2087
-3.7734 -0.0201 -0.2080
-3.7638 -0.0074 -0.2065
-3.7550 0.0082 -0.2038
-3.7349 0.0248 -0.2040
-3.7262 0.0380 -0.2021
-3.7159 0.0453 -0.2025
-3.7069 0.0563 -0.2014
-3.6980 0.0673 -0.2003
-3.6885 0.0763 -0.2000
-3.6798 0.0871 -0.1988
-3.6708 0.0969 -0.1981
-3.6619 0.1067 -0.1974
-3.6536 0.1172 -0.1963
-3.6435 0.1243 -0.1967
-3.6343 0.1330 -0.1964
-3.6262 0.1433 -0.1953
-3.6188 0.1543 -0.1938
-3.6093 0.1621 -0.1938
-3.6016 0.1721 -0.1927
-3.5933 0.1813 -0.1920
-3.5858 0.1911 -0.1908
-3.5765 0.1987 -0.1909
-3.5679 0.2071 -0.1906
-3.5600 0.2160 -0.1898
-3.5521 0.2249 -0.1891
-3.5458 0.2349 -0.1876
-3.5375 0.2430 -0.1872
-3.5284 0.2505 -0.1873
-3.5209 0.2591 -0.1866
-3.5143 0.2681 -0.1854
-3.5086 0.2776 -0.1839
-3.4980 0.2839 -0.1848
-3.4926 0.2932 -0.1832
-3.4819 0.2996 -0.1841
-3.4767 0.3087 -0.1825
-3.4679 0.3160 -0.1826
-3.4494 0.3192 -0.1866
-3.4404 0.3266 -0.1867
-3.4354 0.3356 -0.1852
-3.4388 0.3472 -0.1804
-3.4322 0.3550 -0.1797
-3.4289 0.3638 -0.1778
-3.4259 0.3723 -0.1758
-3.4090 0.3862 -0.1759
-3.3983 0.3927 -0.1768
-3.3934 0.4003 -0.1757
-3.3861 0.4075 -0.1753
-3.3827 0.4152 -0.1738
-3.3756 0.4222 -0.1734
-3.3686 0.4292 -0.1731
-3.3616 0.4361 -0.1727
-3.3560 0.4432 -0.1720
-3.3465 0.4498 -0.1724
-3.8535 -0.1055 -0.1990
-3.8430 -0.0956 -0.1987
-3.8327 -0.0810 -0.1969
-3.8223 -0.0701 -0.1963
-3.7816 -0.0292 -0.1943
-3.7715 -0.0197 -0.1940
-3.7621 -0.0070 -0.1926
-3.7530 0.0065 -0.1909
-3.7427 0.0138 -0.1913
-3.7334 0.0251 -0.1903
-3.7234 0.0334 -0.1903
-3.7062 0.0584 -0.1872
-3.6964 0.0665 -0.1872
-3.6881 0.0783 -0.1858
-3.6791 0.0881 -0.1852
-3.6698 0.0970 -0.1849
-3.6606 0.1058 -0.1846
-3.6523 0.1163 -0.1835
-3.6427 0.1242 -0.1836
-3.6261 0.1439 -0.1819
-3.6188 0.1548 -0.1804
-3.6083 0.1611 -0.1812
-3.6023 0.1732 -0.1791
-3.5924 0.1802 -0.1795
-3.5850 0.1900 -0.1785
-3.5770 0.1990 -0.1778
-3.5613 0.2168 -0.1764
-3.5536 0.2256 -0.1758
-3.5445 0.2331 -0.1758
-3.5377 0.2423 -0.1748
-3.5286 0.2498 -0.1748
-3.5220 0.2589 -0.1738
-3.5147 0.2674 -0.1731
-3.5066 0.2752 -0.1728
-3.4986 0.2831 -0.1725
-3.4906 0.2909 -0.1722
-3.4835 0.2991 -0.1715
-3.4756 0.3068 -0.1712
-3.4659 0.3137 -0.1716
-3.4513 0.3185 -0.1739
-3.4423 0.3258 -0.1739
-3.4394 0.3355 -0.1718
-3.4441 0.3474 -0.1670
-3.4324 0.3534 -0.1682
-3.4292 0.3621 -0.1664
-3.4229 0.3698 -0.1657
-3.4144 0.3767 -0.1657
-3.4094 0.3845 -0.1647
-3.4033 0.3919 -0.1640
-3.3938 0.3986 -0.1644
-3.3867 0.4057 -0.1641
-3.3820 0.4132 -0.1630
-3.3712 0.4196 -0.1638
-3.3718 0.4276 -0.1613
-3.3623 0.4342 -0.1617
-3.3581 0.4414 -0.1606
-3.3513 0.4482 -0.1603
-3.8408 -0.0900 -0.1831
-3.8305 -0.0790 -0.1825
-3.8098 -0.0608 -0.1823
-3.7898 -0.0382 -0.1808
-3.7806 -0.0232 -0.1788
-3.7706 -0.0138 -0.1785
-3.7606 -0.0055 -0.1786
-3.7511 0.0060 -0.1776
-3.7414 0.0152 -0.1774
-3.7319 0.0255 -0.1767
-3.7231 0.0376 -0.1755
-3.7138 0.0477 -0.1748
-3.7043 0.0568 -0.1746
-3.6777 0.0873 -0.1724
-3.6689 0.0970 -0.1718
-3.6614 0.1093 -0.1701
-3.6524 0.1179 -0.1698
-3.6434 0.1266 -0.1696
-3.6349 0.1360 -0.1689
-3.6266 0.1454 -0.1683
-3.6177 0.1539 -0.1680
-3.6101 0.1638 -0.1671
-3.6014 0.1722 -0.1668
-3.5946 0.1828 -0.1655
-3.5860 0.1910 -0.1652
-3.5690 0.2075 -0.1646
-3.5606 0.2156 -0.1644
-3.5522 0.2238 -0.1641
-3.5439 0.2319 -0.1638
-3.5371 0.2411 -0.1628
-3.5289 0.2491 -0.1625
-3.5224 0.2582 -0.1616
-3.5143 0.2661 -0.1613
-3.5071 0.2744 -0.1607
-3.5000 0.2827 -0.1600
-3.4687 0.3135 -0.1589
-3.4531 0.3177 -0.1613
-3.4413 0.3239 -0.1624
-3.4359 0.3430 -0.1584
-3.4347 0.3525 -0.1561
-3.4294 0.3605 -0.1551
-3.4243 0.3684 -0.1541
-3.4170 0.3757 -0.1538
-3.4121 0.3834 -0.1528
-3.4038 0.3902 -0.1529
-3.3943 0.3968 -0.1533
-3.3884 0.4041 -0.1527
-3.3813 0.4112 -0.1524
-3.3756 0.4184 -0.1517
-3.3674 0.4251 -0.1518
-3.3644 0.4325 -0.1504
-3.3576 0.4393 -0.1502
-3.3521 0.4463 -0.1495
-3.8385 -0.0891 -0.1692
-3.8282 -0.0794 -0.1690
-3.8078 -0.0601 -0.1685
-3.7980 -0.0471 -0.1673
-3.7878 -0.0387 -0.1674
-3.7786 -0.0237 -0.1656
-3.7691 -0.0122 -0.1647
-3.7595 -0.0018 -0.1641
-3.7229 0.0420 -0.1610
-3.7135 0.0509 -0.1607
-3.7045 0.0609 -0.1601
-3.6952 0.0698 -0.1599
-3.6851 0.0768 -0.1603
-3.6755 0.0847 -0.1603
-3.6679 0.0971 -0.1588
-3.6602 0.1085 -0.1576
-3.6512 0.1171 -0.1574
-3.6427 0.1266 -0.1568
-3.6348 0.1368 -0.1559
-3.6271 0.1468 -0.1551
-3.6189 0.1560 -0.1545
-3.6091 0.1629 -0.1549
-3.6023 0.1735 -0.1537
-3.5931 0.1810 -0.1537
-3.5865 0.1914 -0.1525
-3.5774 0.1989 -0.1526
-3.5704 0.2084 -0.1517
-3.5607 0.2152 -0.1521
-3.5524 0.2233 -0.1518
-3.5463 0.2332 -0.1506
-3.5374 0.2405 -0.1507
-3.5300 0.2491 -0.1501
-3.5236 0.2581 -0.1492
-3.5164 0.2664 -0.1486
-3.5077 0.2737 -0.1487
-3.4989 0.2809 -0.1487
-3.4919 0.2891 -0.1482
-3.4841 0.2968 -0.1479
-3.4763 0.3045 -0.1476
-3.4695 0.3125 -0.1471
-3.4413 0.3223 -0.1507
-3.4354 0.3308 -0.1498
-3.4307 0.3593 -0.1436
-3.4268 0.3675 -0.1424
-3.4162 0.3737 -0.1431
-3.4090 0.3809 -0.1428
-3.4042 0.3885 -0.1419
-3.3960 0.3954 -0.1419
-3.3889 0.4024 -0.1417
-3.3869 0.4102 -0.1401
-3.3800 0.4171 -0.1399
-3.3732 0.4240 -0.1396
-3.3638 0.4305 -0.1400
-3.3597 0.4376 -0.1391
-3.3543 0.4445 -0.1385
-3.8363 -0.0883 -0.1555
-3.8261 -0.0774 -0.1549
-3.8159 -0.0690 -0.1550
-3.8059 -0.0582 -0.1545
-3.7961 -0.0464 -0.1537
-3.7867 -0.0324 -0.1524
-3.7765 -0.0253 -0.1527
-3.7668 -0.0148 -0.1522
-3.7574 -0.0034 -0.1514
-3.7475 0.0048 -0.1515
-3.7391 0.0192 -0.1498
-3.7309 0.0334 -0.1482
-3.7207 0.0394 -0.1488
-3.7116 0.0494 -0.1483
-3.7016 0.0564 -0.1487
-3.6930 0.0672 -0.1479
-3.6849 0.0788 -0.1468
-3.6765 0.0894 -0.1460
-3.6666 0.0964 -0.1463
-3.6585 0.1068 -0.1455
-3.6495 0.1155 -0.1453
-3.6406 0.1241 -0.1451
-3.6342 0.1367 -0.1434
-3.6255 0.1452 -0.1432
-3.6185 0.1559 -0.1421
-3.6093 0.1635 -0.1422
-3.6014 0.1726 -0.1417
-3.5767 0.1979 -0.1407
-3.5704 0.2081 -0.1396
-3.5600 0.2141 -0.1402
-3.5532 0.2234 -0.1394
-3.5465 0.2327 -0.1386
-3.5400 0.2418 -0.1378
-3.5296 0.2479 -0.1384
-3.5224 0.2563 -0.1379
-3.5136 0.2636 -0.1380
-3.5082 0.2730 -0.1369
-3.5004 0.2807 -0.1366
-3.4953 0.2898 -0.1355
-3.4876 0.2974 -0.1353
-3.4800 0.3049 -0.1351
-3.4724 0.3124 -0.1348
-3.4629 0.3191 -0.1352
-3.4453 0.3224 -0.1378
-3.4375 0.3300 -0.1376
-3.4372 0.3402 -0.1353
-3.4372 0.3502 -0.1331
-3.4310 0.3578 -0.1325
-3.4249 0.3653 -0.1320
-3.4177 0.3724 -0.1318
-3.4106 0.3795 -0.1315
-3.4024 0.3864 -0.1316
-3.3977 0.3939 -0.1308
-3.3907 0.4009 -0.1305
-3.3875 0.4085 -0.1294
-3.3807 0.4154 -0.1292
-3.3752 0.4224 -0.1286
-3.3685 0.4292 -0.1284
-3.3632 0.4361 -0.1279
-3.8341 -0.0861 -0.1416
-3.8242 -0.0729 -0.1406
-3.8142 -0.0634 -0.1404
-3.8043 -0.0528 -0.1400
-3.7939 -0.0479 -0.1408
-3.7844 -0.0351 -0.1399
-3.7751 -0.0224 -0.1389
-3.7653 -0.0131 -0.1387
-3.7558 -0.0028 -0.1382
-3.7464 0.0075 -0.1378
-3.7382 0.0218 -0.1363
-3.7285 0.0298 -0.1364
-3.7194 0.0398 -0.1359
-3.7097 0.0478 -0.1360
-3.7004 0.0567 -0.1358
-3.6930 0.0703 -0.1343
-3.6846 0.0810 -0.1336
-3.6752 0.0888 -0.1336
-3.6666 0.0983 -0.1332
-3.6586 0.1087 -0.1325
-3.6507 0.1190 -0.1317
-3.6414 0.1266 -0.1318
-3.6347 0.1384 -0.1306
-3.6261 0.1468 -0.1304
-3.6170 0.1543 -0.1304
-3.6090 0.1634 -0.1300
-3.5849 0.1895 -0.1288
-3.5766 0.1976 -0.1286
-3.5690 0.2064 -0.1282
-3.5601 0.2137 -0.1282
-3.5395 0.2407 -0.1263
-3.5237 0.2563 -0.1259
-3.5166 0.2646 -0.1254
-3.5088 0.2723 -0.1252
-3.5028 0.2810 -0.1245
-3.4970 0.2896 -0.1237
-3.4875 0.2961 -0.1241
-3.4799 0.3036 -0.1239
-3.4724 0.3111 -0.1236
-3.4639 0.3181 -0.1237
-3.4463 0.3213 -0.1261
-3.4366 0.3281 -0.1264
-3.4332 0.3372 -0.1252
-3.4385 0.3490 -0.1218
-3.4324 0.3566 -0.1213
-3.4230 0.3631 -0.1217
-3.4193 0.3712 -0.1207
-3.4134 0.3785 -0.1202
-3.4064 0.3855 -0.1200
-3.3995 0.3925 -0.1198
-3.3950 0.3999 -0.1190
-3.3857 0.4064 -0.1193
-3.3789 0.4132 -0.1191
-3.3734 0.4203 -0.1186
-3.3706 0.4276 -0.1176
-3.3627 0.4341 -0.1177
-3.3534 0.4405 -0.1180
-3.8321 -0.0815 -0.1275
-3.8120 -0.0649 -0.1276
-3.8020 -0.0554 -0.1275
-3.7925 -0.0426 -0.1266
-3.7827 -0.0332 -0.1264
-3.7735 -0.0206 -0.1256
-3.7641 -0.0103 -0.1252
-3.7554 0.0032 -0.1241
-3.7464 0.0144 -0.1234
-3.7370 0.0234 -0.1233
-3.7277 0.0324 -0.1231
-3.7193 0.0443 -0.1222
-3.6923 0.0716 -0.1215
-3.6829 0.0794 -0.1216
-3.6743 0.0890 -0.1212
-3.6649 0.0967 -0.1212
-3.6569 0.1071 -0.1206
-3.6486 0.1165 -0.1202
-3.6413 0.1276 -0.1193
-3.6321 0.1351 -0.1194
-3.6240 0.1443 -0.1190
-3.6166 0.1543 -0.1183
-3.6087 0.1633 -0.1179
-3.6015 0.1730 -0.1173
-3.5931 0.1812 -0.1171
-3.5848 0.1893 -0.1169
-3.5773 0.1980 -0.1165
-3.5691 0.2061 -0.1163
-3.5609 0.2140 -0.1161
-3.5536 0.2226 -0.1157
-3.5455 0.2305 -0.1155
-3.5383 0.2390 -0.1151
-3.5320 0.2480 -0.1145
-3.5258 0.2569 -0.1138
-3.5172 0.2640 -0.1139
-3.5103 0.2722 -0.1135
-3.5000 0.2782 -0.1140
-3.4941 0.2868 -0.1134
-3.4893 0.2958 -0.1125
-3.4828 0.3037 -0.1120
-3.4744 0.3107 -0.1121
-3.4504 0.3216 -0.1139
-3.4377 0.3270 -0.1149
-3.4344 0.3361 -0.1137
-3.4388 0.3476 -0.1110
-3.4316 0.3547 -0.1108
-3.4256 0.3622 -0.1103
-3.4174 0.3690 -0.1104
-3.4139 0.3770 -0.1095
-3.4069 0.3839 -0.1093
-3.4000 0.3909 -0.1091
-3.3956 0.3983 -0.1085
-3.3851 0.4045 -0.1090
-3.3822 0.4119 -0.1081
-3.3768 0.4189 -0.1077
-3.3622 0.4322 -0.1075
-3.8398 -0.0962 -0.1155
-3.8298 -0.0842 -0.1149
-3.8199 -0.0735 -0.1146
-3.8100 -0.0640 -0.1145
-3.8003 -0.0522 -0.1139
-3.7908 -0.0406 -0.1134
-3.7810 -0.0324 -0.1134
-3.7720 -0.0187 -0.1125
-3.7631 -0.0062 -0.1117
-3.7532 0.0007 -0.1120
-3.7442 0.0119 -0.1114
-3.7359 0.0250 -0.1105
-3.7267 0.0339 -0.1103
-3.7175 0.0428 -0.1102
-3.7087 0.0526 -0.1098
-3.6999 0.0623 -0.1095
-3.6909 0.0711 -0.1093
-3.6835 0.0835 -0.1084
-3.6743 0.0911 -0.1084
-3.6650 0.0988 -0.1085
-3.6567 0.1082 -0.1081
-3.6474 0.1158 -0.1082
-3.6321 0.1361 -0.1071
-3.6230 0.1436 -0.1071
-3.6162 0.1543 -0.1064
-3.6078 0.1625 -0.1062
-3.5930 0.1810 -0.1053
-3.5848 0.1891 -0.1051
-3.5773 0.1978 -0.1048
-3.5685 0.2051 -0.1048
-3.5618 0.2144 -0.1043
-3.5538 0.2223 -0.1041
-3.5387 0.2385 -0.1036
-3.5341 0.2487 -0.1026
-3.5263 0.2564 -0.1025
-3.5178 0.2634 -0.1025
-3.5034 0.2791 -0.1020
-3.4883 0.2941 -0.1017
-3.4818 0.3020 -0.1013
-3.4754 0.3098 -0.1010
-3.4630 0.3149 -0.1019
-3.4495 0.3197 -0.1030
-3.4379 0.3255 -0.1037
-3.4346 0.3346 -0.1027
-3.4380 0.3457 -0.1004
-3.4331 0.3536 -0.0998
-3.4294 0.3617 -0.0990
-3.4236 0.3691 -0.0987
-3.4155 0.3757 -0.0987
-3.4122 0.3835 -0.0979
-3.4031 0.3898 -0.0982
-3.3988 0.3972 -0.0976
-3.3896 0.4035 -0.0979
-3.3816 0.4100 -0.0979
-3.3789 0.4174 -0.0971
-3.3723 0.4241 -0.0970
-3.3658 0.4307 -0.0968
-3.8376 -0.0964 -0.1025
-3.8182 -0.0676 -0.1008
-3.7896 -0.0351 -0.0998
-3.7800 -0.0259 -0.0997
-3.7709 -0.0145 -0.0992
-3.7617 -0.0044 -0.0989
-3.7528 0.0068 -0.0985
-3.7425 0.0114 -0.0990
-3.7332 0.0204 -0.0989
-3.7239 0.0293 -0.0988
-3.7150 0.0392 -0.0985
-3.7058 0.0481 -0.0984
-3.6989 0.0628 -0.0972
-3.6899 0.0715 -0.0971
-3.6822 0.0829 -0.0964
-3.6730 0.0905 -0.0965
-3.6651 0.1009 -0.0960
-3.6483 0.1186 -0.0956
-3.6407 0.1287 -0.0951
-3.6327 0.1378 -0.0948
-3.6248 0.1469 -0.0945
-3.6176 0.1567 -0.0940
-3.6087 0.1640 -0.0941
-3.6011 0.1729 -0.0938
-3.5923 0.1802 -0.0939
-3.5848 0.1889 -0.0935
-3.5787 0.1991 -0.0929
-3.5627 0.2148 -0.0926
-3.5548 0.2226 -0.0925
-3.5485 0.2317 -0.0920
-3.5391 0.2381 -0.0923
-3.5329 0.2471 -0.0918
-3.5252 0.2547 -0.0916
-3.5176 0.2623 -0.0915
-3.5099 0.2699 -0.0914
-3.5033 0.2779 -0.0911
-3.4985 0.2870 -0.0904
-3.4902 0.2938 -0.0905
-3.4809 0.3002 -0.0907
-3.4755 0.3085 -0.0902
-3.4692 0.3163 -0.0899
-3.4411 0.3253 -0.0920
-3.4326 0.3323 -0.0921
-3.4368 0.3533 -0.0887
-3.4298 0.3603 -0.0886
-3.4252 0.3679 -0.0881
-3.4137 0.3736 -0.0887
-3.4092 0.3811 -0.0882
-3.4037 0.3882 -0.0878
-3.3970 0.3951 -0.0877
-3.3903 0.4018 -0.0876
-3.3849 0.4088 -0.0873
-3.3784 0.4155 -0.0871
-3.3758 0.4227 -0.0864
-3.3654 0.4288 -0.0869
-3.3603 0.4355 -0.0865
-3.8258 -0.0784 -0.0885
-3.8161 -0.0678 -0.0882
-3.8066 -0.0561 -0.0878
-3.7971 -0.0457 -0.0876
-3.7881 -0.0318 -0.0869
-3.7785 -0.0239 -0.0870
-3.7691 -0.0148 -0.0869
-3.7601 -0.0036 -0.0865
-3.7511 0.0065 -0.0863
-3.7416 0.0143 -0.0863
-3.7321 0.0221 -0.0864
-3.7236 0.0331 -0.0860
-3.7154 0.0449 -0.0854
-3.7075 0.0567 -0.0849
-3.6986 0.0653 -0.0848
-3.6905 0.0758 -0.0844
-3.6801 0.0805 -0.0849
-3.6709 0.0881 -0.0850
-3.6639 0.1003 -0.0843
-3.6562 0.1105 -0.0839
-3.6397 0.1280 -0.0835
-3.6334 0.1397 -0.0828
-3.6250 0.1479 -0.0827
-3.6156 0.1543 -0.0830
-3.6079 0.1633 -0.0827
-3.5997 0.1713 -0.0826
-3.5928 0.1809 -0.0822
-3.5861 0.1903 -0.0818
-3.5801 0.2004 -0.0812
-3.5715 0.2075 -0.0813
-3.5629 0.2146 -0.0814
-3.5558 0.2230 -0.0811
-3.5496 0.2320 -0.0807
-3.5419 0.2397 -0.0806
-3.5334 0.2466 -0.0807
-3.5182 0.2618 -0.0805
-3.5107 0.2693 -0.0804
-3.5050 0.2779 -0.0799
-3.4975 0.2853 -0.0798
-3.4911 0.2932 -0.0796
-3.4838 0.3005 -0.0795
-3.4765 0.3078 -0.0794
-3.4703 0.3155 -0.0791
-3.4413 0.3239 -0.0811
-3.4339 0.3313 -0.0810
-3.4375 0.3425 -0.0793
-3.4372 0.3518 -0.0783
-3.4325 0.3595 -0.0779
-3.4257 0.3664 -0.0778
-3.4142 0.3721 -0.0783
-3.4074 0.3790 -0.0782
-3.4031 0.3864 -0.0778
-3.3936 0.4007 -0.0771
-3.3883 0.4076 -0.0768
-3.3805 0.4141 -0.0769
-3.3754 0.4209 -0.0766
-3.3704 0.4276 -0.0763
-3.3627 0.4339 -0.0764
-3.8336 -0.0854 -0.0757
-3.8238 -0.0773 -0.0758
-3.8141 -0.0667 -0.0756
-3.8048 -0.0538 -0.0752
-3.7953 -0.0447 -0.0751
-3.7858 -0.0355 -0.0750
-3.7763 -0.0264 -0.0750
-3.7679 -0.0117 -0.0743
-3.7591 -0.0005 -0.0740
-3.7497 0.0073 -0.0741
-3.7416 0.0204 -0.0735
-3.7229 0.0358 -0.0736
-3.7146 0.0466 -0.0733
-3.7054 0.0542 -0.0734
-3.6972 0.0648 -0.0730
-3.6797 0.0819 -0.0729
-3.6718 0.0922 -0.0726
-3.6632 0.1006 -0.0725
-3.6566 0.1127 -0.0720
-3.6481 0.1209 -0.0719
-3.6392 0.1283 -0.0720
-3.6319 0.1382 -0.0716
-3.6236 0.1463 -0.0716
-3.6159 0.1553 -0.0714
-3.6077 0.1633 -0.0713
-3.5928 0.1808 -0.0709
-3.5861 0.1903 -0.0706
-3.5775 0.1974 -0.0706
-3.5703 0.2059 -0.0704
-3.5639 0.2151 -0.0701
-3.5569 0.2234 -0.0699
-3.5477 0.2298 -0.0701
-3.5416 0.2387 -0.0698
-3.5340 0.2463 -0.0697
-3.5264 0.2538 -0.0696
-3.5197 0.2619 -0.0694
-3.5105 0.2682 -0.0696
-3.5031 0.2757 -0.0695
-3.4984 0.2847 -0.0691
-3.4921 0.2925 -0.0689
-3.4848 0.2998 -0.0688
-3.4776 0.3070 -0.0687
-3.4685 0.3133 -0.0689
-3.4499 0.3156 -0.0702
-3.4396 0.3319 -0.0696
-3.4387 0.3508 -0.0679
-3.4284 0.3567 -0.0682
-3.4239 0.3643 -0.0678
-3.4172 0.3712 -0.0678
-3.4062 0.3854 -0.0673
-3.3996 0.3922 -0.0673
-3.3956 0.3994 -0.0669
-3.3878 0.4058 -0.0670
-3.3788 0.4120 -0.0671
-3.3750 0.4190 -0.0668
-3.3700 0.4257 -0.0666
-3.3664 0.4325 -0.0662
-3.8412 -0.0922 -0.0631
-3.8314 -0.0867 -0.0634
-3.8217 -0.0774 -0.0634
-3.8122 -0.0656 -0.0631
-3.8029 -0.0540 -0.0629
-3.7932 -0.0460 -0.0630
-3.7844 -0.0322 -0.0625
-3.7751 -0.0232 -0.0625
-3.7666 -0.0096 -0.0621
-3.7574 -0.0008 -0.0620
-3.7483 0.0081 -0.0620
-3.7397 0.0191 -0.0618
-3.7310 0.0289 -0.0616
-3.7214 0.0354 -0.0618
-3.7118 0.0420 -0.0620
-3.7029 0.0507 -0.0619
-3.6959 0.0644 -0.0614
-3.6875 0.0739 -0.0613
-3.6797 0.0843 -0.0610
-3.6715 0.0936 -0.0609
-3.6639 0.1038 -0.0606
-3.6545 0.1103 -0.0608
-3.6471 0.1203 -0.0606
-3.6387 0.1285 -0.0605
-3.6310 0.1376 -0.0604
-3.6151 0.1546 -0.0602
-3.6088 0.1650 -0.0599
-3.6014 0.1737 -0.0597
-3.5928 0.1809 -0.0598
-3.5842 0.1880 -0.0598
-3.5783 0.1980 -0.0595
-3.5698 0.2051 -0.0595
-3.5635 0.2142 -0.0593
-3.5573 0.2232 -0.0590
-3.5489 0.2302 -0.0591
-3.5413 0.2377 -0.0590
-3.5362 0.2472 -0.0587
-3.5287 0.2546 -0.0587
-3.5205 0.2615 -0.0587
-3.5122 0.2683 -0.0588
-3.5057 0.2762 -0.0586
-3.4984 0.2836 -0.0586
-3.4921 0.2914 -0.0584
-3.4869 0.2996 -0.0582
-3.4788 0.3063 -0.0582
-3.4707 0.3130 -0.0583
-3.4615 0.3192 -0.0584
-3.4449 0.3225 -0.0593
-3.4355 0.3289 -0.0594
-3.4369 0.3487 -0.0579
-3.4312 0.3560 -0.0578
-3.4233 0.3626 -0.0578
-3.4201 0.3704 -0.0574
-3.4135 0.3772 -0.0574
-3.4094 0.3845 -0.0571
-3.4003 0.3907 -0.0573
-3.3938 0.3973 -0.0572
-3.3874 0.4040 -0.0572
-3.3849 0.4112 -0.0568
-3.3813 0.4182 -0.0565
-3.3647 0.4305 -0.0567
-3.8488 -0.1002 -0.0508
-3.8392 -0.0896 -0.0507
-3.8296 -0.0791 -0.0506
-3.8199 -0.0737 -0.0508
-3.8104 -0.0633 -0.0507
-3.8009 -0.0541 -0.0507
-3.7824 -0.0336 -0.0506
-3.7731 -0.0245 -0.0506
-3.7648 -0.0098 -0.0502
-3.7557 -0.0010 -0.0502
-3.7471 0.0100 -0.0501
-3.7376 0.0166 -0.0502
-3.7286 0.0253 -0.0502
-3.7209 0.0383 -0.0499
-3.7128 0.0490 -0.0497
-3.7040 0.0575 -0.0497
-3.6946 0.0640 -0.0498
-3.6863 0.0734 -0.0498
-3.6789 0.0848 -0.0495
-3.6713 0.0951 -0.0494
-3.6540 0.1107 -0.0494
-3.6461 0.1198 -0.0493
-3.6383 0.1288 -0.0492
-3.6312 0.1387 -0.0491
-3.6143 0.1539 -0.0491
-3.6068 0.1627 -0.0490
-3.6001 0.1722 -0.0489
-3.5902 0.1778 -0.0491
-3.5856 0.1895 -0.0487
-3.5785 0.1980 -0.0486
-3.5707 0.2057 -0.0486
-3.5630 0.2134 -0.0486
-3.5561 0.2217 -0.0485
-3.5485 0.2293 -0.0485
-3.5410 0.2368 -0.0484
-3.5343 0.2450 -0.0483
-3.5286 0.2537 -0.0482
-3.5212 0.2611 -0.0481
-3.5130 0.2678 -0.0482
-3.5066 0.2757 -0.0481
-3.5012 0.2841 -0.0479
-3.4970 0.2929 -0.0477
-3.4890 0.2995 -0.0477
-3.4789 0.3052 -0.0479
-3.4739 0.3132 -0.0478
-3.4628 0.3185 -0.0480
-3.4473 0.3220 -0.0486
-3.4358 0.3275 -0.0489
-3.4353 0.3372 -0.0484
-3.4329 0.3550 -0.0476
-3.4262 0.3619 -0.0476
-3.4207 0.3690 -0.0475
-3.4117 0.3751 -0.0476
-3.4088 0.3828 -0.0474
-3.4024 0.3894 -0.0473
-3.3959 0.3961 -0.0473
-3.3895 0.4027 -0.0473
-3.3845 0.4094 -0.0472
-3.3809 0.4164 -0.0470
-3.3747 0.4228 -0.0470
-3.3658 0.4288 -0.0471
-3.8466 -0.1015 -0.0386
-3.8371 -0.0896 -0.0386
-3.8276 -0.0778 -0.0385
-3.8179 -0.0725 -0.0386
-3.8083 -0.0646 -0.0387
-3.7992 -0.0518 -0.0386
-3.7902 -0.0403 -0.0385
-3.7812 -0.0289 -0.0385
-3.7724 -0.0177 -0.0384
-3.7638 -0.0065 -0.0383
-3.7543 -0.0001 -0.0384
-3.7455 0.0098 -0.0384
-3.7374 0.0218 -0.0383
-3.7286 0.0305 -0.0383
-3.7201 0.0401 -0.0383
-3.7114 0.0486 -0.0383
-3.7034 0.0592 -0.0382
-3.6959 0.0707 -0.0381
-3.6858 0.0750 -0.0383
-3.6777 0.0844 -0.0383
-3.6684 0.0908 -0.0384
-3.6618 0.1029 -0.0382
-3.6534 0.1111 -0.0382
-3.6461 0.1211 -0.0381
-3.6390 0.1309 -0.0380
-3.6309 0.1390 -0.0381
-3.6222 0.1461 -0.0381
-3.6147 0.1549 -0.0381
-3.6073 0.1637 -0.0380
-3.6007 0.1732 -0.0380
-3.5915 0.1794 -0.0381
-3.5843 0.1880 -0.0380
-3.5773 0.1965 -0.0380
-3.5695 0.2042 -0.0380
-3.5558 0.2208 -0.0379
-3.5498 0.2298 -0.0378
-3.5423 0.2372 -0.0378
-3.5341 0.2440 -0.0379
-3.5284 0.2527 -0.0378
-3.5147 0.2680 -0.0378
-3.5075 0.2753 -0.0378
-3.5013 0.2831 -0.0377
-3.4942 0.2902 -0.0377
-3.4871 0.2974 -0.0377
-3.4811 0.3050 -0.0377
-3.4711 0.3106 -0.0378
-3.4662 0.3186 -0.0377
-3.4454 0.3198 -0.0384
-3.4312 0.3342 -0.0384
-3.4401 0.3468 -0.0377
-3.4334 0.3537 -0.0377
-3.4291 0.3612 -0.0376
-3.4238 0.3683 -0.0376
-3.4136 0.3740 -0.0377
-3.4071 0.3807 -0.0377
-3.4019 0.3877 -0.0377
-3.3955 0.3943 -0.0377
-3.3904 0.4011 -0.0376
-3.3881 0.4083 -0.0374
-3.3792 0.4144 -0.0375
-3.3757 0.4212 -0.0374
-3.3710 0.4277 -0.0374
-3.8444 -0.1027 -0.0265
-3.8350 -0.0895 -0.0265
-3.7979 -0.0469 -0.0266
-3.7883 -0.0404 -0.0267
-3.7791 -0.0314 -0.0268
-3.7707 -0.0178 -0.0267
-3.7621 -0.0067 -0.0268
-3.7529 0.0009 -0.0268
-3.7359 0.0216 -0.0268
-3.7277 0.0324 -0.0269
-3.7190 0.0409 -0.0269
-3.7103 0.0494 -0.0269
-3.7025 0.0599 -0.0269
-3.6931 0.0663 -0.0270
-3.6863 0.0786 -0.0270
-3.6779 0.0869 -0.0270
-3.6695 0.0952 -0.0271
-3.6602 0.1015 -0.0271
-3.6436 0.1178 -0.0272
-3.6370 0.1286 -0.0272
-3.6300 0.1384 -0.0272
-3.6231 0.1481 -0.0272
-3.6158 0.1569 -0.0272
-3.6079 0.1647 -0.0273
-3.5994 0.1717 -0.0273
-3.5929 0.1811 -0.0273
-3.5845 0.1880 -0.0274
-3.5775 0.1965 -0.0274
-3.5706 0.2049 -0.0274
-3.5637 0.2132 -0.0274
-3.5578 0.2221 -0.0274
-3.5503 0.2296 -0.0274
-3.5429 0.2370 -0.0275
-3.5356 0.2444 -0.0275
-3.5283 0.2518 -0.0275
-3.5210 0.2591 -0.0276
-3.5066 0.2737 -0.0276
-3.5032 0.2832 -0.0276
-3.4972 0.2908 -0.0276
-3.4883 0.2968 -0.0277
-3.4793 0.3029 -0.0277
-3.4734 0.3104 -0.0277
-3.4655 0.3170 -0.0278
-3.4468 0.3190 -0.0281
-3.4375 0.3253 -0.0281
-3.4316 0.3329 -0.0281
-3.4394 0.3451 -0.0279
-3.4363 0.3531 -0.0278
-3.4297 0.3599 -0.0279
-3.4196 0.3655 -0.0280
-3.4131 0.3723 -0.0280
-3.4103 0.3799 -0.0279
-3.4065 0.3871 -0.0279
-3.3989 0.3933 -0.0280
-3.3952 0.4004 -0.0280
-3.3917 0.4073 -0.0279
-3.3829 0.4132 -0.0280
-3.3740 0.4192 -0.0281
-3.8056 -0.0521 -0.0149
-3.7961 -0.0457 -0.0150
-3.7870 -0.0368 -0.0150
-3.7779 -0.0279 -0.0151
-3.7690 -0.0179 -0.0152
-3.7600 -0.0091 -0.0153
-3.7515 0.0019 -0.0154
-3.7344 0.0214 -0.0155
-3.7260 0.0311 -0.0156
-3.7179 0.0418 -0.0157
-3.7090 0.0491 -0.0157
-3.7015 0.0607 -0.0158
-3.6927 0.0680 -0.0159
-3.6851 0.0783 -0.0160
-3.6702 0.0986 -0.0161
-3.6616 0.1058 -0.0162
-3.6534 0.1139 -0.0163
-3.6432 0.1182 -0.0163
-3.6372 0.1299 -0.0164
-3.6292 0.1379 -0.0165
-3.6229 0.1484 -0.0165
-3.6145 0.1554 -0.0166
-3.6072 0.1641 -0.0167
-3.5994 0.1719 -0.0167
-3.5910 0.1788 -0.0168
-3.5847 0.1881 -0.0169
-3.5777 0.1965 -0.0169
-3.5709 0.2049 -0.0170
-3.5634 0.2124 -0.0171
-3.5567 0.2206 -0.0171
-3.5501 0.2288 -0.0172
-3.5435 0.2369 -0.0173
-3.5362 0.2442 -0.0173
-3.5281 0.2509 -0.0174
-3.5218 0.2588 -0.0174
-3.5138 0.2655 -0.0175
-3.5076 0.2733 -0.0176
-3.5024 0.2816 -0.0176
-3.4954 0.2887 -0.0177
-3.4885 0.2958 -0.0177
-3.4816 0.3028 -0.0178
-3.4768 0.3108 -0.0179
-3.4658 0.3158 -0.0179
-3.4449 0.3168 -0.0179
-3.4379 0.3240 -0.0179
-3.4331 0.3320 -0.0180
-3.4400 0.3439 -0.0181
-3.4392 0.3526 -0.0182
-3.4315 0.3589 -0.0182
-3.4239 0.3652 -0.0183
-3.4187 0.3722 -0.0184
-3.4123 0.3788 -0.0184
-3.4086 0.3860 -0.0185
-3.4049 0.3930 -0.0185
-3.3935 0.3984 -0.0186
-3.3887 0.4051 -0.0186
-3.3839 0.4117 -0.0187
-3.3765 0.4178 -0.0187
-3.8311 -0.0828 -0.0030
-3.8219 -0.0725 -0.0031
-3.8129 -0.0597 -0.0034
-3.8033 -0.0558 -0.0033
-3.7946 -0.0432 -0.0035
-3.7854 -0.0356 -0.0036
-3.7417 0.0127 -0.0042
-3.7338 0.0246 -0.0044
-3.7255 0.0342 -0.0045
-3.7169 0.0426 -0.0046
-3.7080 0.0500 -0.0047
-3.7003 0.0604 -0.0049
-3.6927 0.0708 -0.0050
-3.6747 0.0842 -0.0051
-3.6673 0.0944 -0.0053
-3.6601 0.1044 -0.0054
-3.6535 0.1153 -0.0056
-3.6369 0.1304 -0.0058
-3.6222 0.1479 -0.0060
-3.6150 0.1566 -0.0061
-3.6066 0.1635 -0.0062
-3.5995 0.1721 -0.0063
-3.5918 0.1798 -0.0064
-3.5855 0.1890 -0.0066
-3.5780 0.1966 -0.0067
-3.5712 0.2049 -0.0068
-3.5638 0.2124 -0.0069
-3.5564 0.2199 -0.0069
-3.5506 0.2287 -0.0071
-3.5450 0.2374 -0.0073
-3.5370 0.2440 -0.0073
-3.5272 0.2494 -0.0073
-3.5209 0.2573 -0.0074
-3.5147 0.2652 -0.0075
-3.5095 0.2735 -0.0077
-3.5015 0.2801 -0.0077
-3.4956 0.2877 -0.0078
-3.4877 0.2942 -0.0079
-3.4771 0.3097 -0.0082
-3.4561 0.3202 -0.0081
-3.4383 0.3227 -0.0079
-3.4369 0.3320 -0.0081
-3.4359 0.3410 -0.0083
-3.4363 0.3502 -0.0086
-3.4322 0.3576 -0.0088
-3.4246 0.3639 -0.0088
-3.4207 0.3712 -0.0089
-3.4131 0.3774 -0.0090
-3.4081 0.3843 -0.0091
-3.4019 0.3907 -0.0092
-3.3984 0.3977 -0.0093
-3.3923 0.4041 -0.0094
-3.3836 0.4099 -0.0094
-3.3776 0.4163 -0.0095
-3.3702 0.4224 -0.0095
-3.8384 -0.0903 0.0086
-3.8106 -0.0647 0.0083
-3.8017 -0.0532 0.0081
-3.7929 -0.0419 0.0078
-3.7841 -0.0319 0.0076
-3.7667 -0.0120 0.0072
-3.7577 -0.0046 0.0072
-3.7497 0.0075 0.0069
-3.7415 0.0183 0.0066
-3.7330 0.0267 0.0065
-3.7241 0.0341 0.0064
-3.7159 0.0435 0.0063
-3.7082 0.0540 0.0060
-3.6994 0.0612 0.0060
-3.6911 0.0695 0.0058
-3.6845 0.0818 0.0055
-3.6750 0.0869 0.0055
-3.6677 0.0970 0.0053
-3.6601 0.1060 0.0051
-3.6520 0.1140 0.0050
-3.6440 0.1220 0.0049
-3.6377 0.1327 0.0046
-3.6293 0.1396 0.0045
-3.6221 0.1483 0.0043
-3.6143 0.1561 0.0042
-3.6066 0.1638 0.0041
-3.5969 0.1691 0.0042
-3.5919 0.1800 0.0038
-3.5844 0.1876 0.0037
-3.5768 0.1952 0.0036
-3.5708 0.2042 0.0034
-3.5642 0.2124 0.0032
-3.5569 0.2199 0.0031
-3.5496 0.2272 0.0030
-3.5423 0.2346 0.0028
-3.5360 0.2426 0.0027
-3.5297 0.2505 0.0025
-3.5226 0.2577 0.0024
-3.5156 0.2649 0.0023
-3.5096 0.2726 0.0021
-3.5026 0.2797 0.0020
-3.4957 0.2867 0.0019
-3.4909 0.2948 0.0017
-3.4852 0.3023 0.0015
-3.4785 0.3092 0.0014
-3.4686 0.3145 0.0014
-3.4521 0.3172 0.0019
-3.4431 0.3233 0.0019
-3.4363 0.3303 0.0018
-3.4392 0.3497 0.0007
-3.4328 0.3564 0.0006
-3.4277 0.3633 0.0005
-3.4239 0.3706 0.0002
-3.4165 0.3767 0.0002
-3.4103 0.3832 0.0001
-3.4028 0.3893 0.0000
-3.3994 0.3963 -0.0002
-3.3907 0.4021 -0.0002
-3.3846 0.4085 -0.0003
-3.3759 0.4143 -0.0003
-3.3685 0.4204 -0.0003
-3.8364 -0.0901 0.0201
-3.8272 -0.0811 0.0199
-3.8181 -0.0709 0.0197
-3.8092 -0.0594 0.0194
-3.8001 -0.0506 0.0192
-3.7917 -0.0368 0.0187
-3.7739 -0.0207 0.0185
-3.7653 -0.0108 0.0182
-3.7566 -0.0023 0.0181
-3.7481 0.0075 0.0179
-3.7395 0.0159 0.0177
-3.7315 0.0267 0.0174
-3.7227 0.0339 0.0173
-3.7139 0.0412 0.0173
-3.7066 0.0528 0.0168
-3.6982 0.0610 0.0167
-3.6899 0.0693 0.0166
-3.6842 0.0836 0.0159
-3.6762 0.0916 0.0157
-3.6672 0.0977 0.0158
-3.6596 0.1066 0.0155
-3.6511 0.1137 0.0155
-3.6364 0.1313 0.0150
-3.6303 0.1419 0.0146
-3.6226 0.1496 0.0145
-3.6137 0.1556 0.0145
-3.6066 0.1641 0.0143
-3.5997 0.1726 0.0140
-3.5928 0.1810 0.0138
-3.5853 0.1886 0.0137
-3.5779 0.1961 0.0135
-3.5728 0.2059 0.0131
-3.5647 0.2125 0.0131
-3.5574 0.2199 0.0129
-3.5510 0.2279 0.0127
-3.5439 0.2352 0.0126
-3.5367 0.2425 0.0124
-3.5305 0.2503 0.0122
-3.5226 0.2568 0.0121
-3.5156 0.2640 0.0120
-3.5096 0.2717 0.0118
-3.5028 0.2787 0.0116
-3.4969 0.2863 0.0114
-3.4932 0.2949 0.0110
-3.4855 0.3013 0.0110
-3.4778 0.3076 0.0109
-3.4690 0.3135 0.0110
-3.4569 0.3179 0.0113
-3.4446 0.3226 0.0115
-3.4367 0.3291 0.0115
-3.4399 0.3485 0.0100
-3.4335 0.3551 0.0099
-3.4285 0.3621 0.0097
-3.4235 0.3689 0.0095
-3.4148 0.3748 0.0095
-3.4086 0.3812 0.0094
-3.4012 0.3874 0.0093
-3.3964 0.3940 0.0091
-3.3930 0.4009 0.0088
-3.3898 0.4077 0.0085
-3.3812 0.4135 0.0085
-3.8344 -0.0886 0.0313
-3.8254 -0.0770 0.0309
-3.8074 -0.0580 0.0304
-3.7987 -0.0466 0.0300
-3.7812 -0.0280 0.0296
-3.7726 -0.0182 0.0293
-3.7637 -0.0108 0.0292
-3.7555 0.0001 0.0288
-3.7469 0.0086 0.0286
-3.7384 0.0170 0.0284
-3.7140 0.0455 0.0276
-3.7068 0.0570 0.0270
-3.6986 0.0651 0.0269
-3.6896 0.0711 0.0269
-3.6819 0.0803 0.0266
-3.6662 0.0974 0.0262
-3.6434 0.1231 0.0254
-3.6373 0.1337 0.0249
-3.6284 0.1397 0.0250
-3.6213 0.1483 0.0247
-3.6149 0.1577 0.0243
-3.6060 0.1636 0.0244
-3.5985 0.1713 0.0242
-3.5910 0.1789 0.0240
-3.5849 0.1880 0.0236
-3.5782 0.1963 0.0233
-3.5724 0.2052 0.0230
-3.5644 0.2119 0.0229
-3.5580 0.2199 0.0226
-3.5446 0.2352 0.0222
-3.5367 0.2417 0.0221
-3.5296 0.2489 0.0220
-3.5227 0.2560 0.0218
-3.5166 0.2638 0.0215
-3.5098 0.2708 0.0214
-3.5039 0.2784 0.0211
-3.4981 0.2860 0.0208
-3.4914 0.2929 0.0206
-3.4858 0.3003 0.0204
-3.4782 0.3066 0.0203
-3.4694 0.3124 0.0204
-3.4628 0.3192 0.0202
-3.4428 0.3205 0.0214
-3.4372 0.3279 0.0211
-3.4364 0.3369 0.0204
-3.4429 0.3482 0.0190
-3.4330 0.3535 0.0192
-3.4280 0.3605 0.0189
-3.4230 0.3673 0.0186
-3.4095 0.3799 0.0184
-3.4047 0.3866 0.0182
-3.3987 0.3929 0.0180
-3.3927 0.3993 0.0179
-3.3896 0.4060 0.0175
-3.3837 0.4122 0.0173
-3.3737 0.4178 0.0175
-3.8232 -0.0807 0.0425
-3.8145 -0.0666 0.0417
-3.8057 -0.0565 0.0414
-3.7971 -0.0452 0.0409
-3.7883 -0.0365 0.0407
-3.7795 -0.0279 0.0405
-3.7712 -0.0168 0.0400
-3.7628 -0.0071 0.0396
-3.7545 0.0026 0.0393
-3.7457 0.0098 0.0392
-3.7381 0.0217 0.0386
-3.7300 0.0311 0.0382
-3.7210 0.0371 0.0383
-3.7134 0.0476 0.0378
-3.7056 0.0568 0.0375
-3.6966 0.0628 0.0376
-3.6808 0.0801 0.0370
-3.6737 0.0902 0.0366
-3.6652 0.0971 0.0365
-3.6520 0.1178 0.0354
-3.6432 0.1237 0.0355
-3.6354 0.1315 0.0353
-3.6289 0.1411 0.0348
-3.6225 0.1506 0.0343
-3.6143 0.1573 0.0343
-3.6061 0.1640 0.0342
-3.6000 0.1733 0.0337
-3.5933 0.1816 0.0334
-3.5874 0.1907 0.0329
-3.5786 0.1965 0.0330
-3.5721 0.2046 0.0327
-3.5649 0.2120 0.0325
-3.5578 0.2193 0.0323
-3.5507 0.2265 0.0321
-3.5436 0.2338 0.0319
-3.5366 0.2409 0.0317
-3.5287 0.2474 0.0317
-3.5236 0.2559 0.0312
-3.5167 0.2629 0.0310
-3.5109 0.2706 0.0307
-3.5021 0.2764 0.0308
-3.4984 0.2851 0.0302
-3.4917 0.2919 0.0300
-3.4851 0.2988 0.0298
-3.4775 0.3051 0.0297
-3.4731 0.3129 0.0293
-3.4644 0.3186 0.0294
-3.4467 0.3207 0.0306
-3.4366 0.3262 0.0308
-3.4335 0.3344 0.0302
-3.4364 0.3445 0.0289
-3.4338 0.3523 0.0283
-3.4300 0.3596 0.0278
-3.4226 0.3657 0.0278
-3.4152 0.3718 0.0277
-3.4117 0.3789 0.0273
-3.4070 0.3856 0.0269
-3.4038 0.3924 0.0265
-3.3993 0.3989 0.0262
-3.3921 0.4049 0.0261
-3.3835 0.4106 0.0262
-3.3777 0.4167 0.0260
-3.8215 -0.0778 0.0533
-3.8126 -0.0676 0.0529
-3.8041 -0.0536 0.0519
-3.7956 -0.0424 0.0514
-3.7869 -0.0338 0.0511
-3.7782 -0.0252 0.0509
-3.7698 -0.0155 0.0505
-3.7615 -0.0058 0.0501
-3.7530 0.0026 0.0499
-3.7451 0.0134 0.0493
-3.7370 0.0228 0.0489
-3.7287 0.0311 0.0487
-3.7197 0.0371 0.0488
-3.7122 0.0475 0.0482
-3.7036 0.0546 0.0482
-3.6963 0.0649 0.0476
-3.6811 0.0830 0.0468
-3.6736 0.0920 0.0464
-3.6643 0.0969 0.0467
-3.6501 0.1156 0.0457
-3.6435 0.1253 0.0452
-3.6288 0.1416 0.0446
-3.6069 0.1653 0.0437
-3.5995 0.1728 0.0435
-3.5914 0.1795 0.0435
-3.5848 0.1878 0.0431
-3.5790 0.1967 0.0425
-3.5711 0.2033 0.0425
-3.5647 0.2114 0.0421
-3.5592 0.2201 0.0415
-3.5514 0.2266 0.0415
-3.5444 0.2338 0.0413
-3.5366 0.2402 0.0412
-3.5341 0.2507 0.0401
-3.5255 0.2564 0.0403
-3.5159 0.2615 0.0406
-3.5101 0.2691 0.0402
-3.5043 0.2767 0.0398
-3.4986 0.2842 0.0394
-3.4931 0.2916 0.0390
-3.4844 0.2973 0.0391
-3.4821 0.3062 0.0383
-3.4725 0.3114 0.0385
-3.4638 0.3171 0.0387
-3.4461 0.3191 0.0401
-3.4418 0.3269 0.0396
-3.4305 0.3319 0.0400
-3.4335 0.3421 0.0385
-3.4333 0.3507 0.0374
-3.4283 0.3577 0.0370
-3.4234 0.3645 0.0367
-3.4161 0.3706 0.0366
-3.4140 0.3779 0.0359
-3.4080 0.3843 0.0357
-3.4021 0.3905 0.0355
-3.3963 0.3968 0.0353
-3.3918 0.4032 0.0349
-3.3847 0.4091 0.0349
-3.3775 0.4150 0.0348
-3.8199 -0.0721 0.0634
-3.8114 -0.0594 0.0626
-3.8024 -0.0534 0.0627
-3.7936 -0.0448 0.0624
-3.7852 -0.0336 0.0618
-3.7770 -0.0226 0.0611
-3.7600 -0.0057 0.0606
-3.7518 0.0039 0.0602
-3.7437 0.0134 0.0597
-3.7359 0.0241 0.0591
-3.7271 0.0300 0.0592
-3.7195 0.0405 0.0586
-3.7121 0.0508 0.0579
-3.6956 0.0658 0.0576
-3.6796 0.0818 0.0571
-3.6736 0.0939 0.0561
-3.6648 0.0997 0.0562
-3.6570 0.1076 0.0560
-3.6498 0.1163 0.0555
-3.6427 0.1250 0.0551
-3.6351 0.1327 0.0548
-3.6281 0.1413 0.0544
-3.6219 0.1507 0.0537
-3.6138 0.1574 0.0537
-3.6071 0.1658 0.0532
-3.5990 0.1724 0.0532
-3.5917 0.1798 0.0529
-3.5852 0.1881 0.0525
-3.5780 0.1954 0.0523
-3.5716 0.2035 0.0518
-3.5583 0.2188 0.0511
-3.5513 0.2260 0.0509
-3.5443 0.2331 0.0506
-3.5392 0.2416 0.0500
-3.5324 0.2486 0.0498
-3.5247 0.2550 0.0497
-3.5179 0.2620 0.0495
-3.5112 0.2689 0.0492
-3.5055 0.2765 0.0488
-3.4979 0.2827 0.0487
-3.4924 0.2901 0.0483
-3.4869 0.2975 0.0479
-3.4804 0.3042 0.0476
-3.4762 0.3120 0.0470
-3.4632 0.3156 0.0479
-3.4477 0.3185 0.0492
-3.4377 0.3239 0.0495
-3.4323 0.3312 0.0491
-3.4378 0.3422 0.0469
-3.4353 0.3500 0.0461
-3.4304 0.3569 0.0457
-3.4268 0.3640 0.0451
-3.4234 0.3711 0.0445
-3.4162 0.3770 0.0444
-3.4104 0.3833 0.0442
-3.4032 0.3892 0.0441
-3.3930 0.4019 0.0435
-3.3859 0.4077 0.0434
-3.3816 0.4141 0.0430
-3.8181 -0.0704 0.0739
-3.8093 -0.0618 0.0736
-3.8010 -0.0492 0.0727
-3.7922 -0.0419 0.0726
-3.7756 -0.0211 0.0714
-3.7669 -0.0139 0.0713
-3.7585 -0.0055 0.0710
-3.7506 0.0053 0.0703
-3.7420 0.0123 0.0703
-3.7340 0.0218 0.0698
-3.7264 0.0323 0.0690
-3.7186 0.0416 0.0685
-3.7102 0.0486 0.0685
-3.7025 0.0578 0.0680
-3.6949 0.0669 0.0675
-3.6870 0.0748 0.0672
-3.6791 0.0828 0.0669
-3.6717 0.0917 0.0664
-3.6649 0.1016 0.0657
-3.6577 0.1104 0.0652
-3.6420 0.1248 0.0648
-3.6350 0.1334 0.0643
-3.6293 0.1438 0.0634
-3.6219 0.1513 0.0631
-3.6139 0.1579 0.0631
-3.6059 0.1645 0.0630
-3.5986 0.1720 0.0628
-3.5906 0.1786 0.0627
-3.5785 0.1957 0.0615
-3.5714 0.2030 0.0612
-3.5643 0.2103 0.0609
-3.5581 0.2182 0.0604
-3.5529 0.2268 0.0597
-3.5460 0.2339 0.0595
-3.5383 0.2403 0.0594
-3.5324 0.2480 0.0589
-3.5248 0.2543 0.0589
-3.5181 0.2612 0.0586
-3.5078 0.2769 0.0574
-3.4992 0.2825 0.0576
-3.4927 0.2893 0.0573
-3.4873 0.2966 0.0568
-3.4830 0.3044 0.0561
-3.4734 0.3095 0.0565
-3.4660 0.3156 0.0565
-3.4505 0.3184 0.0579
-3.4417 0.3242 0.0581
-3.4329 0.3300 0.0583
-3.4301 0.3381 0.0574
-3.4348 0.3485 0.0551
-3.4325 0.3561 0.0542
-3.4277 0.3629 0.0537
-3.4218 0.3692 0.0534
-3.4159 0.3755 0.0532
-3.4101 0.3817 0.0529
-3.4029 0.3876 0.0529
-3.3971 0.3938 0.0526
-3.3914 0.4000 0.0523
-3.3871 0.4063 0.0519
-3.8250 -0.0801 0.0851
-3.8163 -0.0701 0.0845
-3.7905 -0.0416 0.0831
-3.7825 -0.0293 0.0820
-3.7742 -0.0196 0.0815
-3.7577 -0.0017 0.0806
-3.7494 0.0066 0.0803
-3.7415 0.0161 0.0797
-3.7333 0.0243 0.0794
-3.7255 0.0336 0.0789
-3.7174 0.0417 0.0786
-3.7097 0.0509 0.0780
-3.7014 0.0578 0.0780
-3.6938 0.0668 0.0774
-3.6873 0.0780 0.0763
-3.6786 0.0837 0.0765
-3.6713 0.0926 0.0760
-3.6569 0.1102 0.0749
-3.6504 0.1199 0.0741
-3.6418 0.1255 0.0743
-3.6355 0.1351 0.0735
-3.6281 0.1426 0.0732
-3.6195 0.1483 0.0734
-3.6134 0.1576 0.0726
-3.6061 0.1650 0.0723
-3.5982 0.1716 0.0722
-3.5931 0.1815 0.0712
-3.5853 0.1880 0.0711
-3.5719 0.2033 0.0703
-3.5649 0.2105 0.0700
-3.5588 0.2184 0.0694
-3.5511 0.2248 0.0694
-3.5443 0.2319 0.0691
-3.5392 0.2403 0.0683
-3.5325 0.2473 0.0680
-3.5268 0.2549 0.0674
-3.5201 0.2618 0.0671
-3.5136 0.2687 0.0668
-3.5090 0.2767 0.0661
-3.5016 0.2829 0.0660
-3.4920 0.2879 0.0665
-3.4877 0.2957 0.0657
-3.4814 0.3024 0.0654
-3.4762 0.3096 0.0648
-3.4688 0.3157 0.0648
-3.4534 0.3183 0.0665
-3.4423 0.3231 0.0671
-3.4381 0.3396 0.0648
-3.4368 0.3478 0.0636
-3.4333 0.3550 0.0628
-3.4286 0.3617 0.0622
-3.4228 0.3680 0.0619
-3.4169 0.3742 0.0617
-3.4054 0.3866 0.0611
-3.3997 0.3928 0.0608
-3.3940 0.3989 0.0605
-3.3855 0.4045 0.0607
-3.3828 0.4110 0.0599
-4.3631 -0.9128 0.1884
-4.3864 -0.9209 0.1939
-4.5241 -1.0662 0.2399
-4.6738 -1.2368 0.2918
-4.7332 -1.3001 0.3117
-4.8128 -1.4030 0.3410
-4.9621 -1.5446 0.3887
-5.0359 -1.5974 0.4098
-5.0680 -1.5582 0.4103
-5.1165 -1.5497 0.4180
-7.5751 -1.8551 0.9167
-7.1721 -1.4887 0.7902
-6.9834 -1.2770 0.7253
-6.8493 -1.0249 0.6648
-6.4546 -0.6831 0.5433
-6.4029 -0.5948 0.5213
-6.3826 -0.5239 0.5075
-6.3779 -0.4620 0.4979
-6.2438 -0.3574 0.4582
-6.2071 -0.2926 0.4423
-6.1177 -0.2155 0.4148
-6.0583 -0.1522 0.3949
-6.0209 -0.0986 0.3804
-5.9611 -0.0428 0.3614
-5.9633 -0.0037 0.3562
-5.8161 0.0971 0.3147
-5.8063 0.1320 0.3080
-5.7517 0.1716 0.2923
-5.7080 0.2070 0.2792
-5.6836 0.2382 0.2702
-5.6997 0.2647 0.2695
-5.6598 0.2944 0.2579
-5.6280 0.3217 0.2481
-5.5948 0.3473 0.2383
-5.5857 0.3711 0.2333
-5.5860 0.3939 0.2301
-4.3536 -0.8877 0.1595
-4.3806 -0.9136 0.1673
-4.4856 -1.0430 0.2013
-4.5167 -1.0570 0.2083
-4.7886 -1.3563 0.2917
-4.8745 -1.4624 0.3195
-4.9356 -1.4985 0.3343
-5.0359 -1.6095 0.3652
-5.0792 -1.5914 0.3701
-5.1232 -1.5725 0.3751
-5.1334 -1.4910 0.3665
-7.5347 -2.0794 0.8429
-7.4453 -1.7670 0.7884
-7.0443 -1.3070 0.6630
-6.8749 -1.1196 0.6109
-6.8794 -1.0347 0.6009
-6.7346 -0.8811 0.5572
-6.5064 -0.7012 0.4962
-6.4669 -0.6164 0.4788
-6.4600 -0.5489 0.4691
-6.4384 -0.4785 0.4566
-6.3218 -0.3786 0.4244
-6.2206 -0.2912 0.3964
-6.1081 -0.2070 0.3669
-6.0491 -0.1442 0.3491
-6.0403 -0.0979 0.3417
-6.0053 -0.0473 0.3295
-5.9137 0.0122 0.3066
-5.8555 0.0605 0.2907
-5.8299 0.1001 0.2814
-5.7851 0.1405 0.2688
-5.7640 0.1753 0.2609
-5.6824 0.2435 0.2386
-5.6865 0.2709 0.2358
-5.6427 0.3005 0.2247
-5.5834 0.3526 0.2082
-5.5518 0.3764 0.1999
-5.5455 0.4204 0.1932
-4.3769 -0.9157 0.1423
-4.4329 -0.9574 0.1553
-4.4696 -1.0018 0.1657
-4.5542 -1.1013 0.1895
-4.5968 -1.1386 0.2000
-4.7837 -1.3572 0.2523
-4.9607 -1.5671 0.3022
-5.0065 -1.5595 0.3082
-5.0585 -1.5613 0.3162
-5.1020 -1.5427 0.3206
-5.2133 -1.6440 0.3485
-7.5137 -2.0610 0.7385
-7.5054 -1.9254 0.7221
-7.1087 -1.4408 0.6087
-6.9759 -1.2628 0.5690
-6.8871 -1.0331 0.5300
-6.7408 -0.8784 0.4909
-6.6885 -0.7774 0.4718
-6.5521 -0.6466 0.4368
-6.4032 -0.5208 0.4005
-6.3281 -0.4321 0.3794
-6.2481 -0.3476 0.3580
-6.1756 -0.2712 0.3386
-6.1099 -0.2019 0.3211
-6.0792 -0.1467 0.3103
-5.9359 -0.0261 0.2754
-5.9224 0.0159 0.2687
-5.8624 0.0647 0.2543
-5.8584 0.1009 0.2497
-5.8194 0.1409 0.2394
-5.6758 0.2492 0.2058
-5.6693 0.2773 0.2017
-5.6419 0.3057 0.1945
-5.5967 0.3330 0.1847
-5.5734 0.3578 0.1784
-5.5686 0.3812 0.1751
-5.5604 0.4038 0.1713
-5.5443 0.4254 0.1665
-5.5361 0.4462 0.1629
-4.3427 -0.8747 0.1088
-4.3693 -0.9004 0.1147
-4.4312 -0.9681 0.1294
-4.4662 -1.0056 0.1376
-4.5014 -1.0361 0.1451
-4.5523 -1.1104 0.1590
-4.5936 -1.1436 0.1676
-4.6539 -1.2236 0.1833
-4.7205 -1.3078 0.2001
-4.7846 -1.3730 0.2148
-4.8568 -1.4469 0.2314
-4.9256 -1.5012 0.2457
-5.0212 -1.6030 0.2680
-5.0386 -1.5324 0.2635
-5.0974 -1.5443 0.2723
-7.7841 -2.2505 0.6923
-7.8862 -2.0394 0.6853
-7.2691 -1.5329 0.5555
-6.7139 -1.0227 0.4335
-6.7205 -0.9431 0.4266
-6.8313 -0.9157 0.4385
-6.5825 -0.7242 0.3874
-6.4507 -0.5336 0.3517
-6.3438 -0.4321 0.3279
-6.2616 -0.3464 0.3088
-6.1320 -0.2519 0.2827
-6.1319 -0.2026 0.2779
-6.0503 -0.1333 0.2605
-5.9675 -0.0688 0.2435
-5.9109 -0.0150 0.2309
-5.8589 0.0342 0.2193
-5.8399 0.0742 0.2129
-5.8432 0.1088 0.2100
-5.8119 0.1475 0.2022
-5.7561 0.1869 0.1911
-5.6981 0.2525 0.1771
-5.6523 0.2837 0.1681
-5.6356 0.3111 0.1633
