ply
format ascii 1.0
element vertex 2073
property float x
property float y
property float z
end_header
-3.4374 0.3253 -0.0282
-3.4304 0.3324 -0.0282
-3.4394 0.3451 -0.0279
-3.4350 0.3527 -0.0279
-3.4284 0.3595 -0.0279
-3.4219 0.3662 -0.0279
-3.4142 0.3726 -0.0280
-3.4102 0.3799 -0.0280
-3.4064 0.3870 -0.0280
-3.4001 0.3936 -0.0280
-3.3965 0.4006 -0.0280
-3.3916 0.4073 -0.0280
-3.3828 0.4132 -0.0280
-3.3753 0.4194 -0.0281
-3.8055 -0.0521 -0.0149
-3.7963 -0.0432 -0.0150
-3.7872 -0.0344 -0.0151
-3.7781 -0.0256 -0.0152
-3.7693 -0.0156 -0.0152
-3.7604 -0.0068 -0.0153
-3.7517 0.0030 -0.0154
-3.7343 0.0214 -0.0155
-3.7256 0.0300 -0.0156
-3.7179 0.0417 -0.0157
-3.7089 0.0491 -0.0158
-3.7011 0.0596 -0.0158
-3.6918 0.0659 -0.0159
-3.6846 0.0773 -0.0160
-3.6779 0.0895 -0.0161
-3.6701 0.0986 -0.0162
-3.6528 0.1129 -0.0163
-3.6426 0.1173 -0.0163
-3.6366 0.1290 -0.0164
-3.6285 0.1370 -0.0165
-3.6229 0.1484 -0.0166
-3.6144 0.1554 -0.0166
-3.6071 0.1641 -0.0167
-3.5987 0.1710 -0.0167
-3.5909 0.1788 -0.0168
-3.5846 0.1881 -0.0169
-3.5776 0.1965 -0.0170
-3.5715 0.2056 -0.0170
-3.5648 0.2138 -0.0171
-3.5566 0.2206 -0.0172
-3.5492 0.2281 -0.0172
-3.5418 0.2355 -0.0173
-3.5353 0.2435 -0.0173
-3.5272 0.2502 -0.0174
-3.5208 0.2582 -0.0175
-3.5137 0.2654 -0.0175
-3.5056 0.2721 -0.0176
-3.5013 0.2810 -0.0176
-3.4943 0.2881 -0.0177
-3.4874 0.2952 -0.0178
-3.4795 0.3017 -0.0178
-3.4668 0.3163 -0.0179
-3.4448 0.3168 -0.0179
-3.4378 0.3240 -0.0180
-3.4319 0.3315 -0.0180
-3.4399 0.3438 -0.0181
-3.4379 0.3522 -0.0182
-3.4314 0.3589 -0.0183
-3.4226 0.3648 -0.0183
-3.4186 0.3722 -0.0184
-3.4122 0.3788 -0.0184
-3.4085 0.3859 -0.0185
-3.4048 0.3930 -0.0186
-3.3934 0.3983 -0.0186
-3.3899 0.4053 -0.0186
-3.3825 0.4114 -0.0187
-3.3764 0.4178 -0.0187
-3.8311 -0.0802 -0.0031
-3.8219 -0.0712 -0.0032
-3.8128 -0.0597 -0.0034
-3.8036 -0.0521 -0.0034
-3.7945 -0.0432 -0.0035
-3.7853 -0.0356 -0.0036
-3.7760 -0.0280 -0.0036
-3.7670 -0.0192 -0.0037
-3.7418 0.0138 -0.0042
-3.7340 0.0257 -0.0045
-3.7248 0.0320 -0.0045
-3.7158 0.0393 -0.0045
-3.7006 0.0614 -0.0049
-3.6926 0.0707 -0.0050
-3.6755 0.0862 -0.0052
-3.6682 0.0963 -0.0053
-3.6600 0.1044 -0.0054
-3.6539 0.1162 -0.0057
-3.6346 0.1267 -0.0056
-3.6283 0.1374 -0.0058
-3.6215 0.1470 -0.0060
-3.6143 0.1557 -0.0061
-3.6071 0.1643 -0.0062
-3.5994 0.1721 -0.0063
-3.5924 0.1806 -0.0065
-3.5862 0.1898 -0.0066
-3.5793 0.1981 -0.0067
-3.5711 0.2049 -0.0068
-3.5644 0.2131 -0.0069
-3.5505 0.2287 -0.0071
-3.5441 0.2367 -0.0072
-3.5369 0.2440 -0.0073
-3.5271 0.2494 -0.0073
-3.5217 0.2579 -0.0075
-3.5137 0.2645 -0.0075
-3.5103 0.2741 -0.0077
-3.5053 0.2823 -0.0079
-3.4955 0.2877 -0.0079
-3.4876 0.2942 -0.0079
-3.4828 0.3022 -0.0081
-3.4770 0.3097 -0.0082
-3.4571 0.3207 -0.0082
-3.4393 0.3231 -0.0079
-3.4357 0.3315 -0.0081
-3.4370 0.3414 -0.0084
-3.4362 0.3501 -0.0086
-3.4321 0.3576 -0.0088
-3.4257 0.3642 -0.0089
-3.4181 0.3705 -0.0089
-3.4118 0.3771 -0.0090
-3.4080 0.3842 -0.0091
-3.4018 0.3907 -0.0092
-3.3970 0.3974 -0.0093
-3.3909 0.4038 -0.0094
-3.3761 0.4160 -0.0095
-3.3687 0.4221 -0.0095
-3.8382 -0.0931 0.0087
-3.8104 -0.0660 0.0084
-3.8016 -0.0533 0.0081
-3.7928 -0.0419 0.0078
-3.7840 -0.0319 0.0076
-3.7662 -0.0145 0.0074
-3.7574 -0.0058 0.0072
-3.7493 0.0063 0.0069
-3.7414 0.0183 0.0066
-3.7329 0.0267 0.0065
-3.7243 0.0351 0.0064
-3.7155 0.0424 0.0063
-3.7084 0.0550 0.0059
-3.6997 0.0622 0.0059
-3.6918 0.0715 0.0057
-3.6848 0.0828 0.0054
-3.6749 0.0868 0.0055
-3.6676 0.0969 0.0053
-3.6605 0.1069 0.0050
-3.6535 0.1168 0.0048
-3.6439 0.1219 0.0049
-3.6354 0.1290 0.0048
-3.6292 0.1396 0.0045
-3.6214 0.1474 0.0044
-3.6142 0.1560 0.0042
-3.6065 0.1638 0.0041
-3.5981 0.1707 0.0040
-3.5919 0.1800 0.0038
-3.5836 0.1868 0.0037
-3.5768 0.1951 0.0036
-3.5708 0.2042 0.0033
-3.5649 0.2131 0.0031
-3.5568 0.2198 0.0030
-3.5495 0.2272 0.0029
-3.5439 0.2359 0.0027
-3.5359 0.2425 0.0027
-3.5296 0.2504 0.0025
-3.5234 0.2583 0.0023
-3.5164 0.2654 0.0022
-3.5104 0.2731 0.0020
-3.5035 0.2802 0.0019
-3.4966 0.2872 0.0018
-3.4898 0.2942 0.0017
-3.4820 0.3007 0.0016
-3.4763 0.3081 0.0015
-3.4685 0.3145 0.0014
-3.4542 0.3181 0.0017
-3.4430 0.3233 0.0019
-3.4362 0.3302 0.0017
-3.4340 0.3567 0.0005
-3.4276 0.3633 0.0004
-3.4226 0.3702 0.0003
-3.4164 0.3767 0.0002
-3.4102 0.3832 0.0001
-3.4014 0.3890 0.0001
-3.3980 0.3960 -0.0001
-3.3919 0.4023 -0.0003
-3.3846 0.4084 -0.0003
-3.3772 0.4145 -0.0003
-3.3755 0.4214 -0.0006
-3.8363 -0.0888 0.0200
-3.8270 -0.0825 0.0200
-3.8178 -0.0736 0.0199
-3.8091 -0.0595 0.0193
-3.8002 -0.0494 0.0191
-3.7910 -0.0418 0.0190
-3.7819 -0.0343 0.0190
-3.7736 -0.0219 0.0186
-3.7650 -0.0121 0.0183
-3.7562 -0.0035 0.0182
-3.7480 0.0074 0.0178
-3.7394 0.0159 0.0177
-3.7311 0.0255 0.0175
-3.7223 0.0328 0.0174
-3.7142 0.0422 0.0172
-3.7065 0.0527 0.0168
-3.6985 0.0620 0.0166
-3.6902 0.0703 0.0165
-3.6833 0.0815 0.0160
-3.6761 0.0916 0.0157
-3.6671 0.0976 0.0157
-3.6600 0.1076 0.0154
-3.6510 0.1136 0.0155
-3.6420 0.1197 0.0155
-3.6357 0.1304 0.0151
-3.6296 0.1409 0.0147
-3.6219 0.1487 0.0145
-3.6129 0.1547 0.0146
-3.6065 0.1641 0.0142
-3.5989 0.1718 0.0141
-3.5920 0.1802 0.0139
-3.5852 0.1885 0.0136
-3.5785 0.1968 0.0134
-3.5719 0.2051 0.0132
-3.5646 0.2125 0.0130
-3.5573 0.2198 0.0129
-3.5493 0.2265 0.0129
-3.5438 0.2352 0.0125
-3.5375 0.2431 0.0123
-3.5305 0.2503 0.0122
-3.5234 0.2574 0.0120
-3.5165 0.2646 0.0119
-3.5096 0.2716 0.0118
-3.5027 0.2787 0.0116
-3.4949 0.2851 0.0116
-3.4921 0.2943 0.0111
-3.4844 0.3007 0.0110
-3.4787 0.3081 0.0108
-3.4700 0.3139 0.0109
-3.4590 0.3188 0.0111
-3.4445 0.3225 0.0115
-3.4389 0.3299 0.0113
-3.4334 0.3372 0.0111
-3.4386 0.3481 0.0101
-3.4346 0.3555 0.0098
-3.4284 0.3620 0.0097
-3.4234 0.3689 0.0094
-3.4147 0.3747 0.0095
-3.4085 0.3812 0.0093
-3.4011 0.3873 0.0093
-3.3963 0.3940 0.0091
-3.3930 0.4009 0.0088
-3.3884 0.4074 0.0086
-3.3724 0.4192 0.0086
-3.8343 -0.0886 0.0313
-3.8252 -0.0783 0.0310
-3.8162 -0.0681 0.0307
-3.8072 -0.0593 0.0305
-3.7898 -0.0380 0.0298
-3.7811 -0.0281 0.0295
-3.7723 -0.0194 0.0294
-3.7638 -0.0096 0.0291
-3.7556 0.0013 0.0287
-3.7471 0.0097 0.0285
-3.7143 0.0465 0.0274
-3.7067 0.0569 0.0270
-3.6989 0.0661 0.0267
-3.6891 0.0700 0.0270
-3.6813 0.0792 0.0267
-3.6666 0.0983 0.0260
-3.6512 0.1152 0.0256
-3.6433 0.1231 0.0254
-3.6283 0.1396 0.0250
-3.6206 0.1474 0.0248
-3.6148 0.1577 0.0243
-3.6053 0.1627 0.0245
-3.5991 0.1721 0.0241
-3.5909 0.1788 0.0240
-3.5848 0.1880 0.0236
-3.5789 0.1970 0.0232
-3.5708 0.2037 0.0232
-3.5643 0.2118 0.0229
-3.5595 0.2213 0.0224
-3.5499 0.2265 0.0225
-3.5445 0.2351 0.0222
-3.5366 0.2416 0.0221
-3.5287 0.2482 0.0221
-3.5226 0.2560 0.0218
-3.5165 0.2637 0.0215
-3.5097 0.2708 0.0213
-3.5038 0.2784 0.0211
-3.4980 0.2859 0.0208
-3.4847 0.2997 0.0205
-3.4781 0.3066 0.0203
-3.4693 0.3124 0.0204
-3.4628 0.3192 0.0202
-3.4439 0.3209 0.0213
-3.4371 0.3278 0.0211
-3.4428 0.3481 0.0190
-3.4354 0.3543 0.0189
-3.4291 0.3608 0.0188
-3.4217 0.3669 0.0187
-3.4143 0.3731 0.0187
-3.4094 0.3798 0.0184
-3.4046 0.3865 0.0181
-3.3986 0.3929 0.0180
-3.3913 0.3989 0.0179
-3.3867 0.4055 0.0177
-3.3794 0.4115 0.0176
-3.3736 0.4177 0.0175
-3.8233 -0.0781 0.0422
-3.8143 -0.0679 0.0418
-3.8056 -0.0565 0.0413
-3.7966 -0.0491 0.0413
-3.7880 -0.0378 0.0408
-3.7796 -0.0267 0.0403
-3.7711 -0.0169 0.0399
-3.7618 -0.0120 0.0402
-3.7539 0.0001 0.0395
-3.7459 0.0109 0.0391
-3.7374 0.0193 0.0389
-3.7287 0.0265 0.0388
-3.7206 0.0359 0.0384
-3.7137 0.0486 0.0377
-3.7055 0.0568 0.0375
-3.6965 0.0628 0.0376
-3.6811 0.0811 0.0369
-3.6740 0.0911 0.0364
-3.6656 0.0981 0.0363
-3.6509 0.1158 0.0357
-3.6447 0.1265 0.0350
-3.6364 0.1333 0.0350
-3.6300 0.1429 0.0345
-3.6224 0.1505 0.0343
-3.6129 0.1555 0.0345
-3.6067 0.1648 0.0341
-3.5999 0.1732 0.0337
-3.5925 0.1808 0.0335
-3.5866 0.1898 0.0330
-3.5778 0.1957 0.0331
-3.5713 0.2038 0.0328
-3.5649 0.2119 0.0325
-3.5569 0.2185 0.0324
-3.5506 0.2265 0.0321
-3.5435 0.2337 0.0319
-3.5356 0.2402 0.0318
-3.5295 0.2481 0.0315
-3.5235 0.2558 0.0312
-3.5176 0.2635 0.0308
-3.5108 0.2705 0.0307
-3.5011 0.2757 0.0309
-3.4973 0.2844 0.0303
-3.4926 0.2925 0.0298
-3.4850 0.2987 0.0298
-3.4763 0.3045 0.0298
-3.4719 0.3123 0.0294
-3.4643 0.3186 0.0293
-3.4500 0.3221 0.0301
-3.4377 0.3266 0.0306
-3.4322 0.3339 0.0303
-3.4387 0.3453 0.0286
-3.4349 0.3527 0.0281
-3.4287 0.3592 0.0279
-3.4225 0.3657 0.0277
-3.4164 0.3721 0.0276
-3.4103 0.3785 0.0274
-3.4056 0.3852 0.0270
-3.4023 0.3921 0.0266
-3.3978 0.3986 0.0263
-3.3906 0.4046 0.0262
-3.3848 0.4107 0.0260
-3.3791 0.4169 0.0258
-3.8216 -0.0738 0.0527
-3.8128 -0.0637 0.0523
-3.8040 -0.0537 0.0519
-3.7954 -0.0437 0.0515
-3.7870 -0.0326 0.0509
-3.7783 -0.0240 0.0507
-3.7697 -0.0155 0.0505
-3.7614 -0.0058 0.0501
-3.7529 0.0026 0.0499
-3.7450 0.0133 0.0493
-3.7366 0.0216 0.0491
-3.7283 0.0299 0.0488
-3.7207 0.0404 0.0483
-3.7128 0.0497 0.0479
-3.7035 0.0545 0.0482
-3.6958 0.0637 0.0478
-3.6805 0.0819 0.0470
-3.6721 0.0889 0.0469
-3.6652 0.0989 0.0463
-3.6500 0.1156 0.0457
-3.6434 0.1253 0.0452
-3.6281 0.1407 0.0447
-3.6199 0.1474 0.0447
-3.6062 0.1644 0.0439
-3.5994 0.1728 0.0435
-3.5906 0.1786 0.0436
-3.5847 0.1877 0.0431
-3.5790 0.1967 0.0425
-3.5718 0.2040 0.0423
-3.5646 0.2113 0.0421
-3.5583 0.2193 0.0417
-3.5513 0.2266 0.0415
-3.5443 0.2337 0.0412
-3.5373 0.2409 0.0410
-3.5331 0.2500 0.0403
-3.5254 0.2563 0.0402
-3.5158 0.2614 0.0405
-3.5109 0.2697 0.0400
-3.5052 0.2772 0.0396
-3.4995 0.2847 0.0392
-3.4909 0.2904 0.0393
-3.4843 0.2973 0.0391
-3.4810 0.3056 0.0384
-3.4724 0.3113 0.0385
-3.4637 0.3171 0.0386
-3.4460 0.3191 0.0401
-3.4417 0.3268 0.0395
-3.4328 0.3327 0.0396
-3.4334 0.3420 0.0384
-3.4344 0.3511 0.0372
-3.4295 0.3580 0.0369
-3.4259 0.3652 0.0363
-3.4186 0.3712 0.0363
-3.4100 0.3769 0.0364
-3.4092 0.3845 0.0355
-3.4007 0.3902 0.0356
-3.3962 0.3967 0.0353
-3.3917 0.4032 0.0349
-3.3846 0.4091 0.0348
-3.8286 -0.0823 0.0639
-3.8197 -0.0735 0.0636
-3.8112 -0.0608 0.0627
-3.8023 -0.0534 0.0627
-3.7935 -0.0448 0.0624
-3.7851 -0.0337 0.0618
-3.7771 -0.0213 0.0609
-3.7690 -0.0104 0.0603
-3.7608 -0.0008 0.0598
-3.7519 0.0051 0.0600
-3.7438 0.0146 0.0595
-3.7358 0.0240 0.0591
-3.7273 0.0311 0.0590
-3.7191 0.0393 0.0587
-3.7112 0.0485 0.0583
-3.7031 0.0566 0.0580
-3.6955 0.0658 0.0576
-3.6795 0.0818 0.0571
-3.6730 0.0928 0.0562
-3.6652 0.1007 0.0560
-3.6569 0.1075 0.0559
-3.6497 0.1163 0.0555
-3.6415 0.1231 0.0554
-3.6344 0.1318 0.0550
-3.6268 0.1394 0.0547
-3.6137 0.1573 0.0537
-3.6056 0.1640 0.0536
-3.5990 0.1723 0.0532
-3.5916 0.1798 0.0529
-3.5836 0.1864 0.0529
-3.5771 0.1946 0.0524
-3.5715 0.2035 0.0518
-3.5582 0.2187 0.0511
-3.5512 0.2259 0.0509
-3.5451 0.2338 0.0504
-3.5391 0.2416 0.0500
-3.5314 0.2479 0.0499
-3.5246 0.2550 0.0497
-3.5178 0.2619 0.0494
-3.5101 0.2683 0.0494
-3.5054 0.2764 0.0488
-3.4988 0.2833 0.0485
-3.4923 0.2901 0.0483
-3.4878 0.2980 0.0476
-3.4803 0.3042 0.0476
-3.4761 0.3119 0.0470
-3.4653 0.3166 0.0475
-3.4487 0.3189 0.0490
-3.4387 0.3243 0.0493
-3.4310 0.3307 0.0493
-3.4377 0.3422 0.0469
-3.4352 0.3500 0.0461
-3.4315 0.3572 0.0455
-3.4305 0.3651 0.0445
-3.4233 0.3710 0.0444
-3.4148 0.3766 0.0446
-3.4103 0.3832 0.0441
-3.4017 0.3889 0.0443
-3.3959 0.3951 0.0441
-3.3844 0.4074 0.0436
-3.8181 -0.0691 0.0737
-3.8092 -0.0618 0.0736
-3.8009 -0.0492 0.0727
-3.7921 -0.0420 0.0726
-3.7755 -0.0211 0.0714
-3.7672 -0.0115 0.0709
-3.7505 0.0052 0.0703
-3.7422 0.0135 0.0700
-3.7339 0.0217 0.0697
-3.7263 0.0323 0.0690
-3.7189 0.0427 0.0683
-3.7104 0.0497 0.0682
-3.7028 0.0588 0.0677
-3.6948 0.0668 0.0674
-3.6869 0.0748 0.0672
-3.6790 0.0827 0.0669
-3.6721 0.0927 0.0662
-3.6648 0.1015 0.0657
-3.6571 0.1093 0.0654
-3.6343 0.1324 0.0646
-3.6224 0.1522 0.0629
-3.6132 0.1570 0.0633
-3.6058 0.1645 0.0630
-3.5992 0.1728 0.0625
-3.5891 0.1768 0.0631
-3.5855 0.1884 0.0617
-3.5713 0.2030 0.0612
-3.5642 0.2102 0.0609
-3.5580 0.2182 0.0604
-3.5528 0.2268 0.0597
-3.5459 0.2339 0.0594
-3.5382 0.2402 0.0594
-3.5323 0.2479 0.0589
-3.5247 0.2542 0.0589
-3.5180 0.2612 0.0586
-3.5132 0.2694 0.0579
-3.5077 0.2768 0.0574
-3.4991 0.2824 0.0576
-3.4936 0.2898 0.0571
-3.4861 0.2960 0.0570
-3.4819 0.3038 0.0563
-3.4733 0.3094 0.0565
-3.4670 0.3161 0.0562
-3.4416 0.3241 0.0581
-3.4340 0.3304 0.0580
-3.4300 0.3380 0.0573
-3.4372 0.3492 0.0547
-3.4336 0.3565 0.0539
-3.4276 0.3628 0.0537
-3.4230 0.3695 0.0532
-3.4171 0.3758 0.0529
-3.4100 0.3817 0.0529
-3.4042 0.3879 0.0526
-3.3970 0.3938 0.0526
-3.3913 0.3999 0.0523
-3.3870 0.4063 0.0518
-3.8163 -0.0688 0.0843
-3.7907 -0.0391 0.0826
-3.7822 -0.0306 0.0823
-3.7737 -0.0222 0.0820
-3.7657 -0.0113 0.0811
-3.7574 -0.0029 0.0808
-3.7493 0.0066 0.0803
-3.7414 0.0160 0.0797
-3.7332 0.0242 0.0794
-3.7254 0.0335 0.0789
-3.7176 0.0428 0.0783
-3.7096 0.0508 0.0780
-3.7017 0.0588 0.0777
-3.6937 0.0668 0.0774
-3.6863 0.0758 0.0768
-3.6780 0.0826 0.0768
-3.6712 0.0926 0.0760
-3.6635 0.1004 0.0757
-3.6568 0.1101 0.0749
-3.6493 0.1178 0.0746
-3.6412 0.1245 0.0745
-3.6354 0.1350 0.0734
-3.6274 0.1416 0.0734
-3.6126 0.1567 0.0728
-3.6047 0.1632 0.0727
-3.5981 0.1715 0.0722
-3.5930 0.1815 0.0711
-3.5852 0.1879 0.0711
-3.5718 0.2033 0.0702
-3.5640 0.2097 0.0702
-3.5587 0.2184 0.0694
-3.5510 0.2247 0.0693
-3.5442 0.2318 0.0690
-3.5391 0.2403 0.0683
-3.5324 0.2473 0.0680
-3.5257 0.2542 0.0677
-3.5200 0.2618 0.0671
-3.5135 0.2686 0.0668
-3.5069 0.2754 0.0665
-3.5025 0.2834 0.0657
-3.4940 0.2890 0.0659
-3.4876 0.2957 0.0656
-3.4813 0.3024 0.0653
-3.4761 0.3095 0.0648
-3.4709 0.3166 0.0643
-3.4544 0.3188 0.0662
-3.4423 0.3231 0.0671
-3.4359 0.3298 0.0668
-3.4367 0.3477 0.0635
-3.4357 0.3557 0.0623
-3.4285 0.3617 0.0622
-3.4227 0.3679 0.0619
-3.4181 0.3745 0.0614
-3.4110 0.3804 0.0613
-3.4053 0.3866 0.0610
-3.3982 0.3925 0.0610
-3.3953 0.3991 0.0602
-3.3868 0.4047 0.0604
-3.3827 0.4110 0.0599
-4.3600 -0.8990 0.1859
-4.3863 -0.9209 0.1939
-4.5197 -1.0523 0.2372
-4.5619 -1.0965 0.2512
-4.6780 -1.2490 0.2943
-4.7412 -1.3215 0.3163
-4.8127 -1.4031 0.3411
-4.9533 -1.5257 0.3844
-5.1163 -1.5498 0.4181
-8.0965 -2.4857 1.1027
-7.3955 -1.7398 0.8673
-7.2614 -1.5433 0.8147
-6.9832 -1.2771 0.7255
-6.8447 -1.1085 0.6760
-6.8491 -1.0250 0.6650
-6.5023 -0.7049 0.5555
-6.3731 -0.5823 0.5142
-6.3825 -0.5241 0.5077
-6.3646 -0.4572 0.4949
-6.3204 -0.3841 0.4764
-6.2070 -0.2927 0.4425
-6.1291 -0.2190 0.4176
-6.0384 -0.1469 0.3906
-5.9936 -0.0919 0.3745
-5.9442 -0.0390 0.3579
-5.9717 -0.0055 0.3583
-5.9411 0.0389 0.3463
-5.8511 0.0910 0.3223
-5.7859 0.1350 0.3039
-5.6557 0.2407 0.2649
-5.6768 0.2664 0.2651
-5.6393 0.2955 0.2541
-5.6086 0.3224 0.2446
-5.5891 0.3474 0.2374
-5.5672 0.3712 0.2300
-5.5587 0.3938 0.2252
-5.5335 0.4152 0.2175
-5.5336 0.4363 0.2146
-4.3541 -0.8905 0.1600
-4.5177 -1.0608 0.2090
-4.5654 -1.1220 0.2247
-4.8043 -1.3957 0.2994
-4.8971 -1.5159 0.3301
-4.9747 -1.5856 0.3519
-5.0358 -1.6096 0.3652
-5.0629 -1.5594 0.3634
-5.1119 -1.5516 0.3706
-5.1275 -1.4808 0.3643
-7.4961 -2.0520 0.8332
-7.5175 -1.8136 0.8066
-7.3380 -1.5849 0.7476
-7.0712 -1.3226 0.6697
-6.9219 -1.1452 0.6222
-6.9022 -1.0466 0.6064
-6.7151 -0.8719 0.5530
-6.5912 -0.7396 0.5155
-6.3909 -0.5845 0.4623
-6.4909 -0.5613 0.4761
-6.4992 -0.5011 0.4698
-6.3627 -0.3928 0.4332
-6.1743 -0.2766 0.3870
-6.0680 -0.1953 0.3589
-6.0490 -0.1443 0.3492
-5.9221 0.0103 0.3084
-5.8702 0.0577 0.2937
-5.8373 0.0988 0.2830
-5.7786 0.1413 0.2678
-5.7510 0.1768 0.2587
-5.6875 0.2429 0.2397
-5.6984 0.2699 0.2381
-5.6534 0.2998 0.2267
-5.6069 0.3520 0.2124
-5.5700 0.3761 0.2031
-5.5659 0.3987 0.1996
-5.5540 0.4205 0.1948
-4.3743 -0.9050 0.1407
-4.4348 -0.9653 0.1564
-4.4731 -1.0147 0.1677
-4.5639 -1.1323 0.1944
-4.6726 -1.2624 0.2252
-4.7683 -1.3192 0.2458
-4.8924 -1.5181 0.2866
-4.9561 -1.5572 0.3005
-5.0207 -1.5900 0.3138
-5.0637 -1.5721 0.3182
-5.1019 -1.5428 0.3206
-7.5136 -2.0612 0.7387
-7.5432 -1.9513 0.7309
-7.5345 -1.8197 0.7149
-7.1085 -1.4409 0.6089
-6.9757 -1.2630 0.5692
-6.7919 -1.0699 0.5201
-6.7556 -0.9665 0.5032
-6.7609 -0.8882 0.4952
-6.7264 -0.7946 0.4796
-6.5687 -0.6538 0.4403
-6.4478 -0.5385 0.4094
-6.3420 -0.4374 0.3822
-6.2601 -0.3518 0.3605
-6.0779 -0.1927 0.3155
-6.0594 -0.1415 0.3070
-5.9855 -0.0788 0.2889
-5.9358 -0.0261 0.2756
-5.9139 0.0175 0.2675
-5.8329 0.0700 0.2495
-5.8222 0.1067 0.2438
-5.7777 0.1468 0.2327
-5.7440 0.1830 0.2236
-5.6810 0.2487 0.2068
-5.6639 0.2776 0.2010
-5.6310 0.3062 0.1929
-5.6212 0.3320 0.1886
-5.5968 0.3572 0.1821
-5.5643 0.3811 0.1746
-5.5390 0.4035 0.1683
-5.5269 0.4248 0.1641
-4.3426 -0.8748 0.1088
-4.4759 -1.0415 0.1423
-4.5053 -1.0500 0.1470
-4.5491 -1.1006 0.1577
-4.5955 -1.1497 0.1685
-4.6559 -1.2296 0.1841
-4.7125 -1.2868 0.1971
-4.7662 -1.3271 0.2080
-4.8600 -1.4549 0.2326
-4.9338 -1.5201 0.2486
-5.0211 -1.6031 0.2681
-5.0485 -1.5527 0.2668
-5.0919 -1.5340 0.2707
-7.7970 -1.9826 0.6684
-7.4009 -1.6127 0.5807
-6.8439 -1.0927 0.4575
-6.7619 -0.9643 0.4343
-6.7888 -0.8957 0.4312
-6.4973 -0.6864 0.3728
-6.4266 -0.5885 0.3540
-6.3764 -0.5048 0.3394
-6.3038 -0.4177 0.3214
-6.2877 -0.3554 0.3133
-6.1765 -0.2659 0.2901
-6.1420 -0.2057 0.2797
-6.0800 -0.1413 0.2654
-5.9522 -0.0243 0.2373
-5.8972 0.0264 0.2252
-5.8282 0.1111 0.2080
-5.7842 0.1512 0.1984
-5.7242 0.1907 0.1867
-5.7267 0.2500 0.1813
-5.6628 0.2829 0.1697
-5.6301 0.3113 0.1627
-5.6056 0.3377 0.1569
-5.5813 0.3626 0.1513
-5.5768 0.3861 0.1485
-5.5377 0.4084 0.1412
-5.5129 0.4294 0.1359
-4.3349 -0.8568 0.0823
-4.3607 -0.8812 0.0872
-4.3902 -0.9146 0.0932
-4.5867 -1.1377 0.1335
-4.6398 -1.1982 0.1444
-4.7125 -1.3010 0.1609
-4.7761 -1.3658 0.1733
-5.0630 -1.7055 0.2332
-5.0594 -1.5863 0.2231
-5.0980 -1.5563 0.2250
-5.1793 -1.6029 0.2380
-7.3863 -1.7155 0.4951
-7.3147 -1.5555 0.4741
-6.8517 -1.0916 0.3843
-6.8338 -0.9950 0.3744
-6.7743 -0.8829 0.3586
-6.6049 -0.7286 0.3270
-6.4932 -0.6105 0.3048
-6.4090 -0.5117 0.2873
-6.3323 -0.4222 0.2714
-6.2507 -0.3371 0.2553
-6.1552 -0.2535 0.2378
-6.1006 -0.1880 0.2263
-6.0020 -0.1150 0.2093
-5.9772 -0.0656 0.2025
-5.9271 -0.0132 0.1926
-5.8208 0.0470 0.1757
-5.8102 0.0848 0.1714
-5.8071 0.1199 0.1682
-5.7769 0.1577 0.1618
-5.7553 0.1923 0.1565
-5.6847 0.2588 0.1432
-5.6511 0.2889 0.1369
-5.6092 0.3175 0.1299
-5.5941 0.3432 0.1261
-5.5891 0.3676 0.1236
-5.5710 0.3912 0.1196
-5.5490 0.4136 0.1153
-5.5246 0.4346 0.1109
-4.3275 -0.8402 0.0565
-4.3542 -0.8700 0.0610
-4.3876 -0.9218 0.0675
-4.5783 -1.1268 0.0988
-4.9108 -1.4938 0.1541
-5.0365 -1.6619 0.1770
-5.0545 -1.5880 0.1738
-5.1103 -1.5907 0.1792
-7.8129 -2.1202 0.4669
-7.6688 -1.8905 0.4382
-7.2015 -1.4823 0.3676
-7.0304 -1.2787 0.3382
-6.8362 -1.0780 0.3068
-6.7325 -0.9385 0.2879
-6.6979 -0.8411 0.2783
-6.5742 -0.7092 0.2580
-6.4641 -0.5927 0.2400
-6.3970 -0.5012 0.2277
-6.3081 -0.4077 0.2132
-6.1802 -0.3078 0.1947
-6.1340 -0.2413 0.1860
-6.0393 -0.1649 0.1721
-6.0032 -0.1097 0.1651
-5.9591 -0.0557 0.1574
-5.9445 -0.0113 0.1531
-5.9131 0.0345 0.1471
-5.8533 0.0828 0.1384
-5.8068 0.1255 0.1312
-5.7558 0.1659 0.1238
-5.7229 0.2015 0.1183
-5.6793 0.2359 0.1120
-5.6560 0.2664 0.1078
-5.6670 0.2932 0.1071
-5.6177 0.3223 0.1005
-5.6030 0.3480 0.0975
-5.5887 0.3727 0.0945
-5.5707 0.3963 0.0913
-5.5659 0.4189 0.0893
-5.5405 0.4402 0.0856
-4.3239 -0.8427 0.0324
-4.3463 -0.8522 0.0346
-4.3813 -0.9131 0.0402
-4.4122 -0.9456 0.0442
-4.5174 -1.0431 0.0569
-4.6867 -1.2595 0.0803
-4.7419 -1.3058 0.0868
-4.8160 -1.3892 0.0965
-4.8815 -1.4398 0.1039
-5.0341 -1.5581 0.1212
-5.0777 -1.5384 0.1234
-5.1515 -1.5722 0.1306
-7.5771 -1.9571 0.3305
-7.3470 -1.6811 0.2995
-7.3433 -1.5622 0.2932
-7.1532 -1.3427 0.2681
-6.9391 -1.1273 0.2413
-6.7811 -0.9572 0.2210
-6.7035 -0.8379 0.2093
-6.5781 -0.7051 0.1933
-6.4845 -0.5952 0.1808
-6.4300 -0.5079 0.1723
-6.2968 -0.3978 0.1569
-6.1924 -0.3061 0.1445
-6.1799 -0.2495 0.1408
-6.0912 -0.1738 0.1304
-6.0224 -0.1090 0.1220
-6.0044 -0.0607 0.1182
-5.8965 0.0434 0.1050
-5.7650 0.1373 0.0905
-5.7486 0.1723 0.0875
-5.7284 0.2062 0.0843
-5.7083 0.2385 0.0812
-5.7012 0.2683 0.0791
-5.6539 0.2993 0.0741
-5.6061 0.3279 0.0691
-5.6023 0.3533 0.0675
-5.5977 0.3778 0.0659
-5.5691 0.4014 0.0626
-5.5336 0.4233 0.0589
-5.5265 0.4447 0.0573
-4.3151 -0.8182 0.0068
-4.3469 -0.8756 0.0106
-4.4729 -1.0009 0.0218
-4.6225 -1.1920 0.0366
-4.6864 -1.2734 0.0429
-4.7542 -1.3518 0.0493
-4.8178 -1.4071 0.0547
-4.8766 -1.4416 0.0591
-4.9622 -1.5266 0.0667
-5.0240 -1.5492 0.0709
-5.0785 -1.5510 0.0740
-5.1349 -1.5519 0.0771
-6.8328 -0.9773 0.1509
-6.6892 -0.8253 0.1378
-6.6198 -0.7174 0.1303
-6.3586 -0.4747 0.1076
-6.2855 -0.3879 0.1006
-6.1947 -0.3010 0.0926
-6.1696 -0.2404 0.0891
-6.0715 -0.1625 0.0811
-6.0424 -0.1083 0.0776
-6.0045 -0.0549 0.0737
-5.9611 -0.0033 0.0695
-5.7025 0.2145 0.0478
-5.6608 0.2482 0.0444
-5.6481 0.2775 0.0427
-5.6370 0.3055 0.0411
-5.6476 0.3316 0.0408
-5.6055 0.3584 0.0375
-5.5578 0.3832 0.0341
-5.5633 0.4065 0.0336
-5.5280 0.4282 0.0309
-5.5252 0.4497 0.0300
-4.3115 -0.8206 -0.0173
-4.3705 -0.9036 -0.0137
-4.4375 -0.9835 -0.0098
-4.7399 -1.3287 0.0071
-4.8090 -1.3994 0.0109
-4.8675 -1.4336 0.0136
-4.9616 -1.5382 0.0188
-5.0899 -1.5846 0.0242
-5.1549 -1.5994 0.0267
-6.4212 -3.5056 0.1061
-6.7129 -3.7633 0.1211
-7.4130 -1.7131 0.1088
-7.3049 -1.5285 0.1016
-6.7732 -0.9419 0.0721
-6.6553 -0.8037 0.0654
-6.6061 -0.7054 0.0619
-6.4366 -0.4982 0.0522
-6.3426 -0.4019 0.0471
-6.2204 -0.3035 0.0410
-6.1592 -0.2313 0.0375
-6.0927 -0.1624 0.0339
-6.0420 -0.1023 0.0310
-5.7080 0.2193 0.0133
-5.6818 0.2517 0.0118
-5.6761 0.2809 0.0111
-5.6306 0.3112 0.0089
-5.6148 0.3381 0.0079
-5.5793 0.3642 0.0062
-5.5559 0.3884 0.0049
-5.5300 0.4112 0.0036
-5.5224 0.4332 0.0029
-5.5197 0.4546 0.0024
-4.3078 -0.8230 -0.0416
-4.3324 -0.8455 -0.0412
-4.3651 -0.8989 -0.0406
-4.3945 -0.9269 -0.0401
-4.4230 -0.9446 -0.0396
-4.5476 -1.0922 -0.0374
-4.7151 -1.2778 -0.0345
-4.7900 -1.3664 -0.0332
-4.8657 -1.4428 -0.0319
-4.9474 -1.5200 -0.0305
-5.0503 -1.6287 -0.0287
-5.0686 -1.5542 -0.0285
-5.1563 -1.6127 -0.0271
-7.3227 -1.6513 0.0066
-7.2857 -1.5116 0.0058
-7.0437 -1.2646 0.0016
-6.8480 -0.9729 -0.0020
-6.7424 -0.8380 -0.0039
-6.6291 -0.7092 -0.0058
-6.3780 -0.4701 -0.0101
-6.3309 -0.3917 -0.0110
-6.2341 -0.3018 -0.0127
-6.1262 -0.2155 -0.0145
-6.0521 -0.1454 -0.0158
-6.0627 -0.1015 -0.0157
-6.0249 -0.0476 -0.0164
-5.9355 0.0137 -0.0179
-5.6637 0.2587 -0.0225
-5.6413 0.2887 -0.0229
-5.6293 0.3166 -0.0231
-5.5980 0.3440 -0.0237
-5.5932 0.3692 -0.0238
-5.5837 0.3936 -0.0240
-5.5284 0.4163 -0.0249
-5.5126 0.4379 -0.0252
-5.4931 0.4584 -0.0255
-4.3278 -0.8436 -0.0666
-4.3605 -0.8980 -0.0676
-4.4290 -0.9868 -0.0692
-4.4569 -0.9935 -0.0695
-4.4933 -1.0256 -0.0701
-4.5390 -1.0804 -0.0711
-4.7321 -1.3376 -0.0759
-4.8882 -1.5098 -0.0791
-4.9702 -1.5839 -0.0806
-5.0456 -1.6318 -0.0817
-5.0978 -1.6236 -0.0818
-5.3114 -1.7908 -0.0853
-7.3061 -1.7584 -0.0942
-7.2360 -1.5919 -0.0914
-7.1704 -1.4379 -0.0888
-6.9988 -1.2340 -0.0849
-6.8095 -0.9480 -0.0798
-6.7276 -0.8250 -0.0776
-6.6350 -0.7055 -0.0754
-6.3813 -0.4652 -0.0706
-6.3328 -0.3861 -0.0692
-6.1744 -0.2767 -0.0669
-6.1278 -0.2100 -0.0657
-6.0730 -0.1452 -0.0645
-6.0431 -0.0906 -0.0635
-5.9348 0.0197 -0.0614
-5.6631 0.2641 -0.0565
-5.6792 0.2917 -0.0561
-5.6280 0.3220 -0.0554
-5.6074 0.3490 -0.0549
-5.5672 0.3748 -0.0544
-5.5401 0.3987 -0.0539
-5.5458 0.4218 -0.0536
-5.5111 0.4430 -0.0531
-5.5086 0.4643 -0.0528
-4.2985 -0.8170 -0.0908
-4.3235 -0.8431 -0.0922
-4.3551 -0.8933 -0.0946
-4.5834 -1.1364 -0.1081
-4.6409 -1.2052 -0.1117
-4.6989 -1.2636 -0.1150
-4.7667 -1.3360 -0.1190
-4.8437 -1.4181 -0.1235
-4.9059 -1.4537 -0.1262
-5.0350 -1.6225 -0.1348
-5.0985 -1.6372 -0.1369
-5.1598 -1.6415 -0.1386
-5.2992 -1.7800 -0.1464
-7.3172 -1.6379 -0.1927
-7.2472 -1.4779 -0.1859
-7.0089 -1.2341 -0.1722
-6.7712 -0.9233 -0.1564
-6.7552 -0.8315 -0.1530
-6.5827 -0.6769 -0.1438
-6.4211 -0.5396 -0.1354
-6.2969 -0.4278 -0.1287
-6.2662 -0.3571 -0.1257
-6.1879 -0.2750 -0.1211
-6.0950 -0.1945 -0.1163
-5.9873 -0.0272 -0.1083
-5.9261 0.0274 -0.1050
-5.8875 0.0740 -0.1025
-5.7114 0.2356 -0.0930
-5.6788 0.2684 -0.0911
-5.6724 0.2977 -0.0900
-5.6433 0.3269 -0.0884
-5.5907 0.3548 -0.0862
-5.5664 0.3801 -0.0848
-5.5436 0.4039 -0.0834
-5.5440 0.4270 -0.0827
-5.5179 0.4484 -0.0814
-5.4947 0.4687 -0.0802
-4.2903 -0.7942 -0.1143
-4.3159 -0.8256 -0.1170
-4.3415 -0.8489 -0.1193
-4.5287 -1.0791 -0.1391
-4.6313 -1.1929 -0.1494
-4.8803 -1.4089 -0.1714
-5.0406 -1.6478 -0.1904
-5.0761 -1.6046 -0.1899
-5.1424 -1.6200 -0.1937
-5.3108 -1.8122 -0.2108
-7.7586 -2.1976 -0.3420
-7.1650 -1.5377 -0.2826
-6.7784 -0.9207 -0.2347
-6.6779 -0.7900 -0.2237
-6.5513 -0.6573 -0.2115
-6.4402 -0.5411 -0.2007
-6.3873 -0.4550 -0.1941
-6.2414 -0.3425 -0.1819
-6.1897 -0.2694 -0.1760
-6.1072 -0.1920 -0.1684
-6.0641 -0.1307 -0.1634
-5.9480 -0.0557 -0.1544
-5.8753 0.0432 -0.1463
-5.8399 0.0881 -0.1425
-5.7978 0.1314 -0.1384
-5.7595 0.1714 -0.1347
-5.7315 0.2077 -0.1317
-5.6920 0.2430 -0.1281
-5.6545 0.2757 -0.1248
-5.6315 0.3055 -0.1223
-5.6099 0.3336 -0.1199
-5.5741 0.3605 -0.1170
-5.5656 0.3854 -0.1154
-5.5617 0.4094 -0.1140
-5.5476 0.4324 -0.1123
-5.5218 0.4538 -0.1100
-5.5059 0.4745 -0.1083
-4.2886 -0.8084 -0.1399
-4.3144 -0.8406 -0.1438
-4.3458 -0.8914 -0.1493
-4.3679 -0.8885 -0.1505
-4.4808 -1.0325 -0.1676
-4.5188 -1.0626 -0.1722
-4.8253 -1.4020 -0.2151
-4.9260 -1.5260 -0.2300
-5.0354 -1.6505 -0.2456
-5.0824 -1.6299 -0.2474
-5.1699 -1.6840 -0.2568
-5.2442 -1.7034 -0.2631
-7.2098 -1.5607 -0.3853
-6.9170 -1.2730 -0.3467
-6.8019 -1.0155 -0.3220
-6.6348 -0.8451 -0.2995
-6.5842 -0.7413 -0.2893
-6.5192 -0.6375 -0.2781
-6.3958 -0.5174 -0.2619
-6.3598 -0.4387 -0.2543
-6.1922 -0.3198 -0.2352
-6.1184 -0.2411 -0.2250
-6.0747 -0.1766 -0.2178
-6.0434 -0.1192 -0.2120
-5.8465 0.0929 -0.1848
-5.8050 0.1361 -0.1791
-5.7373 0.2128 -0.1695
-5.6666 0.2508 -0.1623
-5.6427 0.2821 -0.1586
-5.6312 0.3110 -0.1559
-5.6034 0.3393 -0.1522
-5.6091 0.3653 -0.1509
-5.5791 0.3908 -0.1472
-5.5596 0.4148 -0.1443
-5.5149 0.4367 -0.1398
-5.5202 0.4590 -0.1387
-5.5086 0.4799 -0.1366
-4.3074 -0.8257 -0.1684
-4.3404 -0.8866 -0.1764
-4.3648 -0.8948 -0.1793
-4.3952 -0.9241 -0.1844
-4.4665 -0.9984 -0.1969
-4.5565 -1.1004 -0.2134
-4.6620 -1.2073 -0.2317
-4.7500 -1.3370 -0.2503
-4.8858 -1.4481 -0.2716
-5.0030 -1.5945 -0.2942
-5.0894 -1.6568 -0.3070
-5.1453 -1.6487 -0.3113
-5.2468 -1.7194 -0.3262
-6.3881 -3.3447 -0.5629
-6.6631 -2.7828 -0.5402
-6.6447 -2.5922 -0.5226
-6.9032 -2.7181 -0.5560
-6.9426 -2.5929 -0.5490
-6.8506 -2.3417 -0.5199
-6.9192 -2.2583 -0.5189
-7.0348 -1.4468 -0.4613
-6.7796 -1.0910 -0.4090
-6.6117 -0.9118 -0.3792
-6.5810 -0.8133 -0.3683
-6.5141 -0.7037 -0.3532
-6.4207 -0.5900 -0.3354
-6.4145 -0.5185 -0.3289
-6.2895 -0.4069 -0.3085
-6.1678 -0.3056 -0.2893
-6.0964 -0.2283 -0.2765
-6.0434 -0.1618 -0.2663
-6.0239 -0.1081 -0.2601
-5.8998 0.0504 -0.2359
-5.8622 0.0962 -0.2287
-5.6535 0.2575 -0.1968
-5.6358 0.2881 -0.1927
-5.6245 0.3169 -0.1893
-5.6020 0.3448 -0.1849
-5.5482 0.3961 -0.1759
-5.5589 0.4202 -0.1748
-5.5586 0.4436 -0.1728
-5.5280 0.4648 -0.1684
-5.4947 0.4842 -0.1638
-5.4837 0.5040 -0.1612
-4.2787 -0.7997 -0.1891
-4.2995 -0.8058 -0.1920
-4.3592 -0.8899 -0.2071
-4.3980 -0.9556 -0.2180
-4.4263 -0.9666 -0.2223
-4.4678 -1.0211 -0.2324
-4.7352 -1.3134 -0.2914
-4.8522 -1.3842 -0.3115
-4.9924 -1.5851 -0.3473
-5.0493 -1.5879 -0.3538
-5.1403 -1.6512 -0.3703
-5.1847 -1.6176 -0.3717
-5.9591 -2.6629 -0.5630
-6.0588 -2.6497 -0.5726
-6.1416 -2.6054 -0.5772
-6.1822 -2.4997 -0.5709
-6.1805 -2.3419 -0.5548
-6.2832 -2.3220 -0.5640
-6.3219 -2.2216 -0.5581
-6.3601 -2.1234 -0.5524
-6.4200 -2.0506 -0.5516
-6.5033 -2.0009 -0.5557
-6.5638 -1.9274 -0.5549
-6.6243 -1.8538 -0.5541
-6.7375 -1.8243 -0.5635
-6.7718 -1.7276 -0.5575
-6.8609 -1.6742 -0.5619
-6.8662 -1.5596 -0.5508
-6.9267 -1.4860 -0.5500
-7.0161 -1.4305 -0.5542
-6.9623 -1.2891 -0.5340
-6.8113 -1.1029 -0.4985
-6.4017 -0.5073 -0.3930
-6.3204 -0.4118 -0.3744
-6.1820 -0.3043 -0.3482
-6.1209 -0.2298 -0.3340
-6.0763 -0.1649 -0.3225
-6.0450 -0.1073 -0.3132
-5.8538 0.1036 -0.2708
-5.7069 0.2588 -0.2389
-5.6511 0.2927 -0.2293
-5.6170 0.3499 -0.2197
-5.5963 0.3765 -0.2148
-5.5563 0.4016 -0.2078
-5.4993 0.4466 -0.1970
-5.5006 0.4686 -0.1949
-5.4851 0.4888 -0.1911
-4.2972 -0.8168 -0.2193
-4.3544 -0.8888 -0.2355
-4.3911 -0.9468 -0.2473
-4.4237 -0.9756 -0.2550
-4.4600 -1.0108 -0.2640
-4.7205 -1.2898 -0.3318
-4.7944 -1.3695 -0.3510
-4.8705 -1.4404 -0.3695
-4.9566 -1.5208 -0.3905
-5.0612 -1.6253 -0.4168
-5.1160 -1.6163 -0.4230
-5.1405 -1.5476 -0.4180
-5.4184 -1.9205 -0.4993
-5.6090 -2.1041 -0.5464
-5.6587 -2.0437 -0.5457
-5.6822 -1.9451 -0.5370
-5.7179 -1.8675 -0.5324
-5.7534 -1.7916 -0.5281
-5.8015 -1.7331 -0.5274
-5.8359 -1.6586 -0.5231
-5.9118 -1.6316 -0.5298
-6.0063 -1.6209 -0.5410
-6.0722 -1.5765 -0.5444
-6.1057 -1.5001 -0.5397
-6.2224 -1.3938 -0.5424
-6.2368 -1.3048 -0.5337
-6.3043 -1.2584 -0.5371
-6.4498 -1.2651 -0.5571
-6.5016 -1.2021 -0.5564
-6.4923 -1.1014 -0.5431
-6.5030 -1.0168 -0.5344
-6.5129 -0.9347 -0.5259
-6.5041 -0.8459 -0.5141
-6.5133 -0.7694 -0.5062
-6.0538 -0.2034 -0.3779
-6.0764 -0.1587 -0.3756
-6.0244 -0.0960 -0.3612
-5.9577 -0.0340 -0.3450
-5.9140 0.0186 -0.3329
-5.8500 0.0715 -0.3181
-5.8216 0.1147 -0.3092
-5.8339 0.1499 -0.3067
-5.7710 0.1933 -0.2932
-5.7149 0.2324 -0.2811
-5.6876 0.2661 -0.2735
-5.6393 0.2990 -0.2631
-5.5953 0.3560 -0.2505
-5.5542 0.3823 -0.2420
-5.5360 0.4068 -0.2366
-5.5049 0.4296 -0.2298
-5.5201 0.4529 -0.2290
-5.5165 0.4749 -0.2259
-5.4959 0.4949 -0.2208
-4.2934 -0.8200 -0.2460
-4.3186 -0.8434 -0.2532
-4.3529 -0.9036 -0.2668
-4.3759 -0.9003 -0.2699
-4.4079 -0.9309 -0.2790
-4.4511 -0.9957 -0.2946
-4.4888 -1.0286 -0.3050
-4.5267 -1.0537 -0.3143
-4.6361 -1.1800 -0.3486
-4.7152 -1.2908 -0.3760
-4.8447 -1.3942 -0.4103
-4.9463 -1.5117 -0.4421
-5.0440 -1.6029 -0.4698
-5.1173 -1.6311 -0.4850
-5.1358 -1.5498 -0.4767
-5.4497 -1.8539 -0.5670
-5.5833 -1.8088 -0.5814
-5.6533 -1.7854 -0.5890
-5.6880 -1.7122 -0.5843
-5.6623 -1.5659 -0.5601
-6.1235 -1.1223 -0.5701
-6.1848 -1.0771 -0.5734
-6.2154 -1.0106 -0.5689
-6.2773 -0.9646 -0.5721
-6.3072 -0.8988 -0.5677
-6.3532 -0.8430 -0.5671
-6.3642 -0.7694 -0.5586
-6.3930 -0.7065 -0.5544
-6.3867 -0.6292 -0.5428
-6.0132 -0.1353 -0.4170
-5.8334 -0.0002 -0.3707
-5.8788 0.0318 -0.3733
-5.8736 0.0734 -0.3667
-5.8133 0.1220 -0.3507
-5.7948 0.1613 -0.3425
-5.7632 0.2001 -0.3322
-5.7334 0.2365 -0.3226
-5.6744 0.2728 -0.3085
-5.6433 0.3045 -0.2993
-5.6427 0.3331 -0.2953
-5.5938 0.3617 -0.2838
-5.5683 0.3878 -0.2763
-5.5350 0.4122 -0.2678
-5.5212 0.4355 -0.2624
-5.5050 0.4576 -0.2569
-5.4638 0.4769 -0.2479
-4.3107 -0.8250 -0.2771
-4.3372 -0.8495 -0.2856
-4.3666 -0.8796 -0.2956
-4.4780 -1.0079 -0.3353
-4.5167 -1.0375 -0.3468
-4.5814 -1.1397 -0.3743
-4.6260 -1.1667 -0.3864
-4.8472 -1.4143 -0.4643
-4.9408 -1.5135 -0.4963
-5.0389 -1.6058 -0.5281
-5.1520 -1.7120 -0.5648
-5.1305 -1.5510 -0.5358
-5.1745 -1.5175 -0.5383
-5.2189 -1.4834 -0.5409
-5.2566 -1.4375 -0.5403
-5.3097 -1.4144 -0.5461
-5.3244 -1.3352 -0.5363
-5.3940 -1.3318 -0.5481
-5.4586 -1.3176 -0.5573
-5.4708 -1.2384 -0.5471
-5.5006 -1.1822 -0.5436
-5.5476 -1.1449 -0.5461
-5.6055 -1.1175 -0.5520
-5.6344 -1.0608 -0.5483
-5.6629 -1.0048 -0.5445
-5.6915 -0.9499 -0.5410
-5.8061 -0.8106 -0.5395
-5.8549 -0.7712 -0.5419
-5.8825 -0.7177 -0.5385
-5.9206 -0.6713 -0.5380
-5.9588 -0.6249 -0.5374
-6.0086 -0.5843 -0.5399
-6.0470 -0.5376 -0.5394
-6.0854 -0.4908 -0.5389
-6.1116 -0.4391 -0.5354
-6.1497 -0.3927 -0.5349
-6.0998 -0.3154 -0.5140
-5.9802 -0.1696 -0.4700
-5.9618 -0.1153 -0.4582
-5.9448 -0.0640 -0.4472
-5.8991 0.0751 -0.4173
-5.7825 0.1327 -0.3877
-5.7798 0.1693 -0.3815
-5.6791 0.2783 -0.3466
-5.6606 0.3094 -0.3385
-5.6481 0.3387 -0.3317
-5.6084 0.3671 -0.3202
-5.5670 0.3934 -0.3088
-5.5379 0.4177 -0.2998
-5.5347 0.4414 -0.2956
-5.4953 0.4625 -0.2853
-5.4743 0.4829 -0.2784
-5.4806 0.5044 -0.2761
-4.3029 -0.8067 -0.3005
-4.3281 -0.8263 -0.3089
-4.3617 -0.8782 -0.3248
-4.4018 -0.9451 -0.3445
-4.4371 -0.9798 -0.3577
-4.4742 -1.0123 -0.3708
-4.5194 -1.0638 -0.3889
-4.5781 -1.1462 -0.4150
-4.6181 -1.1598 -0.4254
-4.6736 -1.2095 -0.4452
-4.7472 -1.2950 -0.4749
-4.9352 -1.5152 -0.5511
-5.9669 -0.4339 -0.5678
-6.0167 -0.3368 -0.5607
-5.9701 -0.1607 -0.5205
-5.7199 0.2168 -0.4043
-5.6855 0.2526 -0.3912
-5.6719 0.2847 -0.3828
-5.6836 0.3141 -0.3800
-5.6766 0.3437 -0.3734
-5.5969 0.3730 -0.3523
-5.5657 0.3990 -0.3415
-5.5764 0.4242 -0.3392
-5.5092 0.4459 -0.3220
-5.4763 0.4668 -0.3118
-5.4859 0.4891 -0.3098
-5.4750 0.5093 -0.3040
-5.5152 0.5338 -0.3078
-4.3050 -0.8431 -0.3360
-4.3292 -0.8545 -0.3437
-4.3553 -0.8696 -0.3524
-4.3937 -0.9315 -0.3731
-4.4260 -0.9557 -0.3850
-4.4675 -1.0065 -0.4041
-4.5058 -1.0354 -0.4183
-4.5625 -1.1144 -0.4463
-4.6081 -1.1465 -0.4627
-4.7611 -1.3457 -0.5356
-4.8162 -1.3692 -0.5525
-4.8595 -1.3588 -0.5602
-4.8867 -1.3107 -0.5569
-4.9229 -1.2818 -0.5593
-4.9545 -1.2433 -0.5589
-4.9907 -1.2129 -0.5611
-5.0544 -1.1355 -0.5602
-5.0912 -1.1042 -0.5624
-5.1070 -1.0427 -0.5539
-5.1332 -0.9973 -0.5509
-5.1590 -0.9523 -0.5479
-5.1958 -0.9211 -0.5501
-5.2271 -0.8830 -0.5497
-5.2645 -0.8512 -0.5518
-5.2898 -0.8068 -0.5488
-5.3274 -0.7747 -0.5510
-5.3661 -0.7427 -0.5534
-5.3977 -0.7042 -0.5530
-5.4362 -0.6710 -0.5551
-5.4611 -0.6272 -0.5521
-5.4927 -0.5887 -0.5517
-5.5244 -0.5502 -0.5513
-5.5478 -0.5066 -0.5480
-5.5641 -0.4596 -0.5425
-5.6030 -0.4259 -0.5447
-5.6343 -0.3878 -0.5442
-5.6827 -0.3577 -0.5492
-5.7143 -0.3192 -0.5488
-5.7283 -0.2735 -0.5430
-5.7862 -0.2453 -0.5504
-5.7996 -0.2003 -0.5447
-5.8311 -0.1620 -0.5443
-5.8726 -0.1266 -0.5466
-5.8941 -0.0854 -0.5434
-5.9256 -0.0471 -0.5430
-5.6165 0.3230 -0.4020
-5.6343 0.3508 -0.4006
-5.5742 0.3789 -0.3817
-5.5793 0.4048 -0.3778
-5.5701 0.4297 -0.3709
-5.5226 0.4520 -0.3559
-5.4967 0.4734 -0.3460
-5.4722 0.4935 -0.3366
-5.4533 0.5128 -0.3286
-4.2979 -0.8284 -0.3604
-4.3488 -0.8610 -0.3799
-4.3895 -0.9344 -0.4056
-4.4243 -0.9686 -0.4215
-4.4675 -1.0254 -0.4444
-4.4989 -1.0293 -0.4529
-4.5608 -1.1263 -0.4890
-4.6183 -1.1929 -0.5174
-4.6778 -1.2524 -0.5449
-4.7145 -1.2407 -0.5514
-5.2601 -0.5891 -0.5467
-5.2826 -0.5497 -0.5439
-5.3056 -0.5112 -0.5413
-5.3394 -0.4806 -0.5431
-5.3742 -0.4503 -0.5452
-5.4372 -0.3842 -0.5466
-5.4796 -0.3566 -0.5512
-5.7789 0.0750 -0.5327
-5.5330 0.4099 -0.4003
-5.5245 0.4341 -0.3931
-5.5306 0.4580 -0.3894
-5.5273 0.4809 -0.3837
-5.4666 0.4985 -0.3650
-5.4518 0.5180 -0.3571
-5.4822 0.5415 -0.3596
-4.3140 -0.8230 -0.3926
-4.3739 -0.8870 -0.4238
-4.4145 -0.9492 -0.4494
-4.4935 -1.0287 -0.4893
-4.5348 -1.0603 -0.5079
-4.5862 -1.1138 -0.5344
-4.6654 -1.1275 -0.5590
-4.7001 -1.1151 -0.5655
-4.7270 -1.0824 -0.5652
-4.7508 -1.0430 -0.5624
-4.7776 -1.0104 -0.5621
-4.8078 -0.9842 -0.5641
-4.9028 -0.9087 -0.5722
-4.9576 -0.8421 -0.5715
-4.9850 -0.8088 -0.5711
-5.0082 -0.7702 -0.5684
-5.0274 -0.7274 -0.5636
-5.0500 -0.6896 -0.5609
-5.0769 -0.6568 -0.5605
-5.0991 -0.6194 -0.5578
-5.1169 -0.5784 -0.5530
-5.1527 -0.5543 -0.5570
-5.1700 -0.5138 -0.5523
-5.2167 -0.4973 -0.5611
-5.2483 -0.4677 -0.5627
-5.2653 -0.4277 -0.5580
-5.2922 -0.3950 -0.5576
-5.3248 -0.3657 -0.5596
-5.3568 -0.3357 -0.5613
-5.3840 -0.3027 -0.5609
-5.3825 -0.2554 -0.5495
-5.4267 -0.2313 -0.5558
-5.4537 -0.1986 -0.5555
-5.4870 -0.1684 -0.5574
-5.5075 -0.1331 -0.5547
-5.5411 -0.1026 -0.5567
-5.5740 -0.0716 -0.5584
-5.5952 -0.0369 -0.5560
-5.6283 -0.0055 -0.5576
-5.6698 0.0242 -0.5620
-5.6899 0.0590 -0.5593
-5.6959 0.0960 -0.5522
-5.7228 0.1288 -0.5519
-5.7354 0.1635 -0.5472
-5.7476 0.1976 -0.5425
-5.5473 0.4405 -0.4314
-5.5245 0.4634 -0.4199
-5.4928 0.4842 -0.4064
-5.4556 0.5030 -0.3920
-5.4462 0.5229 -0.3848
-5.4523 0.5436 -0.3816
-4.2860 -0.8117 -0.4114
-4.3389 -0.8581 -0.4388
-4.5384 -1.0894 -0.5564
-4.5514 -1.0249 -0.5439
-4.5793 -1.0072 -0.5476
-5.0101 -0.5318 -0.5543
-5.0382 -0.5051 -0.5558
-5.0517 -0.4651 -0.5496
-5.0877 -0.4449 -0.5551
-5.2565 -0.2322 -0.5510
-5.2907 -0.2069 -0.5546
-5.3252 -0.1812 -0.5583
-5.3349 -0.1442 -0.5518
-5.6072 0.2194 -0.5399
-5.6375 0.2799 -0.5335
-5.6079 0.3119 -0.5167
-5.5760 0.4221 -0.4792
-5.4920 0.4898 -0.4373
-5.4800 0.5106 -0.4284
-5.4778 0.5315 -0.4225
-5.4669 0.5508 -0.4144
-4.2536 -0.7623 -0.4170
-4.3355 -0.8649 -0.4713
-4.3613 -0.8732 -0.4818
-4.3953 -0.9109 -0.5030
-4.4393 -0.9775 -0.5354
-4.5608 -0.9689 -0.5719
-4.6313 -0.8832 -0.5710
-4.8633 -0.5936 -0.5659
-4.8898 -0.5688 -0.5675
-4.9070 -0.5332 -0.5633
-4.9400 -0.5150 -0.5689
-4.9636 -0.4863 -0.5686
-4.9804 -0.4513 -0.5643
-5.0073 -0.4259 -0.5660
-5.1013 -0.3115 -0.5647
-5.1248 -0.2830 -0.5644
-5.1402 -0.2495 -0.5602
-5.1677 -0.2235 -0.5618
-5.1911 -0.1950 -0.5615
-5.2102 -0.1644 -0.5592
-5.2658 -0.1115 -0.5625
-5.2847 -0.0811 -0.5603
-5.3081 -0.0526 -0.5599
-5.3363 -0.0257 -0.5616
-5.3598 0.0029 -0.5613
-5.3685 0.0355 -0.5551
-5.3868 0.0650 -0.5529
-5.4303 0.0886 -0.5603
-5.4589 0.1162 -0.5619
-5.4773 0.1458 -0.5597
-5.5061 0.1735 -0.5613
-5.5351 0.2015 -0.5629
-5.5881 0.2586 -0.5642
-5.6119 0.2876 -0.5639
-5.6241 0.3170 -0.5597
-5.5676 0.3479 -0.5332
-5.5840 0.3752 -0.5309
-5.5687 0.4020 -0.5187
-5.5436 0.4272 -0.5038
-5.4761 0.5369 -0.4520
-4.2474 -0.7493 -0.4390
-4.2733 -0.7890 -0.4597
-4.2970 -0.8052 -0.4726
-4.3633 -0.9048 -0.5249
-4.3923 -0.9190 -0.5391
-4.5185 -0.8614 -0.5657
-4.5982 -0.7397 -0.5574
-4.6179 -0.7100 -0.5554
-4.6411 -0.6876 -0.5568
-4.6664 -0.6685 -0.5599
-4.7054 -0.6094 -0.5559
-4.7743 -0.5372 -0.5584
-4.8205 -0.4883 -0.5600
-4.8446 -0.4648 -0.5614
-4.8529 -0.4241 -0.5522
-4.8743 -0.3981 -0.5520
-4.8896 -0.3665 -0.5479
-4.9253 -0.3535 -0.5564
-4.9685 -0.3010 -0.5558
-4.9871 -0.2726 -0.5539
-5.0025 -0.2422 -0.5502
-5.0270 -0.2182 -0.5516
-5.0516 -0.1941 -0.5530
-5.0699 -0.1661 -0.5511
-5.1205 -0.1554 -0.5654
-5.1426 -0.1286 -0.5651
-5.1603 -0.0997 -0.5627
-5.1405 -0.0554 -0.5428
-5.1734 -0.0343 -0.5480
-5.2022 -0.0110 -0.5510
-5.2275 0.0140 -0.5524
-5.2882 0.0937 -0.5499
-5.3138 0.1189 -0.5512
-5.3487 0.1426 -0.5563
-5.4196 0.2215 -0.5575
-5.4415 0.2481 -0.5572
-5.4433 0.2764 -0.5495
-5.4705 0.3023 -0.5513
-5.4922 0.3287 -0.5510
-5.5186 0.3549 -0.5524
-5.5355 0.3814 -0.5504
-5.5161 0.4072 -0.5361
-5.5274 0.4325 -0.5325
-5.5048 0.4559 -0.5178
-5.4835 0.4780 -0.5040
-5.4584 0.4984 -0.4893
-5.4555 0.5195 -0.4820
-5.4625 0.5411 -0.4781
-4.2221 -0.7321 -0.4523
-4.2433 -0.7511 -0.4661
-4.2650 -0.7650 -0.4786
-4.2935 -0.8111 -0.5037
-4.3188 -0.8279 -0.5184
-4.3511 -0.8708 -0.5440
-4.5167 -0.7833 -0.5778
-4.6214 -0.6561 -0.5764
-4.8072 -0.4243 -0.5721
-4.8515 -0.3762 -0.5733
-4.8697 -0.3482 -0.5712
-4.9086 -0.2952 -0.5689
-4.9323 -0.2721 -0.5704
-4.9472 -0.2424 -0.5665
-4.9949 -0.1960 -0.5696
-5.0125 -0.1688 -0.5675
-5.0301 -0.1417 -0.5654
-5.0475 -0.1148 -0.5634
-5.0613 -0.0864 -0.5596
-5.1200 -0.0439 -0.5679
-5.1372 -0.0171 -0.5658
-5.1580 0.0081 -0.5656
-5.2126 0.0861 -0.5612
-5.2451 0.1083 -0.5662
-5.2780 0.1310 -0.5712
-5.2950 0.1574 -0.5692
-5.2909 0.1872 -0.5583
-5.3115 0.2122 -0.5580
-5.3450 0.2356 -0.5631
-5.3570 0.2618 -0.5593
-5.3821 0.2865 -0.5607
-5.4164 0.3109 -0.5657
-5.4327 0.3365 -0.5637
-5.4536 0.3619 -0.5634
-5.4697 0.3873 -0.5614
-5.5049 0.4128 -0.5664
-5.5015 0.4375 -0.5573
-5.4887 0.4609 -0.5452
-5.4461 0.4811 -0.5230
-5.4437 0.5028 -0.5153
-5.4756 0.5271 -0.5194
-4.2152 -0.7103 -0.4697
-4.2607 -0.7665 -0.5068
-4.2844 -0.7850 -0.5224
-4.3147 -0.8311 -0.5500
-4.3388 -0.8347 -0.5607
-4.3611 -0.8262 -0.5667
-4.3777 -0.7917 -0.5617
-4.3959 -0.7653 -0.5600
-4.4159 -0.7453 -0.5611
-4.4350 -0.7221 -0.5609
-4.4530 -0.6958 -0.5592
-4.4768 -0.6855 -0.5652
-4.5113 -0.6292 -0.5599
-4.5387 -0.6245 -0.5692
-4.5641 -0.5507 -0.5543
-4.5863 -0.5337 -0.5574
-4.6450 -0.4666 -0.5581
-4.6587 -0.4357 -0.5531
-4.6965 -0.4383 -0.5690
-4.7977 -0.2809 -0.5560
-4.8304 -0.2697 -0.5653
-4.8450 -0.2420 -0.5617
-4.8792 -0.1918 -0.5583
-4.9007 -0.1699 -0.5595
-4.9099 -0.1401 -0.5531
-4.9416 -0.1245 -0.5604
-4.9561 -0.0983 -0.5573
-4.9720 -0.0732 -0.5552
-5.0029 -0.0556 -0.5615
-5.0051 -0.0243 -0.5518
-5.0268 -0.0022 -0.5530
-5.0611 0.0152 -0.5607
-5.0832 0.0378 -0.5619
-5.0813 0.0683 -0.5508
-5.1193 0.0859 -0.5600
-5.1194 0.1146 -0.5503
-5.1345 0.1387 -0.5482
-5.1574 0.1610 -0.5498
-5.1765 0.1841 -0.5495
-5.1986 0.2068 -0.5507
-5.2177 0.2300 -0.5504
-5.2336 0.2536 -0.5488
-5.2701 0.2751 -0.5560
-5.2783 0.2994 -0.5511
-5.2974 0.3227 -0.5508
-5.3360 0.3453 -0.5585
-5.3404 0.3692 -0.5522
-5.3749 0.3926 -0.5580
-5.3860 0.4161 -0.5545
-5.4102 0.4398 -0.5561
-5.4246 0.4631 -0.5539
-5.4365 0.4860 -0.5509
-5.4379 0.5078 -0.5441
-5.4659 0.5318 -0.5471
-5.4850 0.5551 -0.5469
-4.2114 -0.7149 -0.4970
-4.2556 -0.7620 -0.5326
-4.2837 -0.8086 -0.5613
-4.3233 -0.7818 -0.5684
-4.3807 -0.7248 -0.5722
-4.5155 -0.5182 -0.5552
-4.6776 -0.3679 -0.5698
-4.7581 -0.2843 -0.5738
-4.8183 -0.2195 -0.5761
-4.8306 -0.1917 -0.5713
-4.9473 -0.0583 -0.5728
-4.9744 -0.0395 -0.5776
-5.0080 0.0383 -0.5639
-5.0847 0.1273 -0.5644
-5.1217 0.1723 -0.5639
-5.1433 0.1942 -0.5651
-5.1804 0.2394 -0.5646
-5.2064 0.2611 -0.5678
-5.2251 0.2838 -0.5676
-5.2438 0.3066 -0.5673
-5.2513 0.3298 -0.5621
-5.2778 0.3521 -0.5654
-5.2918 0.3748 -0.5631
-5.3103 0.3974 -0.5629
-5.3372 0.4202 -0.5661
-5.3559 0.4429 -0.5658
-5.3746 0.4656 -0.5656
-5.3845 0.4877 -0.5619
-5.4082 0.5107 -0.5636
-5.4306 0.5338 -0.5648
-5.4324 0.5544 -0.5582
-5.4588 0.5780 -0.5609
-4.2062 -0.7070 -0.5194
-4.2278 -0.7342 -0.5395
-4.2528 -0.7742 -0.5660
-4.2695 -0.7497 -0.5642
-4.2883 -0.7380 -0.5682
-4.3064 -0.7203 -0.5696
-4.3218 -0.6902 -0.5651
-4.3391 -0.6692 -0.5648
-4.3563 -0.6482 -0.5646
-4.3727 -0.6241 -0.5628
-4.3883 -0.5981 -0.5599
-4.4081 -0.5853 -0.5639
-4.4261 -0.5662 -0.5648
-4.4445 -0.5481 -0.5661
-4.4568 -0.5148 -0.5590
-4.4772 -0.5013 -0.5630
-4.4978 -0.4875 -0.5670
-4.5152 -0.4663 -0.5668
-4.5326 -0.4451 -0.5666
-4.5486 -0.4215 -0.5647
-4.5620 -0.3939 -0.5603
-4.5863 -0.3840 -0.5674
-4.6153 -0.3333 -0.5612
-4.6325 -0.3123 -0.5609
-4.6652 -0.2683 -0.5589
-4.6892 -0.2546 -0.5645
-4.7016 -0.2284 -0.5600
-4.7374 -0.1876 -0.5606
-4.7547 -0.1665 -0.5604
-4.7762 -0.1488 -0.5633
-4.7958 -0.1292 -0.5646
-4.8170 -0.1105 -0.5670
-4.8435 -0.0627 -0.5608
-4.8656 -0.0443 -0.5637
-4.8872 -0.0252 -0.5661
-4.9031 -0.0030 -0.5648
-4.9223 0.0175 -0.5656
-4.9329 0.0417 -0.5612
-4.9476 0.0639 -0.5594
-4.9650 0.0850 -0.5592
-4.9777 0.1075 -0.5563
-4.9819 0.1323 -0.5487
-5.0065 0.1510 -0.5527
-5.0217 0.1723 -0.5514
-5.0626 0.1882 -0.5638
-5.0640 0.2125 -0.5552
-5.0833 0.2332 -0.5560
-5.0954 0.2549 -0.5531
-5.1275 0.2742 -0.5602
-5.1449 0.2954 -0.5600
-5.1558 0.3171 -0.5566
-5.1888 0.3375 -0.5637
-5.1973 0.3591 -0.5593
-5.2021 0.3804 -0.5533
-5.2217 0.4015 -0.5541
-5.2461 0.4227 -0.5570
-5.2635 0.4439 -0.5568
-5.2846 0.4653 -0.5581
-5.3058 0.4868 -0.5594
-5.3157 0.5074 -0.5561
-5.3331 0.5285 -0.5559
-5.3467 0.5492 -0.5541
-5.3640 0.5703 -0.5538
-4.2021 -0.7089 -0.5461
-4.2217 -0.7213 -0.5605
-4.2589 -0.7111 -0.5741
-4.3741 -0.5639 -0.5697
-4.4203 -0.4938 -0.5635
-4.4540 -0.4556 -0.5641
-4.5338 -0.3515 -0.5603
-4.7958 -0.0329 -0.5568
-4.9295 0.1255 -0.5567
-4.9595 0.1662 -0.5546
-5.0166 0.2246 -0.5583
-5.0466 0.2651 -0.5562
-5.0795 0.3052 -0.5558
-5.0938 0.3253 -0.5545
-5.1179 0.3450 -0.5581
-5.1458 0.3648 -0.5634
-5.1659 0.3852 -0.5648
-5.1920 0.4057 -0.5689
-5.2054 0.4262 -0.5671
-5.2319 0.4472 -0.5712
-5.2464 0.4677 -0.5699
-5.3066 0.5493 -0.5657
-4.2285 -0.6639 -0.5685
-4.2455 -0.6530 -0.5724
-4.2622 -0.6382 -0.5746
-4.2772 -0.6143 -0.5720
-4.2936 -0.5972 -0.5730
-4.3090 -0.5757 -0.5716
-4.3254 -0.5585 -0.5725
-4.3399 -0.5340 -0.5694
-4.3566 -0.5178 -0.5709
-4.3715 -0.4955 -0.5690
-4.3867 -0.4743 -0.5676
-4.4007 -0.4504 -0.5644
-4.4175 -0.4341 -0.5660
-4.4332 -0.4149 -0.5658
-4.4519 -0.4020 -0.5697
-4.4677 -0.3827 -0.5694
-4.4823 -0.3608 -0.5675
-4.4981 -0.3416 -0.5673
-4.5445 -0.2823 -0.5655
-4.5555 -0.2565 -0.5600
-4.5761 -0.2439 -0.5650
-4.5867 -0.2185 -0.5596
-4.6024 -0.1995 -0.5594
-4.6405 -0.1684 -0.5654
-4.6627 -0.1552 -0.5710
-4.6927 -0.1146 -0.5688
-4.7072 -0.0941 -0.5674
-4.7281 -0.0784 -0.5713
-4.7442 -0.0589 -0.5711
-4.7565 -0.0370 -0.5680
-4.7709 -0.0167 -0.5666
-4.7899 0.0285 -0.5569
-4.8186 0.0413 -0.5659
-4.8303 0.0625 -0.5628
-4.8585 0.1023 -0.5601
-4.8760 0.1208 -0.5610
-4.8854 0.1420 -0.5568
-4.9076 0.1592 -0.5606
-4.9149 0.1806 -0.5552
-4.9440 0.1966 -0.5631
-4.9481 0.2182 -0.5559
-4.9637 0.2372 -0.5557
-4.9814 0.2560 -0.5567
-5.0044 0.2742 -0.5605
-5.0128 0.2942 -0.5563
-5.0339 0.3128 -0.5589
-5.0496 0.3320 -0.5587
-5.0676 0.3511 -0.5597
-5.0790 0.3705 -0.5571
-5.0947 0.3896 -0.5569
-5.1151 0.4089 -0.5590
-5.1309 0.4281 -0.5588
-5.1420 0.4471 -0.5563
-5.1626 0.4666 -0.5584
-5.1845 0.4864 -0.5611
-5.2029 0.5060 -0.5620
-5.2189 0.5254 -0.5618
-5.2323 0.5444 -0.5604
-4.2182 -0.6183 -0.5709
-4.2636 -0.5631 -0.5703
-4.3221 -0.4823 -0.5652
-4.3398 -0.4731 -0.5705
-4.3550 -0.4547 -0.5703
-4.3678 -0.4295 -0.5658
-4.3836 -0.4131 -0.5669
-4.3957 -0.3873 -0.5618
-4.4114 -0.3710 -0.5628
-4.5022 -0.2633 -0.5628
-4.5228 -0.2533 -0.5693
-4.5301 -0.2239 -0.5600
-4.5450 -0.2057 -0.5598
-4.5760 -0.1707 -0.5606
-4.5976 -0.1596 -0.5671
-4.6582 -0.0858 -0.5663
-4.7110 -0.0354 -0.5718
-4.7137 -0.0088 -0.5612
-4.7272 0.0104 -0.5598
-4.7391 0.0304 -0.5572
-4.8207 0.1186 -0.5610
-4.8604 0.1752 -0.5568
-4.8735 0.1938 -0.5554
-4.8942 0.2107 -0.5588
-4.9332 0.2458 -0.5639
-4.9595 0.2833 -0.5610
-4.9694 0.3022 -0.5578
-4.9801 0.3208 -0.5552
-5.0113 0.3381 -0.5640
-5.0244 0.3567 -0.5626
-5.0485 0.3751 -0.5673
-5.0672 0.3937 -0.5689
-5.0828 0.4306 -0.5606
-5.1003 0.4491 -0.5616
-5.1180 0.4678 -0.5626
-5.1332 0.4863 -0.5624
-5.1484 0.5049 -0.5622
-4.1941 -0.5930 -0.5729
-4.2384 -0.5445 -0.5749
-4.2530 -0.5267 -0.5747
-4.2677 -0.5090 -0.5745
-4.2823 -0.4912 -0.5743
-4.2974 -0.4755 -0.5754
-4.3115 -0.4557 -0.5740
-4.3249 -0.4339 -0.5712
-4.3389 -0.4142 -0.5697
-4.3534 -0.3966 -0.5695
-4.3672 -0.3770 -0.5681
-4.3838 -0.3650 -0.5717
-4.4022 -0.3562 -0.5779
-4.4146 -0.3330 -0.5739
-4.4242 -0.3049 -0.5660
-4.4567 -0.2763 -0.5707
-4.4703 -0.2570 -0.5693
-4.4849 -0.2393 -0.5691
-4.5263 -0.1834 -0.5659
-4.5564 -0.1496 -0.5668
-4.5769 -0.1383 -0.5730
-4.5916 -0.1204 -0.5728
-4.5999 -0.0966 -0.5662
-4.6448 -0.0448 -0.5669
-4.6580 -0.0261 -0.5655
-4.6696 -0.0065 -0.5627
-4.6914 0.0064 -0.5689
-4.7045 0.0251 -0.5674
-4.7160 0.0445 -0.5647
-4.7289 0.0629 -0.5632
-4.7466 0.0790 -0.5656
-4.7628 0.0960 -0.5666
-4.7858 0.1104 -0.5728
-4.7851 0.1340 -0.5612
-4.8030 0.1504 -0.5635
-4.8157 0.1685 -0.5621
-4.8302 0.1861 -0.5619
-4.8484 0.2028 -0.5642
-4.8648 0.2201 -0.5653
-4.8755 0.2386 -0.5625
-4.8901 0.2562 -0.5624
-4.9026 0.2741 -0.5609
-4.9170 0.2917 -0.5607
-4.9356 0.3089 -0.5630
-4.9502 0.3266 -0.5628
-4.9690 0.3441 -0.5652
-4.9793 0.3620 -0.5625
-5.0005 0.3796 -0.5660
-5.0084 0.3974 -0.5621
-5.0298 0.4152 -0.5656
-5.0421 0.4330 -0.5642
-5.0567 0.4507 -0.5640
-5.0737 0.4687 -0.5651
-5.0859 0.4863 -0.5636
-5.1005 0.5040 -0.5634
-5.1126 0.5215 -0.5620
-5.1247 0.5389 -0.5605
-5.1470 0.5578 -0.5641
-4.2262 -0.4920 -0.5684
-4.2396 -0.4729 -0.5669
-4.2548 -0.4626 -0.5707
-4.2694 -0.4489 -0.5725
-4.2838 -0.4340 -0.5737
-4.2960 -0.4098 -0.5688
-4.3250 -0.3799 -0.5711
-4.3370 -0.3572 -0.5669
-4.3501 -0.3385 -0.5654
-4.3800 -0.3103 -0.5690
-4.3916 -0.2881 -0.5648
-4.4050 -0.2705 -0.5640
-4.4179 -0.2520 -0.5625
-4.4339 -0.2393 -0.5656
-4.4487 -0.2241 -0.5668
-4.4744 -0.1873 -0.5637
-4.4893 -0.1720 -0.5649
-4.5021 -0.1537 -0.5634
-4.5142 -0.1349 -0.5612
-4.5736 -0.0721 -0.5651
-4.5849 -0.0529 -0.5623
-4.6047 -0.0411 -0.5680
-4.6126 -0.0193 -0.5619
-4.6257 -0.0020 -0.5610
-4.6778 0.0668 -0.5577
-4.6954 0.0815 -0.5608
-4.7092 0.0983 -0.5606
-4.7222 0.1154 -0.5598
-4.7385 0.1312 -0.5615
-4.7481 0.1496 -0.5581
-4.7697 0.1637 -0.5638
-4.7783 0.1823 -0.5597
-4.7812 0.2020 -0.5516
-4.8115 0.2145 -0.5633
-4.8301 0.2304 -0.5664
-4.8355 0.2491 -0.5603
-4.8533 0.2653 -0.5627
-4.8692 0.2820 -0.5638
-4.8770 0.2996 -0.5597
-4.8971 0.3159 -0.5635
-4.9184 0.3324 -0.5679
-4.9303 0.3496 -0.5664
-4.9444 0.3667 -0.5662
-4.9540 0.3838 -0.5634
-4.9725 0.4008 -0.5658
-4.9888 0.4180 -0.5669
-5.0193 0.4524 -0.5679
-5.0239 0.4688 -0.5624
-5.0366 0.4856 -0.5616
-5.0543 0.5030 -0.5634
-5.0733 0.5207 -0.5658
-4.2321 -0.4504 -0.5761
-4.2456 -0.4340 -0.5759
-4.2589 -0.4165 -0.5750
-4.2719 -0.3980 -0.5734
-4.2859 -0.3837 -0.5746
-4.3011 -0.3733 -0.5786
-4.3132 -0.3518 -0.5750
-4.3267 -0.3354 -0.5748
-4.3419 -0.3236 -0.5781
-4.3537 -0.3025 -0.5744
-4.3698 -0.2923 -0.5791
-4.3815 -0.2714 -0.5755
-4.4177 -0.2140 -0.5680
-4.4748 -0.1539 -0.5721
-4.4862 -0.1348 -0.5692
-4.5007 -0.1198 -0.5704
-4.5124 -0.1015 -0.5681
-4.5423 -0.0719 -0.5712
-4.6118 0.0087 -0.5724
-4.6275 0.0237 -0.5743
-4.6367 0.0430 -0.5700
-4.6502 0.0594 -0.5698
