ply
format ascii 1.0
element vertex 2120
property float x
property float y
property float z
end_header
-2.5733 3.1681 -0.5922
-2.6155 3.1739 -0.5925
-2.6577 3.1797 -0.5928
-2.6468 2.5501 -0.3479
-2.6754 2.5692 -0.3540
-2.7039 2.5854 -0.3590
-2.7423 2.6275 -0.3737
-2.7194 2.4524 -0.3065
-2.7318 2.4362 -0.2996
-2.7515 2.4379 -0.2994
-2.7692 2.4356 -0.2977
-2.7871 2.4343 -0.2963
-2.8059 2.4350 -0.2957
-2.8182 2.4244 -0.2910
-2.8353 2.4230 -0.2897
-2.9600 2.5639 -0.3388
-2.9789 2.5608 -0.3367
-2.9867 2.5421 -0.3291
-2.9956 2.5263 -0.3225
-3.0036 2.5104 -0.3159
-3.0129 2.4975 -0.3105
-1.3041 3.0661 -0.5638
-1.3628 3.0532 -0.5567
-1.4016 3.0652 -0.5594
-1.4758 3.0964 -0.5674
-1.6427 2.9784 -0.5181
-1.8701 2.7821 -0.4382
-1.9032 2.8686 -0.4678
-1.9460 2.8564 -0.4616
-1.9779 2.8703 -0.4653
-1.9998 2.9152 -0.4805
-2.0307 2.9394 -0.4879
-2.0609 2.9702 -0.4976
-2.1016 2.9653 -0.4942
-2.1458 2.9410 -0.4836
-2.1856 2.9312 -0.4784
-2.2228 2.9315 -0.4770
-2.2620 2.9141 -0.4691
-2.2977 2.9190 -0.4693
-2.3277 3.0117 -0.5013
-2.3589 3.2111 -0.5715
-2.4029 3.2096 -0.5691
-2.4464 3.2022 -0.5646
-2.4897 3.2082 -0.5649
-2.5341 3.2276 -0.5700
-2.5771 3.2269 -0.5680
-2.6226 3.2474 -0.5734
-2.6642 3.2388 -0.5686
-2.6143 2.5207 -0.3133
-2.6418 2.5407 -0.3193
-2.6693 2.5578 -0.3243
-2.7032 2.5920 -0.3351
-2.7373 2.6224 -0.3445
-2.7135 2.4449 -0.2819
-2.7312 2.4416 -0.2800
-2.7458 2.4322 -0.2760
-2.7607 2.4247 -0.2727
-2.7834 2.4336 -0.2749
-2.7960 2.4229 -0.2706
-2.8227 2.4075 -0.2639
-2.9567 2.5659 -0.3151
-2.9693 2.5534 -0.3101
-2.9869 2.5206 -0.2976
-3.0022 2.5150 -0.2949
-3.0123 2.5031 -0.2902
-0.9024 3.2302 -0.5861
-0.9443 3.2456 -0.5895
-1.0023 3.2439 -0.5868
-1.0590 3.2431 -0.5844
-1.1355 3.2181 -0.5733
-1.1967 3.2092 -0.5681
-1.2080 3.2636 -0.5855
-1.2872 3.2303 -0.5716
-1.3356 3.2370 -0.5719
-1.3940 3.2287 -0.5670
-1.6321 3.0820 -0.5099
-1.8578 2.8913 -0.4389
-1.9379 2.8832 -0.4332
-1.9653 2.9109 -0.4413
-1.9987 2.9251 -0.4447
-2.0171 2.9900 -0.4653
-2.1459 2.9453 -0.4458
-2.1888 2.9176 -0.4351
-2.2246 2.9226 -0.4353
-2.2609 2.9237 -0.4343
-2.2958 2.9372 -0.4374
-2.3078 3.3054 -0.5576
-2.3535 3.3357 -0.5658
-2.4005 3.3671 -0.5743
-2.4487 3.3900 -0.5800
-2.4976 3.4054 -0.5832
-2.5476 3.4295 -0.5893
-2.5958 3.4275 -0.5868
-2.6447 3.4342 -0.5871
-2.6136 2.5269 -0.2910
-2.6365 2.5301 -0.2912
-2.6701 2.5692 -0.3027
-2.6976 2.5836 -0.3064
-2.7313 2.6141 -0.3151
-2.7104 2.4443 -0.2602
-2.7202 2.4226 -0.2528
-2.7392 2.4242 -0.2526
-2.7557 2.4208 -0.2508
-2.7735 2.4203 -0.2500
-2.7883 2.4147 -0.2476
-2.7987 2.4017 -0.2430
-2.8143 2.3991 -0.2415
-2.9673 2.5573 -0.2876
-2.9811 2.5189 -0.2745
-2.9985 2.5165 -0.2730
-3.0140 2.5119 -0.2710
-0.9256 3.4076 -0.5855
-1.4600 3.3969 -0.5643
-1.5169 3.3951 -0.5619
-1.5912 3.3570 -0.5480
-1.9295 2.9112 -0.4041
-1.9387 2.9898 -0.4272
-1.8977 3.2308 -0.5002
-1.9677 3.3207 -0.5246
-2.1416 2.9703 -0.4146
-2.1893 2.9188 -0.3976
-2.2271 2.9095 -0.3936
-2.2594 2.9372 -0.4007
-2.3453 3.5293 -0.5740
-2.6134 2.5351 -0.2693
-2.6332 2.5262 -0.2660
-2.6655 2.5626 -0.2757
-2.6959 2.5871 -0.2820
-2.7224 2.5975 -0.2842
-2.7033 2.4333 -0.2360
-2.7179 2.4237 -0.2327
-2.7372 2.4264 -0.2328
-2.7512 2.4177 -0.2297
-2.7652 2.4099 -0.2270
-2.7763 2.3979 -0.2230
-2.7902 2.3921 -0.2208
-2.8186 2.4124 -0.2259
-2.8379 2.4161 -0.2263
-2.9885 2.5364 -0.2571
-2.9925 2.5147 -0.2505
-3.0047 2.5057 -0.2474
-0.6055 3.5589 -0.5784
-0.6651 3.5671 -0.5788
-0.7356 3.5631 -0.5757
-0.7843 3.5835 -0.5797
-0.8635 3.5680 -0.5732
-1.7353 2.6361 -0.2982
-1.1578 3.6085 -0.5754
-1.1942 3.6525 -0.5861
-1.2318 3.6986 -0.5973
-1.3476 3.6092 -0.5700
-1.3995 3.6290 -0.5738
-1.9321 2.9117 -0.3661
-1.8419 3.4052 -0.5008
-1.8838 3.4402 -0.5090
-1.9351 3.4473 -0.5093
-2.1858 2.9417 -0.3667
-2.2245 2.9285 -0.3620
-2.2650 2.8932 -0.3514
-2.3017 2.8729 -0.3448
-2.4301 2.5796 -0.2626
-2.4541 2.5653 -0.2581
-2.4785 2.5706 -0.2588
-2.5028 2.5740 -0.2589
-2.5274 2.5793 -0.2596
-2.5508 2.5767 -0.2582
-2.6113 2.5353 -0.2454
-2.6335 2.5364 -0.2450
-2.6622 2.5598 -0.2504
-2.6926 2.5854 -0.2564
-2.7210 2.6020 -0.2600
-2.7100 2.4572 -0.2216
-2.7173 2.4290 -0.2138
-2.7270 2.4098 -0.2084
-2.7429 2.4062 -0.2070
-2.7574 2.4004 -0.2050
-2.7736 2.3987 -0.2041
-2.7914 2.4002 -0.2039
-2.8084 2.4006 -0.2035
-2.8267 2.4031 -0.2037
-2.8468 2.4088 -0.2046
-2.9621 2.5328 -0.2344
-2.9791 2.5293 -0.2329
-2.9934 2.5225 -0.2307
-0.5224 3.8153 -0.5798
-0.6140 3.7954 -0.5727
-0.7373 3.7348 -0.5551
-1.7242 2.6150 -0.2633
-0.9691 3.9101 -0.5910
-1.1225 3.8978 -0.5841
-1.9640 3.0488 -0.3605
-1.9894 3.4492 -0.4552
-2.2367 2.8525 -0.3068
-2.2706 2.8493 -0.3052
-2.3019 2.8693 -0.3092
-2.5158 2.5009 -0.2160
-2.5664 2.5432 -0.2248
-2.5861 2.5302 -0.2212
-2.6082 2.5313 -0.2209
-2.6307 2.5344 -0.2210
-2.6538 2.5395 -0.2217
-2.6890 2.5826 -0.2310
-2.7133 2.5880 -0.2317
-2.7074 2.4575 -0.2008
-2.7111 2.4206 -0.1919
-2.7278 2.4180 -0.1908
-2.7443 2.4154 -0.1898
-2.7543 2.4001 -0.1859
-2.7687 2.3952 -0.1844
-2.7863 2.3966 -0.1842
-2.8242 2.4048 -0.1852
-2.8398 2.4030 -0.1844
-2.9629 2.5407 -0.2141
-2.9740 2.5285 -0.2109
-0.0933 4.0339 -0.5661
-0.1672 4.0440 -0.5666
-0.1892 4.1104 -0.5800
-0.2649 4.1208 -0.5806
-0.3889 4.0745 -0.5682
-1.7233 2.6227 -0.2358
-1.7439 2.6374 -0.2384
-1.7663 2.6503 -0.2407
-0.8826 4.1840 -0.5805
-0.9577 4.1943 -0.5811
-1.0328 4.2046 -0.5816
-1.0867 4.2556 -0.5911
-1.2205 4.1483 -0.5658
-2.0390 2.8304 -0.2725
-2.0584 2.8796 -0.2824
-1.9561 3.5941 -0.4341
-2.0012 3.6458 -0.4439
-2.2337 2.8740 -0.2774
-2.2706 2.8503 -0.2717
-2.5658 2.5494 -0.2024
-2.5871 2.5444 -0.2009
-2.6085 2.5414 -0.1998
-2.6282 2.5333 -0.1977
-2.6526 2.5435 -0.1993
-2.6828 2.5714 -0.2045
-2.7133 2.5964 -0.2090
-2.7114 2.4279 -0.1738
-2.7254 2.4189 -0.1716
-2.7359 2.4035 -0.1682
-2.7511 2.3997 -0.1671
-2.7671 2.3979 -0.1664
-2.7846 2.3993 -0.1663
-2.7996 2.3965 -0.1653
-2.8181 2.4000 -0.1657
-2.8353 2.4014 -0.1656
-2.9608 2.5443 -0.1928
-2.9785 2.5418 -0.1919
-2.9837 2.5218 -0.1876
-2.9941 2.5103 -0.1850
-1.7346 2.6140 -0.2051
-1.7411 2.6478 -0.2111
-1.7679 2.6545 -0.2119
-1.9952 2.8623 -0.2454
-2.0273 2.8717 -0.2466
-2.0536 2.9012 -0.2514
-1.9296 3.7121 -0.4002
-2.2711 2.8474 -0.2379
-2.5696 2.5812 -0.1845
-2.5937 2.5865 -0.1851
-2.6125 2.5681 -0.1814
-2.6236 2.5238 -0.1732
-2.6493 2.5403 -0.1757
-2.6770 2.5610 -0.1790
-2.7060 2.5830 -0.1825
-2.7074 2.4246 -0.1538
-2.7198 2.4123 -0.1514
-2.7354 2.4085 -0.1504
-2.7644 2.3985 -0.1481
-2.7789 2.3945 -0.1471
-2.7955 2.3948 -0.1469
-2.8069 2.3864 -0.1452
-2.8218 2.3844 -0.1445
-2.8431 2.3934 -0.1458
-2.9691 2.5344 -0.1691
-1.7237 2.6352 -0.1803
-1.7441 2.6501 -0.1823
-1.7726 2.6540 -0.1825
-1.7645 2.7152 -0.1920
-1.7627 2.8315 -0.2098
-1.7982 2.8324 -0.2094
-1.8378 2.8247 -0.2077
-1.8744 2.8217 -0.2067
-1.9072 2.8263 -0.2070
-1.9431 2.8232 -0.2060
-2.0471 2.8174 -0.2037
-2.0757 2.8333 -0.2058
-2.2766 2.8037 -0.1985
-2.3094 2.7871 -0.1955
-2.3384 2.8092 -0.1985
-2.6200 2.5182 -0.1502
-2.6422 2.5233 -0.1506
-2.6734 2.5577 -0.1555
-2.7053 2.5892 -0.1599
-2.6980 2.4536 -0.1392
-2.7089 2.4350 -0.1362
-2.7202 2.4194 -0.1337
-2.7460 2.4009 -0.1305
-2.7579 2.3915 -0.1289
-2.7710 2.3852 -0.1278
-2.7902 2.3909 -0.1284
-2.8014 2.3824 -0.1269
-2.8264 2.3979 -0.1290
-2.8609 2.4277 -0.1331
-2.8925 2.4512 -0.1362
-2.9208 2.4681 -0.1384
0.1047 4.2000 -0.3657
-0.0310 4.2420 -0.3696
-0.1278 4.2320 -0.3674
-1.7350 2.6262 -0.1507
-1.7510 2.6467 -0.1531
-1.7774 2.6533 -0.1537
-1.7899 2.7340 -0.1636
-1.8106 2.7551 -0.1661
-1.8614 2.7854 -0.1693
-1.8998 2.7755 -0.1677
-2.0335 2.7675 -0.1654
-2.2801 2.7771 -0.1642
-2.3098 2.7812 -0.1644
-2.3403 2.7753 -0.1633
-2.5999 2.5305 -0.1302
-2.6175 2.5167 -0.1283
-2.6447 2.5407 -0.1310
-2.6750 2.5712 -0.1345
-2.7011 2.5849 -0.1360
-2.6918 2.4439 -0.1184
-2.7015 2.4230 -0.1157
-2.7137 2.4105 -0.1140
-2.7290 2.4065 -0.1134
-2.7429 2.4003 -0.1125
-2.7574 2.3962 -0.1118
-2.7694 2.3877 -0.1106
-2.7849 2.3868 -0.1104
-2.7997 2.3848 -0.1100
-2.8253 2.4015 -0.1118
-2.8468 2.4105 -0.1127
-2.8751 2.4296 -0.1148
-2.8968 2.4377 -0.1156
-2.9150 2.4402 -0.1157
-2.9333 2.4427 -0.1159
0.1429 4.1701 -0.2856
0.0272 4.1411 -0.2820
0.0696 4.2730 -0.2952
-0.0092 4.2838 -0.2958
-0.0685 4.3165 -0.2986
-0.1290 4.3493 -0.3014
-1.7456 2.6180 -0.1221
-1.7580 2.6431 -0.1245
-1.7803 2.6554 -0.1256
-1.8155 2.6480 -0.1246
-1.8382 2.6603 -0.1257
-1.8663 2.6641 -0.1259
-1.8974 2.6623 -0.1255
-1.9282 2.6604 -0.1252
-1.9532 2.6700 -0.1259
-2.0101 2.6747 -0.1261
-2.0973 2.6745 -0.1255
-2.1263 2.6734 -0.1252
-2.1507 2.6879 -0.1265
-2.1849 2.6641 -0.1239
-2.2124 2.6648 -0.1238
-2.2367 2.6824 -0.1254
-2.2590 2.7181 -0.1288
-2.2808 2.7721 -0.1339
-2.3105 2.7732 -0.1338
-2.3405 2.7671 -0.1331
-2.4002 2.6661 -0.1228
-2.4263 2.6697 -0.1230
-2.4795 2.6903 -0.1247
-2.6164 2.5204 -0.1072
-2.6415 2.5371 -0.1087
-2.6702 2.5635 -0.1111
-2.6998 2.5890 -0.1134
-2.7031 2.4334 -0.0982
-2.7136 2.4164 -0.0965
-2.7260 2.4059 -0.0954
-2.7388 2.3975 -0.0945
-2.7499 2.3867 -0.0933
-2.7688 2.3924 -0.0938
-2.7808 2.3849 -0.0930
-2.8023 2.3950 -0.0938
-2.8189 2.3962 -0.0938
-2.8395 2.4042 -0.0945
-2.8548 2.4032 -0.0943
-2.8736 2.4078 -0.0946
0.2425 4.1999 -0.2123
0.1656 4.2105 -0.2129
0.1094 4.2418 -0.2150
0.0319 4.2525 -0.2155
-0.0651 4.2422 -0.2145
-0.1232 4.2738 -0.2166
-0.1645 4.3268 -0.2203
-1.7428 2.6281 -0.0958
-1.7610 2.6450 -0.0970
-1.7925 2.6432 -0.0968
-1.8183 2.6498 -0.0972
-1.8374 2.6678 -0.0984
-1.8735 2.6574 -0.0976
-1.9012 2.6612 -0.0978
-1.9273 2.6679 -0.0982
-1.9615 2.6582 -0.0974
-1.9888 2.6619 -0.0976
-2.0217 2.6521 -0.0969
-2.0756 2.6595 -0.0972
-2.1035 2.6602 -0.0972
-2.1351 2.6481 -0.0963
-2.1573 2.6676 -0.0976
-2.1905 2.6444 -0.0959
-2.2160 2.6510 -0.0963
-2.2413 2.6597 -0.0969
-2.2554 2.7438 -0.1028
-2.2819 2.7639 -0.1042
-2.3116 2.7608 -0.1039
-2.3414 2.7495 -0.1030
-2.3736 2.6624 -0.0967
-2.3998 2.6455 -0.0955
-2.4252 2.6510 -0.0958
-2.4514 2.6731 -0.0973
-2.4787 2.6974 -0.0989
-2.6362 2.5259 -0.0864
-2.6664 2.5588 -0.0886
-2.6956 2.5844 -0.0904
-2.7183 2.5875 -0.0906
-2.6987 2.4286 -0.0793
-2.7085 2.4104 -0.0780
-2.7240 2.4074 -0.0778
-2.7326 2.3901 -0.0765
-2.7478 2.3881 -0.0763
-2.7610 2.3827 -0.0759
-2.8119 2.3897 -0.0763
-2.8501 2.4011 -0.0770
-2.8658 2.4012 -0.0770
0.2785 4.1704 -0.1353
0.2238 4.2007 -0.1367
0.1679 4.2312 -0.1381
0.0712 4.2217 -0.1378
0.0743 4.3155 -0.1420
-0.0239 4.3052 -0.1416
-0.1209 4.2947 -0.1413
-0.2759 4.3160 -0.1424
-1.7406 2.6374 -0.0694
-1.7641 2.6468 -0.0698
-1.7935 2.6477 -0.0699
-1.8174 2.6572 -0.0703
-1.8138 2.7137 -0.0728
-1.8500 2.7052 -0.0725
-1.8865 2.6947 -0.0721
-1.9105 2.7073 -0.0727
-1.9432 2.7025 -0.0725
-1.9716 2.7064 -0.0727
-2.0024 2.7044 -0.0726
-2.0351 2.6965 -0.0723
-2.0661 2.6914 -0.0721
-2.0919 2.7012 -0.0726
-2.1223 2.6961 -0.0724
-2.1551 2.6799 -0.0717
-2.2271 2.7415 -0.0746
-2.2559 2.7424 -0.0746
-2.2842 2.7463 -0.0748
-2.3131 2.7440 -0.0748
-2.3423 2.7325 -0.0743
-2.3726 2.6746 -0.0717
-2.3988 2.6699 -0.0716
-2.4245 2.6579 -0.0711
-2.4502 2.6687 -0.0716
-2.6918 3.6637 -0.1162
-2.7344 3.6188 -0.1142
-2.6356 2.5316 -0.0657
-2.6635 2.5572 -0.0669
-2.7169 2.5915 -0.0684
-2.7011 2.4413 -0.0617
-2.7098 2.4197 -0.0608
-2.7192 2.4023 -0.0600
-2.7331 2.3970 -0.0598
-2.7419 2.3816 -0.0591
-2.7593 2.3851 -0.0593
-2.7727 2.3807 -0.0591
-2.7901 2.3841 -0.0593
-2.8082 2.3887 -0.0595
-2.8210 2.3842 -0.0593
-2.8426 2.3944 -0.0598
-2.8609 2.3990 -0.0600
0.2808 4.1909 -0.0617
0.1090 4.1915 -0.0625
0.0537 4.2221 -0.0634
-0.0219 4.2325 -0.0639
-0.0604 4.2837 -0.0650
-0.0997 4.3370 -0.0662
-0.2142 4.3048 -0.0662
-1.7507 2.6296 -0.0425
-1.7652 2.6514 -0.0430
-1.7958 2.6504 -0.0431
-1.8166 2.6647 -0.0435
-1.8010 2.7992 -0.0459
-1.8941 2.7463 -0.0453
-1.9250 2.7474 -0.0455
-1.9695 2.7170 -0.0452
-2.0004 2.7150 -0.0453
-2.0298 2.7159 -0.0454
-2.2022 2.7240 -0.0464
-2.2317 2.7186 -0.0464
-2.2597 2.7194 -0.0466
-2.2868 2.7262 -0.0468
-2.3143 2.7300 -0.0470
-2.3423 2.7276 -0.0471
-2.3714 2.6920 -0.0466
-2.3980 2.6800 -0.0465
-2.4238 2.6700 -0.0464
-2.6319 3.6090 -0.0648
-2.6803 3.6062 -0.0650
-2.7297 3.6130 -0.0653
-2.6321 2.5265 -0.0448
-2.6584 2.5479 -0.0453
-2.7169 2.5997 -0.0465
-2.7177 2.4048 -0.0429
-2.7270 2.3894 -0.0427
-2.7543 2.3807 -0.0427
-2.7663 2.3740 -0.0426
-2.7853 2.3808 -0.0428
-2.8031 2.3853 -0.0430
-2.8164 2.3819 -0.0430
-2.8301 2.3796 -0.0430
-2.8545 2.3945 -0.0434
-2.8720 2.3979 -0.0435
0.2940 4.1425 0.0115
0.2830 4.2113 0.0119
0.2284 4.2419 0.0116
0.1521 4.2524 0.0111
0.0758 4.2629 0.0105
-0.0572 4.2129 0.0091
-0.0767 4.2838 0.0094
-0.0786 4.3797 0.0101
-0.1574 4.3905 0.0095
-1.7594 2.6234 -0.0165
-1.7768 2.6405 -0.0165
-1.7969 2.6549 -0.0166
-1.8241 2.6586 -0.0168
-1.8331 2.6935 -0.0166
-1.7935 2.8193 -0.0153
-1.8462 2.7835 -0.0160
-1.8995 2.7414 -0.0168
-1.9388 2.7237 -0.0172
-1.9712 2.7187 -0.0175
-2.0080 2.7017 -0.0180
-2.0346 2.7085 -0.0181
-2.0921 2.7102 -0.0186
-2.1474 2.7178 -0.0190
-2.2033 2.7223 -0.0194
-2.2309 2.7261 -0.0196
-2.2584 2.7299 -0.0198
-2.2856 2.7368 -0.0200
-2.3135 2.7374 -0.0202
-2.3423 2.7235 -0.0206
-2.3701 2.7106 -0.0209
-2.3970 2.6975 -0.0212
-2.4232 2.7011 -0.0214
-2.4496 2.7099 -0.0216
-2.5816 3.6251 -0.0161
-2.6327 3.6427 -0.0164
-2.6720 3.5703 -0.0172
-2.7264 3.6156 -0.0173
-2.6337 2.5409 -0.0243
-2.6540 2.5406 -0.0245
-2.7148 2.6014 -0.0245
-2.7444 2.6244 -0.0246
-2.7083 2.4283 -0.0257
-2.7195 2.4151 -0.0259
-2.7265 2.3940 -0.0261
-2.7505 2.3784 -0.0264
-2.7640 2.3750 -0.0266
-2.7780 2.3727 -0.0267
-2.7962 2.3784 -0.0268
-2.8126 2.3806 -0.0269
-2.8317 2.3875 -0.0271
0.1484 4.1828 0.0823
0.0363 4.1548 0.0800
0.0979 4.3040 0.0856
0.0211 4.3146 0.0850
-0.0745 4.3044 0.0836
-0.1327 4.3357 0.0839
-1.7552 2.6354 0.0095
-1.7688 2.6585 0.0101
-1.7929 2.6671 0.0101
-1.8096 2.6884 0.0106
-1.8323 2.7010 0.0108
-1.8333 2.7541 0.0125
-1.8680 2.7483 0.0119
-1.9065 2.7335 0.0110
-1.9379 2.7314 0.0105
-1.9665 2.7354 0.0103
-2.0035 2.7182 0.0093
-2.0326 2.7191 0.0090
-2.2006 2.7390 0.0077
-2.2267 2.7521 0.0078
-2.2524 2.7715 0.0081
-2.2805 2.7785 0.0080
-2.3087 2.7856 0.0079
-2.3415 2.7308 0.0058
-2.3691 2.7230 0.0052
-2.3959 2.7235 0.0049
-2.4227 2.7335 0.0049
-2.4496 2.7404 0.0048
-2.6279 3.6261 0.0315
-2.6693 3.5747 0.0293
-2.6297 2.5335 -0.0041
-2.6518 2.5408 -0.0041
-2.6824 2.5746 -0.0033
-2.7093 2.5931 -0.0031
-2.7382 2.6151 -0.0027
-2.7214 2.4255 -0.0086
-2.7425 2.3998 -0.0097
-2.7455 2.3738 -0.0106
-2.7671 2.3863 -0.0105
-2.7793 2.3806 -0.0108
-2.8002 2.3908 -0.0107
-2.8168 2.3931 -0.0108
-2.7571 2.2315 -0.0154
0.1707 4.2223 0.1555
0.0767 4.2129 0.1536
0.0217 4.2428 0.1545
0.0435 4.3570 0.1614
-0.0535 4.3459 0.1592
-0.1484 4.3355 0.1572
-0.1891 4.3890 0.1597
-1.7544 2.6426 0.0355
-1.7791 2.6492 0.0355
-1.8090 2.6480 0.0350
-1.8159 2.6841 0.0370
-1.8366 2.6997 0.0375
-1.8340 2.7591 0.0410
-1.8599 2.7701 0.0412
-1.9041 2.7442 0.0391
-1.9371 2.7391 0.0383
-2.0003 2.7318 0.0369
-2.0307 2.7296 0.0363
-2.1119 2.7504 0.0363
-2.2142 2.8252 0.0390
-2.2429 2.8366 0.0392
-2.2746 2.8271 0.0382
-2.3059 2.8133 0.0369
-2.3402 2.7445 0.0325
-2.3680 2.7366 0.0316
-2.3950 2.7371 0.0312
-2.4219 2.7461 0.0313
-2.6285 3.6589 0.0806
-2.6717 3.6158 0.0775
-2.6276 2.5336 0.0160
-2.6534 2.5542 0.0168
-2.6766 2.5638 0.0170
-2.7367 2.6189 0.0192
-2.7310 2.4157 0.0076
-2.7441 2.4090 0.0070
-2.7534 2.3953 0.0061
-2.7660 2.3896 0.0056
-2.7819 2.3907 0.0054
-2.7405 2.2273 -0.0033
-2.7476 2.2209 -0.0038
-2.7489 2.2061 -0.0047
0.2590 4.1641 0.2231
0.2070 4.1938 0.2246
0.1729 4.2424 0.2280
0.0789 4.2328 0.2254
0.0628 4.3037 0.2309
-0.0321 4.2932 0.2283
-0.1250 4.2834 0.2258
-0.0904 4.4214 0.2378
-0.1312 4.4774 0.2416
-1.7604 2.6400 0.0605
-1.7763 2.6594 0.0618
-1.8070 2.6572 0.0611
-1.8349 2.6589 0.0607
-1.8375 2.7043 0.0644
-1.8457 2.7440 0.0675
-1.8626 2.7710 0.0694
-1.9091 2.7399 0.0660
-1.9404 2.7377 0.0652
-1.9648 2.7508 0.0658
-2.0298 2.7372 0.0635
-2.1087 2.8800 0.0738
-2.2107 2.8479 0.0692
-2.2425 2.8415 0.0681
-2.2750 2.8245 0.0661
-2.3073 2.7979 0.0633
-2.3386 2.7635 0.0599
-2.3664 2.7609 0.0592
-2.3939 2.7593 0.0586
-2.4212 2.7684 0.0588
-2.5806 3.7078 0.1329
-2.6270 3.6724 0.1292
-2.6716 3.6388 0.1256
-2.6450 2.5320 0.0352
-2.6767 2.5718 0.0379
-2.7317 2.6126 0.0402
-2.7629 2.6394 0.0419
-2.7942 2.6641 0.0433
-2.7614 2.3860 0.0211
-2.7599 2.3547 0.0185
-2.7536 2.3173 0.0156
-2.7372 2.2260 0.0084
-2.7501 2.2117 0.0070
-2.7523 2.1991 0.0059
0.1884 4.1937 0.2934
0.1408 4.3137 0.3051
0.0452 4.3031 0.3019
-0.0299 4.3134 0.3013
-0.1258 4.3979 0.3082
-0.2202 4.3871 0.3050
-1.7685 2.6343 0.0847
-1.7755 2.6666 0.0879
-1.8175 2.6465 0.0849
-1.8275 2.6770 0.0879
-1.8418 2.7028 0.0903
-1.8497 2.7428 0.0944
-1.8715 2.7598 0.0957
-1.9083 2.7476 0.0936
-1.9367 2.7515 0.0934
-1.9678 2.7493 0.0925
-2.0244 2.7571 0.0921
-2.0312 2.8239 0.0991
-2.0508 2.8612 0.1026
-2.2427 2.8422 0.0964
-2.2746 2.8282 0.0942
-2.3068 2.8024 0.0907
-2.3371 2.7806 0.0878
-2.3655 2.7715 0.0862
-2.3930 2.7721 0.0856
-2.5773 3.6997 0.1802
-2.6245 3.6760 0.1767
-2.6662 3.6223 0.1700
-2.7042 3.5637 0.1630
-2.6210 2.5235 0.0542
-2.6459 2.5432 0.0557
-2.6686 2.5528 0.0563
-2.7638 2.6502 0.0645
-2.7962 2.6773 0.0667
-2.8288 2.7023 0.0687
-2.8610 2.7240 0.0703
-2.7493 2.3142 0.0291
-2.7490 2.2904 0.0266
-2.7424 2.2204 0.0193
-2.7521 2.2184 0.0189
0.1225 4.3130 0.3754
0.0284 4.3031 0.3717
-0.0083 4.3549 0.3775
-0.0466 4.4081 0.3835
-0.1597 4.3758 0.3764
-1.7545 2.6200 0.1075
-1.7711 2.6364 0.1093
-1.8198 2.6485 0.1096
-1.8429 2.6571 0.1102
-1.8375 2.7163 0.1180
-1.8330 2.7798 0.1264
-1.8759 2.7574 0.1224
-1.9345 2.7622 0.1215
-1.9631 2.7662 0.1213
-1.9953 2.7608 0.1198
-2.0179 2.7802 0.1218
-2.0268 2.8424 0.1297
-2.0512 2.8653 0.1320
-1.9121 3.8843 0.2683
-2.2429 2.8427 0.1243
-2.3030 2.8401 0.1224
-2.3335 2.8269 0.1199
-2.3630 2.8146 0.1176
-2.3913 2.8218 0.1178
-2.5272 3.7393 0.2339
-2.5741 3.6924 0.2266
-2.6230 3.6894 0.2250
-2.6636 3.6264 0.2157
-2.6176 2.5177 0.0725
-2.6397 2.5284 0.0733
-2.6906 2.5669 0.0770
-2.7202 2.5949 0.0799
-2.7518 2.6254 0.0831
-2.7915 2.6733 0.0884
-2.7519 2.4089 0.0549
-2.7540 2.3820 0.0514
-2.7485 2.3431 0.0464
-2.7508 2.3217 0.0436
-2.7526 2.3012 0.0409
-2.7379 2.2350 0.0326
-2.7420 2.2236 0.0310
-2.7533 2.2241 0.0308
0.2136 4.2531 0.4386
0.1796 4.3027 0.4452
0.0855 4.2926 0.4410
0.0497 4.3436 0.4478
-0.0254 4.3539 0.4473
-0.1004 4.3642 0.4467
-0.1393 4.4178 0.4539
-1.7623 2.6149 0.1303
-1.7724 2.6404 0.1339
-1.7706 2.6862 0.1410
-1.8159 2.6606 0.1358
-1.8409 2.6662 0.1360
-1.8350 2.7268 0.1455
-1.8360 2.7806 0.1537
-1.8781 2.7590 0.1492
-1.9248 2.7895 0.1526
-1.9565 2.7873 0.1513
-1.9854 2.7913 0.1511
-2.0132 2.7984 0.1514
-2.0171 2.8767 0.1634
-2.0239 2.9588 0.1758
-1.9527 3.5034 0.2616
-1.9712 3.6342 0.2812
-2.5222 3.6891 0.2740
-2.5686 3.6549 0.2674
-2.6183 3.6716 0.2685
-2.6156 2.5174 0.0911
-2.6391 2.5338 0.0929
-2.6636 2.5514 0.0949
-2.6900 2.5726 0.0974
-2.7191 2.5996 0.1007
-2.7520 2.6337 0.1051
-2.7810 2.6541 0.1074
-2.7545 2.2297 0.0428
0.2474 4.2233 0.5021
0.1617 4.3024 0.5134
0.0878 4.3126 0.5129
0.0329 4.3433 0.5166
-0.0601 4.3329 0.5118
-0.0795 4.4062 0.5241
-0.1733 4.3948 0.5192
-1.7737 2.6443 0.1585
-1.8087 2.6337 0.1555
-1.8284 2.6463 0.1571
-1.8186 2.7619 0.1779
-1.8819 2.7574 0.1751
-1.9072 2.7675 0.1761
-1.9286 2.7870 0.1788
-1.9600 2.7847 0.1774
-2.0012 2.8367 0.1853
-2.0161 2.8851 0.1934
-2.0216 2.9719 0.2086
-2.0337 3.3674 0.2783
-2.0766 3.3733 0.2780
-2.2477 3.4046 0.2781
-2.2925 3.3876 0.2737
-2.3368 3.3562 0.2667
-2.3798 3.2992 0.2553
-2.4196 3.2462 0.2446
-2.4575 3.2271 0.2401
-2.7064 3.3783 0.2590
-2.6385 2.5393 0.1125
-2.6875 2.5725 0.1168
-2.7476 2.6293 0.1250
-2.7785 2.6556 0.1287
-2.8148 2.6926 0.1341
-2.8497 2.7228 0.1383
0.2043 4.3634 0.5949
0.1293 4.3738 0.5943
0.0161 4.3427 0.5842
-0.1317 4.3630 0.5831
-0.1710 4.4150 0.5921
-1.7743 2.6093 0.1751
-1.7825 2.6370 0.1803
-1.8178 2.6252 0.1767
-1.8352 2.6409 0.1793
-1.8194 2.7143 0.1945
-1.8126 2.7789 0.2077
-1.8463 2.7736 0.2054
-1.8748 2.7775 0.2052
-1.8970 2.7950 0.2079
-1.9259 2.7989 0.2077
-1.9940 2.7805 0.2017
-2.0302 2.7622 0.1968
-2.0557 2.7724 0.1979
-2.0415 3.1681 0.2776
-2.0750 3.1916 0.2811
-2.3800 3.2457 0.2813
-2.4557 3.2128 0.2721
-2.4928 3.2124 0.2707
-2.5305 3.2231 0.2716
-2.5626 3.1764 0.2611
-2.5934 3.1384 0.2524
-2.6333 2.5274 0.1288
-2.6590 2.5509 0.1326
-2.6847 2.5711 0.1358
-2.7136 2.5984 0.1402
-2.7431 2.6247 0.1444
-2.7765 2.6582 0.1500
-2.8108 2.6907 0.1553
-2.8306 2.4279 0.1020
-2.8615 2.4288 0.1011
0.0173 4.2733 0.6361
-0.0190 4.3219 0.6456
-0.0186 4.4147 0.6662
0.0019 4.5371 0.6943
0.0236 4.6694 0.7246
-0.1544 4.5586 0.6931
-1.7600 2.6353 0.2039
-1.7804 2.6459 0.2055
-1.8124 2.6392 0.2028
-1.8325 2.6509 0.2046
-1.7992 2.7548 0.2290
-1.8152 2.7805 0.2342
-1.8693 2.7946 0.2353
-1.9040 2.7860 0.2320
-1.9465 2.7582 0.2242
-1.9842 2.7377 0.2182
-2.0100 2.7446 0.2188
-2.0359 2.7515 0.2193
-2.0602 2.7638 0.2212
-2.0856 2.7740 0.2225
-2.1060 2.8037 0.2283
-2.1090 2.9070 0.2512
-2.1027 3.0750 0.2888
-2.1435 3.0504 0.2818
-2.4847 3.0873 0.2771
-2.5198 3.1066 0.2801
-2.5492 3.0626 0.2692
-2.5836 3.0774 0.2711
-2.6121 3.0488 0.2637
-2.6438 3.0487 0.2625
-2.6290 2.5188 0.1450
-2.6561 2.5482 0.1506
-2.6794 2.5615 0.1526
-2.7102 2.5959 0.1591
-2.7321 2.6012 0.1595
-2.7683 2.6442 0.1677
-2.7997 2.6709 0.1724
-2.7876 2.4724 0.1287
-2.8215 2.4446 0.1212
-2.8273 2.4275 0.1172
-2.8423 2.4273 0.1166
-2.8662 2.4418 0.1189
0.8569 3.5274 0.5731
0.8923 3.4859 0.5830
1.0233 3.4991 0.6128
-0.2109 2.5587 0.3640
-0.3553 2.4090 0.3364
-0.3990 2.3109 0.3302
-0.9081 1.6928 0.2367
-0.8956 1.6622 0.2408
-0.8643 1.6311 0.2493
-0.8511 1.5983 0.2537
-0.8413 1.5647 0.2573
-0.7763 1.5275 0.2739
-0.7493 1.4897 0.2816
-0.6983 1.4478 0.2951
-0.5474 1.3477 0.3341
-0.5315 1.3022 0.3396
-0.4854 1.2492 0.3524
-0.4192 1.1888 0.3702
-0.3095 1.1132 0.3987
-0.2670 1.0507 0.4110
-0.2227 0.9850 0.4239
-0.0841 0.8842 0.4601
0.0766 0.7673 0.5020
0.1412 0.6792 0.5205
1.8672 -2.8257 1.0605
1.1579 -2.1613 0.8695
0.9905 3.5595 0.5363
0.9563 3.4725 0.5323
1.0701 3.4715 0.5561
-0.3250 2.4286 0.3027
-0.3393 2.3814 0.3014
-0.3453 2.3379 0.3018
-0.3595 2.2913 0.3005
0.0140 2.1300 0.3845
-0.2238 2.0268 0.3386
-0.2679 1.9719 0.3313
-0.9407 1.6919 0.2010
-0.9083 1.6629 0.2088
-0.8594 1.6323 0.2201
-0.8496 1.5992 0.2234
-0.8113 1.5646 0.2327
-0.7700 1.5277 0.2427
-0.7312 1.4886 0.2522
-0.6905 1.4471 0.2622
-0.5365 1.3455 0.2982
-0.5056 1.2967 0.3064
-0.4966 1.2505 0.3100
-0.3966 1.1820 0.3334
-0.2824 1.1042 0.3601
-0.2595 1.0463 0.3670
-0.0106 0.8557 0.4260
0.0899 0.7584 0.4506
0.0815 0.6985 0.4510
1.6954 -2.6662 0.9117
1.0673 -2.0838 0.7591
0.9618 3.4889 0.4658
1.0258 3.4591 0.4787
0.9654 3.3567 0.4709
0.8851 3.2459 0.4597
-0.3104 2.4414 0.2644
-0.3668 2.3757 0.2562
-0.3707 2.2925 0.2582
-0.4773 2.2132 0.2410
-0.3180 2.1415 0.2730
-0.5751 1.9919 0.2303
-0.5874 1.9512 0.2293
-0.7182 1.8877 0.2072
-0.8067 1.8042 0.1935
-0.8629 1.7639 0.1844
-0.9031 1.7277 0.1782
-0.9120 1.6955 0.1776
-0.8943 1.6648 0.1819
-0.8899 1.6327 0.1838
-0.8769 1.6002 0.1873
-0.7628 1.5279 0.2109
-0.7297 1.4888 0.2183
-0.7230 1.4505 0.2209
-0.5623 1.3491 0.2541
-0.5317 1.3007 0.2614
-0.4917 1.2483 0.2706
-0.4084 1.1834 0.2882
-0.3057 1.1084 0.3098
-0.2924 1.0535 0.3141
-0.0514 0.8663 0.3652
0.0745 0.7601 0.3921
0.1099 0.6827 0.4013
1.7616 -0.2029 0.7378
1.7469 -0.3087 0.7386
1.5353 -2.5174 0.7730
1.1427 -2.1948 0.6893
0.9568 3.4321 0.3988
0.9229 3.3455 0.3959
0.8892 3.2600 0.3930
0.4505 2.9081 0.3325
0.1788 2.7212 0.2940
-0.3697 2.3804 0.2153
-0.4394 2.3112 0.2061
-0.4452 2.2694 0.2064
-0.4809 2.2168 0.2022
-0.5290 2.1614 0.1960
-0.5140 2.1279 0.1995
-0.4525 2.1069 0.2101
-0.4119 2.0773 0.2176
-0.4575 2.0243 0.2118
-0.7998 1.8075 0.1628
-0.8936 1.7303 0.1499
-0.9278 1.6958 0.1454
-0.9025 1.6657 0.1504
-0.8764 1.6342 0.1556
-0.8853 1.6011 0.1551
-0.7612 1.5283 0.1774
-0.7273 1.4889 0.1841
-0.6981 1.4480 0.1901
-0.5581 1.3479 0.2158
-0.5501 1.3032 0.2185
-0.5337 1.2560 0.2225
-0.2982 1.1045 0.2653
-0.2338 1.0341 0.2779
-0.0138 0.8499 0.3192
0.0737 0.7564 0.3362
1.5040 0.0117 0.5907
1.5282 -0.1050 0.5981
1.5541 -0.2248 0.6059
1.3020 -1.1505 0.5929
2.0252 -1.8538 0.7314
1.5500 -2.5618 0.6757
0.9568 -2.0071 0.5627
0.9346 3.5657 0.3233
0.9482 3.5074 0.3267
0.9628 3.4487 0.3303
0.8348 3.3083 0.3164
0.6560 3.1454 0.2960
0.1923 2.7361 0.2428
-0.2954 2.4185 0.1838
-0.3454 2.3553 0.1786
-0.4009 2.2919 0.1726
-0.4309 2.2400 0.1699
-0.4971 2.1769 0.1624
-0.4881 2.1406 0.1646
-0.2753 2.1185 0.1947
-0.6813 1.9369 0.1434
-0.8974 1.7317 0.1189
-0.9283 1.6973 0.1156
-0.9283 1.6658 0.1164
-0.9023 1.6347 0.1209
-0.8797 1.6021 0.1249
-0.7597 1.5288 0.1434
-0.7541 1.4913 0.1452
-0.6716 1.4453 0.1579
-0.6120 1.3977 0.1674
-0.5625 1.3481 0.1756
-0.5314 1.2990 0.1812
-0.4594 1.2393 0.1928
-0.3335 1.1625 0.2123
-0.3110 1.1059 0.2169
-0.2783 1.0447 0.2230
-0.0286 0.8515 0.2628
0.0026 0.7790 0.2690
1.5164 -0.0019 0.4995
1.5025 -0.1022 0.5002
1.9210 -0.4150 0.5665
2.2269 -1.4906 0.6377
1.3491 -1.2052 0.5086
1.6591 -1.5731 0.5613
1.9140 -2.8594 0.6311
1.1402 -2.1300 0.5044
0.9789 3.5398 0.2602
0.9192 3.4362 0.2558
0.8856 3.3496 0.2540
0.8522 3.2641 0.2522
0.7538 3.1455 0.2437
0.4533 2.9291 0.2145
0.2656 2.7799 0.1965
-0.1339 2.5417 0.1565
-0.2417 2.4483 0.1464
-0.4565 2.2358 0.1268
-0.4782 2.1882 0.1254
-0.5055 2.1396 0.1235
-0.8705 1.7689 0.0905
-0.8926 1.7340 0.0888
-0.9146 1.6999 0.0871
-0.9017 1.6685 0.0893
-0.9063 1.6357 0.0895
-0.8882 1.6030 0.0924
-0.8317 1.5682 0.0996
-0.7531 1.5290 0.1095
-0.7529 1.4915 0.1104
-0.6816 1.4464 0.1196
-0.6088 1.3970 0.1291
-0.5512 1.3459 0.1369
-0.5719 1.3056 0.1354
-0.4543 1.2371 0.1505
-0.3648 1.1684 0.1623
-0.3330 1.1098 0.1673
-0.2292 1.0279 0.1811
-0.0993 0.9315 0.1982
-0.0043 0.8395 0.2112
0.0857 0.7435 0.2237
1.3424 0.0656 0.3831
1.5163 -0.1177 0.4073
1.5818 -0.2584 0.4181
2.0253 -0.6017 0.4768
1.8933 -0.7759 0.4658
1.7833 -0.8315 0.4545
1.6478 -1.1009 0.4453
1.4275 -1.0580 0.4192
1.7520 -1.4206 0.4647
1.3612 -1.2326 0.4157
1.3847 -1.3653 0.4215
1.5961 -2.5414 0.4732
1.4110 -2.4619 0.4502
0.9094 -2.0018 0.3822
0.9249 3.4529 0.1862
0.9635 3.4070 0.1905
0.8801 3.2917 0.1854
0.8237 3.1940 0.1823
0.4628 2.8845 0.1561
0.2572 2.7297 0.1408
-0.4615 2.2792 0.0853
-0.4527 2.2424 0.0869
-0.4811 2.1921 0.0853
-0.5015 2.1454 0.0844
-0.9054 1.7344 0.0564
-0.9186 1.7011 0.0559
-0.9015 1.6699 0.0581
-0.8696 1.6379 0.0616
-0.8310 1.5689 0.0664
-0.7838 1.5311 0.0714
-0.7391 1.4908 0.0762
-0.7033 1.4487 0.0803
-0.5842 1.3505 0.0929
-0.5306 1.2972 0.0988
-0.4827 1.2419 0.1042
-0.3948 1.1740 0.1135
-0.3271 1.1063 0.1209
-0.0379 0.9086 0.1508
0.0214 0.8268 0.1577
0.0842 0.7398 0.1651
1.3178 0.0683 0.2892
1.3767 -0.0618 0.2971
1.5963 -0.2758 0.3211
1.4621 -0.3175 0.3099
1.7400 -0.5814 0.3401
1.8168 -0.7449 0.3502
1.9470 -0.9470 0.3660
1.6943 -0.9099 0.3426
1.5920 -0.9603 0.3344
1.5771 -1.0674 0.3352
1.4400 -1.0838 0.3232
1.4911 -1.3552 0.3333
1.8011 -2.7963 0.3899
0.8453 3.4847 0.1096
0.8585 3.4265 0.1114
0.9686 3.4232 0.1186
0.8855 3.3073 0.1152
0.8752 3.2334 0.1157
0.3693 2.7906 0.0903
-0.4438 2.3320 0.0452
-0.4419 2.2924 0.0459
-0.4557 2.2466 0.0458
-0.4695 2.2011 0.0457
-0.4977 2.1513 0.0447
0.5499 2.3620 0.1091
0.6010 2.3088 0.1133
-0.9183 1.7027 0.0248
-0.8921 1.6385 0.0276
-0.8692 1.6050 0.0296
-0.8400 1.5699 0.0321
-0.7499 1.5300 0.0386
-0.7320 1.4906 0.0404
-0.6640 1.4447 0.0456
-0.6299 1.3994 0.0486
-0.5732 1.3483 0.0531
-0.3618 1.1645 0.0698
-0.3204 1.1024 0.0735
-0.0528 0.9102 0.0941
-0.0477 0.8475 0.0955
0.1925 0.6942 0.1136
1.2371 0.1957 0.1896
1.2580 0.0864 0.1927
1.2448 -0.0088 0.1935
1.3379 -0.1572 0.2019
1.5965 -0.3996 0.2227
2.1064 -0.7991 0.2624
2.0896 -0.9197 0.2633
1.5229 -0.9288 0.2267
1.6358 -1.1258 0.2373
1.4934 -1.1405 0.2283
1.1804 -1.0144 0.2059
1.5901 -1.4543 0.2398
0.9216 3.5461 0.0422
0.9597 3.5009 0.0443
0.8527 3.3692 0.0418
0.8665 3.3094 0.0431
0.8323 3.2226 0.0429
0.7550 3.1148 0.0412
0.3872 2.8083 0.0306
-0.4312 2.3432 0.0043
-0.4451 2.2968 0.0043
-0.4355 2.2595 0.0052
-0.4493 2.2133 0.0052
-0.4863 2.1598 0.0045
0.5622 2.3055 0.0441
0.5329 2.2314 0.0439
-0.9224 1.7040 -0.0069
-0.8133 1.5701 -0.0008
-0.7816 1.5322 0.0010
-0.7470 1.4921 0.0029
-0.6343 1.3997 0.0085
-0.5698 1.3472 0.0118
-0.3768 1.2169 0.0211
-0.3458 1.1590 0.0231
-0.3028 1.0957 0.0257
-0.0545 0.9076 0.0380
-0.0224 0.8348 0.0402
0.1277 0.7145 0.0477
1.3768 0.0257 0.1063
1.3264 -0.0562 0.1053
1.2772 -0.1366 0.1044
1.6548 -0.4421 0.1234
2.1345 -1.2291 0.1527
1.3869 -1.0780 0.1211
1.3344 -1.1517 0.1200
1.7421 -1.5981 0.1420
0.8887 3.6069 -0.0312
0.9025 3.5482 -0.0305
0.9162 3.4884 -0.0297
0.8818 3.3994 -0.0294
0.8954 3.3384 -0.0286
0.8135 3.2247 -0.0287
0.7366 3.1168 -0.0287
0.6411 3.0027 -0.0290
0.5327 2.8865 -0.0294
-0.4345 2.3478 -0.0379
-0.4406 2.3043 -0.0376
-0.4466 2.2608 -0.0373
-0.4604 2.2145 -0.0370
-0.4972 2.1610 -0.0370
0.3247 2.2506 -0.0263
-0.9047 1.6739 -0.0382
-0.8173 1.5710 -0.0359
-0.7796 1.5326 -0.0350
-0.7226 1.4905 -0.0338
-0.6184 1.4402 -0.0319
-0.6109 1.3964 -0.0314
-0.5583 1.3449 -0.0301
-0.4076 1.2222 -0.0268
-0.3393 1.1557 -0.0252
-0.3059 1.0944 -0.0242
-0.0565 0.9049 -0.0189
-0.0247 0.8319 -0.0177
0.0814 0.7278 -0.0152
1.1560 0.2147 0.0048
1.2793 0.0606 0.0080
1.3376 -0.0707 0.0101
1.4364 -0.2269 0.0130
1.5422 -0.3936 0.0161
1.4468 -0.4538 0.0153
1.9232 -0.8504 0.0258
1.6682 -1.1837 0.0254
1.3604 -1.0750 0.0200
1.4244 -1.2404 0.0225
1.7607 -1.6342 0.0310
0.3688 -1.4571 0.0097
0.8835 3.5503 -0.1032
0.8492 3.4612 -0.1022
0.8866 3.4155 -0.1024
0.8524 3.3270 -0.1015
0.7947 3.2268 -0.1002
0.7396 3.1300 -0.0990
0.7083 3.0472 -0.0981
-0.3970 2.3699 -0.0811
-0.4749 2.2961 -0.0797
-0.4809 2.2531 -0.0794
-0.4869 2.2102 -0.0791
-0.5081 2.1622 -0.0786
-0.4912 2.1268 -0.0785
-0.4744 2.0902 -0.0785
-0.4405 2.0569 -0.0787
-0.4295 2.0163 -0.0786
-0.4025 1.9781 -0.0787
-0.8372 1.6082 -0.0714
-0.8266 1.5720 -0.0713
-0.7954 1.5340 -0.0715
-0.7326 1.4916 -0.0719
-0.6426 1.4427 -0.0727
-0.6422 1.4003 -0.0725
-0.5848 1.3485 -0.0728
-0.4281 1.2253 -0.0739
-0.3421 1.1547 -0.0745
-0.2890 1.0877 -0.0748
-0.1633 0.9954 -0.0757
-0.0845 0.9109 -0.0761
-0.0123 0.8236 -0.0765
1.2325 0.1754 -0.0873
1.4387 -0.0191 -0.0885
1.4635 -0.1402 -0.0881
1.3343 -0.1854 -0.0863
1.2487 -0.2471 -0.0850
1.3817 -0.4289 -0.0854
1.5692 -0.6525 -0.0863
1.6395 -1.1805 -0.0840
1.4939 -1.1938 -0.0822
1.5211 -1.3355 -0.0817
1.0027 -2.0151 -0.0716
0.6399 -1.7044 -0.0692
0.2675 -1.3570 -0.0668
0.9121 3.5829 -0.1777
0.9513 3.5381 -0.1791
0.9158 3.4465 -0.1775
0.8805 3.3561 -0.1760
0.7995 3.2418 -0.1726
0.7434 3.1438 -0.1703
0.6677 3.0380 -0.1672
-0.4146 2.3265 -0.1244
-0.4689 2.2632 -0.1222
-0.4674 2.2225 -0.1222
-0.4734 2.1788 -0.1218
-0.5174 2.1232 -0.1200
-0.5082 2.0849 -0.1203
-0.4681 2.0539 -0.1218
-0.4250 2.0214 -0.1233
-0.9302 1.6753 -0.1033
-0.8995 1.6431 -0.1044
-0.8515 1.6091 -0.1062
-0.8152 1.5726 -0.1075
-0.7988 1.5348 -0.1080
-0.6604 1.4446 -0.1131
-0.6184 1.3970 -0.1145
-0.5960 1.3498 -0.1153
-0.3953 1.2169 -0.1226
-0.3451 1.1537 -0.1244
-0.1123 0.9168 -0.1327
-0.0416 0.8303 -0.1352
1.1404 0.2064 -0.1787
1.3005 0.0342 -0.1844
1.4369 -0.1373 -0.1892
1.4621 -0.2610 -0.1899
1.4732 -0.4935 -0.1898
1.5415 -0.6495 -0.1920
1.9684 -1.3047 -0.2067
1.7975 -1.3142 -0.2002
1.6400 -1.3238 -0.1942
1.6698 -1.4736 -0.1950
1.1132 -2.1674 -0.1723
0.6699 -1.7637 -0.1563
0.8216 3.5393 -0.2470
0.8822 3.5095 -0.2509
0.9467 3.4789 -0.2551
0.9102 3.3866 -0.2529
0.8039 3.2568 -0.2462
0.8401 3.2071 -0.2486
0.6086 3.0193 -0.2339
0.5779 2.9391 -0.2321
-0.3923 2.3417 -0.1702
-0.3900 2.2995 -0.1704
-0.3520 2.2699 -0.1729
-0.4114 2.2050 -0.1692
-0.4338 2.1543 -0.1678
-0.3867 2.0799 -0.1710
-0.3305 2.0483 -0.1746
-0.2377 2.0214 -0.1807
-0.8990 1.6444 -0.1385
-0.8196 1.5735 -0.1437
-0.7870 1.5348 -0.1459
-0.7465 1.4934 -0.1485
-0.6639 1.4451 -0.1539
-0.6152 1.3963 -0.1572
-0.5780 1.3464 -0.1596
-0.4358 1.2244 -0.1690
-0.3870 1.1622 -0.1723
-0.1802 0.9950 -0.1859
-0.0889 0.9057 -0.1919
-0.0434 0.8271 -0.1949
1.5050 -0.0671 -0.2963
1.7529 -0.2998 -0.3126
1.4061 -0.4674 -0.2905
1.7346 -1.5460 -0.3132
1.7002 -2.5910 -0.3125
1.7838 -2.8236 -0.3182
0.9205 -1.9729 -0.2612
0.8159 3.4822 -0.3206
0.8523 3.4360 -0.3242
0.8906 3.3888 -0.3279
0.8080 3.2719 -0.3209
0.8207 3.2092 -0.3224
0.6960 3.0752 -0.3117
0.6214 2.9710 -0.3054
0.4545 2.8270 -0.2909
-0.4289 2.3326 -0.2125
-0.3931 2.3042 -0.2159
-0.3909 2.2613 -0.2163
-0.3973 2.2151 -0.2160
-0.4208 2.1634 -0.2141
-0.3198 2.1491 -0.2234
-0.2578 2.1190 -0.2293
-0.2542 2.0712 -0.2298
-0.2613 2.0205 -0.2295
-0.9607 1.6764 -0.1672
-0.9028 1.6456 -0.1726
-0.8596 1.6112 -0.1768
-0.8189 1.5744 -0.1807
-0.8180 1.5369 -0.1810
-0.6484 1.4436 -0.1970
-0.6263 1.3976 -0.1992
-0.5814 1.3463 -0.2036
-0.4394 1.2238 -0.2173
-0.3998 1.1636 -0.2212
-0.1086 0.9704 -0.2489
-0.0505 0.8895 -0.2546
-0.0589 0.8288 -0.2542
1.5763 0.0062 -0.4083
1.5191 -0.0828 -0.4035
1.8193 -0.3430 -0.4323
1.3939 -0.3598 -0.3934
1.5010 -0.5351 -0.4042
1.3702 -1.1532 -0.3954
1.6040 -2.6536 -0.4246
0.2195 -1.2743 -0.2906
0.1167 -1.2367 -0.2810
-0.0105 -1.1612 -0.2689
1.0652 3.5796 -0.4243
1.1100 3.5311 -0.4301
0.8602 3.3141 -0.4023
0.7783 3.1990 -0.3936
0.6774 3.0773 -0.3827
0.6032 2.9730 -0.3748
0.4752 2.8466 -0.3607
0.4004 2.6870 -0.3532
0.3995 2.3022 -0.3566
0.4655 2.2526 -0.3649
0.5560 2.2046 -0.3761
0.4460 2.1125 -0.3638
-0.9558 1.6781 -0.2009
-0.8284 1.5754 -0.2170
-0.8114 1.5372 -0.2194
-0.7305 1.4929 -0.2294
-0.6852 1.4474 -0.2352
-0.6512 1.4006 -0.2397
-0.6225 1.3523 -0.2435
-0.5211 1.2884 -0.2562
-0.4607 1.2271 -0.2639
-0.3647 1.1532 -0.2760
-0.2354 1.0640 -0.2922
-0.1237 0.9721 -0.3063
-0.1057 0.9045 -0.3090
-0.0340 0.8157 -0.3184
1.3106 0.1108 -0.4847
1.3717 -0.0249 -0.4932
1.3194 -0.1100 -0.4877
1.2683 -0.1932 -0.4824
1.2542 -0.2946 -0.4816
1.2401 -0.3960 -0.4809
1.2997 -0.5427 -0.4893
1.2651 -1.0896 -0.4901
1.1769 -1.1343 -0.4800
0.6399 -1.6977 -0.4212
0.2789 -1.3673 -0.3752
-0.0022 -1.1101 -0.3395
-0.1039 -1.0624 -0.3269
0.4478 2.9070 -0.4249
0.3835 2.8135 -0.4167
0.4483 2.7805 -0.4266
-0.2032 2.1942 -0.3385
0.6120 2.2954 -0.4569
0.6452 2.2307 -0.4626
0.6347 2.1551 -0.4620
-0.8530 1.5767 -0.2511
-0.7882 1.5367 -0.2611
-0.7289 1.4931 -0.2704
-0.6761 1.4466 -0.2787
-0.4753 1.2788 -0.3104
-0.4283 1.2187 -0.3180
-0.2273 1.0594 -0.3496
-0.1262 0.9699 -0.3656
-0.1210 0.9062 -0.3672
0.0830 0.7686 -0.3989
0.1215 0.6839 -0.4056
0.9994 0.1371 -0.5415
1.0823 -0.0035 -0.5555
1.2423 -0.1904 -0.5814
1.0556 -0.1959 -0.5540
0.9781 -0.2545 -0.5434
1.2965 -0.6679 -0.5954
1.0681 -0.6261 -0.5614
0.9256 -0.6317 -0.5405
0.8824 -0.7035 -0.5351
1.1649 -1.0290 -0.5808
0.9485 -0.9657 -0.5482
0.9351 -1.0620 -0.5475
0.9861 -1.2154 -0.5569
0.9725 -1.3137 -0.5562
0.9269 -1.3813 -0.5504
0.8507 -1.4161 -0.5396
0.8682 -1.5431 -0.5438
0.8242 -1.6066 -0.5382
0.8728 -1.7702 -0.5474
0.8905 -1.9030 -0.5517
0.8147 -1.9280 -0.5409
0.4788 -1.6325 -0.4878
0.0971 -1.2550 -0.4270
0.4873 2.8079 -0.5025
0.5169 2.7551 -0.5086
0.4880 2.6769 -0.5048
0.4393 2.5922 -0.4977
-0.2687 2.1800 -0.3808
0.5826 2.2231 -0.5290
0.5938 2.1529 -0.5321
-0.8823 1.6502 -0.2823
-0.8263 1.6149 -0.2927
-0.8365 1.5773 -0.2916
-0.7922 1.5375 -0.3000
-0.7324 1.4938 -0.3112
-0.6741 1.4465 -0.3222
-0.6173 1.3957 -0.3330
-0.4877 1.2801 -0.3576
-0.4130 1.2140 -0.3717
-0.2186 1.0545 -0.4084
0.2962 0.6089 -0.5060
0.5130 0.4383 -0.5468
0.5704 0.3272 -0.5587
0.4909 0.2795 -0.5456
0.4040 0.1569 -0.5324
0.4578 0.0413 -0.5437
0.5138 -0.0799 -0.5556
0.5491 -0.1919 -0.5636
0.6120 -0.5142 -0.5801
0.4915 -0.7924 -0.5636
0.5037 -0.8982 -0.5675
0.5404 -1.0292 -0.5762
0.3996 -1.0796 -0.5524
0.4803 -1.2606 -0.5695
0.4684 -1.3457 -0.5689
0.3878 -1.3516 -0.5549
0.2906 -1.3329 -0.5375
0.6196 3.3479 -0.5898
0.6302 3.2886 -0.5932
0.5383 3.1693 -0.5769
0.3167 2.9224 -0.5370
0.3588 2.8834 -0.5463
0.3677 2.8259 -0.5493
0.4219 2.7240 -0.5625
0.3220 2.6188 -0.5443
0.2961 2.5463 -0.5406
-0.1821 2.3137 -0.4481
-0.3048 2.2224 -0.4250
-0.3221 2.1691 -0.4226
-0.3290 2.1193 -0.4222
-0.3360 2.0694 -0.4218
-0.3030 2.0286 -0.4294
-0.9014 1.6509 -0.3154
-0.8360 1.6159 -0.3295
-0.8244 1.5780 -0.3326
-0.7795 1.5376 -0.3426
-0.6918 1.4484 -0.3623
-0.6209 1.3959 -0.3778
-0.3900 1.2606 -0.4276
0.2044 0.6405 -0.5614
0.2123 0.5622 -0.5647
0.2024 0.4911 -0.5641
0.1925 0.4200 -0.5636
0.2186 0.3299 -0.5708
0.2270 0.2474 -0.5742
0.2169 0.1747 -0.5736
0.2250 0.0905 -0.5770
0.1613 0.0526 -0.5649
0.1332 -0.0065 -0.5604
0.1584 -0.1031 -0.5675
0.1314 -0.1623 -0.5632
0.1214 -0.2339 -0.5627
0.1114 -0.3055 -0.5622
0.0838 -0.3619 -0.5577
0.0915 -0.4488 -0.5611
0.1157 -0.5525 -0.5682
0.1056 -0.6252 -0.5676
0.0781 -0.6804 -0.5632
0.0854 -0.7706 -0.5665
0.0753 -0.8434 -0.5660
0.0480 -0.8969 -0.5615
0.0380 -0.9690 -0.5610
0.0449 -1.0615 -0.5643
0.0348 -1.1342 -0.5638
0.1737 2.9701 -0.5697
0.1353 2.8924 -0.5627
0.1269 2.8321 -0.5623
0.1186 2.7718 -0.5618
0.1102 2.7115 -0.5613
-0.0085 2.6005 -0.5365
-0.0370 2.4806 -0.5328
-0.1073 2.3996 -0.5185
-0.1740 2.3230 -0.5049
-0.2568 2.2441 -0.4876
-0.3441 2.1677 -0.4692
-0.2712 2.1406 -0.4868
-0.1458 2.1227 -0.5164
-0.0926 2.0812 -0.5298
-0.9205 1.6515 -0.3479
-0.8505 1.6169 -0.3651
-0.8508 1.5794 -0.3659
-0.7221 1.4938 -0.3980
-0.6261 1.4417 -0.4216
-0.0185 0.8604 -0.5773
-0.1367 0.8374 -0.5504
-0.1191 0.7661 -0.5562
-0.1796 0.7273 -0.5431
-0.1999 0.6730 -0.5398
-0.1834 0.6010 -0.5454
-0.1918 0.5408 -0.5449
-0.1354 0.4438 -0.5604
-0.1305 0.3734 -0.5633
-0.1392 0.3107 -0.5629
-0.1074 0.2211 -0.5725
-0.1019 0.1472 -0.5756
-0.1921 0.1423 -0.5547
-0.2007 0.0805 -0.5543
-0.1695 -0.0133 -0.5638
-0.1651 -0.0875 -0.5667
-0.2002 -0.1280 -0.5595
-0.1827 -0.2145 -0.5657
-0.1916 -0.2780 -0.5653
-0.2004 -0.3415 -0.5648
-0.2351 -0.3788 -0.5576
-0.2309 -0.4550 -0.5605
-0.2612 -0.5668 -0.5562
-0.2319 -0.6739 -0.5657
-0.2711 -0.8496 -0.5609
0.0432 2.9046 -0.6012
0.0225 2.8394 -0.5976
0.0144 2.7817 -0.5972
-0.0462 2.6970 -0.5838
-0.1839 2.5773 -0.5511
-0.2017 2.5195 -0.5481
-0.1061 2.5120 -0.5734
-0.0900 2.4664 -0.5789
-0.0730 2.4200 -0.5847
-0.4319 2.1912 -0.4973
-0.2977 2.1875 -0.5326
-0.2529 2.1510 -0.5454
-0.2066 2.1122 -0.5586
-0.8657 1.6551 -0.3992
-0.8113 1.6186 -0.4145
-0.7709 1.5790 -0.4262
-0.3525 1.1407 -0.5485
-0.3526 0.7395 -0.5600
-0.3362 0.6116 -0.5680
-0.3549 0.5614 -0.5645
-0.3266 0.4214 -0.5760
-0.3346 0.3641 -0.5756
-0.3425 0.3067 -0.5751
-0.3284 0.2329 -0.5810
-0.3365 0.1749 -0.5805
-0.3103 0.0891 -0.5899
-0.3526 0.0587 -0.5797
-0.3711 0.0098 -0.5762
-0.3688 -0.0575 -0.5788
-0.3872 -0.1057 -0.5754
-0.3952 -0.1635 -0.5749
-0.3819 -0.2431 -0.5807
-0.4011 -0.2898 -0.5770
-0.4193 -0.3367 -0.5736
-0.4172 -0.4059 -0.5762
-0.4354 -0.4522 -0.5727
-0.4543 -0.4968 -0.5691
-0.4623 -0.5541 -0.5686
-0.4595 -0.6254 -0.5714
-0.2596 2.8285 -0.5764
-0.2841 2.7220 -0.5728
-0.3005 2.6667 -0.5698
-0.2875 2.6279 -0.5749
-0.3144 2.5675 -0.5691
-0.3597 2.4989 -0.5581
-0.3085 2.4774 -0.5738
-0.3444 2.4145 -0.5654
-0.3132 2.3810 -0.5756
-0.3489 2.3194 -0.5672
-0.4109 2.2496 -0.5514
-0.5427 2.1590 -0.5159
-0.3503 2.1765 -0.5715
-0.3482 2.1290 -0.5737
-0.3834 2.0713 -0.5653
-0.3903 2.0216 -0.5649
-0.3593 1.9799 -0.5754
-0.4230 1.9190 -0.5588
-0.8946 1.6916 -0.4287
-0.8996 1.6551 -0.4284
-0.8377 1.6195 -0.4476
-0.4485 1.2686 -0.5728
-0.5186 1.2316 -0.5536
-0.5338 1.1846 -0.5507
-0.5490 1.1382 -0.5478
-0.5558 1.0896 -0.5474
-0.5459 1.0352 -0.5521
-0.5352 0.9795 -0.5571
-0.5165 0.9194 -0.5645
-0.5408 0.8766 -0.5588
-0.5641 0.8345 -0.5534
-0.5710 0.7851 -0.5530
-0.5445 0.7178 -0.5630
-0.5847 0.6864 -0.5523
-0.5916 0.6370 -0.5519
-0.5824 0.5774 -0.5566
-0.5548 0.5042 -0.5670
-0.5443 0.4408 -0.5722
-0.5778 0.4088 -0.5635
-0.5761 0.3514 -0.5659
-0.6006 0.3146 -0.5599
-0.5643 0.2274 -0.5734
-0.5715 0.1756 -0.5730
-0.5787 0.1238 -0.5726
-0.5944 0.0802 -0.5695
-0.6016 0.0287 -0.5691
-0.6088 -0.0228 -0.5687
-0.5990 -0.0924 -0.5738
-0.6147 -0.1351 -0.5707
-0.6470 -0.1582 -0.5620
-0.6457 -0.2190 -0.5644
-0.6694 -0.2500 -0.5585
-0.6921 -0.2809 -0.5529
-0.7073 -0.3204 -0.5498
-0.7143 -0.3702 -0.5494
-0.5926 2.1885 -0.5461
-0.5915 2.1474 -0.5480
-0.7334 1.8262 -0.5143
-0.8796 1.6944 -0.4721
-0.8742 1.6576 -0.4752
-0.5844 1.3900 -0.5785
-0.6697 1.1704 -0.5592
-0.7243 0.6118 -0.5624
-0.6866 0.4820 -0.5794
-0.6854 0.4282 -0.5818
-0.7121 0.2367 -0.5803
-0.7111 0.1815 -0.5827
-0.7110 0.1266 -0.5848
-0.7320 0.0931 -0.5793
-0.7605 0.0686 -0.5710
-0.7454 -0.0027 -0.5785
-0.7520 -0.0506 -0.5782
-0.7587 -0.0984 -0.5778
-0.7653 -0.1463 -0.5775
-0.7720 -0.1942 -0.5771
-0.7787 -0.2421 -0.5767
-0.7853 -0.2899 -0.5764
-0.5739 2.6444 -0.5803
-0.6007 2.5889 -0.5731
-0.5930 2.5550 -0.5772
-0.5916 2.5169 -0.5793
-0.6048 2.4703 -0.5766
-0.5962 2.4356 -0.5810
-0.6166 2.3857 -0.5759
-0.6212 2.3042 -0.5777
-0.6129 2.2677 -0.5821
-0.6178 2.1845 -0.5838
-0.6238 2.1414 -0.5835
-0.6778 2.0830 -0.5669
-0.6696 2.0453 -0.5713
-0.6755 2.0031 -0.5710
-0.6616 1.9657 -0.5775
-0.6607 1.9244 -0.5795
-0.6872 1.8777 -0.5721
-0.7565 1.8254 -0.5498
-0.8681 1.7712 -0.5127
-0.8888 1.7322 -0.5070
-0.8940 1.6951 -0.5067
-0.8627 1.6596 -0.5192
-0.6731 1.4918 -0.5931
-0.7649 1.4563 -0.5622
-0.7520 1.4120 -0.5686
-0.7821 1.3736 -0.5595
-0.7879 1.3320 -0.5592
-0.7817 1.2877 -0.5633
-0.7562 1.2377 -0.5743
-0.7869 1.2019 -0.5650
-0.7992 1.1618 -0.5623
-0.7613 1.1045 -0.5780
-0.8045 1.0754 -0.5640
-0.8226 0.9939 -0.5610
-0.7792 0.9283 -0.5791
-0.8342 0.9099 -0.5604
-0.8282 0.8158 -0.5664
-0.8342 0.7732 -0.5661
-0.8515 0.7381 -0.5615
-0.8521 0.6923 -0.5631
-0.8519 0.6456 -0.5651
-0.8518 0.5986 -0.5671
-0.8517 0.5511 -0.5691
-0.8637 0.5131 -0.5665
-0.8815 0.4807 -0.5615
-0.8696 0.4223 -0.5682
-0.8637 0.3684 -0.5725
-0.8639 0.3193 -0.5745
-0.8641 0.2699 -0.5764
-0.8876 0.2446 -0.5692
-0.9052 0.2141 -0.5642
-0.9112 0.1713 -0.5639
-0.9114 0.1219 -0.5659
-0.9059 0.0652 -0.5702
-0.9062 0.0149 -0.5722
-0.9123 -0.0286 -0.5718
-0.9353 -0.0497 -0.5646
-0.9300 -0.1080 -0.5689
-0.7922 2.0877 -0.5677
-0.8619 1.8115 -0.5536
-0.8353 1.7778 -0.5653
-0.8830 1.7348 -0.5490
-0.9131 1.6954 -0.5392
-0.9134 1.6589 -0.5408
-0.8464 1.6231 -0.5682
-0.8573 1.5450 -0.5676
-0.8840 1.4686 -0.5608
-0.8894 1.4300 -0.5605
-0.8836 1.3896 -0.5646
-0.9102 1.3549 -0.5560
-0.8281 1.1688 -0.5960
-0.9658 0.7643 -0.5617
-0.9196 0.5517 -0.5892
-0.9575 0.5383 -0.5753
-0.9370 0.4746 -0.5861
-0.9527 0.4430 -0.5815
-0.9643 0.4080 -0.5786
-0.9699 0.3674 -0.5783
-0.9910 0.2972 -0.5734
-0.9867 0.1986 -0.5796
-0.9770 0.1392 -0.5861
-0.9884 0.1050 -0.5833
-0.9941 0.0640 -0.5830
-1.0150 0.0432 -0.5759
-1.0302 0.0158 -0.5713
-0.7944 2.5497 -0.5855
-0.8254 2.4625 -0.5770
-0.8407 2.4197 -0.5728
-0.8304 2.3925 -0.5785
-0.8355 2.3558 -0.5782
-0.8406 2.3192 -0.5779
-0.8406 2.2851 -0.5796
-0.8508 2.2459 -0.5773
-0.8559 2.2092 -0.5771
-0.8460 2.1790 -0.5827
-0.8611 2.1379 -0.5785
-0.8565 2.0696 -0.5838
-0.8814 2.0260 -0.5757
-0.9159 1.9805 -0.5636
-0.9111 1.9474 -0.5673
-0.9273 1.6961 -0.5732
-0.9229 1.6599 -0.5768
-0.9704 1.6223 -0.5589
-0.9566 1.5863 -0.5665
-0.9290 1.5487 -0.5799
-0.9667 1.5139 -0.5659
-0.9857 1.4791 -0.5598
-0.9588 1.4014 -0.5749
-0.9960 1.3707 -0.5610
-0.9782 1.3296 -0.5704
-0.9788 1.2918 -0.5721
-0.9794 1.2537 -0.5738
-0.9845 1.2168 -0.5735
-0.9903 1.1412 -0.5749
-0.9715 1.0941 -0.5851
-1.0183 1.0751 -0.5665
-1.0102 1.0321 -0.5721
-1.0013 0.9879 -0.5780
-1.0205 0.9583 -0.5715
-1.0256 0.9214 -0.5712
-1.0394 0.8898 -0.5671
-1.0445 0.8532 -0.5668
-1.0539 0.8195 -0.5646
-1.0547 0.7799 -0.5663
-1.0428 0.7302 -0.5737
-1.0522 0.6964 -0.5715
-1.0616 0.6629 -0.5693
-1.0667 0.6259 -0.5690
-1.0585 0.5768 -0.5749
-1.0595 0.5355 -0.5765
-1.0739 0.5070 -0.5720
-1.0790 0.4698 -0.5717
-1.0842 0.4326 -0.5715
-1.0975 0.4044 -0.5673
-1.0897 0.3526 -0.5732
-1.1038 0.3257 -0.5687
-1.1129 0.2936 -0.5665
-1.1221 0.2617 -0.5643
-1.1192 0.2145 -0.5679
-1.1283 0.1828 -0.5657
-1.1335 0.1459 -0.5654
-0.9210 2.5008 -0.5720
-0.9304 2.4332 -0.5715
-0.9084 2.4164 -0.5822
-0.9316 2.3706 -0.5743
-0.9542 2.2952 -0.5683
-0.9589 2.2615 -0.5681
-0.9757 2.2217 -0.5628
-0.9683 2.1942 -0.5676
-0.9823 2.0932 -0.5668
-1.0049 1.9574 -0.5641
-0.9756 1.8999 -0.5804
-1.0189 1.8568 -0.5633
-1.0460 1.6888 -0.5604
-1.0591 1.6550 -0.5564
-1.0684 1.5886 -0.5559
-1.0322 1.5537 -0.5740
-1.0703 1.4878 -0.5606
-1.0878 1.2481 -0.5659
-1.0848 1.1752 -0.5712
-1.0961 1.0335 -0.5738
-1.0975 0.9970 -0.5752
-1.0859 0.9525 -0.5828
-1.1149 0.9323 -0.5710
-1.1154 0.8949 -0.5728
-1.1189 0.7825 -0.5774
-1.1271 0.7502 -0.5755
-1.1362 0.7188 -0.5731
-1.1136 0.6599 -0.5865
-1.1227 0.6280 -0.5842
-1.1235 0.5886 -0.5859
-1.1399 0.5643 -0.5799
-1.1416 0.5256 -0.5813
-1.1425 0.4859 -0.5831
-1.1547 0.4584 -0.5791
-1.1596 0.4231 -0.5788
-1.1645 0.3878 -0.5786
-1.1774 0.3624 -0.5742
-1.1783 0.3223 -0.5760
-1.1832 0.2871 -0.5757
-1.1841 0.2467 -0.5775
-0.9852 2.4619 -0.5806
-1.0027 2.3624 -0.5781
-1.0112 2.3277 -0.5761
-1.0076 2.3004 -0.5794
-1.0121 2.2681 -0.5792
-1.0131 2.2076 -0.5823
-1.0306 2.1084 -0.5797
-1.0475 2.0405 -0.5757
-1.0814 1.8767 -0.5691
-1.0826 1.8145 -0.5722
-1.0960 1.7182 -0.5714
-1.1131 1.6219 -0.5689
-1.1155 1.5253 -0.5735
-1.1099 1.4587 -0.5802
-1.1072 1.4248 -0.5835
-1.1138 1.3241 -0.5863
-1.0989 1.2852 -0.5958
-1.1347 1.2270 -0.5820
-1.1463 1.1968 -0.5782
-1.1439 1.1611 -0.5815
-1.1372 1.1230 -0.5870
-1.1496 1.0935 -0.5827
-1.1714 1.0695 -0.5737
-1.1476 1.0211 -0.5880
-1.1557 0.9897 -0.5860
-1.1569 0.9542 -0.5875
-1.1650 0.9230 -0.5855
-1.1907 0.9045 -0.5742
-1.1952 0.8719 -0.5739
-1.1964 0.8366 -0.5755
-1.1977 0.8012 -0.5770
-1.1956 0.7627 -0.5802
-1.1895 0.7201 -0.5857
-1.1974 0.6897 -0.5837
-1.2159 0.6698 -0.5760
-1.2270 0.6435 -0.5722
-1.2348 0.6142 -0.5702
-1.2425 0.5852 -0.5682
-1.2278 0.5312 -0.5785
-1.2356 0.5018 -0.5765
-1.2299 0.4565 -0.5819
-1.2479 0.4398 -0.5742
-1.2525 0.4070 -0.5740
-1.2571 0.3741 -0.5737
-1.2616 0.3413 -0.5735
-1.2662 0.3084 -0.5732
-1.0619 2.4133 -0.5801
-1.0905 2.3658 -0.5685
-1.0977 2.3340 -0.5668
-1.0857 2.3148 -0.5742
-1.0828 2.2890 -0.5773
-1.0941 2.2545 -0.5737
-1.0763 2.2370 -0.5840
-1.0846 2.2040 -0.5819
-1.1067 2.1641 -0.5731
-1.1306 2.1242 -0.5633
-1.1429 2.0354 -0.5626
-1.1254 1.9567 -0.5767
-1.1335 1.9251 -0.5746
-1.1310 1.8966 -0.5777
-1.1556 1.8320 -0.5691
-1.1598 1.8019 -0.5689
-1.1897 1.7388 -0.5576
-1.1807 1.6516 -0.5678
-1.1955 1.5916 -0.5640
-1.2024 1.5619 -0.5624
-1.1974 1.5314 -0.5669
-1.1925 1.5005 -0.5714
-1.1995 1.4705 -0.5697
-1.1875 1.4376 -0.5780
-1.1828 1.4051 -0.5824
-1.2121 1.3798 -0.5690
-1.2314 1.3534 -0.5608
-1.2117 1.3167 -0.5733
-1.2159 1.2861 -0.5730
-1.2174 1.2224 -0.5763
-1.2000 1.1824 -0.5878
-1.2329 1.1641 -0.5721
-1.2182 1.1242 -0.5822
-1.2380 1.1012 -0.5735
-1.2422 1.0706 -0.5733
-1.2431 1.0379 -0.5749
-1.2415 1.0034 -0.5780
-1.2432 0.9708 -0.5792
-1.2877 0.9681 -0.5565
-1.2810 0.9304 -0.5623
-1.2471 0.8706 -0.5836
-1.2811 0.8635 -0.5665
-1.2659 0.7817 -0.5796
-1.2759 0.7559 -0.5761
-1.2689 0.7139 -0.5824
-1.2668 0.6761 -0.5859
-1.2800 0.6538 -0.5805
-1.2819 0.6200 -0.5817
-1.2974 0.6012 -0.5749
-1.3072 0.5767 -0.5714
-1.3115 0.5460 -0.5712
-1.3017 0.4976 -0.5794
-1.3092 0.4704 -0.5773
-1.3081 0.4320 -0.5803
-1.3232 0.4155 -0.5735
-1.1366 2.3653 -0.5765
-1.1345 2.3410 -0.5793
-1.1325 2.3163 -0.5822
-1.1365 2.2874 -0.5819
-1.1466 2.2547 -0.5787
-1.1406 2.2319 -0.5835
-1.1487 2.1738 -0.5831
-1.1655 2.1380 -0.5763
-1.1607 2.1137 -0.5806
-1.1649 2.0576 -0.5822
-1.1757 2.0257 -0.5785
-1.1700 2.0006 -0.5833
-1.1963 1.9362 -0.5733
-1.2289 1.8987 -0.5580
-1.2242 1.7359 -0.5718
-1.2132 1.6512 -0.5836
-1.2191 1.5631 -0.5864
-1.2349 1.5344 -0.5797
-1.2246 1.5038 -0.5875
-1.2287 1.4742 -0.5873
-1.2369 1.4151 -0.5868
-1.2410 1.3855 -0.5866
-1.2504 1.3573 -0.5834
-1.2493 1.3263 -0.5862
-1.2673 1.3013 -0.5780
-1.2714 1.2722 -0.5778
-1.2668 1.2396 -0.5825
-1.2571 1.2043 -0.5902
-1.2835 1.1848 -0.5771
-1.2739 1.1488 -0.5848
-1.2831 1.1220 -0.5816
-1.2932 1.0959 -0.5779
-1.2888 1.0616 -0.5827
-1.2820 1.0252 -0.5889
-1.2945 1.0009 -0.5837
-1.3177 0.9849 -0.5721
-1.3135 0.9498 -0.5768
-1.3151 0.9186 -0.5781
-1.3298 0.8981 -0.5714
-1.3232 0.8600 -0.5776
-1.3216 0.8256 -0.5809
-1.3314 0.8014 -0.5772
-1.3218 0.7588 -0.5854
-1.3284 0.7314 -0.5837
-1.3404 0.7102 -0.5785
-1.3421 0.6781 -0.5798
-1.3384 0.6397 -0.5845
-1.3504 0.6191 -0.5793
-1.3490 0.5830 -0.5825
-1.3562 0.5572 -0.5803
-1.3627 0.5307 -0.5786
-1.3568 0.4877 -0.5848
-1.3579 0.4536 -0.5865
-1.3750 0.4422 -0.5780
-1.1893 2.3328 -0.5805
-1.1931 2.3054 -0.5803
-1.1989 2.2767 -0.5791
-1.2087 2.2455 -0.5757
-1.2095 2.2202 -0.5770
-1.2221 2.1876 -0.5721
-1.2229 2.1623 -0.5734
-1.2297 2.1336 -0.5717
-1.2080 2.1201 -0.5852
-1.2313 2.0826 -0.5744
-1.2458 2.0504 -0.5684
-1.2312 2.0318 -0.5783
