ply
format ascii 1.0
element vertex 2112
property float x
property float y
property float z
end_header
-2.1768 2.8751 -0.0400
-2.2041 2.8459 -0.0926
-2.2233 2.8291 -0.1453
-2.0911 3.0503 -0.2181
-2.1748 2.9332 -0.2661
-2.1782 2.9425 -0.3265
-2.1374 3.0235 -0.4006
-2.1775 2.9749 -0.4547
-2.2538 2.8827 -0.5587
-2.3283 2.7756 -0.5903
-2.4638 2.5650 -0.5824
-2.5548 2.4264 -0.5877
-2.7164 2.1769 -0.5854
-2.8341 1.9959 -0.5863
-2.8636 1.9549 -0.6045
-2.9182 1.8685 -0.5949
-2.9940 1.7517 -0.5943
-3.0240 1.7061 -0.5971
-3.0640 1.6412 -0.5830
-3.1130 1.5663 -0.5852
-3.1422 1.5185 -0.5738
-3.1640 1.4843 -0.5709
-3.1951 1.4385 -0.5801
-3.2106 1.4152 -0.5819
-3.2250 1.3936 -0.5839
-3.2412 1.3674 -0.5794
-3.2537 1.3487 -0.5815
-3.2792 1.3087 -0.5786
-3.3017 1.2734 -0.5759
-3.3113 1.2589 -0.5768
-3.3204 1.2452 -0.5779
-3.3392 1.2147 -0.5720
-3.3458 1.2061 -0.5782
-3.3529 1.1958 -0.5808
-3.3610 1.1826 -0.5774
-3.3666 1.1756 -0.5845
-3.3750 1.1604 -0.5753
-3.3811 1.1514 -0.5768
-3.3871 1.1425 -0.5779
-3.3932 1.1326 -0.5761
-3.3983 1.1257 -0.5799
-3.4039 1.1166 -0.5783
-3.4092 1.1083 -0.5776
-1.6413 3.6829 0.5924
-2.1516 2.9258 0.3287
-2.1857 2.8854 0.2742
-2.0651 3.0874 0.2523
-1.9366 3.3047 0.2214
-2.0111 3.2024 0.1530
-2.1432 3.0067 0.0837
-2.2113 2.9118 0.0263
-2.2602 2.8469 -0.0268
-2.2931 2.8075 -0.0780
-2.3186 2.7799 -0.1286
-2.3101 2.8086 -0.1829
-2.3812 2.7048 -0.2257
-2.4353 2.6283 -0.2673
-2.2572 2.9457 -0.3693
-2.2286 3.0123 -0.4427
-2.2752 2.9503 -0.4928
-2.2808 2.9592 -0.5581
-2.3842 2.7962 -0.5764
-2.5027 2.6035 -0.5763
-2.5728 2.4944 -0.5939
-2.6608 2.3511 -0.5924
-2.7288 2.2415 -0.5962
-2.7916 2.1396 -0.5970
-2.9084 1.9468 -0.5855
-2.9552 1.8695 -0.5812
-2.9838 1.8259 -0.5919
-3.0223 1.7621 -0.5873
-3.0499 1.7185 -0.5920
-3.0838 1.6614 -0.5845
-3.1097 1.6193 -0.5843
-3.1373 1.5725 -0.5776
-3.1554 1.5448 -0.5835
-3.1726 1.5182 -0.5886
-3.2109 1.4546 -0.5836
-3.2419 1.4040 -0.5831
-3.2599 1.3718 -0.5727
-3.2687 1.3607 -0.5837
-3.2819 1.3385 -0.5810
-3.2941 1.3181 -0.5788
-3.3042 1.3021 -0.5808
-3.3157 1.2824 -0.5766
-3.3249 1.2676 -0.5778
-3.3346 1.2512 -0.5753
-3.3431 1.2376 -0.5759
-3.3509 1.2255 -0.5777
-3.3586 1.2129 -0.5780
-3.3655 1.2025 -0.5807
-3.3732 1.1891 -0.5775
-3.3795 1.1796 -0.5802
-3.3867 1.1667 -0.5757
-3.3928 1.1569 -0.5762
-3.3982 1.1491 -0.5797
-3.4042 1.1385 -0.5768
-3.4095 1.1304 -0.5783
-3.4147 1.1218 -0.5781
-3.4198 1.1134 -0.5775
-1.7647 3.6220 0.5900
-2.2253 2.9089 0.3350
-2.2218 2.9286 0.2907
-2.2110 2.9608 0.2464
-2.1993 2.9953 0.2001
-2.2382 2.9613 0.0935
-2.4200 2.7121 -0.1121
-2.4731 2.6657 -0.2576
-2.1218 3.3395 -0.4835
-2.1570 3.2988 -0.5474
-2.3090 3.0405 -0.5575
-2.5743 2.5825 -0.5517
-2.6649 2.4274 -0.5536
-2.6973 2.3820 -0.5869
-2.8246 2.1648 -0.5923
-2.9269 1.9890 -0.5924
-3.0201 1.8239 -0.5769
-3.0686 1.7468 -0.5972
-3.1072 1.6756 -0.5815
-3.1352 1.6259 -0.5765
-3.1735 1.5630 -0.5860
-3.1992 1.5148 -0.5735
-3.2139 1.4916 -0.5798
-3.2275 1.4702 -0.5863
-3.2473 1.4329 -0.5760
-3.2644 1.4014 -0.5688
-3.2757 1.3834 -0.5737
-3.2990 1.3440 -0.5760
-3.3089 1.3283 -0.5799
-3.3192 1.3107 -0.5804
-3.3303 1.2901 -0.5755
-3.3388 1.2765 -0.5787
-3.3500 1.2538 -0.5679
-3.3569 1.2441 -0.5743
-3.3645 1.2312 -0.5753
-3.3723 1.2173 -0.5736
-3.3786 1.2080 -0.5785
-3.3862 1.1932 -0.5732
-3.3923 1.1837 -0.5760
-3.3983 1.1736 -0.5771
-3.4039 1.1649 -0.5801
-3.4103 1.1523 -0.5744
-3.4151 1.1457 -0.5800
-3.4204 1.1363 -0.5792
-3.4255 1.1276 -0.5791
-3.4303 1.1196 -0.5799
-2.3225 2.8478 0.3327
-2.2779 2.9558 0.2561
-2.1733 3.1557 0.2298
-2.3398 2.9139 0.0514
-2.3718 2.8738 -0.0010
-2.3969 2.8457 -0.0523
-2.4281 2.8063 -0.1026
-2.4701 2.7463 -0.1504
-2.4881 2.7306 -0.1997
-2.5580 2.6163 -0.2375
-2.5503 2.6488 -0.2911
-2.6091 2.5716 -0.3776
-2.6029 2.6029 -0.4351
-2.6343 2.5598 -0.4757
-2.6980 2.4504 -0.4952
-2.7142 2.4362 -0.5397
-2.7343 2.4141 -0.5814
-2.8465 2.2151 -0.5979
-2.8974 2.1236 -0.6011
-2.9468 2.0327 -0.5992
-2.9957 1.9408 -0.5912
-3.0348 1.8686 -0.5886
-3.0987 1.7514 -0.5868
-3.1238 1.7067 -0.5896
-3.1553 1.6452 -0.5778
-3.1724 1.6170 -0.5868
-3.1953 1.5737 -0.5822
-3.2131 1.5419 -0.5842
-3.2318 1.5069 -0.5813
-3.2464 1.4814 -0.5848
-3.2614 1.4541 -0.5848
-3.2775 1.4229 -0.5791
-3.2888 1.4038 -0.5838
-3.3001 1.3844 -0.5869
-3.3126 1.3602 -0.5833
-3.3261 1.3322 -0.5733
-3.3341 1.3201 -0.5808
-3.3435 1.3033 -0.5815
-3.3539 1.2821 -0.5749
-3.3618 1.2686 -0.5776
-3.3680 1.2606 -0.5873
-3.3760 1.2455 -0.5858
-3.3836 1.2313 -0.5845
-3.3982 1.2017 -0.5765
-3.4047 1.1895 -0.5750
-3.4102 1.1806 -0.5786
-3.4157 1.1712 -0.5805
-3.4219 1.1572 -0.5727
-3.4271 1.1482 -0.5735
-3.4317 1.1410 -0.5776
-3.4364 1.1334 -0.5801
-3.4415 1.1214 -0.5721
-2.1093 3.2994 0.5357
-2.4236 2.7872 0.2862
-2.2855 3.0759 0.2319
-2.4361 2.8506 0.0606
-2.4662 2.8120 0.0101
-2.5322 2.7031 -0.0390
-2.5830 2.6220 -0.0840
-2.5903 2.6259 -0.1303
-2.6423 2.5406 -0.1702
-2.6625 2.5181 -0.2131
-2.6821 2.4967 -0.2557
-2.6903 2.4987 -0.3017
-2.6865 2.5262 -0.3536
-2.6947 2.5293 -0.4025
-2.7151 2.5066 -0.4459
-2.7358 2.4832 -0.4886
-2.7558 2.4608 -0.5310
-2.7418 2.5146 -0.5993
-2.8189 2.3631 -0.5944
-2.8759 2.2541 -0.5980
-2.9698 2.0745 -0.6043
-3.0297 1.9494 -0.5814
-3.0570 1.9008 -0.5924
-3.0910 1.8339 -0.5899
-3.1724 1.6744 -0.5857
-3.2150 1.5908 -0.5832
-3.2368 1.5454 -0.5749
-3.2540 1.5115 -0.5734
-3.2794 1.4667 -0.5849
-3.2944 1.4358 -0.5803
-3.3288 1.3702 -0.5830
-3.3413 1.3426 -0.5742
-3.3488 1.3317 -0.5836
-3.3577 1.3147 -0.5847
-3.3671 1.2952 -0.5812
-3.3756 1.2781 -0.5795
-3.3839 1.2606 -0.5759
-3.3910 1.2474 -0.5773
-3.3975 1.2357 -0.5801
-3.4048 1.2197 -0.5750
-3.4105 1.2104 -0.5796
-3.4167 1.1980 -0.5784
-3.4222 1.1883 -0.5810
-3.4282 1.1739 -0.5741
-3.4331 1.1664 -0.5791
-3.4383 1.1548 -0.5754
-3.4429 1.1476 -0.5796
-3.4476 1.1381 -0.5786
-3.4520 1.1294 -0.5783
-2.2415 3.1829 0.5172
-2.3463 3.0052 0.4279
-2.4593 2.8089 0.3422
-2.5072 2.7345 0.2858
-2.5380 2.6922 0.2368
-2.5635 2.6596 0.1904
-2.5836 2.6375 0.1460
-2.6126 2.5973 0.1005
-2.6153 2.6098 0.0591
-2.7889 2.2738 0.0063
-2.7793 2.3090 -0.0287
-2.8664 2.1433 -0.0618
-2.8893 2.1096 -0.0932
-2.8878 2.1274 -0.1271
-2.8130 2.3046 -0.1788
-2.7786 2.3980 -0.2299
-2.7603 2.4586 -0.2818
-2.7687 2.4609 -0.3271
-2.7559 2.5120 -0.3837
-2.7829 2.4731 -0.4222
-2.7815 2.5000 -0.4773
-2.8013 2.4775 -0.5198
-2.8036 2.4972 -0.5759
-2.8595 2.3862 -0.5862
-2.9085 2.2892 -0.5960
-2.9829 2.1242 -0.5709
-3.0260 2.0352 -0.5710
-3.0561 1.9776 -0.5814
-3.0937 1.8979 -0.5770
-3.1197 1.8473 -0.5840
-3.1456 1.7949 -0.5871
-3.1738 1.7343 -0.5818
-3.1961 1.6886 -0.5827
-3.2330 1.6152 -0.5895
-3.2505 1.5794 -0.5902
-3.2702 1.5349 -0.5813
-3.2846 1.5057 -0.5828
-3.2978 1.4793 -0.5849
-3.3116 1.4496 -0.5821
-3.3246 1.4211 -0.5785
-3.3365 1.3953 -0.5757
-3.3549 1.3610 -0.5842
-3.3665 1.3320 -0.5728
-3.3743 1.3177 -0.5772
-3.3821 1.3030 -0.5801
-3.3898 1.2870 -0.5805
-3.3972 1.2721 -0.5810
-3.4044 1.2567 -0.5797
-3.4113 1.2415 -0.5776
-3.4182 1.2246 -0.5717
-3.4232 1.2185 -0.5817
-3.4293 1.2047 -0.5785
-3.4346 1.1943 -0.5801
-3.4401 1.1809 -0.5756
-3.4451 1.1708 -0.5761
-3.4497 1.1634 -0.5808
-3.4544 1.1518 -0.5768
-3.4589 1.1417 -0.5745
-3.4630 1.1364 -0.5818
-2.5936 2.6679 0.2823
-2.6301 2.6113 0.2329
-2.6248 2.6406 0.1968
-2.6443 2.6187 0.1531
-2.6478 2.6307 0.1127
-2.7127 2.5114 0.0632
-2.8400 2.2537 0.0141
-2.8743 2.1948 -0.0209
-2.8938 2.1844 -0.0877
-2.8264 2.3560 -0.1335
-2.8199 2.3912 -0.1761
-2.8135 2.4275 -0.2215
-2.8284 2.4145 -0.2623
-2.8153 2.4694 -0.3150
-2.8148 2.4950 -0.3656
-2.8404 2.4570 -0.4036
-2.8272 2.5168 -0.4659
-2.8369 2.5198 -0.5160
-2.8401 2.5404 -0.5729
-2.8701 2.4908 -0.6069
-3.0272 2.1167 -0.5529
-3.0635 2.0392 -0.5585
-3.0835 2.0061 -0.5812
-3.1448 1.8717 -0.5842
-3.1997 1.7466 -0.5768
-3.2201 1.7029 -0.5797
-3.2414 1.6541 -0.5764
-3.2748 1.5822 -0.5802
-3.3039 1.5188 -0.5823
-3.3312 1.4552 -0.5759
-3.3404 1.4393 -0.5851
-3.3531 1.4071 -0.5767
-3.3704 1.3745 -0.5882
-3.3805 1.3488 -0.5815
-3.3972 1.3108 -0.5790
-3.4042 1.2968 -0.5823
-3.4185 1.2626 -0.5771
-3.4245 1.2513 -0.5812
-3.4312 1.2322 -0.5725
-3.4365 1.2234 -0.5784
-3.4420 1.2114 -0.5785
-3.4471 1.2015 -0.5814
-3.4523 1.1873 -0.5759
-3.4570 1.1784 -0.5789
-3.4615 1.1684 -0.5790
-3.4659 1.1585 -0.5787
-3.4701 1.1506 -0.5816
-2.6220 2.6227 0.4694
-2.6365 2.6100 0.4296
-2.6276 2.6463 0.4019
-2.6349 2.6495 0.3646
-2.6493 2.6572 0.2882
-2.6647 2.6438 0.2461
-2.6602 2.6744 0.2099
-2.6760 2.6606 0.1668
-2.7286 2.5632 0.1161
-2.8557 2.3113 0.0246
-2.8610 2.3181 -0.0107
-2.8507 2.3627 -0.0472
-2.8455 2.3964 -0.0861
-2.8484 2.4116 -0.1264
-2.8486 2.4342 -0.1687
-2.8461 2.4650 -0.2138
-2.8463 2.4902 -0.2605
-2.8494 2.5091 -0.3083
-2.8496 2.5368 -0.3596
-2.8720 2.5058 -0.4001
-2.8568 2.5781 -0.4659
-2.8573 2.6094 -0.5252
-2.9388 2.4418 -0.5727
-3.0793 2.0811 -0.5241
-3.0934 2.0650 -0.5559
-3.1099 2.0410 -0.5837
-3.1676 1.9075 -0.5902
-3.1913 1.8538 -0.5951
-3.2141 1.8009 -0.5974
-3.2610 1.6812 -0.5827
-3.2783 1.6408 -0.5837
-3.2932 1.6075 -0.5876
-3.3241 1.5297 -0.5798
-3.3352 1.5066 -0.5860
-3.3474 1.4770 -0.5847
-3.3597 1.4447 -0.5789
-3.3690 1.4251 -0.5837
-3.3882 1.3779 -0.5807
-3.4054 1.3330 -0.5737
-3.4187 1.3081 -0.5859
-3.4262 1.2857 -0.5775
-3.4325 1.2713 -0.5784
-3.4385 1.2572 -0.5787
-3.4440 1.2467 -0.5834
-3.4497 1.2296 -0.5772
-3.4549 1.2168 -0.5764
-3.4598 1.2068 -0.5793
-3.4645 1.1970 -0.5818
-3.4691 1.1848 -0.5793
-3.4734 1.1753 -0.5808
-3.4776 1.1653 -0.5806
-3.4816 1.1561 -0.5812
-3.4854 1.1464 -0.5800
-2.6589 2.6267 0.5119
-2.6840 2.5908 0.4658
-2.6875 2.6017 0.4333
-2.7088 2.5738 0.3902
-2.7351 2.5741 0.2804
-2.7812 2.4879 0.2286
-2.7861 2.4969 0.1935
-2.7971 2.4919 0.1558
-2.8397 2.4108 0.1106
-2.8587 2.3855 0.0726
-2.8745 2.3677 0.0355
-2.8646 2.4150 0.0002
-2.9060 2.3322 -0.0376
-2.9285 2.2966 -0.0733
-2.9392 2.2912 -0.1093
-2.9976 2.1575 -0.1354
-3.0163 2.1285 -0.1662
-3.0142 2.2064 -0.2833
-3.0361 2.1952 -0.3562
-2.9957 2.3817 -0.4906
-3.0941 2.1292 -0.4902
-3.1155 2.0885 -0.5133
-3.1264 2.0830 -0.5496
-3.1362 2.0818 -0.5882
-3.1693 1.9949 -0.5851
-3.1945 1.9336 -0.5903
-3.2166 1.8809 -0.5970
-3.2407 1.8172 -0.5940
-3.2649 1.7495 -0.5845
-3.2871 1.6854 -0.5732
-3.3430 1.5486 -0.5838
-3.3566 1.5094 -0.5768
-3.3672 1.4842 -0.5798
-3.3785 1.4516 -0.5742
-3.3865 1.4380 -0.5852
-3.3959 1.4124 -0.5831
-3.4041 1.3933 -0.5862
-3.4205 1.3470 -0.5792
-3.4343 1.3123 -0.5802
-3.4408 1.2932 -0.5766
-3.4526 1.2624 -0.5752
-3.4577 1.2552 -0.5850
-3.4630 1.2379 -0.5790
-3.4679 1.2270 -0.5817
-3.4726 1.2122 -0.5773
-3.4771 1.2029 -0.5810
-3.4815 1.1944 -0.5854
-3.4855 1.1816 -0.5813
-3.4894 1.1715 -0.5813
-3.4932 1.1616 -0.5808
-3.4968 1.1524 -0.5810
-2.6662 2.6950 0.5748
-2.6734 2.6991 0.5400
-2.7029 2.6525 0.4895
-2.7140 2.6476 0.4518
-2.7352 2.6193 0.4079
-2.7363 2.6386 0.3757
-2.7641 2.5941 0.3286
-2.8342 2.4449 0.2631
-2.8423 2.4462 0.2288
-2.8584 2.4503 0.1587
-2.8749 2.4310 0.1205
-2.8754 2.4535 0.0859
-3.0138 2.1491 -0.0293
-3.0349 2.1117 -0.0601
-3.0447 2.1059 -0.0910
-3.0513 2.1100 -0.1229
-3.0626 2.1001 -0.1541
-3.0756 2.0852 -0.1846
-3.0754 2.1113 -0.2212
-3.0829 2.1145 -0.2556
-3.0891 2.1223 -0.2917
-3.0894 2.1507 -0.3337
-3.0988 2.1502 -0.3703
-3.1083 2.1496 -0.4074
-3.1080 2.1847 -0.4568
-3.1268 2.1523 -0.4850
-3.1422 2.1311 -0.5163
-3.1574 2.1101 -0.5470
-3.1652 2.1187 -0.5904
-3.1970 2.0281 -0.5872
-3.2265 1.9416 -0.5808
-3.2465 1.8919 -0.5895
-3.2868 1.7813 -0.5916
-3.3073 1.7181 -0.5825
-3.3225 1.6776 -0.5851
-3.3351 1.6484 -0.5936
-3.3511 1.5967 -0.5832
-3.3644 1.5565 -0.5785
-3.3959 1.4704 -0.5805
-3.4134 1.4236 -0.5833
-3.4217 1.3989 -0.5810
-3.4291 1.3799 -0.5833
-3.4363 1.3597 -0.5829
-3.4433 1.3361 -0.5771
-3.4494 1.3238 -0.5836
-3.4556 1.3009 -0.5757
-3.4613 1.2848 -0.5751
-3.4666 1.2725 -0.5786
-3.4717 1.2610 -0.5826
-3.4765 1.2449 -0.5788
-3.4812 1.2339 -0.5816
-3.4857 1.2236 -0.5849
-3.4899 1.2109 -0.5834
-3.4939 1.1990 -0.5823
-3.4980 1.1912 -0.5876
-3.5017 1.1803 -0.5866
-3.5049 1.1671 -0.5803
-3.5087 1.1609 -0.5868
-2.7541 2.5973 0.5468
-2.7530 2.6436 0.4924
-2.7737 2.6153 0.4487
-2.7755 2.6341 0.4179
-2.8472 2.4751 0.3435
-2.8656 2.4503 0.3044
-2.8737 2.4519 0.2710
-2.8918 2.4273 0.2324
-2.9098 2.4029 0.1945
-2.9511 2.3625 0.0869
-3.0262 2.1947 0.0109
-3.0536 2.1371 -0.0216
-3.0691 2.1140 -0.0522
-3.0816 2.1003 -0.0826
-3.0845 2.1167 -0.1147
-3.1050 2.0769 -0.1430
-3.1045 2.1057 -0.1779
-3.1079 2.1232 -0.2131
-3.1063 2.1597 -0.2531
-3.1225 2.1346 -0.2834
-3.1293 2.1433 -0.3206
-3.1374 2.1478 -0.3578
-3.1433 2.1624 -0.3988
-3.1443 2.1980 -0.4478
-3.1560 2.1922 -0.4854
-3.1665 2.1918 -0.5254
-3.1748 2.2020 -0.5704
-3.1869 2.1966 -0.6099
-3.2246 2.0680 -0.5919
-3.2515 1.9839 -0.5886
-3.2716 1.9284 -0.5957
-3.3155 1.7827 -0.5797
-3.3286 1.7530 -0.5926
-3.3446 1.7026 -0.5899
-3.3576 1.6663 -0.5942
-3.3718 1.6182 -0.5875
-3.3960 1.5358 -0.5761
-3.4150 1.4790 -0.5772
-3.4229 1.4612 -0.5850
-3.4313 1.4326 -0.5812
-3.4459 1.3907 -0.5840
-3.4526 1.3702 -0.5839
-3.4591 1.3449 -0.5767
-3.4649 1.3317 -0.5825
-3.4705 1.3129 -0.5803
-3.4759 1.3002 -0.5848
-3.4809 1.2827 -0.5819
-3.4857 1.2676 -0.5811
-3.4903 1.2541 -0.5816
-3.4946 1.2408 -0.5814
-3.4985 1.2250 -0.5763
-3.5028 1.2176 -0.5835
-3.5062 1.2022 -0.5770
-3.5100 1.1931 -0.5799
-3.5137 1.1847 -0.5837
-3.5169 1.1739 -0.5822
-3.5199 1.1633 -0.5803
-2.9442 2.2244 0.4242
-2.9531 2.2196 0.3964
-2.9307 2.2971 0.3932
-2.8951 2.4349 0.3719
-2.8939 2.4618 0.3462
-2.9181 2.4193 0.3037
-2.9266 2.4203 0.2711
-2.9394 2.4091 0.2359
-2.9393 2.4358 0.2065
-2.9771 2.3510 0.1606
-3.0305 2.2419 0.0842
-3.0456 2.2210 0.0512
-3.0805 2.1632 -0.0136
-3.1038 2.1131 -0.0445
-3.1098 2.1208 -0.0752
-3.1198 2.1151 -0.1061
-3.1260 2.1234 -0.1384
-3.1339 2.1264 -0.1710
-3.1381 2.1441 -0.2063
-3.1426 2.1623 -0.2431
-3.1495 2.1722 -0.2800
-3.1373 2.2629 -0.3356
-3.1596 2.2121 -0.3621
-3.1692 2.2631 -0.4546
-3.1739 2.2933 -0.5057
-3.1827 2.3070 -0.5534
-3.1969 2.2946 -0.5923
-3.2212 2.2277 -0.6079
-3.2484 2.1391 -0.6103
-3.2814 2.0082 -0.5868
-3.3075 1.9069 -0.5710
-3.3392 1.8152 -0.5864
-3.3549 1.7627 -0.5861
-3.3707 1.7024 -0.5775
-3.3818 1.6752 -0.5883
-3.3937 1.6359 -0.5886
-3.4153 1.5606 -0.5850
-3.4250 1.5247 -0.5810
-3.4341 1.4885 -0.5745
-3.4419 1.4665 -0.5788
-3.4495 1.4393 -0.5767
-3.4629 1.4055 -0.5887
-3.4692 1.3741 -0.5773
-3.4751 1.3628 -0.5866
-3.4806 1.3382 -0.5795
-3.4859 1.3230 -0.5821
-3.4907 1.3035 -0.5783
-3.4952 1.2851 -0.5745
-3.4998 1.2735 -0.5786
-3.5039 1.2584 -0.5772
-3.5082 1.2478 -0.5812
-3.5121 1.2353 -0.5816
-3.5157 1.2230 -0.5814
-3.5189 1.2095 -0.5784
-3.5225 1.2002 -0.5815
-3.5260 1.1911 -0.5842
-3.5287 1.1789 -0.5805
-3.5321 1.1713 -0.5848
-2.9750 2.2129 0.4493
-2.9756 2.2306 0.4300
-2.9829 2.2306 0.4038
-2.9887 2.2351 0.3786
-2.9927 2.2450 0.3545
-2.9833 2.2945 0.3400
-2.9615 2.3826 0.3326
-2.9659 2.3954 0.3042
-2.9861 2.3612 0.2654
-2.9834 2.3968 0.2402
-3.0072 2.3507 0.1999
-3.0030 2.3932 0.1733
-3.0469 2.2794 0.1265
-3.0796 2.1993 0.0873
-3.0838 2.2139 0.0580
-3.0942 2.2080 0.0265
-3.1121 2.1749 -0.0057
-3.1249 2.1597 -0.0369
-3.1374 2.1457 -0.0679
-3.1521 2.1225 -0.0982
-3.1521 2.1574 -0.1322
-3.1554 2.1815 -0.1675
-3.1426 2.2760 -0.2136
-3.1462 2.3054 -0.2551
-3.1528 2.3243 -0.2970
-3.1636 2.3252 -0.3367
-3.1721 2.3384 -0.3801
-3.1835 2.3387 -0.4215
-3.1976 2.3264 -0.4598
-3.2138 2.3019 -0.4943
-3.2299 2.2767 -0.5277
-3.2437 2.2647 -0.5654
-3.2646 2.2067 -0.5840
-3.3078 2.0634 -0.5995
-3.3321 1.9581 -0.5842
-3.3487 1.9023 -0.5895
-3.3637 1.8535 -0.5958
-3.3801 1.7828 -0.5859
-3.3941 1.7262 -0.5809
-3.4168 1.6444 -0.5829
-3.4265 1.6145 -0.5886
-3.4453 1.5330 -0.5767
-3.4530 1.5136 -0.5854
-3.4606 1.4815 -0.5815
-3.4675 1.4596 -0.5851
-3.4803 1.4119 -0.5844
-3.4859 1.3848 -0.5782
-3.4913 1.3642 -0.5774
-3.4965 1.3486 -0.5809
-3.5017 1.3361 -0.5874
-3.5056 1.3104 -0.5765
-3.5104 1.2999 -0.5834
-3.5139 1.2793 -0.5761
-3.5185 1.2706 -0.5839
-3.5218 1.2542 -0.5800
-3.5247 1.2366 -0.5731
-3.5282 1.2256 -0.5750
-3.5325 1.2202 -0.5853
-3.5351 1.2061 -0.5807
-3.5381 1.1955 -0.5812
-3.5406 1.1838 -0.5788
-3.5438 1.1762 -0.5831
-2.9910 2.2202 0.5050
-3.0012 2.2112 0.4768
-3.0053 2.2200 0.4552
-3.0113 2.2239 0.4312
-3.0187 2.2240 0.4054
-3.0219 2.2369 0.3833
-3.0267 2.2459 0.3591
-3.0219 2.2856 0.3424
-3.0117 2.3440 0.3284
-3.0135 2.3664 0.3033
-3.0256 2.3558 0.2701
-3.0361 2.3508 0.2380
-3.0608 2.2970 0.1976
-3.0813 2.2560 0.1609
-3.1140 2.1697 0.1201
-3.1199 2.1785 0.0920
-3.1225 2.2010 0.0641
-3.1289 2.2103 0.0340
-3.1438 2.1865 0.0021
-3.1529 2.1860 -0.0290
-3.1587 2.1999 -0.0610
-3.1647 2.2145 -0.0941
-3.1686 2.2400 -0.1292
-3.1618 2.3177 -0.1711
-3.1686 2.3366 -0.2104
-3.1795 2.3370 -0.2487
-3.1952 2.3134 -0.2833
-3.2085 2.3017 -0.3198
-3.2218 2.2901 -0.3562
-3.2332 2.2901 -0.3956
-3.2446 2.2909 -0.4359
-3.2572 2.2847 -0.4748
-3.2716 2.2672 -0.5101
-3.2828 2.2732 -0.5538
-3.2972 2.2556 -0.5891
-3.3414 2.0758 -0.5912
-3.3622 1.9776 -0.5806
-3.3780 1.9159 -0.5836
-3.3919 1.8666 -0.5903
-3.4063 1.7987 -0.5830
-3.4180 1.7554 -0.5873
-3.4297 1.6990 -0.5803
-3.4394 1.6674 -0.5874
-3.4492 1.6134 -0.5761
-3.4575 1.5922 -0.5868
-3.4797 1.4910 -0.5789
-3.4862 1.4688 -0.5827
-3.4919 1.4366 -0.5754
-3.4979 1.4223 -0.5841
-3.5028 1.3949 -0.5782
-3.5081 1.3795 -0.5836
-3.5120 1.3505 -0.5726
-3.5169 1.3388 -0.5799
-3.5209 1.3197 -0.5775
-3.5249 1.3046 -0.5788
-3.5283 1.2867 -0.5756
-3.5328 1.2787 -0.5845
-3.5354 1.2599 -0.5777
-3.5386 1.2464 -0.5773
-3.5419 1.2352 -0.5794
-3.5448 1.2228 -0.5789
-3.5480 1.2134 -0.5822
-3.5510 1.2034 -0.5840
-3.5530 1.1908 -0.5806
-3.5564 1.1838 -0.5863
-3.0224 2.2222 0.5086
-3.0271 2.2301 0.4872
-3.0331 2.2342 0.4637
-3.0436 2.2251 0.4351
-3.0511 2.2254 0.4096
-3.0504 2.2526 0.3921
-3.0497 2.2815 0.3737
-3.0577 2.2822 0.3461
-3.0543 2.3229 0.3282
-3.0598 2.3344 0.3014
-3.0860 2.2721 0.2583
-3.1025 2.2431 0.2236
-3.1225 2.1999 0.1874
-3.1286 2.2092 0.1602
-3.1385 2.2039 0.1305
-3.1403 2.2324 0.1040
-3.1481 2.2375 0.0739
-3.1539 2.2522 0.0436
-3.1734 2.2078 0.0103
-3.1818 2.2115 -0.0210
-3.1870 2.2318 -0.0532
-3.1938 2.2465 -0.0866
-3.2006 2.2628 -0.1214
-3.2025 2.3075 -0.1600
-3.2153 2.2963 -0.1951
-3.2301 2.2740 -0.2287
-3.2418 2.2689 -0.2645
-3.2590 2.2299 -0.2941
-3.2699 2.2298 -0.3308
-3.2754 2.2686 -0.3777
-3.2830 2.2989 -0.4250
-3.2935 2.3112 -0.4692
-3.3058 2.3116 -0.5109
-3.3196 2.2995 -0.5488
-3.3328 2.2940 -0.5893
-3.3727 2.1167 -0.5959
-3.3911 2.0210 -0.5884
-3.4070 1.9376 -0.5819
-3.4188 1.9076 -0.6000
-3.4319 1.8370 -0.5930
-3.4540 1.7079 -0.5743
-3.4714 1.6387 -0.5830
-3.4863 1.5639 -0.5793
-3.4934 1.5432 -0.5880
-3.4994 1.5080 -0.5828
-3.5102 1.4488 -0.5764
-3.5201 1.4058 -0.5789
-3.5241 1.3809 -0.5745
-3.5285 1.3633 -0.5766
-3.5328 1.3475 -0.5797
-3.5362 1.3274 -0.5765
-3.5400 1.3129 -0.5790
-3.5430 1.2949 -0.5760
-3.5466 1.2823 -0.5790
-3.5497 1.2685 -0.5795
-3.5523 1.2534 -0.5771
-3.5552 1.2414 -0.5784
-3.5586 1.2324 -0.5834
-3.5601 1.2166 -0.5769
-3.5634 1.2085 -0.5822
-3.5661 1.1993 -0.5848
-3.5687 1.1901 -0.5870
-3.0440 2.2546 0.5246
-3.0528 2.2504 0.4981
-3.0607 2.2497 0.4727
-3.0712 2.2406 0.4440
-3.0803 2.2362 0.4169
-3.0765 2.2778 0.4040
-3.0793 2.2976 0.3828
-3.0889 2.2936 0.3539
-3.1016 2.2781 0.3218
-3.1189 2.2442 0.2856
-3.1299 2.2347 0.2556
-3.1442 2.2115 0.2230
-3.1504 2.2212 0.1966
-3.1679 2.1837 0.1623
-3.1724 2.2020 0.1364
-3.1730 2.2397 0.1114
-3.1682 2.3062 0.0867
-3.1813 2.2902 0.0534
-3.2004 2.2442 0.0192
-3.2141 2.2234 -0.0130
-3.2163 2.2641 -0.0452
-3.2235 2.2809 -0.0790
-3.2312 2.2973 -0.1141
-3.2456 2.2750 -0.1475
-3.2603 2.2488 -0.1798
-3.2726 2.2380 -0.2135
-3.2813 2.2536 -0.2512
-3.2938 2.2427 -0.2855
-3.3008 2.2765 -0.3292
-3.3092 2.3057 -0.3743
-3.3179 2.3372 -0.4222
-3.3311 2.3310 -0.4615
-3.3426 2.3450 -0.5076
-3.3571 2.3261 -0.5437
-3.3701 2.3271 -0.5869
-3.3876 2.2594 -0.6026
-3.4040 2.1908 -0.6146
-3.4356 1.9907 -0.5958
-3.4477 1.9392 -0.6040
-3.4593 1.8597 -0.5934
-3.4694 1.7877 -0.5826
-3.4785 1.7407 -0.5835
-3.4949 1.6730 -0.5959
-3.5073 1.5733 -0.5755
-3.5336 1.4409 -0.5810
-3.5380 1.4193 -0.5821
-3.5451 1.3731 -0.5770
-3.5511 1.3322 -0.5719
-3.5555 1.3222 -0.5801
-3.5593 1.3100 -0.5850
-3.5614 1.2912 -0.5805
-3.5639 1.2757 -0.5791
-3.5664 1.2619 -0.5791
-3.5689 1.2491 -0.5794
-3.5724 1.2407 -0.5857
-3.5743 1.2275 -0.5839
-3.5760 1.2144 -0.5814
-3.5790 1.2064 -0.5865
-3.5805 1.1945 -0.5840
-3.0665 2.4099 0.4788
-3.0951 2.3342 0.4259
-3.1115 2.3042 0.3890
-3.1310 2.2605 0.3492
-3.1452 2.2370 0.3159
-3.1581 2.2184 0.2843
-3.1677 2.2137 0.2561
-3.1723 2.2318 0.2323
-3.1832 2.2222 0.2024
-3.1901 2.2318 0.1755
-3.1933 2.2613 0.1504
-3.1927 2.3135 0.1262
-3.1953 2.3526 0.0980
-3.2003 2.3823 0.0670
-3.2284 2.2822 0.0284
-3.2412 2.2665 -0.0043
-3.2507 2.2711 -0.0369
-3.2594 2.2818 -0.0702
-3.2660 2.3101 -0.1055
-3.2777 2.3055 -0.1403
-3.2945 2.2613 -0.1714
-3.3049 2.2660 -0.2069
-3.3166 2.2613 -0.2418
-3.3269 2.2717 -0.2797
-3.3357 2.3008 -0.3226
-3.3462 2.3193 -0.3651
-3.3556 2.3571 -0.4143
-3.3671 2.3784 -0.4615
-3.3812 2.3661 -0.5001
-3.3952 2.3538 -0.5387
-3.4093 2.3415 -0.5772
-3.4260 2.2496 -0.5838
-3.4409 2.1721 -0.5918
-3.4540 2.1266 -0.6105
-3.4667 2.0095 -0.5917
-3.4775 1.9255 -0.5835
-3.4874 1.8800 -0.5920
-3.5045 1.7758 -0.5935
-3.5112 1.7164 -0.5850
-3.5180 1.6755 -0.5858
-3.5244 1.6405 -0.5884
-3.5291 1.5930 -0.5796
-3.5346 1.5633 -0.5820
-3.5396 1.5341 -0.5831
-3.5437 1.5020 -0.5799
-3.5486 1.4811 -0.5850
-3.5514 1.4474 -0.5766
-3.5559 1.4297 -0.5819
-3.5593 1.4073 -0.5814
-3.5628 1.3885 -0.5833
-3.5655 1.3669 -0.5808
-3.5668 1.3409 -0.5718
-3.5704 1.3276 -0.5764
-3.5741 1.3161 -0.5824
-3.5761 1.2987 -0.5800
-3.5776 1.2808 -0.5757
-3.5813 1.2720 -0.5830
-3.5835 1.2590 -0.5836
-3.5856 1.2462 -0.5836
-3.5876 1.2342 -0.5841
-3.5902 1.2246 -0.5875
-3.5922 1.2137 -0.5881
-3.5921 1.1981 -0.5799
-2.9092 3.1530 0.7763
-3.1313 2.3253 0.4271
-3.1525 2.2715 0.3835
-3.1643 2.2574 0.3527
-3.1788 2.2304 0.3187
-3.1857 2.2386 0.2939
-3.1936 2.2432 0.2676
-3.2006 2.2533 0.2419
-3.2090 2.2574 0.2143
-3.2155 2.2727 0.1878
-3.2186 2.3090 0.1633
-3.2222 2.3469 0.1369
-3.2314 2.3541 0.1055
-3.2364 2.3897 0.0753
-3.2542 2.3437 0.0390
-3.2713 2.2992 0.0044
-3.2811 2.3049 -0.0285
-3.2875 2.3403 -0.0627
-3.3068 2.3711 -0.1352
-3.3242 2.3178 -0.1670
-3.3368 2.3068 -0.2017
-3.3474 2.3194 -0.2397
-3.3590 2.3255 -0.2779
-3.3703 2.3385 -0.3183
-3.3813 2.3641 -0.3629
-3.3929 2.3912 -0.4098
-3.4063 2.3929 -0.4518
-3.4203 2.3806 -0.4904
-3.4344 2.3683 -0.5290
-3.4484 2.3627 -0.5700
-3.4626 2.3436 -0.6061
-3.4763 2.2345 -0.6039
-3.4885 2.1543 -0.6088
-3.4983 2.0341 -0.5903
-3.5080 1.9724 -0.5948
-3.5234 1.8379 -0.5876
-3.5292 1.7699 -0.5778
-3.5472 1.6522 -0.5854
-3.5492 1.5904 -0.5665
-3.5556 1.5743 -0.5796
-3.5653 1.5259 -0.5897
-3.5705 1.4622 -0.5800
-3.5736 1.4385 -0.5800
-3.5757 1.4119 -0.5756
-3.5801 1.3986 -0.5835
-3.5810 1.3711 -0.5751
-3.5851 1.3598 -0.5834
-3.5868 1.3393 -0.5802
-3.5908 1.3292 -0.5883
-3.5911 1.3069 -0.5804
-3.5929 1.2911 -0.5794
-3.5939 1.2740 -0.5755
-3.5968 1.2639 -0.5803
-3.5983 1.2502 -0.5793
-3.5990 1.2353 -0.5754
-3.6016 1.2263 -0.5799
-3.6044 1.2182 -0.5851
-2.9371 3.1980 0.8400
-3.1775 2.3065 0.3982
-3.1967 2.2552 0.3563
-3.2067 2.2495 0.3282
-3.2164 2.2449 0.3001
-3.2238 2.2543 0.2751
-3.2322 2.2587 0.2483
-3.2374 2.2837 0.2247
-3.2387 2.3357 0.2041
-3.2454 2.3584 0.1767
-3.2541 2.3705 0.1466
-3.2623 2.3890 0.1161
-3.2722 2.3971 0.0836
-3.2834 2.3972 0.0498
-3.2981 2.3686 0.0146
-3.3125 2.3402 -0.0199
-3.3219 2.3586 -0.0542
-3.3312 2.3840 -0.0901
-3.3404 2.4163 -0.1281
-3.3542 2.3984 -0.1640
-3.3666 2.3994 -0.2017
-3.3791 2.4012 -0.2401
-3.3933 2.3760 -0.2749
-3.4061 2.3776 -0.3140
-3.4182 2.4045 -0.3591
-3.4310 2.4337 -0.4069
-3.4452 2.4213 -0.4459
-3.4594 2.4088 -0.4848
-3.4736 2.4023 -0.5256
-3.4882 2.4181 -0.5746
-3.5020 2.3716 -0.6015
-3.5139 2.2834 -0.6094
-3.5236 2.1775 -0.6048
-3.5387 1.9910 -0.5911
-3.5517 1.8634 -0.5897
-3.5723 1.6809 -0.5941
-3.5765 1.5837 -0.5759
-3.5803 1.5548 -0.5781
-3.5854 1.5365 -0.5877
-3.5873 1.5024 -0.5825
-3.5897 1.4747 -0.5809
-3.5914 1.4466 -0.5773
-3.5945 1.4271 -0.5805
-3.5969 1.4063 -0.5811
-3.5988 1.3850 -0.5800
-3.6011 1.3672 -0.5814
-3.6027 1.3480 -0.5801
-3.6059 1.3355 -0.5856
-3.6057 1.3130 -0.5778
-3.6076 1.2985 -0.5789
-3.6095 1.2850 -0.5804
-3.6106 1.2703 -0.5791
-3.6112 1.2550 -0.5761
-3.6136 1.2450 -0.5800
-3.6155 1.2345 -0.5824
-3.6166 1.2227 -0.5821
-3.6185 1.2132 -0.5847
-3.0106 3.0940 0.8057
-3.0101 3.1636 0.7911
-3.0661 3.0181 0.6601
-3.2189 2.3082 0.3757
-3.2306 2.2938 0.3445
-3.2382 2.3045 0.3196
-3.2500 2.2901 0.2882
-3.2542 2.3261 0.2675
-3.2641 2.3266 0.2383
-3.2690 2.3650 0.2150
-3.2735 2.4120 0.1910
-3.2829 2.4251 0.1603
-3.2981 2.3904 0.1235
-3.3060 2.4212 0.0932
-3.3173 2.4235 0.0593
-3.3296 2.4178 0.0246
-3.3440 2.3880 -0.0108
-3.3547 2.4020 -0.0457
-3.3632 2.4545 -0.0829
-3.3688 2.5727 -0.1268
-3.3911 2.4119 -0.1549
-3.4026 2.4395 -0.1952
-3.4159 2.4349 -0.2334
-3.4296 2.4230 -0.2708
-3.4705 2.4197 -0.3905
-3.4847 2.4358 -0.4361
-3.4993 2.4444 -0.4810
-3.5139 2.4388 -0.5226
-3.5298 2.4626 -0.5747
-3.5403 2.3588 -0.5816
-3.5514 2.2972 -0.6001
-3.5575 2.1740 -0.5892
-3.5702 2.0144 -0.5896
-3.5765 1.9561 -0.5945
-3.5794 1.8763 -0.5845
-3.5868 1.7651 -0.5805
-3.6014 1.6151 -0.5887
-3.6063 1.5498 -0.5879
-3.6078 1.5170 -0.5845
-3.6092 1.4873 -0.5818
-3.6109 1.4614 -0.5808
-3.6135 1.4409 -0.5836
-3.6128 1.4099 -0.5745
-3.6160 1.3949 -0.5803
-3.6175 1.3753 -0.5802
-3.6189 1.3568 -0.5800
-3.6205 1.3401 -0.5809
-3.6224 1.3253 -0.5830
-3.6235 1.3091 -0.5824
-3.6226 1.2885 -0.5750
-3.6248 1.2774 -0.5790
-3.6266 1.2657 -0.5815
-3.6263 1.2497 -0.5769
-3.6289 1.2413 -0.5827
-3.6295 1.2286 -0.5813
-3.6301 1.2169 -0.5805
-3.2609 2.3732 0.3417
-3.2717 2.3691 0.3116
-3.2775 2.4038 0.2894
-3.2854 2.4274 0.2634
-3.2933 2.4539 0.2364
-3.3065 2.4361 0.2012
-3.3170 2.4448 0.1698
-3.3291 2.4395 0.1360
-3.3396 2.4534 0.1036
-3.3630 2.4633 0.0348
-3.3761 2.4519 -0.0010
-3.3889 2.4470 -0.0369
-3.4254 2.5147 -0.1522
-3.4407 2.4406 -0.1846
-3.4536 2.4764 -0.2273
-3.4675 2.4569 -0.2643
-3.4813 2.4376 -0.3009
-3.4952 2.4328 -0.3401
-3.5094 2.4340 -0.3809
-3.5238 2.4361 -0.4227
-3.5400 2.4733 -0.4750
-3.5743 2.5314 -0.5823
-3.5831 2.4283 -0.5919
-3.5879 2.2983 -0.5858
-3.5970 2.2410 -0.6033
-3.6039 2.1711 -0.6124
-3.6028 2.0420 -0.5897
-3.6068 1.9735 -0.5906
-3.6136 1.9361 -0.6045
-3.6141 1.8592 -0.5941
-3.6129 1.7816 -0.5788
-3.6161 1.7399 -0.5820
-3.6206 1.7088 -0.5899
-3.6229 1.6700 -0.5908
-3.6221 1.6194 -0.5807
-3.6250 1.5906 -0.5846
-3.6280 1.5649 -0.5893
-3.6297 1.5026 -0.5848
-3.6309 1.4764 -0.5843
-3.6324 1.4531 -0.5850
-3.6328 1.4276 -0.5821
-3.6345 1.4083 -0.5841
-3.6333 1.3600 -0.5735
-3.6357 1.3464 -0.5782
-3.6381 1.3338 -0.5832
-3.6379 1.3151 -0.5799
-3.6399 1.3029 -0.5837
-3.6407 1.2728 -0.5814
-3.6421 1.2612 -0.5835
-3.6419 1.2467 -0.5807
-3.6421 1.2339 -0.5794
-3.6450 1.2271 -0.5869
-3.0747 3.7413 0.8577
-3.1811 3.0791 0.6103
-3.1917 3.1119 0.5778
-3.2170 3.0272 0.5135
-3.2334 3.0129 0.4686
-3.3849 2.5153 0.0816
-3.3973 2.5250 0.0462
-3.4224 3.2323 -0.0786
-3.4784 2.4953 -0.1790
-3.4926 2.5120 -0.2202
-3.5063 2.4849 -0.2567
-3.5210 2.4948 -0.2985
-3.5348 2.4751 -0.3359
-3.5499 2.4835 -0.3789
-3.5659 2.5009 -0.4251
-3.6191 2.5722 -0.5799
-3.6270 2.4799 -0.5948
-3.6326 2.3821 -0.6032
-3.6330 2.2543 -0.5944
-3.6389 2.1886 -0.6060
-3.6438 1.8851 -0.5963
-3.6408 1.8066 -0.5820
-3.6426 1.7608 -0.5835
-3.6455 1.6783 -0.5852
-3.6489 1.6116 -0.5896
-3.6467 1.5670 -0.5801
-3.6494 1.5442 -0.5859
-3.6497 1.4856 -0.5822
-3.6496 1.4587 -0.5799
-3.6501 1.4355 -0.5796
-3.6537 1.4227 -0.5885
-3.6506 1.3918 -0.5777
-3.6521 1.3754 -0.5806
-3.6528 1.3576 -0.5810
-3.6524 1.3384 -0.5786
-3.6534 1.3235 -0.5803
-3.6539 1.3080 -0.5803
-3.6519 1.2881 -0.5734
-3.6561 1.2823 -0.5845
-3.6565 1.2690 -0.5846
-3.6574 1.2573 -0.5864
-3.6548 1.2391 -0.5775
-3.6576 1.2323 -0.5850
-3.2179 3.1810 0.6469
-3.2450 3.0706 0.5732
-3.2547 3.1266 0.5462
-3.2628 3.2118 0.5235
-3.2796 3.2094 0.4776
-3.2975 3.1938 0.4285
-3.3118 3.2313 0.3890
-3.3223 3.3445 0.3594
-3.3401 3.3579 0.3107
-3.3617 3.2956 0.2517
-3.3804 3.2938 0.2005
-3.4006 3.2483 0.1453
-3.4178 3.3200 0.0978
-3.4376 3.3027 0.0434
-3.4574 3.2854 -0.0109
-3.4774 3.3291 -0.0660
-3.5174 2.5311 -0.1713
-3.5320 2.5340 -0.2113
-3.5462 2.5216 -0.2500
-3.5595 2.4944 -0.2864
-3.5759 2.5190 -0.3315
-3.5908 2.5138 -0.3723
-3.6328 2.6317 -0.4883
-3.6568 2.6997 -0.5546
-3.6681 2.6397 -0.5853
-3.6682 2.4951 -0.5846
-3.6716 2.3964 -0.5935
-3.6735 2.2013 -0.5975
-3.6714 2.0262 -0.5909
-3.6718 1.8980 -0.5911
-3.6704 1.7847 -0.5865
-3.6703 1.7381 -0.5860
-3.6723 1.7040 -0.5914
-3.6690 1.6157 -0.5817
-3.6727 1.5958 -0.5919
-3.6694 1.5531 -0.5826
-3.6689 1.4957 -0.5808
-3.6685 1.4460 -0.5795
-3.6700 1.4280 -0.5836
-3.6674 1.4002 -0.5764
-3.6702 1.3689 -0.5837
-3.6684 1.3470 -0.5788
-3.6670 1.3271 -0.5748
-3.6707 1.3195 -0.5848
-3.6680 1.2985 -0.5772
-3.6694 1.2872 -0.5812
-3.6688 1.2722 -0.5793
-3.6686 1.2590 -0.5789
-3.6683 1.2459 -0.5779
-3.2489 3.3908 0.7162
-3.2779 3.2476 0.6295
-3.2956 3.2322 0.5810
-3.3133 3.2167 0.5325
-3.3286 3.2411 0.4929
-3.3437 3.2805 0.4548
-3.3602 3.3073 0.4122
-3.3767 3.3489 0.3702
-3.3955 3.3474 0.3198
-3.4145 3.3456 0.2687
-3.4335 3.3588 0.2184
-3.4535 3.2966 0.1608
-3.4730 3.3872 0.1142
-3.4936 3.4184 0.0607
-3.5576 2.5685 -0.1634
-3.5718 2.5560 -0.2023
-3.5860 2.5436 -0.2412
-3.6008 2.5376 -0.2811
-3.6158 2.5337 -0.3216
-3.6967 2.6701 -0.5305
-3.7152 2.6745 -0.5799
-3.7198 2.5813 -0.5980
-3.7106 2.4108 -0.5839
-3.7071 2.2090 -0.5869
-3.7044 2.0501 -0.5894
-3.7038 1.9282 -0.5951
-3.6952 1.7938 -0.5804
-3.6996 1.7683 -0.5937
-3.6937 1.6362 -0.5859
-3.6915 1.5683 -0.5842
-3.6913 1.5147 -0.5870
-3.6895 1.4854 -0.5839
-3.6881 1.4591 -0.5819
-3.6882 1.4179 -0.5845
-3.6870 1.3960 -0.5827
-3.6862 1.3761 -0.5818
-3.6869 1.3607 -0.5846
-3.6851 1.3405 -0.5809
-3.6843 1.3091 -0.5810
-3.6832 1.2929 -0.5789
-3.6839 1.2809 -0.5814
-3.6822 1.2652 -0.5779
-3.6820 1.2528 -0.5781
-3.6838 1.2443 -0.5835
-3.2842 3.6560 0.8034
-3.3272 3.2658 0.6417
-3.3449 3.2503 0.5932
-3.3613 3.2618 0.5513
-3.3760 3.3301 0.5213
-3.3927 3.3719 0.4825
-3.4110 3.3853 0.4362
-3.4297 3.3996 0.3887
-3.4488 3.4300 0.3424
-3.4686 3.4126 0.2881
-3.4885 3.3953 0.2338
-3.5085 3.3942 0.1808
-3.5300 3.4413 0.1303
-3.5499 3.4063 0.0735
-3.6000 2.6217 -0.1563
-3.6107 2.5629 -0.1918
-3.6242 2.5429 -0.2296
-3.6421 2.5684 -0.2735
-3.7671 2.6227 -0.5956
-3.7626 2.4972 -0.5994
-3.7492 2.2597 -0.5938
-3.7463 2.1752 -0.5967
-3.7381 2.0742 -0.5877
-3.7334 1.9971 -0.5851
-3.7335 1.8971 -0.5976
-3.7228 1.7359 -0.5897
-3.7212 1.6961 -0.5907
-3.7167 1.6495 -0.5845
-3.7128 1.5801 -0.5828
-3.7128 1.5541 -0.5862
-3.7080 1.4937 -0.5810
-3.7074 1.4707 -0.5824
-3.7045 1.4239 -0.5805
-3.7046 1.3885 -0.5853
-3.7015 1.3653 -0.5799
-3.7016 1.3499 -0.5822
-3.6998 1.3315 -0.5798
-3.7019 1.3214 -0.5867
-3.6979 1.3003 -0.5787
-3.6979 1.2873 -0.5802
-3.6977 1.2746 -0.5813
-3.6982 1.2636 -0.5840
-3.6971 1.2504 -0.5828
-3.3928 3.3094 0.6164
-3.4083 3.3949 0.5923
-3.4266 3.4080 0.5477
-3.4456 3.3914 0.4956
-3.4645 3.4050 0.4494
-3.4839 3.4195 0.4021
-3.5040 3.4503 0.3561
-3.5252 3.4982 0.3103
-3.5436 3.4156 0.2474
-3.5635 3.3983 0.1931
-3.5877 3.4786 0.1455
-3.6057 3.4109 0.0867
-3.6279 3.4265 0.0322
-3.6525 2.6006 -0.1840
-3.6678 2.5958 -0.2242
-3.6841 2.5984 -0.2657
-3.7713 2.7264 -0.4668
-3.7923 2.7406 -0.5182
-3.8122 2.7461 -0.5686
-3.8343 2.7606 -0.6229
-3.7926 2.3804 -0.5857
-3.7848 2.2085 -0.5973
-3.7702 2.0896 -0.5818
-3.7717 2.0424 -0.5944
-3.7623 1.9129 -0.5941
-3.7507 1.7938 -0.5862
-3.7502 1.7568 -0.5917
-3.7503 1.7241 -0.5982
-3.7373 1.6002 -0.5877
-3.7299 1.5100 -0.5852
-3.7285 1.4859 -0.5862
-3.7222 1.3984 -0.5859
-3.7189 1.3759 -0.5818
-3.7179 1.3587 -0.5824
-3.7188 1.3458 -0.5871
-3.7150 1.3249 -0.5812
-3.7123 1.3068 -0.5774
-3.7143 1.2978 -0.5844
-3.7115 1.2809 -0.5802
-3.7128 1.2714 -0.5852
-3.7129 1.2604 -0.5876
-3.4430 3.3279 0.6288
-3.4609 3.3270 0.5833
-3.4791 3.3384 0.5400
-3.4990 3.4575 0.5188
-3.5183 3.4406 0.4658
-3.5389 3.4709 0.4211
-3.5608 3.5199 0.3774
-3.5804 3.4855 0.3198
-3.6021 3.5012 0.2687
-3.6215 3.4669 0.2114
-3.6396 3.4176 0.1537
-3.6863 3.4636 0.0469
-3.6964 2.6465 -0.1767
-3.7078 2.6105 -0.2142
-3.7256 2.6210 -0.2566
-3.7983 2.7472 -0.4097
-3.8232 2.7812 -0.4644
-3.8435 2.7870 -0.5144
-3.8623 2.7830 -0.5628
-3.8704 2.7288 -0.5965
-3.8416 2.4416 -0.5933
-3.8362 2.3509 -0.6014
-3.8172 2.2150 -0.5864
-3.8098 2.1322 -0.5878
-3.8090 2.0784 -0.5987
-3.7992 1.9977 -0.5935
-3.7989 1.9533 -0.6034
-3.7877 1.8775 -0.5935
-3.7797 1.8164 -0.5881
-3.7670 1.7146 -0.5807
-3.7609 1.6418 -0.5829
-3.7576 1.6076 -0.5827
-3.7563 1.5802 -0.5860
-3.7516 1.5248 -0.5876
-3.7459 1.4727 -0.5860
-3.7400 1.4420 -0.5784
-3.7367 1.3865 -0.5836
-3.7345 1.3674 -0.5825
-3.7319 1.3486 -0.5805
-3.7314 1.3342 -0.5827
-3.7316 1.3216 -0.5863
-3.7257 1.2995 -0.5769
-3.7260 1.2881 -0.5802
-3.7266 1.2777 -0.5843
-3.7265 1.2666 -0.5868
-3.4939 3.4346 0.6655
-3.5133 3.4634 0.6259
-3.5330 3.4780 0.5812
-3.5518 3.4463 0.5253
-3.5740 3.5083 0.4886
-3.5961 3.5412 0.4437
-3.6144 3.4909 0.3834
-3.6321 3.4410 0.3245
-3.6587 3.5220 0.2827
-3.6777 3.4876 0.2253
-3.7009 3.5042 0.1726
-3.7434 2.7042 -0.1698
-3.7639 2.7257 -0.2141
-3.7836 2.7390 -0.2590
-3.8057 2.7630 -0.3068
-3.8268 2.7776 -0.3548
-3.8505 2.8026 -0.4062
-3.8711 2.8088 -0.4554
-3.8897 2.8040 -0.5030
-3.9063 2.7895 -0.5484
-3.9352 2.8265 -0.6091
-3.9072 2.6310 -0.5977
-3.8787 2.4487 -0.5811
-3.8649 2.2764 -0.5978
-3.8618 2.2117 -0.6091
-3.8426 2.0988 -0.5952
-3.8260 1.9607 -0.5949
-3.8063 1.8304 -0.5847
-3.8041 1.7917 -0.5905
-3.8001 1.7506 -0.5929
-3.7879 1.6392 -0.5956
-3.7775 1.5911 -0.5840
-3.7756 1.5648 -0.5872
-3.7551 1.4289 -0.5766
-3.7535 1.4099 -0.5782
-3.7548 1.3973 -0.5853
-3.7522 1.3780 -0.5845
-3.7527 1.3649 -0.5896
-3.7465 1.3410 -0.5812
-3.7454 1.3267 -0.5829
-3.7442 1.3125 -0.5840
-3.7438 1.3002 -0.5866
-3.7405 1.2840 -0.5833
-3.7396 1.2720 -0.5848
-3.5650 3.4526 0.6311
-3.5894 3.5629 0.6102
-3.6083 3.5295 0.5526
-3.6288 3.5285 0.5022
-3.6475 3.4953 0.4453
-3.6695 3.5112 0.3971
-3.6935 3.5436 0.3500
-3.7252 3.6502 0.3100
-3.8251 2.8461 -0.2131
-3.8374 2.8119 -0.2549
-3.8533 2.7980 -0.2985
-3.8796 2.8336 -0.3502
-3.9265 2.8670 -0.4527
-3.9385 2.8318 -0.4941
-3.9552 2.8172 -0.5398
-3.9638 2.7718 -0.5767
-3.9238 2.4849 -0.5789
-3.9236 2.4238 -0.5998
-3.9000 2.2893 -0.5891
-3.8681 2.0930 -0.5797
-3.8576 1.9810 -0.5930
-3.8461 1.9128 -0.5889
-3.8180 1.7184 -0.5880
-3.8125 1.6320 -0.6047
-3.7930 1.5682 -0.5795
-3.7919 1.5457 -0.5846
-3.7859 1.5144 -0.5809
-3.7845 1.4935 -0.5848
-3.7809 1.4693 -0.5844
-3.7793 1.4498 -0.5873
-3.7725 1.4218 -0.5805
-3.7713 1.4047 -0.5833
-3.7672 1.3835 -0.5808
-3.7674 1.3703 -0.5859
-3.7622 1.3488 -0.5807
-3.7625 1.3368 -0.5856
-3.7582 1.3183 -0.5817
-3.7559 1.3034 -0.5812
-3.7534 1.2887 -0.5801
-5.1932 0.8271 0.2297
-5.1694 0.8424 0.2283
-5.1604 0.8607 0.2300
-5.1471 0.8783 0.2308
-5.1260 0.8942 0.2300
-5.1075 0.9106 0.2297
-5.0914 0.9278 0.2299
-5.0753 0.9451 0.2302
-5.0687 0.9656 0.2327
-5.0381 0.9782 0.2296
-5.0253 0.9969 0.2307
-5.0066 1.0135 0.2304
-4.9979 1.0344 0.2326
-4.9790 1.0512 0.2323
-4.9526 1.0644 0.2301
-4.9465 1.0874 0.2331
-4.9306 1.1060 0.2336
-4.9156 1.1252 0.2344
-4.8734 1.1568 0.2327
-4.8629 1.1794 0.2349
-4.8390 1.1933 0.2332
-4.8090 1.2024 0.2296
-4.7928 1.2212 0.2302
-4.7902 1.2513 0.2350
-4.7505 1.3203 0.2403
-4.7307 1.3379 0.2400
-4.7147 1.3595 0.2411
-4.6962 1.4199 0.2485
-5.8328 4.2998 0.9525
-5.2052 0.8057 0.2056
-5.1868 0.8221 0.2053
-5.1685 0.8384 0.2050
-5.1620 0.8573 0.2070
-5.1460 0.8744 0.2072
-5.1223 0.8896 0.2059
-5.1088 0.9074 0.2066
-5.0717 0.9186 0.2025
-5.0716 0.9405 0.2060
-5.0614 0.9598 0.2075
-5.0462 0.9777 0.2079
-5.0354 0.9975 0.2094
-5.0131 1.0130 0.2083
-4.9864 1.0265 0.2063
-4.9692 1.0694 0.2104
-4.9501 1.0864 0.2101
-4.9268 1.1013 0.2088
-4.9168 1.1233 0.2107
-4.8668 1.1504 0.2072
-4.8572 1.1734 0.2093
-4.8398 1.1918 0.2095
-4.8296 1.2154 0.2117
-4.8084 1.2314 0.2109
-4.7712 1.2674 0.2108
-4.7558 1.2883 0.2117
-4.7353 1.3415 0.2169
-4.7152 1.3594 0.2166
-5.7986 4.2426 0.8440
-5.1832 0.8176 0.1814
-5.1648 0.8339 0.1811
-5.1583 0.8527 0.1828
-5.1398 0.8692 0.1825
-5.1187 0.8851 0.1818
-5.1052 0.9029 0.1824
-5.0952 0.9219 0.1837
-5.0764 0.9385 0.1834
-5.0720 0.9599 0.1858
-5.0530 0.9768 0.1855
-5.0374 0.9949 0.1858
-5.0094 1.0083 0.1838
-4.9960 1.0274 0.1846
-4.9770 1.0443 0.1843
-4.9633 1.0637 0.1851
-4.9421 1.0797 0.1843
-4.9272 1.0988 0.1849
-4.9080 1.1158 0.1846
-4.8889 1.1328 0.1843
-4.8726 1.1516 0.1847
-4.8600 1.1730 0.1859
-4.8329 1.2159 0.1881
-4.8220 1.2400 0.1900
-4.7954 1.2521 0.1879
-4.7757 1.2696 0.1876
-4.7609 1.2915 0.1886
-4.7427 1.3106 0.1887
-4.7329 1.3381 0.1912
-4.7112 1.3544 0.1905
-5.8789 4.1943 0.7549
-5.7648 4.1859 0.7376
-5.8032 4.4960 0.7867
-5.1917 0.8151 0.1593
-5.1919 0.8352 0.1617
-5.1664 0.8506 0.1605
-5.1361 0.8647 0.1584
-5.1201 0.8818 0.1585
-5.1227 0.9039 0.1615
-5.0952 0.9183 0.1599
-5.0848 0.9376 0.1610
-5.0658 0.9544 0.1607
-5.0279 0.9881 0.1601
-5.0191 1.0089 0.1615
-5.0055 1.0283 0.1622
-4.9840 1.0444 0.1615
-4.9521 1.0556 0.1589
-4.9404 1.0760 0.1599
-4.9213 1.0930 0.1596
-4.9022 1.1100 0.1593
-4.8978 1.1355 0.1619
-4.8755 1.1510 0.1610
-4.8335 1.2143 0.1635
-4.8207 1.2371 0.1648
-4.8187 1.2691 0.1684
-4.7809 1.2725 0.1641
-4.7451 1.3116 0.1645
-4.7289 1.3332 0.1651
-4.7147 1.3573 0.1663
-5.7874 4.2435 0.6543
-5.7874 4.4764 0.6829
-5.2066 0.7941 0.1354
-5.1854 0.8101 0.1348
-5.1788 0.8288 0.1360
-5.1601 0.8455 0.1358
-5.1414 0.8621 0.1355
-5.1379 0.8824 0.1372
-5.1152 0.8982 0.1364
-5.1024 0.9167 0.1369
-5.0895 0.9354 0.1375
-5.0621 0.9498 0.1360
-5.0594 0.9722 0.1381
-5.0401 0.9893 0.1377
-5.0108 1.0025 0.1359
-4.9994 1.0226 0.1368
-4.9856 1.0421 0.1373
-4.9663 1.0592 0.1370
-4.9542 1.0800 0.1379
-4.9449 1.1026 0.1392
-4.8988 1.1336 0.1375
-4.8520 1.1937 0.1387
-4.8385 1.2158 0.1395
-4.8254 1.2388 0.1405
-4.8011 1.2533 0.1394
-4.7902 1.2788 0.1408
-4.7635 1.2910 0.1392
-4.7474 1.3125 0.1397
-4.7211 1.3245 0.1381
-4.7107 1.3523 0.1399
-5.7723 4.2247 0.5550
-5.7520 4.4143 0.5725
-4.9519 6.1017 0.6619
-4.7754 6.3415 0.6678
-4.1794 5.9956 0.5670
-5.2032 0.8092 0.1130
-5.1725 0.8237 0.1114
-5.1682 0.8432 0.1127
-5.1531 0.8608 0.1128
-5.1430 0.8798 0.1135
-5.1326 0.8990 0.1142
-5.0962 0.9114 0.1119
-5.0737 0.9272 0.1112
-5.0498 0.9655 0.1123
-5.0397 0.9858 0.1131
-5.0149 1.0008 0.1121
-5.0011 1.0202 0.1125
-4.9689 1.0317 0.1106
-4.9699 1.0579 0.1129
-4.9535 1.0767 0.1130
-4.9390 1.0967 0.1134
-4.9046 1.1344 0.1135
-4.8877 1.1537 0.1136
-4.8799 1.1790 0.1150
-4.8499 1.1901 0.1132
-4.8416 1.2160 0.1147
-4.8215 1.2339 0.1143
-4.7997 1.2504 0.1138
-4.7812 1.2696 0.1137
-4.7659 1.2918 0.1142
-4.7457 1.3098 0.1139
-4.7255 1.3278 0.1136
-4.7052 1.3458 0.1133
-5.8335 4.1380 0.4568
-5.8160 4.5682 0.4921
-5.1832 5.2631 0.4935
-5.0147 4.9784 0.4536
-4.9265 5.0000 0.4473
-4.8586 5.1172 0.4511
-4.7558 5.0425 0.4353
-4.7698 5.6989 0.4929
-4.7278 6.1012 0.5236
-5.2115 0.7868 0.0882
-5.2022 0.8050 0.0887
-5.1965 0.8241 0.0896
-5.1709 0.8398 0.0887
-5.1609 0.8587 0.0892
-5.1367 0.8745 0.0885
-5.1288 0.8943 0.0892
-5.1132 0.9124 0.0892
-5.0998 0.9313 0.0895
-5.0945 0.9530 0.0905
-5.0633 0.9666 0.0891
-5.0244 1.0012 0.0885
-5.0104 1.0207 0.0888
-4.9908 1.0381 0.0884
-4.9765 1.0579 0.0887
-4.9732 1.0834 0.0902
-4.9482 1.0986 0.0893
-4.9332 1.1190 0.0895
-4.9132 1.1367 0.0892
-4.8979 1.1574 0.0894
-4.8640 1.1664 0.0875
-4.8487 1.1871 0.0877
-4.8332 1.2079 0.0880
-4.8244 1.2341 0.0891
-4.8024 1.2508 0.0885
-4.7756 1.2633 0.0873
-4.7747 1.2981 0.0896
-4.7417 1.3048 0.0876
-4.7230 1.3243 0.0875
-4.7027 1.3423 0.0871
-5.8447 4.9186 0.4130
-5.3127 5.3917 0.4047
-5.1015 4.9854 0.3615
-5.0104 5.0072 0.3561
-4.9113 4.9810 0.3469
-4.8165 4.9567 0.3381
-4.7651 5.1675 0.3484
-4.7439 5.6181 0.3770
-5.2025 0.8010 0.0644
-5.1927 0.8194 0.0647
-5.1710 0.8359 0.0643
-5.1520 0.8529 0.0640
-5.1379 0.8710 0.0640
-5.1311 0.8911 0.0646
-5.1118 0.9083 0.0643
-5.0984 0.9272 0.0644
-5.0848 0.9463 0.0645
-5.0629 0.9630 0.0641
-5.0513 0.9831 0.0643
-5.0316 1.0006 0.0640
-5.0152 1.0194 0.0640
-4.9986 1.0383 0.0639
-4.9809 1.0569 0.0638
-4.9662 1.0770 0.0639
-4.9573 1.1003 0.0645
-4.9322 1.1156 0.0638
-4.9198 1.1379 0.0641
-4.9071 1.1604 0.0644
-4.8692 1.1674 0.0626
-4.8609 1.1931 0.0633
-4.8362 1.2080 0.0626
-4.8229 1.2311 0.0629
-4.8076 1.2531 0.0631
-4.7895 1.2734 0.0630
-4.7619 1.2853 0.0620
-4.7438 1.3056 0.0619
-4.7257 1.3259 0.0618
-4.6972 1.3358 0.0606
-5.7645 4.2458 0.2627
-5.8043 4.5736 0.2808
-5.8736 5.0056 0.3056
-5.7826 5.0864 0.3042
-5.7360 5.2864 0.3111
-5.4562 5.5352 0.3067
-5.2490 5.2007 0.2785
-5.0737 4.9176 0.2547
-4.9947 4.9878 0.2534
-4.9158 5.0580 0.2522
-4.8463 5.1787 0.2539
-4.7415 5.0994 0.2440
-4.7359 5.6569 0.2705
-4.1523 6.7761 0.2902
-5.2272 0.7808 0.0405
-5.2054 0.7973 0.0401
-5.1824 0.8136 0.0396
-5.1673 0.8312 0.0395
-5.1660 0.8519 0.0400
-5.1529 0.8705 0.0400
-5.1310 0.8872 0.0396
-5.1200 0.9067 0.0397
-5.1135 0.9278 0.0400
-5.0751 0.9397 0.0388
-5.0833 0.9909 0.0406
-5.0365 0.9991 0.0389
-5.0199 1.0180 0.0388
-5.0085 1.0393 0.0389
-4.9801 1.0534 0.0381
-4.9602 1.0711 0.0378
-4.9483 1.0929 0.0380
-4.9360 1.1149 0.0381
-4.9082 1.1286 0.0373
-4.9002 1.1537 0.0377
-4.8772 1.1701 0.0373
-4.8524 1.1851 0.0367
-4.8488 1.2148 0.0374
-4.8214 1.2280 0.0366
-4.8010 1.2461 0.0363
-4.7626 1.2845 0.0358
-4.7337 1.2949 0.0349
-4.7216 1.3209 0.0352
-4.7070 1.3451 0.0353
-4.6957 1.4164 0.0369
-5.8074 4.1190 0.1605
-6.0236 5.0722 0.1969
-5.1892 5.0213 0.1610
-5.0464 4.8514 0.1502
-4.9684 4.9209 0.1490
-4.9310 5.1896 0.1552
-4.8494 5.2622 0.1539
-4.7678 5.3348 0.1526
-4.7746 6.0226 0.1727
-5.2397 0.7588 0.0159
-5.2261 0.7765 0.0157
-5.2109 0.7941 0.0155
-5.2009 0.8127 0.0155
-5.1815 0.8299 0.0152
-5.1596 0.8466 0.0148
-5.1465 0.8652 0.0146
-5.1394 0.8854 0.0147
-5.1221 0.9035 0.0144
-5.1001 0.9203 0.0140
-5.0863 0.9395 0.0139
-5.0723 0.9589 0.0137
-5.0614 0.9797 0.0137
-5.0556 1.0028 0.0137
-5.0246 1.0165 0.0131
-4.9982 1.0317 0.0126
-4.9865 1.0532 0.0126
-4.9695 1.0725 0.0123
-4.9384 1.0849 0.0117
-4.9243 1.1058 0.0116
-4.9270 1.1366 0.0119
-4.9092 1.1565 0.0117
-4.8841 1.1720 0.0112
-4.8430 1.2085 0.0106
-4.8123 1.2192 0.0099
-4.8019 1.2450 0.0099
-4.7766 1.2593 0.0094
-4.7695 1.2891 0.0096
-4.7419 1.3012 0.0090
-4.7198 1.3181 0.0086
-4.7072 1.3445 0.0086
-4.7091 1.4315 0.0094
-5.1729 5.0010 0.0536
-5.0424 4.8789 0.0494
-4.9635 4.9491 0.0481
-4.9044 5.1179 0.0483
-4.8147 5.1396 0.0463
-4.7876 5.5389 0.0494
-5.1747 0.8457 -0.0103
-5.1613 0.8645 -0.0105
-5.1477 0.8835 -0.0108
-5.1219 0.8996 -0.0112
-5.1080 0.9188 -0.0114
-5.0882 0.9364 -0.0118
-5.0865 0.9599 -0.0120
-5.0663 0.9778 -0.0123
-5.0429 0.9946 -0.0127
-5.0206 1.0116 -0.0130
-5.0142 1.0352 -0.0133
-5.0083 1.0597 -0.0136
-4.9705 1.0699 -0.0139
-4.9453 1.0855 -0.0142
-4.9358 1.1091 -0.0145
-4.9210 1.1304 -0.0149
-4.9051 1.1515 -0.0152
-4.8800 1.1670 -0.0155
-4.8692 1.1917 -0.0158
-4.8363 1.2016 -0.0161
-4.8226 1.2249 -0.0165
-4.7995 1.2413 -0.0168
-4.7789 1.2596 -0.0171
-4.7630 1.2820 -0.0174
-4.7469 1.3046 -0.0178
-4.7238 1.3209 -0.0181
-5.1565 4.9807 -0.0537
-5.0268 4.8595 -0.0533
-4.9479 4.9297 -0.0545
-4.8987 5.1495 -0.0571
-4.8078 5.1698 -0.0579
-4.7800 5.5770 -0.0624
-4.2640 6.1046 -0.0712
-5.2520 0.7714 -0.0346
-5.2165 0.7866 -0.0346
-5.2101 0.8060 -0.0352
-5.2007 0.8252 -0.0356
-5.1935 0.8453 -0.0362
-5.1735 0.8631 -0.0365
-5.1413 0.8781 -0.0366
-5.1299 0.8978 -0.0370
-5.1170 0.9175 -0.0375
-5.0900 0.9333 -0.0377
-5.0769 0.9531 -0.0381
-5.0623 0.9729 -0.0386
-5.0389 0.9896 -0.0388
-5.0102 1.0042 -0.0389
-5.0217 1.0350 -0.0400
-4.9991 1.0524 -0.0403
-4.9695 1.0664 -0.0404
-4.9551 1.0874 -0.0408
-4.9317 1.1041 -0.0411
-4.9245 1.1296 -0.0418
-4.8983 1.1447 -0.0419
-4.8732 1.1602 -0.0421
-4.8528 1.1784 -0.0424
-4.8417 1.2033 -0.0431
-4.8160 1.2179 -0.0432
-4.7979 1.2381 -0.0436
-4.7844 1.2624 -0.0442
-4.7659 1.2830 -0.0446
-4.7428 1.2995 -0.0449
-4.7175 1.3137 -0.0450
-4.7266 1.4055 -0.0479
-4.7090 1.4306 -0.0485
-5.9052 4.3431 -0.1510
-5.1813 5.1167 -0.1663
-4.9031 5.2342 -0.1667
-4.8494 5.4788 -0.1736
-4.7817 5.6771 -0.1788
-4.3516 6.2823 -0.1924
-4.2630 6.4390 -0.1961
-5.2192 0.8032 -0.0612
-5.1968 0.8204 -0.0614
-5.1535 0.8548 -0.0619
-5.1398 0.8738 -0.0624
-5.1200 0.8914 -0.0627
-5.1095 0.9116 -0.0635
-5.1021 0.9331 -0.0643
-5.1033 0.9578 -0.0656
-5.0639 0.9698 -0.0651
-5.0414 0.9871 -0.0653
-5.0329 1.0096 -0.0662
-5.0030 1.0239 -0.0660
-5.0002 1.0496 -0.0672
-4.9765 1.0665 -0.0674
-4.9618 1.0877 -0.0680
-4.9411 1.1061 -0.0684
-4.9129 1.1204 -0.0683
-4.9052 1.1462 -0.0693
-4.8638 1.1518 -0.0684
-4.8557 1.1780 -0.0695
-4.8325 1.1946 -0.0697
-4.8261 1.2234 -0.0709
-4.8149 1.2496 -0.0719
-4.7842 1.2606 -0.0716
-4.7525 1.2698 -0.0711
-4.7296 1.2861 -0.0713
-4.7134 1.3086 -0.0719
-4.7175 1.3525 -0.0743
-4.7201 1.3978 -0.0767
-4.7019 1.4221 -0.0774
-5.8886 4.3226 -0.2596
-5.2153 0.7983 -0.0870
-5.2056 0.8177 -0.0879
-5.1818 0.8348 -0.0880
-5.1656 0.8533 -0.0885
-5.1516 0.8725 -0.0892
-5.1256 0.8889 -0.0892
-5.1405 0.9160 -0.0918
-5.1073 0.9307 -0.0913
-5.0903 0.9499 -0.0918
-5.0698 0.9681 -0.0921
-5.0428 0.9840 -0.0920
-5.0087 0.9968 -0.0913
-5.0115 1.0240 -0.0934
-4.9961 1.0445 -0.0941
-4.9814 1.0656 -0.0949
-4.9456 1.1055 -0.0960
-4.9191 1.1210 -0.0959
-4.8929 1.1363 -0.0957
-4.8776 1.1579 -0.0965
-4.8542 1.1747 -0.0966
-4.8386 1.1966 -0.0974
-4.8178 1.2152 -0.0977
-4.8035 1.2387 -0.0987
-4.7825 1.2574 -0.0991
-4.7494 1.3030 -0.1007
-4.7282 1.3219 -0.1011
-6.0764 4.4509 -0.3886
-5.8943 4.3457 -0.3724
-5.8315 4.4664 -0.3780
-4.0529 3.0503 -0.1921
-4.0137 3.0325 -0.1890
-3.9758 3.0541 -0.1887
-3.9389 3.0491 -0.1866
-5.2255 0.7956 -0.1139
-5.2080 0.8139 -0.1144
-5.1816 0.8306 -0.1142
-5.1714 0.8504 -0.1154
-5.1609 0.8705 -0.1165
-5.1370 0.8877 -0.1165
-5.1074 0.9033 -0.1160
-5.1067 0.9267 -0.1181
-5.0862 0.9449 -0.1184
-5.0778 0.9671 -0.1199
-5.0485 0.9825 -0.1194
-5.0333 1.0027 -0.1203
-5.0188 1.0236 -0.1212
-5.0011 1.0434 -0.1219
-4.9912 1.0669 -0.1234
-4.9643 1.0828 -0.1231
-4.9415 1.1004 -0.1232
-4.9094 1.1128 -0.1222
-4.8943 1.1344 -0.1232
-4.8806 1.1572 -0.1244
-4.8579 1.1747 -0.1245
-4.8438 1.1980 -0.1257
-4.7733 1.2848 -0.1290
-4.7541 1.3059 -0.1297
-4.7326 1.3250 -0.1300
-5.3443 5.4372 -0.5495
-4.0444 3.0026 -0.2390
-4.0060 2.9858 -0.2349
-3.9694 2.9460 -0.2288
-5.2343 0.7926 -0.1413
-5.2040 0.8089 -0.1406
-5.2087 0.8314 -0.1435
-5.2052 0.8531 -0.1457
-5.1808 0.8708 -0.1456
-5.1495 0.8867 -0.1448
-5.1358 0.9068 -0.1459
-5.1026 0.9217 -0.1447
-5.0721 0.9368 -0.1439
-5.0584 0.9570 -0.1450
-5.0627 0.9838 -0.1484
-5.0292 0.9977 -0.1471
-5.0116 1.0173 -0.1478
-4.9940 1.0370 -0.1486
-4.9811 1.0590 -0.1500
-4.9524 1.0739 -0.1492
-4.9449 1.0992 -0.1514
-4.9322 1.1225 -0.1530
-4.9083 1.1398 -0.1529
-4.8788 1.1859 -0.1556
-4.8161 1.2097 -0.1530
-4.7999 1.2321 -0.1542
-4.7736 1.2835 -0.1577
-4.7683 1.3175 -0.1611
-4.7327 1.3239 -0.1588
-4.7089 1.3410 -0.1588
-4.7089 1.3836 -0.1636
-4.6952 1.4132 -0.1658
-6.3106 3.9681 -0.5924
-6.0896 4.0382 -0.5815
-5.9828 4.0720 -0.5763
-5.7970 3.9536 -0.5471
-5.7379 4.0607 -0.5542
-5.5722 3.9471 -0.5272
-5.5628 4.1619 -0.5508
-5.2694 4.8302 -0.6015
-5.1065 4.6222 -0.5641
-5.0053 4.6044 -0.5535
-4.8272 5.0996 -0.5944
-4.0781 3.0497 -0.2986
-4.0371 3.0063 -0.2902
-3.9986 2.9886 -0.2849
-3.9619 2.9613 -0.2787
-3.9266 2.9461 -0.2740
-3.8913 2.9655 -0.2732
-5.2000 0.8040 -0.1668
-5.1898 0.8237 -0.1683
-5.1902 0.8458 -0.1714
-5.1564 0.8613 -0.1699
-5.1559 0.8842 -0.1730
-5.1087 0.8958 -0.1696
-5.0986 0.9167 -0.1714
-5.0870 0.9375 -0.1730
-5.0762 0.9591 -0.1747
-5.0553 0.9776 -0.1751
-5.0282 0.9938 -0.1744
-5.0137 1.0146 -0.1757
-4.9959 1.0344 -0.1765
-4.9770 1.0539 -0.1772
-4.9541 1.0716 -0.1772
-4.9332 1.0902 -0.1775
-4.9013 1.1027 -0.1759
-4.8860 1.1242 -0.1772
-4.8829 1.1534 -0.1808
-4.8430 1.1929 -0.1820
-4.8005 1.1962 -0.1780
-4.8005 1.2306 -0.1826
-4.7886 1.2571 -0.1849
-4.7837 1.2906 -0.1889
-4.7595 1.3081 -0.1888
-4.7355 1.3255 -0.1886
-4.7226 1.3541 -0.1911
-4.7159 1.3905 -0.1953
-4.7018 1.4203 -0.1979
-5.9780 3.3220 -0.5866
-5.9656 3.4705 -0.6053
-5.8727 3.5055 -0.6004
-5.4951 3.7963 -0.6002
-5.4233 3.8602 -0.6014
-5.3931 4.0259 -0.6205
-5.3330 4.1283 -0.6281
-5.2451 4.1576 -0.6229
-5.1247 4.0808 -0.6000
-5.0536 4.1441 -0.6011
-4.9824 4.2073 -0.6022
-4.9113 4.2705 -0.6033
-4.8402 4.3338 -0.6045
-4.7616 4.3601 -0.5998
-4.7051 4.4989 -0.6126
-4.6396 4.6021 -0.6197
