ply
format ascii 1.0
element vertex 2098
property float x
property float y
property float z
end_header
-3.1657 1.1218 -0.5734
-3.1869 1.1120 -0.5671
-3.2150 1.0963 -0.5690
-3.2264 1.0892 -0.5723
-3.2389 1.0823 -0.5731
-3.2642 1.0690 -0.5715
-3.2743 1.0630 -0.5735
-3.2895 1.0568 -0.5661
-3.2979 1.0514 -0.5691
-3.3075 1.0461 -0.5694
-3.3137 1.0412 -0.5751
-3.3212 1.0363 -0.5782
-1.3083 2.2141 -0.5666
-1.7504 1.9563 -0.5782
-1.8199 1.9069 -0.6139
-2.0323 1.7894 -0.5953
-2.3013 1.6372 -0.5847
-2.4968 1.5265 -0.5771
-2.6317 1.4483 -0.5789
-2.7564 1.3787 -0.5704
-2.8513 1.3250 -0.5666
-2.8860 1.3043 -0.5696
-2.9585 1.2633 -0.5664
-2.9809 1.2487 -0.5730
-3.0068 1.2332 -0.5751
-3.0377 1.2165 -0.5708
-3.0644 1.2017 -0.5686
-3.0825 1.1901 -0.5732
-3.1055 1.1773 -0.5714
-3.1304 1.1644 -0.5659
-3.1470 1.1542 -0.5682
-3.1619 1.1448 -0.5714
-3.1947 1.1260 -0.5709
-3.2111 1.1171 -0.5688
-3.2211 1.1099 -0.5745
-3.2364 1.1018 -0.5719
-3.2508 1.0941 -0.5694
-3.2603 1.0876 -0.5733
-3.2743 1.0806 -0.5694
-3.2828 1.0746 -0.5734
-3.2939 1.0685 -0.5725
-3.3022 1.0629 -0.5755
-3.3104 1.0574 -0.5782
-3.3210 1.0520 -0.5757
-3.3303 1.0468 -0.5750
-3.3381 1.0420 -0.5763
-1.3253 2.2856 -0.5874
-1.8011 1.9950 -0.5850
-1.8986 1.9291 -0.6098
-2.0651 1.8287 -0.6039
-2.5186 1.5563 -0.5836
-2.7680 1.4049 -0.5786
-2.9098 1.3212 -0.5666
-2.9696 1.2833 -0.5717
-2.9978 1.2658 -0.5729
-3.0293 1.2475 -0.5691
-3.0777 1.2177 -0.5695
-3.1254 1.1899 -0.5639
-3.1562 1.1692 -0.5714
-3.1737 1.1586 -0.5710
-3.1875 1.1494 -0.5741
-3.2032 1.1399 -0.5737
-3.2166 1.1312 -0.5753
-3.2339 1.1219 -0.5703
-3.2449 1.1144 -0.5733
-3.2551 1.1073 -0.5768
-3.2685 1.0997 -0.5746
-3.2816 1.0924 -0.5715
-3.2894 1.0864 -0.5765
-3.2984 1.0803 -0.5789
-3.3085 1.0742 -0.5786
-3.3179 1.0684 -0.5788
-3.3289 1.0626 -0.5750
-3.3374 1.0573 -0.5754
-1.0932 2.5236 -0.5935
-1.3772 2.3379 -0.5997
-1.6333 2.1724 -0.5971
-1.8400 2.0389 -0.5949
-2.1510 1.8379 -0.5919
-2.2783 1.7562 -0.5879
-2.4014 1.6789 -0.5778
-2.5362 1.5880 -0.5920
-2.9339 1.3371 -0.5628
-2.9837 1.3020 -0.5744
-3.0491 1.2619 -0.5649
-3.0901 1.2338 -0.5711
-3.1279 1.2083 -0.5753
-3.1667 1.1837 -0.5729
-3.1990 1.1626 -0.5734
-3.2283 1.1437 -0.5732
-3.2426 1.1347 -0.5719
-3.2567 1.1261 -0.5698
-3.2798 1.1109 -0.5705
-3.2889 1.1042 -0.5737
-3.2972 1.0979 -0.5775
-3.3098 1.0908 -0.5730
-3.3167 1.0852 -0.5781
-3.3355 1.0733 -0.5767
-3.3451 1.0676 -0.5745
-3.3521 1.0625 -0.5768
-1.2128 2.5416 -0.5931
-1.4278 2.3897 -0.6119
-1.7279 2.1882 -0.5929
-1.8352 2.1085 -0.6189
-2.1098 1.9296 -0.5782
-2.1890 1.8708 -0.5972
-2.3290 1.7774 -0.5855
-2.4161 1.7168 -0.5895
-2.5067 1.6553 -0.5862
-2.5697 1.6107 -0.5919
-2.8670 1.4113 -0.5724
-2.9112 1.3820 -0.5681
-2.9352 1.3635 -0.5769
-2.9693 1.3403 -0.5757
-3.0095 1.3148 -0.5667
-3.0382 1.2954 -0.5655
-3.0606 1.2794 -0.5683
-3.0821 1.2641 -0.5707
-3.1082 1.2472 -0.5666
-3.1247 1.2347 -0.5711
-3.1467 1.2203 -0.5684
-3.1655 1.2076 -0.5676
-3.1840 1.1953 -0.5659
-3.1949 1.1862 -0.5727
-3.2156 1.1737 -0.5655
-3.2371 1.1567 -0.5749
-3.2506 1.1476 -0.5744
-3.2638 1.1388 -0.5732
-3.2750 1.1309 -0.5743
-3.2853 1.1234 -0.5759
-3.2974 1.1157 -0.5736
-3.3081 1.1085 -0.5729
-3.3162 1.1022 -0.5760
-3.3259 1.0957 -0.5753
-3.3356 1.0894 -0.5741
-3.3415 1.0840 -0.5795
-3.3509 1.0781 -0.5773
-3.3584 1.0727 -0.5783
-1.3434 2.5461 -0.5882
-1.5545 2.3898 -0.6028
-1.7577 2.2416 -0.6072
-2.0120 2.0629 -0.5816
-2.1786 1.9441 -0.5729
-2.2394 1.8946 -0.5970
-2.3619 1.8074 -0.5902
-2.5336 1.6829 -0.5905
-2.6027 1.6325 -0.5916
-2.7571 1.5254 -0.5702
-2.7933 1.4972 -0.5788
-2.8859 1.4311 -0.5741
-2.9234 1.4040 -0.5739
-2.9523 1.3821 -0.5783
-3.0117 1.3388 -0.5798
-3.0743 1.2957 -0.5696
-3.0946 1.2803 -0.5724
-3.1527 1.2374 -0.5758
-3.1733 1.2232 -0.5726
-3.1943 1.2092 -0.5672
-3.2234 1.1877 -0.5692
-3.2485 1.1687 -0.5728
-3.2591 1.1602 -0.5760
-3.2722 1.1511 -0.5746
-3.2838 1.1427 -0.5745
-3.2946 1.1348 -0.5749
-3.3040 1.1275 -0.5768
-3.3151 1.1199 -0.5748
-3.3351 1.1060 -0.5725
-3.3422 1.1001 -0.5758
-3.3504 1.0940 -0.5763
-3.3590 1.0880 -0.5752
-3.3670 1.0824 -0.5748
0.4829 4.3346 0.8073
-1.4793 2.5393 -0.5799
-1.8102 2.2791 -0.6141
-2.2020 1.9860 -0.5841
-2.4149 1.8230 -0.5852
-2.5804 1.6968 -0.5839
-2.8195 1.5154 -0.5774
-2.8650 1.4809 -0.5759
-2.9046 1.4506 -0.5758
-2.9444 1.4209 -0.5727
-2.9836 1.3920 -0.5674
-3.0000 1.3769 -0.5796
-3.0354 1.3513 -0.5731
-3.0589 1.3327 -0.5755
-3.0808 1.3155 -0.5780
-3.1289 1.2797 -0.5733
-3.1872 1.2359 -0.5699
-3.2176 1.2123 -0.5716
-3.2439 1.1915 -0.5745
-3.2584 1.1809 -0.5724
-3.2695 1.1720 -0.5745
-3.2829 1.1623 -0.5719
-3.2919 1.1546 -0.5757
-3.3044 1.1457 -0.5727
-3.3136 1.1383 -0.5745
-3.3239 1.1306 -0.5734
-3.3312 1.1242 -0.5775
-3.3406 1.1172 -0.5766
-3.3574 1.1043 -0.5767
-3.3737 1.0922 -0.5749
-1.5135 2.6008 -0.5963
-1.9468 2.2527 -0.5923
-2.1463 2.0954 -0.5759
-2.2395 2.0177 -0.5895
-2.4753 1.8306 -0.5757
-2.5440 1.7740 -0.5822
-2.6094 1.7205 -0.5861
-2.7396 1.6167 -0.5813
-2.8043 1.5664 -0.5724
-2.8519 1.5284 -0.5711
-2.8783 1.5048 -0.5823
-2.9580 1.4417 -0.5774
-2.9902 1.4158 -0.5773
-3.0282 1.3867 -0.5695
-3.0461 1.3705 -0.5782
-3.0693 1.3514 -0.5805
-3.1215 1.3108 -0.5735
-3.1575 1.2810 -0.5779
-3.1849 1.2613 -0.5662
-3.1963 1.2507 -0.5731
-3.2133 1.2373 -0.5716
-3.2294 1.2246 -0.5700
-3.2421 1.2140 -0.5720
-3.2546 1.2036 -0.5734
-3.2651 1.1945 -0.5769
-3.2786 1.1841 -0.5749
-3.2899 1.1748 -0.5752
-3.3024 1.1653 -0.5727
-3.3116 1.1575 -0.5749
-3.3225 1.1490 -0.5732
-3.3309 1.1418 -0.5754
-3.3398 1.1346 -0.5760
-3.3485 1.1276 -0.5760
-3.3560 1.1211 -0.5780
-3.3633 1.1149 -0.5796
-3.3700 1.1090 -0.5820
-3.3804 1.1020 -0.5751
-2.0500 2.2433 -0.5791
-2.1942 2.1213 -0.5787
-2.2758 2.0490 -0.5951
-2.3968 1.9478 -0.5884
-2.4803 1.8764 -0.5921
-2.6194 1.7573 -0.5987
-2.7580 1.6423 -0.5868
-2.8013 1.6047 -0.5913
-2.9379 1.4909 -0.5816
-2.9757 1.4595 -0.5783
-3.0108 1.4305 -0.5747
-3.0419 1.4046 -0.5722
-3.0844 1.3670 -0.5805
-3.1383 1.3234 -0.5698
-3.1496 1.3120 -0.5799
-3.1665 1.2972 -0.5822
-3.1934 1.2766 -0.5703
-3.2104 1.2624 -0.5695
-3.2360 1.2395 -0.5756
-3.2492 1.2282 -0.5767
-3.2634 1.2165 -0.5751
-3.2768 1.2054 -0.5736
-3.2881 1.1957 -0.5744
-3.2987 1.1865 -0.5755
-3.3109 1.1767 -0.5728
-3.3206 1.1683 -0.5737
-3.3284 1.1610 -0.5774
-3.3373 1.1533 -0.5784
-3.3465 1.1455 -0.5778
-3.3546 1.1385 -0.5789
-3.3625 1.1317 -0.5797
-3.3714 1.1246 -0.5774
-3.3780 1.1186 -0.5797
-3.3840 1.1129 -0.5829
-1.6742 2.8160 0.3389
-1.7616 2.7170 0.2214
-1.7754 2.6952 0.1684
-1.7780 2.6835 0.1164
-1.7687 2.6825 0.0644
-1.7367 2.7014 0.0116
-1.7908 2.6235 -0.1536
-1.6102 2.7123 -0.5525
-1.6551 2.6624 -0.6076
-2.1274 2.2484 -0.5732
-2.2182 2.1645 -0.5902
-2.4548 1.9557 -0.5810
-2.6046 1.8214 -0.5868
-2.7425 1.7000 -0.5796
-2.7820 1.6632 -0.5883
-2.8260 1.6235 -0.5913
-2.8665 1.5871 -0.5938
-2.9112 1.5479 -0.5900
-2.9938 1.4765 -0.5786
-3.0569 1.4213 -0.5734
-3.1060 1.3776 -0.5734
-3.1478 1.3403 -0.5743
-3.1653 1.3243 -0.5765
-3.1870 1.3058 -0.5719
-3.2070 1.2887 -0.5677
-3.2218 1.2753 -0.5691
-3.2488 1.2507 -0.5721
-3.2599 1.2402 -0.5757
-3.2745 1.2278 -0.5729
-3.2829 1.2192 -0.5791
-3.2952 1.2085 -0.5778
-3.3074 1.1980 -0.5757
-3.3165 1.1894 -0.5782
-3.3261 1.1808 -0.5791
-3.3388 1.1706 -0.5727
-3.3453 1.1639 -0.5781
-3.3539 1.1562 -0.5784
-3.3634 1.1482 -0.5759
-3.3695 1.1419 -0.5801
-3.3868 1.1275 -0.5749
-1.6267 2.9504 0.3931
-1.7390 2.8329 0.3182
-1.7870 2.7781 0.2591
-1.7315 2.8226 0.2158
-1.7922 2.7559 0.1562
-1.7971 2.7335 0.0508
-1.8003 2.7215 -0.0030
-1.8144 2.6991 -0.0572
-1.7823 2.7196 -0.1135
-1.7739 2.7178 -0.1709
-1.6555 2.7732 -0.4983
-1.7132 2.7107 -0.5497
-1.8057 2.6178 -0.5875
-2.0159 2.4229 -0.5796
-2.1688 2.2802 -0.5794
-2.2423 2.2077 -0.6017
-2.3776 2.0831 -0.5917
-2.4706 1.9960 -0.5929
-2.6342 1.8439 -0.5888
-2.7554 1.7307 -0.5890
-2.7994 1.6888 -0.5942
-2.8426 1.6479 -0.5967
-2.9416 1.5579 -0.5822
-2.9644 1.5350 -0.5925
-3.0090 1.4951 -0.5812
-3.0476 1.4606 -0.5722
-3.0664 1.4418 -0.5800
-3.0914 1.4184 -0.5798
-3.1213 1.3918 -0.5725
-3.1397 1.3741 -0.5758
-3.1534 1.3600 -0.5834
-3.1826 1.3349 -0.5706
-3.2294 1.2905 -0.5739
-3.2450 1.2763 -0.5726
-3.2567 1.2648 -0.5759
-3.2670 1.2544 -0.5803
-3.2825 1.2407 -0.5755
-3.2925 1.2309 -0.5786
-3.3058 1.2191 -0.5751
-3.3154 1.2097 -0.5769
-3.3255 1.2003 -0.5772
-3.3349 1.1914 -0.5779
-3.3425 1.1837 -0.5814
-3.3527 1.1746 -0.5788
-3.3632 1.1655 -0.5744
-3.3699 1.1587 -0.5776
-3.3791 1.1507 -0.5744
-3.3851 1.1445 -0.5781
-3.3920 1.1379 -0.5789
-1.7705 2.9038 0.4534
-1.8167 2.8492 0.3933
-1.8911 2.7661 0.3289
-1.8011 2.8496 0.2984
-1.8148 2.8279 0.2458
-1.7833 2.8513 0.1990
-1.7746 2.8518 0.1473
-1.8560 2.7628 0.0879
-1.8256 2.7846 0.0371
-1.8173 2.7842 -0.0166
-1.8095 2.7833 -0.0716
-1.8458 2.7392 -0.1258
-1.7673 2.8063 -0.1881
-0.9752 3.5585 -0.3383
-1.6745 2.8455 -0.5176
-1.8002 2.7073 -0.6140
-2.0345 2.4807 -0.5961
-2.2321 2.2903 -0.5764
-2.2871 2.2320 -0.6044
-2.4545 2.0725 -0.5764
-2.5877 1.9394 -0.5940
-2.6598 1.8689 -0.5927
-2.7202 1.8096 -0.5937
-2.7713 1.7592 -0.5966
-2.8688 1.6639 -0.5948
-2.9216 1.6138 -0.5853
-2.9693 1.5684 -0.5758
-2.9976 1.5401 -0.5800
-3.0548 1.4838 -0.5814
-3.0798 1.4592 -0.5825
-3.1344 1.4072 -0.5736
-3.1569 1.3855 -0.5715
-3.1716 1.3702 -0.5772
-3.1959 1.3476 -0.5693
-3.2118 1.3318 -0.5705
-3.2209 1.3214 -0.5801
-3.2547 1.2893 -0.5738
-3.2645 1.2788 -0.5796
-3.2910 1.2532 -0.5771
-3.3026 1.2419 -0.5771
-3.3139 1.2309 -0.5764
-3.3240 1.2210 -0.5771
-3.3361 1.2098 -0.5729
-3.3431 1.2021 -0.5777
-3.3522 1.1933 -0.5778
-3.3595 1.1856 -0.5807
-3.3699 1.1762 -0.5762
-3.3775 1.1686 -0.5769
-3.3860 1.1606 -0.5748
-3.4001 1.1467 -0.5752
-1.8141 2.9500 0.5311
-1.8688 2.8848 0.4680
-1.9211 2.8225 0.4078
-1.8853 2.8538 0.3705
-1.8572 2.8766 0.3289
-1.8706 2.8554 0.2776
-1.8738 2.8449 0.2277
-1.8772 2.8341 0.1773
-1.8700 2.8343 0.1273
-1.8622 2.8348 0.0760
-1.8434 2.8467 0.0239
-1.8795 2.8018 -0.0305
-1.8604 2.8134 -0.0850
-1.8635 2.8023 -0.1403
-1.9000 2.7571 -0.1933
-1.6039 3.0180 -0.4904
-1.7214 2.8916 -0.5300
-2.1252 2.4693 -0.5860
-2.2418 2.3485 -0.5942
-2.3108 2.2746 -0.6157
-2.4912 2.0948 -0.5787
-2.5307 2.0509 -0.6023
-2.6065 1.9731 -0.6030
-2.6915 1.8874 -0.5927
-2.7612 1.8168 -0.5859
-2.8146 1.7621 -0.5852
-2.8597 1.7157 -0.5866
-3.0124 1.5595 -0.5834
-3.0725 1.4983 -0.5802
-3.1224 1.4473 -0.5786
-3.1493 1.4207 -0.5726
-3.1627 1.4057 -0.5806
-3.2030 1.3651 -0.5760
-3.2336 1.3333 -0.5782
-3.2494 1.3173 -0.5766
-3.2638 1.3027 -0.5758
-3.2763 1.2897 -0.5768
-3.2914 1.2749 -0.5724
-3.3147 1.2511 -0.5715
-3.3231 1.2419 -0.5756
-3.3308 1.2333 -0.5804
-3.3422 1.2221 -0.5771
-3.3507 1.2131 -0.5787
-3.3673 1.1958 -0.5802
-3.3775 1.1861 -0.5755
-3.3845 1.1787 -0.5774
-3.3981 1.1643 -0.5798
-3.4062 1.1565 -0.5766
-3.4104 1.1512 -0.5833
-1.9117 2.9370 0.6281
-1.8959 2.9491 0.5905
-1.8691 2.9732 0.5552
-1.9562 2.8582 0.3930
-1.9501 2.8589 0.3489
-1.9665 2.8286 0.2525
-1.9311 2.8610 0.2103
-1.9047 2.8833 0.1641
-1.9076 2.8734 0.1131
-1.8684 2.9090 0.0638
-1.9550 2.8086 0.0079
-1.9077 2.8525 -0.0440
-1.9423 2.8083 -0.0969
-1.9035 2.8426 -0.1534
-1.9388 2.7978 -0.2059
-1.9428 2.7861 -0.2613
-1.7110 3.0049 -0.4897
-1.7275 2.9788 -0.5532
-2.0476 2.6315 -0.5800
-2.2810 2.3782 -0.5999
-2.3731 2.2781 -0.6092
-2.5260 2.1176 -0.5814
-2.6489 1.9834 -0.5982
-2.7157 1.9118 -0.5967
-2.7924 1.8312 -0.5836
-2.8883 1.7282 -0.5830
-2.9725 1.6385 -0.5775
-3.0029 1.6055 -0.5803
-3.0296 1.5763 -0.5843
-3.0936 1.5088 -0.5750
-3.1357 1.4629 -0.5800
-3.1759 1.4197 -0.5806
-3.1938 1.4004 -0.5814
-3.2166 1.3769 -0.5738
-3.2426 1.3480 -0.5814
-3.2768 1.3125 -0.5714
-3.2994 1.2878 -0.5750
-3.3101 1.2761 -0.5763
-3.3202 1.2651 -0.5779
-3.3408 1.2430 -0.5773
-3.3504 1.2328 -0.5771
-3.3572 1.2248 -0.5818
-3.3675 1.2143 -0.5782
-3.3766 1.2048 -0.5762
-3.3845 1.1962 -0.5761
-3.3914 1.1886 -0.5778
-3.3977 1.1816 -0.5804
-3.4043 1.1743 -0.5813
-1.9765 2.9311 0.5582
-1.9525 2.9540 0.5233
-1.8813 3.0256 0.4542
-1.9344 2.9587 0.3929
-1.9796 2.8956 0.2893
-1.9925 2.8753 0.2400
-1.9480 2.9203 0.1988
-1.9117 2.9556 0.1533
-1.9255 2.9339 0.1007
-1.9688 2.8788 0.0466
-2.0108 2.8254 -0.0057
-2.0335 2.7938 -0.0563
-1.9740 2.8478 -0.1640
-1.9672 2.8488 -0.2196
-1.9608 2.8493 -0.2765
-1.9066 2.8877 -0.4649
-1.9334 2.8511 -0.5194
-1.8910 2.8896 -0.5957
-2.1040 2.6519 -0.5833
-2.2862 2.4490 -0.5681
-2.3331 2.3926 -0.5994
-2.4080 2.3066 -0.6144
-2.5699 2.1290 -0.5788
-2.7074 1.9741 -0.5826
-2.7996 1.8688 -0.5973
-2.9026 1.7539 -0.5898
-2.9835 1.6636 -0.5853
-3.0541 1.5852 -0.5777
-3.1020 1.5308 -0.5829
-3.1562 1.4711 -0.5727
-3.1724 1.4523 -0.5775
-3.1884 1.4339 -0.5813
-3.2117 1.4086 -0.5739
-3.2260 1.3922 -0.5772
-3.2572 1.3573 -0.5759
-3.2691 1.3435 -0.5790
-3.2830 1.3281 -0.5779
-3.2945 1.3150 -0.5795
-3.3090 1.2993 -0.5747
-3.3169 1.2897 -0.5808
-3.3278 1.2774 -0.5803
-3.3380 1.2660 -0.5802
-3.3481 1.2547 -0.5794
-3.3595 1.2425 -0.5747
-3.3652 1.2353 -0.5816
-3.3748 1.2248 -0.5790
-3.3813 1.2171 -0.5827
-3.3987 1.1981 -0.5770
-3.4049 1.1909 -0.5794
-3.4114 1.1835 -0.5803
-3.4174 1.1766 -0.5820
-1.9855 3.0040 0.6370
-2.0064 2.9742 0.5867
-1.9378 3.0528 0.5693
-1.9123 3.0790 0.5331
-1.8848 3.1073 0.4955
-1.9316 3.0409 0.3877
-1.9927 2.9626 0.3262
-2.0236 2.9207 0.2733
-1.9616 2.9897 0.2370
-1.9846 2.9572 0.1846
-1.9395 3.0054 0.1400
-1.9627 2.9725 0.0867
-2.0149 2.9055 0.0327
-2.0470 2.8624 -0.0186
-2.1042 2.7900 -0.0681
-2.1576 2.7223 -0.1150
-2.0120 2.8868 -0.1766
-1.9753 2.9235 -0.2357
-1.9373 2.9615 -0.2985
-2.0181 2.8560 -0.3996
-1.9815 2.8918 -0.4677
-2.3515 2.4472 -0.5628
-2.3764 2.4137 -0.6020
-2.5939 2.1601 -0.5861
-2.7110 2.0212 -0.5998
-2.8347 1.8768 -0.5913
-2.9233 1.7727 -0.5915
-2.9996 1.6834 -0.5887
-3.1226 1.5402 -0.5773
-3.1433 1.5156 -0.5795
-3.1602 1.4952 -0.5847
-3.1821 1.4698 -0.5822
-3.2042 1.4443 -0.5774
-3.2293 1.4160 -0.5663
-3.2376 1.4051 -0.5773
-3.2492 1.3910 -0.5828
-3.2799 1.3554 -0.5784
-3.3048 1.3261 -0.5785
-3.3164 1.3125 -0.5782
-3.3262 1.3007 -0.5803
-3.3385 1.2868 -0.5765
-3.3480 1.2755 -0.5772
-3.3568 1.2650 -0.5784
-3.3651 1.2552 -0.5801
-3.3765 1.2424 -0.5734
-3.3825 1.2348 -0.5785
-3.3922 1.2239 -0.5739
-3.3971 1.2175 -0.5806
-3.4028 1.2104 -0.5847
-3.4098 1.2021 -0.5847
-3.4198 1.1914 -0.5753
-3.4243 1.1855 -0.5808
-3.4284 1.1801 -0.5873
-1.8811 3.1946 0.4919
-1.9451 3.1099 0.4256
-2.0239 3.0071 0.3585
-2.0626 2.9546 0.3040
-2.0219 3.0010 0.2662
-1.9494 3.0867 0.2304
-1.9012 3.1417 0.1861
-1.9963 3.0193 0.1238
-2.0379 2.9634 0.0702
-2.1502 2.8162 -0.0316
-2.1787 2.7769 -0.0791
-2.1828 2.7674 -0.1270
-2.0496 2.9251 -0.1890
-1.9627 3.0256 -0.2550
-1.9340 3.0549 -0.3184
-1.9570 3.0103 -0.4972
-1.9609 2.9998 -0.5591
-2.0091 2.9363 -0.6060
-2.1935 2.7110 -0.5965
-2.3753 2.4900 -0.5743
-2.3871 2.4714 -0.6195
-2.6183 2.1902 -0.5930
-2.7556 2.0219 -0.5909
-2.8632 1.8901 -0.5893
-2.9178 1.8238 -0.5814
-2.9557 1.7772 -0.5830
-2.9868 1.7386 -0.5876
-3.0192 1.6988 -0.5885
-3.0504 1.6605 -0.5879
-3.1309 1.5621 -0.5852
-3.1648 1.5218 -0.5711
-3.1981 1.4803 -0.5785
-3.2146 1.4598 -0.5803
-3.2337 1.4368 -0.5770
-3.2491 1.4178 -0.5773
-3.2615 1.4022 -0.5809
-3.2895 1.3681 -0.5795
-3.3028 1.3518 -0.5779
-3.3144 1.3376 -0.5783
-3.3243 1.3253 -0.5808
-3.3445 1.3004 -0.5820
-3.3568 1.2858 -0.5763
-3.3726 1.2660 -0.5810
-3.3819 1.2547 -0.5787
-3.3897 1.2451 -0.5792
-3.3983 1.2348 -0.5768
-3.4026 1.2288 -0.5847
-3.4101 1.2197 -0.5839
-3.4161 1.2122 -0.5862
-3.4254 1.2015 -0.5780
-3.4303 1.1951 -0.5821
-1.9685 3.1661 0.4606
-2.0369 3.0734 0.3950
-2.1326 2.9454 0.3258
-1.9736 3.1445 0.2675
-1.9369 3.1881 0.2234
-1.9812 3.1267 0.1660
-2.0236 3.0682 0.1107
-2.2365 2.7835 -0.0434
-2.2485 2.7645 -0.0893
-2.2383 2.7739 -0.1369
-2.1896 2.8321 -0.1901
-2.0304 3.0118 -0.4993
-2.0557 2.9753 -0.5527
-2.0999 2.9150 -0.5980
-2.2206 2.7597 -0.6095
-2.4059 2.5244 -0.5826
-2.6111 2.2622 -0.5743
-2.7171 2.1247 -0.5961
-2.8399 1.9679 -0.5899
-2.8736 1.9239 -0.6006
-2.9235 1.8604 -0.5955
-2.9658 1.8064 -0.5928
-3.0037 1.7581 -0.5906
-3.0464 1.7042 -0.5806
-3.0727 1.6702 -0.5834
-3.1340 1.5926 -0.5726
-3.1680 1.5481 -0.5845
-3.1861 1.5248 -0.5870
-3.2043 1.5014 -0.5877
-3.2261 1.4739 -0.5816
-3.2470 1.4478 -0.5748
-3.2753 1.4114 -0.5764
-3.2872 1.3958 -0.5789
-3.2990 1.3806 -0.5806
-3.3116 1.3646 -0.5798
-3.3220 1.3511 -0.5819
-3.3351 1.3346 -0.5774
-3.3446 1.3223 -0.5791
-3.3626 1.2991 -0.5817
-3.3800 1.2767 -0.5819
-3.3901 1.2642 -0.5772
-3.3982 1.2539 -0.5764
-3.4026 1.2477 -0.5845
-3.4113 1.2368 -0.5803
-3.4181 1.2281 -0.5805
-3.4248 1.2195 -0.5802
-3.4314 1.2111 -0.5794
-3.4358 1.2050 -0.5848
-1.6635 3.6669 0.6030
-2.0587 3.1276 0.4287
-2.2328 2.8891 0.3365
-2.2512 2.8616 0.2914
-2.1918 2.9393 0.2632
-1.8296 3.4248 0.2854
-1.8793 3.3543 0.2227
-1.9584 3.2445 0.1587
-2.0873 3.0682 0.0945
-2.1833 2.9364 0.0396
-2.2487 2.8459 -0.0091
-2.2955 2.7805 -0.0545
-2.3005 2.7708 -0.0996
-2.3050 2.7620 -0.1451
-2.1908 2.9108 -0.2054
-2.0717 3.0655 -0.2756
-2.1002 3.0130 -0.5014
-2.0854 3.0287 -0.5669
-2.1473 2.9435 -0.6049
-2.2944 2.7471 -0.6023
-2.4415 2.5514 -0.5884
-2.4936 2.4802 -0.6119
-2.6396 2.2872 -0.5792
-2.8585 1.9936 -0.5957
-2.8965 1.9423 -0.6021
-2.9485 1.8734 -0.5937
-3.0252 1.7711 -0.5890
-3.0588 1.7265 -0.5865
-3.0940 1.6799 -0.5792
-3.1176 1.6481 -0.5816
-3.1460 1.6106 -0.5764
-3.1659 1.5837 -0.5789
-3.1839 1.5595 -0.5822
-3.2216 1.5092 -0.5815
-3.2547 1.4649 -0.5806
-3.2690 1.4457 -0.5814
-3.2877 1.4212 -0.5734
-3.2979 1.4073 -0.5783
-3.3140 1.3863 -0.5716
-3.3218 1.3754 -0.5787
-3.3354 1.3575 -0.5739
-3.3434 1.3465 -0.5789
-3.3522 1.3346 -0.5815
-3.3651 1.3178 -0.5741
-3.3732 1.3069 -0.5764
-3.3806 1.2968 -0.5793
-3.3884 1.2863 -0.5806
-3.3964 1.2755 -0.5802
-3.4039 1.2655 -0.5805
-3.4185 1.2460 -0.5795
-3.4248 1.2376 -0.5808
-3.4326 1.2274 -0.5766
-3.4366 1.2216 -0.5834
-3.4426 1.2137 -0.5835
-3.4473 1.2072 -0.5872
-2.2784 2.9001 0.3588
-2.2670 2.9123 0.2821
-2.1856 3.0246 0.2579
-2.2054 2.9947 0.2102
-2.2957 2.8597 0.0236
-2.3338 2.8044 -0.0214
-2.3452 2.7864 -0.0652
-2.3689 2.7513 -0.1083
-2.3288 2.8048 -0.1565
-2.4210 2.6724 -0.2354
-2.4266 2.6624 -0.2793
-2.2324 2.9287 -0.3725
-2.0952 3.1154 -0.4657
-2.1570 3.0273 -0.5064
-2.1525 3.0306 -0.5675
-2.2369 2.9117 -0.5940
-2.3284 2.7833 -0.6113
-2.4824 2.5696 -0.5910
-2.5374 2.4919 -0.6114
-2.6677 2.3116 -0.5839
-2.7866 2.1455 -0.5914
-2.8848 2.0084 -0.5954
-2.9689 1.8912 -0.5954
-3.0499 1.7788 -0.5838
-3.0752 1.7433 -0.5883
-3.1357 1.6594 -0.5793
-3.1534 1.6344 -0.5856
-3.1802 1.5974 -0.5790
-3.2038 1.5648 -0.5741
-3.2347 1.5213 -0.5807
-3.2508 1.4988 -0.5808
-3.2713 1.4706 -0.5725
-3.2807 1.4572 -0.5804
-3.2915 1.4420 -0.5852
-3.3070 1.4205 -0.5804
-3.3208 1.4015 -0.5772
-3.3333 1.3841 -0.5748
-3.3451 1.3677 -0.5725
-3.3553 1.3535 -0.5724
-3.3644 1.3408 -0.5736
-3.3715 1.3306 -0.5784
-3.3812 1.3172 -0.5764
-3.3868 1.3092 -0.5835
-3.3970 1.2951 -0.5780
-3.4053 1.2836 -0.5763
-3.4110 1.2755 -0.5811
-3.4182 1.2655 -0.5808
-3.4257 1.2551 -0.5787
-3.4310 1.2475 -0.5823
-3.4387 1.2371 -0.5780
-3.4434 1.2303 -0.5822
-3.4508 1.2203 -0.5768
-3.4546 1.2146 -0.5830
-2.4067 2.7851 0.3169
-2.3406 2.8725 0.0547
-2.3825 2.8101 0.0099
-2.4058 2.7748 -0.0326
-2.4168 2.7574 -0.0747
-2.3345 2.8754 -0.1232
-2.3975 2.7826 -0.1633
-2.5146 2.6086 -0.2758
-2.1755 3.0972 -0.4069
-2.1895 3.0751 -0.4605
-2.2035 3.0530 -0.5141
-2.2750 2.9480 -0.5457
-2.3040 2.9044 -0.5904
-2.4531 2.6881 -0.5775
-2.8778 2.0706 -0.5843
-2.9149 2.0164 -0.5915
-2.9684 1.9389 -0.5817
-2.9913 1.9052 -0.5949
-3.0700 1.7912 -0.5824
-3.0959 1.7535 -0.5851
-3.1263 1.7094 -0.5804
-3.1457 1.6810 -0.5859
-3.2084 1.5900 -0.5861
-3.2316 1.5564 -0.5787
-3.2456 1.5359 -0.5828
-3.2785 1.4883 -0.5791
-3.2942 1.4656 -0.5760
-3.3165 1.4330 -0.5815
-3.3300 1.4135 -0.5781
-3.3404 1.3983 -0.5794
-3.3529 1.3802 -0.5751
-3.3797 1.3411 -0.5785
-3.3870 1.3304 -0.5817
-3.3977 1.3152 -0.5756
-3.4043 1.3055 -0.5788
-3.4107 1.2959 -0.5817
-3.4196 1.2832 -0.5770
-3.4270 1.2725 -0.5752
-3.4336 1.2630 -0.5753
-3.4376 1.2569 -0.5826
-3.4431 1.2488 -0.5845
-3.4494 1.2398 -0.5835
-3.4547 1.2320 -0.5847
-2.6269 2.6134 0.4087
-2.6140 2.6377 0.3852
-2.6261 2.6177 0.3498
-2.6239 2.6230 0.3201
-2.6360 2.6029 0.2846
-2.6520 2.5759 0.2481
-2.6429 2.5936 0.2193
-2.6484 2.5852 0.1856
-2.6424 2.5974 0.1540
-2.6514 2.5829 0.1187
-2.6566 2.5752 0.0840
-2.7501 2.4093 0.0404
-2.8530 2.2261 0.0030
-2.8755 2.1871 -0.0254
-2.9050 2.1354 -0.0524
-2.9093 2.1288 -0.0791
-2.7448 2.4316 -0.2331
-2.7566 2.4120 -0.2674
-2.7106 2.4991 -0.3623
-2.7055 2.5104 -0.4068
-2.6768 2.5645 -0.4644
-2.7102 2.5060 -0.4922
-2.7493 2.4367 -0.5139
-2.7485 2.4402 -0.5587
-2.7686 2.4055 -0.5897
-2.8343 2.2872 -0.5843
-2.8886 2.1896 -0.5816
-2.9745 2.0352 -0.5810
-3.0071 1.9768 -0.5846
-3.0448 1.9088 -0.5792
-3.0732 1.8579 -0.5805
-3.1075 1.7958 -0.5714
-3.1240 1.7665 -0.5813
-3.1507 1.7183 -0.5758
-3.1714 1.6811 -0.5758
-3.1895 1.6486 -0.5774
-3.2120 1.6079 -0.5698
-3.2416 1.5549 -0.5733
-3.2532 1.5342 -0.5783
-3.2683 1.5070 -0.5753
-3.2811 1.4840 -0.5750
-3.2936 1.4616 -0.5737
-3.3023 1.4461 -0.5792
-3.3154 1.4223 -0.5733
-3.3245 1.4060 -0.5754
-3.3320 1.3929 -0.5807
-3.3447 1.3696 -0.5708
-3.3518 1.3570 -0.5746
-3.3594 1.3434 -0.5759
-3.3659 1.3319 -0.5797
-3.3749 1.3154 -0.5745
-3.3811 1.3044 -0.5772
-3.3878 1.2924 -0.5772
-3.3931 1.2830 -0.5813
-3.4018 1.2671 -0.5720
-3.4059 1.2600 -0.5787
-3.4118 1.2494 -0.5778
-3.4169 1.2401 -0.5789
-3.4229 1.2294 -0.5758
-3.4275 1.2211 -0.5774
-3.4321 1.2129 -0.5785
-3.4368 1.2043 -0.5780
-2.6521 2.6355 0.4225
-2.6607 2.6217 0.3888
-2.6627 2.6200 0.3582
-2.6642 2.6194 0.3272
-2.6832 2.5862 0.2892
-2.6950 2.5664 0.2543
-2.6695 2.6160 0.2311
-2.6753 2.6074 0.1970
-2.6842 2.5930 0.1619
-2.7164 2.5350 0.1223
-2.7651 2.4462 0.0821
-2.8680 2.2570 0.0110
-2.8730 2.2496 -0.0177
-2.8329 2.3272 -0.0474
-2.8065 2.3794 -0.0804
-2.7955 2.4024 -0.1149
-2.7979 2.4004 -0.1492
-2.8064 2.3865 -0.1828
-2.8035 2.3945 -0.2193
-2.8095 2.3856 -0.2542
-2.7820 2.4408 -0.3011
-2.7753 2.4563 -0.3435
-2.7779 2.4541 -0.3833
-2.7570 2.4972 -0.4358
-2.7668 2.4813 -0.4744
-2.7666 2.4848 -0.5192
-2.7657 2.4897 -0.5657
-2.8159 2.3958 -0.5756
-2.8641 2.3055 -0.5822
-2.9117 2.2159 -0.5842
-2.9813 2.0832 -0.5607
-2.9931 2.0626 -0.5868
-3.0341 1.9850 -0.5811
-3.0661 1.9248 -0.5809
-3.1239 1.8156 -0.5774
-3.1425 1.7809 -0.5845
-3.1646 1.7392 -0.5846
-3.1917 1.6875 -0.5744
-3.2115 1.6500 -0.5723
-3.2701 1.5401 -0.5785
-3.2937 1.4958 -0.5824
-3.3068 1.4709 -0.5790
-3.3196 1.4465 -0.5745
-3.3275 1.4320 -0.5803
-3.3390 1.4099 -0.5755
-3.3476 1.3939 -0.5771
-3.3583 1.3733 -0.5712
-3.3651 1.3607 -0.5752
-3.3725 1.3470 -0.5767
-3.3800 1.3328 -0.5765
-3.3867 1.3202 -0.5778
-3.4009 1.2932 -0.5742
-3.4063 1.2832 -0.5772
-3.4128 1.2710 -0.5750
-3.4179 1.2614 -0.5771
-3.4230 1.2519 -0.5787
-3.4280 1.2426 -0.5800
-3.4341 1.2307 -0.5745
-3.4379 1.2240 -0.5799
-3.4430 1.2142 -0.5773
-3.4471 1.2067 -0.5796
-2.6538 2.7048 0.4497
-2.6837 2.6498 0.4040
-2.6924 2.6358 0.3698
-2.7048 2.6145 0.3340
-2.7763 2.4783 0.2745
-2.7844 2.4654 0.2431
-2.7845 2.4678 0.2143
-2.7395 2.5585 0.1980
-2.7446 2.5515 0.1649
-2.7750 2.4950 0.1262
-2.8059 2.4371 0.0891
-2.8456 2.3620 0.0529
-2.8794 2.2980 0.0198
-2.8535 2.3520 -0.0085
-2.8340 2.3968 -0.0727
-2.8499 2.3682 -0.1048
-2.8230 2.4250 -0.1425
-2.8401 2.3941 -0.1750
-2.8404 2.3969 -0.2108
-2.8209 2.4396 -0.2535
-2.8178 2.4494 -0.2933
-2.8115 2.4659 -0.3358
-2.8022 2.4887 -0.3815
-2.8055 2.4860 -0.4227
-2.8085 2.4840 -0.4649
-2.8089 2.4875 -0.5096
-2.8151 2.4791 -0.5513
-2.8251 2.4629 -0.5906
-2.9457 2.2229 -0.5780
-3.0387 2.0339 -0.5291
-3.0478 2.0184 -0.5560
-3.0663 1.9833 -0.5722
-3.0895 1.9381 -0.5809
-3.1139 1.8902 -0.5856
-3.1435 1.8311 -0.5803
-3.1687 1.7808 -0.5775
-3.1854 1.7484 -0.5845
-3.2103 1.6982 -0.5761
-3.2308 1.6572 -0.5719
-3.2451 1.6293 -0.5760
-3.2598 1.6002 -0.5774
-3.2717 1.5772 -0.5827
-3.2865 1.5476 -0.5802
-3.2999 1.5209 -0.5786
-3.3116 1.4977 -0.5790
-3.3329 1.4557 -0.5801
-3.3435 1.4346 -0.5783
-3.3538 1.4138 -0.5755
-3.3629 1.3956 -0.5744
-3.3694 1.3834 -0.5803
-3.3784 1.3651 -0.5768
-3.3855 1.3513 -0.5784
-3.3907 1.3417 -0.5857
-3.4003 1.3218 -0.5757
-3.4065 1.3094 -0.5765
-3.4122 1.2985 -0.5790
-3.4182 1.2866 -0.5788
-3.4240 1.2748 -0.5780
-3.4295 1.2640 -0.5778
-3.4351 1.2527 -0.5760
-3.4396 1.2440 -0.5785
-3.4436 1.2366 -0.5832
-3.4491 1.2253 -0.5786
-3.4526 1.2187 -0.5840
-3.4572 1.2095 -0.5824
-2.7051 2.6799 0.4505
-2.7401 2.6128 0.4018
-2.7720 2.5515 0.3565
-2.7946 2.5092 0.3174
-2.8156 2.4697 0.2800
-2.8364 2.4307 0.2437
-2.8494 2.4075 0.2112
-2.8475 2.4148 0.1839
-2.8373 2.4392 0.1580
-2.8454 2.4262 0.1263
-2.8485 2.4234 0.0956
-2.8664 2.3900 0.0623
-2.9663 2.1894 -0.0051
-2.9607 2.2044 -0.0324
-2.9943 2.1376 -0.0594
-2.9960 2.1373 -0.0866
-2.9911 2.1582 -0.1740
-2.8781 2.4162 -0.3553
-2.8436 2.4956 -0.4150
-2.8502 2.4866 -0.4553
-2.8538 2.4843 -0.4981
-2.8668 2.4616 -0.5348
-2.8858 2.4257 -0.5662
-2.9230 2.3499 -0.5804
-3.0208 2.1397 -0.5328
-3.0520 2.0754 -0.5403
-3.0833 2.0104 -0.5440
-3.0905 1.9987 -0.5724
-3.1049 1.9711 -0.5918
-3.1408 1.8946 -0.5808
-3.1590 1.8579 -0.5903
-3.1884 1.7953 -0.5804
-3.2074 1.7559 -0.5831
-3.2209 1.7289 -0.5928
-3.2458 1.6751 -0.5799
-3.2635 1.6380 -0.5772
-3.2782 1.6072 -0.5776
-3.2903 1.5825 -0.5817
-3.3044 1.5528 -0.5795
-3.3273 1.5050 -0.5813
-3.3392 1.4799 -0.5784
-3.3504 1.4561 -0.5753
-3.3688 1.4177 -0.5754
-3.3766 1.4016 -0.5774
-3.3829 1.3893 -0.5835
-3.3928 1.3674 -0.5753
-3.3996 1.3536 -0.5771
-3.4064 1.3393 -0.5773
-3.4141 1.3227 -0.5725
-3.4193 1.3122 -0.5767
-3.4247 1.3013 -0.5793
-3.4309 1.2880 -0.5769
-3.4361 1.2775 -0.5786
-3.4417 1.2654 -0.5762
-3.4477 1.2523 -0.5708
-3.4518 1.2442 -0.5745
-3.4556 1.2367 -0.5792
-3.4603 1.2266 -0.5773
-3.4638 1.2200 -0.5827
-3.4681 1.2108 -0.5812
-2.8415 2.4804 0.3457
-2.8732 2.4169 0.3028
-2.8690 2.4298 0.2785
-2.8651 2.4424 0.2532
-2.8866 2.4002 0.2170
-2.8992 2.3772 0.1852
-2.9133 2.3510 0.1532
-2.8939 2.3973 0.1305
-2.8971 2.3948 0.1005
-2.9910 2.1981 0.0289
-3.0161 2.1470 0.0003
-3.0353 2.1087 -0.0264
-3.0433 2.0949 -0.0521
-3.0412 2.1037 -0.0786
-3.0431 2.1035 -0.1054
-3.0390 2.1170 -0.1339
-3.0458 2.1058 -0.1609
-3.0500 2.1009 -0.1888
-3.0424 2.1225 -0.2213
-3.0433 2.1252 -0.2520
-3.0339 2.1517 -0.2886
-2.9314 2.3919 -0.3795
-2.9226 2.4185 -0.4265
-2.8783 2.5279 -0.5008
-2.8823 2.5258 -0.5456
-2.9133 2.4607 -0.5684
-3.0648 2.1177 -0.5148
-3.0979 2.0452 -0.5182
-3.1083 2.0260 -0.5436
-3.1171 2.0106 -0.5705
-3.1418 1.9570 -0.5760
-3.1633 1.9105 -0.5826
-3.1864 1.8597 -0.5840
-3.2057 1.8175 -0.5882
-3.2281 1.7676 -0.5846
-3.2457 1.7288 -0.5860
-3.2653 1.6848 -0.5812
-3.2804 1.6516 -0.5823
-3.2932 1.6238 -0.5861
-3.3079 1.5910 -0.5836
-3.3438 1.5115 -0.5826
-3.3570 1.4811 -0.5744
-3.3657 1.4624 -0.5773
-3.3744 1.4433 -0.5785
-3.3840 1.4217 -0.5753
-3.3925 1.4026 -0.5738
-3.3997 1.3867 -0.5751
-3.4073 1.3698 -0.5738
-3.4130 1.3579 -0.5788
-3.4203 1.3416 -0.5760
-3.4257 1.3301 -0.5799
-3.4319 1.3163 -0.5789
-3.4383 1.3015 -0.5751
-3.4438 1.2895 -0.5751
-3.4482 1.2802 -0.5791
-3.4538 1.2674 -0.5757
-3.4584 1.2572 -0.5764
-3.4630 1.2473 -0.5767
-3.4674 1.2375 -0.5766
-3.4712 1.2296 -0.5798
-3.4755 1.2196 -0.5775
-3.4791 1.2120 -0.5800
-2.8741 2.4792 0.3797
-2.8956 2.4361 0.3412
-2.9140 2.3995 0.3055
-2.9108 2.4115 0.2815
-2.9116 2.4147 0.2547
-2.9240 2.3916 0.2226
-2.9291 2.3851 0.1935
-2.9495 2.3437 0.1592
-2.9761 2.2879 0.1243
-2.9853 2.2716 0.0953
-3.0379 2.1597 0.0332
-3.0494 2.1378 0.0064
-3.0589 2.1204 -0.0199
-3.0670 2.1064 -0.0459
-3.0663 2.1130 -0.0724
-3.0689 2.1118 -0.0992
-3.0699 2.1146 -0.1269
-3.0750 2.1077 -0.1543
-3.0793 2.1028 -0.1821
-3.0803 2.1060 -0.2115
-3.0769 2.1201 -0.2437
-3.0766 2.1266 -0.2756
-3.0791 2.1268 -0.3071
-3.0709 2.1533 -0.3462
-3.0651 2.1741 -0.3858
-3.0935 2.1239 -0.4733
-3.1042 2.1039 -0.5006
-3.1134 2.0878 -0.5292
-3.1256 2.0636 -0.5536
-3.1426 2.0270 -0.5709
-3.1852 1.9300 -0.5864
-3.2069 1.8797 -0.5891
-3.2257 1.8364 -0.5935
-3.2686 1.7337 -0.5830
-3.2804 1.7079 -0.5926
-3.3020 1.6546 -0.5786
-3.3179 1.6163 -0.5735
-3.3252 1.6018 -0.5874
-3.3445 1.5529 -0.5683
-3.3532 1.5338 -0.5749
-3.3656 1.5035 -0.5688
-3.3811 1.4694 -0.5800
-3.3911 1.4451 -0.5755
-3.3986 1.4278 -0.5778
-3.4063 1.4101 -0.5784
-3.4141 1.3913 -0.5763
-3.4213 1.3742 -0.5752
-3.4280 1.3582 -0.5744
-3.4336 1.3458 -0.5778
-3.4398 1.3310 -0.5766
-3.4464 1.3146 -0.5715
-3.4509 1.3049 -0.5765
-3.4557 1.2941 -0.5788
-3.4606 1.2829 -0.5796
-3.4660 1.2694 -0.5752
-3.4707 1.2580 -0.5736
-3.4748 1.2486 -0.5752
-3.4789 1.2394 -0.5764
-3.4829 1.2298 -0.5758
-3.4865 1.2220 -0.5788
-3.4899 1.2144 -0.5814
-2.9624 2.3516 0.3504
-2.9425 2.4038 0.3395
-2.9376 2.4210 0.3175
-2.9472 2.4039 0.2866
-2.9508 2.4012 0.2590
-2.9643 2.3747 0.2264
-2.9558 2.4013 0.2034
-2.9852 2.3364 0.1651
-2.9998 2.3071 0.1336
-3.0408 2.2130 0.0958
-3.0399 2.2211 0.0704
-3.0533 2.1941 0.0419
-3.0732 2.1507 0.0134
-3.0786 2.1431 -0.0130
-3.0854 2.1322 -0.0395
-3.0977 2.1073 -0.0656
-3.1015 2.1040 -0.0922
-3.0973 2.1207 -0.1206
-3.1042 2.1096 -0.1476
-3.1127 2.0943 -0.1741
-3.1057 2.1192 -0.2064
-3.1046 2.1291 -0.2380
-3.1014 2.1447 -0.2718
-3.1103 2.1288 -0.2999
-3.1061 2.1475 -0.3367
-3.1031 2.1635 -0.3746
-3.1138 2.1433 -0.4025
-3.1155 2.1471 -0.4384
-3.1233 2.1345 -0.4690
-3.1297 2.1256 -0.5012
-3.1432 2.0973 -0.5250
-3.1484 2.0921 -0.5588
-3.1641 2.0570 -0.5779
-3.1921 1.9867 -0.5764
-3.2092 1.9468 -0.5883
-3.2321 1.8893 -0.5875
-3.2520 1.8398 -0.5884
-3.2685 1.7998 -0.5930
-3.2856 1.7571 -0.5933
-3.3077 1.6986 -0.5789
-3.3231 1.6593 -0.5761
-3.3334 1.6355 -0.5838
-3.3459 1.6040 -0.5833
-3.3591 1.5700 -0.5785
-3.3709 1.5397 -0.5751
-3.3890 1.4955 -0.5792
-3.4065 1.4513 -0.5777
-3.4220 1.4125 -0.5765
-3.4289 1.3951 -0.5765
-3.4367 1.3745 -0.5708
-3.4425 1.3605 -0.5730
-3.4479 1.3474 -0.5755
-3.4532 1.3346 -0.5776
-3.4587 1.3207 -0.5769
-3.4647 1.3045 -0.5712
-3.4689 1.2949 -0.5758
-3.4732 1.2849 -0.5789
-3.4784 1.2708 -0.5735
-3.4824 1.2612 -0.5756
-3.4867 1.2500 -0.5737
-3.4902 1.2425 -0.5786
-3.4940 1.2328 -0.5783
-3.5013 1.2146 -0.5775
-3.0160 2.2953 0.3406
-2.9907 2.3707 0.3117
-2.9942 2.3686 0.2853
-2.9996 2.3614 0.2574
-3.0070 2.3495 0.2284
-3.0218 2.3188 0.1961
-3.0323 2.2989 0.1662
-3.0395 2.2872 0.1378
-3.0732 2.2069 0.1016
-3.0801 2.1958 0.0747
-3.0797 2.2038 0.0492
-3.0908 2.1814 0.0213
-3.1044 2.1527 -0.0063
-3.1100 2.1450 -0.0329
-3.1144 2.1404 -0.0598
-3.1236 2.1229 -0.0864
-3.1293 2.1151 -0.1134
-3.1231 2.1398 -0.1436
-3.1286 2.1326 -0.1717
-3.1279 2.1428 -0.2026
-3.1283 2.1505 -0.2343
-3.1288 2.1578 -0.2668
-3.1307 2.1617 -0.2997
-3.1369 2.1535 -0.3304
-3.1431 2.1451 -0.3613
-3.1451 2.1493 -0.3963
-3.1460 2.1569 -0.4334
-3.1510 2.1527 -0.4674
-3.1561 2.1484 -0.5019
-3.1626 2.1401 -0.5352
-3.1652 2.1436 -0.5743
-3.1926 2.0708 -0.5764
-3.2109 2.0253 -0.5889
-3.2369 1.9549 -0.5851
-3.2559 1.9051 -0.5895
-3.2795 1.8398 -0.5812
-3.2960 1.7963 -0.5835
-3.3093 1.7629 -0.5906
-3.3278 1.7109 -0.5818
-3.3411 1.6756 -0.5828
-3.3552 1.6369 -0.5788
-3.3645 1.6141 -0.5863
-3.3898 1.5425 -0.5722
-3.3977 1.5228 -0.5776
-3.4069 1.4981 -0.5766
-3.4229 1.4554 -0.5772
-3.4297 1.4379 -0.5799
-3.4369 1.4186 -0.5792
-3.4443 1.3975 -0.5748
-3.4502 1.3824 -0.5769
-3.4557 1.3683 -0.5794
-3.4614 1.3531 -0.5793
-3.4669 1.3382 -0.5784
-3.4722 1.3235 -0.5769
-3.4773 1.3092 -0.5746
-3.4815 1.2990 -0.5783
-3.4861 1.2864 -0.5771
-3.4903 1.2753 -0.5775
-3.4948 1.2620 -0.5728
-3.4982 1.2543 -0.5782
-3.5020 1.2438 -0.5771
-3.5055 1.2347 -0.5781
-3.5089 1.2263 -0.5800
-3.0490 2.2794 0.3649
-3.0556 2.2687 0.3388
-3.0330 2.3353 0.3340
-3.0350 2.3374 0.3097
-3.0408 2.3295 0.2826
-3.0412 2.3359 0.2585
-3.0656 2.2779 0.2209
-3.0726 2.2666 0.1934
-3.0941 2.2157 0.1597
-3.0937 2.2244 0.1358
-3.1077 2.1938 0.1065
-3.1051 2.2090 0.0825
-3.1132 2.1944 0.0551
-3.1146 2.1989 0.0288
-3.1328 2.1643 -0.0262
-3.1371 2.1607 -0.0534
-3.1426 2.1538 -0.0809
-3.1496 2.1425 -0.1084
-3.1538 2.1491 -0.1665
-3.1493 2.1726 -0.1995
-3.1530 2.1719 -0.2303
-3.1539 2.1800 -0.2635
-3.1547 2.1888 -0.2978
-3.1599 2.1842 -0.3301
-3.1714 2.1599 -0.3574
-3.1687 2.1804 -0.3976
-3.1725 2.1811 -0.4331
-3.1697 2.2032 -0.4773
-3.1751 2.1993 -0.5133
-3.1795 2.1988 -0.5515
-3.1866 2.1899 -0.5866
-3.2115 2.1200 -0.5920
-3.2364 2.0488 -0.5930
-3.2624 1.9719 -0.5867
-3.2821 1.9157 -0.5881
-3.3017 1.8588 -0.5859
-3.3212 1.8005 -0.5793
-3.3348 1.7628 -0.5837
-3.3486 1.7232 -0.5844
-3.3743 1.6488 -0.5825
-3.3858 1.6155 -0.5814
-3.3963 1.5852 -0.5809
-3.4045 1.5633 -0.5864
-3.4158 1.5279 -0.5771
-3.4236 1.5062 -0.5796
-3.4315 1.4833 -0.5795
-3.4460 1.4419 -0.5796
-3.4526 1.4225 -0.5790
-3.4595 1.4013 -0.5748
-3.4645 1.3890 -0.5810
-3.4708 1.3693 -0.5760
-3.4761 1.3540 -0.5759
-3.4810 1.3404 -0.5772
-3.4858 1.3264 -0.5769
-3.4903 1.3139 -0.5780
-3.4942 1.3043 -0.5830
-3.4989 1.2891 -0.5775
-3.5031 1.2761 -0.5746
-3.5068 1.2658 -0.5758
-3.5102 1.2575 -0.5802
-3.5172 1.2360 -0.5767
-3.5204 1.2270 -0.5773
-3.5234 1.2199 -0.5815
-3.0781 2.2866 0.3501
-3.0835 2.2794 0.3247
-3.0928 2.2612 0.2963
-3.0996 2.2504 0.2699
-3.1075 2.2359 0.2427
-3.1196 2.2097 0.2133
-3.1209 2.2143 0.1902
-3.1264 2.2070 0.1645
-3.1296 2.2066 0.1397
-3.1325 2.2071 0.1145
-3.1329 2.2154 0.0897
-3.1309 2.2312 0.0646
-3.1354 2.2276 0.0372
-3.1502 2.1928 0.0083
-3.1597 2.1738 -0.0193
-3.1579 2.1897 -0.0469
-3.1640 2.1814 -0.0750
-3.1611 2.2018 -0.1048
-3.1501 2.2490 -0.1384
-3.1453 2.2773 -0.1729
-3.1447 2.2923 -0.2078
-3.1330 2.3447 -0.2500
-3.1370 2.3461 -0.2863
-3.1457 2.3321 -0.3202
-3.1529 2.3231 -0.3552
-3.1672 2.2895 -0.3840
-3.1672 2.3058 -0.4264
-3.1743 2.2975 -0.4626
-3.1846 2.2776 -0.4950
-3.1934 2.2635 -0.5293
-3.1981 2.2643 -0.5698
-3.2148 2.2206 -0.5912
-3.2422 2.1349 -0.5904
-3.2687 2.0509 -0.5856
-3.2918 1.9773 -0.5817
-3.3089 1.9263 -0.5867
-3.3253 1.8762 -0.5894
-3.3410 1.8279 -0.5904
-3.3717 1.7289 -0.5820
-3.3825 1.6975 -0.5871
-3.4145 1.5976 -0.5862
-3.4349 1.5291 -0.5728
-3.4488 1.4882 -0.5795
-3.4557 1.4672 -0.5802
-3.4628 1.4437 -0.5765
-3.4743 1.4095 -0.5804
-3.4799 1.3914 -0.5793
-3.4853 1.3744 -0.5783
-3.4900 1.3604 -0.5805
-3.4952 1.3427 -0.5760
-3.4996 1.3293 -0.5768
-3.5039 1.3161 -0.5770
-3.5118 1.2912 -0.5767
-3.5155 1.2806 -0.5786
-3.5191 1.2690 -0.5776
-3.5224 1.2595 -0.5797
-3.5257 1.2489 -0.5790
-3.5289 1.2385 -0.5777
-3.5319 1.2289 -0.5772
-3.1067 2.2793 0.3766
-3.1171 2.2574 0.3472
-3.1261 2.2394 0.3193
-3.1314 2.2325 0.2946
-3.1320 2.2401 0.2734
-3.1387 2.2293 0.2473
-3.1403 2.2341 0.2245
-3.1493 2.2161 0.1967
-3.1538 2.2123 0.1716
-3.1558 2.2165 0.1474
-3.1590 2.2170 0.1222
-3.1539 2.2446 0.0993
-3.1496 2.2704 0.0747
-3.1630 2.2385 0.0447
-3.1716 2.2224 0.0163
-3.1787 2.2108 -0.0119
-3.1837 2.2069 -0.0400
-3.1812 2.2286 -0.0692
-3.1803 2.2454 -0.0998
-3.1776 2.2690 -0.1323
-3.1737 2.2982 -0.1671
-3.1737 2.3142 -0.2024
-3.1791 2.3111 -0.2363
-3.1863 2.3018 -0.2696
-3.1920 2.2983 -0.3044
-3.1978 2.2947 -0.3397
-3.2062 2.2810 -0.3729
-3.2120 2.2781 -0.4092
-3.2193 2.2691 -0.4442
-3.2279 2.2553 -0.4779
-3.2330 2.2555 -0.5169
-3.2378 2.2574 -0.5574
-3.2525 2.2184 -0.5808
-3.2676 2.1763 -0.6011
-3.2948 2.0799 -0.5919
-3.3155 2.0095 -0.5912
-3.3348 1.9431 -0.5886
-3.3516 1.8858 -0.5878
-3.3658 1.8390 -0.5904
-3.3928 1.7464 -0.5880
-3.4159 1.6664 -0.5843
-3.4351 1.6006 -0.5828
-3.4437 1.5714 -0.5824
-3.4510 1.5482 -0.5859
-3.4594 1.5169 -0.5798
-3.4660 1.4954 -0.5818
-3.4794 1.4477 -0.5761
-3.4852 1.4275 -0.5751
-3.4903 1.4119 -0.5785
-3.4956 1.3931 -0.5766
-3.5006 1.3754 -0.5748
-3.5093 1.3476 -0.5787
-3.5137 1.3302 -0.5735
-3.5174 1.3203 -0.5792
-3.5213 1.3060 -0.5768
-3.5247 1.2964 -0.5815
-3.5284 1.2821 -0.5768
-3.5316 1.2729 -0.5806
-3.5348 1.2608 -0.5781
-3.5378 1.2508 -0.5786
-3.5407 1.2404 -0.5775
-3.5435 1.2308 -0.5771
-3.5462 1.2230 -0.5802
-3.1372 2.2735 0.3806
-3.1584 2.2263 0.3214
-3.1626 2.2232 0.2980
-3.1647 2.2273 0.2762
-3.1680 2.2275 0.2529
-3.1725 2.2240 0.2284
-3.1665 2.2558 0.2106
-3.1769 2.2329 0.1814
-3.1793 2.2370 0.1569
-3.1826 2.2384 0.1315
-3.1645 2.3150 0.1140
-3.1656 2.3255 0.0867
-3.1879 2.2606 0.0531
-3.1974 2.2410 0.0240
-3.2032 2.2502 -0.0329
-3.2049 2.2597 -0.0627
-3.2114 2.2517 -0.0926
-3.2086 2.2796 -0.1253
-3.2221 2.2449 -0.1541
-3.2264 2.2459 -0.1860
-3.2342 2.2333 -0.2166
-3.2400 2.2288 -0.2487
-3.2445 2.2302 -0.2823
-3.2482 2.2353 -0.3175
-3.2522 2.2400 -0.3537
-3.2582 2.2365 -0.3886
-3.2602 2.2512 -0.4296
-3.2676 2.2423 -0.4644
-3.2718 2.2485 -0.5049
-3.2784 2.2439 -0.5424
-3.2930 2.2013 -0.5640
-3.3033 2.1785 -0.5930
-3.3266 2.0893 -0.5880
-3.3476 2.0080 -0.5821
-3.3640 1.9476 -0.5834
-3.3768 1.9041 -0.5914
-3.3933 1.8382 -0.5826
-3.4059 1.7914 -0.5827
-3.4156 1.7597 -0.5908
-3.4268 1.7170 -0.5889
-3.4371 1.6776 -0.5869
-3.4552 1.6083 -0.5837
-3.4634 1.5766 -0.5814
-3.4701 1.5541 -0.5859
-3.4782 1.5189 -0.5762
-3.4838 1.5019 -0.5833
-3.4956 1.4576 -0.5825
-3.5061 1.4180 -0.5812
-3.5156 1.3798 -0.5761
-3.5199 1.3623 -0.5737
-3.5237 1.3519 -0.5804
-3.5314 1.3198 -0.5739
-3.5349 1.3056 -0.5715
-3.5381 1.2986 -0.5807
-3.5443 1.2743 -0.5788
-3.5472 1.2634 -0.5788
-3.5500 1.2516 -0.5759
-3.5527 1.2435 -0.5797
-3.5553 1.2332 -0.5782
-3.5578 1.2243 -0.5788
-3.1662 2.2715 0.3857
-3.1837 2.2235 0.3483
-3.1858 2.2281 0.3276
-3.1891 2.2287 0.3053
-3.1915 2.2327 0.2835
-3.1917 2.2450 0.2631
-3.1965 2.2413 0.2383
-3.2010 2.2387 0.2135
-3.1960 2.2711 0.1946
-3.1897 2.3098 0.1750
-3.1958 2.3026 0.1469
-3.1939 2.3261 0.1223
-3.1968 2.3321 0.0945
-3.2056 2.3153 0.0642
-3.2229 2.2641 0.0322
-3.2252 2.2731 0.0039
-3.2316 2.2653 -0.0256
-3.2350 2.2704 -0.0554
-3.2373 2.2805 -0.0863
-3.2397 2.2913 -0.1183
-3.2529 2.2554 -0.1473
-3.2607 2.2429 -0.1778
-3.2664 2.2396 -0.2096
-3.2751 2.2228 -0.2397
-3.2802 2.2233 -0.2729
-3.2829 2.2620 -0.3506
-3.2865 2.2720 -0.3897
-3.2929 2.2689 -0.4262
-3.3005 2.2599 -0.4612
-3.3054 2.2659 -0.5021
-3.3123 2.2621 -0.5403
-3.3175 2.2683 -0.5835
-3.3333 2.2137 -0.6000
-3.3572 2.1076 -0.5884
-3.3777 2.0171 -0.5787
-3.4042 1.9147 -0.5900
-3.4289 1.8134 -0.5905
-3.4417 1.7538 -0.5797
-3.4512 1.7152 -0.5809
-3.4609 1.6725 -0.5765
-3.4671 1.6558 -0.5908
-3.4759 1.6144 -0.5830
-3.4830 1.5866 -0.5847
-3.4902 1.5538 -0.5799
-3.4971 1.5201 -0.5719
-3.5021 1.5061 -0.5822
-3.5080 1.4773 -0.5756
-3.5128 1.4617 -0.5819
-3.5177 1.4405 -0.5806
-3.5222 1.4247 -0.5846
-3.5269 1.3993 -0.5750
-3.5309 1.3829 -0.5754
-3.5348 1.3660 -0.5742
-3.5385 1.3495 -0.5721
-3.5419 1.3400 -0.5794
-3.5453 1.3266 -0.5802
-3.5484 1.3109 -0.5760
-3.5515 1.3013 -0.5809
-3.5544 1.2875 -0.5776
-3.5572 1.2763 -0.5782
-3.5598 1.2642 -0.5759
-3.5623 1.2542 -0.5767
-3.5647 1.2437 -0.5757
-3.5672 1.2357 -0.5793
-3.5694 1.2256 -0.5775
-3.2007 2.2627 0.3663
-3.2093 2.2447 0.3383
-3.2129 2.2452 0.3158
-3.2185 2.2382 0.2909
-3.2143 2.2697 0.2752
-3.2212 2.2587 0.2484
-3.2209 2.2761 0.2273
-3.2218 2.2895 0.2045
-3.2142 2.3385 0.1865
-3.2092 2.3784 0.1647
-3.2145 2.3762 0.1356
-3.2202 2.3727 0.1059
-3.2258 2.3701 0.0759
-3.2402 2.3284 0.0431
-3.2541 2.2883 0.0116
-3.2567 2.2990 -0.0178
-3.2653 2.2822 -0.0481
-3.2654 2.3062 -0.0795
-3.2713 2.3030 -0.1111
-3.2782 2.2953 -0.1429
-3.2918 2.2543 -0.1713
-3.2979 2.2509 -0.2033
-3.3023 2.2565 -0.2371
-3.3034 2.2809 -0.2755
-3.3073 2.2916 -0.3129
-3.3112 2.3037 -0.3521
-3.3162 2.3104 -0.3912
-3.3232 2.3070 -0.4285
-3.3336 2.2823 -0.4595
-3.3407 2.2787 -0.4974
-3.3495 2.2645 -0.5318
-3.3538 2.2809 -0.5791
-3.3678 2.2307 -0.5982
-3.3859 2.1478 -0.5991
-3.4035 2.0620 -0.5938
-3.4187 1.9895 -0.5908
-3.4315 1.9314 -0.5921
-3.4550 1.8177 -0.5861
-3.4649 1.7714 -0.5853
-3.4741 1.7276 -0.5835
-3.4904 1.6475 -0.5777
-3.4970 1.6198 -0.5816
-3.5039 1.5839 -0.5764
-3.5154 1.5329 -0.5791
-3.5255 1.4890 -0.5829
-3.5347 1.4430 -0.5785
-3.5388 1.4236 -0.5781
-3.5427 1.4032 -0.5751
-3.5464 1.3887 -0.5785
-3.5499 1.3704 -0.5756
-3.5564 1.3409 -0.5761
-3.5595 1.3295 -0.5801
-3.5622 1.3131 -0.5750
-3.5651 1.3034 -0.5800
-3.5676 1.2895 -0.5769
-3.5701 1.2778 -0.5764
-3.5724 1.2662 -0.5754
-3.5769 1.2456 -0.5754
-3.5791 1.2370 -0.5778
-3.5810 1.2269 -0.5761
-2.7813 4.0058 1.0351
-3.2160 2.3157 0.3891
-3.2276 2.2849 0.3563
-3.2353 2.2703 0.3288
-3.2336 2.2948 0.3119
-3.2433 2.2716 0.2818
-3.2474 2.2725 0.2577
-3.2430 2.3112 0.2411
-3.2463 2.3173 0.2163
-3.2353 2.3884 0.2019
-3.2463 2.3609 0.1693
-3.2527 2.3543 0.1401
-3.2545 2.3703 0.1130
-3.2603 2.3678 0.0832
-3.2661 2.3650 0.0528
-3.2808 2.3180 0.0202
-3.2859 2.3197 -0.0100
-3.2882 2.3363 -0.0408
-3.2954 2.3277 -0.0723
-3.2885 2.3976 -0.1081
-3.3018 2.3564 -0.1395
-3.3202 2.2846 -0.1665
-3.3251 2.2902 -0.2003
-3.3269 2.3159 -0.2381
-3.3337 2.3125 -0.2727
-3.3406 2.3089 -0.3079
-3.3468 2.3110 -0.3449
-3.3531 2.3128 -0.3828
-3.3604 2.3094 -0.4200
-3.3657 2.3211 -0.4627
-3.3767 2.2905 -0.4922
-3.3849 2.2819 -0.5290
-3.3919 2.2833 -0.5704
-3.4049 2.2331 -0.5897
-3.4232 2.1283 -0.5807
-3.4356 2.0713 -0.5900
-3.4493 1.9950 -0.5857
-3.4604 1.9394 -0.5890
-3.4706 1.8883 -0.5918
-3.4985 1.7258 -0.5755
-3.5050 1.7018 -0.5864
-3.5120 1.6619 -0.5832
-3.5241 1.5963 -0.5816
-3.5294 1.5727 -0.5863
-3.5347 1.5349 -0.5755
-3.5438 1.4939 -0.5828
-3.5480 1.4736 -0.5848
-3.5519 1.4536 -0.5858
-3.5591 1.4134 -0.5833
-3.5654 1.3762 -0.5788
-3.5684 1.3615 -0.5802
-3.5711 1.3451 -0.5779
-3.5736 1.3297 -0.5758
-3.5761 1.3153 -0.5740
-3.5789 1.3062 -0.5802
-3.5812 1.2935 -0.5794
-3.5833 1.2811 -0.5780
-3.5857 1.2719 -0.5819
-3.5873 1.2587 -0.5770
-3.5894 1.2493 -0.5788
-3.5912 1.2389 -0.5776
-3.5932 1.2305 -0.5798
-3.2573 2.3448 0.3065
-3.2588 2.3607 0.2846
-3.2662 2.3488 0.2557
-3.2681 2.3641 0.2321
-3.2681 2.3905 0.2094
-3.2721 2.3977 0.1821
-3.2760 2.4057 0.1541
-3.2877 2.3724 0.1206
-3.2911 2.3845 0.0922
-3.2955 2.3918 0.0623
-3.3044 2.3743 0.0303
-3.3125 2.3612 -0.0014
-3.3173 2.3678 -0.0330
-3.3221 2.3760 -0.0655
-3.3196 2.4329 -0.1013
-3.3332 2.3861 -0.1333
-3.3465 2.3400 -0.1638
-3.3541 2.3317 -0.1971
-3.3588 2.3448 -0.2338
-3.3661 2.3411 -0.2691
-3.3740 2.3322 -0.3038
-3.3821 2.3232 -0.3388
-3.3895 2.3200 -0.3756
-3.3941 2.3438 -0.4206
-3.3990 2.3687 -0.4682
-3.4071 2.3651 -0.5084
-3.4131 2.3858 -0.5583
-3.4282 2.3071 -0.5703
-3.4403 2.2556 -0.5901
-3.4565 2.1432 -0.5788
-3.4683 2.0779 -0.5847
-3.4788 2.0209 -0.5915
-3.4891 1.9597 -0.5927
-3.4983 1.9040 -0.5938
-3.5070 1.8476 -0.5911
-3.5221 1.7466 -0.5839
-3.5286 1.7066 -0.5835
-3.5345 1.6715 -0.5845
-3.5400 1.6394 -0.5860
-3.5451 1.6104 -0.5881
-3.5498 1.5740 -0.5816
-3.5585 1.5265 -0.5866
-3.5623 1.4981 -0.5818
-3.5659 1.4755 -0.5815
-3.5691 1.4511 -0.5775
-3.5725 1.4337 -0.5803
-3.5753 1.4123 -0.5768
-3.5808 1.3779 -0.5763
-3.5834 1.3625 -0.5768
-3.5858 1.3474 -0.5766
-3.5904 1.3201 -0.5772
-3.5926 1.3077 -0.5782
-3.5943 1.2937 -0.5753
-3.5967 1.2844 -0.5796
-3.5982 1.2715 -0.5766
-3.6000 1.2607 -0.5766
-3.6021 1.2524 -0.5808
-3.6034 1.2408 -0.5774
-3.6055 1.2335 -0.5821
-3.2786 2.4252 0.3067
-3.2854 2.4175 0.2775
-3.2931 2.4051 0.2472
-3.2930 2.4382 0.2251
-3.2992 2.4358 0.1955
-3.3037 2.4446 0.1670
-3.3153 2.4098 0.1324
-3.3200 2.4183 0.1030
-3.3217 2.4476 0.0742
-3.3293 2.4396 0.0415
-3.3415 2.3996 0.0076
-3.3470 2.4069 -0.0247
-3.3502 2.4321 -0.0583
-3.3536 2.4587 -0.0937
-3.3611 2.4560 -0.1293
-3.3761 2.3903 -0.1599
-3.3853 2.3712 -0.1932
-3.3939 2.3573 -0.2270
-3.4031 2.3384 -0.2599
-3.4075 2.3667 -0.3016
-3.4168 2.3474 -0.3352
-3.4232 2.3607 -0.3766
-3.4275 2.4036 -0.4277
-3.4331 2.4385 -0.4798
-3.4433 2.4162 -0.5156
-3.4530 2.4006 -0.5535
-3.4657 2.3320 -0.5703
-3.5017 2.0719 -0.5731
-3.5105 2.0265 -0.5861
-3.5191 1.9713 -0.5913
-3.5273 1.8998 -0.5835
-3.5344 1.8520 -0.5865
-3.5410 1.8050 -0.5873
-3.5470 1.7708 -0.5943
-3.5525 1.7197 -0.5868
-3.5702 1.5753 -0.5770
-3.5745 1.5583 -0.5868
-3.5776 1.5246 -0.5791
-3.5840 1.4788 -0.5799
-3.5896 1.4377 -0.5799
-3.5971 1.3851 -0.5813
-3.5994 1.3703 -0.5831
-3.6011 1.3524 -0.5792
-3.6030 1.3375 -0.5785
-3.6048 1.3235 -0.5782
-3.6068 1.3112 -0.5794
-3.6118 1.2760 -0.5806
-3.6135 1.2657 -0.5820
-3.6149 1.2550 -0.5816
-3.6166 1.2462 -0.5845
-3.3169 2.5518 0.2221
-3.3220 2.5631 0.1917
-3.3390 2.4884 0.1497
-3.3444 2.4985 0.1189
-3.3559 2.4611 0.0832
-3.3651 2.4419 0.0497
-3.3681 2.4744 0.0183
-3.3762 2.4658 -0.0158
-3.3855 2.4463 -0.0500
-3.4096 2.4261 -0.1543
-3.4199 2.3953 -0.1872
-3.4291 2.3761 -0.2208
-3.4369 2.3732 -0.2567
-3.4520 2.3837 -0.3339
-3.4737 2.4537 -0.4741
-3.4832 2.4446 -0.5147
-3.4926 2.4419 -0.5580
-3.5038 2.3811 -0.5795
-3.5140 2.3370 -0.6052
-3.5257 2.1613 -0.5692
-3.5344 2.1056 -0.5810
-3.5423 2.0695 -0.6002
-3.5564 1.9338 -0.5960
-3.5674 1.8118 -0.5847
-3.5772 1.7345 -0.5911
-3.5848 1.6512 -0.5832
-3.5883 1.6187 -0.5832
-3.5926 1.6003 -0.5938
-3.5955 1.5689 -0.5912
-3.5977 1.5358 -0.5847
-3.6025 1.4845 -0.5807
-3.6036 1.4533 -0.5696
-3.6067 1.4395 -0.5769
-3.6089 1.4216 -0.5783
-3.6108 1.4026 -0.5771
-3.6137 1.3658 -0.5718
-3.6167 1.3574 -0.5818
-3.6181 1.3417 -0.5803
-3.6195 1.3270 -0.5792
-3.6207 1.3127 -0.5773
-3.6223 1.3011 -0.5791
-3.6235 1.2885 -0.5781
-3.6251 1.2780 -0.5800
-3.6254 1.2641 -0.5744
-3.6276 1.2569 -0.5812
-3.6286 1.2464 -0.5805
-3.1934 3.2555 0.6919
-3.2122 3.1896 0.6317
-3.2285 3.1380 0.5772
-3.2367 3.1416 0.5388
-3.2418 3.1690 0.5054
-3.2534 3.1502 0.4596
-3.2637 3.1420 0.4162
-3.2710 3.1583 0.3769
-3.2963 3.0286 0.3114
-3.3884 2.5719 0.0661
-3.3982 2.5505 0.0299
-3.3804 3.0913 -0.0936
-3.4158 2.7553 -0.1271
-3.4418 2.5082 -0.1518
-3.4530 2.4620 -0.1852
-3.4970 2.4425 -0.3772
-3.5056 2.4653 -0.4244
-3.5147 2.4824 -0.4722
-3.5245 2.4806 -0.5159
-3.5446 2.4155 -0.5823
-3.5542 2.3747 -0.6106
-3.5619 2.2284 -0.5901
-3.5691 2.1502 -0.5936
-3.5755 2.0716 -0.5926
-3.5817 2.0184 -0.6010
-3.5874 1.9662 -0.6071
-3.5907 1.8813 -0.5900
-3.5943 1.8203 -0.5831
-3.6012 1.7286 -0.5800
-3.6082 1.6639 -0.5874
-3.6100 1.6217 -0.5796
-3.6140 1.6032 -0.5904
-3.6181 1.5432 -0.5863
-3.6221 1.4946 -0.5863
-3.6226 1.4647 -0.5774
-3.6254 1.4500 -0.5842
-3.6267 1.4291 -0.5825
-3.6271 1.4050 -0.5752
-3.6290 1.3899 -0.5779
-3.6293 1.3688 -0.5713
-3.6335 1.3460 -0.5821
-3.6342 1.3299 -0.5790
-3.6357 1.3181 -0.5816
-3.6362 1.3032 -0.5782
-3.6375 1.2918 -0.5796
-3.6384 1.2801 -0.5793
-3.6392 1.2685 -0.5785
-3.6405 1.2589 -0.5807
-3.6410 1.2478 -0.5789
-3.2578 3.2162 0.6500
-3.2708 3.1865 0.6014
-3.2872 3.2071 0.5255
-3.3145 3.1345 0.4252
-3.3215 3.1616 0.3885
-3.3300 3.1773 0.3479
-3.3365 3.2189 0.3099
-3.3489 3.1989 0.2611
-3.3593 3.2037 0.2151
-3.3636 3.2890 0.1755
-3.3778 3.2544 0.1228
-3.3900 3.2464 0.0720
-3.3998 3.2797 0.0216
-3.4117 3.2861 -0.0313
-3.4268 3.2361 -0.0844
-3.5183 2.4758 -0.2935
-3.5469 2.4885 -0.4202
-3.5570 2.4928 -0.4648
-3.5676 2.5111 -0.5149
-3.5867 2.4312 -0.5777
-3.5945 2.3597 -0.5940
-3.5992 2.2363 -0.5840
-3.6040 2.1479 -0.5835
-3.6136 2.0205 -0.5937
-3.6191 1.9813 -0.6076
-3.6209 1.9056 -0.5972
-3.6242 1.8570 -0.5997
-3.6275 1.7476 -0.5871
-3.6321 1.6735 -0.5887
-3.6334 1.6351 -0.5849
-3.6355 1.6061 -0.5869
-3.6363 1.5715 -0.5818
-3.6391 1.5187 -0.5813
-3.6412 1.4988 -0.5853
-3.6427 1.4776 -0.5867
-3.6438 1.4562 -0.5863
-3.6433 1.4294 -0.5778
-3.6439 1.4089 -0.5752
-3.6449 1.3916 -0.5752
-3.6466 1.3780 -0.5793
-3.6468 1.3599 -0.5759
-3.6480 1.3462 -0.5777
-3.6489 1.3321 -0.5778
-3.6493 1.3177 -0.5763
-3.6507 1.3066 -0.5794
-3.6514 1.2946 -0.5798
-3.6516 1.2815 -0.5775
-3.6531 1.2723 -0.5814
-3.6534 1.2609 -0.5802
-3.6542 1.2509 -0.5810
-3.6548 1.2411 -0.5812
-3.2966 3.3173 0.6919
-3.3265 3.1220 0.5926
-3.3345 3.1369 0.5579
-3.3449 3.1294 0.5161
-3.3492 3.1912 0.4906
-3.3673 3.2248 0.4120
-3.3795 3.2051 0.3640
-3.3875 3.2477 0.3261
-3.3905 3.3775 0.2977
-3.4039 3.3559 0.2450
-3.4417 3.3483 0.0901
-3.4555 3.3261 0.0361
-3.4674 3.3634 -0.0174
-3.4815 3.3407 -0.0728
-3.5303 2.4982 -0.1703
-3.5395 2.5162 -0.2106
-3.5492 2.5273 -0.2518
-3.5589 2.5117 -0.2899
-3.5690 2.5160 -0.3318
-3.5790 2.5071 -0.3719
-3.6319 2.4874 -0.5878
-3.6374 2.3984 -0.5992
-3.6450 2.1117 -0.5953
-3.6499 2.0668 -0.6100
-3.6502 1.9100 -0.5922
-3.6524 1.8613 -0.5950
-3.6512 1.7933 -0.5819
-3.6510 1.7392 -0.5743
-3.6547 1.7167 -0.5870
-3.6582 1.5806 -0.5844
-3.6591 1.5535 -0.5848
-3.6583 1.5207 -0.5777
-3.6601 1.5014 -0.5826
-3.6604 1.4773 -0.5809
-3.6602 1.4529 -0.5771
-3.6609 1.4334 -0.5775
-3.6627 1.4191 -0.5832
-3.6627 1.3996 -0.5809
-3.6629 1.3643 -0.5774
-3.6656 1.3559 -0.5874
-3.6655 1.3396 -0.5848
-3.6639 1.3205 -0.5762
-3.6641 1.3069 -0.5752
-3.6656 1.2973 -0.5801
-3.6652 1.2836 -0.5768
-3.6654 1.2719 -0.5762
-3.6652 1.2599 -0.5738
-3.6670 1.2528 -0.5805
-3.3600 3.3010 0.6562
-3.3721 3.2815 0.6087
-3.3938 3.2808 0.5231
-3.4031 3.3121 0.4864
