ply
format ascii 1.0
element vertex 2102
property float x
property float y
property float z
end_header
-4.2325 1.9350 -0.5952
-4.1971 1.9218 -0.5889
-4.1793 1.9162 -0.5983
-4.1467 1.9039 -0.5906
-4.1256 1.8965 -0.5935
-4.1048 1.8893 -0.5954
-4.0866 1.8830 -0.5990
-4.0687 1.8768 -0.6019
-4.0479 1.8692 -0.5994
-4.0269 1.8613 -0.5950
-4.0134 1.8569 -0.6002
-4.0002 1.8525 -0.6048
-3.9667 1.8400 -0.5991
-3.9526 1.8349 -0.5987
-3.9405 1.8308 -0.6009
-3.9276 1.8261 -0.6004
-3.9165 1.8223 -0.6027
-3.9036 1.8174 -0.5999
-3.8899 1.8121 -0.5940
-3.8807 1.8090 -0.5972
-3.8697 1.8049 -0.5950
-3.8614 1.8022 -0.5986
-3.8546 1.8003 -0.6057
-3.8456 1.7971 -0.6061
-5.8477 2.3848 0.3818
-5.8969 2.4034 0.3494
-5.8272 2.3838 0.2957
-5.9081 2.4753 -0.6475
-5.5084 2.3385 -0.5949
-5.3886 2.2997 -0.6112
-5.2807 2.2648 -0.6260
-5.0252 2.1794 -0.6223
-4.8988 2.1365 -0.6106
-4.7316 2.0806 -0.6093
-4.6701 2.0605 -0.6138
-4.6038 2.0383 -0.6121
-4.4858 1.9985 -0.6063
-4.4329 1.9806 -0.6022
-4.3886 1.9658 -0.6013
-4.3388 1.9487 -0.5932
-4.3061 1.9380 -0.5960
-4.2773 1.9286 -0.6002
-4.2374 1.9148 -0.5925
-4.1792 1.8953 -0.5902
-4.1609 1.8897 -0.5978
-4.1387 1.8824 -0.5998
-4.1162 1.8750 -0.6001
-4.0970 1.8687 -0.6028
-4.0578 1.8557 -0.6030
-4.0371 1.8486 -0.5994
-4.0209 1.8432 -0.6006
-4.0024 1.8368 -0.5972
-3.9850 1.8308 -0.5938
-3.9735 1.8273 -0.5990
-3.9604 1.8231 -0.6006
-3.9470 1.8186 -0.6006
-3.9356 1.8150 -0.6033
-3.9200 1.8093 -0.5964
-3.9075 1.8050 -0.5945
-3.8974 1.8018 -0.5967
-3.8876 1.7987 -0.5986
-3.8789 1.7961 -0.6025
-3.8690 1.7927 -0.6024
-3.8592 1.7894 -0.6018
-5.8766 2.3453 0.3715
-5.8263 2.3795 -0.5087
-5.7618 2.3654 -0.6115
-5.5601 2.3032 -0.6121
-5.4089 2.2569 -0.6188
-5.1592 2.1804 -0.6292
-5.0085 2.1330 -0.6139
-4.9116 2.1031 -0.6143
-4.7322 2.0473 -0.6064
-4.5942 2.0045 -0.6022
-4.5367 1.9867 -0.6012
-4.4683 1.9649 -0.5897
-4.4304 1.9535 -0.5951
-4.4050 1.9464 -0.6078
-4.3147 1.9179 -0.5968
-4.2799 1.9071 -0.5958
-4.2387 1.8939 -0.5868
-4.2172 1.8876 -0.5937
-4.1922 1.8801 -0.5959
-4.1663 1.8720 -0.5955
-4.1445 1.8655 -0.5980
-4.1233 1.8590 -0.5996
-4.1003 1.8518 -0.5977
-4.0821 1.8463 -0.6002
-4.0655 1.8414 -0.6037
-4.0453 1.8350 -0.6009
-4.0255 1.8287 -0.5971
-4.0088 1.8235 -0.5964
-3.9956 1.8196 -0.6000
-3.9796 1.8146 -0.5979
-3.9658 1.8103 -0.5983
-3.9516 1.8059 -0.5969
-3.9426 1.8035 -0.6039
-3.9260 1.7979 -0.5957
-3.9168 1.7953 -0.6007
-3.9077 1.7928 -0.6054
-3.8938 1.7881 -0.5988
-3.8852 1.7857 -0.6026
-3.8745 1.7823 -0.6011
-3.8662 1.7799 -0.6042
-5.7417 2.2588 0.3694
-5.7218 2.2549 0.3282
-5.4190 2.2115 -0.6229
-5.1634 2.1390 -0.6301
-4.8889 2.0595 -0.6020
-4.7515 2.0209 -0.6133
-4.6904 2.0037 -0.6177
-4.6242 1.9847 -0.6158
-4.5425 1.9608 -0.6005
-4.4934 1.9468 -0.6015
-4.4034 1.9212 -0.6011
-4.3649 1.9102 -0.6018
-4.3181 1.8965 -0.5934
-4.2853 1.8872 -0.5940
-4.2622 1.8810 -0.6013
-4.2259 1.8703 -0.5949
-4.1936 1.8609 -0.5899
-4.1698 1.8542 -0.5914
-4.1524 1.8496 -0.5986
-4.1302 1.8433 -0.5991
-4.1033 1.8353 -0.5926
-4.0878 1.8311 -0.5983
-4.0676 1.8253 -0.5970
-4.0506 1.8206 -0.5985
-4.0374 1.8171 -0.6043
-3.9998 1.8060 -0.5959
-3.9869 1.8024 -0.5988
-3.9729 1.7984 -0.5991
-3.9598 1.7947 -0.5998
-3.9482 1.7915 -0.6023
-3.9338 1.7873 -0.5985
-3.9233 1.7844 -0.6011
-3.9124 1.7813 -0.6021
-3.9040 1.7792 -0.6075
-3.8907 1.7751 -0.6014
-3.8816 1.7726 -0.6036
-3.8716 1.7697 -0.6028
-3.8633 1.7675 -0.6056
-5.6366 2.1865 0.4038
-5.6104 2.1810 0.3642
-5.6348 2.1884 0.3345
-5.5905 2.1782 0.2915
-5.5220 2.1872 -0.5016
-5.5587 2.2006 -0.6153
-5.4295 2.1672 -0.6272
-5.1678 2.0988 -0.6310
-4.8054 2.0028 -0.5998
-4.7369 1.9850 -0.6028
-4.6642 1.9659 -0.5999
-4.6262 1.9563 -0.6130
-4.5543 1.9372 -0.6035
-4.5064 1.9247 -0.6054
-4.4647 1.9139 -0.6089
-4.4265 1.9040 -0.6125
-4.3719 1.8894 -0.6015
-4.3295 1.8781 -0.5967
-4.2864 1.8665 -0.5886
-4.2321 1.8525 -0.5938
-4.2002 1.8440 -0.5892
-4.1824 1.8396 -0.5970
-4.1602 1.8338 -0.5991
-4.1369 1.8277 -0.5986
-4.1141 1.8217 -0.5971
-4.0970 1.8173 -0.6009
-4.0779 1.8124 -0.6013
-4.0572 1.8068 -0.5981
-4.0411 1.8027 -0.5997
-4.0126 1.7954 -0.6053
-3.9766 1.7856 -0.5944
-3.9660 1.7830 -0.5994
-3.9555 1.7804 -0.6040
-3.9416 1.7767 -0.6013
-3.9291 1.7734 -0.6002
-3.9211 1.7715 -0.6072
-3.9085 1.7681 -0.6040
-3.8968 1.7649 -0.6015
-3.8853 1.7618 -0.5984
-3.8763 1.7595 -0.6000
-5.6443 2.1484 0.4247
-5.6183 2.1431 0.3857
-5.5751 2.1337 0.3435
-5.5994 2.1402 0.3146
-5.5960 2.1418 0.2088
-5.5774 2.1383 0.1703
-5.5413 2.1305 0.1302
-5.5315 2.1291 0.0927
-5.6235 2.1655 -0.5298
-5.1796 2.0615 -0.6349
-5.0148 2.0215 -0.6124
-4.9312 2.0016 -0.6171
-4.8338 1.9781 -0.6110
-4.6791 1.9409 -0.6047
-4.6248 1.9280 -0.6084
-4.5540 1.9108 -0.5992
-4.5056 1.8993 -0.6003
-4.4582 1.8879 -0.5995
-4.4286 1.8810 -0.6088
-4.3716 1.8670 -0.5957
-4.3030 1.8506 -0.5966
-4.2711 1.8430 -0.5961
-4.2414 1.8358 -0.5957
-4.2090 1.8280 -0.5909
-4.1878 1.8230 -0.5952
-4.1686 1.8185 -0.6004
-4.1450 1.8128 -0.5997
-4.1265 1.8085 -0.6034
-4.1039 1.8030 -0.6008
-4.0869 1.7990 -0.6039
-4.0709 1.7953 -0.6072
-4.0531 1.7910 -0.6070
-4.0307 1.7854 -0.5988
-4.0137 1.7813 -0.5969
-3.9882 1.7753 -0.6028
-3.9734 1.7718 -0.6012
-3.9603 1.7686 -0.6011
-3.9475 1.7655 -0.6005
-3.9398 1.7639 -0.6089
-3.9244 1.7600 -0.6013
-3.9123 1.7571 -0.5991
-3.9005 1.7542 -0.5964
-3.8918 1.7521 -0.5996
-3.8843 1.7505 -0.6051
-5.5687 2.0942 0.3935
-5.5840 2.0979 0.3649
-5.5425 2.0893 0.3241
-5.5223 2.0880 0.0817
-5.2228 2.0314 -0.6054
-5.0098 1.9850 -0.6090
-4.8497 1.9502 -0.6162
-4.7481 1.9279 -0.6029
-4.6930 1.9159 -0.6089
-4.6275 1.9016 -0.6063
-4.5755 1.8903 -0.6083
-4.5107 1.8761 -0.5992
-4.4747 1.8683 -0.6059
-4.3851 1.8487 -0.6005
-4.3443 1.8397 -0.5970
-4.3130 1.8329 -0.5990
-4.2729 1.8241 -0.5914
-4.2530 1.8199 -0.5999
-4.1988 1.8080 -0.5991
-4.1680 1.8012 -0.5924
-4.1467 1.7966 -0.5938
-4.1344 1.7941 -0.6043
-4.1083 1.7883 -0.5979
-4.0904 1.7844 -0.5997
-4.0707 1.7801 -0.5979
-4.0513 1.7758 -0.5953
-4.0410 1.7737 -0.6040
-4.0230 1.7697 -0.6010
-4.0089 1.7667 -0.6026
-3.9910 1.7627 -0.5970
-3.9802 1.7604 -0.6018
-3.9643 1.7569 -0.5970
-3.9545 1.7548 -0.6021
-3.9462 1.7531 -0.6093
-3.9293 1.7493 -0.5991
-3.9177 1.7467 -0.5980
-3.9081 1.7447 -0.6002
-3.8987 1.7426 -0.6021
-3.8906 1.7409 -0.6062
-3.8821 1.7391 -0.6088
-5.5226 2.0494 0.3701
-5.4841 2.0419 0.3314
-5.4610 2.0374 0.2964
-6.9515 2.3334 -0.5426
-6.7596 2.2957 -0.5876
-6.5418 2.2529 -0.6198
-5.3330 2.0145 -0.5979
-5.2758 2.0033 -0.6243
-5.0100 1.9509 -0.6079
-4.8604 1.9214 -0.6190
-4.6754 1.8849 -0.5963
-4.5858 1.8672 -0.6105
-4.5287 1.8560 -0.6064
-4.4717 1.8447 -0.5993
-4.4003 1.8307 -0.6066
-4.3491 1.8205 -0.5953
-4.3078 1.8124 -0.5889
-4.2502 1.8010 -0.5908
-4.2272 1.7965 -0.5949
-4.1939 1.7899 -0.5873
-4.1545 1.7822 -0.5948
-4.1389 1.7791 -0.6016
-4.1220 1.7758 -0.6060
-4.0961 1.7707 -0.5983
-4.0738 1.7663 -0.5934
-4.0580 1.7631 -0.5954
-4.0455 1.7607 -0.6010
-4.0259 1.7568 -0.5957
-4.0145 1.7546 -0.6013
-4.0006 1.7518 -0.6021
-3.9869 1.7491 -0.6024
-3.9707 1.7459 -0.5975
-3.9622 1.7443 -0.6048
-3.9474 1.7413 -0.5999
-3.9354 1.7390 -0.5992
-3.9249 1.7369 -0.6005
-3.9133 1.7346 -0.5989
-3.9051 1.7330 -0.6032
-3.8957 1.7312 -0.6047
-3.8883 1.7297 -0.6099
-5.4314 1.9991 0.3380
-5.4020 1.9937 0.3031
-5.2934 1.9677 -0.6306
-5.0211 1.9197 -0.6112
-4.8719 1.8932 -0.6222
-4.7666 1.8747 -0.6068
-4.6884 1.8609 -0.6002
-4.5649 1.8391 -0.5941
-4.5246 1.8319 -0.5997
-4.4776 1.8236 -0.5987
-4.4351 1.8161 -0.5984
-4.3935 1.8088 -0.5964
-4.3564 1.8022 -0.5956
-4.3253 1.7967 -0.5976
-4.2869 1.7899 -0.5916
-4.2563 1.7845 -0.5902
-4.2298 1.7798 -0.5907
-4.2062 1.7757 -0.5928
-4.1840 1.7717 -0.5947
-4.1671 1.7687 -0.6011
-4.1489 1.7654 -0.6052
-4.1190 1.7602 -0.5945
-4.1063 1.7579 -0.6026
-4.0822 1.7537 -0.5956
-4.0654 1.7507 -0.5966
-4.0490 1.7478 -0.5969
-4.0329 1.7450 -0.5966
-4.0214 1.7429 -0.6021
-4.0059 1.7402 -0.6006
-3.9921 1.7377 -0.6007
-3.9757 1.7349 -0.5956
-3.9645 1.7329 -0.5981
-3.9522 1.7307 -0.5978
-3.9440 1.7292 -0.6043
-3.9289 1.7266 -0.5968
-3.9223 1.7253 -0.6052
-3.9089 1.7230 -0.5992
-3.8921 1.7200 -0.6055
-5.1907 1.8901 0.0830
-5.1828 1.8880 0.0534
-5.1786 1.8863 0.0238
-5.1640 1.8836 -0.0064
-5.1495 1.8809 -0.0367
-5.1449 1.8791 -0.0671
-5.1364 1.8769 -0.0978
-5.1425 1.8758 -0.1295
-5.1493 1.8748 -0.1622
-5.1796 1.8755 -0.1982
-5.1983 1.8752 -0.2348
-5.1953 1.8733 -0.2698
-5.1908 1.8712 -0.3052
-5.1746 1.8682 -0.3389
-5.1766 1.8665 -0.3765
-5.1065 1.8522 -0.5510
-5.0836 1.8488 -0.5830
-5.0231 1.8430 -0.5996
-4.8692 1.8299 -0.6098
-4.6961 1.8165 -0.5951
-4.5896 1.8075 -0.6006
-4.5161 1.8022 -0.5869
-4.4851 1.7992 -0.5966
-4.4509 1.7961 -0.6027
-4.4006 1.7923 -0.5954
-4.3302 1.7865 -0.5961
-4.2172 1.7771 -0.5994
-4.1669 1.7731 -0.5974
-4.1266 1.7696 -0.6005
-4.1074 1.7680 -0.6013
-4.0855 1.7664 -0.5975
-4.0640 1.7649 -0.5928
-4.0520 1.7636 -0.5994
-4.0343 1.7622 -0.5972
-4.0162 1.7609 -0.5932
-3.9890 1.7586 -0.5951
-3.9768 1.7575 -0.5971
-3.9655 1.7565 -0.5997
-3.9511 1.7555 -0.5959
-3.9396 1.7545 -0.5964
-3.9277 1.7536 -0.5952
-3.9179 1.7527 -0.5973
-3.9070 1.7519 -0.5964
-3.8995 1.7510 -0.6017
-3.8890 1.7502 -0.6001
-5.2001 1.8631 0.1218
-5.1908 1.8608 0.0922
-5.1712 1.8578 0.0617
-5.1618 1.8554 0.0319
-5.1574 1.8534 0.0020
-5.1541 1.8514 -0.0282
-5.1414 1.8452 -0.1216
-5.2603 1.8246 -0.5987
-5.1178 1.8162 -0.5911
-5.0103 1.8096 -0.5905
-4.8698 1.8000 -0.6072
-4.7910 1.7952 -0.6063
-4.7226 1.7909 -0.6068
-4.6644 1.7872 -0.6095
-4.5850 1.7830 -0.5968
-4.5407 1.7800 -0.6013
-4.4831 1.7768 -0.5948
-4.4426 1.7742 -0.5968
-4.4000 1.7717 -0.5951
-4.3335 1.7673 -0.5994
-4.2713 1.7635 -0.6000
-4.2124 1.7600 -0.5964
-4.1859 1.7585 -0.5948
-4.1599 1.7571 -0.5922
-4.1232 1.7544 -0.5991
-4.1002 1.7532 -0.5954
-4.0640 1.7509 -0.5960
-4.0498 1.7498 -0.5997
-4.0300 1.7489 -0.5946
-4.0178 1.7479 -0.5993
-4.0016 1.7470 -0.5970
-3.9899 1.7461 -0.6007
-3.9735 1.7453 -0.5960
-3.9473 1.7438 -0.5940
-3.9378 1.7430 -0.5982
-3.9150 1.7417 -0.5968
-3.9036 1.7411 -0.5948
-3.8960 1.7403 -0.6002
-3.8880 1.7396 -0.6040
-5.1915 1.8457 0.3174
-5.4399 1.7928 -0.6045
-5.2825 1.7866 -0.6006
-5.0089 1.7764 -0.5859
-4.9277 1.7726 -0.5917
-4.8581 1.7693 -0.5988
-4.7908 1.7662 -0.6037
-4.6727 1.7607 -0.6124
-4.4941 1.7541 -0.6014
-4.4425 1.7523 -0.5966
-4.3993 1.7507 -0.5947
-4.3596 1.7492 -0.5931
-4.3234 1.7478 -0.5920
-4.2678 1.7451 -0.5981
-4.2352 1.7440 -0.5944
-4.2084 1.7429 -0.5942
-4.1853 1.7418 -0.5962
-4.1660 1.7407 -0.6007
-4.1366 1.7400 -0.5931
-4.1228 1.7389 -0.6013
-4.1054 1.7379 -0.6045
-4.0624 1.7367 -0.5971
-4.0482 1.7358 -0.6010
-4.0314 1.7352 -0.6003
-4.0128 1.7347 -0.5957
-3.9988 1.7341 -0.5968
-3.9830 1.7336 -0.5940
-3.9709 1.7330 -0.5961
-3.9564 1.7326 -0.5932
-3.9448 1.7320 -0.5944
-3.9354 1.7314 -0.5987
-3.9242 1.7309 -0.5990
-3.9120 1.7306 -0.5964
-3.9037 1.7299 -0.6009
-3.8840 1.7291 -0.6011
-5.1783 1.7442 -0.6036
-5.0011 1.7426 -0.5787
-4.8733 1.7382 -0.6026
-4.8032 1.7364 -0.6071
-4.6623 1.7337 -0.6051
-4.5244 1.7322 -0.5894
-4.4852 1.7310 -0.5952
-4.4523 1.7297 -0.6031
-4.4155 1.7287 -0.6066
-4.3572 1.7287 -0.5917
-4.2919 1.7272 -0.5937
-4.2310 1.7261 -0.5919
-4.1798 1.7250 -0.5925
-4.1606 1.7243 -0.5972
-4.1369 1.7239 -0.5958
-4.0996 1.7228 -0.6004
-4.0803 1.7224 -0.6002
-4.0577 1.7224 -0.5942
-4.0436 1.7218 -0.5983
-4.0284 1.7214 -0.5997
-4.0141 1.7210 -0.6017
-3.9946 1.7212 -0.5944
-3.9830 1.7206 -0.5983
-3.9702 1.7203 -0.5996
-3.9558 1.7202 -0.5969
-3.9442 1.7198 -0.5983
-3.9217 1.7193 -0.5996
-3.9084 1.7194 -0.5946
-3.8989 1.7191 -0.5966
-3.8902 1.7187 -0.5996
-3.8811 1.7184 -0.6009
-5.1357 1.7880 0.3244
-8.3580 1.7797 0.2808
-5.4889 1.7048 -0.6060
-5.1976 1.7053 -0.6055
-4.9361 1.7072 -0.5881
-4.7918 1.7064 -0.5990
-4.6748 1.7056 -0.6102
-4.5810 1.7075 -0.5908
-4.5430 1.7067 -0.6000
-4.4947 1.7067 -0.6008
-4.4464 1.7069 -0.5988
-4.3625 1.7073 -0.5962
-4.3266 1.7074 -0.5960
-4.3017 1.7068 -0.6029
-4.2374 1.7072 -0.5994
-4.1814 1.7075 -0.5962
-4.1606 1.7073 -0.5995
-4.1402 1.7071 -0.6020
-4.1149 1.7075 -0.5974
-4.0946 1.7076 -0.5972
-4.0791 1.7072 -0.6018
-4.0523 1.7082 -0.5903
-4.0383 1.7079 -0.5945
-4.0225 1.7079 -0.5950
-4.0090 1.7076 -0.5980
-3.9938 1.7077 -0.5973
-3.9802 1.7076 -0.5982
-3.9642 1.7080 -0.5940
-3.9512 1.7081 -0.5936
-3.9422 1.7076 -0.5997
-3.9297 1.7077 -0.5984
-3.9186 1.7077 -0.5990
-3.9047 1.7082 -0.5929
-3.8983 1.7075 -0.6013
-3.8878 1.7076 -0.6006
-3.8787 1.7074 -0.6020
-5.0710 1.7601 0.3182
-8.4270 1.6814 0.3151
-5.5610 1.6553 -0.6205
-5.2102 1.6651 -0.6048
-5.0754 1.6688 -0.5990
-4.9147 1.6749 -0.5754
-4.8669 1.6742 -0.5934
-4.8044 1.6748 -0.6024
-4.6643 1.6780 -0.6027
-4.5409 1.6814 -0.5978
-4.4413 1.6840 -0.5951
-4.3632 1.6856 -0.5971
-4.2959 1.6870 -0.5990
-4.2313 1.6889 -0.5953
-4.1805 1.6898 -0.5972
-4.1613 1.6898 -0.6025
-4.1395 1.6902 -0.6037
-4.1134 1.6913 -0.5985
-4.0925 1.6919 -0.5977
-4.0742 1.6922 -0.5987
-4.0519 1.6932 -0.5933
-4.0387 1.6930 -0.5986
-4.0228 1.6933 -0.5994
-4.0032 1.6944 -0.5934
-3.9942 1.6937 -0.6023
-3.9786 1.6943 -0.6002
-3.9647 1.6947 -0.5996
-3.9504 1.6952 -0.5972
-3.9383 1.6955 -0.5977
-3.9264 1.6957 -0.5976
-3.9142 1.6962 -0.5959
-3.9023 1.6967 -0.5936
-3.8946 1.6963 -0.5996
-3.8831 1.6969 -0.5964
-5.0735 1.7356 0.3521
-5.0688 1.7331 0.3276
-5.3886 1.6149 -0.6116
-5.1041 1.6287 -0.6054
-4.8090 1.6426 -0.6018
-4.5947 1.6530 -0.5961
-4.5441 1.6550 -0.5988
-4.4882 1.6580 -0.5954
-4.4432 1.6599 -0.5962
-4.3983 1.6622 -0.5945
-4.3621 1.6636 -0.5967
-4.3206 1.6659 -0.5926
-4.2809 1.6683 -0.5873
-4.2577 1.6687 -0.5942
-4.1763 1.6723 -0.5950
-4.1495 1.6738 -0.5921
-4.1302 1.6743 -0.5958
-4.1134 1.6745 -0.6013
-4.0678 1.6774 -0.5938
-4.0550 1.6772 -0.6009
-4.0319 1.6791 -0.5928
-4.0182 1.6793 -0.5967
-4.0015 1.6803 -0.5949
-3.9891 1.6804 -0.5987
-3.9756 1.6809 -0.5999
-3.9469 1.6827 -0.5961
-3.9244 1.6834 -0.5992
-3.9104 1.6846 -0.5940
-3.9026 1.6842 -0.6004
-3.8818 1.6852 -0.5999
-5.0238 1.7074 0.3256
-5.7782 1.5422 -0.6092
-4.7848 1.6131 -0.5876
-4.7180 1.6172 -0.5915
-4.6055 1.6238 -0.6010
-4.4949 1.6316 -0.5993
-4.3556 1.6420 -0.5922
-4.3195 1.6445 -0.5924
-4.2965 1.6449 -0.6016
-4.2601 1.6479 -0.5977
-4.1953 1.6533 -0.5903
-4.1523 1.6554 -0.5975
-4.1315 1.6565 -0.5999
-4.1125 1.6574 -0.6031
-4.0881 1.6597 -0.5984
-4.0678 1.6612 -0.5971
-4.0494 1.6625 -0.5969
-4.0341 1.6632 -0.5997
-4.0030 1.6651 -0.6015
-3.9847 1.6670 -0.5962
-3.9687 1.6685 -0.5932
-3.9576 1.6688 -0.5971
-3.9453 1.6695 -0.5984
-3.9327 1.6704 -0.5981
-3.9192 1.6717 -0.5948
-3.9072 1.6727 -0.5933
-3.8971 1.6732 -0.5949
-3.8884 1.6734 -0.5986
-5.0477 1.6822 0.3651
-5.0138 1.6810 0.3328
-7.8395 1.3765 0.0003
-7.9324 1.3556 -0.0929
-5.1270 1.5464 -0.6044
-4.8569 1.5747 -0.5791
-4.7656 1.5835 -0.5757
-4.7437 1.5820 -0.6022
-4.6195 1.5928 -0.6076
-4.4908 1.6062 -0.5960
-4.4070 1.6133 -0.6010
-4.3241 1.6214 -0.5969
-4.2624 1.6266 -0.6011
-4.2357 1.6286 -0.6042
-4.2056 1.6316 -0.6023
-4.1549 1.6363 -0.6028
-4.1041 1.6418 -0.5961
-4.0850 1.6434 -0.5977
-4.0670 1.6448 -0.5995
-4.0451 1.6474 -0.5948
-4.0313 1.6481 -0.5997
-4.0137 1.6499 -0.5981
-3.9829 1.6528 -0.5978
-3.9714 1.6532 -0.6025
-3.9552 1.6553 -0.5981
-3.9436 1.6560 -0.6007
-3.9293 1.6578 -0.5971
-3.9188 1.6584 -0.5998
-3.9057 1.6601 -0.5961
-3.8945 1.6612 -0.5955
-3.8830 1.6626 -0.5931
-4.9924 1.6587 0.3589
-4.9761 1.6568 0.3321
-8.1470 1.2161 -0.1699
-5.1189 1.5065 -0.5964
-5.0557 1.5108 -0.6171
-4.7780 1.5486 -0.5787
-4.7129 1.5554 -0.5844
-4.4961 1.5785 -0.5988
-4.3983 1.5904 -0.5948
-4.3625 1.5941 -0.5984
-4.3242 1.5986 -0.5978
-4.2908 1.6023 -0.5989
-4.2636 1.6048 -0.6036
-4.2299 1.6092 -0.6005
-4.1947 1.6143 -0.5935
-4.1732 1.6161 -0.5983
-4.1498 1.6186 -0.5997
-4.1247 1.6218 -0.5976
-4.1030 1.6243 -0.5978
-4.0840 1.6262 -0.5997
-4.0653 1.6283 -0.6008
-4.0443 1.6312 -0.5973
-4.0264 1.6334 -0.5967
-4.0129 1.6343 -0.6012
-3.9925 1.6377 -0.5941
-3.9790 1.6389 -0.5963
-3.9639 1.6409 -0.5947
-3.9528 1.6416 -0.5990
-3.9394 1.6432 -0.5984
-3.9258 1.6451 -0.5960
-3.9035 1.6475 -0.5977
-3.8923 1.6489 -0.5972
-3.8825 1.6498 -0.5987
-3.8719 1.6512 -0.5973
-4.9707 1.6340 0.3623
-4.9285 1.6346 0.3281
-8.2496 1.1566 0.2602
-8.0479 1.1683 0.1529
-5.1240 1.4635 -0.5932
-5.0535 1.4706 -0.6117
-4.7698 1.5167 -0.5720
-4.7124 1.5232 -0.5817
-4.6731 1.5262 -0.5982
-4.5454 1.5446 -0.5957
-4.4960 1.5511 -0.5981
-4.4485 1.5577 -0.5990
-4.3598 1.5705 -0.5968
-4.2862 1.5810 -0.5961
-4.2273 1.5887 -0.5997
-4.1930 1.5944 -0.5939
-4.1671 1.5980 -0.5942
-4.1212 1.6042 -0.5964
-4.1011 1.6067 -0.5985
-4.0828 1.6088 -0.6016
-4.0608 1.6124 -0.5984
-4.0420 1.6151 -0.5979
-4.0062 1.6205 -0.5954
-3.9924 1.6220 -0.5984
-3.9739 1.6255 -0.5926
-3.9508 1.6274 -0.6009
-3.9370 1.6296 -0.5994
-3.9252 1.6311 -0.6006
-3.9130 1.6329 -0.6002
-3.9012 1.6347 -0.5993
-3.8901 1.6363 -0.5989
-3.8803 1.6374 -0.6006
-3.8703 1.6388 -0.6006
-3.8614 1.6398 -0.6027
-4.9191 1.6131 0.3560
-4.9254 1.6088 0.3368
-4.9069 1.6073 0.3100
-5.0510 1.4296 -0.6061
-4.7126 1.4903 -0.5793
-4.6690 1.4951 -0.5940
-4.5940 1.5084 -0.5886
-4.5627 1.5108 -0.6052
-4.5091 1.5195 -0.6060
-4.4484 1.5309 -0.5987
-4.3981 1.5398 -0.5950
-4.3602 1.5457 -0.5976
-4.2948 1.5553 -0.6046
-4.2191 1.5697 -0.5937
-4.1912 1.5743 -0.5941
-4.1662 1.5782 -0.5955
-4.1482 1.5799 -0.6031
-4.1219 1.5848 -0.6000
-4.0781 1.5922 -0.5990
-4.0589 1.5953 -0.5996
-4.0395 1.5987 -0.5985
-4.0027 1.6055 -0.5945
-3.9877 1.6078 -0.5956
-3.9749 1.6093 -0.5992
-3.9593 1.6123 -0.5970
-3.9476 1.6136 -0.6006
-3.9333 1.6164 -0.5981
-3.9244 1.6167 -0.6051
-3.9101 1.6199 -0.6004
-3.8993 1.6214 -0.6019
-3.8862 1.6244 -0.5970
-3.8775 1.6251 -0.6012
-3.8675 1.6268 -0.6013
-4.8888 1.5910 0.3561
-4.8913 1.5869 0.3362
-4.8859 1.5839 0.3135
-5.0308 1.3926 -0.5935
-4.6974 1.4609 -0.5693
-4.6481 1.4683 -0.5808
-4.6014 1.4753 -0.5913
-4.5583 1.4818 -0.6014
-4.4456 1.5042 -0.5965
-4.3668 1.5181 -0.6032
-4.3196 1.5284 -0.5965
-4.2929 1.5321 -0.6042
-4.2614 1.5378 -0.6060
-4.2216 1.5469 -0.5978
-4.1893 1.5537 -0.5942
-4.1622 1.5590 -0.5937
-4.1442 1.5611 -0.6014
-4.1210 1.5654 -0.6019
-4.0976 1.5702 -0.6006
-4.0774 1.5739 -0.6015
-4.0530 1.5797 -0.5954
-4.0344 1.5832 -0.5953
-4.0182 1.5860 -0.5972
-4.0054 1.5874 -0.6032
-3.9848 1.5926 -0.5958
-3.9572 1.5974 -0.5986
-3.9307 1.6024 -0.5991
-3.9087 1.6058 -0.6039
-3.8958 1.6088 -0.6010
-3.8828 1.6121 -0.5962
-3.8742 1.6130 -0.6005
-3.8642 1.6149 -0.6007
-3.8559 1.6158 -0.6043
-4.8821 1.5662 0.3636
-4.8704 1.5640 0.3393
-4.8626 1.5613 0.3161
-5.0663 1.3396 -0.6027
-4.7077 1.4237 -0.5719
-4.6567 1.4326 -0.5834
-4.5966 1.4450 -0.5870
-4.5419 1.4563 -0.5904
-4.5074 1.4613 -0.6036
-4.4476 1.4755 -0.5976
-4.4051 1.4842 -0.6004
-4.3652 1.4925 -0.6024
-4.3237 1.5019 -0.6008
-4.2863 1.5102 -0.5998
-4.2536 1.5172 -0.6004
-4.1865 1.5332 -0.5935
-4.1660 1.5363 -0.6002
-4.1396 1.5424 -0.5989
-4.0959 1.5513 -0.6019
-4.0503 1.5625 -0.5955
-4.0169 1.5689 -0.5997
-4.0011 1.5721 -0.6011
-3.9837 1.5763 -0.5989
-3.9674 1.5803 -0.5968
-3.9562 1.5817 -0.6023
-3.9292 1.5876 -0.6021
-3.9045 1.5931 -0.6017
-3.8799 1.5994 -0.5966
-3.8618 1.6022 -0.6026
-3.8531 1.6036 -0.6051
-4.8395 1.5475 0.3590
-4.8484 1.5418 0.3419
-4.8331 1.5404 0.3167
-4.7564 1.3957 -0.4777
-4.7218 1.3994 -0.5006
-4.6957 1.4006 -0.5260
-4.7149 1.3862 -0.5728
-4.6633 1.3964 -0.5847
-4.6118 1.4071 -0.5940
-4.3959 1.4601 -0.5938
-4.3532 1.4705 -0.5937
-4.3222 1.4768 -0.6004
-4.2895 1.4841 -0.6037
-4.2516 1.4941 -0.6003
-4.1915 1.5087 -0.6008
-4.1383 1.5218 -0.6003
-4.1160 1.5269 -0.6022
-4.0908 1.5337 -0.5989
-4.0742 1.5366 -0.6047
-4.0507 1.5433 -0.6001
-4.0323 1.5477 -0.6006
-4.0155 1.5515 -0.6021
-3.9813 1.5604 -0.5999
-3.9668 1.5637 -0.6011
-3.9487 1.5695 -0.5944
-3.9292 1.5714 -0.6083
-3.9105 1.5785 -0.5960
-3.9008 1.5799 -0.6006
-3.8794 1.5847 -0.6029
-3.8678 1.5881 -0.6003
-3.8575 1.5908 -0.5995
-3.8483 1.5928 -0.6008
-4.8266 1.5245 0.3641
-4.8254 1.5204 0.3439
-4.8140 1.5183 0.3201
-4.7280 1.4143 -0.2613
-4.7249 1.4084 -0.2920
-4.7478 1.3938 -0.3301
-4.7373 1.3900 -0.3608
-4.7267 1.3861 -0.3917
-4.7349 1.3756 -0.4295
-4.7319 1.3687 -0.4644
-4.7101 1.3686 -0.4922
-4.6988 1.3646 -0.5244
-4.7072 1.3531 -0.5664
-4.6845 1.3533 -0.5938
-4.6164 1.3716 -0.5949
-4.5057 1.4004 -0.6011
-4.4594 1.4122 -0.6052
-4.4078 1.4268 -0.6026
-4.3189 1.4519 -0.5986
-4.2540 1.4684 -0.6040
-4.1848 1.4890 -0.5962
-4.1403 1.4991 -0.6054
-4.0883 1.5146 -0.5993
-4.0685 1.5196 -0.6010
-4.0459 1.5266 -0.5975
-4.0257 1.5325 -0.5954
-4.0097 1.5363 -0.5980
-3.9935 1.5406 -0.5988
-3.9764 1.5456 -0.5970
-3.9615 1.5496 -0.5973
-3.9348 1.5563 -0.6000
-3.9209 1.5605 -0.5983
-3.9078 1.5643 -0.5969
-3.8840 1.5711 -0.5958
-3.8738 1.5735 -0.5973
-3.8653 1.5748 -0.6019
-4.7938 1.5014 0.3428
-4.6984 1.4192 -0.1339
-4.7414 1.3846 -0.2269
-4.7391 1.3781 -0.2577
-4.7431 1.3692 -0.2907
-4.7401 1.3626 -0.3229
-4.7258 1.3600 -0.3527
-4.7233 1.3530 -0.3861
-4.7125 1.3489 -0.4174
-4.7130 1.3404 -0.4533
-4.7096 1.3333 -0.4886
-4.7179 1.3211 -0.5299
-4.7179 1.3120 -0.5689
-4.6255 1.3330 -0.5984
-4.5754 1.3460 -0.6071
-4.5113 1.3661 -0.6039
-4.4596 1.3814 -0.6051
-4.4068 1.3980 -0.6021
-4.3659 1.4097 -0.6046
-4.3245 1.4223 -0.6041
-4.2840 1.4351 -0.6015
-4.2488 1.4458 -0.6009
-4.1851 1.4654 -0.5988
-4.1606 1.4720 -0.6021
-4.1353 1.4795 -0.6027
-4.1065 1.4894 -0.5974
-4.0890 1.4933 -0.6036
-4.0615 1.5034 -0.5956
-4.0266 1.5126 -0.6010
-4.0057 1.5199 -0.5966
-3.9920 1.5230 -0.6014
-3.9750 1.5284 -0.5999
-3.9584 1.5340 -0.5975
-3.9450 1.5376 -0.5993
-3.9330 1.5404 -0.6026
-3.9185 1.5454 -0.6000
-3.8933 1.5534 -0.5983
-3.8814 1.5573 -0.5970
-3.8717 1.5595 -0.5999
-3.8622 1.5618 -0.6023
-3.8433 1.5669 -0.6046
-4.7470 1.3926 -0.0471
-4.7371 1.3892 -0.0742
-4.7311 1.3844 -0.1017
-4.7359 1.3758 -0.1303
-4.7363 1.3685 -0.1595
-4.7228 1.3660 -0.1876
-4.7383 1.3450 -0.2518
-4.7429 1.3353 -0.2850
-4.7323 1.3312 -0.3157
-4.7262 1.3253 -0.3478
-4.7503 1.3070 -0.3898
-4.7353 1.3042 -0.4210
-4.7483 1.2897 -0.4626
-4.7867 1.2433 -0.5993
-4.7141 1.2659 -0.6046
-4.6488 1.2862 -0.6097
-4.5699 1.3141 -0.6025
-4.4518 1.3538 -0.5995
-4.3995 1.3717 -0.5969
-4.3665 1.3804 -0.6056
-4.2806 1.4102 -0.5999
-4.2464 1.4214 -0.6004
-4.2151 1.4315 -0.6012
-4.1825 1.4429 -0.5984
-4.1574 1.4505 -0.6013
-4.1302 1.4598 -0.5999
-4.1076 1.4668 -0.6019
-4.0849 1.4742 -0.6021
-4.0640 1.4810 -0.6028
-4.0241 1.4943 -0.6020
-4.0035 1.5021 -0.5979
-3.9845 1.5092 -0.5945
-3.9722 1.5118 -0.6007
-3.9597 1.5147 -0.6054
-3.9294 1.5256 -0.6020
-3.9026 1.5350 -0.5998
-3.8910 1.5386 -0.6004
-3.8801 1.5419 -0.6017
-3.8680 1.5466 -0.5989
-3.8604 1.5473 -0.6062
-4.7586 1.4540 0.3302
-4.7746 1.3796 0.0671
-4.7544 1.3797 0.0398
-4.7594 1.3713 0.0142
-4.7527 1.3667 -0.0126
-4.7437 1.3628 -0.0396
-4.7337 1.3593 -0.0669
-4.7246 1.3555 -0.0944
-4.7183 1.3504 -0.1223
-4.7187 1.3428 -0.1511
-4.7470 1.2623 -0.4205
-4.8529 1.1817 -0.5833
-4.7776 1.2065 -0.5919
-4.7267 1.2204 -0.6088
-4.5744 1.2765 -0.6040
-4.5212 1.2943 -0.6088
-4.4563 1.3194 -0.6022
-4.3638 1.3522 -0.6041
-4.2822 1.3820 -0.6026
-4.2417 1.3978 -0.5978
-4.2086 1.4099 -0.5969
-4.1561 1.4274 -0.6026
-4.1257 1.4395 -0.5979
-4.1040 1.4466 -0.6009
-4.0618 1.4609 -0.6039
-4.0372 1.4713 -0.5980
-4.0186 1.4779 -0.5986
-3.9856 1.4890 -0.6016
-3.9678 1.4962 -0.5986
-3.9542 1.5003 -0.6015
-3.9392 1.5059 -0.6008
-3.9263 1.5101 -0.6024
-3.9126 1.5153 -0.6013
-3.8886 1.5236 -0.6025
-3.8777 1.5272 -0.6039
-3.8648 1.5331 -0.5991
-3.8558 1.5353 -0.6029
-3.8440 1.5409 -0.5980
-4.7135 1.4361 0.3052
-4.7489 1.3717 0.1215
-4.7568 1.3622 0.0984
-4.7644 1.3527 0.0744
-4.7547 1.3492 0.0479
-4.7418 1.3468 0.0212
-4.7361 1.3417 -0.0054
-4.7262 1.3382 -0.0323
-4.7202 1.3330 -0.0594
-4.7101 1.3294 -0.0867
-4.7242 1.3159 -0.1158
-4.7185 1.3102 -0.1445
-4.8965 1.1521 -0.4659
-4.9574 1.1103 -0.5314
-4.9505 1.1009 -0.5750
-4.9085 1.1094 -0.6040
-4.7178 1.1844 -0.6016
-4.6620 1.2030 -0.6133
-4.5762 1.2391 -0.6038
-4.4664 1.2806 -0.6088
-4.4115 1.3028 -0.6060
-4.3646 1.3213 -0.6054
-4.3152 1.3422 -0.5994
-4.2898 1.3491 -0.6107
-4.2349 1.3753 -0.5932
-4.2143 1.3802 -0.6047
-4.1821 1.3933 -0.6029
-4.1532 1.4047 -0.6023
-4.1231 1.4176 -0.5980
-4.1002 1.4261 -0.5998
-4.0559 1.4433 -0.6001
-4.0339 1.4525 -0.5977
-4.0196 1.4562 -0.6046
-3.9980 1.4661 -0.5994
-3.9821 1.4718 -0.6011
-3.9638 1.4800 -0.5974
-3.9513 1.4835 -0.6024
-3.9339 1.4918 -0.5970
-3.9195 1.4978 -0.5956
-3.9084 1.5010 -0.5998
-3.8981 1.5037 -0.6045
-3.8870 1.5074 -0.6067
-3.8743 1.5131 -0.6039
-3.8615 1.5194 -0.5992
-3.8425 1.5258 -0.6032
-3.8327 1.5297 -0.6027
-4.7514 1.3679 0.2226
-4.7372 1.3665 0.1972
-4.7275 1.3635 0.1728
-4.7563 1.3322 0.1069
-4.7604 1.3233 0.0824
-4.7516 1.3193 0.0559
-4.7417 1.3157 0.0292
-4.7602 1.3005 0.0036
-4.7468 1.2980 -0.0243
-4.7808 1.2004 -0.3104
-4.8322 1.1643 -0.3603
-4.8739 1.1317 -0.4116
-4.9662 1.0719 -0.4836
-4.9905 1.0457 -0.5383
-4.9778 1.0386 -0.5813
-4.9166 1.0580 -0.6035
-4.8477 1.0825 -0.6189
-4.6683 1.1594 -0.6148
-4.5947 1.1909 -0.6134
-4.5221 1.2231 -0.6078
-4.4662 1.2465 -0.6085
-4.4154 1.2677 -0.6090
-4.3565 1.2953 -0.5997
-4.3197 1.3096 -0.6041
-4.2844 1.3235 -0.6074
-4.2369 1.3466 -0.5969
-4.2008 1.3627 -0.5936
-4.1729 1.3738 -0.5960
-4.1516 1.3807 -0.6034
-4.1198 1.3959 -0.5973
-4.0951 1.4063 -0.5971
-4.0771 1.4120 -0.6036
-4.0559 1.4207 -0.6044
-4.0382 1.4271 -0.6083
-3.9937 1.4489 -0.5977
-3.9784 1.4545 -0.6006
-3.9597 1.4637 -0.5962
-3.9468 1.4679 -0.6004
-3.9337 1.4727 -0.6030
-3.9153 1.4831 -0.5939
-3.9053 1.4855 -0.6003
-3.8931 1.4904 -0.6009
-3.8825 1.4939 -0.6043
-3.8568 1.5072 -0.5959
-3.8475 1.5103 -0.5987
-3.8393 1.5124 -0.6035
-4.7418 1.3746 0.3334
-4.7305 1.3725 0.3097
-4.7481 1.3470 0.2528
-4.7808 1.2913 0.1192
-4.7677 1.2889 0.0919
-5.0265 0.9909 -0.4974
-5.0542 0.9604 -0.5559
-5.0402 0.9529 -0.6012
-4.9128 1.0118 -0.5977
-4.8492 1.0350 -0.6162
-4.6718 1.1160 -0.6148
-4.5895 1.1551 -0.6090
-4.5228 1.1859 -0.6074
-4.4103 1.2376 -0.6054
-4.3619 1.2599 -0.6045
-4.3195 1.2789 -0.6051
-4.2420 1.3146 -0.6035
-4.1968 1.3387 -0.5918
-4.1802 1.3419 -0.6061
-4.1446 1.3603 -0.5987
-4.1169 1.3733 -0.5973
-4.0967 1.3808 -0.6027
-4.0678 1.3961 -0.5956
-4.0481 1.4043 -0.5980
-4.0322 1.4095 -0.6045
-3.9916 1.4295 -0.5996
-3.9572 1.4456 -0.5978
-3.9267 1.4600 -0.5962
-3.9040 1.4677 -0.6048
-3.8894 1.4756 -0.6005
-3.8785 1.4798 -0.6029
-3.8642 1.4884 -0.5959
-3.8561 1.4900 -0.6028
-3.8446 1.4961 -0.6001
-3.8352 1.4999 -0.6015
-3.8263 1.5033 -0.6036
-5.0788 0.9249 -0.4588
-5.1663 0.8400 -0.5900
-5.0667 0.8832 -0.6063
-4.8510 0.9860 -0.6135
-4.6833 1.0659 -0.6190
-4.5114 1.1560 -0.5993
-4.4115 1.2024 -0.6065
-4.3689 1.2218 -0.6106
-4.3143 1.2512 -0.6018
-4.2822 1.2648 -0.6084
-4.2368 1.2894 -0.6005
-4.1696 1.3231 -0.5977
-4.1188 1.3461 -0.6029
-4.0907 1.3610 -0.5991
-4.0687 1.3712 -0.6008
-4.0234 1.3946 -0.5966
-4.0048 1.4035 -0.5973
-3.9844 1.4146 -0.5935
-3.9704 1.4198 -0.5985
-3.9572 1.4245 -0.6039
-3.9402 1.4337 -0.6010
-3.9247 1.4419 -0.5992
-3.8968 1.4561 -0.5970
-3.8862 1.4600 -0.6011
-3.8735 1.4668 -0.5994
-3.8607 1.4741 -0.5958
-3.8526 1.4759 -0.6028
-3.8408 1.4828 -0.5991
-3.8310 1.4874 -0.5994
-3.8230 1.4898 -0.6041
-4.7600 1.2913 0.2970
-4.7578 1.2849 0.2747
-5.2015 0.7961 -0.4864
-5.2128 0.7707 -0.5440
-5.0714 0.8245 -0.6027
-4.9605 0.8800 -0.6094
-4.8688 0.9249 -0.6181
-4.6701 1.0313 -0.6096
-4.6032 1.0646 -0.6142
-4.4664 1.1381 -0.6076
-4.4186 1.1616 -0.6119
-4.3589 1.1955 -0.6035
-4.3123 1.2205 -0.6013
-4.2373 1.2591 -0.6029
-4.2025 1.2775 -0.6021
-4.1755 1.2900 -0.6067
-4.1467 1.3048 -0.6072
-4.1168 1.3215 -0.6040
-4.0901 1.3360 -0.6022
-4.0717 1.3434 -0.6088
-4.0428 1.3616 -0.5996
-4.0175 1.3771 -0.5928
-4.0061 1.3790 -0.6046
-3.9836 1.3930 -0.5979
-3.9686 1.3996 -0.6014
-3.9503 1.4103 -0.5979
-3.9356 1.4177 -0.5989
-3.9226 1.4234 -0.6020
-3.9086 1.4309 -0.6016
-3.8962 1.4366 -0.6035
-3.8797 1.4484 -0.5943
-3.8698 1.4519 -0.5990
-3.8593 1.4567 -0.6011
-3.8486 1.4621 -0.6016
-3.8378 1.4682 -0.6004
-3.8272 1.4743 -0.5985
-3.8196 1.4762 -0.6045
-4.7866 1.2726 0.3796
-4.7711 1.2718 0.3532
-4.7892 1.2564 0.3382
-4.8203 1.2267 0.3031
-5.4108 0.5780 -0.5985
-5.0115 0.7902 -0.6264
-4.7482 0.9447 -0.6035
-4.6814 0.9782 -0.6136
-4.5943 1.0289 -0.6074
-4.5282 1.0654 -0.6082
-4.4659 1.1005 -0.6069
-4.3687 1.1528 -0.6118
-4.3028 1.1955 -0.5945
-4.2691 1.2123 -0.6001
-4.2042 1.2462 -0.6062
-4.1450 1.2784 -0.6084
-4.0875 1.3123 -0.6029
-4.0651 1.3242 -0.6045
-4.0433 1.3361 -0.6050
-4.0198 1.3506 -0.6011
-4.0018 1.3598 -0.6034
-3.9811 1.3726 -0.5995
-3.9631 1.3832 -0.5980
-3.9495 1.3891 -0.6028
-3.9314 1.4010 -0.5976
-3.9069 1.4118 -0.6056
-3.8900 1.4240 -0.5977
-3.8786 1.4295 -0.6000
-3.8565 1.4407 -0.6030
-3.8450 1.4476 -0.6015
-3.8354 1.4521 -0.6038
-3.8154 1.4638 -0.6024
-4.8027 1.2433 0.4172
-4.8377 1.2117 0.3878
-4.8503 1.1889 0.3466
-4.9026 1.1360 0.2878
-5.3757 0.5779 -0.4585
-5.4115 0.5076 -0.5902
-5.0229 0.7243 -0.6262
-4.7572 0.8895 -0.6051
-4.6113 0.9719 -0.6158
-4.4657 1.0615 -0.6065
-4.4021 1.1015 -0.6002
-4.3543 1.1294 -0.6013
-4.3204 1.1461 -0.6103
-4.2742 1.1750 -0.6062
-4.1969 1.2225 -0.6014
-4.1406 1.2539 -0.6068
-4.0813 1.2918 -0.5991
-4.0546 1.3092 -0.5949
-4.0358 1.3186 -0.5993
-4.0170 1.3288 -0.6020
-3.9938 1.3447 -0.5963
-3.9616 1.3617 -0.6016
-3.9280 1.3829 -0.5982
-3.9157 1.3885 -0.6027
-3.9023 1.3961 -0.6037
-3.8878 1.4057 -0.6010
-3.8747 1.4140 -0.5994
-3.8631 1.4205 -0.6003
-3.8523 1.4264 -0.6017
-3.8402 1.4350 -0.5980
-3.8310 1.4390 -0.6016
-3.8199 1.4470 -0.5978
-3.8123 1.4492 -0.6039
-4.8429 1.1942 0.4447
-4.8727 1.1536 0.3889
-5.5542 0.3819 -0.4903
-5.3425 0.4632 -0.6232
-5.0124 0.6733 -0.6167
-4.8918 0.7491 -0.6170
-4.7935 0.8097 -0.6201
-4.5982 0.9378 -0.6066
-4.4715 1.0161 -0.6101
-4.4136 1.0530 -0.6088
-4.3613 1.0864 -0.6075
-4.3065 1.1238 -0.6000
-4.2750 1.1403 -0.6086
-4.2012 1.1868 -0.6083
-4.1349 1.2303 -0.6038
-4.1057 1.2494 -0.6018
-4.0779 1.2680 -0.5989
-4.0354 1.2929 -0.6037
-3.9972 1.3155 -0.6073
-3.9727 1.3348 -0.5974
-3.9574 1.3431 -0.6008
-3.9439 1.3495 -0.6060
-3.9251 1.3638 -0.5996
-3.9105 1.3730 -0.5996
-3.8958 1.3830 -0.5978
-3.8833 1.3903 -0.5991
-3.8711 1.3977 -0.5998
-3.8609 1.4025 -0.6040
-3.8501 1.4087 -0.6056
-3.8376 1.4183 -0.6012
-3.8281 1.4232 -0.6038
-3.8185 1.4288 -0.6048
-4.9427 1.0934 0.4505
-4.9883 1.0382 0.3900
-5.0078 1.0165 0.3688
-5.0567 0.9780 0.3544
-5.0804 0.9526 0.3307
-5.8267 0.1289 -0.4669
-5.9561 0.0004 -0.5704
-5.7305 0.1419 -0.5923
-5.3106 0.4169 -0.6046
-5.1877 0.4915 -0.6227
-5.0467 0.5843 -0.6257
-4.5930 0.8967 -0.6018
-4.5276 0.9390 -0.6050
-4.4206 1.0066 -0.6141
-4.3600 1.0499 -0.6072
-4.3127 1.0818 -0.6064
-4.2692 1.1113 -0.6051
-4.2368 1.1306 -0.6108
-4.1624 1.1828 -0.6045
-4.1292 1.2065 -0.6007
-4.1014 1.2251 -0.6004
-4.0783 1.2392 -0.6036
-4.0492 1.2615 -0.5967
-4.0316 1.2705 -0.6033
-4.0113 1.2836 -0.6043
-3.9916 1.2968 -0.6042
-3.9719 1.3108 -0.6022
-3.9532 1.3242 -0.5998
-3.9360 1.3364 -0.5982
-3.9080 1.3534 -0.6022
-3.8934 1.3637 -0.6007
-3.8814 1.3707 -0.6032
-3.8557 1.3890 -0.6004
-3.8323 1.4061 -0.5966
-3.8230 1.4113 -0.5993
-3.8149 1.4144 -0.6049
-5.0066 1.0118 0.4624
-5.0704 0.9651 0.4585
-5.0996 0.9365 0.4400
-5.1403 0.8737 0.3603
-5.1679 0.8433 0.3346
-5.2053 0.8060 0.3091
-5.2877 0.7233 0.2518
-5.3430 0.6711 0.2211
-5.3661 0.6382 0.1823
-5.3534 0.6280 0.1374
-6.0427 -0.1284 -0.4937
-6.3053 -0.3737 -0.6339
-5.7865 0.0092 -0.5951
-5.6735 0.0697 -0.6401
-5.3319 0.3266 -0.6036
-4.9287 0.6021 -0.6251
-4.6956 0.7723 -0.6118
-4.5349 0.8872 -0.6086
-4.4749 0.9283 -0.6116
-4.4066 0.9797 -0.6041
-4.3165 1.0404 -0.6109
-4.2274 1.1062 -0.6042
-4.1604 1.1530 -0.6054
-4.1256 1.1798 -0.6001
-4.0958 1.2019 -0.5976
-4.0718 1.2180 -0.5996
-4.0457 1.2377 -0.5967
-4.0096 1.2587 -0.6072
-3.9859 1.2780 -0.6011
-3.9635 1.2968 -0.5943
-3.9346 1.3136 -0.6027
-3.9211 1.3213 -0.6068
-3.9053 1.3334 -0.6046
-3.8784 1.3522 -0.6053
-3.8623 1.3673 -0.5964
-3.8514 1.3740 -0.5987
-3.8300 1.3883 -0.6007
-3.8199 1.3951 -0.6014
-3.8115 1.3991 -0.6061
-3.8012 1.4074 -0.6034
-5.1389 0.8835 0.4974
-5.1930 0.8382 0.4862
-5.2081 0.8149 0.4595
-5.2041 0.8028 0.4257
-5.2654 0.7499 0.4096
-5.2380 0.7513 0.3671
-5.2561 0.7238 0.3356
-5.3872 0.6219 0.3266
-5.4117 0.5874 0.2903
-6.6004 -0.6881 -0.5789
-6.3523 -0.5248 -0.6280
-5.8475 -0.1348 -0.5982
-5.6328 0.0168 -0.6177
-5.2131 0.3298 -0.6183
-4.9382 0.5321 -0.6248
-4.8004 0.6401 -0.6134
-4.6950 0.7207 -0.6089
-4.5429 0.8325 -0.6126
-4.4167 0.9272 -0.6117
-4.3717 0.9580 -0.6180
-4.3149 1.0036 -0.6108
-4.2229 1.0761 -0.6022
-4.1587 1.1220 -0.6067
-4.1259 1.1477 -0.6041
-4.1006 1.1650 -0.6075
-4.0463 1.2078 -0.6024
-4.0001 1.2441 -0.5984
-3.9812 1.2577 -0.5995
-3.9643 1.2692 -0.6021
-3.9312 1.2932 -0.6036
-3.8991 1.3190 -0.5996
-3.8729 1.3377 -0.6013
-3.8589 1.3498 -0.5976
-3.8481 1.3567 -0.6002
-3.8357 1.3675 -0.5969
-3.8268 1.3715 -0.6026
-3.8165 1.3794 -0.6024
-3.8070 1.3858 -0.6038
-5.1916 0.8347 0.5917
-5.1869 0.8238 0.5603
-5.2771 0.7392 0.5312
-5.2734 0.7259 0.4966
-5.2997 0.6931 0.4707
-5.3539 0.6412 0.4510
-5.3421 0.6315 0.4102
-5.3466 0.6106 0.3731
-5.4354 0.5316 0.3536
-5.5148 0.4566 0.3271
-6.7779 -0.9172 -0.4844
-6.2925 -0.5882 -0.5988
-5.7684 -0.1968 -0.6451
-5.2219 0.2481 -0.6143
-4.9555 0.4518 -0.6278
-4.7187 0.6425 -0.6189
-4.6277 0.7152 -0.6167
-4.5405 0.7870 -0.6100
-4.4210 0.8788 -0.6151
-4.3650 0.9237 -0.6135
-4.3130 0.9660 -0.6106
-4.2697 0.9999 -0.6111
-4.2235 1.0391 -0.6051
-4.1550 1.0926 -0.6061
-4.1264 1.1141 -0.6084
-4.0703 1.1590 -0.6068
-4.0471 1.1765 -0.6085
-4.0200 1.2008 -0.6023
-4.0001 1.2155 -0.6042
-3.9615 1.2461 -0.6040
-3.9263 1.2747 -0.6018
-3.9117 1.2854 -0.6037
-3.8828 1.3086 -0.6029
-3.8685 1.3210 -0.6003
-3.8551 1.3328 -0.5978
-3.8428 1.3430 -0.5965
-3.8327 1.3496 -0.5996
-3.8218 1.3584 -0.5990
-3.8126 1.3642 -0.6022
-3.7953 1.3745 -0.6094
-5.3193 0.6779 0.5966
-5.3738 0.6259 0.5828
-5.4234 0.5757 0.5643
-5.4583 0.5340 0.5382
-5.4750 0.5035 0.5041
-5.6110 0.3676 0.4571
-5.6961 0.2844 0.4313
-5.7219 0.2418 0.3879
-6.5471 -0.9414 -0.6335
-5.5953 -0.1641 -0.6612
-5.1815 0.2131 -0.5925
-4.9305 0.4121 -0.6120
-4.8133 0.5092 -0.6124
-4.6175 0.6736 -0.6089
-4.5488 0.7281 -0.6141
-4.4687 0.7985 -0.6062
-4.4091 0.8478 -0.6067
-4.3537 0.8944 -0.6055
-4.2613 0.9711 -0.6055
-4.1265 1.0797 -0.6125
-4.0625 1.1384 -0.6012
-4.0395 1.1566 -0.6031
-4.0152 1.1779 -0.6008
-3.9955 1.1932 -0.6030
-3.9544 1.2295 -0.5985
-3.9381 1.2420 -0.6006
-3.9245 1.2507 -0.6061
-3.9082 1.2649 -0.6047
-3.8787 1.2904 -0.6026
-3.8645 1.3033 -0.6002
-3.8512 1.3155 -0.5979
-3.8394 1.3254 -0.5978
-3.8297 1.3313 -0.6022
-3.8188 1.3405 -0.6019
-3.8086 1.3490 -0.6019
-3.7891 1.3660 -0.6003
-5.4066 0.5851 0.6829
-5.4674 0.5264 0.6722
-5.4652 0.5093 0.6348
-5.5019 0.4647 0.6102
-5.8415 0.1047 0.4865
-5.9373 0.0048 0.4549
-6.3928 -0.4126 0.4177
-6.4045 -0.4581 0.3483
-5.7665 -0.3924 -0.6205
-5.6633 -0.3283 -0.6719
-5.0993 0.1929 -0.6174
-4.8205 0.4394 -0.6121
-4.6032 0.6363 -0.5988
-4.4618 0.7588 -0.6012
-4.3571 0.8465 -0.6090
-4.2680 0.9220 -0.6136
-4.1179 1.0571 -0.6064
-4.0592 1.1108 -0.6018
-4.0113 1.1532 -0.6007
-3.9703 1.1890 -0.6008
-3.9361 1.2172 -0.6043
-3.9017 1.2497 -0.5995
-3.8897 1.2572 -0.6053
-3.8733 1.2746 -0.5995
-3.8616 1.2830 -0.6030
-3.8476 1.2972 -0.5990
-3.8245 1.3177 -0.5985
-3.8134 1.3281 -0.5972
-3.8033 1.3368 -0.5973
-3.7932 1.3465 -0.5958
-3.7855 1.3503 -0.6015
-6.2512 -0.3277 0.5489
-6.4001 -0.4827 0.5149
-6.6267 -0.7069 0.4855
-6.5307 -0.6674 0.3933
-6.6338 -0.7964 0.3290
-6.9942 -1.1530 0.2822
-6.1781 -0.8801 -0.6198
-5.6528 -0.4168 -0.6577
-5.1145 0.1004 -0.6167
-4.8278 0.3671 -0.6116
-4.7656 0.4119 -0.6349
-4.6179 0.5635 -0.6053
-4.4945 0.6679 -0.6228
-4.3534 0.8062 -0.6070
-4.2599 0.8915 -0.6082
-4.1812 0.9642 -0.6078
-4.0847 1.0544 -0.6052
-4.0552 1.0835 -0.6015
-4.0096 1.1241 -0.6041
-3.9887 1.1429 -0.6049
-3.9711 1.1569 -0.6091
-3.9508 1.1768 -0.6067
-3.9330 1.1935 -0.6063
-3.9160 1.2094 -0.6056
-3.8996 1.2254 -0.6039
-3.8690 1.2561 -0.5991
-3.8563 1.2674 -0.5999
-3.8446 1.2770 -0.6019
-3.8336 1.2859 -0.6043
-3.8226 1.2957 -0.6051
-3.8116 1.3063 -0.6041
-3.8008 1.3171 -0.6024
-3.7911 1.3262 -0.6023
-3.7821 1.3336 -0.6037
-5.8158 0.1539 0.8556
-5.8037 0.1386 0.8069
-5.8613 0.0701 0.7836
-5.8341 0.0651 0.7269
-6.3493 -0.3988 0.7893
-7.1447 -1.2171 0.7010
-7.0594 -1.1928 0.5959
-7.3005 -1.4538 0.5455
-7.3399 -1.5434 0.4524
-7.3342 -1.5947 0.3495
-6.4543 -1.3039 -0.6642
-5.6256 -0.4880 -0.6384
-5.4443 -0.3240 -0.6589
-4.8290 0.2994 -0.6081
-4.7432 0.3758 -0.6201
-4.6572 0.4558 -0.6257
-4.4647 0.6551 -0.6022
-4.4065 0.7095 -0.6055
-4.3588 0.7520 -0.6122
-4.2612 0.8467 -0.6116
-4.0818 1.0232 -0.6063
-4.0541 1.0507 -0.6051
-4.0315 1.0707 -0.6083
-4.0053 1.0985 -0.6038
-3.9873 1.1129 -0.6094
-3.9268 1.1753 -0.6024
-3.9084 1.1952 -0.5985
-3.8954 1.2049 -0.6038
-3.8819 1.2164 -0.6066
-3.8535 1.2456 -0.6034
-3.8391 1.2626 -0.5980
-3.8276 1.2735 -0.5985
-3.8173 1.2818 -0.6013
-3.8058 1.2946 -0.5983
-3.7967 1.3013 -0.6021
-3.7867 1.3116 -0.6010
-6.3675 -0.4399 0.9443
-7.3266 -1.4063 0.9581
-7.4577 -1.5722 0.9013
-7.5019 -1.6662 0.8161
-5.8297 -0.7821 -0.5981
-5.6312 -0.5981 -0.6286
-5.5035 -0.4917 -0.6693
-4.8368 0.2210 -0.6076
-4.7662 0.2806 -0.6288
-4.6417 0.4152 -0.6146
-4.5623 0.4942 -0.6176
-4.4618 0.6065 -0.5998
-4.4200 0.6399 -0.6156
-4.2994 0.7676 -0.6066
-4.2561 0.8102 -0.6091
-4.2237 0.8377 -0.6184
-4.1389 0.9309 -0.6062
-4.0762 0.9958 -0.6041
-4.0203 1.0561 -0.5979
-3.9821 1.0892 -0.6078
-3.9372 1.1411 -0.5970
-3.9202 1.1580 -0.5977
-3.9052 1.1715 -0.6007
-3.8761 1.1996 -0.6032
-3.8632 1.2115 -0.6054
-3.8502 1.2244 -0.6059
-3.8362 1.2409 -0.6018
-3.8238 1.2549 -0.5996
-3.8120 1.2680 -0.5975
-3.8021 1.2767 -0.5999
-3.7925 1.2854 -0.6017
-3.7835 1.2933 -0.6040
-5.9902 -1.0915 -0.6237
-5.7253 -0.8213 -0.6439
-5.4920 -0.5795 -0.6554
-4.9937 -0.0225 -0.6124
-4.8785 0.0943 -0.6226
-4.7434 0.2436 -0.6138
-4.6311 0.3677 -0.6064
-4.5640 0.4327 -0.6174
-4.4616 0.5527 -0.5992
-4.4164 0.5924 -0.6133
-4.2948 0.7275 -0.6043
-4.2048 0.8245 -0.6026
-4.1351 0.8968 -0.6059
-4.1100 0.9186 -0.6142
-4.0175 1.0258 -0.5998
-3.9991 1.0410 -0.6071
-3.9769 1.0653 -0.6062
-3.9341 1.1151 -0.5991
-3.9034 1.1437 -0.6060
-3.8690 1.1863 -0.5962
-3.8447 1.2083 -0.6027
-3.8329 1.2198 -0.6044
-3.8214 1.2314 -0.6055
-3.8076 1.2514 -0.5968
-3.7984 1.2585 -0.6013
-3.7886 1.2684 -0.6023
-3.7787 1.2793 -0.6015
-6.1544 -1.4261 -0.6476
-5.6959 -0.8982 -0.6230
-5.4368 -0.6112 -0.6273
-5.3120 -0.4929 -0.6612
-5.0686 -0.2060 -0.6375
-4.7727 0.1324 -0.6254
-4.5575 0.3814 -0.6119
-4.4006 0.5629 -0.6020
-4.2970 0.6751 -0.6078
-4.2569 0.7158 -0.6144
-4.2086 0.7731 -0.6093
-4.1351 0.8548 -0.6100
-4.0691 0.9318 -0.6049
-4.0443 0.9573 -0.6083
-4.0185 0.9866 -0.6075
-3.9949 1.0133 -0.6071
-3.9711 1.0420 -0.6037
-3.9518 1.0625 -0.6054
-3.9332 1.0831 -0.6058
-3.9131 1.1085 -0.6010
-3.8685 1.1554 -0.6058
-3.8395 1.1912 -0.6004
-3.8275 1.2040 -0.6014
-3.8168 1.2140 -0.6045
-3.8035 1.2336 -0.5970
-3.7937 1.2429 -0.5997
-3.7834 1.2550 -0.5986
-3.7745 1.2634 -0.6012
-3.7666 1.2689 -0.6065
-6.3811 -1.8652 -0.6835
-5.8410 -1.2107 -0.6500
-5.5295 -0.8434 -0.6465
-5.2395 -0.4906 -0.6263
-5.0843 -0.3161 -0.6374
-4.7373 0.1124 -0.6038
-4.6470 0.2137 -0.6107
-4.5548 0.3229 -0.6089
-4.4713 0.4234 -0.6047
-4.4023 0.5051 -0.6035
-4.3546 0.5548 -0.6129
-4.3014 0.6168 -0.6134
-4.2436 0.6903 -0.6045
-4.2088 0.7259 -0.6125
-4.1649 0.7804 -0.6077
-4.0390 0.9285 -0.6068
-3.9879 0.9909 -0.6029
-3.9677 1.0129 -0.6055
-3.9474 1.0368 -0.6053
-3.9079 1.0870 -0.5994
-3.8789 1.1165 -0.6062
-3.8499 1.1512 -0.6051
-3.8356 1.1701 -0.6017
-3.8225 1.1872 -0.5992
-3.8109 1.2004 -0.5995
-3.7995 1.2147 -0.5981
-3.7903 1.2223 -0.6030
-3.7814 1.2299 -0.6075
-2.8098 1.0377 0.1053
-2.8177 1.0322 0.1070
-2.8240 1.0231 0.1095
-2.8297 1.0118 0.1127
-2.8400 1.0087 0.1138
-2.8456 0.9952 0.1175
-2.8634 0.9789 0.1223
-2.8714 0.9667 0.1257
-2.8805 0.9558 0.1288
-2.8927 0.9519 0.1301
-2.9032 0.9423 0.1330
-2.9122 0.9259 0.1375
-2.9231 0.9131 0.1412
-2.9356 0.9037 0.1440
-2.9589 0.8694 0.1537
-2.9730 0.8581 0.1571
-2.9853 0.8311 0.1646
-3.0011 0.8200 0.1679
-3.0177 0.8090 0.1712
-3.0339 0.7870 0.1775
-3.0700 0.7434 0.1900
-3.0900 0.7273 0.1947
-3.1109 0.7124 0.1991
-3.1333 0.6846 0.2071
-3.1584 0.6374 0.2203
-3.1843 0.6111 0.2279
-3.2115 0.5861 0.2352
-3.2426 0.5451 0.2469
-3.2744 0.5130 0.2562
-3.3070 0.4865 0.2640
-3.3443 0.4464 0.2756
-3.3823 0.4129 0.2854
-3.4296 0.3532 0.3025
-3.4975 0.2380 0.3349
-3.7504 -0.0201 0.4096
-3.8376 -0.1163 0.4373
-3.9248 -0.2005 0.4618
-4.5030 -1.0978 0.7153
-4.7344 -1.3729 0.7941
-4.9873 -1.6562 0.8756
-5.1693 -1.7972 0.9174
-5.3254 -1.8845 0.9442
-2.8079 1.0379 0.0942
-2.8146 1.0300 0.0963
-2.8229 1.0246 0.0978
-2.8286 1.0133 0.1006
-2.8395 1.0114 0.1013
-2.8456 0.9991 0.1044
-2.8634 0.9829 0.1087
-2.8709 0.9697 0.1121
-2.8800 0.9588 0.1149
-2.8913 0.9527 0.1166
-2.9015 0.9420 0.1194
-2.9088 0.9200 0.1249
-2.9212 0.9118 0.1272
-2.9349 0.9070 0.1286
-2.9443 0.8821 0.1349
-2.9582 0.8729 0.1374
-2.9721 0.8606 0.1407
-2.9871 0.8505 0.1434
-3.0004 0.8238 0.1502
-3.0167 0.8107 0.1537
-3.0328 0.7877 0.1596
-3.0506 0.7703 0.1642
-3.0892 0.7317 0.1744
-3.1102 0.7071 0.1808
-3.1329 0.6751 0.1890
-3.1575 0.6423 0.1975
-3.1826 0.6237 0.2025
-3.2415 0.5506 0.2215
-3.2730 0.5209 0.2294
-3.3059 0.4924 0.2370
-3.3425 0.4557 0.2466
-3.3875 0.3938 0.2626
-3.4372 0.3283 0.2796
-3.5002 0.2317 0.3044
-3.5536 0.1807 0.3179
-3.6915 0.0229 0.3590
-3.7574 -0.0319 0.3737
-3.8464 -0.1305 0.3995
-3.9229 -0.1905 0.4156
-4.4897 -1.0632 0.6397
-4.6170 -1.1536 0.6642
-4.9332 -1.5524 0.7677
-5.2486 -1.9110 0.8613
-5.4372 -2.0415 0.8967
-2.8067 1.0393 0.0828
-2.8134 1.0314 0.0846
-2.8230 1.0283 0.0854
-2.8281 1.0160 0.0882
-2.8378 1.0118 0.0893
-2.8413 0.9938 0.0933
-2.8524 0.9909 0.0941
-2.8643 0.9892 0.0947
-2.8703 0.9726 0.0985
-2.8798 0.9630 0.1007
-2.8887 0.9500 0.1037
-2.9013 0.9462 0.1048
-2.9093 0.9267 0.1092
-2.9209 0.9162 0.1117
-2.9317 0.9003 0.1154
-2.9431 0.8833 0.1193
-2.9585 0.8809 0.1201
-2.9714 0.8642 0.1240
-2.9857 0.8497 0.1274
-2.9995 0.8266 0.1327
-3.0317 0.7873 0.1419
-3.0503 0.7822 0.1433
-3.0687 0.7607 0.1483
-3.1096 0.6932 0.1639
-3.1320 0.6799 0.1671
-3.1567 0.6451 0.1752
-3.1829 0.6149 0.1823
-3.2113 0.5816 0.1901
-3.2733 0.5180 0.2051
-3.3102 0.4707 0.2161
-3.3451 0.4449 0.2223
-3.3863 0.4003 0.2328
-3.4382 0.3267 0.2499
-3.5521 0.1885 0.2822
-3.6975 0.0120 0.3234
-3.7617 -0.0372 0.3352
-3.8625 -0.1609 0.3641
-3.9635 -0.2694 0.3896
-4.5293 -1.1272 0.5878
-4.7279 -1.3391 0.6377
-4.9975 -1.6482 0.7101
-5.3338 -2.0332 0.8003
-5.3400 -1.8784 0.7662
-2.7951 1.0414 0.0710
-2.8056 1.0406 0.0713
-2.8123 1.0329 0.0729
-2.8219 1.0298 0.0736
-2.8276 1.0187 0.0759
-2.8362 1.0122 0.0772
-2.8418 0.9989 0.0799
-2.8524 0.9949 0.0808
-2.8583 0.9795 0.0839
-2.8693 0.9744 0.0851
-2.8779 0.9626 0.0875
-2.8877 0.9520 0.0897
-2.8977 0.9403 0.0921
-2.9079 0.9276 0.0947
-2.9206 0.9206 0.0963
-2.9304 0.9014 0.1002
-2.9440 0.8935 0.1019
-2.9576 0.8833 0.1041
-2.9690 0.8589 0.1090
-2.9848 0.8523 0.1105
-2.9989 0.8315 0.1148
-3.0150 0.8174 0.1177
-3.0310 0.7925 0.1228
-3.0488 0.7754 0.1264
-3.0873 0.7297 0.1359
-3.1086 0.7054 0.1409
-3.1310 0.6868 0.1448
-3.1555 0.6543 0.1515
-3.1814 0.6264 0.1573
-3.2109 0.5816 0.1665
-3.2702 0.5354 0.1763
-3.3078 0.4831 0.1871
-3.3477 0.4343 0.1971
-3.3850 0.4067 0.2030
-3.4369 0.3336 0.2180
-3.5520 0.1920 0.2473
-3.6958 0.0207 0.2827
-3.7876 -0.0936 0.3063
-3.8643 -0.1592 0.3202
-3.9795 -0.2965 0.3486
-4.5045 -1.0712 0.5074
-4.7115 -1.2991 0.5547
-4.9592 -1.5713 0.6113
-5.2847 -1.9402 0.6878
-2.7967 1.0474 0.0587
-2.8044 1.0420 0.0597
-2.8118 1.0354 0.0609
-2.8202 1.0301 0.0619
-2.8283 1.0236 0.0631
-2.8345 1.0126 0.0650
-2.8397 0.9983 0.0675
-2.8513 0.9966 0.0679
-2.8593 0.9858 0.0699
-2.8678 0.9751 0.0718
-2.8748 0.9588 0.0747
-2.8875 0.9562 0.0752
-2.8967 0.9424 0.0777
-2.9073 0.9309 0.0798
-2.9187 0.9195 0.0818
-2.9292 0.9026 0.0848
-2.9420 0.8914 0.0869
-2.9538 0.8725 0.0902
-2.9822 0.8451 0.0952
-2.9974 0.8299 0.0980
-3.0142 0.8202 0.0998
-3.0299 0.7933 0.1046
-3.0477 0.7741 0.1080
-3.0664 0.7530 0.1118
-3.0865 0.7330 0.1155
-3.1078 0.7057 0.1203
-3.1306 0.6776 0.1254
-3.1556 0.6422 0.1317
-3.2095 0.5902 0.1412
-3.2692 0.5410 0.1502
-3.3061 0.4922 0.1589
-3.3479 0.4343 0.1693
-3.3893 0.3913 0.1770
-3.4426 0.3156 0.1905
-3.5613 0.1679 0.2171
-3.6889 0.0428 0.2397
-3.7892 -0.0923 0.2639
-3.8660 -0.1574 0.2758
-3.9964 -0.3251 0.3059
-4.5124 -1.0759 0.4398
-4.7083 -1.2823 0.4771
-4.9903 -1.6106 0.5362
-5.1950 -1.7836 0.5679
-2.8039 1.0446 0.0479
-2.8119 1.0392 0.0488
-2.8184 1.0304 0.0501
-2.8253 1.0217 0.0514
-2.8334 1.0142 0.0526
-2.8408 1.0045 0.0540
-2.8498 0.9971 0.0552
-2.8572 0.9853 0.0570
-2.8668 0.9769 0.0583
-2.8755 0.9653 0.0600
-2.8861 0.9570 0.0613
-2.8945 0.9411 0.0637
-2.9161 0.9161 0.0675
-2.9282 0.9049 0.0692
-2.9413 0.8948 0.0708
-2.9536 0.8783 0.0733
-2.9668 0.8619 0.0758
-2.9797 0.8379 0.0794
-3.0107 0.8014 0.0850
-3.0291 0.7974 0.0857
-3.0461 0.7676 0.0902
-3.0654 0.7519 0.0926
-3.0854 0.7247 0.0967
-3.1069 0.7104 0.0989
-3.1293 0.6941 0.1015
-3.1548 0.6451 0.1088
-3.1802 0.6281 0.1115
-3.2074 0.6050 0.1151
-3.2391 0.5600 0.1219
-3.2725 0.5206 0.1279
-3.3074 0.4856 0.1332
-3.3460 0.4437 0.1397
-3.3891 0.3938 0.1473
-3.4523 0.2835 0.1639
-3.4876 0.2838 0.1640
-3.6848 0.0576 0.1985
-3.7839 -0.0747 0.2186
-3.8756 -0.1727 0.2336
-3.9991 -0.3242 0.2567
-4.3598 -0.9197 0.3466
-4.5890 -1.2069 0.3902
-4.8035 -1.4373 0.4255
-5.0589 -1.7115 0.4674
-5.2767 -1.8988 0.4962
-2.7958 1.0525 0.0355
-2.8007 1.0425 0.0367
-2.8114 1.0418 0.0368
-2.8173 1.0319 0.0380
-2.8242 1.0233 0.0391
-2.8334 1.0181 0.0398
-2.8380 1.0028 0.0416
-2.8482 0.9977 0.0423
-2.8643 0.9754 0.0451
-2.8723 0.9616 0.0468
-2.8839 0.9557 0.0475
-2.8943 0.9454 0.0488
-2.9036 0.9296 0.0508
-2.9167 0.9239 0.0515
-2.9273 0.9072 0.0536
-2.9385 0.8896 0.0558
-2.9519 0.8775 0.0573
-2.9663 0.8666 0.0586
-2.9797 0.8461 0.0612
-2.9952 0.8322 0.0629
-3.0103 0.8087 0.0658
-3.0446 0.7622 0.0716
-3.0642 0.7478 0.0734
-3.0846 0.7345 0.0751
-3.1060 0.7118 0.0779
-3.1288 0.6872 0.0810
-3.1538 0.6501 0.0856
-3.1805 0.6186 0.0895
-3.2101 0.5779 0.0946
-3.2378 0.5676 0.0959
-3.2723 0.5212 0.1017
-3.3056 0.4947 0.1050
-3.3411 0.4665 0.1086
-3.3850 0.4117 0.1154
-3.4483 0.3000 0.1292
-3.5493 0.2102 0.1405
-3.6932 0.0411 0.1615
-3.7791 -0.0581 0.1739
-3.8736 -0.1626 0.1869
-4.0120 -0.3441 0.2095
-4.3754 -0.9409 0.2835
-4.7456 -1.4839 0.3509
-4.8461 -1.4995 0.3530
-5.1338 -1.8218 0.3932
-5.2503 -1.8428 0.3961
-5.3466 -1.8304 0.3948
-2.7938 1.0527 0.0241
-2.7995 1.0439 0.0249
-2.8109 1.0444 0.0249
-2.8130 1.0277 0.0265
-2.8237 1.0260 0.0266
-2.8335 1.0220 0.0270
-2.8413 1.0135 0.0278
-2.8476 1.0006 0.0291
-2.8531 0.9844 0.0306
-2.8647 0.9806 0.0310
-2.8730 0.9680 0.0322
-2.8833 0.9588 0.0331
-2.8910 0.9408 0.0349
-2.9033 0.9340 0.0355
-2.9145 0.9217 0.0367
-2.9263 0.9095 0.0379
-2.9378 0.8931 0.0394
-2.9515 0.8822 0.0405
-2.9658 0.8714 0.0415
-2.9949 0.8393 0.0446
-3.0095 0.8127 0.0472
-3.0270 0.8002 0.0484
-3.0445 0.7761 0.0507
-3.0634 0.7543 0.0528
-3.0836 0.7306 0.0551
-3.1052 0.7070 0.0574
-3.1286 0.6710 0.0609
-3.1533 0.6489 0.0630
-3.1787 0.6332 0.0645
-3.2094 0.5802 0.0696
-3.2374 0.5680 0.0708
-3.2728 0.5177 0.0756
-3.3475 0.4388 0.0832
-3.3856 0.4111 0.0859
-3.4480 0.3031 0.0963
-3.5053 0.2325 0.1031
-3.5660 0.1644 0.1097
-3.6891 0.0559 0.1201
-3.7867 -0.0707 0.1323
-3.8794 -0.1694 0.1419
-4.0002 -0.3130 0.1557
-4.4109 -1.0003 0.2221
-4.7131 -1.4126 0.2619
-5.1097 -1.7683 0.2961
-5.2464 -1.8223 0.3012
-2.7905 1.0506 0.0127
-2.8004 1.0488 0.0128
-2.8085 1.0435 0.0132
-2.8162 1.0372 0.0136
-2.8214 1.0253 0.0144
-2.8295 1.0179 0.0149
-2.8375 1.0095 0.0155
-2.8455 1.0001 0.0161
-2.8511 0.9840 0.0172
-2.8608 0.9759 0.0178
-2.8693 0.9633 0.0186
-2.8823 0.9608 0.0188
-2.8916 0.9473 0.0197
-2.9017 0.9340 0.0206
-2.9125 0.9207 0.0215
-2.9257 0.9130 0.0220
-2.9372 0.8966 0.0231
-2.9501 0.8826 0.0241
-2.9645 0.8718 0.0248
-2.9775 0.8494 0.0263
-2.9941 0.8432 0.0267
-3.0081 0.8114 0.0289
-3.0255 0.7969 0.0299
-3.0433 0.7751 0.0314
-3.0626 0.7598 0.0324
-3.0827 0.7330 0.0342
-3.1043 0.7138 0.0355
-3.1275 0.6822 0.0377
-3.1523 0.6539 0.0396
-3.1789 0.6249 0.0416
-3.2080 0.5888 0.0440
-3.2383 0.5602 0.0459
-3.2736 0.5123 0.0492
-3.3096 0.4751 0.0517
-3.3486 0.4350 0.0544
-3.3882 0.4024 0.0566
-3.4455 0.3144 0.0626
-3.5644 0.1725 0.0723
-3.7947 -0.0840 0.0897
-3.8897 -0.1860 0.0966
-4.0029 -0.3118 0.1051
-4.4380 -1.0430 0.1555
-4.5677 -1.1363 0.1617
-5.1059 -1.7482 0.2032
-5.2866 -1.8706 0.2112
-2.7914 1.0555 0.0008
-2.7971 1.0468 0.0012
-2.8066 1.0439 0.0012
