ply
format ascii 1.0
element vertex 2098
property float x
property float y
property float z
end_header
-4.0185 1.6613 -0.5921
-4.0095 1.6345 -0.5956
-3.9957 1.6019 -0.5914
-3.9728 1.5465 -0.5863
-3.9584 1.5053 -0.5902
-3.9502 1.4844 -0.5894
-3.9456 1.4683 -0.5936
-3.9364 1.4477 -0.5900
-3.9321 1.4329 -0.5935
-3.9237 1.4144 -0.5898
-3.9137 1.3859 -0.5922
-3.9060 1.3697 -0.5878
-3.8998 1.3555 -0.5857
-3.8958 1.3437 -0.5870
-3.8900 1.3307 -0.5845
-3.8887 1.3220 -0.5903
-3.8850 1.3115 -0.5912
-3.8818 1.3017 -0.5928
-4.9140 6.1844 2.1275
-5.2555 5.6515 0.5879
-5.0725 5.0552 0.4170
-5.0270 4.8471 0.3068
-4.9853 4.6559 0.2055
-5.1940 5.1052 0.1399
-5.1242 4.8436 0.0362
-5.3293 5.2571 -0.0600
-5.3919 5.3131 -0.1686
-4.8244 3.5497 -0.6018
-4.7374 3.3225 -0.6197
-4.6090 3.0236 -0.6045
-4.5242 2.8196 -0.6022
-4.4319 2.6097 -0.5859
-4.3510 2.3981 -0.6026
-4.2698 2.2014 -0.6017
-4.1964 2.0320 -0.5916
-4.1512 1.9186 -0.5956
-4.1200 1.8519 -0.5851
-4.1066 1.8140 -0.5912
-4.0731 1.7325 -0.5913
-4.0503 1.6855 -0.5817
-4.0440 1.6624 -0.5906
-4.0344 1.6356 -0.5944
-4.0218 1.6058 -0.5935
-4.0078 1.5754 -0.5895
-3.9852 1.5240 -0.5854
-3.9799 1.5066 -0.5907
-3.9706 1.4850 -0.5893
-3.9662 1.4696 -0.5946
-3.9593 1.4520 -0.5957
-3.9466 1.4288 -0.5868
-3.9400 1.4127 -0.5869
-3.9350 1.3987 -0.5891
-3.9246 1.3715 -0.5914
-3.9181 1.3572 -0.5895
-3.9138 1.3455 -0.5911
-3.9083 1.3329 -0.5900
-3.9026 1.3206 -0.5882
-3.8968 1.3086 -0.5858
-3.8964 1.3013 -0.5932
-5.4565 5.6533 0.4113
-5.4765 5.6037 0.3004
-5.4260 5.3875 0.1810
-4.8796 3.4520 -0.6383
-4.6750 3.0276 -0.5936
-4.4523 2.5223 -0.5958
-4.2961 2.1789 -0.5842
-4.2804 2.1297 -0.6004
-4.2424 2.0481 -0.5955
-4.1625 1.8693 -0.5932
-4.1375 1.8162 -0.5891
-4.1212 1.7769 -0.5922
-4.0991 1.7312 -0.5872
-4.0849 1.6973 -0.5893
-4.0732 1.6677 -0.5930
-4.0573 1.6339 -0.5905
-4.0468 1.6076 -0.5933
-4.0280 1.5726 -0.5846
-4.0097 1.5278 -0.5886
-4.0017 1.5078 -0.5910
-3.9936 1.4882 -0.5925
-3.9799 1.4634 -0.5852
-3.9702 1.4436 -0.5828
-3.9645 1.4283 -0.5856
-3.9587 1.4134 -0.5877
-3.9565 1.4022 -0.5949
-3.9486 1.3861 -0.5928
-3.9424 1.3721 -0.5929
-3.9317 1.3547 -0.5850
-3.9297 1.3450 -0.5909
-3.9219 1.3310 -0.5867
-3.9178 1.3202 -0.5883
-3.9135 1.3097 -0.5895
-3.9092 1.2995 -0.5901
-5.4744 5.3140 0.3070
-5.4064 5.0750 0.1917
-4.9309 3.4061 -0.6121
-4.6954 2.9114 -0.6092
-4.5215 2.5531 -0.5987
-4.3596 2.2145 -0.5951
-4.3245 2.1376 -0.5985
-4.2728 2.0394 -0.5851
-4.1907 1.8653 -0.5863
-4.1693 1.8191 -0.5875
-4.1481 1.7747 -0.5870
-4.1137 1.7004 -0.5892
-4.0960 1.6644 -0.5874
-4.0833 1.6356 -0.5899
-4.0553 1.5777 -0.5884
-4.0412 1.5501 -0.5858
-4.0305 1.5271 -0.5863
-4.0078 1.4819 -0.5832
-3.9971 1.4610 -0.5811
-3.9925 1.4466 -0.5866
-3.9820 1.4272 -0.5835
-3.9790 1.4152 -0.5904
-3.9708 1.3988 -0.5892
-3.9631 1.3834 -0.5881
-3.9592 1.3717 -0.5923
-3.9466 1.3532 -0.5826
-3.9451 1.3441 -0.5896
-3.9382 1.3311 -0.5877
-3.9318 1.3188 -0.5862
-3.9300 1.3103 -0.5919
-3.9248 1.2996 -0.5916
-5.5390 5.1987 0.3253
-5.4907 5.0142 0.2147
-5.9230 5.1763 -0.6473
-4.7819 2.9502 -0.6095
-4.6207 2.6258 -0.6167
-4.4424 2.2998 -0.5836
-4.3661 2.1405 -0.5939
-4.3038 2.0108 -0.6019
-4.2267 1.8711 -0.5861
-4.1739 1.7711 -0.5807
-4.1704 1.7509 -0.5972
-4.1418 1.7019 -0.5877
-4.0985 1.6249 -0.5772
-4.0795 1.5788 -0.5877
-4.0590 1.5454 -0.5787
-4.0610 1.5359 -0.5955
-4.0483 1.5120 -0.5939
-4.0321 1.4855 -0.5870
-4.0227 1.4664 -0.5878
-4.0165 1.4507 -0.5921
-4.0069 1.4325 -0.5911
-3.9951 1.4129 -0.5864
-3.9911 1.4005 -0.5920
-3.9830 1.3851 -0.5912
-3.9795 1.3738 -0.5966
-3.9670 1.3559 -0.5883
-3.9612 1.3436 -0.5893
-3.9581 1.3337 -0.5940
-3.9500 1.3204 -0.5906
-3.9432 1.3084 -0.5887
-5.7758 5.4407 0.3764
-5.4683 4.7487 0.2224
-5.9808 5.0553 -0.6033
-5.8309 4.7282 -0.6652
-4.8890 3.0152 -0.6170
-4.6821 2.6356 -0.6107
-4.5979 2.4835 -0.6052
-4.4987 2.3161 -0.5834
-4.4669 2.2465 -0.5969
-4.4118 2.1481 -0.5917
-4.3780 2.0810 -0.5972
-4.3315 2.0000 -0.5903
-4.2571 1.8693 -0.5807
-4.2135 1.7834 -0.5868
-4.1798 1.7140 -0.5953
-4.1570 1.6746 -0.5916
-4.1300 1.6320 -0.5818
-4.1047 1.5805 -0.5876
-4.0772 1.5299 -0.5869
-4.0664 1.5087 -0.5886
-4.0575 1.4897 -0.5916
-4.0382 1.4621 -0.5811
-4.0350 1.4495 -0.5896
-4.0215 1.4283 -0.5844
-4.0174 1.4157 -0.5908
-4.0027 1.3949 -0.5825
-3.9997 1.3840 -0.5894
-3.9882 1.3669 -0.5840
-3.9844 1.3559 -0.5888
-3.9768 1.3426 -0.5879
-3.9706 1.3307 -0.5885
-3.9628 1.3180 -0.5862
-3.9579 1.3075 -0.5877
-3.9535 1.2978 -0.5898
-5.7070 5.0741 0.3688
-5.5666 4.7347 0.2464
-5.6262 4.7722 0.1586
-5.9496 5.0354 -0.2389
-6.1427 5.1924 -0.4765
-6.1629 5.1422 -0.5888
-5.8861 4.6295 -0.6250
-5.1424 3.3290 -0.6220
-4.9678 3.0324 -0.6097
-4.8531 2.8310 -0.6104
-4.7384 2.6368 -0.6015
-4.6549 2.4918 -0.5998
-4.4652 2.1642 -0.5936
-4.4248 2.0909 -0.5969
-4.3747 2.0084 -0.5901
-4.2458 1.7862 -0.5853
-4.2090 1.7155 -0.5935
-4.1911 1.6823 -0.5959
-4.1682 1.6452 -0.5921
-4.1208 1.5611 -0.5933
-4.1035 1.5335 -0.5898
-4.0992 1.5184 -0.5996
-4.0733 1.4746 -0.5976
-4.0437 1.4306 -0.5874
-4.0227 1.3961 -0.5843
-4.0144 1.3813 -0.5847
-4.0097 1.3695 -0.5893
-3.9982 1.3533 -0.5842
-3.9963 1.3442 -0.5917
-3.9868 1.3302 -0.5882
-3.9794 1.3180 -0.5872
-3.9734 1.3071 -0.5878
-3.9680 1.2968 -0.5889
-5.7636 4.9697 0.3850
-5.7329 4.8410 0.2806
-5.6814 4.6796 0.1784
-5.8451 4.4636 -0.4747
-5.7678 4.2819 -0.5466
-5.7840 4.2416 -0.6366
-5.4056 3.6400 -0.6034
-5.2249 3.3364 -0.6093
-4.9009 2.8120 -0.5932
-4.8575 2.7196 -0.6209
-4.7653 2.5674 -0.6204
-4.5624 2.2561 -0.5874
-4.5025 2.1589 -0.5845
-4.4600 2.0859 -0.5883
-4.3744 1.9463 -0.5855
-4.3448 1.8945 -0.5890
-4.3193 1.8491 -0.5935
-4.2738 1.7838 -0.5799
-4.2556 1.7492 -0.5860
-4.2289 1.7070 -0.5833
-4.2213 1.6851 -0.5957
-4.1945 1.6453 -0.5898
-4.1766 1.6151 -0.5904
-4.1441 1.5607 -0.5912
-4.1113 1.5095 -0.5871
-4.0978 1.4875 -0.5866
-4.0951 1.4750 -0.5973
-4.0798 1.4528 -0.5931
-4.0687 1.4345 -0.5930
-4.0489 1.4015 -0.5934
-4.0396 1.3861 -0.5933
-4.0286 1.3700 -0.5905
-4.0197 1.3559 -0.5897
-4.0068 1.3396 -0.5830
-4.0015 1.3287 -0.5859
-3.9969 1.3185 -0.5893
-3.9930 1.3089 -0.5934
-3.9874 1.2986 -0.5948
-5.7695 4.7873 0.3908
-5.9646 5.0454 0.3254
-5.7797 4.6656 0.2023
-5.8940 4.7826 0.1170
-5.9910 4.8660 0.0231
-6.0836 4.8638 -0.1789
-5.8868 4.4962 -0.2598
-5.8553 4.3837 -0.3462
-5.8957 4.3776 -0.4414
-5.9123 4.3364 -0.5334
-5.7253 4.0135 -0.5742
-5.3908 3.4533 -0.6232
-4.9901 2.8470 -0.5930
-4.8599 2.6481 -0.5857
-4.8085 2.5530 -0.6056
-4.6383 2.2925 -0.5969
-4.5472 2.1623 -0.5797
-4.5199 2.1087 -0.5946
-4.4168 1.9538 -0.5853
-4.3530 1.8501 -0.5901
-4.2836 1.7477 -0.5814
-4.2468 1.6830 -0.5910
-4.2031 1.6159 -0.5890
-4.1595 1.5533 -0.5811
-4.1379 1.5129 -0.5901
-4.1080 1.4683 -0.5871
-4.0973 1.4503 -0.5888
-4.0880 1.4338 -0.5914
-4.0809 1.4194 -0.5958
-4.0581 1.3943 -0.5812
-4.0545 1.3834 -0.5885
-4.0501 1.3721 -0.5945
-4.0353 1.3543 -0.5871
-4.0259 1.3406 -0.5857
-4.0195 1.3291 -0.5877
-4.0163 1.3199 -0.5934
-4.0057 1.3065 -0.5890
-4.0007 1.2968 -0.5915
-5.9188 4.8546 0.4251
-6.0720 5.0301 0.3516
-5.8078 4.5414 0.2181
-5.9702 4.7271 0.1401
-5.9359 4.6068 0.0432
-5.9034 4.4921 -0.0495
-5.8721 4.3819 -0.1384
-5.9362 4.4106 -0.2315
-5.9774 4.4047 -0.3255
-6.0196 4.3989 -0.4215
-6.0105 4.3224 -0.5095
-6.0798 4.3510 -0.6136
-5.3506 3.2529 -0.6317
-5.1321 2.9426 -0.6108
-4.8390 2.4951 -0.6269
-4.7043 2.3143 -0.5993
-4.6308 2.2076 -0.5954
-4.5515 2.0770 -0.6132
-4.4789 1.9806 -0.5968
-4.4314 1.9132 -0.5923
-4.3382 1.7869 -0.5749
-4.3094 1.7440 -0.5751
-4.3041 1.7242 -0.5917
-4.2785 1.6864 -0.5912
-4.2562 1.6528 -0.5919
-4.2284 1.6154 -0.5862
-4.1795 1.5388 -0.5916
-4.1596 1.5120 -0.5877
-4.1324 1.4704 -0.5892
-4.1181 1.4501 -0.5879
-4.1123 1.4364 -0.5950
-4.0905 1.4120 -0.5837
-4.0756 1.3931 -0.5792
-4.0639 1.3688 -0.5888
-4.0534 1.3542 -0.5874
-4.0486 1.3435 -0.5923
-4.0428 1.3325 -0.5957
-4.0303 1.3179 -0.5900
-4.0251 1.3078 -0.5933
-4.0157 1.2958 -0.5905
-5.8694 4.8039 0.7023
-5.9600 4.8832 0.6324
-6.0575 4.9689 0.5581
-5.9186 4.6818 0.4293
-5.8870 4.5677 0.3305
-5.8796 4.4926 0.2385
-5.9191 4.4880 0.1522
-5.9352 4.4481 0.0631
-6.0006 4.4782 -0.0258
-6.0170 4.4375 -0.1168
-6.0334 4.3968 -0.2078
-6.0756 4.3907 -0.3015
-6.0922 4.3496 -0.3935
-6.1915 4.4152 -0.5002
-6.3606 4.5650 -0.6276
-5.5089 3.3944 -0.5781
-5.4483 3.2768 -0.6237
-4.8484 2.4459 -0.5980
-4.5717 2.0561 -0.5955
-4.4684 1.9147 -0.5886
-4.4236 1.8541 -0.5846
-4.3958 1.8114 -0.5894
-4.3606 1.7633 -0.5870
-4.3335 1.7240 -0.5884
-4.2061 1.5409 -0.5925
-4.1911 1.5183 -0.5943
-4.1702 1.4921 -0.5895
-4.1507 1.4678 -0.5847
-4.1358 1.4476 -0.5836
-4.1306 1.4345 -0.5916
-4.1203 1.4184 -0.5938
-4.1040 1.3989 -0.5889
-4.0893 1.3810 -0.5846
-4.0810 1.3677 -0.5870
-4.0684 1.3521 -0.5837
-4.0675 1.3439 -0.5937
-4.0581 1.3309 -0.5932
-4.0502 1.3192 -0.5940
-4.0362 1.3045 -0.5867
-5.8348 4.4592 0.5039
-5.8280 4.3883 0.4147
-5.9106 4.4495 0.3419
-5.9500 4.4450 0.2584
-6.0650 4.5458 0.1799
-6.0304 4.4345 0.0863
-6.0978 4.4644 -0.0021
-6.1680 4.4953 -0.0942
-6.2417 4.5282 -0.1904
-6.2588 4.4857 -0.2854
-6.4024 4.4702 -0.5885
-6.1074 4.0542 -0.6150
-5.6815 3.4998 -0.5863
-4.9491 2.4966 -0.6096
-4.6884 2.1526 -0.5988
-4.6147 2.0585 -0.5911
-4.4995 1.9102 -0.5810
-4.4389 1.8208 -0.5924
-4.3178 1.6580 -0.5916
-4.2597 1.5863 -0.5821
-4.2241 1.5361 -0.5853
-4.1867 1.4877 -0.5825
-4.1602 1.4496 -0.5859
-4.1304 1.4116 -0.5827
-4.1255 1.3998 -0.5903
-4.1137 1.3840 -0.5900
-4.0903 1.3540 -0.5879
-4.0859 1.3437 -0.5941
-4.0708 1.3279 -0.5876
-4.0626 1.3162 -0.5885
-4.0543 1.3049 -0.5887
-5.8944 0.0531 0.4168
-5.8451 0.1019 0.4087
-5.6669 0.2806 0.3794
-5.6460 0.3186 0.3773
-5.5600 0.4329 0.3654
-5.2594 0.7334 0.3158
-5.2291 0.7622 0.3107
-5.2177 0.7931 0.3104
-5.2162 0.8258 0.3127
-5.1876 0.8532 0.3079
-5.0931 0.8954 0.2881
-5.0688 0.9522 0.2867
-5.0366 0.9734 0.2805
-5.0436 1.0083 0.2850
-5.0058 1.0258 0.2772
-4.9576 1.0687 0.2688
-4.8776 1.1537 0.2560
-4.8624 1.1762 0.2541
-4.8370 1.1916 0.2491
-4.8277 1.2172 0.2489
-4.8238 1.2468 0.2503
-4.7853 1.2821 0.2437
-4.7602 1.2936 0.2385
-4.7441 1.3120 0.2360
-4.7291 1.3307 0.2338
-4.7198 1.3879 0.2362
-5.8287 0.1003 0.3662
-5.8144 0.1395 0.3659
-5.7837 0.1823 0.3621
-5.6662 0.2759 0.3427
-5.6111 0.3538 0.3360
-5.5591 0.3947 0.3274
-5.5389 0.4309 0.3255
-5.4832 0.4695 0.3159
-5.3347 0.6384 0.2950
-5.3081 0.6699 0.2913
-5.2409 0.7619 0.2830
-5.2338 0.7939 0.2837
-5.2093 0.8230 0.2804
-5.1765 0.8495 0.2750
-5.0730 0.9207 0.2571
-5.0583 0.9482 0.2558
-5.0519 0.9784 0.2565
-5.0241 1.0006 0.2519
-5.0137 1.0290 0.2517
-5.0063 1.0587 0.2521
-4.9830 1.0811 0.2486
-4.9415 1.0935 0.2402
-4.8822 1.1576 0.2316
-4.8669 1.1805 0.2299
-4.8415 1.1961 0.2254
-4.8275 1.2187 0.2239
-4.8054 1.2350 0.2201
-4.7934 1.2582 0.2191
-4.7726 1.2740 0.2156
-4.7705 1.3050 0.2174
-4.7526 1.3223 0.2146
-4.7340 1.3382 0.2117
-4.6987 1.4031 0.2085
-6.3651 4.8379 0.8275
-5.8855 0.0433 0.3352
-5.8797 0.0813 0.3365
-5.8308 0.1299 0.3298
-5.8238 0.1680 0.3308
-5.6371 0.3108 0.3026
-5.6236 0.3476 0.3022
-5.5765 0.3884 0.2954
-5.5311 0.4277 0.2888
-5.4886 0.4653 0.2827
-5.4759 0.5001 0.2824
-5.4341 0.5357 0.2763
-5.4435 0.5696 0.2803
-5.4308 0.6042 0.2800
-5.2383 0.7596 0.2514
-5.2138 0.7890 0.2484
-5.1970 0.8191 0.2469
-5.1526 0.8431 0.2396
-5.1300 0.8705 0.2368
-5.0704 0.9516 0.2300
-5.0485 0.9768 0.2273
-5.0248 1.0007 0.2241
-5.0034 1.0248 0.2213
-4.9930 1.0531 0.2210
-4.9641 1.0725 0.2165
-4.9442 1.0954 0.2140
-4.9155 1.1456 0.2114
-4.8820 1.1586 0.2055
-4.8611 1.1781 0.2026
-4.8469 1.2013 0.2012
-4.8163 1.2125 0.1958
-4.8043 1.2360 0.1949
-4.7762 1.2468 0.1900
-4.7741 1.2775 0.1915
-4.7623 1.3004 0.1906
-4.7419 1.3153 0.1875
-4.7256 1.4007 0.1897
-4.7189 1.4284 0.1901
-6.7216 5.1557 0.8292
-6.3700 4.8738 0.7408
-5.8855 0.0371 0.2949
-5.8871 0.0733 0.2971
-5.8220 0.1263 0.2885
-5.8149 0.1644 0.2894
-5.7522 0.2141 0.2810
-5.7000 0.2600 0.2743
-5.6082 0.3453 0.2628
-5.5493 0.3875 0.2547
-5.5303 0.4238 0.2533
-5.5044 0.4603 0.2507
-5.4612 0.4973 0.2451
-5.4670 0.5312 0.2480
-5.4301 0.5665 0.2435
-5.4016 0.6008 0.2403
-5.3891 0.6348 0.2400
-5.3554 0.6677 0.2358
-5.2802 0.7293 0.2259
-5.2444 0.7585 0.2212
-5.2155 0.7875 0.2177
-5.1901 0.8163 0.2148
-5.1703 0.8455 0.2129
-5.1391 0.8716 0.2088
-5.1363 0.9041 0.2101
-5.0639 0.9489 0.1997
-5.0320 0.9706 0.1953
-5.0145 0.9966 0.1936
-5.0041 1.0251 0.1933
-4.9710 1.0435 0.1885
-4.9706 1.0760 0.1902
-4.9439 1.0958 0.1866
-4.9252 1.1189 0.1846
-4.9000 1.1377 0.1811
-4.8761 1.1562 0.1779
-4.8664 1.1828 0.1777
-4.8411 1.1989 0.1741
-4.8134 1.2121 0.1699
-4.8067 1.2398 0.1702
-4.7875 1.2578 0.1678
-4.7685 1.2752 0.1654
-4.7416 1.3177 0.1630
-4.7130 1.3241 0.1583
-4.6974 1.3417 0.1565
-4.7200 1.3984 0.1637
-4.7108 1.4234 0.1634
-5.8930 0.0287 0.2552
-5.8529 0.0762 0.2512
-5.8556 0.1122 0.2533
-5.8234 0.1568 0.2505
-5.6420 0.3358 0.2309
-5.5938 0.3777 0.2254
-5.5543 0.4172 0.2212
-5.5094 0.4561 0.2161
-5.4779 0.4927 0.2129
-5.4592 0.5280 0.2117
-5.4464 0.5630 0.2114
-5.3927 0.6321 0.2064
-5.2086 0.7847 0.1851
-5.1833 0.8135 0.1826
-5.1814 0.8465 0.1839
-5.1564 0.8745 0.1813
-5.1213 0.8991 0.1771
-5.0979 0.9258 0.1747
-5.0757 0.9521 0.1725
-5.0397 0.9730 0.1679
-5.0291 1.0020 0.1677
-5.0115 1.0282 0.1662
-4.9805 1.0479 0.1623
-4.9672 1.0748 0.1616
-4.9314 1.1230 0.1583
-4.8996 1.1384 0.1541
-4.8869 1.1639 0.1534
-4.8302 1.2259 0.1475
-4.8036 1.2394 0.1441
-4.7836 1.2569 0.1418
-4.7847 1.2910 0.1436
-4.7753 1.3168 0.1433
-4.7445 1.3232 0.1389
-4.7145 1.3961 0.1377
-4.7118 1.4282 0.1388
-5.8231 0.1512 0.2097
-5.6920 0.2873 0.1978
-5.5856 0.3744 0.1872
-5.5521 0.4133 0.1843
-5.5202 0.4513 0.1816
-5.4816 0.4888 0.1780
-5.4515 0.5249 0.1754
-5.4625 0.5595 0.1782
-5.4315 0.5949 0.1755
-5.3952 0.6293 0.1721
-5.2898 0.7259 0.1620
-5.2326 0.7866 0.1569
-5.1745 0.8436 0.1514
-5.1537 0.8727 0.1498
-5.1187 0.8974 0.1462
-5.0296 1.0020 0.1386
-5.0012 1.0239 0.1357
-4.9713 1.0441 0.1326
-4.9456 1.0650 0.1300
-4.9506 1.1005 0.1320
-4.9403 1.1287 0.1318
-4.9029 1.1413 0.1274
-4.8837 1.1631 0.1257
-4.8628 1.1832 0.1237
-4.8321 1.1960 0.1202
-4.8225 1.2222 0.1199
-4.8050 1.2424 0.1184
-4.7806 1.2566 0.1158
-4.7738 1.2844 0.1160
-4.7576 1.3040 0.1146
-4.7415 1.3233 0.1132
-4.7256 1.3421 0.1119
-4.7272 1.3778 0.1134
-4.7220 1.4075 0.1139
-4.7150 1.4356 0.1141
-5.8289 0.1070 0.1681
-5.8055 0.1495 0.1668
-5.7737 0.1934 0.1647
-5.6679 0.2864 0.1561
-5.5184 0.4128 0.1439
-5.5180 0.4475 0.1449
-5.4864 0.4848 0.1426
-5.4380 0.5219 0.1385
-5.4365 0.5566 0.1394
-5.4069 0.5916 0.1373
-5.3942 0.6263 0.1369
-5.2782 0.7225 0.1274
-5.2032 0.7803 0.1210
-5.2053 0.8143 0.1223
-5.1717 0.8417 0.1195
-5.1520 0.8711 0.1183
-5.1201 0.8968 0.1156
-5.0095 1.0273 0.1076
-4.9843 1.0500 0.1056
-4.9480 1.0665 0.1022
-4.9472 1.0993 0.1031
-4.9340 1.1261 0.1025
-4.9302 1.1580 0.1030
-4.8987 1.1735 0.1001
-4.8568 1.1808 0.0958
-4.8209 1.1899 0.0923
-4.8087 1.2141 0.0917
-4.8045 1.2441 0.0921
-4.7871 1.2640 0.0908
-4.7655 1.2799 0.0890
-4.7587 1.3077 0.0891
-4.7309 1.3163 0.0864
-5.8608 0.0557 0.1285
-5.7586 0.2280 0.1236
-5.6665 0.2817 0.1170
-5.6525 0.3201 0.1167
-5.5162 0.4790 0.1087
-5.4473 0.5180 0.1038
-5.4344 0.5532 0.1034
-5.4337 0.5885 0.1041
-5.3133 0.6890 0.0962
-5.2004 0.7781 0.0887
-5.1245 0.8634 0.0841
-5.1092 0.8929 0.0835
-5.0900 0.9211 0.0825
-5.0949 0.9565 0.0836
-5.0560 0.9775 0.0808
-4.9953 1.0215 0.0767
-4.9722 1.0449 0.0753
-4.9513 1.0685 0.0740
-4.9315 1.0920 0.0729
-4.9278 1.1235 0.0732
-4.9027 1.1432 0.0716
-4.8753 1.1604 0.0696
-4.8562 1.1819 0.0685
-4.8357 1.2015 0.0672
-4.8030 1.2450 0.0654
-4.7813 1.2616 0.0639
-4.7718 1.2876 0.0637
-4.7505 1.3031 0.0622
-4.7195 1.3087 0.0598
-4.7120 1.3351 0.0597
-4.7200 1.3773 0.0613
-5.7961 0.1401 0.0837
-5.7644 0.1843 0.0823
-5.7031 0.2336 0.0793
-5.6816 0.3107 0.0790
-5.6380 0.3539 0.0769
-5.5950 0.3957 0.0749
-5.5811 0.4337 0.0745
-5.4321 0.5499 0.0672
-5.4436 0.5853 0.0683
-5.3952 0.6204 0.0658
-5.3595 0.6544 0.0641
-5.3102 0.6863 0.0616
-5.2165 0.7787 0.0572
-5.1734 0.8053 0.0550
-5.1836 0.8412 0.0560
-5.1545 0.8692 0.0547
-5.1348 0.8986 0.0539
-5.1154 0.9277 0.0531
-5.0722 0.9486 0.0508
-5.0572 0.9775 0.0502
-5.0354 1.0036 0.0493
-4.9611 1.0735 0.0457
-4.9543 1.1042 0.0457
-4.9280 1.1245 0.0444
-4.9021 1.1439 0.0431
-4.8828 1.1663 0.0422
-4.8619 1.1870 0.0412
-4.8404 1.2064 0.0402
-4.8200 1.2258 0.0392
-4.8024 1.2466 0.0385
-4.7756 1.2593 0.0370
-4.7711 1.2895 0.0371
-4.7499 1.3052 0.0361
-4.7330 1.3240 0.0353
-4.7220 1.3479 0.0349
-4.7168 1.3775 0.0350
-6.2951 4.9110 0.1712
-5.8446 0.0848 0.0435
-5.5325 0.3986 0.0337
-5.5259 0.4346 0.0336
-5.5000 0.4723 0.0328
-5.4316 0.5116 0.0306
-5.4187 0.5468 0.0303
-5.4058 0.5821 0.0299
-5.3645 0.6167 0.0286
-5.2390 0.7457 0.0247
-5.2229 0.7778 0.0242
-5.1882 0.8063 0.0231
-5.1806 0.8392 0.0230
-5.1516 0.8673 0.0221
-5.1319 0.8968 0.0215
-5.1124 0.9260 0.0209
-5.0921 0.9544 0.0203
-4.9716 1.0790 0.0165
-4.9321 1.0935 0.0152
-4.8931 1.1398 0.0140
-4.8802 1.1660 0.0136
-4.8484 1.2136 0.0127
-4.8193 1.2272 0.0117
-4.8043 1.2501 0.0113
-4.7817 1.2665 0.0106
-4.7603 1.2828 0.0099
-4.7558 1.3132 0.0098
-4.7204 1.3496 0.0087
-4.7111 1.3751 0.0085
-5.9877 -0.0388 0.0027
-5.7529 0.1389 -0.0006
-5.7717 0.1713 -0.0006
-5.7568 0.2120 -0.0010
-5.7090 0.2587 -0.0018
-5.6641 0.3035 -0.0025
-5.6648 0.3407 -0.0027
-5.6354 0.3820 -0.0032
-5.5847 0.4248 -0.0039
-5.4341 0.5430 -0.0061
-5.3870 0.5789 -0.0068
-5.3742 0.6139 -0.0071
-5.3614 0.6489 -0.0074
-5.3262 0.6823 -0.0080
-5.2935 0.7148 -0.0085
-5.1365 0.8625 -0.0109
-5.1129 0.8909 -0.0113
-5.0966 0.9206 -0.0116
-5.0666 0.9456 -0.0120
-5.0554 0.9761 -0.0123
-4.9758 1.0471 -0.0135
-4.9548 1.0714 -0.0139
-4.9350 1.0956 -0.0142
-4.9181 1.1208 -0.0145
-4.9050 1.1477 -0.0148
-4.8821 1.1684 -0.0151
-4.8498 1.1820 -0.0155
-4.8397 1.2093 -0.0158
-4.8323 1.2386 -0.0160
-4.7713 1.2947 -0.0170
-4.7525 1.3130 -0.0172
-4.7290 1.3263 -0.0176
-4.7261 1.3583 -0.0178
-4.7142 1.3818 -0.0180
-5.8528 0.0701 -0.0427
-5.7847 0.1252 -0.0425
-5.7084 0.2535 -0.0433
-5.7099 0.2910 -0.0439
-5.6709 0.3349 -0.0439
-5.6335 0.3776 -0.0440
-5.4948 0.5009 -0.0437
-5.4383 0.5393 -0.0434
-5.3611 0.6106 -0.0433
-5.3483 0.6455 -0.0436
-5.2859 0.7117 -0.0437
-5.2177 0.7732 -0.0436
-5.1846 0.8370 -0.0440
-5.1505 0.8645 -0.0439
-5.1349 0.8955 -0.0441
-5.1143 0.9248 -0.0443
-5.0910 0.9528 -0.0443
-5.0448 0.9720 -0.0439
-5.0222 0.9980 -0.0439
-4.9693 1.0445 -0.0438
-4.9521 1.0706 -0.0439
-4.9028 1.1133 -0.0438
-4.8835 1.1362 -0.0439
-4.8679 1.1609 -0.0440
-4.8577 1.1887 -0.0443
-4.8125 1.2260 -0.0441
-4.7877 1.2760 -0.0445
-4.7704 1.2965 -0.0446
-4.7393 1.3041 -0.0442
-4.7347 1.3345 -0.0446
-4.7179 1.3536 -0.0446
-4.7084 1.3794 -0.0449
-4.6974 1.4036 -0.0450
-5.7308 0.2439 -0.0860
-5.6781 0.3289 -0.0860
-5.6112 0.3757 -0.0844
-5.5677 0.4178 -0.0836
-5.4489 0.5355 -0.0816
-5.4236 0.5721 -0.0815
-5.4103 0.6084 -0.0818
-5.3906 0.6443 -0.0819
-5.3278 0.6771 -0.0801
-5.2784 0.7086 -0.0789
-5.1723 0.8330 -0.0776
-5.1110 0.8882 -0.0764
-5.1034 0.9208 -0.0769
-5.0608 0.9425 -0.0757
-5.0457 0.9719 -0.0758
-5.0269 0.9996 -0.0757
-5.0008 1.0238 -0.0752
-4.9356 1.0631 -0.0735
-4.9314 1.0951 -0.0741
-4.9181 1.1225 -0.0743
-4.8924 1.1425 -0.0737
-4.8908 1.1764 -0.0745
-4.8655 1.1953 -0.0739
-4.8492 1.2193 -0.0738
-4.8312 1.2417 -0.0736
-4.8177 1.2669 -0.0737
-4.7892 1.2796 -0.0728
-4.7669 1.2962 -0.0723
-4.7449 1.3119 -0.0718
-4.7216 1.3254 -0.0712
-4.7146 1.3536 -0.0716
-4.7145 1.3892 -0.0725
-4.6979 1.4079 -0.0722
-6.0780 4.6248 -0.2074
-6.0664 4.7539 -0.2100
-5.6986 0.2447 -0.1270
-5.6678 0.2877 -0.1264
-5.6691 0.3253 -0.1278
-5.6318 0.3684 -0.1268
-5.3734 0.6046 -0.1175
-5.2958 0.7078 -0.1158
-5.2688 0.7407 -0.1152
-5.1286 0.8917 -0.1109
-5.0886 0.9157 -0.1091
-5.0848 0.9495 -0.1100
-5.0128 1.0288 -0.1078
-4.9831 1.0511 -0.1066
-4.9413 1.1008 -0.1055
-4.9216 1.1253 -0.1050
-4.8845 1.1738 -0.1042
-4.8653 1.1967 -0.1037
-4.8489 1.2209 -0.1034
-4.8251 1.2392 -0.1025
-4.8040 1.2585 -0.1017
-4.7915 1.2839 -0.1017
-4.7708 1.3022 -0.1010
-4.7415 1.3117 -0.0993
-4.7143 1.3215 -0.0979
-4.6978 1.3403 -0.0974
-4.7172 1.3957 -0.1006
-6.1224 4.7382 -0.3076
-6.0417 -0.0844 -0.1874
-5.7787 0.1846 -0.1746
-5.6909 0.2785 -0.1706
-5.5575 0.4474 -0.1655
-5.4381 0.5286 -0.1580
-5.3839 0.5658 -0.1546
-5.3280 0.6718 -0.1540
-5.1598 0.8627 -0.1467
-5.1263 0.8900 -0.1447
-5.0932 0.9162 -0.1428
-5.0740 0.9454 -0.1423
-5.0700 0.9795 -0.1434
-5.0397 1.0040 -0.1417
-5.0097 1.0275 -0.1399
-4.9492 1.0705 -0.1361
-4.9222 1.0917 -0.1346
-4.9178 1.1241 -0.1356
-4.8860 1.1410 -0.1333
-4.8694 1.1657 -0.1329
-4.8504 1.1885 -0.1321
-4.8486 1.2225 -0.1334
-4.7954 1.2541 -0.1299
-4.7698 1.2687 -0.1281
-4.7648 1.2997 -0.1290
-4.7317 1.3057 -0.1262
-4.7221 1.3319 -0.1264
-4.7164 1.3621 -0.1272
-6.1923 4.5890 -0.4044
-6.1356 4.6388 -0.4013
-6.0808 4.6891 -0.3984
-6.0267 4.7376 -0.3955
-5.9764 0.0095 -0.2338
-5.6660 0.2776 -0.2110
-5.6434 0.3192 -0.2105
-5.6064 0.3622 -0.2084
-5.5709 0.4041 -0.2064
-5.5281 0.4832 -0.2055
-5.4870 0.5230 -0.2027
-5.3629 0.5982 -0.1919
-5.3278 0.6331 -0.1896
-5.3098 0.6679 -0.1893
-5.2918 0.7025 -0.1890
-5.2943 0.7391 -0.1912
-5.1996 0.7979 -0.1831
-5.0517 0.9727 -0.1747
-5.0094 1.0274 -0.1726
-4.9917 1.0553 -0.1719
-4.8482 1.2241 -0.1638
-4.8177 1.2378 -0.1609
-4.8100 1.2677 -0.1616
-4.7924 1.2897 -0.1606
-4.7693 1.3063 -0.1588
-4.7394 1.3156 -0.1557
-4.7115 1.3250 -0.1529
-6.1044 4.7648 -0.5017
-6.0486 4.8128 -0.4976
-6.1394 -0.1736 -0.2951
-6.0578 -0.0630 -0.2901
-5.9769 0.0024 -0.2824
-5.9601 0.0482 -0.2829
-5.8843 0.1084 -0.2756
-5.7447 0.2190 -0.2622
-5.7124 0.2640 -0.2603
-5.6647 0.3107 -0.2563
-5.6431 0.3525 -0.2557
-5.6128 0.3949 -0.2540
-5.5610 0.4385 -0.2492
-5.5055 0.4806 -0.2437
-5.3949 0.5953 -0.2348
-5.2814 0.7353 -0.2270
-5.2736 0.7711 -0.2281
-5.2458 0.8039 -0.2261
-5.1986 0.8320 -0.2210
-5.1910 0.8670 -0.2221
-5.0792 0.9104 -0.2085
-5.0364 0.9322 -0.2036
-5.0410 0.9685 -0.2066
-5.0062 1.0261 -0.2052
-4.9850 1.0526 -0.2037
-4.9666 1.0797 -0.2027
-4.9315 1.0978 -0.1987
-4.8680 1.1675 -0.1939
-4.8490 1.1906 -0.1925
-4.8327 1.2150 -0.1917
-4.8198 1.2414 -0.1915
-4.7988 1.2613 -0.1897
-4.7757 1.2785 -0.1874
-4.7552 1.2969 -0.1855
-4.7382 1.3175 -0.1844
-4.7081 1.3249 -0.1804
-4.7034 1.4299 -0.1863
-6.6423 4.1243 -0.6390
-6.7293 4.3932 -0.6687
-6.4124 4.3978 -0.6227
-6.3004 4.3725 -0.6047
-6.2909 4.5079 -0.6119
-6.2077 4.5192 -0.6004
-6.1514 4.5722 -0.5955
-6.0738 4.5824 -0.5849
-6.0617 4.7133 -0.5913
-6.0077 4.7629 -0.5866
-6.0646 -0.1145 -0.3387
-6.0367 -0.0640 -0.3376
-5.9984 -0.0109 -0.3348
-5.8113 0.1594 -0.3148
-5.6879 0.3018 -0.3038
-5.6186 0.3509 -0.2954
-5.6039 0.3912 -0.2958
-5.5739 0.4329 -0.2937
-5.5593 0.4728 -0.2940
-5.5106 0.5143 -0.2886
-5.4046 0.5920 -0.2759
-5.3568 0.6281 -0.2703
-5.3486 0.6646 -0.2715
-5.3079 0.6988 -0.2670
-5.2636 0.7310 -0.2616
-5.2223 0.7981 -0.2594
-5.2400 0.8384 -0.2654
-5.1932 0.8661 -0.2593
-5.0690 0.9418 -0.2433
-5.0341 0.9657 -0.2390
-5.0030 1.0248 -0.2379
-4.9845 1.0526 -0.2368
-4.9705 1.0821 -0.2365
-4.9416 1.1037 -0.2331
-4.9236 1.1301 -0.2319
-4.8505 1.1580 -0.2213
-4.8427 1.1881 -0.2221
-4.8214 1.2089 -0.2199
-4.8053 1.2327 -0.2189
-4.8089 1.2715 -0.2223
-4.8010 1.3019 -0.2232
-4.7619 1.3055 -0.2167
-4.7322 1.3150 -0.2122
-4.7314 1.4259 -0.2202
-4.7212 1.4538 -0.2204
-5.8183 4.4106 -0.6258
-6.0328 -0.1118 -0.3840
-6.0262 -0.0683 -0.3863
-5.9880 -0.0152 -0.3831
-5.9097 0.0480 -0.3726
-5.8932 0.0931 -0.3730
-5.8290 0.1492 -0.3648
-5.8038 0.1951 -0.3636
-5.7531 0.2454 -0.3576
-5.6865 0.2967 -0.3484
-5.6316 0.3441 -0.3414
-5.5949 0.3875 -0.3376
-5.5953 0.4264 -0.3409
-5.5291 0.4707 -0.3313
-5.4945 0.5110 -0.3277
-5.4213 0.5887 -0.3195
-5.3355 0.6611 -0.3083
-5.3050 0.6959 -0.3050
-5.2919 0.7317 -0.3054
-5.2530 0.7640 -0.3002
-5.2273 0.8343 -0.3009
-5.1442 0.8537 -0.2859
-5.0694 0.9413 -0.2781
-5.0540 0.9721 -0.2776
-5.0157 0.9941 -0.2717
-4.9664 1.0806 -0.2690
-4.9455 1.1064 -0.2669
-4.9060 1.1573 -0.2633
-4.8739 1.1740 -0.2582
-4.8422 1.1894 -0.2531
-4.8342 1.2198 -0.2540
-4.8016 1.2320 -0.2485
-4.7865 1.2562 -0.2475
-4.7867 1.2927 -0.2505
-4.7740 1.3188 -0.2502
-4.7263 1.3126 -0.2401
-5.8289 2.8832 -0.5915
-5.8177 2.9707 -0.5965
-5.7272 3.1609 -0.5941
-5.7152 3.2505 -0.5992
-5.6896 3.3204 -0.5998
-5.6509 3.3692 -0.5961
-5.6126 3.4169 -0.5924
-5.5874 3.4858 -0.5930
-5.5871 3.6002 -0.6025
-5.5744 3.6947 -0.6077
-5.5745 3.8164 -0.6179
-5.5352 3.8612 -0.6137
-5.8832 0.0890 -0.4199
-5.8565 0.1365 -0.4182
-5.7762 0.1949 -0.4053
-5.7514 0.2400 -0.4038
-5.6772 0.2929 -0.3918
-5.6160 0.3413 -0.3823
-5.5708 0.3857 -0.3761
-5.5712 0.4241 -0.3798
-5.5278 0.4666 -0.3738
-5.5059 0.5065 -0.3726
-5.4716 0.5464 -0.3684
-5.4512 0.5853 -0.3674
-5.4175 0.6235 -0.3633
-5.3670 0.6598 -0.3551
-5.3141 0.6940 -0.3462
-5.2708 0.7643 -0.3429
-5.2323 0.7959 -0.3370
-5.2446 0.8359 -0.3435
-5.2162 0.8683 -0.3401
-5.1332 0.8861 -0.3228
-5.1162 0.9182 -0.3219
-5.0588 0.9733 -0.3139
-5.0388 1.0026 -0.3121
-4.9824 1.0521 -0.3038
-4.9710 1.0833 -0.3041
-4.9352 1.1018 -0.2976
-4.9138 1.1265 -0.2950
-4.8900 1.1490 -0.2917
-4.8581 1.1655 -0.2860
-4.8533 1.1984 -0.2879
-4.8311 1.2195 -0.2848
-4.8092 1.2398 -0.2817
-4.7963 1.2664 -0.2812
-4.7749 1.2855 -0.2781
-4.7544 1.3046 -0.2752
-4.7397 1.3280 -0.2740
-4.7133 1.4536 -0.2797
-5.4304 3.4429 -0.6287
-5.5687 0.4591 -0.4273
-5.4971 0.5029 -0.4134
-5.4630 0.5429 -0.4088
-5.4364 0.5818 -0.4060
-5.3907 0.6196 -0.3982
-5.3171 0.6916 -0.3867
-5.2423 0.7583 -0.3745
-5.1993 0.7887 -0.3666
-5.1867 0.8231 -0.3669
-5.1389 0.8863 -0.3612
-5.0434 0.9676 -0.3451
-5.0316 0.9997 -0.3454
-4.9904 1.0196 -0.3369
-4.9896 1.0556 -0.3404
-4.9597 1.0783 -0.3350
-4.9526 1.1116 -0.3367
-4.9037 1.1219 -0.3252
-4.8834 1.1463 -0.3225
-4.8759 1.1781 -0.3239
-4.8501 1.1980 -0.3193
-4.8029 1.2372 -0.3112
-4.8004 1.2720 -0.3142
-4.7718 1.2856 -0.3083
-4.7638 1.3158 -0.3093
-4.7335 1.3255 -0.3026
-4.7144 1.4592 -0.3115
-5.4279 2.4983 -0.6021
-5.3778 2.5988 -0.5996
-5.3572 2.6548 -0.6001
-5.3367 2.7109 -0.6007
-5.3077 2.7536 -0.5977
-5.2790 2.7956 -0.5946
-5.2587 2.8510 -0.5951
-5.2465 2.9207 -0.5992
-5.2340 2.9912 -0.6033
-5.2135 3.0473 -0.6039
-5.1776 3.0725 -0.5972
-5.1649 3.1436 -0.6013
-5.4884 0.5383 -0.4588
-5.4739 0.5781 -0.4591
-5.4330 0.6173 -0.4519
-5.3685 0.6539 -0.4377
-5.2897 0.7242 -0.4233
-5.2394 0.7557 -0.4125
-5.2737 0.7986 -0.4272
-5.2005 0.8619 -0.4135
-5.1688 0.8926 -0.4080
-5.1283 0.9196 -0.3995
-5.0481 0.9687 -0.3822
-5.0209 0.9954 -0.3775
-4.9799 1.0153 -0.3681
-4.9642 1.0445 -0.3669
-4.9571 1.0776 -0.3687
-4.9457 1.1087 -0.3690
-4.9106 1.1267 -0.3610
-4.8961 1.1551 -0.3601
-4.8568 1.1676 -0.3503
-4.8436 1.1953 -0.3497
-4.8240 1.2183 -0.3467
-4.7941 1.2328 -0.3399
-4.7861 1.2631 -0.3410
-4.7624 1.2804 -0.3363
-4.7653 1.3200 -0.3416
-4.7274 1.3230 -0.3311
-4.7110 1.4599 -0.3420
-5.9534 -0.0753 -0.5729
-5.9468 -0.0321 -0.5762
-5.9093 0.0202 -0.5710
-5.8622 0.0743 -0.5629
-5.2243 0.7888 -0.4515
-5.1914 0.8206 -0.4451
-5.1692 0.8535 -0.4422
-5.1379 0.8836 -0.4361
-5.1069 0.9127 -0.4300
-5.0609 0.9358 -0.4185
-5.0616 0.9729 -0.4233
-5.0495 1.0059 -0.4236
-5.0100 1.0277 -0.4139
-4.9787 1.0885 -0.4116
-4.9312 1.1019 -0.3984
-4.9342 1.1408 -0.4042
-4.8861 1.1503 -0.3902
-4.8783 1.1826 -0.3918
-4.8376 1.2300 -0.3849
-4.8125 1.2488 -0.3794
-4.7908 1.2693 -0.3751
-4.7616 1.2824 -0.3676
-4.7513 1.3106 -0.3679
-4.7387 1.3367 -0.3672
-5.1754 2.1238 -0.6023
-5.1582 2.1708 -0.6028
-5.1409 2.2178 -0.6032
-5.1237 2.2648 -0.6037
-5.0887 2.2856 -0.5953
-5.0659 2.3229 -0.5927
-5.0491 2.3689 -0.5932
-5.0492 2.4433 -0.6025
-5.0321 2.4901 -0.6029
-5.0086 2.6040 -0.6097
-4.9913 2.6512 -0.6102
-4.9688 2.6878 -0.6077
-4.9516 2.7348 -0.6081
-5.7763 0.0516 -0.5814
-5.7270 0.1037 -0.5715
-5.6628 0.1581 -0.5568
-5.6630 0.1959 -0.5620
-5.6554 0.2359 -0.5648
-5.6250 0.2804 -0.5604
-5.6024 0.3230 -0.5584
-5.5947 0.3632 -0.5612
-5.5648 0.4063 -0.5567
-5.2059 0.7839 -0.4845
-5.1930 0.8191 -0.4849
-5.0218 0.9952 -0.4499
-4.9766 1.0140 -0.4369
-4.9686 1.0470 -0.4386
-4.9536 1.0769 -0.4375
-4.9353 1.1048 -0.4350
-4.9130 1.1300 -0.4307
-4.8860 1.1515 -0.4244
-4.8814 1.1861 -0.4275
-4.8023 1.2067 -0.4031
-4.8005 1.2420 -0.4072
-4.7813 1.2641 -0.4036
-4.7631 1.2864 -0.4004
-4.7473 1.3101 -0.3982
-4.7370 1.3384 -0.3985
-4.8914 2.6244 -0.6254
-5.6353 0.0158 -0.5725
-5.6209 0.0552 -0.5729
-5.6065 0.0946 -0.5732
-5.5998 0.1319 -0.5762
-5.5853 0.1715 -0.5766
-5.5632 0.2128 -0.5744
-5.5423 0.2535 -0.5725
-5.5279 0.2928 -0.5729
-5.5199 0.3310 -0.5755
-5.5128 0.3694 -0.5785
-5.4983 0.4090 -0.5788
-5.4838 0.4485 -0.5792
-5.4560 0.4890 -0.5747
-5.4356 0.5284 -0.5729
-5.4213 0.5675 -0.5732
-5.3811 0.6062 -0.5639
-5.3493 0.6439 -0.5575
-5.2180 0.7838 -0.5290
-5.1805 0.8151 -0.5196
-5.0190 0.9939 -0.4854
-5.0027 1.0247 -0.4839
-4.9728 1.0491 -0.4762
-4.9534 1.0773 -0.4731
-4.9284 1.1020 -0.4674
-4.9095 1.1290 -0.4643
-4.8981 1.1600 -0.4646
-4.8803 1.1869 -0.4619
-4.8666 1.2161 -0.4610
-4.8427 1.2377 -0.4553
-4.8081 1.2501 -0.4442
-4.7888 1.2727 -0.4403
-4.7697 1.2948 -0.4364
-4.7463 1.3122 -0.4302
-4.7262 1.3316 -0.4255
-4.9619 1.8735 -0.5927
-4.9521 1.9193 -0.5957
-4.9329 1.9527 -0.5934
-4.9084 2.0386 -0.5969
-4.8939 2.0784 -0.5972
-4.8793 2.1182 -0.5976
-4.8561 2.1433 -0.5926
-4.8502 2.1977 -0.5984
-4.8356 2.2375 -0.5987
-4.8211 2.2772 -0.5991
-4.8100 2.3239 -0.6018
-4.7919 2.3568 -0.5999
-4.7774 2.3966 -0.6002
-5.5234 0.0471 -0.5772
-5.4907 0.0902 -0.5708
-5.4707 0.1287 -0.5688
-5.4761 0.1599 -0.5759
-5.4421 0.2691 -0.5793
-5.4040 0.3106 -0.5705
-5.3674 0.3508 -0.5621
-5.3439 0.3881 -0.5584
-5.3360 0.4230 -0.5608
-5.3230 0.4587 -0.5611
-5.3150 0.4941 -0.5634
-5.3130 0.5294 -0.5682
-5.2997 0.5655 -0.5685
-5.2816 0.6015 -0.5669
-5.2576 0.6371 -0.5628
-5.2446 0.6728 -0.5631
-5.2267 0.7080 -0.5614
-5.2080 0.7428 -0.5594
-5.1950 0.7782 -0.5597
-5.1681 0.8110 -0.5540
-5.1359 0.8419 -0.5459
-5.1197 0.8754 -0.5446
-5.1107 0.9107 -0.5465
-5.0519 0.9681 -0.5318
-5.0440 1.0032 -0.5342
-4.9836 1.0542 -0.5178
-4.9574 1.0797 -0.5113
-4.9381 1.1078 -0.5079
-4.9232 1.1377 -0.5066
-4.8953 1.1597 -0.4988
-4.8799 1.1882 -0.4971
-4.8685 1.2192 -0.4974
-4.8454 1.2417 -0.4916
-4.8280 1.2676 -0.4886
-4.8107 1.2930 -0.4856
-4.7853 1.3109 -0.4782
-4.7609 1.3285 -0.4711
-4.7370 1.3451 -0.4641
-4.8502 1.5432 -0.5409
-4.8884 1.7348 -0.5864
-5.4309 0.0422 -0.5788
-5.4182 0.0769 -0.5791
-5.3987 0.1138 -0.5769
-5.3983 0.1447 -0.5819
-5.3800 0.1811 -0.5801
-5.3673 0.2158 -0.5804
-5.3427 0.2533 -0.5761
-5.3418 0.2853 -0.5811
-5.3397 0.3180 -0.5857
-5.3164 0.3547 -0.5817
-5.2974 0.3903 -0.5795
-5.2783 0.4589 -0.5827
-5.2595 0.4940 -0.5805
-5.2418 0.5288 -0.5787
-5.2126 0.5976 -0.5776
-5.2001 0.6320 -0.5779
-5.0245 0.9955 -0.5630
-5.0003 1.0238 -0.5572
-4.9696 1.0482 -0.5481
-4.9427 1.0732 -0.5406
-4.9245 1.1015 -0.5374
-4.9162 1.1349 -0.5395
-4.8949 1.1607 -0.5346
-4.8770 1.1880 -0.5314
-4.8553 1.2121 -0.5261
-4.8261 1.2299 -0.5164
-4.8004 1.2488 -0.5084
-4.7758 1.2674 -0.5009
-4.7599 1.2921 -0.4981
-4.7441 1.3164 -0.4954
-4.7335 1.3453 -0.4956
-4.7410 1.3922 -0.5068
-4.7651 1.4584 -0.5284
-4.7594 1.4954 -0.5322
-4.8126 1.6494 -0.5811
-4.8130 1.6996 -0.5898
-4.8004 1.7340 -0.5901
-4.7910 1.7730 -0.5926
-4.7822 1.8132 -0.5955
-4.7657 1.8421 -0.5932
-4.7499 1.8718 -0.5914
-4.7404 1.9113 -0.5939
-4.7314 1.9521 -0.5969
-4.6771 2.0841 -0.5955
-4.6644 2.1187 -0.5959
-4.6518 2.1532 -0.5962
-5.3377 0.0423 -0.5757
-5.3240 0.1037 -0.5803
-5.2931 0.1425 -0.5730
-5.2957 0.1704 -0.5792
-5.2695 0.2070 -0.5736
-5.2436 0.2429 -0.5680
-5.2266 0.2761 -0.5660
-5.2149 0.3079 -0.5663
-5.2086 0.3386 -0.5689
-5.2146 0.3675 -0.5769
-5.1893 0.4018 -0.5713
-5.1776 0.4338 -0.5716
-5.1700 0.4654 -0.5737
-5.1501 0.4981 -0.5704
-5.1255 0.5306 -0.5648
-5.1179 0.5621 -0.5669
-5.1063 0.5937 -0.5672
-5.0947 0.6254 -0.5675
-5.0793 0.6568 -0.5660
-5.0639 0.6880 -0.5645
-5.0524 0.7195 -0.5648
-5.0372 0.7504 -0.5632
-5.0257 0.7817 -0.5635
-5.0251 0.8154 -0.5693
-5.0216 0.8490 -0.5737
-4.9948 0.8767 -0.5662
-4.9762 0.9060 -0.5629
-4.9570 0.9346 -0.5591
-4.9568 0.9698 -0.5653
-4.9453 1.0011 -0.5656
-4.9372 1.0340 -0.5677
-4.9157 1.0606 -0.5625
-4.9043 1.0917 -0.5628
-4.8856 1.1187 -0.5590
-4.8710 1.1477 -0.5574
-4.8542 1.1749 -0.5545
-4.8399 1.2034 -0.5529
-4.8194 1.2271 -0.5477
-4.7915 1.2444 -0.5378
-4.7641 1.2604 -0.5280
-4.7453 1.2824 -0.5232
-4.7347 1.3111 -0.5234
-4.7271 1.3426 -0.5256
-4.7166 1.3715 -0.5258
-4.7237 1.4190 -0.5377
-4.7177 1.4539 -0.5412
-4.7227 1.5020 -0.5521
-4.7414 1.5686 -0.5728
-4.7379 1.6103 -0.5787
-4.7262 1.6421 -0.5790
-4.7120 1.6702 -0.5774
-4.7145 1.7224 -0.5879
-4.7108 1.7671 -0.5943
-4.6933 1.7908 -0.5904
-4.6839 1.8272 -0.5926
-4.6696 1.8555 -0.5910
-5.2522 0.0964 -0.5814
-5.2408 0.1273 -0.5817
-5.2439 0.1534 -0.5882
-5.2138 0.1904 -0.5803
-5.1949 0.2234 -0.5773
-5.1837 0.2540 -0.5776
-5.1768 0.2836 -0.5798
-5.1655 0.3143 -0.5801
-5.1501 0.3458 -0.5784
-5.1347 0.3771 -0.5768
-5.1318 0.4064 -0.5809
-5.1165 0.4376 -0.5793
-5.1093 0.4678 -0.5815
-5.1090 0.4977 -0.5871
-5.1026 0.5285 -0.5898
-5.0912 0.5596 -0.5901
-5.0485 0.6525 -0.5866
-5.0334 0.6830 -0.5850
-5.0221 0.7138 -0.5853
-5.0044 0.7437 -0.5822
-4.9448 0.8956 -0.5817
-4.9336 0.9261 -0.5820
-4.9113 0.9871 -0.5826
-4.9093 1.0217 -0.5882
-4.8923 1.0497 -0.5851
-4.8843 1.0820 -0.5873
-4.8698 1.1109 -0.5857
-4.8586 1.1415 -0.5860
-4.8443 1.1701 -0.5843
-4.8238 1.1942 -0.5787
-4.8043 1.2182 -0.5736
-4.7659 1.2645 -0.5635
-4.7418 1.2823 -0.5549
-4.7262 1.3065 -0.5518
-4.7178 1.3373 -0.5535
-4.6981 1.3566 -0.5474
-4.6779 1.3746 -0.5408
-4.6676 1.4026 -0.5411
-4.6757 1.4522 -0.5546
-4.6968 1.5196 -0.5779
-4.6991 1.5666 -0.5880
-4.6977 1.6103 -0.5957
-4.6838 1.6375 -0.5940
-4.6725 1.6683 -0.5943
-4.6594 1.6963 -0.5931
-4.6499 1.7299 -0.5949
-4.6387 1.7607 -0.5952
-4.6274 1.7915 -0.5955
-4.6144 1.8191 -0.5943
-4.6031 1.8498 -0.5946
-4.5919 1.8805 -0.5949
-4.5845 1.9192 -0.5986
-4.5732 1.9501 -0.5989
-4.5619 1.9810 -0.5992
-5.1685 0.0974 -0.5737
-5.1501 0.1292 -0.5704
-5.1507 0.1539 -0.5757
-5.1368 0.1840 -0.5745
-5.1219 0.2142 -0.5727
-5.1081 0.2438 -0.5715
-5.1008 0.2716 -0.5733
-5.0871 0.3011 -0.5720
-5.0692 0.3314 -0.5687
-5.0765 0.3563 -0.5776
-5.0660 0.3853 -0.5779
-5.0482 0.4153 -0.5746
-5.0316 0.4448 -0.5718
-5.0101 0.4745 -0.5665
-5.0037 0.5024 -0.5688
-4.9864 0.5312 -0.5655
-4.9897 0.5591 -0.5729
-4.9725 0.5876 -0.5696
-4.9583 0.6159 -0.5679
-4.9451 0.6440 -0.5666
-4.9441 0.6730 -0.5720
-4.9374 0.7019 -0.5743
-4.9297 0.7309 -0.5761
-4.9128 0.7584 -0.5728
-4.8997 0.7863 -0.5715
-4.8858 0.8138 -0.5697
-4.8754 0.8421 -0.5700
-4.8625 0.8696 -0.5687
-4.8521 0.8978 -0.5690
-4.8418 0.9260 -0.5693
-4.8340 0.9553 -0.5711
-4.8211 0.9824 -0.5698
-4.8051 1.0078 -0.5665
-4.7948 1.0358 -0.5667
-4.7925 1.0684 -0.5721
-4.7822 1.0967 -0.5724
-4.7718 1.1249 -0.5727
-4.7646 1.1553 -0.5750
-4.7542 1.1837 -0.5753
-4.7408 1.2098 -0.5735
-4.7282 1.2362 -0.5722
-4.7178 1.2644 -0.5725
-4.7126 1.2973 -0.5763
-4.6972 1.3208 -0.5730
-4.6939 1.3562 -0.5784
-4.6786 1.3795 -0.5751
-4.6662 1.4055 -0.5738
-4.6451 1.4209 -0.5658
-4.6435 1.4594 -0.5728
-4.6352 1.4901 -0.5746
-4.6268 1.5209 -0.5764
-4.6209 1.5555 -0.5803
-4.6193 1.5969 -0.5879
-4.6087 1.6258 -0.5881
-4.5981 1.6546 -0.5884
-4.5918 1.6905 -0.5923
-4.5728 1.7527 -0.5949
-4.5599 1.7775 -0.5931
-4.5470 1.8021 -0.5913
-4.5348 1.8276 -0.5900
-4.5280 1.8646 -0.5940
-4.5152 1.8889 -0.5921
-5.0991 0.1435 -0.5788
-5.0923 0.1699 -0.5806
-5.0866 0.1961 -0.5830
-5.0721 0.2252 -0.5812
-5.0587 0.2539 -0.5798
-5.0486 0.2815 -0.5801
-5.0385 0.3091 -0.5803
-5.0284 0.3367 -0.5806
-5.0058 0.3668 -0.5744
-4.9989 0.3935 -0.5763
-4.9981 0.4194 -0.5814
-4.9759 0.4486 -0.5752
-4.9719 0.4753 -0.5787
-4.9588 0.5029 -0.5773
-4.9606 0.5297 -0.5840
-4.9504 0.5573 -0.5843
-4.9374 0.5850 -0.5829
-4.9273 0.6126 -0.5832
-4.9238 0.6406 -0.5872
-4.8933 0.7239 -0.5880
-4.8497 0.7746 -0.5745
-4.6636 1.2200 -0.5658
-4.6527 1.2812 -0.5729
-4.6492 1.3144 -0.5780
-4.6503 1.3532 -0.5870
-4.6382 1.3784 -0.5856
-4.6201 1.4355 -0.5878
-4.6101 1.4630 -0.5880
-4.6020 1.4930 -0.5899
-4.5919 1.5205 -0.5902
-4.5818 1.5481 -0.5904
-4.5736 1.5784 -0.5923
-4.5616 1.6031 -0.5910
-4.5551 1.6366 -0.5945
-4.5508 1.6746 -0.6002
-4.5371 1.6962 -0.5972
-4.5213 1.7131 -0.5920
-4.5096 1.7373 -0.5906
-4.5012 1.7682 -0.5925
-4.4943 1.8027 -0.5961
-4.4826 1.8268 -0.5947
-5.0298 0.1652 -0.5754
-5.0137 0.1936 -0.5723
-4.9954 0.2225 -0.5680
-4.9947 0.2455 -0.5728
-4.9916 0.2695 -0.5764
-4.9905 0.2933 -0.5811
-4.9662 0.3233 -0.5735
-4.9483 0.3511 -0.5693
-4.9358 0.3775 -0.5678
-4.9264 0.4031 -0.5681
-4.9231 0.4278 -0.5717
-4.9157 0.4534 -0.5730
-4.9042 0.4794 -0.5722
-4.8889 0.5057 -0.5690
-4.8824 0.5312 -0.5710
-4.8807 0.5567 -0.5757
-4.8683 0.5826 -0.5743
-4.8541 0.6083 -0.5717
-4.8419 0.6339 -0.5702
-4.8325 0.6596 -0.5705
-4.8286 0.6858 -0.5741
-4.8165 0.7112 -0.5727
-4.8017 0.7360 -0.5695
-4.7950 0.7621 -0.5714
-4.7829 0.7871 -0.5700
-4.7736 0.8127 -0.5702
-4.7616 0.8375 -0.5688
-4.7523 0.8629 -0.5690
-4.7505 0.8913 -0.5744
-4.7361 0.9149 -0.5712
-4.7268 0.9405 -0.5714
-4.7223 0.9684 -0.5751
-4.7152 0.9954 -0.5770
-4.7034 1.0199 -0.5756
-4.6917 1.0442 -0.5741
-4.6823 1.0698 -0.5744
-4.6729 1.0954 -0.5746
-4.6717 1.1272 -0.5811
-4.6563 1.1485 -0.5768
-4.6403 1.1687 -0.5719
-4.6331 1.1961 -0.5739
-4.6337 1.2309 -0.5821
-4.6221 1.2548 -0.5806
-4.6113 1.2792 -0.5797
-4.6018 1.3050 -0.5800
-4.5883 1.3262 -0.5768
-4.5829 1.3566 -0.5805
-4.5676 1.3750 -0.5755
-4.5621 1.4057 -0.5792
-4.5578 1.4383 -0.5841
-4.5501 1.4670 -0.5860
-4.5357 1.4856 -0.5817
-4.5293 1.5161 -0.5848
-4.5234 1.5479 -0.5885
-4.5156 1.5770 -0.5905
-4.5008 1.5939 -0.5855
-4.4896 1.6167 -0.5841
-4.4757 1.6339 -0.5797
-4.4695 1.6662 -0.5834
-4.4676 1.7079 -0.5917
-4.4623 1.7433 -0.5966
-4.4469 1.7566 -0.5905
-4.4389 1.7864 -0.5924
-4.9788 0.1803 -0.5783
-4.9751 0.2033 -0.5815
-4.9659 0.2284 -0.5818
-4.9567 0.2536 -0.5820
-4.9475 0.2787 -0.5822
-4.9383 0.3038 -0.5825
-4.9291 0.3290 -0.5827
-4.9095 0.3565 -0.5770
-4.9076 0.3799 -0.5814
-4.8973 0.4287 -0.5866
-4.8830 0.4547 -0.5839
-4.8709 0.4802 -0.5824
-4.8549 0.5058 -0.5785
-4.8603 0.5298 -0.5876
-4.8342 0.5804 -0.5833
-4.8250 0.6055 -0.5836
-4.7660 0.7821 -0.5888
-4.7567 0.8073 -0.5890
-4.7223 0.8805 -0.5850
-4.7148 0.9062 -0.5864
-4.7040 0.9305 -0.5854
-4.6651 1.0291 -0.5846
-4.6559 1.0540 -0.5848
-4.6556 1.1171 -0.5997
-4.6344 1.1334 -0.5903
-4.6252 1.1586 -0.5906
-4.6139 1.1818 -0.5890
-4.5829 1.2535 -0.5867
-4.5758 1.2806 -0.5888
-4.5680 1.3071 -0.5902
-4.5588 1.3322 -0.5904
-4.5392 1.3806 -0.5897
-4.5313 1.4074 -0.5911
-4.5239 1.4351 -0.5932
-4.5099 1.4529 -0.5886
-4.5007 1.4778 -0.5888
-4.4934 1.5057 -0.5909
-4.4342 1.6467 -0.5875
-4.4277 1.6772 -0.5907
-4.4160 1.6962 -0.5879
-4.4054 1.7174 -0.5864
-4.9293 0.1749 -0.5745
-4.9162 0.2003 -0.5723
-4.9097 0.2232 -0.5737
-4.8957 0.2487 -0.5709
-4.8828 0.2737 -0.5686
-4.8763 0.2965 -0.5701
-4.8677 0.3200 -0.5703
-4.8591 0.3435 -0.5705
-4.8597 0.3648 -0.5763
-4.8398 0.3909 -0.5697
-4.8454 0.4117 -0.5786
-4.8267 0.4372 -0.5726
-4.8230 0.4600 -0.5760
-4.8006 0.4853 -0.5675
-4.7988 0.5080 -0.5721
-4.8018 0.5308 -0.5797
-4.7816 0.5550 -0.5725
-4.7730 0.5785 -0.5727
-4.7663 0.6020 -0.5742
-4.7622 0.6258 -0.5775
-4.7536 0.6495 -0.5777
-4.7431 0.6730 -0.5767
-4.7362 0.6969 -0.5782
-4.7214 0.7195 -0.5741
-4.7145 0.7434 -0.5755
-4.7041 0.7665 -0.5745
-4.6998 0.7912 -0.5778
-4.6912 0.8148 -0.5781
-4.6800 0.8376 -0.5764
-4.6681 0.8599 -0.5742
-4.6611 0.8840 -0.5756
-4.6541 0.9083 -0.5771
-4.6455 0.9318 -0.5773
-4.6337 0.9537 -0.5750
-4.6337 0.9820 -0.5821
-4.6219 1.0039 -0.5799
-4.6148 1.0285 -0.5813
-4.6046 1.0511 -0.5803
-4.5959 1.0748 -0.5805
-4.5836 1.0955 -0.5776
-4.5801 1.1233 -0.5822
-4.5678 1.1438 -0.5793
-4.5592 1.1674 -0.5795
-4.5526 1.1930 -0.5816
-4.5440 1.2166 -0.5819
-4.5380 1.2432 -0.5846
-4.5313 1.2692 -0.5867
-4.5239 1.2946 -0.5882
-4.5107 1.3127 -0.5840
-4.4988 1.3322 -0.5811
-4.4945 1.3618 -0.5857
-4.4834 1.3820 -0.5834
-4.4729 1.4029 -0.5818
-4.4661 1.4293 -0.5839
-4.4574 1.4529 -0.5841
-4.4511 1.4805 -0.5868
-4.4373 1.4951 -0.5814
-4.4353 1.5312 -0.5892
-4.4239 1.5496 -0.5863
-4.4152 1.5733 -0.5865
-4.4055 1.5947 -0.5854
-4.3989 1.6230 -0.5882
-4.3902 1.6467 -0.5884
-4.3795 1.6656 -0.5861
-4.8921 0.1860 -0.5805
-4.8774 0.2311 -0.5822
-4.8712 0.2534 -0.5837
-4.8627 0.2765 -0.5839
-4.8564 0.2989 -0.5854
-4.8416 0.3238 -0.5818
-4.8080 0.4157 -0.5827
-4.7720 0.4859 -0.5762
-4.7157 0.6217 -0.5729
-4.5412 1.0930 -0.5761
-4.5358 1.1179 -0.5789
-4.5219 1.1968 -0.5900
-4.5135 1.2198 -0.5903
-4.4965 1.2329 -0.5820
-4.4779 1.3092 -0.5892
-4.4751 1.3399 -0.5953
-4.4599 1.3889 -0.5977
-4.4327 1.4555 -0.5964
-4.4231 1.4766 -0.5953
-4.4136 1.4976 -0.5942
-4.4062 1.5228 -0.5957
-4.3978 1.5458 -0.5959
-4.3893 1.5689 -0.5961
-4.3834 1.5978 -0.5997
-4.3724 1.6151 -0.5966
-4.8424 0.1843 -0.5719
-4.8345 0.2060 -0.5721
-4.8308 0.2260 -0.5750
-4.8250 0.2470 -0.5766
-4.8170 0.2688 -0.5768
-4.7984 0.2942 -0.5703
-4.7926 0.3152 -0.5718
-4.7868 0.3362 -0.5734
-4.7829 0.3568 -0.5763
-4.7729 0.3792 -0.5751
-4.7649 0.4009 -0.5753
-4.7570 0.4227 -0.5755
-4.7510 0.4441 -0.5771
-4.7430 0.4659 -0.5773
-4.7369 0.4875 -0.5788
-4.7251 0.5097 -0.5763
-4.7152 0.5316 -0.5752
-4.7073 0.5533 -0.5754
-4.6974 0.5750 -0.5743
-4.6895 0.5967 -0.5745
-4.6852 0.6185 -0.5774
-4.6755 0.6401 -0.5762
-4.6657 0.6616 -0.5751
-4.6543 0.6828 -0.5726
-4.6516 0.7052 -0.5768
-4.6471 0.7276 -0.5798
-4.6391 0.7495 -0.5800
-4.6294 0.7708 -0.5788
-4.6215 0.7926 -0.5790
-4.6135 0.8143 -0.5792
-4.6055 0.8361 -0.5794
-4.5992 0.8585 -0.5810
-4.5959 0.8825 -0.5853
-4.5769 0.8991 -0.5760
-4.5736 0.9231 -0.5803
-4.5626 0.9431 -0.5777
-4.5438 0.9845 -0.5754
-4.5388 1.0081 -0.5784
-4.5309 1.0298 -0.5786
-4.5244 1.0525 -0.5801
-4.5136 1.0719 -0.5776
-4.5071 1.0947 -0.5792
-4.5047 1.1216 -0.5848
-4.4940 1.1407 -0.5823
-4.4860 1.1625 -0.5825
-4.4726 1.2090 -0.5857
-4.4621 1.2278 -0.5831
-4.4516 1.2463 -0.5806
-4.4474 1.2729 -0.5849
-4.4406 1.2965 -0.5865
-4.4314 1.3166 -0.5853
-4.4246 1.3402 -0.5869
-4.4154 1.3602 -0.5857
-4.4086 1.3839 -0.5873
-4.4017 1.4078 -0.5889
-4.3926 1.4277 -0.5877
-4.3867 1.4537 -0.5907
-4.3744 1.4671 -0.5854
-4.3706 1.4976 -0.5911
-4.3636 1.5219 -0.5927
-4.3566 1.5462 -0.5943
-4.3455 1.5612 -0.5903
-4.3375 1.5831 -0.5906
-4.7670 0.3198 -0.5803
-4.7593 0.3410 -0.5805
-4.7478 0.3822 -0.5837
-4.7401 0.4034 -0.5839
-4.7273 0.4257 -0.5806
-4.6778 0.5733 -0.5855
-4.6485 0.6584 -0.5877
-4.5890 0.8057 -0.5849
-4.5712 0.8470 -0.5832
-4.5587 0.8659 -0.5791
-4.5271 0.9747 -0.5865
-4.5189 1.0224 -0.5940
-4.5110 1.0438 -0.5942
-4.4940 1.0853 -0.5932
-4.4800 1.1008 -0.5870
-4.4757 1.1253 -0.5907
-4.4692 1.1479 -0.5923
-4.4666 1.1750 -0.5982
-4.4549 1.1920 -0.5942
-4.4446 1.2102 -0.5915
-4.4418 1.2379 -0.5974
-4.4339 1.2593 -0.5976
-4.4261 1.2808 -0.5978
-4.4206 1.3057 -0.6009
-4.4092 1.3218 -0.5968
-4.3979 1.3376 -0.5927
-4.3901 1.3588 -0.5929
-4.3846 1.3840 -0.5960
-4.3689 1.4267 -0.5964
-4.3601 1.4459 -0.5952
-4.3544 1.4715 -0.5982
-4.3445 1.4885 -0.5956
-4.3357 1.5074 -0.5943
-4.3269 1.5263 -0.5931
-4.7724 0.1908 -0.5718
-4.7661 0.2103 -0.5727
-4.7577 0.2309 -0.5722
-4.7460 0.2527 -0.5695
-4.7387 0.2727 -0.5697
-4.7356 0.2911 -0.5728
-4.7178 0.3148 -0.5657
-4.7261 0.3296 -0.5768
-4.7187 0.3498 -0.5770
-4.7164 0.3686 -0.5808
-4.7019 0.3907 -0.5759
-4.6915 0.4115 -0.5739
-4.6822 0.4320 -0.5726
-4.6749 0.4520 -0.5728
-4.6704 0.4716 -0.5752
-4.6631 0.4917 -0.5754
-4.6595 0.5114 -0.5785
-4.6521 0.5316 -0.5787
-4.6410 0.5520 -0.5760
-4.6355 0.5720 -0.5776
-4.6263 0.5921 -0.5763
-4.6207 0.6123 -0.5780
-4.6115 0.6323 -0.5767
-4.6077 0.6528 -0.5798
-4.6003 0.6730 -0.5800
-4.5886 0.6925 -0.5766
-4.5864 0.7136 -0.5811
-4.5747 0.7328 -0.5777
-4.5690 0.7533 -0.5793
-4.5592 0.7728 -0.5773
-4.5543 0.7936 -0.5797
-4.5445 0.8129 -0.5777
-4.5371 0.8330 -0.5779
-4.5298 0.8530 -0.5781
-4.5224 0.8731 -0.5783
-4.5082 0.8895 -0.5719
-4.5085 0.9137 -0.5794
-4.5004 0.9333 -0.5788
-4.4930 0.9534 -0.5790
-4.4864 0.9740 -0.5800
-4.4819 0.9962 -0.5831
-4.4752 1.0170 -0.5840
-4.4692 1.0384 -0.5857
-4.4618 1.0587 -0.5859
-4.4530 1.0777 -0.5846
-4.4456 1.0979 -0.5848
-4.4395 1.1195 -0.5864
-4.4275 1.1347 -0.5815
-4.4234 1.1586 -0.5853
-4.4141 1.1765 -0.5833
-4.4079 1.1982 -0.5850
-4.4036 1.2226 -0.5889
-4.3973 1.2446 -0.5905
-4.3846 1.2571 -0.5841
-4.3754 1.2745 -0.5821
-4.3715 1.3002 -0.5867
-4.3641 1.3204 -0.5869
-4.3616 1.3495 -0.5937
-4.3531 1.3679 -0.5924
-4.3413 1.3800 -0.5867
-4.3345 1.4013 -0.5876
-4.3255 1.4182 -0.5856
-4.3196 1.4417 -0.5880
-4.3152 1.4688 -0.5927
-4.3082 1.4904 -0.5936
-4.2960 1.4988 -0.5864
-4.6916 0.3206 -0.5704
-4.6578 0.4525 -0.5838
-4.5621 0.6667 -0.5714
-4.5294 0.7633 -0.5746
-4.5083 0.8211 -0.5751
-4.4778 0.8968 -0.5736
-4.4476 0.9966 -0.5798
-4.3918 1.1812 -0.5914
-4.3846 1.2009 -0.5916
-4.3803 1.2248 -0.5956
-4.3629 1.2600 -0.5922
-4.3529 1.2750 -0.5885
-4.3441 1.2917 -0.5864
-4.3397 1.3161 -0.5904
-4.3309 1.3327 -0.5883
-4.3134 1.4000 -0.5950
-4.3062 1.4198 -0.5952
-4.2990 1.4396 -0.5954
-4.2927 1.4616 -0.5971
-3.5793 0.1786 -0.2744
-3.5747 0.1840 -0.2768
-3.5696 0.1886 -0.2800
-3.5654 0.1953 -0.2816
-3.5553 0.2063 -0.2872
-3.5515 0.2142 -0.2881
-3.5398 0.2246 -0.2952
-3.5348 0.2313 -0.2976
-3.5192 0.2523 -0.3049
-3.5102 0.2557 -0.3120
-3.5060 0.2646 -0.3129
-3.4987 0.2705 -0.3176
-3.4918 0.2773 -0.3216
-3.4855 0.2849 -0.3248
-3.4785 0.2922 -0.3288
-3.4714 0.2998 -0.3328
-3.4471 0.3093 -0.3518
-3.4382 0.3171 -0.3574
-3.4334 0.3278 -0.3582
-3.4336 0.3412 -0.3536
-3.4173 0.3594 -0.3624
-3.4102 0.3694 -0.3657
-3.3933 0.3893 -0.3745
-3.3843 0.3996 -0.3793
-3.3660 0.4211 -0.3889
-3.3542 0.4318 -0.3961
-3.3439 0.4433 -0.4017
-3.3195 0.4671 -0.4161
-3.3147 0.4801 -0.4162
-3.0791 0.7174 -0.5527
-3.0627 0.7384 -0.5607
-3.0521 0.7576 -0.5640
-3.0384 0.7782 -0.5697
-3.0308 0.7966 -0.5707
-3.0220 0.8155 -0.5724
-3.5779 0.1798 -0.2644
-3.5728 0.1842 -0.2674
-3.5692 0.1916 -0.2683
-3.5640 0.1963 -0.2713
-3.5603 0.2039 -0.2722
-3.5495 0.2142 -0.2783
-3.5451 0.2213 -0.2799
-3.5339 0.2327 -0.2861
-3.5276 0.2380 -0.2899
-3.5218 0.2442 -0.2930
-3.5165 0.2514 -0.2954
-3.5093 0.2567 -0.3000
-3.5045 0.2649 -0.3016
-3.4984 0.2720 -0.3047
-3.4922 0.2793 -0.3078
-3.4790 0.2939 -0.3147
-3.4712 0.3008 -0.3193
-3.4653 0.3095 -0.3217
-3.4454 0.3092 -0.3392
-3.4357 0.3165 -0.3453
-3.4331 0.3284 -0.3439
-3.4326 0.3412 -0.3402
-3.4264 0.3510 -0.3426
-3.4194 0.3606 -0.3457
-3.4115 0.3701 -0.3496
-3.4043 0.3802 -0.3527
-3.3923 0.3889 -0.3604
-3.3841 0.3993 -0.3643
-3.3750 0.4098 -0.3689
-3.3548 0.4314 -0.3797
-3.3436 0.4426 -0.3859
-3.3217 0.4664 -0.3975
-3.3170 0.4791 -0.3976
-3.3028 0.4917 -0.4061
-3.2935 0.5049 -0.4100
-3.2762 0.5186 -0.4207
-3.0261 0.7793 -0.5567
-2.9988 0.8060 -0.5721
-2.9898 0.8256 -0.5738
-2.9797 0.8458 -0.5763
-2.9727 0.8646 -0.5764
-2.9647 0.8840 -0.5774
-2.9588 0.9022 -0.5768
-2.9518 0.9211 -0.5769
-3.5766 0.1810 -0.2544
-3.5730 0.1883 -0.2552
-3.5673 0.1917 -0.2589
-3.5631 0.1983 -0.2605
-3.5584 0.2040 -0.2627
-3.5536 0.2099 -0.2650
-3.5487 0.2159 -0.2672
-3.5437 0.2221 -0.2695
-3.5370 0.2260 -0.2739
-3.5325 0.2334 -0.2754
-3.5262 0.2386 -0.2791
-3.5210 0.2455 -0.2814
-3.5151 0.2519 -0.2844
-3.5091 0.2585 -0.2874
-3.5024 0.2646 -0.2911
-3.4963 0.2717 -0.2941
-3.4901 0.2789 -0.2971
-3.4852 0.2875 -0.2986
-3.4781 0.2946 -0.3023
-3.4703 0.3014 -0.3068
-3.4631 0.3090 -0.3105
-3.4354 0.3172 -0.3311
-3.4335 0.3293 -0.3290
-3.4340 0.3425 -0.3247
-3.4270 0.3517 -0.3278
-3.4169 0.3599 -0.3337
-3.4106 0.3700 -0.3360
-3.4034 0.3799 -0.3390
-3.3921 0.3888 -0.3457
-3.3756 0.4097 -0.3532
-3.3639 0.4198 -0.3599
-3.3562 0.4311 -0.3629
-3.3468 0.4424 -0.3674
-3.3414 0.4545 -0.3682
-3.3258 0.4657 -0.3779
-3.3159 0.4780 -0.3824
-3.3069 0.4906 -0.3861
-3.2915 0.5036 -0.3950
-3.2786 0.5170 -0.4018
-3.2646 0.5310 -0.4092
-3.2541 0.5451 -0.4137
-3.2444 0.5595 -0.4175
-2.9647 0.8483 -0.5637
-2.9577 0.8673 -0.5638
-2.9496 0.8869 -0.5647
-2.9392 0.9076 -0.5671
-2.9300 0.9280 -0.5688
-3.5798 0.1772 -0.2425
-3.5757 0.1833 -0.2439
-3.5712 0.1885 -0.2461
-3.5665 0.1938 -0.2483
-3.5618 0.1993 -0.2504
-3.5581 0.2068 -0.2512
-3.5528 0.2117 -0.2541
-3.5473 0.2168 -0.2569
-3.5430 0.2237 -0.2584
-3.5374 0.2292 -0.2613
-3.5311 0.2341 -0.2649
-3.5260 0.2407 -0.2670
-3.5208 0.2475 -0.2692
-3.5149 0.2538 -0.2721
-3.5071 0.2583 -0.2771
-3.5023 0.2663 -0.2786
-3.4975 0.2745 -0.2800
-3.4900 0.2804 -0.2843
-3.4851 0.2888 -0.2858
-3.4760 0.2942 -0.2915
-3.4716 0.3035 -0.2923
-3.4616 0.3090 -0.2987
-3.4366 0.3188 -0.3157
-3.4319 0.3291 -0.3165
-3.4339 0.3430 -0.3110
