ply
format ascii 1.0
element vertex 2099
property float x
property float y
property float z
end_header
-2.9197 2.0234 -0.5907
-2.9254 2.0126 -0.5917
-2.9308 2.0027 -0.5935
-2.9360 1.9929 -0.5947
-2.9410 1.9833 -0.5956
-2.9466 1.9715 -0.5910
-2.9507 1.9646 -0.5958
-2.9550 1.9571 -0.5991
-2.5021 2.6918 0.2732
-2.4974 2.7052 0.2589
-2.8176 2.1202 -0.0239
-2.8174 2.1229 -0.0332
-2.8184 2.1234 -0.0429
-2.6165 2.5628 -0.1453
-2.6194 2.5626 -0.1678
-2.6210 2.5652 -0.1913
-2.6219 2.5695 -0.2157
-2.6256 2.5679 -0.2395
-2.6230 2.5803 -0.2673
-2.6322 2.5670 -0.2889
-2.6383 2.5602 -0.3124
-2.6384 2.5672 -0.3407
-2.6415 2.5675 -0.3675
-2.6413 2.5758 -0.3981
-2.6425 2.5809 -0.4284
-2.6481 2.5762 -0.4550
-2.6504 2.5791 -0.4858
-2.6588 2.5680 -0.5098
-2.6647 2.5629 -0.5372
-2.6945 2.4997 -0.5290
-2.7162 2.4551 -0.5289
-2.7254 2.4410 -0.5473
-2.7309 2.4359 -0.5718
-2.7383 2.4260 -0.5928
-2.7672 2.3693 -0.6030
-2.7815 2.3405 -0.6051
-2.7980 2.3054 -0.5993
-2.8103 2.2807 -0.6015
-2.8225 2.2558 -0.6017
-2.8445 2.2109 -0.6026
-2.8571 2.1829 -0.5942
-2.8654 2.1669 -0.5982
-2.8749 2.1469 -0.5962
-2.8836 2.1287 -0.5950
-2.8984 2.0994 -0.5986
-2.9058 2.0841 -0.5979
-2.9127 2.0698 -0.5975
-2.9198 2.0544 -0.5942
-2.9261 2.0412 -0.5934
-2.9321 2.0289 -0.5930
-2.9375 2.0181 -0.5943
-2.9431 2.0062 -0.5928
-2.9477 1.9982 -0.5977
-2.9578 1.9766 -0.5943
-2.9626 1.9662 -0.5918
-2.8235 2.1260 -0.0027
-2.8248 2.1257 -0.0119
-2.8273 2.1231 -0.0214
-2.8282 2.1238 -0.0308
-2.6414 2.5496 -0.0950
-2.6526 2.5308 -0.1147
-2.6571 2.5271 -0.1355
-2.6755 2.4918 -0.1521
-2.6914 2.4682 -0.1899
-2.6928 2.4715 -0.2118
-2.6763 2.5321 -0.2966
-2.6711 2.5612 -0.3575
-2.6662 2.5823 -0.3927
-2.6685 2.5858 -0.4223
-2.6673 2.5987 -0.4571
-2.6729 2.5945 -0.4848
-2.6786 2.5902 -0.5128
-2.7005 2.5439 -0.5172
-2.7236 2.4933 -0.5164
-2.7400 2.4595 -0.5233
-2.7456 2.4544 -0.5479
-2.7483 2.4575 -0.5786
-2.7573 2.4433 -0.5971
-2.7718 2.4132 -0.6024
-2.7906 2.3703 -0.5951
-2.8157 2.3176 -0.6023
-2.8282 2.2905 -0.6027
-2.8413 2.2608 -0.5986
-2.8527 2.2355 -0.5970
-2.8615 2.2179 -0.6023
-2.8727 2.1919 -0.5968
-2.8819 2.1715 -0.5959
-2.8980 2.1372 -0.5985
-2.9066 2.1172 -0.5939
-2.9133 2.1035 -0.5970
-2.9194 2.0915 -0.6014
-2.9280 2.0691 -0.5890
-2.9338 2.0570 -0.5909
-2.9401 2.0425 -0.5880
-2.9449 2.0339 -0.5943
-2.9501 2.0230 -0.5957
-2.9554 2.0110 -0.5943
-2.9603 2.0005 -0.5947
-2.9648 1.9913 -0.5970
-2.9697 1.9794 -0.5927
-2.9737 1.9717 -0.5965
-2.9776 1.9642 -0.6000
-2.8340 2.1268 -0.0005
-2.8364 2.1243 -0.0098
-2.8360 2.1282 -0.0188
-2.8362 2.1310 -0.0281
-2.8388 2.1283 -0.0379
-2.7089 2.4397 -0.0660
-2.7147 2.4320 -0.0836
-2.7154 2.4366 -0.1020
-2.7172 2.4389 -0.1209
-2.7190 2.4410 -0.1401
-2.7226 2.4390 -0.1592
-2.7236 2.4438 -0.1798
-2.7274 2.4416 -0.1996
-2.7275 2.4488 -0.2220
-2.7301 2.4501 -0.2435
-2.7331 2.4587 -0.2902
-2.7327 2.4685 -0.3166
-2.7356 2.4699 -0.3407
-2.7367 2.4764 -0.3677
-2.7030 2.5787 -0.4394
-2.6931 2.6179 -0.4875
-2.6983 2.6161 -0.5174
-2.7523 2.4859 -0.5035
-2.7638 2.4639 -0.5177
-2.7681 2.4630 -0.5450
-2.7704 2.4685 -0.5775
-2.7788 2.4558 -0.5975
-2.7906 2.4320 -0.6083
-2.8083 2.3886 -0.6017
-2.8227 2.3548 -0.6004
-2.8354 2.3254 -0.6009
-2.8488 2.2927 -0.5964
-2.8583 2.2727 -0.6024
-2.8710 2.2404 -0.5942
-2.8977 2.1796 -0.5979
-2.9065 2.1580 -0.5946
-2.9290 2.1043 -0.5905
-2.9351 2.0909 -0.5929
-2.9405 2.0804 -0.5987
-2.9467 2.0654 -0.5969
-2.9526 2.0508 -0.5944
-2.9580 2.0383 -0.5943
-2.9680 2.0146 -0.5936
-2.9725 2.0052 -0.5964
-2.9772 1.9930 -0.5928
-2.9814 1.9840 -0.5947
-2.9856 1.9739 -0.5937
-2.9894 1.9658 -0.5960
-2.9930 1.9589 -0.6005
-2.6279 2.5787 0.2301
-2.6287 2.5824 0.2151
-2.6328 2.5790 0.1976
-2.6349 2.5802 0.1812
-2.8412 2.1322 0.0114
-2.8454 2.1323 -0.0162
-2.8462 2.1340 -0.0256
-2.8458 2.1387 -0.0352
-2.7355 2.4234 -0.0612
-2.7391 2.4211 -0.0785
-2.7396 2.4268 -0.0966
-2.7392 2.4354 -0.1156
-2.7447 2.4286 -0.1335
-2.7472 2.4298 -0.1527
-2.7498 2.4309 -0.1722
-2.7532 2.4298 -0.1917
-2.7584 2.4330 -0.2332
-2.7554 2.4504 -0.2592
-2.7559 2.4589 -0.2839
-2.7540 2.4744 -0.3120
-2.7591 2.4703 -0.3341
-2.7654 2.4625 -0.3549
-2.7694 2.4619 -0.3788
-2.7622 2.4956 -0.4198
-2.7586 2.5197 -0.4586
-2.7695 2.4989 -0.4750
-2.7802 2.4784 -0.4907
-2.7852 2.4759 -0.5168
-2.7886 2.4792 -0.5471
-2.7903 2.4888 -0.5827
-2.7998 2.4718 -0.6001
-2.8128 2.4421 -0.6070
-2.8444 2.3588 -0.5952
-2.8560 2.3308 -0.5974
-2.8679 2.3003 -0.5953
-2.8772 2.2794 -0.6008
-2.8894 2.2454 -0.5913
-2.8968 2.2298 -0.5993
-2.9048 2.2116 -0.6034
-2.9144 2.1850 -0.5964
-2.9225 2.1639 -0.5942
-2.9367 2.1285 -0.5940
-2.9430 2.1133 -0.5955
-2.9494 2.0970 -0.5943
-2.9550 2.0837 -0.5963
-2.9605 2.0707 -0.5977
-2.9661 2.0559 -0.5953
-2.9715 2.0408 -0.5911
-2.9761 2.0304 -0.5939
-2.9806 2.0201 -0.5962
-2.9850 2.0088 -0.5957
-2.9892 1.9989 -0.5970
-2.9935 1.9868 -0.5931
-2.9971 1.9802 -0.5995
-3.0010 1.9697 -0.5970
-3.0046 1.9605 -0.5965
-2.6463 2.5847 0.2355
-2.6484 2.5861 0.2198
-2.6462 2.5979 0.2067
-2.8517 2.1329 0.0136
-2.8533 2.1327 0.0046
-2.8532 2.1367 -0.0041
-2.8549 2.1363 -0.0136
-2.8567 2.1359 -0.0231
-2.7565 2.4195 -0.0567
-2.7598 2.4183 -0.0739
-2.7620 2.4201 -0.0915
-2.7655 2.4186 -0.1093
-2.7691 2.4171 -0.1273
-2.7675 2.4304 -0.1477
-2.7730 2.4236 -0.1657
-2.7762 2.4237 -0.1851
-2.7789 2.4255 -0.2053
-2.7834 2.4325 -0.2481
-2.7820 2.4478 -0.2742
-2.7842 2.4525 -0.2979
-2.7817 2.4726 -0.3282
-2.7853 2.4739 -0.3526
-2.7906 2.4696 -0.3751
-2.7945 2.4706 -0.4004
-2.7959 2.4802 -0.4306
-2.8016 2.4755 -0.4543
-2.8028 2.4871 -0.4876
-2.8108 2.4744 -0.5075
-2.8123 2.4862 -0.5429
-2.8152 2.4934 -0.5768
-2.8235 2.4805 -0.5973
-2.8372 2.4449 -0.6001
-2.8485 2.4179 -0.6078
-2.8616 2.3827 -0.6069
-2.8749 2.3441 -0.6008
-2.8850 2.3187 -0.6042
-2.8966 2.2846 -0.5976
-2.9063 2.2579 -0.5961
-2.9149 2.2355 -0.5973
-2.9231 2.2135 -0.5975
-2.9308 2.1933 -0.5983
-2.9380 2.1742 -0.5990
-2.9454 2.1526 -0.5952
-2.9517 2.1370 -0.5976
-2.9581 2.1189 -0.5956
-2.9642 2.1012 -0.5927
-2.9695 2.0878 -0.5948
-2.9748 2.0740 -0.5953
-2.9798 2.0604 -0.5952
-2.9848 2.0458 -0.5922
-2.9893 2.0341 -0.5929
-2.9934 2.0250 -0.5976
-2.9977 2.0124 -0.5950
-3.0017 2.0018 -0.5952
-3.0055 1.9920 -0.5962
-3.0092 1.9824 -0.5967
-3.0127 1.9724 -0.5955
-3.0161 1.9666 -0.6027
-2.6615 2.5990 0.2437
-2.6633 2.6016 0.2281
-2.6644 2.6064 0.2128
-2.8626 2.1367 0.0072
-2.8630 2.1448 -0.0105
-2.8048 2.3130 -0.0096
-2.7756 2.4113 -0.0358
-2.7763 2.4176 -0.0524
-2.7783 2.4206 -0.0696
-2.7794 2.4266 -0.0874
-2.7834 2.4241 -0.1051
-2.7845 2.4306 -0.1240
-2.7922 2.4170 -0.1408
-2.7926 2.4262 -0.1610
-2.7944 2.4312 -0.1813
-2.7968 2.4350 -0.2019
-2.8010 2.4328 -0.2217
-2.8011 2.4448 -0.2457
-2.8062 2.4404 -0.2658
-2.8070 2.4509 -0.2910
-2.8053 2.4711 -0.3209
-2.8086 2.4744 -0.3458
-2.8130 2.4738 -0.3698
-2.8195 2.4659 -0.3909
-2.8198 2.4819 -0.4238
-2.8225 2.4895 -0.4538
-2.8274 2.4889 -0.4804
-2.8318 2.4908 -0.5090
-2.8354 2.4967 -0.5409
-2.8387 2.5047 -0.5754
-2.8478 2.4876 -0.5932
-2.8617 2.4468 -0.5926
-2.8707 2.4279 -0.6067
-2.8852 2.3804 -0.5962
-2.8948 2.3560 -0.6026
-2.9067 2.3171 -0.5943
-2.9151 2.2960 -0.6003
-2.9235 2.2729 -0.6031
-2.9329 2.2419 -0.5961
-2.9395 2.2272 -0.6047
-2.9472 2.2038 -0.6026
-2.9544 2.1817 -0.6001
-2.9613 2.1599 -0.5966
-2.9674 2.1428 -0.5975
-2.9733 2.1246 -0.5957
-2.9787 2.1101 -0.5978
-2.9840 2.0932 -0.5953
-2.9889 2.0800 -0.5970
-2.9935 2.0676 -0.5992
-2.9980 2.0548 -0.5997
-3.0025 2.0385 -0.5931
-3.0065 2.0281 -0.5956
-3.0104 2.0185 -0.5988
-3.0212 1.9852 -0.5951
-3.0245 1.9757 -0.5952
-2.6753 2.6183 0.2536
-2.6775 2.6208 0.2377
-2.6846 2.6101 0.2176
-2.8635 2.1461 0.0463
-2.8720 2.1311 0.0261
-2.8710 2.1389 0.0187
-2.8708 2.1442 0.0104
-2.8716 2.1471 0.0015
-2.8115 2.3406 -0.0044
-2.8065 2.3640 -0.0176
-2.7938 2.4124 -0.0317
-2.7949 2.4188 -0.0482
-2.7988 2.4167 -0.0651
-2.7995 2.4248 -0.0827
-2.8020 2.4275 -0.1007
-2.8025 2.4372 -0.1198
-2.8100 2.4235 -0.1368
-2.8166 2.4128 -0.1539
-2.8150 2.4308 -0.1759
-2.8182 2.4328 -0.1960
-2.8175 2.4490 -0.2200
-2.8226 2.4447 -0.2398
-2.8250 2.4508 -0.2629
-2.8271 2.4585 -0.2873
-2.8302 2.4631 -0.3115
-2.8317 2.4748 -0.3392
-2.8322 2.4915 -0.3702
-2.8411 2.4736 -0.3872
-2.8468 2.4692 -0.4101
-2.8479 2.4859 -0.4441
-2.8477 2.5099 -0.4839
-2.8542 2.5039 -0.5084
-2.8575 2.5140 -0.5431
-2.8610 2.5245 -0.5794
-2.8735 2.4880 -0.5843
-2.8835 2.4628 -0.5955
-2.8949 2.4282 -0.5980
-2.9042 2.4046 -0.6074
-2.9158 2.3640 -0.6009
-2.9240 2.3429 -0.6093
-2.9339 2.3082 -0.6036
-2.9434 2.2734 -0.5954
-2.9509 2.2507 -0.5972
-2.9579 2.2306 -0.6003
-2.9653 2.2034 -0.5942
-2.9712 2.1885 -0.6004
-2.9774 2.1680 -0.5989
-2.9832 2.1493 -0.5982
-2.9888 2.1303 -0.5957
-2.9939 2.1143 -0.5961
-2.9989 2.0960 -0.5918
-3.0033 2.0860 -0.5986
-3.0078 2.0676 -0.5917
-3.0120 2.0561 -0.5943
-3.0159 2.0454 -0.5975
-3.0198 2.0343 -0.5992
-3.0234 2.0196 -0.5935
-3.0302 1.9996 -0.5963
-3.0334 1.9899 -0.5971
-3.0363 1.9779 -0.5924
-3.0395 1.9714 -0.5984
-2.6928 2.6293 0.2608
-2.6966 2.6376 0.2296
-2.8731 2.1491 0.0490
-2.8818 2.1329 0.0285
-2.8810 2.1407 0.0211
-2.8811 2.1461 0.0128
-2.8208 2.3543 0.0143
-2.8190 2.3695 0.0012
-2.8169 2.3864 -0.0128
-2.8105 2.4188 -0.0274
-2.8128 2.4221 -0.0439
-2.8167 2.4200 -0.0608
-2.8176 2.4292 -0.0784
-2.8192 2.4361 -0.0966
-2.8235 2.4336 -0.1146
-2.8222 2.4522 -0.1354
-2.8309 2.4333 -0.1519
-2.8350 2.4325 -0.1710
-2.8371 2.4394 -0.1920
-2.8374 2.4547 -0.2156
-2.8432 2.4475 -0.2348
-2.8438 2.4632 -0.2604
-2.8464 2.4709 -0.2849
-2.8450 2.4979 -0.3171
-2.8538 2.4789 -0.3339
-2.8550 2.4958 -0.3648
-2.8598 2.4968 -0.3903
-2.8682 2.4797 -0.4077
-2.8646 2.5256 -0.4566
-2.8697 2.5275 -0.4853
-2.8719 2.5474 -0.5251
-2.8761 2.5572 -0.5608
-2.8825 2.5556 -0.5905
-2.8933 2.5253 -0.6010
-2.9057 2.4813 -0.6000
-2.9163 2.4472 -0.6037
-2.9278 2.4032 -0.5975
-2.9370 2.3728 -0.5998
-2.9456 2.3445 -0.6022
-2.9546 2.3096 -0.5966
-2.9617 2.2886 -0.6021
-2.9689 2.2641 -0.6029
-2.9761 2.2355 -0.5976
-2.9821 2.2193 -0.6041
-2.9883 2.1953 -0.6006
-2.9942 2.1711 -0.5950
-3.0044 2.1381 -0.5985
-3.0091 2.1234 -0.6011
-3.0178 2.0705 -0.5680
-3.0214 2.0422 -0.5450
-3.0250 2.0304 -0.5456
-3.0326 2.0278 -0.5805
-3.0364 2.0245 -0.5949
-3.0427 2.0025 -0.5946
-3.0458 1.9939 -0.5978
-3.0488 1.9854 -0.6007
-2.8892 2.1427 0.0323
-2.8911 2.1426 0.0235
-2.8921 2.1457 0.0150
-2.8912 2.1554 0.0070
-2.8303 2.3899 0.0064
-2.8254 2.4197 -0.0072
-2.8301 2.4276 -0.0397
-2.8342 2.4254 -0.0566
-2.8359 2.4326 -0.0741
-2.8394 2.4334 -0.0918
-2.8416 2.4401 -0.1104
-2.8405 2.4608 -0.1313
-2.8453 2.4579 -0.1503
-2.8494 2.4579 -0.1701
-2.8538 2.4568 -0.1900
-2.8489 2.4995 -0.2199
-2.8587 2.4745 -0.2357
-2.8173 2.7326 -0.3594
-2.8213 2.7449 -0.3940
-2.8787 2.4954 -0.3576
-2.8826 2.5028 -0.3856
-2.8876 2.5046 -0.4119
-2.8655 2.6807 -0.5258
-2.8778 2.6440 -0.5390
-2.8847 2.6428 -0.5705
-2.8947 2.6189 -0.5889
-2.9058 2.5852 -0.6000
-2.9183 2.5368 -0.5994
-2.9285 2.5034 -0.6066
-2.9392 2.4615 -0.6055
-2.9483 2.4302 -0.6102
-2.9582 2.3849 -0.6013
-2.9659 2.3603 -0.6076
-2.9740 2.3252 -0.6027
-2.9811 2.3000 -0.6049
-2.9878 2.2738 -0.6045
-2.9945 2.2411 -0.5956
-3.0000 2.2264 -0.6039
-3.0109 2.1756 -0.5927
-3.0157 2.1632 -0.6004
-3.0203 2.1410 -0.5947
-3.0275 2.0710 -0.5419
-3.0309 2.0546 -0.5377
-3.0342 2.0399 -0.5348
-3.0375 2.0307 -0.5394
-3.0408 2.0217 -0.5438
-3.0452 2.0263 -0.5708
-3.0492 2.0244 -0.5874
-3.0529 2.0198 -0.5995
-3.0556 2.0079 -0.5975
-3.0582 1.9968 -0.5961
-3.0609 1.9877 -0.5978
-3.0638 1.9805 -0.6029
-2.9018 2.1422 0.0254
-2.9035 2.1431 0.0167
-2.9024 2.1551 0.0092
-2.8399 2.4348 -0.0023
-2.8418 2.4415 -0.0184
-2.8485 2.4287 -0.0355
-2.8517 2.4309 -0.0523
-2.8536 2.4392 -0.0698
-2.8567 2.4430 -0.0877
-2.8598 2.4467 -0.1062
-2.8613 2.4594 -0.1261
-2.8630 2.4717 -0.1470
-2.8730 2.4655 -0.1861
-2.8265 2.7398 -0.2655
-2.8341 2.7329 -0.2924
-2.8438 2.7134 -0.3162
-2.8492 2.7188 -0.3468
-2.8686 2.6784 -0.3924
-2.8757 2.6742 -0.4206
-2.8828 2.6708 -0.4494
-2.8909 2.6610 -0.4756
-2.8982 2.6565 -0.5045
-2.9063 2.6466 -0.5310
-2.9144 2.6366 -0.5574
-2.9230 2.6215 -0.5807
-2.9329 2.5928 -0.5951
-2.9433 2.5535 -0.6011
-2.9534 2.5123 -0.6036
-2.9638 2.4602 -0.5955
-2.9721 2.4280 -0.5995
-2.9801 2.3955 -0.6014
-2.9876 2.3643 -0.6025
-3.0013 2.2983 -0.5950
-3.0072 2.2797 -0.6022
-3.0182 2.2328 -0.6029
-3.0440 2.0557 -0.5326
-3.0501 2.0324 -0.5354
-3.0532 2.0240 -0.5408
-3.0565 2.0177 -0.5492
-3.0618 2.0248 -0.5809
-3.0658 2.0222 -0.5964
-3.0685 2.0121 -0.5980
-3.0712 2.0027 -0.6004
-3.0733 1.9917 -0.5986
-3.0760 1.9839 -0.6026
-2.9032 2.1546 0.0561
-2.9124 2.1417 0.0274
-2.9139 2.1439 0.0189
-2.9139 2.1526 0.0111
-2.8483 2.4630 0.0202
-2.8535 2.4566 0.0032
-2.8615 2.4373 -0.0145
-2.8648 2.4395 -0.0311
-2.8683 2.4417 -0.0481
-2.8733 2.4363 -0.0653
-2.8758 2.4444 -0.0832
-2.8775 2.4575 -0.1022
-2.8793 2.4712 -0.1223
-2.8833 2.4733 -0.1420
-2.8629 2.6917 -0.2478
-2.8730 2.6658 -0.2689
-2.8809 2.6537 -0.2926
-2.8888 2.6417 -0.3161
-2.8959 2.6354 -0.3414
-2.9017 2.6394 -0.3704
-2.9068 2.6515 -0.4033
-2.9133 2.6530 -0.4332
-2.9212 2.6434 -0.4589
-2.9308 2.6148 -0.4755
-2.9380 2.6108 -0.5033
-2.9453 2.6066 -0.5315
-2.9535 2.5918 -0.5538
-2.9617 2.5746 -0.5743
-2.9699 2.5558 -0.5932
-2.9783 2.5279 -0.6051
-2.9948 2.4520 -0.6092
-3.0024 2.4061 -0.6014
-3.0092 2.3683 -0.5973
-3.0154 2.3416 -0.6007
-3.0213 2.3153 -0.6028
-3.0269 2.2926 -0.6067
-3.0482 2.1001 -0.5280
-3.0517 2.0887 -0.5329
-3.0545 2.0733 -0.5316
-3.0573 2.0595 -0.5315
-3.0598 2.0453 -0.5297
-3.0625 2.0340 -0.5314
-3.0660 2.0289 -0.5421
-3.0693 2.0226 -0.5506
-3.0740 2.0240 -0.5723
-3.0788 2.0252 -0.5945
-3.0814 2.0157 -0.5974
-3.0839 2.0062 -0.5998
-3.0880 1.9861 -0.5997
-2.9224 2.1436 0.0298
-2.9243 2.1446 0.0211
-2.9253 2.1500 0.0129
-2.9262 2.1564 0.0044
-2.8672 2.4830 0.0092
-2.8754 2.4612 -0.0092
-2.8843 2.4353 -0.0270
-2.8875 2.4397 -0.0438
-2.8904 2.4470 -0.0611
-2.8945 2.4479 -0.0788
-2.8982 2.4517 -0.0971
-2.8993 2.4727 -0.1175
-2.9027 2.4811 -0.1378
-2.9052 2.4972 -0.1600
-2.8950 2.6531 -0.2329
-2.9017 2.6490 -0.2578
-2.9087 2.6430 -0.2825
-2.9163 2.6311 -0.3056
-2.9234 2.6250 -0.3305
-2.9305 2.6188 -0.3554
-2.9372 2.6172 -0.3823
-2.9438 2.6183 -0.4107
-2.9512 2.6109 -0.4360
-2.9590 2.5971 -0.4585
-2.9669 2.5808 -0.4794
-2.9743 2.5717 -0.5037
-2.9818 2.5599 -0.5264
-2.9893 2.5508 -0.5506
-2.9968 2.5375 -0.5721
-3.0043 2.5191 -0.5898
-3.0117 2.4867 -0.5968
-3.0187 2.4606 -0.6067
-3.0312 2.3877 -0.6051
-3.0365 2.3479 -0.5978
-3.0417 2.3199 -0.5987
-3.0588 2.1121 -0.5166
-3.0620 2.0991 -0.5201
-3.0649 2.0856 -0.5222
-3.0677 2.0729 -0.5246
-3.0710 2.0647 -0.5323
-3.0727 2.0477 -0.5267
-3.0790 2.0333 -0.5423
-3.0820 2.0262 -0.5499
-3.0871 2.0283 -0.5727
-3.0919 2.0282 -0.5926
-3.0946 2.0199 -0.5978
-3.0969 2.0104 -0.6004
-3.0982 1.9980 -0.5965
-3.1006 1.9901 -0.6006
-2.9349 2.1553 0.0158
-2.9371 2.1561 0.0066
-2.9382 2.1635 -0.0021
-2.8876 2.4766 0.0128
-2.8942 2.4624 -0.0050
-2.9015 2.4430 -0.0226
-2.9053 2.4452 -0.0394
-2.9090 2.4494 -0.0567
-2.9133 2.4503 -0.0743
-2.9168 2.4572 -0.0927
-2.9209 2.4619 -0.1115
-2.9233 2.4807 -0.1326
-2.9244 2.5143 -0.1570
-2.9234 2.6279 -0.2212
-2.9295 2.6291 -0.2464
-2.9444 2.6039 -0.2908
-2.9515 2.5952 -0.3139
-2.9588 2.5827 -0.3357
-2.9658 2.5741 -0.3587
-2.9725 2.5720 -0.3843
-2.9792 2.5725 -0.4114
-2.9864 2.5637 -0.4348
-2.9936 2.5522 -0.4569
-3.0008 2.5390 -0.4779
-3.0221 2.5086 -0.5448
-3.0292 2.5042 -0.5707
-3.0362 2.4878 -0.5886
-3.0427 2.4667 -0.6023
-3.0539 2.4016 -0.6079
-3.0630 2.3364 -0.6054
-3.0666 2.3015 -0.5988
-3.0701 2.1281 -0.5090
-3.0728 2.1126 -0.5105
-3.0761 2.1024 -0.5177
-3.0792 2.0917 -0.5235
-3.0812 2.0761 -0.5223
-3.0840 2.0658 -0.5272
-3.0865 2.0549 -0.5306
-3.0917 2.0363 -0.5404
-3.0964 2.0358 -0.5587
-3.1006 2.0332 -0.5740
-3.1056 2.0332 -0.5940
-3.1074 2.0223 -0.5948
-3.1095 2.0127 -0.5974
-3.1115 2.0034 -0.5996
-2.8630 2.4755 0.1850
-2.9470 2.1470 0.0168
-2.9476 2.1581 0.0091
-2.9494 2.1622 0.0001
-2.9091 2.4590 0.0154
-2.9143 2.4526 -0.0015
-2.9192 2.4485 -0.0183
-2.9248 2.4389 -0.0353
-2.9279 2.4496 -0.0523
-2.9316 2.4569 -0.0700
-2.9361 2.4587 -0.0881
-2.9397 2.4696 -0.1073
-2.9437 2.4803 -0.1274
-2.9450 2.5232 -0.1526
-2.9481 2.5521 -0.1783
-2.9644 2.5758 -0.2520
-2.9710 2.5705 -0.2748
-2.9779 2.5574 -0.2955
-2.9846 2.5510 -0.3181
-2.9913 2.5428 -0.3401
-2.9979 2.5410 -0.3647
-3.0047 2.5346 -0.3877
-3.0115 2.5308 -0.4120
-3.0183 2.5224 -0.4344
-3.0252 2.5122 -0.4558
-3.0319 2.5011 -0.4767
-3.0388 2.4928 -0.4989
-3.0454 2.4810 -0.5190
-3.0522 2.4727 -0.5412
-3.0592 2.4677 -0.5657
-3.0663 2.4636 -0.5910
-3.0727 2.4494 -0.6089
-3.0841 2.3426 -0.6026
-3.0786 2.1566 -0.4938
-3.0816 2.1428 -0.4991
-3.0843 2.1278 -0.5022
-3.0870 2.1145 -0.5063
-3.0904 2.1058 -0.5152
-3.0934 2.0957 -0.5221
-3.0957 2.0829 -0.5248
-3.0979 2.0711 -0.5279
-3.0999 2.0587 -0.5295
-3.1025 2.0499 -0.5357
-3.1055 2.0427 -0.5437
-3.1109 2.0442 -0.5653
-3.1153 2.0416 -0.5808
-3.1191 2.0369 -0.5932
-3.1211 2.0272 -0.5963
-3.1230 2.0176 -0.5991
-3.1234 2.0044 -0.5943
-3.1259 1.9976 -0.6010
-2.8699 2.4728 0.2277
-2.8779 2.4686 0.1995
-2.8818 2.4677 0.1856
-2.9553 2.1445 0.0273
-2.9573 2.1478 0.0190
-2.9591 2.1521 0.0105
-2.9608 2.1586 0.0020
-2.9280 2.4545 0.0190
-2.9323 2.4560 0.0028
-2.9374 2.4496 -0.0141
-2.9427 2.4422 -0.0310
-2.9482 2.4326 -0.0479
-2.9510 2.4529 -0.0654
-2.9548 2.4653 -0.0837
-2.9601 2.4607 -0.1018
-2.9682 2.4933 -0.1434
-2.9720 2.5237 -0.1681
-2.9766 2.5484 -0.1939
-2.9829 2.5426 -0.2151
-2.9890 2.5427 -0.2378
-2.9955 2.5348 -0.2588
-3.0020 2.5230 -0.2788
-3.0084 2.5132 -0.2992
-3.0148 2.5129 -0.3227
-3.0213 2.5106 -0.3460
-3.0278 2.5027 -0.3672
-3.0345 2.5011 -0.3913
-3.0411 2.4931 -0.4128
-3.0474 2.4805 -0.4319
-3.0679 2.1949 -0.4071
-3.0709 2.1779 -0.4123
-3.0874 2.1853 -0.4756
-3.0907 2.1726 -0.4835
-3.0934 2.1571 -0.4879
-3.0958 2.1418 -0.4915
-3.0990 2.1312 -0.4996
-3.1011 2.1164 -0.5021
-3.1045 2.1084 -0.5119
-3.1070 2.0968 -0.5170
-3.1100 2.0883 -0.5253
-3.1122 2.0771 -0.5296
-3.1149 2.0681 -0.5363
-3.1184 2.0620 -0.5468
-3.1222 2.0573 -0.5593
-3.1260 2.0527 -0.5718
-3.1310 2.0513 -0.5897
-3.1336 2.0433 -0.5967
-3.1352 2.0328 -0.5990
-3.1362 2.0212 -0.5984
-3.1375 2.0111 -0.5997
-3.1381 1.9999 -0.5981
-2.8946 2.4478 0.2085
-2.8961 2.4606 0.1997
-2.9010 2.4537 0.1841
-2.9636 2.1405 0.0371
-2.9657 2.1428 0.0290
-2.9675 2.1485 0.0212
-2.9700 2.1483 0.0122
-2.9511 2.4493 0.0063
-2.9566 2.4387 -0.0106
-2.9611 2.4401 -0.0269
-2.9656 2.4424 -0.0437
-2.9700 2.4489 -0.0609
-2.9745 2.4572 -0.0787
-2.9789 2.4695 -0.0976
-2.9834 2.4876 -0.1180
-2.9885 2.4971 -0.1386
-2.9988 2.5485 -0.1879
-3.0053 2.5327 -0.2071
-3.0116 2.5230 -0.2271
-3.0178 2.5173 -0.2481
-3.0241 2.5076 -0.2681
-3.0304 2.5000 -0.2885
-3.0366 2.4913 -0.3087
-3.0431 2.4903 -0.3315
-3.0763 2.2240 -0.3851
-3.0867 2.1541 -0.4052
-3.0943 2.1694 -0.4361
-3.1002 2.1729 -0.4581
-3.1049 2.1692 -0.4739
-3.1076 2.1560 -0.4804
-3.1106 2.1445 -0.4880
-3.1135 2.1339 -0.4961
-3.1174 2.1273 -0.5081
-3.1196 2.1147 -0.5129
-3.1231 2.1075 -0.5236
-3.1250 2.0952 -0.5276
-3.1279 2.0867 -0.5359
-3.1303 2.0769 -0.5420
-3.1354 2.0756 -0.5598
-3.1405 2.0742 -0.5778
-3.1443 2.0687 -0.5898
-3.1457 2.0571 -0.5919
-3.1477 2.0477 -0.5969
-3.1483 2.0352 -0.5959
-3.1492 2.0242 -0.5966
-3.1506 2.0146 -0.5991
-3.1512 2.0040 -0.5988
-2.9111 2.4457 0.2104
-2.9159 2.4377 0.1948
-2.9193 2.4408 0.1829
-2.9229 2.4425 0.1702
-2.9735 2.1400 0.0390
-2.9760 2.1400 0.0305
-2.9782 2.1435 0.0225
-2.9803 2.1491 0.0144
-2.9824 2.1557 0.0062
-2.9843 2.1677 -0.0020
-2.9699 2.4371 0.0093
-2.9751 2.4276 -0.0072
-2.9796 2.4292 -0.0232
-2.9843 2.4317 -0.0395
-2.9885 2.4480 -0.0564
-2.9935 2.4500 -0.0739
-2.9983 2.4656 -0.0926
-3.0033 2.4861 -0.1128
-3.0090 2.4853 -0.1321
-3.0146 2.5234 -0.1569
-3.0208 2.5424 -0.1811
-3.0271 2.5337 -0.2013
-3.0332 2.5200 -0.2205
-3.0393 2.5085 -0.2398
-3.0425 2.1393 -0.1983
-3.0466 2.1445 -0.2131
-3.0506 2.1467 -0.2273
-3.0715 2.1180 -0.2952
-3.0866 2.1312 -0.3490
-3.0914 2.1325 -0.3658
-3.0964 2.1336 -0.3830
-3.1043 2.1484 -0.4124
-3.1119 2.1596 -0.4401
-3.1174 2.1600 -0.4591
-3.1226 2.1587 -0.4769
-3.1285 2.1382 -0.4943
-3.1327 2.1330 -0.5080
-3.1352 2.1218 -0.5148
-3.1377 2.1116 -0.5221
-3.1399 2.1007 -0.5280
-3.1449 2.0987 -0.5450
-3.1585 2.1035 -0.5925
-3.1589 2.0886 -0.5919
-3.1606 2.0774 -0.5959
-3.1615 2.0650 -0.5973
-3.1616 2.0515 -0.5960
-3.1622 2.0396 -0.5962
-3.1644 2.0317 -0.6028
-3.1647 2.0201 -0.6020
-3.1658 2.0107 -0.6043
-2.9239 2.4416 0.2242
-2.9285 2.4349 0.2092
-2.9320 2.4369 0.1973
-2.9368 2.4289 0.1819
-2.9884 2.1407 0.0240
-2.9931 2.1519 0.0079
-2.9952 2.1663 0.0002
-2.9925 2.4264 -0.0034
-2.9975 2.4182 -0.0196
-3.0021 2.4262 -0.0355
-3.0072 2.4212 -0.0519
-3.0173 2.4660 -0.0879
-3.0335 2.1575 -0.1268
-3.0368 2.1534 -0.1378
-3.0406 2.1573 -0.1506
-3.0458 2.1265 -0.1663
-3.0524 2.1196 -0.1877
-3.0589 2.1126 -0.2093
-3.0625 2.1113 -0.2211
-3.0661 2.1101 -0.2331
-3.0703 2.1124 -0.2471
-3.0741 2.1110 -0.2595
-3.0777 2.1086 -0.2716
-3.0826 2.1133 -0.2880
-3.0867 2.1125 -0.3016
-3.0912 2.1134 -0.3165
-3.0976 2.1235 -0.3385
-3.1026 2.1248 -0.3550
-3.1099 2.1361 -0.3798
-3.1151 2.1371 -0.3973
-3.1225 2.1461 -0.4223
-3.1305 2.1563 -0.4496
-3.1382 2.1639 -0.4756
-3.1428 2.1593 -0.4905
-3.1434 2.1416 -0.4917
-3.1462 2.1319 -0.5004
-3.1531 2.1351 -0.5235
-3.1591 2.1351 -0.5437
-3.1737 2.1405 -0.5925
-3.1768 2.1314 -0.6023
-3.1763 2.1140 -0.5999
-3.1768 2.0996 -0.6008
-3.1765 2.0841 -0.5989
-3.1768 2.0710 -0.5994
-3.1767 2.0573 -0.5983
-3.1773 2.0460 -0.5998
-3.1771 2.0335 -0.5985
-3.1767 2.0212 -0.5967
-3.1782 2.0130 -0.6014
-2.9450 2.4265 0.2088
-2.9492 2.4224 0.1950
-2.9533 2.4207 0.1819
-2.9956 2.1413 0.0347
-2.9982 2.1437 0.0266
-3.0007 2.1482 0.0185
-3.0032 2.1572 0.0108
-3.0061 2.1592 0.0017
-3.0098 2.4107 -0.0006
-3.0146 2.4114 -0.0160
-3.0195 2.4098 -0.0318
-3.0400 2.1330 -0.1085
-3.0515 2.1079 -0.1467
-3.0550 2.1081 -0.1578
-3.0583 2.1062 -0.1684
-3.0616 2.1044 -0.1791
-3.0648 2.1015 -0.1896
-3.0679 2.0977 -0.1998
-3.0711 2.0948 -0.2103
-3.0753 2.0975 -0.2235
-3.0798 2.1018 -0.2380
-3.0835 2.1005 -0.2500
-3.0871 2.0983 -0.2617
-3.0922 2.1031 -0.2777
-3.0972 2.1069 -0.2937
-3.1027 2.1122 -0.3113
-3.1088 2.1190 -0.3307
-3.1153 2.1264 -0.3513
-3.1225 2.1352 -0.3740
-3.1283 2.1379 -0.3927
-3.1354 2.1446 -0.4154
-3.1480 2.1687 -0.4550
-3.1545 2.1706 -0.4758
-3.1602 2.1692 -0.4940
-3.1648 2.1646 -0.5092
-3.1923 2.1859 -0.5968
-3.1918 2.1667 -0.5961
-3.1920 2.1500 -0.5973
-3.1925 2.1350 -0.5996
-3.1907 2.1153 -0.5944
-3.1924 2.1044 -0.6004
-3.1923 2.0902 -0.6007
-3.1912 2.0619 -0.5983
-3.1913 2.0497 -0.5989
-3.1915 2.0385 -0.6000
-3.1908 2.0261 -0.5983
-3.1915 2.0165 -0.6008
-2.9562 2.4295 0.2247
-2.9604 2.4267 0.2115
-2.9644 2.4252 0.1986
-2.9690 2.4161 0.1831
-2.9734 2.4108 0.1689
-3.0081 2.1408 0.0281
-3.0108 2.1478 0.0206
-3.0136 2.1511 0.0121
-3.0165 2.1612 0.0042
-3.0313 2.4057 -0.0125
-3.0364 2.4097 -0.0279
-3.0369 2.1215 -0.0640
-3.0400 2.1211 -0.0737
-3.0455 2.1097 -0.0924
-3.0514 2.1036 -0.1115
-3.0544 2.1011 -0.1212
-3.0575 2.0995 -0.1312
-3.0607 2.0979 -0.1412
-3.0643 2.0992 -0.1522
-3.0674 2.0965 -0.1623
-3.0704 2.0929 -0.1721
-3.0738 2.0921 -0.1829
-3.0767 2.0874 -0.1924
-3.0803 2.0875 -0.2038
-3.0842 2.0884 -0.2158
-3.0877 2.0864 -0.2268
-3.0910 2.0836 -0.2374
-3.0950 2.0842 -0.2500
-3.1012 2.0937 -0.2681
-3.1049 2.0915 -0.2799
-3.1121 2.1031 -0.3009
-3.1187 2.1110 -0.3205
-3.1257 2.1194 -0.3414
-3.1353 2.1360 -0.3695
-3.1414 2.1388 -0.3881
-3.1468 2.1389 -0.4051
-3.2104 2.2498 -0.5900
-3.2133 2.2372 -0.6004
-3.2130 2.2170 -0.6019
-3.2102 2.1920 -0.5964
-3.2090 2.1719 -0.5950
-3.2117 2.1617 -0.6047
-3.2123 2.1473 -0.6084
-3.2100 2.1274 -0.6036
-3.2081 2.1093 -0.5999
-3.2056 2.0908 -0.5942
-3.2071 2.0685 -0.6016
-3.2046 2.0522 -0.5957
-3.2053 2.0422 -0.5992
-3.2051 2.0311 -0.6000
-2.9850 2.4002 0.1804
-3.0207 2.1438 0.0220
-3.0237 2.1507 0.0142
-3.0270 2.1620 0.0065
-3.0379 2.1285 -0.0333
-3.0408 2.1250 -0.0427
-3.0458 2.1083 -0.0611
-3.0485 2.1038 -0.0702
-3.0513 2.1004 -0.0793
-3.0540 2.0959 -0.0883
-3.0599 2.0922 -0.1070
-3.0635 2.0948 -0.1173
-3.0661 2.0893 -0.1262
-3.0693 2.0888 -0.1362
-3.0722 2.0853 -0.1455
-3.0757 2.0857 -0.1560
-3.0788 2.0832 -0.1658
-3.0820 2.0815 -0.1760
-3.0858 2.0827 -0.1873
-3.0896 2.0828 -0.1985
-3.0933 2.0829 -0.2100
-3.0966 2.0801 -0.2203
-3.1002 2.0792 -0.2315
-3.1044 2.0799 -0.2440
-3.1088 2.0815 -0.2571
-3.1148 2.0883 -0.2739
-3.1193 2.0887 -0.2873
-3.1258 2.0960 -0.3057
-3.1308 2.0970 -0.3204
-3.1430 2.1207 -0.3528
-3.1533 2.1363 -0.3809
-3.1600 2.1398 -0.4004
-3.2244 2.2829 -0.5672
-3.2301 2.2771 -0.5856
-3.2336 2.2657 -0.5984
-3.2322 2.2428 -0.5986
-3.2301 2.2195 -0.5969
-3.2284 2.1981 -0.5959
-3.2287 2.1824 -0.6001
-3.2285 2.1662 -0.6027
-3.2274 2.1488 -0.6027
-3.2241 2.1141 -0.5994
-3.2245 2.1019 -0.6031
-3.2228 2.0863 -0.6011
-3.2217 2.0724 -0.6005
-3.2209 2.0486 -0.6028
-3.2193 2.0354 -0.6004
-3.2200 2.0263 -0.6043
-2.9929 2.3664 0.1940
-2.9966 2.3716 0.1847
-3.0005 2.3705 0.1729
-3.0305 2.1445 0.0241
-3.0336 2.1479 0.0159
-3.0368 2.1524 0.0075
-3.0410 2.1704 0.0002
-3.0444 2.1249 -0.0221
-3.0469 2.1171 -0.0315
-3.0497 2.1137 -0.0405
-3.0520 2.1059 -0.0496
-3.0545 2.1004 -0.0585
-3.0573 2.0971 -0.0674
-3.0600 2.0937 -0.0763
-3.0627 2.0904 -0.0852
-3.0653 2.0860 -0.0940
-3.0680 2.0826 -0.1029
-3.0714 2.0834 -0.1125
-3.0746 2.0831 -0.1222
-3.0779 2.0827 -0.1319
-3.0807 2.0792 -0.1411
-3.0839 2.0778 -0.1508
-3.0879 2.0802 -0.1619
-3.0913 2.0795 -0.1722
-3.0951 2.0798 -0.1831
-3.0989 2.0800 -0.1941
-3.1027 2.0802 -0.2054
-3.1068 2.0812 -0.2173
-3.1113 2.0830 -0.2300
-3.1164 2.0865 -0.2439
-3.1246 2.1006 -0.2643
-3.1321 2.1108 -0.2836
-3.1407 2.1233 -0.3054
-3.1431 2.1155 -0.3147
-3.1507 2.1086 -0.3390
-3.1655 2.1354 -0.3751
-3.1758 2.1482 -0.4020
-3.2347 2.2652 -0.5435
-3.2412 2.2621 -0.5635
-3.2471 2.2573 -0.5821
-3.2523 2.2508 -0.5992
-3.2533 2.2351 -0.6063
-3.2475 2.2059 -0.5971
-3.2472 2.1893 -0.6006
-3.2466 2.1729 -0.6035
-3.2416 2.1487 -0.5953
-3.2414 2.1345 -0.5983
-3.2401 2.1190 -0.5988
-3.2399 2.1060 -0.6017
-3.2374 2.0896 -0.5988
-3.2355 2.0749 -0.5972
-3.2360 2.0646 -0.6014
-3.2355 2.0531 -0.6031
-3.2353 2.0424 -0.6053
-3.0068 2.3575 0.1930
-3.0106 2.3552 0.1812
-3.0145 2.3467 0.1672
-3.0342 2.1437 0.0429
-3.0372 2.1439 0.0345
-3.0401 2.1440 0.0260
-3.0436 2.1509 0.0184
-3.0471 2.1555 0.0101
-3.0505 2.1587 0.0013
-3.0530 2.1144 -0.0206
-3.0556 2.1100 -0.0296
-3.0581 2.1044 -0.0385
-3.0602 2.0957 -0.0473
-3.0629 2.0935 -0.0560
-3.0655 2.0891 -0.0647
-3.0683 2.0869 -0.0735
-3.0713 2.0858 -0.0824
-3.0741 2.0835 -0.0913
-3.0770 2.0813 -0.1002
-3.0800 2.0800 -0.1094
-3.0833 2.0797 -0.1189
-3.0869 2.0804 -0.1287
-3.0900 2.0790 -0.1383
-3.0933 2.0776 -0.1479
-3.0969 2.0781 -0.1583
-3.1009 2.0795 -0.1692
-3.1043 2.0779 -0.1793
-3.1091 2.0819 -0.1917
-3.1131 2.0821 -0.2030
-3.1176 2.0840 -0.2153
-3.1230 2.0886 -0.2293
-3.1305 2.0994 -0.2471
-3.1386 2.1108 -0.2662
-3.1463 2.1201 -0.2851
-3.1575 2.1389 -0.3109
-3.1788 2.1378 -0.3719
-3.2406 2.2584 -0.5081
-3.2474 2.2563 -0.5282
-3.2550 2.2557 -0.5501
-3.2609 2.2510 -0.5684
-3.2675 2.2479 -0.5885
-3.2677 2.2314 -0.5945
-3.2704 2.2206 -0.6059
-3.2654 2.1954 -0.6002
-3.2614 2.1590 -0.6009
-3.2575 2.1388 -0.5966
-3.2590 2.1283 -0.6042
-3.2546 2.1087 -0.5982
-3.2525 2.0936 -0.5975
-3.2539 2.0844 -0.6045
-3.2497 2.0671 -0.5982
-3.2475 2.0435 -0.5999
-3.2479 2.0343 -0.6041
-3.0241 2.3565 0.1840
-3.0280 2.3517 0.1713
-3.0319 2.3457 0.1582
-3.0437 2.1443 0.0449
-3.0466 2.1421 0.0361
-3.0498 2.1446 0.0281
-3.0532 2.1481 0.0201
-3.0568 2.1527 0.0119
-3.0604 2.1252 -0.0090
-3.0620 2.1117 -0.0187
-3.0638 2.1017 -0.0279
-3.0660 2.0951 -0.0366
-3.0683 2.0897 -0.0452
-3.0711 2.0876 -0.0537
-3.0739 2.0855 -0.0623
-3.0765 2.0822 -0.0708
-3.0795 2.0812 -0.0796
-3.0821 2.0779 -0.0882
-3.0856 2.0789 -0.0974
-3.0889 2.0787 -0.1066
-3.0920 2.0774 -0.1158
-3.0960 2.0802 -0.1260
-3.0995 2.0798 -0.1357
-3.1030 2.0794 -0.1456
-3.1065 2.0789 -0.1557
-3.1104 2.0793 -0.1662
-3.1151 2.0826 -0.1779
-3.1191 2.0829 -0.1889
-3.1245 2.0878 -0.2021
-3.1278 2.0850 -0.2124
-3.1338 2.0906 -0.2267
-3.1417 2.1015 -0.2444
-3.1511 2.1157 -0.2649
-3.2266 2.2757 -0.4108
-3.2311 2.2689 -0.4262
-3.2353 2.2612 -0.4409
-3.2398 2.2544 -0.4561
-3.2461 2.2518 -0.4747
-3.2547 2.2541 -0.4976
-3.2631 2.2554 -0.5204
-3.2724 2.2582 -0.5451
-3.2799 2.2568 -0.5665
-3.2887 2.2576 -0.5906
-3.2865 2.2370 -0.5928
-3.2870 2.2222 -0.6001
-3.2865 2.2061 -0.6050
-3.2819 2.1835 -0.6012
-3.2791 2.1650 -0.6009
-3.2765 2.1475 -0.6006
-3.2741 2.1311 -0.6006
-3.2692 2.0998 -0.5993
-3.2680 2.0871 -0.6012
-3.2667 2.0745 -0.6026
-3.2601 2.0453 -0.5957
-3.2613 2.0374 -0.6022
-3.0409 2.3378 0.1687
-3.0446 2.3331 0.1564
-3.0505 2.1482 0.0558
-3.0533 2.1461 0.0471
-3.0563 2.1451 0.0386
-3.0595 2.1464 0.0304
-3.0627 2.1465 0.0219
-3.0655 2.1430 0.0126
-3.0688 2.1178 -0.0076
-3.0702 2.1055 -0.0171
-3.0720 2.0966 -0.0261
-3.0742 2.0912 -0.0346
-3.0763 2.0847 -0.0431
-3.0788 2.0816 -0.0514
-3.0818 2.0806 -0.0599
-3.0846 2.0786 -0.0684
-3.0878 2.0786 -0.0771
-3.0904 2.0754 -0.0856
-3.0939 2.0764 -0.0947
-3.0975 2.0773 -0.1039
-3.1009 2.0771 -0.1132
-3.1043 2.0769 -0.1227
-3.1084 2.0786 -0.1327
-3.1122 2.0792 -0.1428
-3.1163 2.0807 -0.1533
-3.1211 2.0841 -0.1648
-3.1252 2.0845 -0.1755
-3.1290 2.0838 -0.1861
-3.1344 2.0878 -0.1989
-3.1405 2.0936 -0.2128
-3.1471 2.1000 -0.2277
-3.1549 2.1091 -0.2446
-3.2375 2.2638 -0.3971
-3.2426 2.2589 -0.4132
-3.2477 2.2539 -0.4294
-3.2529 2.2489 -0.4456
-3.2596 2.2473 -0.4646
-3.2668 2.2464 -0.4845
-3.2778 2.2529 -0.5112
-3.2894 2.2599 -0.5394
-3.2979 2.2601 -0.5623
-3.3116 2.2697 -0.5951
-3.3095 2.2498 -0.5985
-3.3058 2.2278 -0.5985
-3.3049 2.2116 -0.6036
-3.2997 2.1888 -0.6000
-3.2931 2.1519 -0.5988
-3.2908 2.1361 -0.5999
-3.2846 2.1039 -0.5979
-3.2821 2.0897 -0.5978
-3.2821 2.0791 -0.6025
-3.2782 2.0639 -0.5991
-3.2773 2.0531 -0.6016
-3.2752 2.0411 -0.6014
-3.0540 2.3402 0.1719
-3.0603 2.1524 0.0587
-3.0626 2.1454 0.0489
-3.0659 2.1468 0.0409
-3.0691 2.1470 0.0325
-3.0730 2.1518 0.0248
-3.0762 2.1506 0.0158
-3.0756 2.1240 0.0036
-3.0767 2.1104 -0.0063
-3.0784 2.1015 -0.0154
-3.0801 2.0927 -0.0243
-3.0820 2.0862 -0.0327
-3.0848 2.0842 -0.0410
-3.0875 2.0822 -0.0493
-3.0903 2.0801 -0.0577
-3.0931 2.0781 -0.0661
-3.0961 2.0770 -0.0747
-3.0992 2.0760 -0.0833
-3.1023 2.0749 -0.0921
-3.1065 2.0780 -0.1016
-3.1100 2.0778 -0.1108
-3.1138 2.0786 -0.1204
-3.1182 2.0814 -0.1307
-3.1224 2.0830 -0.1410
-3.1258 2.0815 -0.1507
-3.1311 2.0860 -0.1624
-3.1353 2.0863 -0.1731
-3.1411 2.0915 -0.1859
-3.1454 2.0916 -0.1972
-3.1532 2.1012 -0.2127
-3.1623 2.1133 -0.2304
-3.1701 2.1214 -0.2470
-3.2359 2.2577 -0.3503
-3.2420 2.2556 -0.3674
-3.2493 2.2562 -0.3864
-3.2572 2.2575 -0.4064
-3.2659 2.2605 -0.4279
-3.2715 2.2563 -0.4449
-3.2776 2.2529 -0.4626
-3.2871 2.2563 -0.4860
-3.3221 2.2911 -0.5604
-3.3365 2.3008 -0.5932
-3.3329 2.2780 -0.5954
-3.3299 2.2571 -0.5983
-3.3299 2.2420 -0.6061
-3.3245 2.2187 -0.6039
-3.3192 2.1965 -0.6014
-3.3146 2.1762 -0.5997
-3.3117 2.1593 -0.6008
-3.3027 2.1226 -0.5958
-3.3005 2.0979 -0.6028
-3.2961 2.0720 -0.6046
-3.2910 2.0468 -0.6041
-3.0716 2.3456 0.1652
-3.0639 2.1572 0.0779
-3.0664 2.1514 0.0683
-3.0692 2.1493 0.0598
-3.0720 2.1460 0.0508
-3.0759 2.1510 0.0437
-3.0787 2.1476 0.0346
-3.0822 2.1489 0.0263
-3.0854 2.1478 0.0175
-3.0844 2.1223 0.0053
-3.0855 2.1098 -0.0044
-3.0868 2.0997 -0.0136
-3.0883 2.0909 -0.0224
-3.0906 2.0867 -0.0307
-3.0929 2.0825 -0.0390
-3.0959 2.0816 -0.0472
-3.0982 2.0774 -0.0555
-3.1012 2.0765 -0.0639
-3.1048 2.0776 -0.0725
-3.1082 2.0777 -0.0812
-3.1117 2.0777 -0.0901
-3.1155 2.0786 -0.0992
-3.1193 2.0795 -0.1086
-3.1229 2.0793 -0.1180
-3.1281 2.0841 -0.1287
-3.1319 2.0838 -0.1385
-3.1360 2.0843 -0.1487
-3.1422 2.0908 -0.1610
-3.1464 2.0911 -0.1717
-3.1522 2.0953 -0.1842
-3.1580 2.0993 -0.1970
-3.1681 2.1137 -0.2146
-3.1747 2.1182 -0.2290
-3.2453 2.2616 -0.3292
-3.2487 2.2533 -0.3425
-3.2544 2.2505 -0.3589
-3.2598 2.2467 -0.3748
-3.2677 2.2482 -0.3943
-3.2783 2.2548 -0.4179
-3.2857 2.2542 -0.4371
-3.2984 2.2638 -0.4646
-3.3368 2.3037 -0.5406
-3.3502 2.3111 -0.5706
-3.3595 2.3109 -0.5947
-3.3583 2.2927 -0.6020
-3.3539 2.2700 -0.6037
-3.3473 2.2445 -0.6011
-3.3402 2.2195 -0.5972
-3.3359 2.1996 -0.5974
-3.3371 2.1883 -0.6068
-3.3291 2.1644 -0.5999
-3.3272 2.1499 -0.6033
-3.3219 2.1312 -0.6001
-3.3171 2.1034 -0.6036
-3.3122 2.0871 -0.6002
-3.3098 2.0745 -0.6014
-3.3053 2.0506 -0.6033
-3.0730 2.1553 0.0791
-3.0755 2.1507 0.0699
-3.0784 2.1486 0.0614
-3.0822 2.1526 0.0542
-3.0854 2.1516 0.0457
-3.0885 2.1506 0.0371
-3.0917 2.1495 0.0284
-3.0950 2.1484 0.0196
-3.0953 2.1322 0.0087
-3.0946 2.1115 -0.0023
-3.0955 2.1002 -0.0116
-3.0971 2.0925 -0.0203
-3.0994 2.0883 -0.0286
-3.1016 2.0841 -0.0369
-3.1042 2.0810 -0.0452
-3.1067 2.0779 -0.0534
-3.1095 2.0759 -0.0617
-3.1129 2.0760 -0.0701
-3.1170 2.0783 -0.0790
-3.1211 2.0804 -0.0880
-3.1250 2.0814 -0.0972
-3.1277 2.0781 -0.1059
-3.1333 2.0842 -0.1163
-3.1371 2.0839 -0.1259
-3.1412 2.0846 -0.1359
-3.1454 2.0852 -0.1461
-3.1515 2.0907 -0.1580
-3.1577 2.0960 -0.1703
-3.1630 2.0982 -0.1820
-3.1706 2.1061 -0.1963
-3.1788 2.1148 -0.2116
-3.2416 2.2510 -0.2848
-3.2475 2.2494 -0.3008
-3.2548 2.2506 -0.3184
-3.2631 2.2534 -0.3373
-3.2697 2.2525 -0.3546
-3.2774 2.2532 -0.3733
-3.2869 2.2574 -0.3946
-3.3157 2.2825 -0.4514
-3.3424 2.3160 -0.4977
-3.3583 2.3282 -0.5300
-3.3677 2.3282 -0.5537
-3.3783 2.3297 -0.5792
-3.3783 2.2979 -0.5991
-3.3745 2.2767 -0.6025
-3.3623 2.2298 -0.6008
-3.3608 2.2143 -0.6067
-3.3531 2.1906 -0.6020
-3.3478 2.1712 -0.6007
-3.3462 2.1573 -0.6053
-3.3398 2.1377 -0.6015
-3.3292 2.1032 -0.5961
-3.3268 2.0904 -0.5979
-3.3290 2.0833 -0.6079
-3.3202 2.0639 -0.5977
-3.3215 2.0564 -0.6058
-3.0831 2.1842 0.0976
-3.0828 2.1595 0.0821
-3.0853 2.1549 0.0728
-3.0880 2.1516 0.0639
-3.0912 2.1507 0.0556
-3.0948 2.1522 0.0477
-3.0985 2.1536 0.0396
-3.1020 2.1537 0.0311
-3.1055 2.1538 0.0225
-3.1037 2.1132 -0.0001
-3.1050 2.1042 -0.0092
-3.1065 2.0965 -0.0180
-3.1085 2.0911 -0.0265
-3.1107 2.0868 -0.0348
-3.1135 2.0848 -0.0431
-3.1164 2.0828 -0.0514
-3.1183 2.0775 -0.0596
-3.1215 2.0766 -0.0680
-3.1260 2.0799 -0.0768
-3.1302 2.0821 -0.0859
-3.1353 2.0863 -0.0954
-3.1390 2.0861 -0.1047
-3.1457 2.0942 -0.1156
-3.1492 2.0928 -0.1252
-3.1531 2.0924 -0.1351
-3.1602 2.1001 -0.1472
-3.1647 2.1005 -0.1579
-3.1684 2.0989 -0.1682
-3.1783 2.1119 -0.1837
-3.1818 2.1091 -0.1941
-3.2494 2.2524 -0.2643
-3.2549 2.2500 -0.2795
-3.2601 2.2466 -0.2945
-3.2675 2.2478 -0.3119
-3.2773 2.2535 -0.3321
-3.2864 2.2572 -0.3519
-3.2975 2.2643 -0.3744
-3.3348 2.3042 -0.4393
-3.3512 2.3181 -0.4702
-3.3765 2.3463 -0.5132
-3.3851 2.3446 -0.5355
-3.3964 2.3470 -0.5616
-3.4152 2.3610 -0.5983
-3.4073 2.3322 -0.5982
-3.3985 2.3030 -0.5961
-3.3969 2.2858 -0.6037
-3.3913 2.2631 -0.6049
-3.3836 2.2385 -0.6026
-3.3813 2.2221 -0.6078
-3.3707 2.1952 -0.5998
-3.3661 2.1772 -0.6006
-3.3631 2.1617 -0.6035
-3.3564 2.1315 -0.6072
-3.3497 2.1131 -0.6029
-3.3451 2.0980 -0.6019
-3.3423 2.0852 -0.6035
-3.3367 2.0698 -0.6001
-3.0933 2.1675 0.0862
-3.0950 2.1579 0.0754
-3.0982 2.1570 0.0671
-3.1009 2.1537 0.0582
-3.1049 2.1564 0.0506
-3.1085 2.1566 0.0422
-3.1118 2.1555 0.0335
-3.1160 2.1580 0.0252
-3.1183 2.1521 0.0155
-3.1157 2.1265 0.0035
-3.1151 2.1105 -0.0066
-3.1165 2.1027 -0.0156
-3.1176 2.0938 -0.0243
-3.1211 2.0941 -0.0325
-3.1230 2.0887 -0.0409
-3.1269 2.0900 -0.0493
-3.1298 2.0879 -0.0578
-3.1317 2.0826 -0.0661
-3.1346 2.0805 -0.0746
-3.1387 2.0816 -0.0835
-3.1446 2.0880 -0.0932
-3.1480 2.0868 -0.1023
-3.1558 2.0970 -0.1135
-3.1609 2.0998 -0.1239
-3.1658 2.1014 -0.1344
-3.1744 2.1121 -0.1474
-3.2551 2.2496 -0.2428
-3.2629 2.2522 -0.2596
-3.2699 2.2528 -0.2760
-3.2765 2.2522 -0.2923
-3.2861 2.2572 -0.3115
-3.2948 2.2601 -0.3304
-3.3095 2.2739 -0.3559
-3.3646 2.3444 -0.4375
-3.3807 2.3565 -0.4674
-3.3929 2.3612 -0.4935
-3.4085 2.3708 -0.5240
-3.4212 2.3750 -0.5515
-3.4444 2.3950 -0.5927
-3.4418 2.3740 -0.6013
-3.4316 2.3425 -0.5995
-3.4191 2.2941 -0.6040
-3.4124 2.2705 -0.6047
-3.3933 2.2060 -0.6048
-3.3878 2.1871 -0.6051
-3.3789 2.1646 -0.5997
-3.3765 2.1508 -0.6039
-3.3651 2.1269 -0.5937
-3.3655 2.1173 -0.6015
-3.3626 2.1042 -0.6038
-3.3542 2.0765 -0.6034
-3.1032 2.1706 0.0888
-3.1055 2.1647 0.0791
-3.1075 2.1576 0.0691
-3.1110 2.1579 0.0610
-3.1151 2.1606 0.0534
-3.1179 2.1572 0.0443
-3.1216 2.1573 0.0358
-3.1259 2.1598 0.0276
-3.1288 2.1563 0.0182
-3.1266 2.1341 0.0065
-3.1252 2.1156 -0.0041
-3.1272 2.1101 -0.0129
-3.1291 2.1046 -0.0216
-3.1321 2.1025 -0.0301
-3.1350 2.1005 -0.0386
-3.1380 2.0984 -0.0472
-3.1432 2.1029 -0.0559
-3.1451 2.0974 -0.0646
-3.1447 2.0854 -0.0727
-3.1489 2.0865 -0.0816
-3.1531 2.0876 -0.0908
-3.1582 2.0906 -0.1004
-3.1655 2.0988 -0.1112
-3.1700 2.0996 -0.1212
-3.1758 2.1033 -0.1320
-3.1883 2.1222 -0.1470
-3.1967 2.1305 -0.1603
-3.2572 2.2536 -0.2092
-3.2614 2.2486 -0.2227
-3.2669 2.2465 -0.2372
-3.2758 2.2511 -0.2546
-3.2887 2.2632 -0.2757
-3.2965 2.2645 -0.2930
-3.3277 2.2948 -0.3430
-3.3463 2.3139 -0.3723
-3.3996 2.3759 -0.4504
-3.4101 2.3771 -0.4739
-3.4283 2.3905 -0.5064
-3.4408 2.3938 -0.5331
-3.4562 2.4013 -0.5637
-3.4697 2.4050 -0.5925
-3.4605 2.3588 -0.6057
-3.4435 2.3050 -0.6066
-3.4269 2.2554 -0.6051
-3.4177 2.2309 -0.6022
-3.4089 2.2076 -0.5991
-3.4041 2.1901 -0.6012
-3.3992 2.1729 -0.6026
-3.3852 2.1356 -0.5981
-3.3686 2.0798 -0.6013
-4.9573 1.7417 0.3198
-5.0140 1.7916 0.3384
-5.0908 1.8515 0.3624
-5.1867 1.9226 0.3919
-5.2547 1.9900 0.4153
-6.0078 4.3227 0.9052
-5.8042 4.2236 0.8502
-5.1320 1.8599 0.3342
-5.1636 1.9109 0.3466
-5.1522 1.9496 0.3496
-5.7862 2.4279 0.5269
-5.9242 2.5653 0.5699
-6.1903 2.7810 0.6463
-5.8921 4.1919 0.7770
-5.8564 4.2941 0.7839
-5.1791 1.9117 0.3096
-5.6465 2.3588 0.4374
-5.7968 2.4980 0.4779
-5.9730 4.2924 0.7146
-5.8395 4.2794 0.6914
-6.1189 4.7957 0.7966
-5.0462 6.2159 0.7871
-4.9606 6.2469 0.7768
-5.1780 1.9072 0.2687
-5.9256 2.4825 0.4339
-5.8662 2.5276 0.4300
-5.9094 2.6250 0.4460
-6.0066 4.3374 0.6326
-5.9186 4.3839 0.6247
-5.9859 4.6302 0.6592
-5.7157 5.3355 0.6915
-5.3901 6.0707 0.7189
-5.3863 6.3406 0.7456
-5.0595 6.0061 0.6650
-4.9122 5.8393 0.6271
-4.8061 5.7776 0.6056
-4.9744 6.6775 0.7205
-5.1866 1.9056 0.2289
-5.9305 2.4798 0.3705
-5.9959 2.5862 0.3877
-6.0457 2.6914 0.4029
-5.8651 4.1756 0.5074
-5.8291 4.2790 0.5118
-5.8893 4.5116 0.5391
-5.7220 5.3647 0.5913
-5.3565 5.5214 0.5593
-5.1594 5.2977 0.5157
-5.1145 5.4173 0.5203
-5.0216 5.6637 0.5299
-4.8834 5.5219 0.5006
-4.8368 5.6419 0.5051
-4.7498 5.6312 0.4933
-4.7434 1.3354 0.1011
-4.7649 1.4191 0.1092
-8.0884 2.2796 0.5180
-5.1788 1.8988 0.1863
-5.9460 2.5570 0.3128
-6.0940 2.7117 0.3392
-6.2967 4.5243 0.4874
-5.9453 4.2758 0.4331
-5.8352 4.2930 0.4228
-5.8713 4.4959 0.4408
-5.3421 5.2899 0.4409
-5.1359 5.0534 0.4027
-5.0765 5.1277 0.4017
-4.9729 5.0909 0.3883
-4.8752 5.0568 0.3756
-4.8192 5.1270 0.3747
-4.8127 5.3460 0.3893
-4.7304 5.3419 0.3804
-4.7451 5.6586 0.4042
-4.8598 6.7328 0.4914
-4.6713 6.3396 0.4441
-4.6047 6.4231 0.4430
-4.5618 6.6230 0.4525
-4.4605 6.5322 0.4355
-4.3847 6.5575 0.4293
-4.7554 1.3310 0.0777
-4.7522 1.4145 0.0819
-5.1635 1.8897 0.1428
-5.9519 2.5550 0.2462
-6.3432 4.5816 0.3897
-5.9277 4.2605 0.3368
-5.8909 4.3691 0.3396
-5.8041 4.4153 0.3347
-5.9452 4.7744 0.3663
-5.7751 4.7085 0.3482
-5.7851 4.9040 0.3597
-5.8627 5.4322 0.3950
-5.6971 5.8154 0.4017
-5.2663 5.1516 0.3289
-5.1518 5.1125 0.3170
-5.0443 5.0765 0.3059
-4.9855 5.1501 0.3049
-4.8722 5.0774 0.2913
-4.8156 5.1483 0.2903
-4.8356 5.4512 0.3085
-4.8020 5.6116 0.3144
-4.7804 5.8246 0.3241
-4.6787 6.4354 0.3487
-4.5857 6.4066 0.3392
-4.4066 5.9312 0.2981
-4.3559 6.0522 0.3003
-4.2723 5.9879 0.2897
-4.7261 1.3882 0.0532
-4.7369 1.4099 0.0548
-5.1783 1.8899 0.1021
-6.1955 4.4201 0.2659
-5.9101 4.2451 0.2405
-5.8249 4.2931 0.2368
-5.8107 4.4319 0.2412
-5.8727 4.6834 0.2550
-5.8587 4.8420 0.2601
-5.8717 5.0508 0.2690
-5.8294 5.1828 0.2713
-5.7588 5.2712 0.2701
-5.7146 5.4072 0.2725
-5.6432 5.4967 0.2713
-5.4545 5.3484 0.2532
-5.2130 5.0598 0.2264
-5.1022 5.0239 0.2177
-5.0584 5.1358 0.2192
-5.0135 5.2492 0.2206
-4.9529 5.3251 0.2196
-4.8785 5.3612 0.2161
-4.7925 5.3565 0.2103
-4.7977 5.6389 0.2215
-4.7759 5.8559 0.2285
-4.8105 6.3031 0.2479
-4.7275 6.3331 0.2437
-4.6208 6.2519 0.2336
-4.5100 6.1253 0.2214
-4.4367 6.1533 0.2177
-4.4029 6.3888 0.2246
-4.7424 1.3845 0.0285
-4.7386 1.4059 0.0288
-4.6985 1.4479 0.0280
-5.1779 1.8854 0.0594
-5.9450 2.5418 0.1088
-5.9697 4.3217 0.1498
-5.9059 4.4017 0.1487
-5.9798 5.0318 0.1661
-6.0178 5.5066 0.1785
-6.0053 5.7142 0.1826
-5.8641 5.6993 0.1759
-5.6229 5.4790 0.1600
-5.3927 5.2449 0.1444
-5.1447 4.9348 0.1263
-5.1509 5.1590 0.1316
-5.1059 5.2771 0.1322
-4.9666 5.1579 0.1232
-4.9357 5.3101 0.1252
-4.8896 5.4279 0.1258
-4.8146 5.4618 0.1232
-4.9126 6.0601 0.1410
-4.9437 6.4952 0.1521
-4.6531 6.4587 0.1382
-4.4920 6.1096 0.1231
-4.3556 5.8132 0.1103
-4.2671 5.7171 0.1041
-4.7481 1.3805 0.0027
-4.7454 1.4021 0.0027
-5.1860 1.8834 0.0166
-5.1423 1.9133 0.0157
-5.9323 2.5307 0.0390
-5.7082 5.6657 0.0527
-5.4383 5.3603 0.0441
-5.2131 5.1051 0.0370
-5.1507 5.1833 0.0359
-4.9942 5.0327 0.0311
-4.9791 5.2192 0.0319
-4.8903 5.2176 0.0297
-4.8178 5.2537 0.0281
-4.7716 5.3663 0.0277
-4.9428 6.2083 0.0371
-4.5405 6.4122 0.0283
-4.4110 6.1731 0.0237
-4.3569 6.3038 0.0231
-4.3107 6.4928 0.0231
-4.7394 1.3763 -0.0237
-4.7470 1.3980 -0.0238
-4.7298 1.4196 -0.0241
-4.7164 1.4413 -0.0244
-5.9377 2.5282 -0.0307
-6.0058 2.6422 -0.0316
-6.7227 3.1151 -0.0336
-6.6942 3.2117 -0.0347
-5.8816 5.7739 -0.0646
-5.7147 5.7013 -0.0645
-5.3971 5.2983 -0.0616
-5.1272 4.9410 -0.0590
-5.0363 4.9445 -0.0595
-4.9628 4.9821 -0.0601
-4.9187 5.0918 -0.0615
-4.8874 5.2415 -0.0631
-4.9129 5.5687 -0.0664
-4.7675 5.3917 -0.0652
-4.8454 6.6140 -0.0776
-4.7559 6.6421 -0.0782
-4.6544 6.6062 -0.0783
-4.5100 6.3404 -0.0761
-4.3930 6.1574 -0.0747
-4.3123 6.1349 -0.0748
-4.2586 6.2633 -0.0763
-4.7643 1.3300 -0.0493
-4.7281 1.3720 -0.0498
-4.7216 1.3933 -0.0503
-4.7401 1.4159 -0.0512
-5.1421 1.9046 -0.0712
-5.9429 2.5255 -0.1015
-5.9681 4.3375 -0.1510
-5.2401 4.9959 -0.1565
-5.1102 4.9261 -0.1525
-5.0347 4.9650 -0.1523
-5.0210 5.1524 -0.1571
-4.9303 5.1515 -0.1555
-4.9278 5.3871 -0.1619
-4.9412 5.6912 -0.1703
-4.7630 5.4167 -0.1599
-4.8390 5.9568 -0.1758
-4.5120 6.0324 -0.1724
-4.4282 6.0130 -0.1704
-4.3566 6.0421 -0.1700
-4.3033 6.1695 -0.1726
-4.7373 1.3895 -0.0774
-4.7314 1.4115 -0.0781
-5.2403 1.9321 -0.1204
-5.9677 2.5320 -0.1745
-5.9994 2.6290 -0.1799
-6.9082 3.3237 -0.2451
-6.0415 4.7821 -0.2763
-6.1958 5.1906 -0.3001
-5.2408 5.0190 -0.2563
-5.3121 5.3950 -0.2755
-5.2051 5.3892 -0.2712
-5.0850 5.3395 -0.2644
-5.1135 5.9447 -0.2922
-5.0058 5.9251 -0.2872
-4.8719 5.8065 -0.2769
-4.7941 6.9467 -0.3241
-4.5875 6.4492 -0.2943
-4.5059 6.4766 -0.2924
-4.4055 6.3909 -0.2849
-4.3026 6.2563 -0.2750
-4.2900 6.6754 -0.2930
-4.7484 1.3425 -0.1025
-4.7354 1.3637 -0.1030
-4.7362 1.3853 -0.1044
-4.7303 1.4073 -0.1054
-5.2318 1.9247 -0.1669
-5.9546 2.5206 -0.2463
-5.9269 2.5876 -0.2488
-6.2684 4.5338 -0.3881
-5.8048 4.1531 -0.3372
-5.7206 4.2021 -0.3352
-6.0517 4.8054 -0.3918
-5.6286 5.8542 -0.4308
-4.0092 2.9458 -0.1565
-3.9691 2.9249 -0.1529
-3.9319 2.9069 -0.1495
-4.7475 1.3383 -0.1292
-4.6966 1.4470 -0.1336
-5.2326 1.9203 -0.2143
-6.2187 2.5520 -0.3441
-5.9228 2.5004 -0.3160
-5.8954 2.5669 -0.3190
-7.0716 3.4052 -0.4804
-6.3511 4.6338 -0.5183
-5.8864 4.2575 -0.4510
-5.7489 4.2452 -0.4389
-6.1864 5.2015 -0.5495
-6.0737 5.2495 -0.5441
-5.8708 5.5968 -0.5549
-5.7622 5.6398 -0.5495
-5.6342 5.8933 -0.5590
-5.4518 5.7606 -0.5337
-5.1858 5.4003 -0.4838
-3.9607 2.9133 -0.1889
-3.9170 2.8717 -0.1821
-3.8758 2.8286 -0.1753
-3.8324 2.7657 -0.1669
-3.8070 2.7671 -0.1649
-3.7795 2.7549 -0.1617
-3.7463 2.7066 -0.1552
-3.7045 2.7188 -0.1528
-4.7570 1.3337 -0.1571
-4.7372 1.3552 -0.1571
-4.7302 1.3768 -0.1584
-4.7025 1.4434 -0.1620
-5.2240 1.9128 -0.2610
-6.4816 2.6595 -0.4628
-5.9284 2.4977 -0.3900
-5.9005 2.5646 -0.3936
-6.8508 3.2736 -0.5600
-6.8984 3.4276 -0.5797
-6.7160 3.4424 -0.5623
-6.5475 3.5866 -0.5587
-6.3532 3.5717 -0.5372
-6.2601 3.6277 -0.5330
-6.3476 3.8370 -0.5621
-6.0524 4.1399 -0.5607
-5.8814 4.1021 -0.5394
-5.8429 4.2110 -0.5459
-5.8403 4.5396 -0.5772
-5.4344 5.2618 -0.6047
-5.3014 5.2148 -0.5865
-5.2540 5.3443 -0.5940
-3.9954 2.9338 -0.2322
-3.8315 2.7803 -0.2005
-3.7706 2.7337 -0.1897
-3.7433 2.7137 -0.1850
-3.6946 2.6838 -0.1771
-3.6723 2.6703 -0.1735
-3.6554 2.6915 -0.1737
-4.7466 1.3727 -0.1881
-4.7335 1.4177 -0.1915
-4.7120 1.4399 -0.1914
-5.2509 1.9165 -0.3134
-5.2650 1.9701 -0.3213
-6.8310 2.7000 -0.6014
-6.5797 2.6948 -0.5692
-6.0741 2.5598 -0.4902
-5.9063 2.5625 -0.4695
-6.4057 3.0157 -0.5839
-6.3751 3.1064 -0.5904
-6.3442 3.1990 -0.5971
-6.2842 3.2741 -0.5981
-6.2803 3.3899 -0.6108
-6.1909 3.4449 -0.6058
-6.1043 3.4995 -0.6012
-6.0444 3.5746 -0.6022
-5.9844 3.6497 -0.6032
-5.9487 3.7484 -0.6100
-5.8881 3.8242 -0.6110
-5.7591 3.8259 -0.5950
-5.7221 3.9245 -0.6015
-5.6846 4.0254 -0.6083
-5.6459 4.1277 -0.6151
-5.5853 4.2036 -0.6162
-5.5248 4.2795 -0.6172
-5.4447 4.3258 -0.6124
-5.3848 4.4010 -0.6135
-5.3431 4.5071 -0.6203
-5.2300 4.4887 -0.6040
-5.2049 4.6263 -0.6165
-5.1789 4.7698 -0.6296
-5.1009 4.8105 -0.6244
-5.0565 4.9232 -0.6317
-4.9361 4.8570 -0.6090
-4.0649 2.9430 -0.2813
-4.0257 2.9350 -0.2755
-3.9863 2.9210 -0.2690
-3.9301 2.8441 -0.2531
-3.8522 2.7737 -0.2353
-3.7642 2.7240 -0.2186
-3.7405 2.7220 -0.2154
-3.6607 2.6175 -0.1934
-3.6439 2.6338 -0.1932
-4.7275 1.3467 -0.2105
-4.7316 1.3683 -0.2140
-4.7442 1.4139 -0.2219
-4.7405 1.4375 -0.2244
-5.2241 1.9033 -0.3577
-5.2205 1.9503 -0.3634
-6.0064 2.4419 -0.5449
-5.9022 2.4748 -0.5338
-5.8741 2.5415 -0.5384
-6.0034 2.6926 -0.5775
-5.8735 2.8932 -0.5848
-5.8833 2.9974 -0.6000
-5.7536 3.0056 -0.5818
-5.6671 3.0401 -0.5735
-5.5837 3.0737 -0.5656
-5.5538 3.2560 -0.5852
-5.4705 3.2863 -0.5769
-5.4538 3.3812 -0.5869
-5.3420 3.3766 -0.5697
-5.3087 3.4545 -0.5751
-5.3665 3.6449 -0.6088
-5.2248 3.5941 -0.5811
-5.1757 3.6557 -0.5819
-5.1822 3.7971 -0.6016
-5.0805 3.9244 -0.6033
-5.0564 4.0334 -0.6141
-5.0047 4.0981 -0.6150
-4.9281 4.1154 -0.6059
-4.9013 4.2276 -0.6168
-4.8265 4.2427 -0.6076
-4.7650 4.2819 -0.6037
-4.7356 4.3959 -0.6144
-4.0576 2.9366 -0.3211
-4.0231 2.9421 -0.3167
-3.9777 2.9093 -0.3056
-3.9254 2.8442 -0.2893
-3.8524 2.7924 -0.2716
-3.8165 2.7556 -0.2614
-3.7883 2.7438 -0.2557
-4.7403 1.3422 -0.2402
-4.7621 1.4103 -0.2542
-4.7508 1.4338 -0.2558
-4.7322 1.4571 -0.2561
-6.1912 2.0536 -0.5958
-5.2425 1.9041 -0.4107
-5.2206 1.9456 -0.4132
-5.5658 2.1838 -0.5082
-5.8708 2.4550 -0.6012
-5.7390 2.4701 -0.5809
-5.6949 2.5253 -0.5817
-5.6672 2.5897 -0.5866
-5.6388 2.6550 -0.5916
-5.6254 2.7312 -0.6007
-5.5800 2.7881 -0.6015
-5.5346 2.8450 -0.6023
-5.4892 2.9019 -0.6031
-5.4294 2.9471 -0.5996
-5.3984 3.0157 -0.6046
-5.3673 3.0858 -0.6098
-5.3356 3.1568 -0.6151
-5.2895 3.2146 -0.6159
-5.2300 3.2578 -0.6122
-5.2239 3.3608 -0.6266
-5.1018 3.3278 -0.6007
-5.0927 3.4299 -0.6145
-5.0709 3.5198 -0.6243
-4.9786 3.5119 -0.6073
-4.9228 3.5521 -0.6038
-4.8780 3.6082 -0.6046
-4.8433 3.6814 -0.6096
-4.8079 3.7554 -0.6147
-4.7723 3.8312 -0.6200
-4.7080 3.8508 -0.6119
-4.6716 3.9261 -0.6170
-4.6179 3.9638 -0.6135
-4.0577 2.9508 -0.3652
-3.8441 2.7777 -0.3025
-3.7798 2.7254 -0.2836
-3.7485 2.6895 -0.2729
-3.6728 2.6233 -0.2500
-4.7530 1.3375 -0.2707
-4.7557 1.3823 -0.2787
-4.7641 1.4059 -0.2844
-4.7384 1.4288 -0.2832
-5.2428 1.8992 -0.4609
-5.2207 1.9409 -0.4636
-5.5294 2.2279 -0.5722
-5.4653 2.2647 -0.5659
-5.4396 2.3187 -0.5700
-5.3889 2.3604 -0.5672
-5.3276 2.3953 -0.5612
-5.2899 2.4426 -0.5618
-5.2858 2.5113 -0.5727
-5.2586 2.5671 -0.5768
-5.2310 2.6235 -0.5810
-5.1705 2.6558 -0.5746
-5.1756 2.7394 -0.5898
-5.1252 2.7794 -0.5867
-5.0352 2.7819 -0.5696
-4.9602 2.7935 -0.5570
-4.9876 2.9967 -0.5967
-4.9292 3.0249 -0.5900
-4.8373 3.0096 -0.5696
-4.8783 3.1585 -0.6027
-4.8205 3.1843 -0.5958
-4.7638 3.2088 -0.5889
-4.7416 3.2832 -0.5972
-4.7346 3.3851 -0.6130
-4.7024 3.4503 -0.6178
-4.6616 3.5014 -0.6185
-4.6131 3.5374 -0.6151
-4.5726 3.5881 -0.6158
-4.5185 3.6093 -0.6089
-4.4654 3.6292 -0.6019
-4.4135 3.6477 -0.5949
-4.0531 2.9519 -0.4072
-3.8417 2.7867 -0.3382
-3.8061 2.7505 -0.3251
-3.6929 2.6486 -0.2859
-3.6669 2.6113 -0.2745
-3.6463 2.6014 -0.2688
-4.6213 1.3362 -0.2710
-4.7672 1.4016 -0.3152
-4.7557 1.4254 -0.3171
-4.7217 1.4478 -0.3139
-5.7583 1.7111 -0.5895
-5.7408 1.8132 -0.6049
-5.6900 1.8568 -0.6020
-5.6263 1.8965 -0.5956
-5.5151 1.9218 -0.5760
