ply
format ascii 1.0
element vertex 2119
property float x
property float y
property float z
end_header
-3.4029 2.3322 -0.1708
-3.4393 2.3868 -0.1829
-3.4584 2.4079 -0.1874
-3.4974 2.4413 -0.1944
-3.5162 2.4504 -0.1962
-3.5329 2.4513 -0.1960
-3.5780 2.4897 -0.2040
-3.6020 2.5096 -0.2082
-3.6209 2.5138 -0.2087
-3.6429 2.5255 -0.2110
-3.8158 2.6944 -0.2470
-3.8432 2.7070 -0.2493
-4.0149 2.8501 -0.2792
-4.0605 2.8846 -0.2863
-3.1748 2.0681 -0.1050
-3.1814 2.0722 -0.1057
-3.1886 2.0755 -0.1062
-3.1940 2.0824 -0.1076
-3.1977 2.0930 -0.1097
-3.2019 2.1036 -0.1118
-3.2081 2.1117 -0.1134
-3.2000 2.1810 -0.1280
-3.2057 2.1979 -0.1314
-3.2094 2.2234 -0.1367
-3.2270 2.2533 -0.1426
-3.2382 2.2632 -0.1444
-3.2497 2.2741 -0.1465
-3.2585 2.3015 -0.1520
-3.2720 2.3088 -0.1533
-3.2857 2.3171 -0.1548
-3.3154 2.3162 -0.1540
-3.3296 2.3226 -0.1551
-3.3587 2.3266 -0.1554
-3.3732 2.3281 -0.1554
-3.3879 2.3336 -0.1563
-3.4043 2.3553 -0.1605
-3.4788 2.4378 -0.1763
-3.4990 2.4552 -0.1796
-3.5172 2.4613 -0.1805
-3.5330 2.4581 -0.1795
-3.5497 2.4589 -0.1794
-3.6000 2.5104 -0.1892
-3.6196 2.5167 -0.1901
-3.6461 2.5402 -0.1945
-3.6692 2.5531 -0.1968
-3.8045 2.6798 -0.2207
-3.8390 2.7066 -0.2256
-4.0633 2.8974 -0.2612
-3.1817 2.0736 -0.0974
-3.1873 2.0796 -0.0984
-3.1937 2.0847 -0.0992
-3.1867 2.1597 -0.1128
-3.1993 2.1849 -0.1172
-3.2075 2.1954 -0.1189
-3.2174 2.2021 -0.1200
-3.2241 2.2203 -0.1232
-3.2322 2.2367 -0.1260
-3.2431 2.2456 -0.1275
-3.2537 2.2574 -0.1295
-3.2658 2.2645 -0.1306
-3.2758 2.2863 -0.1343
-3.2870 2.3083 -0.1381
-3.2976 2.3462 -0.1448
-3.3122 2.3567 -0.1465
-3.3279 2.3554 -0.1461
-3.3428 2.3790 -0.1501
-3.4397 2.4047 -0.1534
-3.4597 2.4302 -0.1577
-3.4779 2.4403 -0.1593
-3.4969 2.4526 -0.1612
-3.5159 2.4629 -0.1628
-3.5322 2.4617 -0.1624
-3.5548 2.4826 -0.1658
-3.5769 2.4994 -0.1686
-3.5998 2.5164 -0.1713
-3.6206 2.5260 -0.1727
-3.6857 2.5993 -0.1851
-3.7160 2.6256 -0.1894
-3.7425 2.6412 -0.1918
-3.7722 2.6623 -0.1952
-3.8039 2.6858 -0.1990
-3.8360 2.7084 -0.2026
-3.8684 2.7300 -0.2061
-4.0148 2.8664 -0.2286
-4.0589 2.8991 -0.2339
-4.0962 2.9195 -0.2370
-3.0733 2.0573 -0.0874
-3.1744 2.1211 -0.0962
-3.1777 2.1348 -0.0982
-3.1812 2.1496 -0.1004
-3.1898 2.1551 -0.1012
-3.1978 2.1625 -0.1023
-3.2061 2.1700 -0.1033
-3.2117 2.1861 -0.1057
-3.2183 2.2014 -0.1080
-3.2272 2.2120 -0.1095
-3.2374 2.2198 -0.1106
-3.2451 2.2393 -0.1135
-3.2567 2.2454 -0.1143
-3.2665 2.2622 -0.1168
-3.2786 2.2703 -0.1179
-3.2894 2.2904 -0.1209
-3.3014 2.3086 -0.1235
-3.3144 2.3260 -0.1261
-3.3272 2.3636 -0.1317
-3.3424 2.3823 -0.1344
-3.3768 2.4640 -0.1465
-3.3947 2.4661 -0.1467
-3.4116 2.4579 -0.1453
-3.4252 2.4248 -0.1401
-3.4446 2.4474 -0.1434
-3.5212 2.4918 -0.1494
-3.6062 2.5418 -0.1563
-3.6248 2.5440 -0.1564
-3.6882 2.6124 -0.1663
-3.7187 2.6389 -0.1700
-3.7408 2.6447 -0.1707
-3.7668 2.6583 -0.1725
-3.8010 2.6874 -0.1767
-3.8318 2.7078 -0.1795
-3.8745 2.7485 -0.1853
-3.9980 2.8475 -0.1993
-3.1497 2.0829 -0.0818
-3.1533 2.0916 -0.0829
-3.1597 2.0968 -0.0835
-3.1635 2.1066 -0.0847
-3.1678 2.1165 -0.0859
-3.1736 2.1246 -0.0869
-3.1808 2.1310 -0.0877
-3.1860 2.1420 -0.0890
-3.1960 2.1437 -0.0892
-3.2011 2.1568 -0.0908
-3.2058 2.1729 -0.0928
-3.2134 2.1834 -0.0941
-3.2209 2.1959 -0.0956
-3.2296 2.2065 -0.0969
-3.2398 2.2133 -0.0977
-3.2483 2.2281 -0.0995
-3.2581 2.2409 -0.1010
-3.2686 2.2529 -0.1025
-3.2796 2.2650 -0.1040
-3.2907 2.2811 -0.1059
-3.3022 2.3004 -0.1083
-3.3152 2.3138 -0.1099
-3.3283 2.3354 -0.1125
-3.3424 2.3633 -0.1159
-3.6252 2.6053 -0.1449
-3.7050 2.6607 -0.1514
-3.7517 2.6758 -0.1531
-3.7772 2.6873 -0.1545
-3.8504 2.7508 -0.1621
-3.8811 2.7683 -0.1641
-3.9310 2.8186 -0.1702
-3.9591 2.8285 -0.1713
-3.9889 2.8407 -0.1727
-4.0307 2.8713 -0.1763
-4.0737 2.9021 -0.1800
-3.1393 2.0732 -0.0722
-3.1443 2.0792 -0.0728
-3.1495 2.0852 -0.0734
-3.1543 2.0922 -0.0741
-3.1601 2.0983 -0.0747
-3.1650 2.1063 -0.0755
-3.1697 2.1153 -0.0764
-3.1770 2.1207 -0.0769
-3.1834 2.1279 -0.0776
-3.1893 2.1372 -0.0785
-3.1944 2.1493 -0.0797
-3.2004 2.1606 -0.0808
-3.2093 2.1662 -0.0813
-3.2166 2.1767 -0.0824
-3.2241 2.1882 -0.0835
-3.2331 2.1970 -0.0843
-3.2418 2.2077 -0.0854
-3.2506 2.2205 -0.0866
-3.2596 2.2354 -0.0881
-3.2697 2.2484 -0.0894
-3.2807 2.2595 -0.0905
-3.2919 2.2727 -0.0917
-3.3040 2.2830 -0.0928
-3.3154 2.3085 -0.0953
-3.3284 2.3282 -0.0972
-3.3421 2.3582 -0.1001
-3.3572 2.3762 -0.1019
-3.3736 2.4077 -0.1049
-3.8871 2.7871 -0.1421
-3.9487 2.8582 -0.1491
-3.1391 2.0754 -0.0641
-3.1454 2.0796 -0.0644
-3.1499 2.0866 -0.0649
-3.1553 2.0927 -0.0654
-3.1610 2.0988 -0.0659
-3.1653 2.1078 -0.0665
-3.1727 2.1122 -0.0669
-3.1782 2.1204 -0.0675
-3.1832 2.1305 -0.0682
-3.1895 2.1388 -0.0688
-3.1954 2.1491 -0.0696
-3.2034 2.1557 -0.0701
-3.2109 2.1642 -0.0707
-3.2174 2.1767 -0.0717
-3.2261 2.1844 -0.0722
-3.2348 2.1931 -0.0729
-3.2431 2.2049 -0.0738
-3.2520 2.2167 -0.0747
-3.2608 2.2317 -0.0758
-3.2714 2.2407 -0.0765
-3.2820 2.2518 -0.0773
-3.2931 2.2641 -0.0782
-3.3040 2.2825 -0.0796
-3.3162 2.2969 -0.0807
-3.3282 2.3279 -0.0829
-3.3421 2.3427 -0.0840
-3.3567 2.3762 -0.0865
-3.3724 2.3892 -0.0875
-3.5165 3.2890 -0.1519
-3.5453 3.2206 -0.1472
-3.5993 3.3342 -0.1555
-3.6402 3.3474 -0.1567
-3.6773 3.3414 -0.1564
-5.1459 4.8941 -0.2737
-5.2199 4.9068 -0.2749
-5.2495 4.8478 -0.2709
-5.7638 5.5477 -0.3230
-6.6544 6.7708 -0.4141
-3.1396 2.0768 -0.0559
-3.1458 2.0810 -0.0562
-3.1503 2.0880 -0.0565
-3.1550 2.0950 -0.0569
-3.1613 2.1003 -0.0572
-3.1696 2.1027 -0.0574
-3.1730 2.1137 -0.0579
-3.1774 2.1238 -0.0584
-3.1839 2.1312 -0.0588
-3.1906 2.1386 -0.0592
-3.1990 2.1432 -0.0594
-3.2035 2.1575 -0.0601
-3.2110 2.1660 -0.0606
-3.2202 2.1707 -0.0609
-3.2271 2.1834 -0.0615
-3.2360 2.1911 -0.0619
-3.2436 2.2049 -0.0626
-3.2519 2.2188 -0.0633
-3.2621 2.2268 -0.0638
-3.2727 2.2349 -0.0642
-3.2833 2.2450 -0.0648
-3.2931 2.2644 -0.0657
-3.3048 2.2747 -0.0663
-3.3162 2.2954 -0.0673
-3.3283 2.3204 -0.0686
-3.3418 2.3425 -0.0697
-3.3562 2.3679 -0.0709
-3.3715 2.3788 -0.0716
-3.3885 2.4129 -0.0733
-3.4704 3.2179 -0.1099
-3.5148 3.2942 -0.1137
-3.5610 3.3573 -0.1169
-3.6034 3.3781 -0.1182
-3.6569 3.4560 -0.1222
-3.7008 3.4708 -0.1233
-3.7615 3.5561 -0.1277
-4.3573 5.7158 -0.2294
-4.6136 6.2947 -0.2576
-4.8561 5.5807 -0.2282
-4.9336 5.5597 -0.2280
-4.9783 5.4685 -0.2243
-5.0209 5.3832 -0.2209
-5.0454 5.2698 -0.2161
-4.8976 4.8292 -0.1951
-4.9577 4.8177 -0.1952
-4.9570 4.6979 -0.1898
-5.0262 4.7097 -0.1910
-5.1086 4.7436 -0.1933
-5.2768 4.9151 -0.2025
-3.1393 2.0790 -0.0478
-3.1449 2.0842 -0.0480
-3.1507 2.0893 -0.0482
-3.1567 2.0946 -0.0484
-3.1623 2.1008 -0.0485
-3.1682 2.1070 -0.0487
-3.1727 2.1162 -0.0490
-3.1792 2.1225 -0.0492
-3.1851 2.1309 -0.0494
-3.1917 2.1383 -0.0497
-3.1996 2.1439 -0.0499
-3.2052 2.1553 -0.0502
-3.2133 2.1619 -0.0504
-3.2206 2.1716 -0.0507
-3.2284 2.1813 -0.0510
-3.2360 2.1931 -0.0513
-3.2433 2.2080 -0.0517
-3.2540 2.2119 -0.0519
-3.2648 2.2158 -0.0521
-3.2746 2.2259 -0.0524
-3.2834 2.2452 -0.0529
-3.2943 2.2555 -0.0533
-3.3034 2.2885 -0.0540
-3.3152 2.3073 -0.0545
-3.3281 2.3200 -0.0549
-3.3417 2.3297 -0.0553
-3.3557 2.3488 -0.0559
-3.3709 2.3776 -0.0566
-3.3881 2.4183 -0.0576
-3.5142 3.3100 -0.0759
-3.5598 3.3682 -0.0776
-3.6098 3.4375 -0.0796
-3.6556 3.4674 -0.0808
-3.6996 3.4823 -0.0817
-3.7421 3.4896 -0.0824
-4.3755 5.8258 -0.1347
-4.4648 5.8012 -0.1355
-4.7528 6.1075 -0.1452
-4.8427 6.0778 -0.1459
-4.9132 6.0019 -0.1454
-4.7573 5.3619 -0.1314
-4.7789 5.2199 -0.1290
-4.8751 5.2637 -0.1312
-4.8051 4.9445 -0.1243
-4.9186 5.0353 -0.1276
-4.9569 4.9706 -0.1269
-4.9556 4.8372 -0.1244
-5.0153 4.8265 -0.1250
-5.0746 4.8167 -0.1257
-5.1190 4.7835 -0.1257
-5.2172 4.8412 -0.1281
-5.4628 5.1286 -0.1369
-3.1384 2.0822 -0.0397
-3.1433 2.0883 -0.0397
-3.1504 2.0916 -0.0398
-3.1558 2.0978 -0.0399
-3.1614 2.1041 -0.0400
-3.1668 2.1113 -0.0400
-3.1735 2.1167 -0.0401
-3.1800 2.1231 -0.0402
-3.1858 2.1315 -0.0402
-3.1919 2.1399 -0.0403
-3.1993 2.1465 -0.0404
-3.2062 2.1550 -0.0404
-3.2134 2.1637 -0.0405
-3.2203 2.1744 -0.0406
-3.2290 2.1811 -0.0407
-3.2365 2.1930 -0.0407
-3.2473 2.1948 -0.0409
-3.2554 2.2078 -0.0410
-3.2656 2.2138 -0.0411
-3.2750 2.2249 -0.0412
-3.2840 2.2423 -0.0412
-3.2945 2.2547 -0.0414
-3.3040 2.2827 -0.0413
-3.3155 2.3015 -0.0414
-3.3279 2.3206 -0.0415
-3.3414 2.3282 -0.0417
-3.3553 2.3496 -0.0418
-3.3706 2.3891 -0.0418
-3.3876 2.4227 -0.0419
-3.4050 2.4426 -0.0421
-3.5144 3.3334 -0.0379
-3.5631 3.4136 -0.0382
-3.6042 3.4206 -0.0389
-3.6503 3.4560 -0.0395
-3.6907 3.4566 -0.0402
-4.3212 5.6489 -0.0365
-4.4856 5.9146 -0.0376
-4.6431 6.1180 -0.0391
-4.7497 6.1362 -0.0409
-4.8230 6.0580 -0.0428
-4.8613 5.8967 -0.0447
-4.8077 5.5212 -0.0463
-4.7516 5.1821 -0.0476
-4.7608 5.0296 -0.0489
-4.7363 4.8195 -0.0499
-4.7976 4.8089 -0.0511
-4.9546 4.9910 -0.0527
-4.9298 4.8115 -0.0535
-5.0392 4.8936 -0.0549
-5.0592 4.8126 -0.0559
-5.1706 4.8940 -0.0573
-5.2287 4.8829 -0.0585
-5.4099 5.0692 -0.0605
-5.5028 5.1083 -0.0619
-3.1313 2.0811 -0.0315
-3.1374 2.0854 -0.0315
-3.1437 2.0896 -0.0315
-3.1488 2.0958 -0.0314
-3.1562 2.0992 -0.0315
-3.1606 2.1074 -0.0313
-3.1676 2.1118 -0.0313
-3.1722 2.1211 -0.0311
-3.1797 2.1256 -0.0312
-3.1860 2.1330 -0.0311
-3.1925 2.1405 -0.0310
-3.1981 2.1511 -0.0308
-3.2055 2.1587 -0.0307
-3.2131 2.1664 -0.0306
-3.2207 2.1752 -0.0305
-3.2297 2.1810 -0.0305
-3.2383 2.1888 -0.0305
-3.2472 2.1967 -0.0304
-3.2568 2.2037 -0.0304
-3.2663 2.2117 -0.0304
-3.2749 2.2270 -0.0301
-3.2834 2.2476 -0.0296
-3.2931 2.2663 -0.0292
-3.3030 2.2914 -0.0286
-3.3154 2.3009 -0.0286
-3.3282 2.3095 -0.0286
-3.3409 2.3383 -0.0280
-3.3549 2.3555 -0.0277
-3.3703 2.3954 -0.0268
-3.3869 2.4238 -0.0263
-3.4044 2.4459 -0.0260
-3.5095 3.3072 -0.0006
-3.5575 3.3898 0.0009
-3.6008 3.4175 0.0008
-3.6479 3.4607 0.0012
-3.6908 3.4744 0.0006
-3.7431 3.5280 0.0012
-4.3829 5.5763 0.0526
-4.6257 6.0986 0.0639
-4.7623 6.2145 0.0645
-4.8531 6.1833 0.0614
-4.9071 6.0575 0.0562
-4.8779 5.7335 0.0464
-4.7585 5.0506 0.0271
-4.8122 5.0109 0.0247
-4.8291 4.8989 0.0207
-4.9148 4.9360 0.0199
-4.9641 4.9008 0.0177
-5.0237 4.8887 0.0159
-5.0961 4.9011 0.0147
-5.1547 4.8899 0.0130
-5.2409 4.9260 0.0122
-3.1295 2.0852 -0.0233
-3.1379 2.0867 -0.0234
-3.1428 2.0929 -0.0232
-3.1479 2.0991 -0.0230
-3.1553 2.1025 -0.0230
-3.1609 2.1088 -0.0228
-3.1651 2.1181 -0.0224
-3.1719 2.1236 -0.0222
-3.1789 2.1291 -0.0221
-3.1847 2.1375 -0.0218
-3.1899 2.1481 -0.0213
-3.1983 2.1527 -0.0213
-3.2047 2.1624 -0.0209
-3.2136 2.1671 -0.0209
-3.2215 2.1749 -0.0206
-3.2291 2.1848 -0.0203
-3.2374 2.1937 -0.0200
-3.2475 2.1976 -0.0200
-3.2572 2.2035 -0.0200
-3.2667 2.2116 -0.0198
-3.2744 2.2311 -0.0189
-3.2825 2.2539 -0.0178
-3.2922 2.2738 -0.0169
-3.3036 2.2854 -0.0166
-3.3149 2.3055 -0.0157
-3.3278 2.3142 -0.0156
-3.3402 2.3516 -0.0138
-3.3545 2.3851 -0.0122
-3.3700 2.4060 -0.0115
-3.3862 2.4227 -0.0109
-3.5047 3.2815 0.0348
-3.5505 3.3547 0.0378
-3.6039 3.4571 0.0422
-3.6442 3.4575 0.0411
-3.6883 3.4790 0.0411
-3.7348 3.5084 0.0416
-4.5188 5.7729 0.1495
-4.6156 5.7896 0.1479
-4.7555 5.9335 0.1523
-4.8397 5.9073 0.1486
-4.8601 5.7201 0.1373
-4.8230 5.4139 0.1209
-4.7225 4.9930 0.0996
-4.8099 5.0315 0.0994
-4.8385 4.9432 0.0936
-4.9375 5.0063 0.0946
-4.9740 4.9440 0.0900
-5.0475 4.9566 0.0888
-5.1078 4.9455 0.0865
-5.1396 4.8867 0.0823
-5.1966 4.8751 0.0801
-3.0803 2.0780 -0.0144
-3.1225 2.0842 -0.0152
-3.1286 2.0884 -0.0150
-3.1355 2.0918 -0.0150
-3.1405 2.0980 -0.0146
-3.1470 2.1024 -0.0145
-3.1525 2.1087 -0.0141
-3.1582 2.1151 -0.0138
-3.1631 2.1235 -0.0133
-3.1700 2.1290 -0.0130
-3.1761 2.1365 -0.0126
-3.1834 2.1421 -0.0124
-3.1906 2.1487 -0.0121
-3.1980 2.1554 -0.0117
-3.2032 2.1681 -0.0109
-3.2121 2.1729 -0.0108
-3.2187 2.1848 -0.0100
-3.2281 2.1896 -0.0099
-3.2374 2.1955 -0.0097
-3.2474 2.1994 -0.0097
-3.2566 2.2075 -0.0093
-3.2655 2.2187 -0.0087
-3.2711 2.2499 -0.0063
-3.2812 2.2634 -0.0055
-3.2907 2.2856 -0.0040
-3.3018 2.3026 -0.0030
-3.3140 2.3165 -0.0022
-3.3272 2.3220 -0.0022
-3.3540 2.3935 0.0028
-3.3693 2.4004 0.0029
-3.4040 2.4625 0.0069
-3.5439 3.3223 0.0726
-3.5903 3.3852 0.0763
-3.6429 3.4687 0.0814
-3.6855 3.4824 0.0812
-3.7319 3.5120 0.0822
-4.3877 5.6649 0.2372
-4.4282 5.4972 0.2223
-4.1275 3.9562 0.1061
-4.6085 5.0924 0.1837
-4.7565 5.2785 0.1943
-4.7312 5.0390 0.1755
-4.8076 5.0522 0.1742
-4.8600 5.0137 0.1695
-4.9225 5.0007 0.1665
-4.9845 4.9887 0.1635
-5.0068 4.9041 0.1560
-5.0786 4.9164 0.1547
-5.1374 4.9060 0.1520
-5.2223 4.9410 0.1523
-5.3394 5.0269 0.1556
-3.0848 2.0854 -0.0059
-3.0949 2.0850 -0.0063
-3.1024 2.0873 -0.0063
-3.1092 2.0907 -0.0062
-3.1169 2.0931 -0.0062
-3.1231 2.0974 -0.0060
-3.1317 2.0989 -0.0061
-3.1381 2.1032 -0.0059
-3.1435 2.1096 -0.0054
-3.1503 2.1140 -0.0052
-3.1561 2.1204 -0.0047
-3.1611 2.1289 -0.0040
-3.1659 2.1384 -0.0032
-3.1747 2.1410 -0.0032
-3.1797 2.1516 -0.0023
-3.1875 2.1573 -0.0019
-3.1929 2.1691 -0.0009
-3.1992 2.1800 0.0001
-3.2095 2.1817 -0.0001
-3.2155 2.1958 0.0012
-3.2368 2.1994 0.0008
-3.2468 2.2033 0.0008
-3.2563 2.2104 0.0013
-3.2640 2.2269 0.0027
-3.2777 2.2868 0.0086
-3.2885 2.3028 0.0099
-3.3007 2.3136 0.0106
-3.3130 2.3276 0.0116
-3.3386 2.3896 0.0173
-3.3536 2.4106 0.0190
-3.3690 2.4122 0.0186
-3.3854 2.4345 0.0204
-3.4057 2.4956 0.0261
-3.5018 3.2951 0.1072
-3.5435 3.3381 0.1103
-3.5862 3.3758 0.1127
-3.6392 3.4653 0.1203
-3.6917 3.5318 0.1255
-3.7324 3.5312 0.1240
-4.5788 6.4218 0.3995
-4.5887 6.0880 0.3639
-4.6775 6.0598 0.3578
-4.7496 5.9874 0.3476
-4.8815 6.0948 0.3543
-4.7190 5.4120 0.2879
-4.7788 5.3625 0.2806
-4.7748 5.1686 0.2602
-4.8174 5.0998 0.2514
-4.8945 5.1131 0.2501
-4.8961 4.9711 0.2351
-4.9576 4.9599 0.2317
-5.0047 4.9235 0.2262
-5.0508 4.8890 0.2209
-5.2046 5.0468 0.2322
-5.1788 4.8904 0.2166
-5.2632 4.9255 0.2173
-3.0276 2.1140 0.0080
-3.0388 2.1137 0.0075
-3.0471 2.1162 0.0075
-3.0573 2.1169 0.0072
-3.0882 2.1058 0.0045
-3.0994 2.1044 0.0039
-3.1082 2.1059 0.0038
-3.1184 2.1055 0.0033
-3.1257 2.1089 0.0035
-3.1344 2.1104 0.0033
-3.1379 2.1198 0.0044
-3.1437 2.1263 0.0050
-3.1568 2.1383 0.0060
-3.1623 2.1469 0.0069
-3.1687 2.1546 0.0077
-3.1700 2.1734 0.0101
-3.1764 2.1833 0.0111
-3.1868 2.1850 0.0109
-3.1919 2.2001 0.0127
-3.2030 2.2009 0.0123
-3.2134 2.2038 0.0123
-3.2248 2.2036 0.0118
-3.2349 2.2075 0.0119
-3.2530 2.2259 0.0136
-3.3093 2.3734 0.0305
-3.3229 2.3965 0.0329
-3.3380 2.4002 0.0328
-3.3531 2.4060 0.0330
-3.3687 2.4207 0.0343
-3.4042 2.4870 0.0414
-3.4996 3.2940 0.1421
-3.5402 3.3305 0.1453
-3.5805 3.3549 0.1468
-3.6296 3.4267 0.1542
-3.6802 3.4901 0.1604
-3.7277 3.5267 0.1633
-4.6684 6.8058 0.5508
-4.6870 6.4711 0.5067
-4.7819 6.4360 0.4984
-4.8563 5.5870 0.3856
-4.7266 5.0803 0.3251
-4.7980 4.9296 0.3028
-4.9060 5.0160 0.3097
-4.9675 5.0035 0.3057
-5.0152 4.9669 0.2991
-5.0876 4.9793 0.2978
-5.1195 4.9203 0.2889
-5.2323 5.0041 0.2953
-5.2063 4.8542 0.2770
-3.0341 2.1099 0.0158
-3.0432 2.1115 0.0156
-3.0523 2.1131 0.0155
-3.0596 2.1165 0.0157
-3.0688 2.1181 0.0155
-3.0788 2.1187 0.0152
-3.0864 2.1222 0.0154
-3.0948 2.1248 0.0154
-3.1104 2.1318 0.0158
-3.1258 2.1400 0.0164
-3.1352 2.1416 0.0162
-3.1392 2.1522 0.0177
-3.1466 2.1579 0.0182
-3.1521 2.1676 0.0195
-3.1590 2.1754 0.0204
-3.1617 2.1924 0.0228
-3.1786 2.2063 0.0242
-3.1907 2.2051 0.0235
-3.2012 2.2080 0.0235
-3.2131 2.2067 0.0228
-3.2222 2.2138 0.0235
-3.2340 2.2125 0.0228
-3.2662 2.3623 0.0443
-3.2795 2.3734 0.0454
-3.2928 2.3889 0.0472
-3.3075 2.3958 0.0476
-3.3223 2.4027 0.0480
-3.3374 2.4097 0.0485
-3.3526 2.4256 0.0502
-3.3686 2.4437 0.0523
-3.4973 3.2916 0.1764
-3.5368 3.3215 0.1793
-3.5758 3.3403 0.1804
-3.6207 3.3910 0.1862
-3.6694 3.4511 0.1933
-3.7218 3.5162 0.2010
-4.6324 6.7137 0.6505
-4.6533 6.3936 0.6007
-4.8127 6.5773 0.6218
-4.8263 5.5413 0.4628
-4.8189 5.3286 0.4306
-4.7234 4.9367 0.3748
-4.8412 5.0484 0.3868
-4.8458 4.9148 0.3661
-4.9051 4.9030 0.3618
-4.9759 4.9151 0.3605
-5.0854 4.9989 0.3686
-5.0791 4.8711 0.3493
-5.1483 4.8830 0.3482
-5.2316 4.9182 0.3499
-5.5245 5.2889 0.3939
-3.0306 2.1052 0.0236
-3.0367 2.1096 0.0241
-3.0466 2.1102 0.0237
-3.0629 2.1152 0.0238
-3.0711 2.1177 0.0239
-3.0794 2.1202 0.0239
-3.0885 2.1218 0.0237
-3.0961 2.1253 0.0240
-3.1037 2.1288 0.0243
-3.1115 2.1324 0.0245
-3.1188 2.1370 0.0250
-3.1275 2.1396 0.0250
-3.1349 2.1442 0.0255
-3.1414 2.1508 0.0264
-3.1475 2.1585 0.0274
-3.1534 2.1673 0.0287
-3.1613 2.1731 0.0293
-3.1649 2.1881 0.0318
-3.1892 2.2111 0.0347
-3.2202 2.2220 0.0352
-3.2309 2.2249 0.0352
-3.2378 2.2428 0.0380
-3.2648 2.3727 0.0596
-3.2785 2.3817 0.0605
-3.2926 2.3907 0.0614
-3.3071 2.3988 0.0622
-3.3219 2.4068 0.0629
-3.3368 2.4183 0.0642
-3.3521 2.4409 0.0675
-3.3681 2.4436 0.0672
-3.3841 2.4486 0.0673
-3.4589 3.2840 0.2109
-3.4974 3.3139 0.2143
-3.5357 3.3316 0.2156
-3.5756 3.3573 0.2183
-3.6174 3.3888 0.2218
-3.6605 3.4206 0.2254
-3.7128 3.4906 0.2352
-4.6134 6.6850 0.7551
-4.6543 6.0956 0.6494
-4.7408 6.0683 0.6405
-4.9772 6.4791 0.7016
-4.8314 5.8067 0.5901
-4.8103 5.5303 0.5425
-4.8823 5.5105 0.5356
-4.8593 5.2749 0.4952
-4.9002 5.2032 0.4806
-4.8437 4.9341 0.4359
-4.8916 4.8990 0.4274
-5.0241 5.0315 0.4445
-5.0321 4.9231 0.4250
-5.1153 4.9585 0.4273
-5.1463 4.9017 0.4159
-5.2155 4.9136 0.4147
-3.0374 2.1111 0.0326
-3.0492 2.1097 0.0318
-3.0581 2.1113 0.0316
-3.0662 2.1138 0.0317
-3.0751 2.1153 0.0316
-3.0816 2.1198 0.0321
-3.0906 2.1213 0.0320
-3.0973 2.1258 0.0325
-3.1050 2.1294 0.0328
-3.1134 2.1319 0.0329
-3.1212 2.1355 0.0332
-3.1292 2.1391 0.0335
-3.1366 2.1437 0.0341
-3.1429 2.1504 0.0351
-3.1501 2.1561 0.0358
-3.1570 2.1628 0.0368
-3.1615 2.1748 0.0390
-3.1681 2.1837 0.0404
-3.1713 2.2010 0.0437
-3.1185 2.3516 0.0763
-3.1634 2.3559 0.0749
-3.2514 2.3654 0.0723
-3.2640 2.3788 0.0743
-3.2784 2.3835 0.0745
-3.2939 2.3783 0.0727
-3.3082 2.3830 0.0729
-3.3370 2.3991 0.0746
-3.3518 2.4184 0.0777
-3.4562 3.2712 0.2420
-3.4952 3.3114 0.2480
-3.5326 3.3245 0.2487
-3.5753 3.3732 0.2562
-3.6205 3.4244 0.2640
-3.6632 3.4519 0.2673
-3.7099 3.4933 0.2732
-3.7657 3.5677 0.2851
-4.8346 5.6229 0.6392
-4.9984 5.8241 0.6708
-5.2031 5.7197 0.6395
-5.1729 5.4935 0.5961
-5.3522 5.4093 0.5701
-5.4681 5.4850 0.5793
-5.5314 5.4679 0.5726
-3.0410 2.1097 0.0404
-3.0489 2.1122 0.0405
-3.0588 2.1127 0.0401
-3.0685 2.1133 0.0397
-3.0766 2.1158 0.0398
-3.0838 2.1193 0.0402
-3.0920 2.1218 0.0403
-3.0986 2.1263 0.0409
-3.1062 2.1298 0.0413
-3.1139 2.1334 0.0416
-3.1223 2.1360 0.0417
-3.1296 2.1406 0.0424
-3.1369 2.1452 0.0430
-3.1445 2.1499 0.0436
-3.1504 2.1577 0.0450
-3.1573 2.1645 0.0461
-3.1644 2.1713 0.0472
-3.1708 2.1803 0.0489
-3.1757 2.1935 0.0515
-3.1496 2.3542 0.0886
-3.1662 2.3503 0.0868
-3.1804 2.3527 0.0865
-3.1947 2.3552 0.0863
-3.2106 2.3512 0.0845
-3.2250 2.3525 0.0840
-3.2375 2.3625 0.0856
-3.2515 2.3660 0.0856
-3.2660 2.3674 0.0851
-3.2809 2.3643 0.0836
-3.2940 2.3767 0.0856
-3.3086 2.3770 0.0848
-3.3225 2.3861 0.0861
-3.3361 2.4188 0.0926
-3.3512 2.4506 0.0988
-3.4170 3.2215 0.2659
-3.4526 3.2434 0.2688
-3.4947 3.3281 0.2853
-3.5328 3.3459 0.2871
-3.5707 3.3580 0.2877
-3.6161 3.4153 0.2979
-3.6620 3.4625 0.3058
-3.7104 3.5123 0.3142
-3.7524 3.5263 0.3149
-4.6378 6.8708 1.0069
-5.3573 5.1985 0.5968
1.1168 3.5815 0.8620
1.0145 3.4485 0.8436
0.9573 3.3373 0.8351
0.8238 3.1987 0.8096
0.7711 3.0943 0.8019
0.3724 2.7975 0.7199
0.6524 2.8024 0.7872
0.5679 2.6950 0.7719
0.5715 2.5287 0.7807
0.6258 2.4551 0.7973
0.6103 2.3657 0.7978
1.1148 2.3581 0.9197
1.4222 2.1921 1.0016
-0.7833 1.5473 0.5010
-0.7637 1.4862 0.5086
-0.7444 1.4237 0.5163
-0.4036 1.2445 0.6069
-0.3334 1.1597 0.6278
-0.2822 1.0747 0.6442
-0.2274 0.9853 0.6617
-0.2627 0.9168 0.6564
0.3160 0.6668 0.8077
-2.6301 1.2448 0.0705
-2.6441 1.2413 0.0673
-2.6494 1.2302 0.0665
-2.6546 1.2193 0.0658
-2.6617 1.2105 0.0645
-2.6678 1.2010 0.0635
-2.6777 1.1959 0.0614
-2.6828 1.1858 0.0606
-2.6925 1.1814 0.0585
-2.6975 1.1718 0.0577
-2.7006 1.1602 0.0575
0.7574 3.9156 0.6792
0.8896 3.9100 0.7083
0.7994 3.7801 0.6943
0.9191 3.6767 0.7249
0.7533 3.5143 0.6959
0.9666 3.5284 0.7417
1.2080 3.5448 0.7936
0.9747 3.3572 0.7510
0.8394 3.2167 0.7276
0.8625 3.1389 0.7360
0.5917 2.9591 0.6848
0.2653 2.7728 0.6218
0.3542 2.6455 0.6468
0.6706 2.6463 0.7157
0.2101 2.4542 0.6237
-0.5563 1.8541 0.4828
-0.9513 1.6682 0.4048
-0.8162 1.6090 0.4368
-0.8120 1.5503 0.4403
-0.7783 1.4884 0.4503
-0.4002 1.2437 0.5434
-0.3091 1.1543 0.5672
-0.2778 1.0725 0.5776
-0.2458 0.9881 0.5882
-0.2365 0.9074 0.5938
-2.6225 1.2519 0.0587
-2.6298 1.2418 0.0575
-2.6418 1.2365 0.0551
-2.6509 1.2289 0.0535
-2.6561 1.2179 0.0528
-2.6604 1.2062 0.0524
-2.6684 1.1985 0.0510
-2.6772 1.1922 0.0493
-2.6851 1.1853 0.0479
-2.6929 1.1786 0.0465
-2.6979 1.1690 0.0459
-2.7038 1.1606 0.0449
1.0169 3.7398 0.6555
0.7891 3.4620 0.6221
0.9677 3.4555 0.6572
0.8396 3.1423 0.6446
0.5702 2.9623 0.5993
0.3928 2.8231 0.5703
0.1760 2.6794 0.5337
0.3640 2.6569 0.5712
0.5434 2.6230 0.6075
0.3352 2.4906 0.5722
0.0539 1.9745 0.5379
-0.8756 1.6694 0.3689
-0.7878 1.6096 0.3884
-0.7685 1.5490 0.3945
-0.7484 1.4868 0.4009
-0.7134 1.4214 0.4103
-0.4174 1.2462 0.4749
-0.2832 1.1487 0.5049
-0.2736 1.0704 0.5099
-0.2420 0.9854 0.5194
-0.2087 0.8976 0.5293
-2.6222 1.2491 0.0454
-2.6304 1.2398 0.0441
-2.6434 1.2352 0.0418
-2.6515 1.2267 0.0406
-2.6586 1.2175 0.0395
-2.6647 1.2076 0.0387
-2.6698 1.1970 0.0382
-2.6823 1.1948 0.0358
-2.6865 1.1836 0.0354
-2.6943 1.1769 0.0342
-2.6983 1.1661 0.0338
1.0787 3.7857 0.5754
0.8971 3.6104 0.5505
1.0541 3.4164 0.5843
1.0203 3.2209 0.5854
0.6525 3.0015 0.5302
0.2978 2.7249 0.4793
-0.5109 2.3010 0.3559
-0.6378 2.2135 0.3373
-0.0782 2.0412 0.4392
0.0346 1.9774 0.4608
-0.8206 1.6709 0.3252
-0.7729 1.6108 0.3355
-0.8125 1.5529 0.3308
-0.8227 1.4941 0.3312
-0.7888 1.4303 0.3392
-0.4548 1.2521 0.4027
-0.3014 1.1514 0.4326
-0.2476 1.0634 0.4449
-0.2143 0.9769 0.4537
-0.2035 0.8939 0.4585
0.1570 0.7046 0.5270
-2.6195 1.2609 0.0318
-2.6268 1.2505 0.0309
-2.6312 1.2377 0.0306
-2.6393 1.2286 0.0295
-2.6493 1.2217 0.0280
-2.6592 1.2152 0.0266
-2.6662 1.2062 0.0257
-2.6713 1.1955 0.0252
-2.6820 1.1911 0.0235
-2.6861 1.1799 0.0232
-2.6957 1.1752 0.0217
-2.7083 1.1593 0.0201
0.9224 3.8925 0.4575
0.8285 3.7589 0.4478
0.9701 3.7468 0.4691
1.0380 3.6926 0.4808
0.8971 3.5388 0.4648
1.1341 3.5559 0.4993
1.0300 3.4200 0.4882
0.8880 3.2730 0.4719
0.9961 3.2246 0.4893
0.3994 2.7651 0.4158
-0.5484 2.1770 0.2945
0.0555 2.0617 0.3871
0.0683 1.9852 0.3914
-0.1460 1.8920 0.3628
-0.8591 1.6154 0.2663
-0.8270 1.5551 0.2729
-0.7932 1.4925 0.2799
-0.7588 1.4276 0.2870
-0.4518 1.2514 0.3378
-0.2752 1.1457 0.3671
-0.2882 1.0710 0.3676
-0.2792 0.9910 0.3714
-0.2922 0.9158 0.3718
0.1055 0.7168 0.4367
-2.6202 1.2591 0.0178
-2.6237 1.2452 0.0178
-2.6447 1.2309 0.0151
-2.6537 1.2231 0.0140
-2.6607 1.2138 0.0133
-2.6677 1.2048 0.0125
-2.6811 1.2030 0.0106
-2.6843 1.1906 0.0105
-2.6912 1.1825 0.0098
-2.6935 1.1692 0.0099
-2.7012 1.1626 0.0089
-2.7070 1.1541 0.0083
0.9064 3.7299 0.3715
1.0141 3.6962 0.3857
1.0832 3.6392 0.3957
1.0228 3.5213 0.3915
1.0059 3.4236 0.3921
0.7868 3.2456 0.3699
0.7707 3.1527 0.3704
0.6797 3.0333 0.3625
0.5584 2.9074 0.3509
0.3168 2.7492 0.3254
-0.3336 2.4852 0.2524
-0.6676 2.2180 0.2185
-0.5975 2.1730 0.2284
-0.0025 2.1362 0.3027
0.4876 2.1180 0.3637
0.0223 1.9856 0.3099
-0.6516 1.8612 0.2302
-0.8352 1.6751 0.2126
-0.8163 1.6157 0.2166
-0.7677 1.5530 0.2243
-0.7633 1.4910 0.2265
-0.4301 1.2476 0.2742
-0.3806 1.1651 0.2825
-0.3066 1.0738 0.2941
-0.2749 0.9882 0.3004
-0.1941 0.8866 0.3131
1.3237 0.2192 0.5184
1.3029 0.0992 0.5191
1.3966 -0.0652 0.5352
-2.6229 1.2588 0.0035
-2.6236 1.2424 0.0039
-2.6346 1.2353 0.0027
-2.6427 1.2261 0.0019
-2.6507 1.2172 0.0012
-2.6605 1.2105 0.0002
-2.6711 1.2053 -0.0010
-2.6753 1.1935 -0.0012
-2.6895 1.1932 -0.0029
-2.6936 1.1819 -0.0031
-2.6986 1.1719 -0.0035
-2.7035 1.1620 -0.0038
0.8604 3.8065 0.2752
0.8282 3.6207 0.2763
0.8905 3.5643 0.2838
0.9148 3.4877 0.2879
1.0246 3.4454 0.2998
0.8817 3.2962 0.2890
0.7098 3.1417 0.2756
0.4361 2.8772 0.2546
0.4542 2.8013 0.2581
-0.0178 2.5831 0.2165
-0.5745 2.3040 0.1679
-0.6356 2.2304 0.1635
-0.5796 2.1817 0.1702
-0.4289 2.1458 0.1859
-0.2576 2.1050 0.2038
-0.6234 1.9290 0.1717
-0.7148 1.8601 0.1642
-0.8153 1.7949 0.1558
-0.8676 1.7352 0.1520
-0.8067 1.6770 0.1593
-0.8737 1.6192 0.1540
-0.8274 1.5578 0.1600
-0.8080 1.4957 0.1633
-0.7426 1.4270 0.1714
-0.6390 1.3489 0.1834
-0.4267 1.2468 0.2068
-0.3984 1.1677 0.2114
-0.3468 1.0813 0.2185
-0.2710 0.9854 0.2282
1.3662 -0.0607 0.4141
-2.6219 1.2553 -0.0105
-2.6301 1.2454 -0.0110
-2.6400 1.2376 -0.0119
-2.6453 1.2257 -0.0121
-2.6542 1.2177 -0.0128
-2.6649 1.2120 -0.0137
-2.6718 1.2029 -0.0142
-2.6769 1.1920 -0.0145
-2.6856 1.1854 -0.0152
-2.6960 1.1814 -0.0161
-2.7018 1.1724 -0.0165
-2.7068 1.1625 -0.0167
-2.7099 1.1505 -0.0168
0.8536 3.9029 0.1833
0.8763 3.8307 0.1863
0.9409 3.7784 0.1921
0.9664 3.7033 0.1954
0.9496 3.6066 0.1959
0.9745 3.5286 0.1992
1.1328 3.5055 0.2114
0.9831 3.3503 0.2032
0.8826 3.2197 0.1982
0.6347 3.0401 0.1832
0.5486 2.9253 0.1789
0.3062 2.7649 0.1640
-0.1085 2.5651 0.1370
-0.2780 2.4493 0.1266
-0.3905 2.3548 0.1200
-0.4022 2.2871 0.1204
-0.4526 2.2118 0.1181
-0.4257 2.1516 0.1212
-0.6932 1.8034 0.1079
-0.8679 1.7377 0.0961
-0.8503 1.6794 0.0985
-0.8456 1.6201 0.1000
-0.8125 1.5583 0.1036
-0.8082 1.4967 0.1051
-0.4245 1.2462 0.1382
-0.3739 1.1623 0.1435
-0.3435 1.0793 0.1473
-0.3124 0.9938 0.1512
-0.2562 0.8989 0.1572
-2.6237 1.2542 -0.0250
-2.6408 1.2355 -0.0259
-2.6489 1.2263 -0.0263
-2.6559 1.2164 -0.0266
-2.6638 1.2078 -0.0271
-2.6716 1.1995 -0.0275
-2.6785 1.1905 -0.0278
-2.6854 1.1818 -0.0282
-2.6957 1.1776 -0.0289
-2.6998 1.1664 -0.0289
-2.7065 1.1585 -0.0293
-2.7131 1.1510 -0.0296
0.9339 3.8777 0.0973
0.9173 3.7819 0.0979
0.9425 3.7069 0.1002
0.8437 3.5713 0.0973
0.9090 3.5135 0.1013
0.8922 3.4167 0.1019
0.9165 3.3367 0.1043
0.8996 3.2390 0.1048
0.7231 3.0836 0.0984
0.6325 2.9645 0.0957
0.5459 2.8502 0.0931
0.4285 2.7302 0.0890
0.0328 2.5402 0.0723
-0.2865 2.3869 0.0589
-0.3804 2.2981 0.0556
-0.3725 2.2333 0.0569
-0.3637 2.1677 0.0582
-0.8750 1.6227 0.0410
-0.8421 1.5614 0.0435
-0.8232 1.4990 0.0453
-0.5656 1.3392 0.0602
-0.4423 1.2488 0.0676
-0.3921 1.1650 0.0712
-0.3180 1.0724 0.0762
-0.2619 0.9794 0.0803
-0.1023 0.8539 0.0899
-2.6274 1.2548 -0.0397
-2.6447 1.2532 -0.0405
-2.6435 1.2352 -0.0402
-2.6488 1.2233 -0.0403
-2.6540 1.2115 -0.0403
-2.6682 1.2093 -0.0410
-2.6778 1.2029 -0.0414
-2.6811 1.1900 -0.0414
-2.6861 1.1793 -0.0415
-2.6946 1.1729 -0.0418
-2.7031 1.1669 -0.0421
-2.7054 1.1535 -0.0420
-2.7112 1.1447 -0.0422
0.8695 3.8591 0.0024
0.8531 3.7644 0.0030
0.8771 3.6898 0.0043
0.9432 3.6335 0.0064
0.9686 3.5551 0.0078
0.8683 3.4203 0.0068
0.8924 3.3404 0.0081
0.7941 3.2111 0.0071
0.7382 3.1010 0.0069
0.7218 3.0062 0.0074
0.5938 2.8759 0.0057
0.4069 2.7335 0.0027
0.0400 2.5503 -0.0041
-0.2819 2.3949 -0.0102
-0.3776 2.3051 -0.0116
-0.3896 2.2359 -0.0112
-0.3613 2.1737 -0.0099
0.3985 2.1314 0.0085
0.4161 2.0445 0.0098
-0.8612 1.6240 -0.0162
-0.8277 1.5620 -0.0148
-0.7780 1.4963 -0.0130
-0.5073 1.3315 -0.0050
-0.4395 1.2481 -0.0025
-0.4316 1.1718 -0.0016
-0.3367 1.0752 0.0016
-2.6220 1.2473 -0.0541
-2.6264 1.2338 -0.0540
-2.6453 1.2340 -0.0545
-2.6542 1.2256 -0.0546
-2.6585 1.2129 -0.0546
-2.6663 1.2041 -0.0547
-2.6750 1.1967 -0.0548
-2.6783 1.1836 -0.0548
-2.6895 1.1798 -0.0550
-2.6954 1.1702 -0.0550
-2.7081 1.1695 -0.0553
-2.7122 1.1584 -0.0553
0.8866 3.8848 -0.0910
0.9115 3.8108 -0.0906
0.8947 3.7141 -0.0901
0.9613 3.6575 -0.0899
0.9021 3.5394 -0.0891
0.9690 3.4783 -0.0889
0.8277 3.3272 -0.0878
0.8109 3.2305 -0.0872
0.7539 3.1189 -0.0865
0.6984 3.0098 -0.0858
0.5013 2.8569 -0.0845
-0.0311 2.5390 -0.0817
-0.2569 2.4083 -0.0805
-0.3337 2.3214 -0.0798
-0.3665 2.2465 -0.0793
-0.3787 2.1763 -0.0789
-0.3070 2.1189 -0.0788
-0.3195 2.0466 -0.0783
-0.3736 1.9700 -0.0778
-0.7077 1.8119 -0.0762
-0.8939 1.6859 -0.0751
-0.8759 1.6263 -0.0749
-0.8427 1.5642 -0.0746
-0.5052 1.3314 -0.0740
-0.4574 1.2508 -0.0737
-0.4071 1.1663 -0.0733
-0.2869 1.0629 -0.0730
-0.2532 0.9734 -0.0726
-0.1939 0.8741 -0.0722
-2.6185 1.2415 -0.0690
-2.6293 1.2335 -0.0690
-2.6418 1.2277 -0.0689
-2.6506 1.2190 -0.0688
-2.6620 1.2134 -0.0688
-2.6663 1.2009 -0.0687
-2.6723 1.1904 -0.0686
-2.6870 1.1901 -0.0686
-2.6894 1.1762 -0.0685
-2.7039 1.1770 -0.0685
-2.7054 1.1625 -0.0684
-2.7163 1.1600 -0.0684
0.8629 3.8883 -0.1852
0.8876 3.8144 -0.1858
0.8708 3.7177 -0.1852
0.8541 3.6209 -0.1847
0.8373 3.5242 -0.1841
0.8205 3.4275 -0.1835
0.8856 3.3649 -0.1853
0.8272 3.2499 -0.1835
0.7303 3.1225 -0.1807
0.6750 3.0133 -0.1790
0.5484 2.8828 -0.1753
0.4973 2.7802 -0.1738
0.1080 2.5857 -0.1626
-0.3389 2.3947 -0.1498
-0.3295 2.3290 -0.1500
-0.3213 2.2619 -0.1502
-0.2683 2.2018 -0.1516
-0.3249 2.1216 -0.1499
-0.2938 2.0548 -0.1507
-0.2398 1.9882 -0.1522
-0.9041 1.6288 -0.1331
-0.8577 1.5665 -0.1344
-0.7934 1.4996 -0.1361
-0.5023 1.3312 -0.1442
-0.4550 1.2501 -0.1454
-0.4465 1.1732 -0.1456
-0.4172 1.0904 -0.1463
-0.2727 0.9763 -0.1503
-2.6187 1.2388 -0.0843
-2.6330 1.2341 -0.0839
-2.6499 1.2326 -0.0834
-2.6542 1.2196 -0.0833
-2.6656 1.2140 -0.0830
-2.6699 1.2014 -0.0828
-2.6750 1.1900 -0.0827
-2.6809 1.1797 -0.0825
-2.6937 1.1777 -0.0821
-2.6987 1.1670 -0.0820
-2.7045 1.1576 -0.0818
-2.7153 1.1550 -0.0815
-2.7210 1.1461 -0.0813
0.9046 3.8398 -0.2831
0.9296 3.7635 -0.2847
0.9125 3.6648 -0.2842
0.9370 3.5854 -0.2858
0.9197 3.4857 -0.2852
0.9459 3.4042 -0.2869
0.8031 3.2535 -0.2797
0.7861 3.1558 -0.2791
0.6900 3.0303 -0.2743
0.4567 2.8636 -0.2621
0.6569 2.8388 -0.2732
0.3266 2.6555 -0.2558
-0.3142 2.4081 -0.2216
-0.3051 2.3413 -0.2224
-0.3177 2.2689 -0.2219
-0.1958 2.2209 -0.2288
-0.2090 2.1451 -0.2283
-0.1503 2.0786 -0.2318
-0.9187 1.6310 -0.1914
-0.8870 1.5695 -0.1933
-0.8242 1.5032 -0.1970
-0.4180 1.3199 -0.2199
-0.3887 1.2389 -0.2218
-0.4017 1.1637 -0.2214
-0.4147 1.0885 -0.2209
-2.6270 1.2434 -0.0994
-2.6368 1.2346 -0.0989
-2.6412 1.2211 -0.0987
-2.6499 1.2122 -0.0982
-2.6595 1.2045 -0.0977
-2.6717 1.2001 -0.0971
-2.6759 1.1876 -0.0969
-2.6827 1.1782 -0.0965
-2.6971 1.1783 -0.0958
-2.7021 1.1676 -0.0955
-2.7070 1.1570 -0.0953
-2.7136 1.1489 -0.0950
-2.7243 1.1466 -0.0944
0.8322 3.9911 -0.3741
0.8157 3.8954 -0.3735
0.7210 3.7577 -0.3669
0.8882 3.6684 -0.3813
0.7895 3.5314 -0.3744
0.7728 3.4346 -0.3738
0.7560 3.3379 -0.3733
0.7393 3.2412 -0.3727
0.7225 3.1445 -0.3721
0.6664 3.0338 -0.3685
0.5747 2.9133 -0.3620
0.5227 2.8085 -0.3586
0.2275 2.5549 -0.3367
0.2436 2.4760 -0.3386
0.4232 2.4295 -0.3536
0.1984 2.2151 -0.3371
0.4101 2.1581 -0.3548
0.5758 2.0845 -0.3689
0.5589 1.9868 -0.3684
-0.9334 1.6332 -0.2497
-0.8593 1.5695 -0.2562
-0.4984 1.3312 -0.2876
-0.4701 1.2521 -0.2906
-0.4620 1.1746 -0.2919
-0.4116 1.0865 -0.2967
0.9526 0.4228 -0.4134
-2.6174 1.2501 -0.1156
-2.6272 1.2408 -0.1148
-2.6361 1.2310 -0.1142
-2.6458 1.2225 -0.1135
-2.6536 1.2127 -0.1129
-2.6649 1.2069 -0.1120
-2.6735 1.1988 -0.1114
-2.6794 1.1881 -0.1110
-2.6828 1.1748 -0.1109
-2.6980 1.1757 -0.1096
-2.7046 1.1670 -0.1091
-2.7129 1.1607 -0.1085
-2.7161 1.1483 -0.1084
-2.7259 1.1449 -0.1076
0.7611 3.0797 -0.4750
0.5159 2.9049 -0.4506
0.4998 2.8120 -0.4500
0.3154 2.6711 -0.4318
0.4324 2.6170 -0.4452
0.6363 2.5767 -0.4679
0.5433 2.4630 -0.4593
0.2541 2.3168 -0.4297
0.3026 2.2384 -0.4360
0.5686 2.1859 -0.4656
0.6285 2.0965 -0.4733
0.6112 1.9967 -0.4727
-0.9520 1.6946 -0.3067
-0.8780 1.6336 -0.3156
-0.8886 1.5725 -0.3152
-0.5998 1.4166 -0.3486
-0.4964 1.3311 -0.3610
-0.4674 1.2514 -0.3652
-0.4803 1.1773 -0.3647
-0.4303 1.0893 -0.3713
-0.1047 0.9280 -0.4088
0.1457 0.7678 -0.4381
0.4447 0.5766 -0.4731
0.9531 0.2947 -0.5320
0.9836 0.1588 -0.5371
1.0154 0.0192 -0.5423
-2.6195 1.2492 -0.1313
-2.6320 1.2422 -0.1300
-2.6390 1.2308 -0.1294
-2.6495 1.2231 -0.1283
-2.6565 1.2124 -0.1277
-2.6642 1.2029 -0.1270
-2.6771 1.1993 -0.1257
-2.6796 1.1848 -0.1256
-2.6872 1.1763 -0.1249
-2.6972 1.1711 -0.1238
-2.7064 1.1654 -0.1229
-2.7113 1.1548 -0.1225
-2.7153 1.1433 -0.1222
-2.7259 1.1408 -0.1211
0.6470 3.4064 -0.5541
0.7082 3.3451 -0.5635
0.5053 3.1724 -0.5390
0.3100 2.5942 -0.5226
-0.1181 2.3308 -0.4690
-0.2290 2.2336 -0.4556
-0.3318 2.1427 -0.4432
-0.0306 2.1113 -0.4848
-0.9767 1.6380 -0.3643
-0.9037 1.5748 -0.3754
-0.7616 1.5014 -0.3960
-0.5604 1.4131 -0.4250
-0.2238 1.2941 -0.4730
0.2045 0.6477 -0.5428
0.3274 0.5041 -0.5621
0.2749 0.4175 -0.5565
0.2928 0.3046 -0.5609
0.2407 0.2200 -0.5553
0.1553 0.1533 -0.5449
0.0724 0.0896 -0.5347
0.1218 -0.0402 -0.5438
0.3916 -0.2990 -0.5851
0.1213 -0.2534 -0.5475
0.1381 -0.3724 -0.5519
0.1210 -0.4712 -0.5513
0.1039 -0.5699 -0.5507
-2.6226 1.2490 -0.1469
-2.6340 1.2411 -0.1455
-2.6428 1.2314 -0.1445
-2.6498 1.2203 -0.1437
-2.6576 1.2103 -0.1429
-2.6670 1.2025 -0.1417
-2.6773 1.1961 -0.1404
-2.6890 1.1748 -0.1392
-2.6974 1.1676 -0.1382
-2.7031 1.1576 -0.1376
-2.7122 1.1521 -0.1365
-2.7187 1.1438 -0.1357
-2.7219 1.1312 -0.1355
0.5463 3.5438 -0.6316
0.3312 3.1950 -0.6042
0.0622 2.6168 -0.5731
-0.1839 2.4722 -0.5359
-0.2445 2.3838 -0.5280
-0.1866 2.3232 -0.5389
-0.3591 2.2154 -0.5130
-0.4142 2.1350 -0.5057
-0.2970 2.0805 -0.5262
-0.2169 2.0151 -0.5408
-0.3008 1.9308 -0.5290
-0.4846 1.8444 -0.5008
-0.9222 1.6385 -0.4336
0.1320 0.9605 -0.6220
-0.0353 0.9060 -0.5957
-0.1349 0.8413 -0.5808
-0.1765 0.7635 -0.5758
-0.1913 0.6781 -0.5753
-0.1734 0.1087 -0.5911
-0.1329 -0.0116 -0.6004
-0.1768 -0.0849 -0.5949
-0.2194 -0.1571 -0.5895
-0.2077 -0.2637 -0.5939
-0.1390 -0.4124 -0.6085
-2.6256 1.2488 -0.1627
-2.6309 1.2354 -0.1621
-2.6457 1.2311 -0.1598
-2.6536 1.2208 -0.1587
-2.6656 1.1976 -0.1573
-2.6775 1.1929 -0.1554
-2.6867 1.1859 -0.1541
-2.6926 1.1754 -0.1533
-2.6984 1.1651 -0.1526
-2.7058 1.1571 -0.1516
-2.7148 1.1515 -0.1502
-2.7205 1.1421 -0.1495
-0.1558 3.1331 -0.6027
-0.1916 3.0474 -0.5982
-0.2499 2.9528 -0.5896
-0.2401 2.8887 -0.5932
-0.2978 2.7971 -0.5846
-0.3318 2.7164 -0.5803
-0.3231 2.6513 -0.5838
-0.3569 2.5717 -0.5794
-0.3484 2.5055 -0.5829
-0.3299 2.3704 -0.5902
-0.3209 2.3011 -0.5938
-0.5186 2.1910 -0.5588
-0.3116 1.3067 -0.6230
-0.6143 1.2010 -0.5676
-0.6075 1.1249 -0.5710
-0.6200 1.0525 -0.5706
-0.6326 0.9802 -0.5701
-0.6262 0.9019 -0.5735
-0.6190 0.8221 -0.5771
-0.6318 0.7487 -0.5767
-0.6827 0.6908 -0.5685
-0.6952 0.6185 -0.5680
-0.6893 0.5374 -0.5714
-0.6827 0.4548 -0.5750
-0.6954 0.3813 -0.5745
-0.6891 0.2969 -0.5781
-0.7019 0.2229 -0.5776
-0.7147 0.1488 -0.5772
-0.7463 0.0874 -0.5728
-0.7217 -0.0125 -0.5803
-2.6233 1.2623 -0.1791
-2.6243 1.2448 -0.1794
-2.6340 1.2351 -0.1778
-2.6444 1.2267 -0.1760
-2.6514 1.2154 -0.1750
-2.6583 1.2044 -0.1740
-2.6685 1.1973 -0.1722
-2.6778 1.1897 -0.1706
-2.6828 1.1778 -0.1700
-2.6936 1.1729 -0.1680
-2.6994 1.1625 -0.1672
-2.7068 1.1545 -0.1660
-2.7142 1.1467 -0.1648
-0.4623 2.9326 -0.6196
-0.4741 2.8644 -0.6192
-0.5233 2.7806 -0.6110
-0.6175 2.6199 -0.5954
-0.6794 2.5370 -0.5844
-0.7231 2.4625 -0.5772
-0.7653 2.3900 -0.5702
-0.7450 2.3361 -0.5764
-0.7514 2.2132 -0.5790
-0.8194 2.0783 -0.5683
-0.8325 1.8307 -0.5735
-0.8584 1.7670 -0.5698
-0.8842 1.7041 -0.5662
-0.8190 1.6401 -0.5827
-0.7329 1.5707 -0.6040
-0.9956 1.1465 -0.5596
-1.0205 1.0886 -0.5560
-1.0200 0.4794 -0.5759
-2.6212 1.2577 -0.1963
-2.6274 1.2446 -0.1954
-2.6370 1.2349 -0.1936
-2.6474 1.2265 -0.1915
-2.6552 1.2160 -0.1902
-2.6637 1.2067 -0.1886
-2.6680 1.1933 -0.1881
-2.6781 1.1865 -0.1861
-2.6823 1.1735 -0.1855
-2.6931 1.1685 -0.1833
-2.6989 1.1580 -0.1824
-2.7095 1.1539 -0.1802
-2.7168 1.1462 -0.1788
-2.7248 1.1398 -0.1772
-0.8186 3.0425 -0.5976
-0.8287 2.9844 -0.5973
-0.8529 2.9186 -0.5937
-0.8759 2.8541 -0.5904
-0.8159 2.8312 -0.6062
-0.8412 2.7649 -0.6024
-0.8929 2.6875 -0.5923
-0.8753 2.6414 -0.5985
-0.8992 2.5774 -0.5949
-0.9194 2.4611 -0.5942
-0.9159 2.4074 -0.5971
-0.9125 2.3529 -0.6000
-0.9754 2.2797 -0.5870
-0.9329 2.2352 -0.5993
-0.9288 2.1796 -0.6024
-1.0185 2.1047 -0.5828
-1.0284 2.0476 -0.5824
-0.9999 1.9960 -0.5915
-1.0100 1.9379 -0.5912
-1.0631 1.7053 -0.5866
-1.0604 1.6472 -0.5895
-1.0187 1.5865 -0.6022
-1.1147 1.4754 -0.5823
-1.0882 1.4130 -0.5913
-1.0983 1.3545 -0.5910
-1.1287 1.1790 -0.5899
-1.1013 1.1097 -0.5994
-1.1238 1.0540 -0.5959
-1.1712 1.0077 -0.5857
-1.2163 0.9629 -0.5761
-1.2032 0.8963 -0.5819
-1.2242 0.8434 -0.5786
-1.1378 0.7400 -0.6041
-1.1854 0.6985 -0.5938
-1.1956 0.6393 -0.5934
-1.2300 0.5940 -0.5865
-1.2402 0.5355 -0.5862
-1.2264 0.4616 -0.5924
-1.2367 0.4023 -0.5920
-1.2592 0.3519 -0.5883
-1.3033 0.3186 -0.5785
-2.6175 1.2517 -0.2144
-2.6348 1.2483 -0.2102
-2.6392 1.2339 -0.2096
-2.6479 1.2238 -0.2078
-2.6514 1.2089 -0.2075
-2.6608 1.2003 -0.2055
-2.6718 1.1939 -0.2030
-2.6785 1.1834 -0.2017
-2.6901 1.1789 -0.1990
-2.6967 1.1691 -0.1977
-2.7057 1.1626 -0.1957
-2.7114 1.1524 -0.1946
-2.7203 1.1467 -0.1926
-2.7259 1.1370 -0.1916
-1.1149 2.5962 -0.5950
-1.1551 2.4826 -0.5886
-1.2167 2.0702 -0.5889
-1.2749 1.9603 -0.5774
-1.2737 1.9105 -0.5798
-1.3024 1.8574 -0.5740
-1.3497 1.8043 -0.5631
-1.2897 1.7057 -0.5841
-1.3473 1.6548 -0.5701
-1.3720 1.3996 -0.5741
-1.4177 1.3559 -0.5632
-1.4084 1.3019 -0.5680
-1.3891 1.2443 -0.5759
-2.6241 1.2545 -0.2297
-2.6353 1.2458 -0.2270
-2.6415 1.2329 -0.2258
-2.6459 1.2186 -0.2252
-2.6603 1.2146 -0.2213
-2.6655 1.2017 -0.2204
-2.6755 1.1944 -0.2179
-2.6814 1.1830 -0.2167
-2.6864 1.1708 -0.2159
-2.7011 1.1706 -0.2118
-2.7125 1.1498 -0.2094
-2.7198 1.1419 -0.2078
-2.7293 1.1375 -0.2053
-2.7364 1.1303 -0.2036
-1.2215 2.8242 -0.6067
-1.2579 2.7596 -0.5985
-1.2576 2.7164 -0.6006
-1.2564 2.6734 -0.6031
-1.2647 2.6250 -0.6028
-1.2826 2.5721 -0.5998
-1.2910 2.5240 -0.5995
-1.2804 2.4841 -0.6047
-1.3076 2.4279 -0.5990
-1.3160 2.3798 -0.5987
-1.3243 2.3317 -0.5984
-1.3501 2.2778 -0.5930
-1.3317 2.2383 -0.6006
-1.3309 2.1925 -0.6030
-1.3485 2.1416 -0.6000
-1.4003 2.0833 -0.5867
-1.4402 1.5112 -0.6017
-1.4572 1.4135 -0.6011
-1.4656 1.3647 -0.6009
-1.4909 1.3197 -0.5952
-1.4909 1.2692 -0.5976
-1.4651 1.2107 -0.6084
-1.4903 1.1664 -0.6027
-1.5164 1.0716 -0.5992
-1.5493 1.0330 -0.5908
-1.5167 0.9130 -0.6066
-1.5333 0.8675 -0.6037
-1.5897 0.8445 -0.5873
-1.5584 0.7734 -0.6004
-1.5590 0.7194 -0.6028
-1.5841 0.6809 -0.5969
-1.6003 0.6374 -0.5939
-1.6312 0.6051 -0.5859
-2.6129 1.2419 -0.2511
-2.6334 1.2411 -0.2448
-2.6421 1.2304 -0.2427
-2.6515 1.2209 -0.2402
-2.6551 1.2059 -0.2398
-2.6717 1.2049 -0.2347
-2.6736 1.1887 -0.2349
-2.6827 1.1808 -0.2324
-2.6926 1.1742 -0.2297
-2.7023 1.1682 -0.2270
-2.7072 1.1566 -0.2260
-2.7169 1.1514 -0.2233
-2.7201 1.1381 -0.2229
-2.7312 1.1359 -0.2196
-2.7352 1.1241 -0.2189
-1.4708 2.6069 -0.5854
-1.4475 2.5803 -0.5947
-1.4477 2.5403 -0.5968
-1.4479 2.5000 -0.5988
-1.4472 2.4597 -0.6012
-1.4936 2.3584 -0.5908
-1.5011 2.3150 -0.5905
-1.5087 2.2715 -0.5903
-1.5080 2.2308 -0.5927
-1.5797 2.1673 -0.5717
-1.5009 2.1497 -0.5994
-1.5237 2.1015 -0.5942
-1.5459 2.0123 -0.5914
-1.5840 1.8369 -0.5878
-1.5983 1.7929 -0.5852
-1.6194 1.7491 -0.5804
-1.6201 1.7063 -0.5824
-1.6283 1.6198 -0.5842
-1.7071 1.5820 -0.5594
-1.7076 1.5401 -0.5614
-1.6648 1.4478 -0.5809
-1.6529 1.3556 -0.5899
-1.7085 1.2345 -0.5774
-1.7033 1.1871 -0.5817
-1.6711 1.1285 -0.5957
-1.6800 0.9882 -0.6002
-1.7408 0.9708 -0.5804
-1.7632 0.8409 -0.5796
-1.7768 0.8016 -0.5771
-1.7843 0.7586 -0.5769
-2.6204 1.2454 -0.2664
-2.6383 1.2424 -0.2605
-2.6469 1.2318 -0.2581
-2.6513 1.2174 -0.2574
-2.6590 1.2065 -0.2554
-2.6723 1.2020 -0.2511
-2.6765 1.1884 -0.2503
-2.6800 1.1739 -0.2499
-2.6922 1.1700 -0.2460
-2.7028 1.1648 -0.2427
-2.7101 1.1561 -0.2406
-2.7181 1.1488 -0.2383
-2.7213 1.1354 -0.2379
-2.7292 1.1287 -0.2356
-2.7340 1.1179 -0.2345
-1.5314 2.6180 -0.6085
-1.5246 2.5464 -0.6151
-1.5673 2.4488 -0.6050
-1.5610 2.4139 -0.6094
-1.6020 2.2816 -0.6019
-1.5899 2.2084 -0.6107
-1.6846 1.9487 -0.5907
-1.6550 1.8326 -0.6085
-1.6999 1.7883 -0.5944
-1.6963 1.6658 -0.6029
-1.6655 1.6227 -0.6168
-1.6918 1.5816 -0.6095
-1.7056 1.5404 -0.6068
-1.7684 1.4649 -0.5879
-1.7024 1.4102 -0.6156
-1.7162 1.3691 -0.6129
-1.7626 1.2501 -0.6026
-1.7707 1.1646 -0.6046
-1.8074 1.1352 -0.5927
-1.7675 1.0730 -0.6111
-1.7821 0.9884 -0.6106
-1.8254 0.9207 -0.5985
-1.8153 0.8685 -0.6053
-1.8346 0.8345 -0.6002
-1.8580 0.8042 -0.5932
-2.6179 1.2402 -0.2856
-2.6451 1.2268 -0.2763
-2.6552 1.2180 -0.2731
-2.6604 1.2045 -0.2719
-2.6737 1.2000 -0.2673
-2.6763 1.1844 -0.2672
-2.6862 1.1772 -0.2640
-2.6960 1.1706 -0.2607
-2.7041 1.1624 -0.2582
-2.7113 1.1536 -0.2560
-2.7193 1.1462 -0.2535
-2.7249 1.1360 -0.2520
-2.7320 1.1282 -0.2499
-2.7352 1.1151 -0.2494
-1.6798 2.5723 -0.5966
-1.6747 2.5415 -0.6006
-1.6928 2.4971 -0.5961
-1.7056 2.4561 -0.5936
-1.7225 2.4133 -0.5895
-1.7416 2.3360 -0.5868
-1.7634 2.2922 -0.5808
-1.7483 2.2646 -0.5887
-1.7496 2.2294 -0.5904
-1.7399 2.1980 -0.5963
-1.7736 2.1510 -0.5857
-1.7951 2.1092 -0.5797
-1.7805 2.0787 -0.5876
-1.7660 2.0470 -0.5954
-1.7884 2.0055 -0.5891
-1.7840 1.9704 -0.5931
-1.7995 1.8210 -0.5964
-1.8224 1.7819 -0.5897
-1.8249 1.7072 -0.5934
-1.7993 1.6689 -0.6062
-1.8698 1.5958 -0.5825
-1.8613 1.5572 -0.5883
-1.8919 1.5230 -0.5782
-1.8854 1.4458 -0.5858
-1.8738 1.3648 -0.5956
-1.9093 1.3351 -0.5832
-1.9067 1.2951 -0.5868
-1.9078 1.2557 -0.5889
-1.9606 1.2361 -0.5689
-1.9492 1.1924 -0.5763
-1.9230 1.1408 -0.5901
-1.9435 1.1099 -0.5838
-1.9770 1.0868 -0.5718
-1.9833 1.0503 -0.5716
-1.9724 1.0036 -0.5790
-1.9831 0.9693 -0.5769
-1.9801 0.9262 -0.5808
-1.9866 0.8890 -0.5806
-1.9888 0.8487 -0.5823
-2.6229 1.2415 -0.3019
-2.6398 1.2376 -0.2954
-2.6483 1.2266 -0.2927
-2.6543 1.2137 -0.2911
-2.6620 1.2026 -0.2887
-2.6711 1.1936 -0.2856
-2.6778 1.1823 -0.2836
-2.6892 1.1769 -0.2794
-2.6942 1.1644 -0.2782
-2.7046 1.1590 -0.2743
-2.7134 1.1521 -0.2712
-2.7206 1.1436 -0.2689
-2.7261 1.1333 -0.2673
-2.7355 1.1287 -0.2638
-2.7395 1.1167 -0.2630
-1.7501 2.5039 -0.6119
-1.8010 2.3464 -0.6007
-1.7968 2.3157 -0.6047
-1.7928 2.1489 -0.6180
-1.9470 1.5306 -0.5939
-1.9119 1.4884 -0.6121
-1.9410 1.4563 -0.6017
-1.9563 1.4225 -0.5974
-1.9462 1.3447 -0.6072
-1.9544 1.2704 -0.6088
-1.9695 1.2374 -0.6045
-2.0032 1.0972 -0.5996
-2.0447 1.0428 -0.5854
-2.0431 1.0030 -0.5888
-2.0427 0.9236 -0.5945
-2.6247 1.2400 -0.3198
-2.6406 1.2351 -0.3132
-2.6475 1.2225 -0.3111
-2.6559 1.2118 -0.3081
-2.6627 1.1998 -0.3060
-2.6710 1.1898 -0.3031
-2.6848 1.1865 -0.2974
-2.6898 1.1738 -0.2961
-2.6979 1.1650 -0.2931
-2.7044 1.1547 -0.2910
-2.7117 1.1456 -0.2885
-2.7203 1.1390 -0.2852
-2.7290 1.1328 -0.2819
-2.7345 1.1227 -0.2802
-2.7415 1.1150 -0.2777
-1.8660 2.5300 -0.5957
-1.8801 2.4917 -0.5920
-1.8774 2.4642 -0.5953
-1.8873 2.4288 -0.5934
-1.8847 2.4008 -0.5967
-1.9110 2.3565 -0.5877
-1.9167 2.3240 -0.5875
-1.8967 2.3043 -0.5983
-1.8902 2.2770 -0.6034
-1.9173 2.2339 -0.5940
-1.9230 2.2010 -0.5938
-1.9368 2.1649 -0.5901
-1.9192 2.1096 -0.6024
-1.9629 1.9707 -0.5925
-1.9914 1.8062 -0.5915
-2.0001 1.7076 -0.5948
-2.0142 1.6746 -0.5907
-2.0116 1.6413 -0.5945
-2.0367 1.6096 -0.5851
-2.0215 1.5409 -0.5974
-2.0273 1.5075 -0.5972
-2.0484 1.4772 -0.5896
-2.0505 1.4434 -0.5911
-2.0813 1.4170 -0.5787
-2.0575 1.3761 -0.5929
-2.0411 1.3357 -0.6036
-2.0769 1.3126 -0.5886
-2.0931 1.2839 -0.5832
-2.1057 1.2543 -0.5795
-2.0906 1.2123 -0.5898
-2.0963 1.1793 -0.5896
-2.0977 1.1440 -0.5915
-2.1001 1.1090 -0.5931
-2.1202 1.0844 -0.5855
-2.1394 1.0602 -0.5784
-2.1450 1.0278 -0.5782
-2.1306 0.9812 -0.5884
-2.1115 0.9296 -0.6012
-2.6219 1.2541 -0.3387
-2.6402 1.2508 -0.3304
-2.6471 1.2380 -0.3282
-2.6547 1.2263 -0.3255
-2.6599 1.2124 -0.3241
-2.6683 1.2021 -0.3210
-2.6742 1.1895 -0.3192
-2.6894 1.1879 -0.3122
-2.6952 1.1762 -0.3104
-2.7002 1.1637 -0.3090
-2.7059 1.1523 -0.3072
-2.7131 1.1432 -0.3045
-2.7232 1.1385 -0.3001
-2.7288 1.1280 -0.2983
-2.7365 1.1210 -0.2952
-2.7398 1.1077 -0.2947
-1.9464 2.3711 -0.6049
-1.9798 2.2961 -0.5943
-2.0017 2.2288 -0.5888
-2.0160 2.1088 -0.5913
-1.9960 1.9348 -0.6153
-2.1059 1.4882 -0.5965
-2.1078 1.4560 -0.5982
-2.1222 1.3940 -0.5960
-2.1427 1.3347 -0.5905
-2.1455 1.3026 -0.5917
-2.1949 1.0919 -0.5840
-2.1887 1.0533 -0.5903
-2.1784 1.0109 -0.5988
-2.6245 1.2533 -0.3565
-2.6339 1.2420 -0.3527
-2.6424 1.2303 -0.3494
-2.6500 1.2182 -0.3466
-2.6616 1.2106 -0.3414
-2.6714 1.2018 -0.3372
-2.6750 1.1866 -0.3367
-2.6832 1.1769 -0.3334
-2.6959 1.1730 -0.3273
-2.7009 1.1604 -0.3258
-2.7081 1.1509 -0.3230
-2.7228 1.1518 -0.3156
-2.7246 1.1359 -0.3160
-2.7309 1.1264 -0.3136
-2.7401 1.1216 -0.3094
-2.7448 1.1105 -0.3079
-2.0137 2.4436 -0.5981
-2.0188 2.4141 -0.5980
-2.0374 2.3762 -0.5914
-2.0393 2.3490 -0.5927
-2.0300 2.3282 -0.5994
-2.0351 2.2987 -0.5992
-2.0402 2.2692 -0.5991
-2.0524 2.2360 -0.5954
-2.0505 2.2101 -0.5987
-2.0696 2.1741 -0.5917
-2.0508 2.1553 -0.6033
-2.0629 2.1227 -0.5997
-2.0779 2.0893 -0.5946
-2.0663 2.0659 -0.6028
-2.0999 1.9992 -0.5906
-2.1112 1.9126 -0.5921
-2.1011 1.8863 -0.5998
-2.0967 1.8581 -0.6045
-2.1113 1.8268 -0.5994
-2.1259 1.7962 -0.5943
-2.1310 1.7667 -0.5942
-2.1371 1.6783 -0.5986
-2.1386 1.6485 -0.6004
-2.1528 1.6193 -0.5953
-2.1616 1.5902 -0.5931
-2.1822 1.5029 -0.5897
-2.1669 1.4690 -0.6008
-2.1871 1.4430 -0.5923
-2.1860 1.4118 -0.5955
-2.2060 1.3870 -0.5871
-2.1876 1.3494 -0.6001
-2.2161 1.3287 -0.5867
-2.2177 1.2981 -0.5885
-2.2057 1.2609 -0.5981
-2.2109 1.2311 -0.5979
-2.2363 1.2121 -0.5860
-2.2296 1.1763 -0.5927
-2.2380 1.1487 -0.5906
-2.2431 1.1193 -0.5904
-2.2532 1.0933 -0.5873
-2.2664 1.0699 -0.5823
-2.2503 1.0249 -0.5947
-2.6223 1.2483 -0.3773
-2.6333 1.2382 -0.3723
-2.6410 1.2256 -0.3693
-2.6494 1.2142 -0.3658
-2.6609 1.2063 -0.3604
-2.6707 1.1974 -0.3559
-2.6813 1.1898 -0.3510
-2.6863 1.1766 -0.3494
-2.6952 1.1681 -0.3454
-2.7047 1.1610 -0.3410
-2.7119 1.1515 -0.3380
-2.7253 1.1324 -0.3325
-2.7353 1.1280 -0.3275
-2.7415 1.1188 -0.3250
-2.7476 1.1099 -0.3225
-2.0759 2.4072 -0.5994
-2.0856 2.3513 -0.5991
-2.1014 2.2918 -0.5956
-2.1032 2.2657 -0.5971
-2.1141 2.2345 -0.5938
-2.1068 2.2130 -0.5998
-2.1076 2.1610 -0.6042
-2.1244 2.1275 -0.5978
-2.1670 2.0080 -0.5847
-2.1958 1.6517 -0.6012
-2.2256 1.5112 -0.5973
-2.2459 1.4577 -0.5908
-2.2637 1.4338 -0.5829
-2.2477 1.3996 -0.5951
-2.2500 1.3706 -0.5965
-2.2677 1.3476 -0.5886
-2.2827 1.3243 -0.5822
-2.2697 1.2886 -0.5929
-2.2846 1.2657 -0.5865
-2.2969 1.2421 -0.5818
-2.3013 1.1535 -0.5874
-2.2963 1.1191 -0.5935
-2.3182 1.0722 -0.5854
-2.6314 1.2532 -0.3913
-2.6336 1.2352 -0.3918
-2.6420 1.2232 -0.3881
-2.6497 1.2109 -0.3849
-2.6603 1.2021 -0.3797
-2.6717 1.1946 -0.3739
-2.6821 1.1870 -0.3687
-2.6872 1.1736 -0.3671
-2.6930 1.1613 -0.3649
-2.7092 1.1625 -0.3556
-2.7141 1.1501 -0.3540
-2.7190 1.1378 -0.3524
-2.7282 1.1319 -0.3477
-2.7374 1.1265 -0.3430
-2.7450 1.1194 -0.3393
-2.1297 2.3524 -0.6043
-2.1343 2.3255 -0.6041
-2.1441 2.2956 -0.6012
-2.1457 2.2707 -0.6027
-2.1583 2.2393 -0.5982
-2.1409 2.2247 -0.6101
-2.1655 2.1873 -0.5990
-2.1702 2.1606 -0.5988
-2.1688 2.1368 -0.6019
-2.1872 2.1040 -0.5941
-2.1781 2.0832 -0.6016
-2.1905 2.0534 -0.5971
-2.1932 2.0276 -0.5980
-2.1997 2.0003 -0.5968
-2.1919 1.9776 -0.6037
-2.2118 1.9464 -0.5948
-2.2211 1.9187 -0.5919
-2.2182 1.8941 -0.5962
-2.2209 1.8679 -0.5971
-2.2330 1.8400 -0.5926
-2.2171 1.8164 -0.6044
-2.2190 1.7898 -0.6059
-2.2338 1.7619 -0.5997
-2.2384 1.7351 -0.5996
-2.2413 1.7083 -0.6005
-2.2531 1.6816 -0.5960
-2.2397 1.6542 -0.6067
-2.2445 1.6271 -0.6066
-2.2689 1.5748 -0.5970
-2.2833 1.5497 -0.5909
-2.2808 1.5219 -0.5951
-2.2854 1.4953 -0.5949
-2.2918 1.4691 -0.5937
-2.2774 1.4369 -0.6055
-2.2924 1.4132 -0.5988
-2.2988 1.3869 -0.5975
-2.3195 1.3666 -0.5871
-2.3283 1.3422 -0.5842
-2.3244 1.3121 -0.5895
-2.3356 1.2891 -0.5850
-2.3244 1.2544 -0.5951
-2.3422 1.2353 -0.5863
-2.3361 1.2025 -0.5932
-2.3408 1.1759 -0.5930
-2.3470 1.1504 -0.5918
-2.3564 1.1274 -0.5884
-2.3626 1.1022 -0.5872
-2.6286 1.2475 -0.4132
-2.6378 1.2359 -0.4087
-2.6447 1.2224 -0.4059
-2.6523 1.2099 -0.4026
-2.6675 1.2059 -0.3939
-2.6711 1.1902 -0.3932
-2.6831 1.1841 -0.3866
-2.6896 1.1724 -0.3839
-2.6977 1.1628 -0.3800
-2.7115 1.1612 -0.3718
-2.7186 1.1516 -0.3685
-2.7227 1.1384 -0.3673
-2.7283 1.1273 -0.3651
-2.7353 1.1186 -0.3617
-2.7400 1.1069 -0.3600
-2.7497 1.1032 -0.3546
-2.1913 2.3166 -0.5996
-2.1794 2.2555 -0.6135
-2.2083 2.1926 -0.6017
-2.2058 2.1707 -0.6056
-2.2201 2.1401 -0.5997
-2.2313 2.1115 -0.5955
-2.2357 2.0863 -0.5954
-2.2303 2.0652 -0.6010
-2.2328 2.0404 -0.6020
-2.2528 1.9617 -0.5975
-2.2772 1.8832 -0.5902
-2.2747 1.8350 -0.5968
-2.2883 1.8084 -0.5909
-2.2697 1.7859 -0.6051
-2.2943 1.7585 -0.5923
-2.3118 1.6830 -0.5890
-2.3251 1.6584 -0.5832
-2.3054 1.6319 -0.5984
-2.3231 1.6078 -0.5897
-2.3186 1.5816 -0.5953
-2.3274 1.5569 -0.5923
-2.3318 1.5317 -0.5921
-2.3422 1.5079 -0.5880
-2.3551 1.4852 -0.5821
-2.3551 1.4592 -0.5849
