ply
format ascii 1.0
element vertex 2088
property float x
property float y
property float z
end_header
-5.3189 3.7853 -0.6478
-5.1136 3.5563 -0.6352
-4.9842 3.4065 -0.6386
-4.8257 3.2339 -0.6201
-4.6361 3.0195 -0.6144
-4.5139 2.8764 -0.6210
-4.3862 2.7370 -0.6068
-4.3503 2.6933 -0.6120
-4.3093 2.6468 -0.6112
-4.2748 2.6068 -0.6123
-4.2375 2.5658 -0.6087
-4.1943 2.5105 -0.6207
-4.1443 2.4637 -0.5989
-4.1206 2.4369 -0.5981
-4.0832 2.3924 -0.6017
-4.0480 2.3518 -0.6022
-4.0307 2.3326 -0.6011
-4.0157 2.3153 -0.6012
-3.9978 2.2969 -0.5968
-3.9926 2.2862 -0.6068
-3.9733 2.2680 -0.5986
-3.9489 2.2409 -0.5970
-3.9395 2.2293 -0.5988
-3.9267 2.2164 -0.5949
-3.9180 2.2058 -0.5963
-3.9108 2.1962 -0.5991
-3.9036 2.1868 -0.6015
-3.8922 2.1760 -0.5967
-3.8836 2.1667 -0.5957
-3.8778 2.1586 -0.5986
-3.8720 2.1508 -0.6011
-6.0421 5.0261 0.5150
-6.0411 4.9844 0.4307
-6.0134 4.8315 0.1753
-6.0614 4.8449 0.0948
-6.1116 4.8591 0.0110
-6.0349 4.7341 -0.0754
-6.0583 4.7185 -0.1608
-6.2160 4.8432 -0.2577
-6.2719 4.8575 -0.3544
-6.0803 4.6178 -0.4199
-6.1052 4.6012 -0.5105
-5.9346 4.3912 -0.5618
-5.4924 3.8916 -0.6017
-5.4191 3.7910 -0.6452
-5.1766 3.5372 -0.6252
-4.9190 3.2550 -0.6299
-4.7039 3.0260 -0.6200
-4.6385 2.9521 -0.6259
-4.5429 2.8556 -0.6106
-4.4146 2.7216 -0.5995
-4.3826 2.6825 -0.6084
-4.3476 2.6422 -0.6132
-4.2973 2.5918 -0.6043
-4.2624 2.5541 -0.6038
-4.1956 2.4844 -0.5981
-4.1726 2.4581 -0.6007
-4.1510 2.4335 -0.6030
-4.1258 2.4074 -0.6005
-4.1073 2.3861 -0.6027
-4.0672 2.3438 -0.6002
-4.0479 2.3241 -0.5976
-4.0287 2.3050 -0.5938
-4.0070 2.2776 -0.6021
-3.9789 2.2483 -0.5992
-3.9500 2.2207 -0.5915
-3.9440 2.2112 -0.5975
-3.9343 2.2005 -0.5981
-3.9262 2.1906 -0.6001
-3.9202 2.1819 -0.6047
-3.8987 2.1617 -0.5983
-3.8817 2.1443 -0.5959
-3.8786 2.1377 -0.6028
-6.4663 5.3749 0.6152
-6.5645 5.3921 0.4407
-5.9324 4.6519 0.2577
-6.0212 4.7102 0.1885
-6.1690 4.8284 0.1175
-6.1947 4.8140 0.0324
-6.1408 4.7164 -0.0547
-6.0172 4.5496 -0.1361
-5.9488 4.4421 -0.2130
-5.8422 4.2990 -0.2817
-5.9681 4.3461 -0.4534
-5.9004 4.2067 -0.5977
-5.6191 3.9146 -0.6020
-5.1176 3.3853 -0.6270
-4.5468 2.7997 -0.6205
-4.4650 2.7226 -0.6053
-4.4274 2.6804 -0.6124
-4.3715 2.6264 -0.6049
-4.3309 2.5848 -0.6044
-4.2904 2.5445 -0.6011
-4.2060 2.4551 -0.6061
-4.1709 2.4228 -0.5979
-4.1501 2.4002 -0.6004
-4.1347 2.3814 -0.6064
-4.0720 2.3192 -0.6012
-4.0513 2.2999 -0.5970
-4.0368 2.2844 -0.5981
-4.0260 2.2712 -0.6024
-4.0107 2.2561 -0.6008
-3.9908 2.2396 -0.5928
-3.9876 2.2309 -0.6039
-3.9663 2.2147 -0.5919
-3.9616 2.2060 -0.6000
-3.9547 2.1965 -0.6049
-3.9387 2.1838 -0.5969
-3.9302 2.1744 -0.5984
-3.9195 2.1644 -0.5961
-3.9141 2.1566 -0.6008
-3.9034 2.1472 -0.5973
-3.8988 2.1400 -0.6023
-3.8941 2.1329 -0.6070
-6.2045 4.9801 0.6408
-6.3992 5.1521 0.6019
-6.0062 4.5726 0.1987
-5.8779 4.4046 0.1111
-5.8374 4.3284 0.0353
-5.8176 4.2737 -0.0378
-5.7977 4.2196 -0.1097
-5.8158 4.2022 -0.1824
-5.9774 4.2814 -0.3462
-6.7573 4.9519 -0.5405
-6.6457 4.8027 -0.6228
-6.1889 4.3544 -0.6245
-5.5410 3.7247 -0.6140
-4.9615 3.1469 -0.6349
-4.5706 2.7768 -0.6082
-4.5082 2.7168 -0.6059
-4.4521 2.6631 -0.6034
-4.4055 2.6175 -0.6032
-4.3887 2.5930 -0.6198
-4.2941 2.5072 -0.6054
-4.2656 2.4780 -0.6080
-4.2309 2.4461 -0.6038
-4.2063 2.4211 -0.6058
-4.1810 2.3964 -0.6055
-4.1605 2.3752 -0.6078
-4.1321 2.3503 -0.6016
-4.1170 2.3333 -0.6063
-4.0903 2.3109 -0.5985
-4.0775 2.2961 -0.6032
-4.0555 2.2774 -0.5973
-4.0389 2.2618 -0.5960
-4.0309 2.2505 -0.6031
-4.0128 2.2352 -0.5981
-4.0017 2.2233 -0.6003
-3.9899 2.2114 -0.6008
-3.9757 2.1990 -0.5976
-3.9654 2.1885 -0.5985
-3.9512 2.1770 -0.5936
-3.9402 2.1669 -0.5921
-3.9330 2.1584 -0.5952
-3.9290 2.1511 -0.6022
-3.9172 2.1417 -0.5977
-3.9101 2.1339 -0.5994
-3.9053 2.1269 -0.6042
-6.1075 4.6723 0.4573
-6.0380 4.5638 0.3666
-5.9506 4.4394 0.2776
-5.7418 4.1981 0.1807
-5.7581 4.1812 0.1143
-5.7931 4.1817 0.0477
-5.7922 4.1473 -0.0217
-5.9672 4.2756 -0.0935
-6.3239 4.3560 -0.6146
-6.0704 4.1064 -0.6425
-5.7147 3.7824 -0.6279
-5.5143 3.5915 -0.6366
-5.2686 3.3716 -0.6183
-5.0202 3.1348 -0.6297
-4.8470 2.9863 -0.6035
-4.7882 2.9247 -0.6177
-4.6809 2.8309 -0.6050
-4.6667 2.8040 -0.6333
-4.5098 2.6675 -0.6134
-4.4259 2.5860 -0.6204
-4.3194 2.4961 -0.6012
-4.2982 2.4721 -0.6100
-4.2608 2.4396 -0.6052
-4.2038 2.3875 -0.6032
-4.1485 2.3397 -0.5956
-4.1330 2.3230 -0.6003
-4.1175 2.3067 -0.6041
-4.0907 2.2858 -0.5959
-4.0720 2.2692 -0.5941
-4.0605 2.2563 -0.5988
-4.0443 2.2417 -0.5976
-4.0312 2.2289 -0.5989
-4.0198 2.2171 -0.6013
-3.9890 2.1918 -0.5942
-3.9808 2.1823 -0.5982
-3.9702 2.1722 -0.5986
-3.9580 2.1620 -0.5962
-3.9458 2.1522 -0.5932
-3.9384 2.1440 -0.5959
-3.9319 2.1363 -0.5993
-3.9188 2.1214 -0.6048
-5.8645 4.3515 0.4810
-5.8822 4.3353 0.4154
-5.8259 4.2470 0.3358
-5.7721 4.1627 0.2599
-5.7545 4.1140 0.1913
-6.4949 4.3817 -0.6101
-6.3216 4.2034 -0.6615
-5.7966 3.7609 -0.6157
-5.6621 3.6269 -0.6464
-5.3648 3.3771 -0.6191
-4.8076 2.8927 -0.6007
-4.6859 2.7767 -0.6178
-4.5485 2.6581 -0.6115
-4.4982 2.6129 -0.6128
-4.3491 2.4873 -0.5998
-4.2779 2.4258 -0.5966
-4.2301 2.3802 -0.6034
-4.1806 2.3366 -0.6030
-4.1404 2.3000 -0.6050
-4.0985 2.2651 -0.6006
-4.0600 2.2339 -0.5946
-4.0414 2.2120 -0.6058
-4.0105 2.1873 -0.6004
-3.9862 2.1663 -0.5993
-3.9535 2.1384 -0.5972
-3.9410 2.1294 -0.5929
-3.9351 2.1222 -0.5970
-3.9292 2.1151 -0.6008
-5.8038 4.1940 0.4683
-6.7096 4.4340 -0.6109
-6.4014 4.1600 -0.6410
-5.8613 3.7256 -0.5991
-5.7075 3.5828 -0.6267
-5.4542 3.3745 -0.6164
-5.3049 3.2448 -0.6246
-5.0750 3.0653 -0.5959
-5.0668 3.0380 -0.6377
-4.9109 2.9160 -0.6188
-4.8101 2.8331 -0.6148
-4.7188 2.7588 -0.6093
-4.6352 2.6918 -0.6024
-4.5886 2.6489 -0.6100
-4.5488 2.6112 -0.6187
-4.4697 2.5527 -0.6019
-4.4326 2.5193 -0.6064
-4.3895 2.4837 -0.6049
-4.2988 2.4033 -0.6134
-4.2067 2.3300 -0.6046
-4.1775 2.3079 -0.5993
-4.1576 2.2906 -0.6006
-4.1162 2.2570 -0.5981
-4.1075 2.2455 -0.6066
-4.0869 2.2300 -0.6027
-4.0662 2.2152 -0.5976
-4.0575 2.2048 -0.6039
-4.0403 2.1920 -0.6005
-4.0198 2.1786 -0.5922
-4.0050 2.1609 -0.6031
-3.9921 2.1509 -0.6012
-3.9792 2.1413 -0.5986
-3.9697 2.1329 -0.5995
-3.9593 2.1245 -0.5988
-3.9507 2.1168 -0.5998
-3.9421 2.1093 -0.6002
-6.6634 4.2456 -0.6552
-5.9835 3.7303 -0.5950
-5.8528 3.6076 -0.6322
-5.4098 3.2544 -0.6289
-5.2132 3.1029 -0.6167
-5.0547 2.9806 -0.6070
-4.9104 2.8715 -0.5938
-4.8456 2.8138 -0.6057
-4.6958 2.6923 -0.6088
-4.6029 2.6247 -0.5949
-4.5664 2.5902 -0.6058
-4.4804 2.5175 -0.6136
-4.3927 2.4488 -0.6104
-4.3458 2.4148 -0.6031
-4.2855 2.3656 -0.6049
-4.2545 2.3420 -0.6025
-4.2332 2.3232 -0.6061
-4.2040 2.3018 -0.6020
-4.1845 2.2850 -0.6044
-4.1615 2.2674 -0.6026
-4.1385 2.2505 -0.5996
-4.1278 2.2384 -0.6067
-4.1048 2.2226 -0.6014
-4.0871 2.2091 -0.5999
-4.0720 2.1969 -0.6002
-4.0561 2.1849 -0.5987
-4.0436 2.1743 -0.6001
-4.0356 2.1651 -0.6057
-4.0206 2.1545 -0.6028
-4.0064 2.1445 -0.6000
-3.9967 2.1358 -0.6017
-3.9825 2.1265 -0.5975
-3.9710 2.1182 -0.5958
-3.9656 2.1112 -0.6013
-6.8154 4.2449 -0.6455
-5.9156 3.5734 -0.6161
-5.4723 3.2341 -0.6193
-5.1602 2.9965 -0.6187
-4.9227 2.8181 -0.6133
-4.7946 2.7285 -0.5967
-4.7317 2.6777 -0.6028
-4.6670 2.6275 -0.6046
-4.5943 2.5750 -0.5986
-4.5876 2.5574 -0.6244
-4.5213 2.5111 -0.6158
-4.4550 2.4665 -0.6035
-4.3475 2.3830 -0.6068
-4.3103 2.3565 -0.6029
-4.2221 2.2920 -0.5974
-4.2029 2.2758 -0.6007
-4.1775 2.2579 -0.5975
-4.1655 2.2452 -0.6049
-4.1509 2.2320 -0.6091
-4.1183 2.2137 -0.5957
-4.1091 2.2031 -0.6031
-4.0937 2.1911 -0.6036
-4.0827 2.1806 -0.6080
-4.0600 2.1675 -0.5994
-4.0464 2.1571 -0.5993
-4.0372 2.1482 -0.6034
-4.0245 2.1387 -0.6029
-4.0037 2.1280 -0.5923
-3.9955 2.1202 -0.5955
-3.9908 2.1132 -0.6027
-3.9772 2.1049 -0.5984
-6.9020 4.1978 -0.6233
-6.6101 3.9696 -0.6572
-6.0157 3.5623 -0.6083
-5.8370 3.4218 -0.6307
-5.5737 3.2360 -0.6201
-5.2123 2.9785 -0.6107
-5.1448 2.9192 -0.6319
-5.0178 2.8298 -0.6265
-4.8816 2.7388 -0.6104
-4.8273 2.6933 -0.6229
-4.6677 2.5819 -0.6139
-4.6153 2.5424 -0.6172
-4.5565 2.5012 -0.6142
-4.5014 2.4633 -0.6101
-4.4446 2.4260 -0.6019
-4.4368 2.4108 -0.6216
-4.3652 2.3699 -0.5989
-4.3017 2.3240 -0.5985
-4.2494 2.2854 -0.5998
-4.1925 2.2481 -0.5917
-4.1662 2.2230 -0.6042
-4.1233 2.1947 -0.5983
-4.0887 2.1708 -0.5961
-4.0766 2.1607 -0.5987
-4.0699 2.1521 -0.6064
-4.0522 2.1414 -0.6020
-4.0419 2.1326 -0.6047
-4.0233 2.1227 -0.5975
-4.0149 2.1148 -0.6009
-4.0037 2.1068 -0.6007
-4.0008 2.1003 -0.6099
-7.2210 4.2933 -0.6376
-6.7514 3.9640 -0.6483
-6.1397 3.5630 -0.6045
-5.5366 3.1316 -0.6358
-5.3394 3.0001 -0.6262
-4.9767 2.7686 -0.5875
-4.9639 2.7438 -0.6204
-4.8710 2.6804 -0.6188
-4.7619 2.6118 -0.6051
-4.7015 2.5683 -0.6087
-4.5760 2.4841 -0.6039
-4.5262 2.4498 -0.6037
-4.4840 2.4199 -0.6053
-4.4466 2.3930 -0.6076
-4.4064 2.3659 -0.6061
-4.3087 2.2989 -0.6052
-4.2762 2.2783 -0.6015
-4.2513 2.2609 -0.6019
-4.2091 2.2303 -0.6050
-4.1766 2.2126 -0.5952
-4.1449 2.1882 -0.6005
-4.1171 2.1663 -0.6060
-4.0989 2.1549 -0.6035
-4.0836 2.1447 -0.6029
-4.0635 2.1339 -0.5966
-4.0511 2.1249 -0.5973
-4.0396 2.1165 -0.5984
-4.0318 2.1089 -0.6031
-4.0137 2.1001 -0.5955
-4.0079 2.0932 -0.6013
-4.0030 2.0866 -0.6079
-6.8643 3.9386 -0.6332
-6.1630 3.4712 -0.6468
-5.6377 3.1310 -0.6369
-5.2353 2.8782 -0.6132
-5.0529 2.7684 -0.5924
-4.8878 2.6546 -0.6035
-4.8111 2.6034 -0.6052
-4.7346 2.5542 -0.6030
-4.6776 2.5151 -0.6063
-4.5695 2.4437 -0.6073
-4.5243 2.4134 -0.6085
-4.4802 2.3846 -0.6080
-4.4094 2.3364 -0.6115
-4.3565 2.3079 -0.5988
-4.3015 2.2703 -0.6016
-4.2436 2.2348 -0.5965
-4.2082 2.2079 -0.6039
-4.1817 2.1930 -0.5988
-4.1708 2.1824 -0.6059
-4.1483 2.1695 -0.6020
-4.1258 2.1572 -0.5969
-4.1110 2.1469 -0.5981
-4.1021 2.1381 -0.6042
-4.0903 2.1290 -0.6069
-4.0639 2.1180 -0.5940
-4.0471 2.1025 -0.6030
-4.0315 2.0943 -0.5988
-4.0216 2.0870 -0.6005
-8.1699 -2.4429 1.0907
-7.6462 -1.8835 0.9565
-7.3008 -1.4975 0.8676
-6.4881 -0.6132 0.6590
-6.4266 -0.4965 0.6421
-5.7827 0.2359 0.4761
-5.6609 0.3584 0.4451
-5.3462 0.6204 0.3660
-5.3389 0.6668 0.3633
-5.0922 0.9309 0.3001
-4.7339 1.3362 0.2078
-4.7363 1.3628 0.2078
-5.1975 1.8596 0.3046
-5.1737 1.8912 0.2983
-5.3671 2.0324 0.3403
-5.6080 2.2118 0.3926
-5.6283 2.2690 0.3961
-5.7125 2.3555 0.4139
-5.9296 2.5650 0.4599
-8.1413 -2.4449 0.9785
-7.8892 -2.1136 0.9185
-7.3134 -1.5285 0.7853
-6.7456 -0.9000 0.6528
-6.4908 -0.6298 0.5936
-6.4297 -0.5125 0.5783
-6.0024 -0.0233 0.4782
-5.7926 0.1663 0.4302
-5.7574 0.2421 0.4212
-5.6082 0.3801 0.3869
-5.4126 0.5803 0.3417
-5.3892 0.6366 0.3355
-5.2799 0.7311 0.3106
-5.1601 0.8627 0.2827
-5.1159 0.9179 0.2722
-5.0532 0.9773 0.2578
-4.7294 1.3355 0.1822
-4.7329 1.3621 0.1824
-4.7386 1.3887 0.1830
-5.1584 1.8511 0.2611
-5.1697 1.8922 0.2626
-5.4177 2.0526 0.3112
-5.5663 2.1994 0.3392
-5.6773 2.2938 0.3604
-5.9017 2.5007 0.4030
-5.9987 2.6052 0.4211
-6.2009 2.7692 0.4600
-7.3621 -1.5899 0.7087
-6.9113 -1.1304 0.6151
-6.8292 -0.9817 0.5967
-6.5825 -0.7135 0.5452
-6.4530 -0.5433 0.5175
-5.9175 0.0210 0.4061
-5.6773 0.2809 0.3559
-5.5958 0.3793 0.3387
-5.5197 0.4706 0.3226
-5.4339 0.5628 0.3047
-5.3329 0.6580 0.2839
-5.2697 0.7304 0.2706
-5.2107 0.7976 0.2583
-5.1571 0.8595 0.2470
-5.1003 0.9198 0.2351
-4.7227 1.3350 0.1562
-4.7262 1.3616 0.1563
-4.7319 1.3882 0.1567
-4.7451 1.4148 0.1586
-5.1842 1.8985 0.2300
-5.2096 1.9451 0.2337
-5.9143 2.4550 0.3538
-5.9149 2.5126 0.3527
-5.9557 2.5901 0.3587
-6.1032 2.7255 0.3832
-7.9312 -2.2002 0.7242
-7.4131 -1.6541 0.6289
-6.8912 -1.0475 0.5318
-6.8097 -0.9009 0.5156
-6.7837 -0.7992 0.5092
-5.8635 0.0458 0.3427
-5.7891 0.1498 0.3285
-5.6869 0.2665 0.3095
-5.5642 0.3895 0.2871
-5.5358 0.4546 0.2811
-5.4558 0.5448 0.2663
-5.4070 0.6156 0.2569
-5.3302 0.6967 0.2428
-5.1598 0.8925 0.2111
-4.7193 1.3342 0.1306
-4.7281 1.3603 0.1315
-4.7316 1.3873 0.1315
-5.1505 1.8528 0.1895
-5.1573 1.8928 0.1897
-5.9547 2.5372 0.3052
-5.9693 2.6032 0.3061
-7.5458 -1.7880 0.5582
-7.1423 -1.3558 0.4939
-7.1103 -1.2383 0.4870
-6.8711 -0.9646 0.4485
-5.7287 0.1784 0.2679
-5.6739 0.2657 0.2586
-5.6318 0.3427 0.2512
-5.4961 0.4690 0.2300
-5.3713 0.6270 0.2096
-5.3270 0.6925 0.2021
-5.2560 0.7674 0.1908
-4.7158 1.3333 0.1049
-4.7214 1.3599 0.1051
-4.7281 1.3866 0.1055
-5.1646 1.8584 0.1556
-5.1650 1.8972 0.1549
-5.9541 2.5429 0.2498
-7.1553 3.5661 0.3935
-8.3660 -2.6330 0.5716
-8.2480 -2.4071 0.5537
-5.8357 0.1011 0.2308
-5.6085 0.3480 0.2001
-5.5212 0.4477 0.1883
-5.4498 0.5344 0.1784
-5.3385 0.6812 0.1629
-5.2257 0.7757 0.1483
-5.1943 0.8300 0.1436
-4.7208 1.3314 0.0800
-4.7263 1.3582 0.0801
-4.7330 1.3853 0.0803
-5.1795 1.8644 0.1207
-5.9388 2.4826 0.1935
-5.9116 2.5286 0.1895
-5.9863 -0.0051 0.1919
-5.8358 0.1490 0.1756
-5.7029 0.2845 0.1612
-5.5659 0.4153 0.1466
-5.4907 0.5057 0.1382
-5.4050 0.5974 0.1288
-5.3276 0.6805 0.1204
-5.2702 0.7504 0.1139
-4.7193 1.3303 0.0540
-4.7195 1.3578 0.0534
-4.7229 1.3851 0.0532
-5.1454 1.8572 0.0806
-5.1638 1.9012 0.0813
-5.9379 2.4879 0.1371
-5.9385 2.5476 0.1359
-5.9419 0.0127 0.1300
-5.8465 0.1326 0.1217
-5.6139 0.3804 0.1023
-5.5069 0.4899 0.0935
-5.3172 0.7237 0.0770
-4.7187 1.3290 0.0277
-4.7158 1.3570 0.0270
-4.7224 1.3841 0.0268
-5.1474 1.8597 0.0437
-5.1604 1.9025 0.0436
-5.9516 2.4999 0.0807
-5.9521 2.5604 0.0796
-5.9848 -0.0259 0.0739
-5.8073 0.1471 0.0641
-5.5134 0.4790 0.0468
-5.4071 0.5832 0.0409
-5.3675 0.6950 0.0372
-4.7181 1.3277 0.0011
-4.7121 1.3562 0.0003
-4.7155 1.3837 -0.0001
-5.1743 1.8690 0.0070
-5.1872 1.9128 0.0066
-5.9366 2.4989 0.0222
-5.9372 2.5594 0.0210
-5.9848 -0.0370 0.0138
-5.8712 0.0972 0.0101
-5.7555 0.2265 0.0063
-5.5012 0.4782 -0.0012
-5.4645 0.5468 -0.0029
-5.3877 0.6331 -0.0054
-4.7195 1.3261 -0.0258
-4.7115 1.3551 -0.0264
-5.2028 1.8788 -0.0316
-5.2032 1.9199 -0.0324
-5.9216 2.4979 -0.0364
-5.9222 2.5583 -0.0376
-6.4424 2.9614 -0.0402
-6.0622 -0.0992 -0.0473
-5.8697 0.0879 -0.0478
-5.4981 0.4723 -0.0492
-5.4986 0.5221 -0.0502
-4.7187 1.3248 -0.0531
-4.7097 1.3541 -0.0535
-5.2122 1.8835 -0.0719
-5.2249 1.9289 -0.0730
-5.9201 2.5031 -0.0953
-5.9206 2.5640 -0.0965
-5.8152 0.1120 -0.1048
-5.7275 0.2246 -0.1032
-5.5142 0.4558 -0.0984
-5.4771 0.5261 -0.0982
-4.7147 1.3240 -0.0806
-4.7089 1.3530 -0.0809
-5.2080 1.8846 -0.1125
-5.2146 1.9282 -0.1136
-5.8917 2.4959 -0.1536
-5.9056 2.5630 -0.1554
-6.7636 3.1560 -0.2037
-7.6298 3.8473 -0.2541
-7.9174 4.2515 -0.2742
-5.9095 0.0414 -0.1683
-5.7629 0.1934 -0.1608
-5.5602 0.4225 -0.1509
-4.7452 1.3184 -0.1106
-4.7293 1.3495 -0.1100
-4.7295 1.3784 -0.1106
-5.1916 1.8822 -0.1525
-5.2042 1.9275 -0.1543
-5.9617 2.4724 -0.2177
-5.8899 2.5011 -0.2132
-5.9190 2.5762 -0.2166
-7.1371 3.4675 -0.3189
-7.3562 3.6954 -0.3386
-7.4357 3.8465 -0.3470
-5.9522 0.0029 -0.2333
-5.7365 0.1999 -0.2159
-5.6099 0.3323 -0.2060
-5.5683 0.4098 -0.2033
-4.7580 1.3151 -0.1410
-4.7452 1.3465 -0.1403
-4.7485 1.3758 -0.1412
-5.1873 1.8832 -0.1935
-5.2210 1.9352 -0.1977
-5.9461 2.4713 -0.2785
-5.8890 2.5068 -0.2736
-5.9473 2.5970 -0.2810
-7.3678 3.5128 -0.4368
-8.2441 4.5039 -0.5409
-7.3342 -1.5300 -0.4426
-5.9076 0.0206 -0.2917
-5.8108 0.1440 -0.2818
-5.7099 0.2642 -0.2713
-4.7339 1.3464 -0.1685
-4.7542 1.3742 -0.1715
-5.2448 1.8580 -0.2420
-5.1970 1.8881 -0.2366
-7.1179 2.8117 -0.4949
-5.9456 2.4771 -0.3414
-5.9020 2.5192 -0.3367
-7.3816 3.5331 -0.5412
-7.4228 3.6601 -0.5487
-7.5073 3.8159 -0.5622
-6.8973 -0.9149 -0.4905
-5.8097 0.1343 -0.3419
-5.7836 0.2107 -0.3393
-4.7769 1.3093 -0.2041
-4.7306 1.3455 -0.1976
-4.7398 1.3743 -0.1995
-4.7341 1.4045 -0.1992
-5.1921 1.8466 -0.2777
-5.1995 1.8911 -0.2797
-7.0602 2.7968 -0.5825
-5.8861 2.4562 -0.3956
-5.8587 2.5048 -0.3922
-7.2782 3.3869 -0.6267
-7.2792 3.4881 -0.6287
-7.2422 3.5668 -0.6244
-7.3580 3.7380 -0.6453
-7.2071 3.7430 -0.6222
-7.2080 3.8421 -0.6241
-7.2089 3.9411 -0.6261
-7.1749 4.0146 -0.6221
-7.1058 4.0595 -0.6123
-7.1067 4.1556 -0.6142
-7.0735 4.2240 -0.6103
-7.1785 4.4069 -0.6298
-7.2145 4.5355 -0.6376
-7.2525 4.6678 -0.6459
-7.1813 4.7011 -0.6355
-6.0627 -0.1044 -0.4453
-5.8349 0.1079 -0.4074
-5.7561 0.2174 -0.3949
-5.7066 0.3054 -0.3875
-4.7486 1.3118 -0.2303
-4.7233 1.3450 -0.2263
-4.7324 1.3738 -0.2285
-4.7366 1.4034 -0.2298
-4.6985 1.4345 -0.2233
-5.1889 1.8904 -0.3210
-5.8994 2.4682 -0.4611
-5.8713 2.5172 -0.4568
-6.6085 3.2026 -0.6037
-6.6671 3.9920 -0.6285
-6.5929 4.1734 -0.6181
-6.3242 -0.5977 -0.5617
-6.3035 -0.5053 -0.5589
-6.3257 -0.4451 -0.5646
-6.1688 -0.2594 -0.5346
-5.8621 0.1431 -0.4767
-5.7040 0.2977 -0.4459
-4.7411 1.3113 -0.2597
-4.7218 1.3438 -0.2562
-4.7319 1.3727 -0.2588
-4.7390 1.4024 -0.2608
-4.7011 1.4337 -0.2533
-5.2044 1.8538 -0.3673
-5.2048 1.8972 -0.3682
-5.9118 2.4166 -0.5270
-5.9576 2.5009 -0.5382
-5.9435 2.5586 -0.5362
-6.0887 2.6975 -0.5694
-6.2941 2.8771 -0.6161
-6.2751 2.9403 -0.6131
-6.2561 3.0025 -0.6102
-6.2568 3.0758 -0.6116
-6.2772 3.1621 -0.6175
-6.2582 3.2225 -0.6145
-6.2786 3.3099 -0.6203
-6.2793 3.3839 -0.6218
-6.2602 3.4426 -0.6188
-6.2806 3.5317 -0.6247
-6.2813 3.6056 -0.6261
-6.3018 3.6964 -0.6320
-6.3025 3.7709 -0.6335
-6.2834 3.8274 -0.6304
-6.2643 3.8827 -0.6273
-6.2229 -0.6829 -0.6142
-6.1666 -0.5625 -0.6027
-6.1490 -0.4758 -0.6000
-6.1497 -0.4040 -0.6013
-6.1320 -0.3189 -0.5985
-6.0283 -0.1748 -0.5760
-5.9797 -0.0736 -0.5660
-5.9803 -0.0069 -0.5673
-5.3834 0.6237 -0.4341
-4.7578 1.3072 -0.2948
-4.7086 1.3440 -0.2836
-4.7176 1.3728 -0.2863
-4.7276 1.4021 -0.2892
-5.2015 1.8551 -0.4114
-5.1941 1.8965 -0.4103
-5.4700 2.0783 -0.4800
-5.6847 2.2671 -0.5351
-5.7721 2.3621 -0.5578
-5.8966 2.4792 -0.5899
-5.9275 2.5576 -0.5987
-5.8978 2.6064 -0.5924
-5.9153 2.8067 -0.6000
-5.9002 2.8609 -0.5973
-5.9621 3.0300 -0.6152
-5.9627 3.0953 -0.6165
-5.9476 3.1490 -0.6137
-5.7991 -0.2758 -0.5827
-5.7863 -0.2031 -0.5805
-5.8281 -0.1730 -0.5923
-5.8008 -0.0898 -0.5864
-5.7746 -0.0089 -0.5806
-5.7617 0.0614 -0.5783
-5.7757 0.1136 -0.5830
-5.7763 0.1748 -0.5842
-5.4337 0.5917 -0.4983
-4.8873 1.1110 -0.3588
-4.7569 1.3057 -0.3267
-4.7071 1.3429 -0.3138
-4.7141 1.3720 -0.3162
-4.7240 1.4014 -0.3194
-4.7021 1.4323 -0.3140
-5.7259 1.6976 -0.5963
-5.7390 1.7587 -0.6009
-5.7657 1.8229 -0.6092
-5.7401 1.8781 -0.6032
-5.6788 1.9235 -0.5873
-5.1974 1.8561 -0.4556
-5.1833 1.8958 -0.4524
-5.6942 2.3338 -0.5985
-5.7199 2.4037 -0.6066
-5.7331 2.4688 -0.6113
-5.7463 2.5347 -0.6160
-5.7342 2.5875 -0.6136
-5.7474 2.6541 -0.6183
-5.7353 2.7061 -0.6159
-5.7233 2.7574 -0.6135
-5.7112 2.8080 -0.6111
-5.7244 2.8754 -0.6158
-5.7123 2.9252 -0.6134
-5.7255 2.9933 -0.6181
-5.7387 3.0621 -0.6229
-5.7392 3.1214 -0.6240
-5.7145 3.1596 -0.6179
-5.7150 3.2182 -0.6191
-5.7156 3.2768 -0.6202
-5.7161 3.3354 -0.6214
-5.7167 3.3940 -0.6225
-5.6552 -0.2875 -0.6038
-5.6558 -0.2293 -0.6050
-5.6211 -0.1418 -0.5960
-5.6217 -0.0847 -0.5971
-5.6222 -0.0275 -0.5982
-5.6227 0.0297 -0.5993
-5.6471 0.0700 -0.6073
-5.6476 0.1279 -0.6085
-5.5796 0.2305 -0.5896
-5.5915 0.2792 -0.5941
-5.5482 0.3614 -0.5824
-5.5068 0.4399 -0.5712
-5.4205 0.5398 -0.5468
-5.3676 0.6178 -0.5321
-5.3175 0.6913 -0.5182
-5.2778 0.7571 -0.5074
-4.8885 1.1429 -0.3963
-4.7281 1.3083 -0.3506
-4.7064 1.3416 -0.3446
-4.7124 1.3710 -0.3469
-4.7232 1.4005 -0.3507
-5.4579 1.5637 -0.5751
-5.5415 1.8940 -0.6058
-5.1933 1.8571 -0.5001
-5.1802 1.8973 -0.4969
-5.4931 2.1462 -0.5954
-5.5138 2.2072 -0.6027
-5.5355 2.3774 -0.6121
-5.5254 2.4258 -0.6098
-5.5072 2.6276 -0.6077
-5.5431 3.1872 -0.6278
-5.5542 3.2513 -0.6323
-5.4394 -0.0552 -0.5971
-5.4031 0.0278 -0.5864
-5.3677 0.1078 -0.5759
-5.3766 0.1513 -0.5796
-5.3866 0.1945 -0.5836
-5.3955 0.2390 -0.5873
-5.3695 0.3080 -0.5798
-5.3785 0.3525 -0.5835
-5.3885 0.3969 -0.5875
-5.3710 0.4582 -0.5827
-5.3629 0.5130 -0.5809
-5.3634 0.5628 -0.5819
-5.3298 0.6299 -0.5718
-5.3056 0.6905 -0.5648
-5.3221 0.7313 -0.5710
-5.2904 0.7933 -0.5614
-4.9891 1.0355 -0.4652
-4.9791 1.0772 -0.4625
-4.8883 1.1400 -0.4333
-4.7690 1.3005 -0.3963
-4.7085 1.3399 -0.3768
-4.7050 1.3705 -0.3761
-4.7186 1.3998 -0.3811
-5.3208 1.5075 -0.5832
-5.3556 1.5578 -0.5956
-5.3475 1.6063 -0.5937
-5.3565 1.6563 -0.5975
-5.3570 1.7056 -0.5985
-5.3746 1.7579 -0.6052
-5.3665 1.8060 -0.6033
-5.3164 1.8437 -0.5872
-5.2100 1.8637 -0.5522
-5.1694 1.8966 -0.5392
-5.2700 1.9725 -0.5739
-5.3344 2.0416 -0.5965
-5.3606 2.0999 -0.6061
-5.3525 2.1457 -0.6042
-5.3530 2.1947 -0.6051
-5.3620 2.2478 -0.6090
-5.3625 2.2971 -0.6100
-5.3543 2.3418 -0.6080
-5.3634 2.3957 -0.6119
-5.3553 2.4399 -0.6099
-5.3557 2.4890 -0.6109
-5.3648 2.5435 -0.6148
-5.3566 2.5870 -0.6128
-5.3399 2.6240 -0.6078
-5.3489 2.6788 -0.6117
-5.3580 2.7341 -0.6157
-5.3671 2.7900 -0.6196
-5.3762 2.8463 -0.6235
-5.3680 2.8886 -0.6215
-5.3599 2.9303 -0.6195
-5.3517 2.9715 -0.6174
-5.3521 3.0203 -0.6184
-5.3612 3.0774 -0.6223
-5.3033 0.0026 -0.6038
-5.2953 0.0585 -0.6018
-5.2883 0.1131 -0.6001
-5.2962 0.1550 -0.6037
-5.2967 0.2033 -0.6046
-5.2971 0.2516 -0.6056
-5.2901 0.3053 -0.6039
-5.2980 0.3481 -0.6074
-5.2910 0.4014 -0.6057
-5.2830 0.4548 -0.6037
-5.2600 0.5167 -0.5963
-5.2839 0.5504 -0.6055
-5.2928 0.5936 -0.6095
-5.2848 0.6460 -0.6074
-5.2392 0.7159 -0.5919
-5.2104 0.7755 -0.5824
-4.9899 1.0314 -0.5063
-4.7759 1.2652 -0.4321
-4.7076 1.3386 -0.4085
-4.7013 1.3696 -0.4067
-4.7082 1.3995 -0.4097
-4.7113 1.4298 -0.4113
-5.1889 1.5035 -0.5863
-5.2181 1.5954 -0.5984
-5.2185 1.6409 -0.5993
-5.2048 1.6844 -0.5950
-5.2118 1.7307 -0.5983
-5.2122 1.7760 -0.5992
-5.1843 1.8147 -0.5896
-5.1506 1.8502 -0.5779
-5.1719 1.8998 -0.5864
-5.1656 1.9417 -0.5849
-5.1859 1.9926 -0.5931
-5.1797 2.0346 -0.5915
-5.1868 2.0816 -0.5948
-5.2090 2.1357 -0.6038
-5.2262 2.4608 -0.6152
-5.2190 2.5012 -0.6133
-5.2216 2.7732 -0.6186
-5.2077 2.8059 -0.6141
-5.1939 2.8378 -0.6095
-5.1876 2.8760 -0.6079
-5.1813 2.9138 -0.6062
-5.1236 0.1107 -0.5862
-5.1240 0.1542 -0.5870
-5.1123 0.2083 -0.5833
-5.0811 0.2783 -0.5720
-5.1001 0.3052 -0.5799
-5.1135 0.3376 -0.5858
-5.1139 0.3807 -0.5866
-5.1143 0.4238 -0.5874
-5.1147 0.4669 -0.5883
-5.1272 0.5019 -0.5938
-5.1090 0.5573 -0.5875
-5.0963 0.6081 -0.5832
-5.1098 0.6431 -0.5891
-5.1167 0.6824 -0.5925
-5.1171 0.7255 -0.5933
-5.1045 0.7750 -0.5891
-5.1114 0.8147 -0.5925
-5.0931 0.8656 -0.5860
-5.0748 0.9153 -0.5796
-5.0121 1.0201 -0.5564
-4.9648 1.0745 -0.5385
-4.7466 1.3005 -0.4558
-4.7225 1.3353 -0.4468
-4.7200 1.3667 -0.4463
-4.7269 1.3973 -0.4495
-4.7009 1.4294 -0.4397
-5.0799 1.4584 -0.5902
-5.0925 1.5005 -0.5958
-5.1051 1.5434 -0.6015
-5.1055 1.5859 -0.6023
-5.1059 1.6284 -0.6031
-5.1007 1.6701 -0.6017
-5.0823 1.7091 -0.5950
-5.0526 1.7447 -0.5839
-5.0774 1.7914 -0.5944
-5.1079 1.8410 -0.6073
-5.0961 1.8799 -0.6032
-5.1153 1.9281 -0.6115
-5.1034 1.9665 -0.6075
-5.1292 2.0186 -0.6185
-5.0976 2.0485 -0.6065
-5.0915 2.0877 -0.6046
-5.0984 2.1328 -0.6081
-5.0988 2.1749 -0.6089
-5.0992 2.2170 -0.6098
-5.0874 2.2523 -0.6056
-5.1066 2.3053 -0.6141
-5.1070 2.3476 -0.6149
-5.1197 2.3979 -0.6207
-5.1267 2.4452 -0.6242
-5.1139 2.4787 -0.6197
-5.0954 2.5072 -0.6128
-5.1024 2.5542 -0.6163
-5.0962 2.5911 -0.6144
-5.0966 2.6330 -0.6153
-5.0970 2.6750 -0.6161
-5.0917 2.7119 -0.6146
-5.0977 2.7589 -0.6177
-5.0981 2.8008 -0.6185
-5.1051 2.8493 -0.6221
-5.1122 2.8981 -0.6256
-5.0459 0.2153 -0.6013
-5.0462 0.2567 -0.6021
-5.0466 0.2982 -0.6029
-5.0415 0.3442 -0.6014
-5.0419 0.3854 -0.6022
-5.0302 0.4358 -0.5980
-5.0426 0.4679 -0.6038
-5.0430 0.5091 -0.6046
-5.0318 0.5994 -0.6012
-5.0159 0.6908 -0.5958
-4.9996 0.7404 -0.5896
-4.9794 0.8698 -0.5830
-4.9707 1.0301 -0.5817
-4.9209 1.0844 -0.5613
-4.7858 1.2593 -0.5061
-4.7564 1.2972 -0.4941
-4.7418 1.3314 -0.4884
-4.7495 1.3626 -0.4922
-4.7610 1.3941 -0.4976
-4.7222 1.4279 -0.4815
-4.9486 1.4582 -0.5789
-4.9648 1.4968 -0.5864
-4.9856 1.5365 -0.5959
-4.9804 1.5753 -0.5943
-4.9212 1.6074 -0.5694
-4.9308 1.6460 -0.5742
-4.9312 1.6835 -0.5749
-4.9465 1.7242 -0.5821
-4.9515 1.7633 -0.5848
-4.9677 1.8056 -0.5924
-4.9783 1.8473 -0.5976
-4.9731 1.8844 -0.5959
-4.9837 1.9268 -0.6012
-4.9794 1.9640 -0.5999
-4.9742 2.0006 -0.5982
-4.9699 2.0372 -0.5969
-4.9543 2.0683 -0.5908
-4.9753 2.1168 -0.6005
-4.9870 2.2783 -0.6080
-4.9827 2.3142 -0.6067
-5.0048 2.4859 -0.6188
-4.9892 2.5126 -0.6126
-4.9849 2.5477 -0.6113
-4.9796 2.5818 -0.6095
-5.0016 2.6398 -0.6198
-4.9963 2.6740 -0.6181
-5.0023 2.7186 -0.6214
-4.9914 2.7469 -0.6171
-4.9197 0.3602 -0.5902
-4.9145 0.4027 -0.5885
-4.9250 0.4320 -0.5937
-4.9354 0.4619 -0.5990
-4.9211 0.5115 -0.5932
-4.9114 0.5568 -0.5894
-4.9071 0.5976 -0.5880
-4.9222 0.6251 -0.5954
-4.9225 0.6629 -0.5961
-4.9229 0.7008 -0.5968
-4.9177 0.7418 -0.5951
-4.8997 0.7897 -0.5875
-4.9092 0.8220 -0.5924
-4.9004 0.8639 -0.5890
-4.8906 0.9057 -0.5851
-4.9103 0.9342 -0.5946
-4.9152 0.9697 -0.5974
-4.9156 1.0073 -0.5981
-4.9067 1.0480 -0.5947
-4.8923 1.0898 -0.5887
-4.8881 1.1279 -0.5873
-4.8488 1.1744 -0.5699
-4.8123 1.2179 -0.5537
-4.7775 1.2588 -0.5384
-4.7742 1.2926 -0.5373
-4.7560 1.3281 -0.5295
-4.7563 1.3607 -0.5301
-4.7603 1.3930 -0.5325
-4.7117 1.4275 -0.5106
-4.8690 1.4579 -0.5835
-4.8481 1.4934 -0.5744
-4.8392 1.5282 -0.5708
-4.8312 1.5625 -0.5677
-4.8445 1.5989 -0.5743
-4.8707 1.6379 -0.5870
-4.8534 1.6708 -0.5796
-4.8667 1.7089 -0.5863
-4.8939 1.7512 -0.5994
-4.8905 1.7868 -0.5984
-4.9140 1.8303 -0.6099
-4.9147 1.9048 -0.6113
-4.9105 1.9403 -0.6099
-4.9006 1.9731 -0.6059
-4.9065 2.0124 -0.6092
-4.8929 2.0427 -0.6034
-4.9072 2.0863 -0.6106
-4.9076 2.1233 -0.6113
-4.9079 2.1603 -0.6121
-4.9175 2.2028 -0.6172
-4.9132 2.2372 -0.6157
-4.9089 2.2712 -0.6142
-4.9037 2.3043 -0.6123
-4.9143 2.3485 -0.6179
-4.9044 2.3779 -0.6138
-4.9103 2.4191 -0.6171
-4.9107 2.4561 -0.6178
-4.9054 2.4884 -0.6159
-4.9114 2.5300 -0.6193
-4.9061 2.5620 -0.6173
-4.9065 2.5988 -0.6181
-4.9068 2.6356 -0.6188
-4.9025 2.6678 -0.6173
-4.9028 2.7044 -0.6180
-4.8685 0.3973 -0.6068
-4.8725 0.4306 -0.6092
-4.8774 0.4635 -0.6121
-4.8604 0.5143 -0.6045
-4.8471 0.5612 -0.5987
-4.8520 0.5936 -0.6016
-4.8399 0.6743 -0.5968
-4.8448 0.7069 -0.5997
-4.8451 0.7427 -0.6004
-4.8327 0.7859 -0.5949
-4.8367 0.8192 -0.5973
-4.8249 0.9316 -0.5932
-4.8170 0.9702 -0.5899
-4.8219 1.0032 -0.5928
-4.8177 1.0398 -0.5912
-4.8147 1.1106 -0.5908
-4.8034 1.1830 -0.5863
-4.7510 1.2617 -0.5616
-4.7513 1.2944 -0.5622
-4.7480 1.3276 -0.5611
-4.7446 1.3605 -0.5599
-4.7449 1.3930 -0.5605
-4.7067 1.4268 -0.5422
-4.7556 1.4579 -0.5668
-4.7559 1.4907 -0.5674
-4.7681 1.5241 -0.5739
-4.7758 1.5579 -0.5782
-4.7990 1.5940 -0.5902
-4.7911 1.6268 -0.5868
-4.7877 1.6600 -0.5856
-4.8000 1.6962 -0.5922
-4.7920 1.7283 -0.5888
-4.7813 1.7592 -0.5840
-4.7890 1.7949 -0.5883
-4.7976 1.8313 -0.5931
-4.7933 1.8636 -0.5914
-4.7826 1.8931 -0.5866
-4.8142 1.9398 -0.6029
-4.8025 1.9688 -0.5975
-4.7992 2.0011 -0.5964
-4.8188 2.0450 -0.6067
-4.8155 2.0776 -0.6056
-4.8038 2.1051 -0.6002
-4.8124 2.1442 -0.6050
-4.8128 2.1786 -0.6057
-4.8168 2.2154 -0.6082
-4.8171 2.2498 -0.6089
-4.8054 2.2755 -0.6035
-4.8094 2.3124 -0.6061
-4.8218 2.3560 -0.6128
-4.8350 2.4011 -0.6200
-4.8104 2.4150 -0.6080
-4.8190 2.4565 -0.6129
-4.8277 2.4984 -0.6178
-4.8114 2.5175 -0.6100
-4.7996 2.5401 -0.6046
-4.7963 2.5702 -0.6034
-4.8169 2.6249 -0.6144
-4.7611 0.4861 -0.5916
-4.7614 0.5196 -0.5923
-4.7654 0.5500 -0.5948
-4.7585 0.5895 -0.5917
-4.7696 0.6144 -0.5980
-4.7699 0.6481 -0.5986
-4.7666 0.6844 -0.5974
-4.7597 0.7230 -0.5943
-4.7564 0.7588 -0.5931
-4.7639 0.7875 -0.5975
-4.7679 0.8188 -0.6000
-4.7573 0.8585 -0.5950
-4.7576 0.8918 -0.5957
-4.7398 0.9342 -0.5869
-4.7583 0.9583 -0.5970
-4.7504 0.9952 -0.5934
-4.7589 1.0248 -0.5983
-4.7665 1.0554 -0.6027
-4.7595 1.0914 -0.5996
-4.7598 1.1246 -0.6002
-4.7483 1.1613 -0.5947
-4.7450 1.1951 -0.5934
-4.7353 1.2301 -0.5888
-4.7493 1.2599 -0.5966
-4.7323 1.2956 -0.5882
-4.7081 1.3312 -0.5759
-4.6857 1.3650 -0.5646
-4.6732 1.3968 -0.5585
-4.6708 1.4274 -0.5576
-4.6802 1.4577 -0.5630
-4.7305 1.4897 -0.5901
-4.7636 1.5238 -0.6080
-4.7457 1.5555 -0.5990
-4.7527 1.6218 -0.6037
-4.7530 1.6547 -0.6043
-4.7323 1.6832 -0.5938
-4.7472 1.7190 -0.6022
-4.7439 1.7507 -0.6009
-4.7442 1.7833 -0.6015
-4.7810 1.8280 -0.6216
-4.7548 1.8521 -0.6081
-4.7551 1.8850 -0.6088
-4.7518 1.9163 -0.6075
-4.7521 1.9491 -0.6081
-4.7393 2.0399 -0.6027
-4.7396 2.0723 -0.6033
-4.7573 2.1153 -0.6133
-4.7576 2.1482 -0.6139
-4.7515 2.1768 -0.6111
-4.7518 2.2095 -0.6117
-4.7521 2.2422 -0.6124
-4.7671 2.2860 -0.6209
-4.7628 2.3155 -0.6191
-4.7680 2.3855 -0.6229
-4.7601 2.4113 -0.6190
-4.7640 2.4476 -0.6217
-4.7607 2.4771 -0.6203
-4.7573 2.5064 -0.6190
-4.7576 2.5392 -0.6196
-4.7616 2.5758 -0.6222
-4.7173 0.5507 -0.6051
-4.7212 0.5800 -0.6077
-4.7147 0.6507 -0.6050
-4.7081 0.7204 -0.6023
-4.7192 0.7449 -0.6088
-4.7159 0.7797 -0.6075
-4.7198 0.8096 -0.6101
-4.7033 0.8841 -0.6019
-4.6865 0.9251 -0.5931
-4.6874 1.0190 -0.5949
-4.6790 1.0850 -0.5911
-4.6883 1.1129 -0.5967
-4.6859 1.1450 -0.5958
-4.6889 1.1755 -0.5979
-4.6865 1.2074 -0.5970
-4.6832 1.2395 -0.5956
-4.6808 1.2711 -0.5947
-4.6675 1.3043 -0.5878
-4.6678 1.3349 -0.5884
-4.6591 1.3664 -0.5839
-4.6386 1.3981 -0.5729
-4.6389 1.4278 -0.5734
-4.6482 1.4574 -0.5791
-4.6665 1.4878 -0.5898
-4.6668 1.5183 -0.5904
-4.6698 1.5490 -0.5925
-4.6520 1.5775 -0.5829
-4.6586 1.6084 -0.5871
-4.6616 1.6392 -0.5892
-4.6592 1.6689 -0.5883
-4.6532 1.6976 -0.5853
-4.6561 1.7284 -0.5874
-4.6718 1.7632 -0.5967
-4.6567 1.7886 -0.5886
-4.6543 1.8177 -0.5876
-4.6636 1.8513 -0.5934
-4.6702 1.8844 -0.5975
-4.6705 1.9149 -0.5981
-4.6681 1.9440 -0.5972
-4.6738 1.9773 -0.6009
-4.6687 2.0049 -0.5984
-4.6690 2.0353 -0.5990
-4.6629 2.0618 -0.5959
-4.6722 2.0979 -0.6017
-4.6634 2.1223 -0.5971
-4.6665 2.1544 -0.5993
-4.6704 2.1874 -0.6019
-4.6925 2.2346 -0.6150
-4.6928 2.2657 -0.6156
-4.6803 2.2862 -0.6089
-4.6806 2.3169 -0.6095
-4.6773 2.3444 -0.6080
-4.6939 2.3901 -0.6180
-4.6815 2.4090 -0.6113
-4.6663 2.4245 -0.6030
-4.6693 2.4575 -0.6052
-4.6787 2.4973 -0.6110
-4.6350 0.5560 -0.5922
-4.6442 0.5778 -0.5979
-4.6445 0.6081 -0.5985
-4.6421 0.6407 -0.5976
-4.6362 0.6761 -0.5945
-4.6364 0.7061 -0.5951
-4.6429 0.7314 -0.5993
-4.6397 0.7642 -0.5978
-4.6346 0.7981 -0.5953
-4.6465 0.8203 -0.6027
-4.6530 0.8466 -0.6069
-4.6595 0.8733 -0.6112
-4.6322 0.9199 -0.5955
-4.6387 0.9464 -0.5998
-4.6452 0.9732 -0.6040
-4.6419 1.0051 -0.6025
-4.6279 1.0417 -0.5947
-4.6425 1.0654 -0.6037
-4.6374 1.0975 -0.6011
-4.6288 1.1306 -0.5964
-4.6228 1.1623 -0.5933
-4.6266 1.1908 -0.5960
-4.6269 1.2203 -0.5965
-4.6236 1.2507 -0.5950
-4.6239 1.2802 -0.5956
-4.6215 1.3101 -0.5946
-4.6361 1.3376 -0.6036
-4.6247 1.3686 -0.5973
-4.6083 1.4282 -0.5883
-4.6032 1.4571 -0.5857
-4.6207 1.5156 -0.5970
-4.6237 1.5451 -0.5991
-4.6302 1.5753 -0.6035
-4.6164 1.6318 -0.5960
-4.6232 1.7793 -0.6021
-4.6208 1.8076 -0.6010
-4.6210 1.8368 -0.6016
-4.6213 1.8660 -0.6022
-4.6216 1.8952 -0.6027
-4.6336 1.9302 -0.6104
-4.6338 1.9598 -0.6109
-4.6305 1.9874 -0.6093
-4.6281 2.0153 -0.6083
-4.6257 2.0430 -0.6072
-4.6313 2.0758 -0.6111
-4.6316 2.1052 -0.6116
-4.6382 2.1392 -0.6160
-4.6327 2.2231 -0.6139
-4.6276 2.2481 -0.6112
-4.6450 2.2922 -0.6222
-4.6453 2.3220 -0.6228
-4.6374 2.3443 -0.6184
-4.6314 2.3678 -0.6152
-4.6344 2.3999 -0.6174
-4.6347 2.4294 -0.6180
-4.6103 0.6020 -0.6109
-4.6026 0.6386 -0.6066
-4.6055 0.6655 -0.6088
-4.5979 0.7014 -0.6044
-4.6008 0.7284 -0.6067
-4.6063 0.7534 -0.6105
-4.6066 0.7827 -0.6111
-4.6016 0.8157 -0.6084
-4.6019 0.8449 -0.6089
-4.6074 0.8706 -0.6128
-4.6077 0.8999 -0.6134
-4.5808 0.9735 -0.5974
-4.5785 1.0033 -0.5963
-4.5814 1.0304 -0.5985
-4.5766 1.0894 -0.5963
-4.5689 1.1208 -0.5918
-4.5750 1.2032 -0.5968
-4.5602 1.2354 -0.5879
-4.5551 1.2643 -0.5851
-4.5731 1.2883 -0.5968
-4.5734 1.3164 -0.5973
-4.5639 1.3458 -0.5917
-4.5464 1.3754 -0.5811
-4.5440 1.4028 -0.5799
-4.5469 1.4298 -0.5821
-4.5472 1.4570 -0.5826
-4.5554 1.4844 -0.5882
-4.5628 1.5123 -0.5933
-4.5577 1.5395 -0.5904
-4.5633 1.5677 -0.5943
-4.5564 1.5943 -0.5904
-4.5460 1.6198 -0.5841
-4.5543 1.6487 -0.5897
-4.5447 1.6737 -0.5841
-4.5548 1.7035 -0.5908
-4.5470 1.7284 -0.5862
-4.5526 1.7573 -0.5902
-4.5556 1.7856 -0.5924
-4.5433 1.8080 -0.5850
-4.5588 1.8415 -0.5952
-4.5662 1.8723 -0.6003
-4.5539 1.8938 -0.5928
-4.5595 1.9240 -0.5968
-4.5616 1.9524 -0.5985
-4.5645 1.9815 -0.6007
-4.5675 2.0108 -0.6030
-4.5731 2.0420 -0.6070
-4.5805 2.0748 -0.6121
-4.5709 2.0958 -0.6063
-4.5712 2.1236 -0.6069
-4.5661 2.1472 -0.6039
-4.5744 2.1813 -0.6097
-4.5666 2.2024 -0.6050
-4.5722 2.2347 -0.6090
-4.5725 2.2625 -0.6096
-4.5700 2.2878 -0.6084
-4.5730 2.3180 -0.6106
-4.5733 2.3458 -0.6112
-4.5636 2.3635 -0.6054
-4.5612 2.3881 -0.6041
-4.5479 0.6533 -0.6034
-4.5385 0.6897 -0.5976
-4.5414 0.7148 -0.5999
-4.5390 0.7445 -0.5987
-4.5393 0.7719 -0.5992
-4.5466 0.7938 -0.6044
-4.5398 0.8267 -0.6003
-4.5401 0.8540 -0.6008
-4.5377 0.8832 -0.5996
-4.5432 0.9071 -0.6036
-4.5408 0.9362 -0.6024
-4.5411 0.9636 -0.6029
-4.5361 0.9939 -0.6000
-4.5320 1.0234 -0.5976
-4.5366 1.0483 -0.6011
-4.5369 1.0755 -0.6016
-4.5301 1.1057 -0.5975
-4.5347 1.1310 -0.6009
-4.5306 1.1597 -0.5985
-4.5282 1.1876 -0.5973
-4.5267 1.2150 -0.5967
-4.5287 1.2414 -0.5983
-4.5386 1.2661 -0.6053
-4.5345 1.2942 -0.6029
-4.5347 1.3212 -0.6034
-4.5420 1.3473 -0.6087
-4.5300 1.3759 -0.6010
-4.5144 1.4040 -0.5909
-4.5075 1.4307 -0.5867
-4.5266 1.4835 -0.6001
-4.5224 1.5100 -0.5977
-4.5227 1.5366 -0.5982
-4.5247 1.5634 -0.5999
-4.5215 1.6956 -0.5995
-4.5315 1.7252 -0.6066
-4.5181 1.8000 -0.5986
-4.5157 1.8252 -0.5973
-4.5277 1.8836 -0.6061
-4.5261 1.9094 -0.6055
-4.5335 1.9400 -0.6108
-4.5242 1.9876 -0.6052
-4.5289 2.0170 -0.6087
-4.5292 2.0437 -0.6093
-4.5365 2.0755 -0.6146
-4.5368 2.1024 -0.6151
-4.5370 2.1293 -0.6156
-4.5373 2.1563 -0.6162
-4.5357 2.1817 -0.6155
-4.5333 2.2062 -0.6142
-4.5309 2.2305 -0.6129
-4.5338 2.2597 -0.6152
-4.5270 2.2795 -0.6109
-4.5299 2.3088 -0.6132
-4.5301 2.3354 -0.6138
-4.5304 2.3620 -0.6143
-4.4998 0.8248 -0.6034
-4.4985 0.8786 -0.6032
-4.4880 0.9645 -0.5968
-4.4884 1.0163 -0.5979
-4.4892 1.0939 -0.5994
-4.4920 1.1187 -0.6017
-4.4836 1.1481 -0.5961
-4.4777 1.1761 -0.5923
-4.4710 1.2039 -0.5880
-4.4860 1.2247 -0.5988
-4.4845 1.2509 -0.5981
-4.4760 1.2787 -0.5925
-4.4684 1.3057 -0.5875
-4.4721 1.3303 -0.5904
-4.4750 1.3552 -0.5927
-4.4752 1.3805 -0.5932
-4.4693 1.4063 -0.5894
-4.4573 1.4320 -0.5813
-4.4637 1.4567 -0.5861
-4.4657 1.4817 -0.5878
-4.4703 1.5070 -0.5914
-4.4767 1.5327 -0.5962
-4.4603 1.5561 -0.5850
-4.4684 1.5821 -0.5910
-4.4625 1.6060 -0.5872
-4.4653 1.6315 -0.5895
-4.4612 1.6554 -0.5869
-4.4658 1.6814 -0.5905
-4.4660 1.7064 -0.5910
-4.4680 1.7320 -0.5927
-4.4665 1.7563 -0.5919
-4.4685 1.7820 -0.5937
-4.4687 1.8070 -0.5942
-4.4690 1.8321 -0.5946
-4.4736 1.8593 -0.5983
-4.4712 1.8831 -0.5969
-4.4653 1.9046 -0.5930
-4.4717 1.9332 -0.5978
-4.4763 1.9611 -0.6015
-4.4827 1.9904 -0.6064
-4.4812 2.0146 -0.6056
-4.4832 2.0412 -0.6073
-4.4860 2.0686 -0.6097
-4.4881 2.0955 -0.6115
-4.4733 2.1088 -0.6013
-4.4824 2.1414 -0.6081
-4.4738 2.1589 -0.6022
-4.4846 2.1937 -0.6103
-4.4831 2.2175 -0.6095
-4.4895 2.2489 -0.6145
-4.4747 2.2593 -0.6042
-4.4732 2.2825 -0.6034
-4.4778 2.3123 -0.6071
-4.4505 0.7073 -0.5957
-4.4464 0.7364 -0.5931
-4.4510 0.7572 -0.5967
-4.4546 0.7791 -0.5997
-4.4549 0.8042 -0.6002
-4.4594 0.8257 -0.6038
-4.4683 0.8441 -0.6106
-4.4539 0.8807 -0.6004
-4.4558 0.9045 -0.6021
-4.4526 0.9320 -0.6001
-4.4528 0.9570 -0.6006
-4.4565 0.9798 -0.6036
-4.4507 1.0084 -0.5996
-4.4535 1.0319 -0.6020
-4.4477 1.0600 -0.5981
-4.4540 1.0818 -0.6030
-4.4542 1.1068 -0.6035
-4.4545 1.1317 -0.6040
-4.4521 1.1577 -0.6025
-4.4394 1.1874 -0.5935
-4.4508 1.2081 -0.6022
-4.4450 1.2347 -0.5983
-4.4479 1.2587 -0.6007
-4.4455 1.2840 -0.5992
-4.4442 1.3336 -0.5989
-4.4427 1.3584 -0.5981
-4.4429 1.3829 -0.5986
-4.4341 1.4565 -0.5929
-4.4348 1.5292 -0.5943
-4.4367 1.5536 -0.5961
-4.4263 1.6478 -0.5896
-4.4309 1.7687 -0.5945
-4.4211 1.8355 -0.5881
-4.4517 1.9490 -0.6122
-4.4441 1.9684 -0.6068
-4.4443 1.9928 -0.6072
-4.4395 2.0375 -0.6042
-4.4435 2.0888 -0.6078
-4.4404 2.1344 -0.6061
-4.4424 2.1602 -0.6079
-4.4444 2.1861 -0.6097
-4.4490 2.2148 -0.6135
-4.4510 2.2410 -0.6153
-4.4451 2.2591 -0.6111
-4.4234 0.7767 -0.6045
-4.4271 0.7979 -0.6076
-4.4299 0.8201 -0.6100
-4.4224 0.8509 -0.6046
-4.4197 0.9260 -0.6034
-4.4163 1.0250 -0.6019
-4.4097 1.0529 -0.5971
-4.4210 1.0706 -0.6062
-4.4054 1.1500 -0.5950
-4.4074 1.1729 -0.5968
-4.4007 1.1990 -0.5919
-4.4078 1.2201 -0.5977
-4.4014 1.2692 -0.5933
-4.4067 1.2914 -0.5977
-4.4035 1.3157 -0.5955
-4.4072 1.3385 -0.5987
-4.4057 1.3623 -0.5978
-4.3921 1.3873 -0.5875
-4.3958 1.4101 -0.5907
-4.3926 1.4334 -0.5884
-4.3962 1.4564 -0.5916
-4.3896 1.4795 -0.5867
-4.3949 1.5027 -0.5911
-4.3934 1.5256 -0.5902
-4.4040 1.5499 -0.5988
-4.3887 1.5710 -0.5871
-4.3906 1.5942 -0.5889
-4.4012 1.6194 -0.5974
-4.4032 1.6431 -0.5992
-4.4001 1.6887 -0.5974
-4.3883 1.7077 -0.5884
-4.3902 1.7312 -0.5902
-4.3958 1.7793 -0.5952
-4.3926 1.8007 -0.5929
-4.3962 1.8254 -0.5961
-4.3982 1.8494 -0.5979
-4.4088 1.8784 -0.6065
-4.4004 1.8966 -0.6001
-4.3971 1.9176 -0.5979
-4.4043 1.9453 -0.6038
-4.4149 1.9759 -0.6124
-4.4030 1.9906 -0.6033
-4.3997 2.0111 -0.6010
-4.3999 2.0343 -0.6015
-4.3984 2.0559 -0.6006
-4.4004 2.0805 -0.6024
-4.4006 2.1036 -0.6028
-4.3991 2.1251 -0.6019
-4.4010 2.1498 -0.6037
-4.3908 2.1626 -0.5959
-4.3980 2.1925 -0.6019
-4.4104 2.2283 -0.6120
-4.4054 2.2461 -0.6083
-4.3804 0.7414 -0.5973
-4.3857 0.7593 -0.6018
-4.3757 0.7924 -0.5941
-4.3726 0.8185 -0.5918
-4.3813 0.8336 -0.5991
-4.3815 0.8566 -0.5996
-4.3885 0.8740 -0.6055
-4.3853 0.9000 -0.6032
-4.3787 0.9284 -0.5982
-4.3823 0.9489 -0.6013
-4.3842 0.9707 -0.6032
-4.3811 0.9961 -0.6009
-4.3898 1.0137 -0.6082
-4.3849 1.0401 -0.6045
-4.3851 1.0632 -0.6050
-4.3819 1.0881 -0.6027
-4.3770 1.1137 -0.5990
-4.3807 1.1349 -0.6022
-4.3877 1.1549 -0.6082
-4.3828 1.1801 -0.6045
-4.3796 1.2044 -0.6021
-4.3917 1.2232 -0.6123
-4.3768 1.2740 -0.6007
-4.3719 1.2980 -0.5970
-4.3807 1.3188 -0.6044
-4.3707 1.3435 -0.5965
-4.3847 1.3871 -0.6085
-4.3687 1.4113 -0.5957
-4.3734 1.4562 -0.6001
-4.3702 1.4788 -0.5977
-4.3824 1.5019 -0.6079
-4.3706 1.5238 -0.5986
-4.3743 1.5467 -0.6018
-4.3762 1.5695 -0.6037
-4.3764 1.5922 -0.6041
-4.3715 1.6137 -0.6003
-4.3719 1.6587 -0.6012
-4.3721 1.6812 -0.6017
-4.3700 1.7252 -0.6004
-4.3762 1.7501 -0.6058
-4.3654 1.7900 -0.5975
-4.3684 1.9246 -0.6015
-4.3798 1.9548 -0.6112
-4.3749 1.9736 -0.6073
-4.3710 2.0151 -0.6047
-4.3652 2.0324 -0.6001
-4.3654 2.0546 -0.6005
-4.3733 2.0837 -0.6074
-4.3686 2.1236 -0.6040
-4.3705 2.1475 -0.6058
-4.3819 2.1814 -0.6156
-4.3770 2.1986 -0.6117
-4.3478 0.9477 -0.5990
-4.3501 1.0129 -0.6017
-4.3486 1.0361 -0.6007
-4.3533 1.0779 -0.6052
-4.3463 1.1482 -0.6000
-4.3448 1.1710 -0.5990
-4.3484 1.1915 -0.6023
-4.3412 1.2382 -0.5967
-4.3448 1.2590 -0.6000
-4.3374 1.2830 -0.5939
-4.3435 1.3032 -0.5994
-4.3403 1.3257 -0.5969
-4.3338 1.3487 -0.5916
-4.3348 1.3701 -0.5927
-4.3410 1.3909 -0.5982
-4.3429 1.4126 -0.6001
-4.3346 1.4347 -0.5933
-4.3356 1.4562 -0.5944
-4.3358 1.4778 -0.5948
-4.3352 1.4992 -0.5945
-4.3354 1.5208 -0.5949
-4.3381 1.5426 -0.5975
-4.3299 1.5629 -0.5907
-4.3326 1.5846 -0.5933
-4.3320 1.6059 -0.5930
-4.3305 1.6268 -0.5919
-4.3273 1.6471 -0.5894
-4.3334 1.6702 -0.5950
-4.3353 1.6922 -0.5968
-4.3381 1.7147 -0.5994
-4.3374 1.7358 -0.5991
-4.3359 1.7566 -0.5981
-4.3319 1.7760 -0.5948
-4.3304 1.7964 -0.5938
-4.3391 1.8224 -0.6015
-4.3369 1.8639 -0.6002
-4.3329 1.8825 -0.5969
-4.3399 1.9085 -0.6032
-4.3375 1.9282 -0.6014
-4.3352 1.9478 -0.5996
-4.3379 1.9711 -0.6023
-4.3364 1.9912 -0.6012
-4.3409 2.0162 -0.6053
-4.3428 2.0392 -0.6072
-4.3404 2.0585 -0.6054
-4.3372 2.0768 -0.6029
-4.3366 2.0973 -0.6025
-4.3368 2.1187 -0.6030
-4.3378 2.1410 -0.6041
-4.3414 2.1660 -0.6075
-4.3399 2.1856 -0.6064
-4.3141 0.7988 -0.5935
-4.3143 0.8200 -0.5939
-4.3161 0.8395 -0.5958
-4.3222 0.8552 -0.6013
-4.3149 0.8836 -0.5951
-4.3151 0.9048 -0.5955
-4.3153 0.9260 -0.5959
-4.3205 0.9431 -0.6008
-4.3232 0.9625 -0.6034
-4.3192 0.9871 -0.6001
-4.3177 1.0096 -0.5991
-4.3254 1.0257 -0.6062
-4.3156 1.0537 -0.5977
-4.3200 1.0723 -0.6018
-4.3244 1.0912 -0.6059
-4.3229 1.1136 -0.6049
-4.3189 1.1371 -0.6015
-4.3191 1.1584 -0.6020
-4.3210 1.1789 -0.6039
-4.3153 1.2026 -0.5991
-4.3172 1.2231 -0.6010
-4.3157 1.2449 -0.5999
-4.3151 1.2662 -0.5995
-4.3237 1.2850 -0.6074
-4.3182 1.3290 -0.6030
-4.3142 1.3509 -0.5997
-4.3119 1.3723 -0.5979
-4.3104 1.3934 -0.5968
-4.3167 1.4349 -0.6028
-4.3137 1.4770 -0.6006
-4.3029 1.5797 -0.5921
-4.3008 1.6202 -0.5906
-4.3022 1.6820 -0.5926
-4.2998 1.7015 -0.5907
-4.3054 1.8472 -0.5973
-4.3068 1.9096 -0.5993
-4.3064 1.9502 -0.5993
-4.3049 1.9693 -0.5982
-4.3080 2.0333 -0.6017
-4.3118 2.0778 -0.6056
-4.3128 2.0994 -0.6067
-4.3172 2.1246 -0.6110
-4.3191 2.1473 -0.6129
-4.3159 2.1645 -0.6103
-4.2898 0.9017 -0.5973
-4.2877 0.9449 -0.5958
-4.2930 0.9818 -0.6012
-4.2908 1.0043 -0.5993
-4.2936 1.1266 -0.6032
-4.2840 1.1726 -0.5948
-4.2844 1.2131 -0.5956
-4.2854 1.2330 -0.5967
-4.2873 1.2527 -0.5987
-4.2883 1.2727 -0.5998
-4.2926 1.2919 -0.6041
-4.2787 1.3159 -0.5913
-4.2789 1.3359 -0.5917
-4.2791 1.3560 -0.5921
-4.2842 1.3752 -0.5972
-4.2836 1.3955 -0.5968
-4.2746 1.4164 -0.5886
-4.2765 1.4362 -0.5905
-4.2768 1.4760 -0.5913
-4.2745 1.4958 -0.5894
-4.2824 1.5363 -0.5972
-4.2826 1.5564 -0.5976
-4.2811 1.5762 -0.5964
-4.2813 1.5962 -0.5968
-4.2865 1.6175 -0.6019
-4.2758 1.6345 -0.5921
-4.2718 1.6530 -0.5885
-4.2837 1.6769 -0.5999
-4.2814 1.6960 -0.5979
-4.2799 1.7152 -0.5968
-4.2826 1.7363 -0.5995
-4.2796 1.7746 -0.5971
-4.2773 1.7931 -0.5952
-4.2825 1.8159 -0.6003
-4.2827 1.8359 -0.6007
-4.2787 1.8531 -0.5971
-4.2806 1.8741 -0.5991
-4.2816 1.8947 -0.6003
-4.2835 1.9159 -0.6022
-4.2795 1.9325 -0.5987
-4.2746 1.9482 -0.5943
-4.2773 1.9701 -0.5970
-4.2775 1.9898 -0.5974
-4.2777 2.0096 -0.5978
-4.2779 2.0294 -0.5982
-4.2823 2.0533 -0.6026
-4.2808 2.0715 -0.6014
-4.2835 2.0940 -0.6041
-4.2853 2.1158 -0.6061
-4.2838 2.1339 -0.6049
-2.8662 0.9507 -0.5858
-2.8688 0.9729 -0.5840
-2.8664 0.9912 -0.5866
-2.8640 1.0096 -0.5892
-2.8650 1.0306 -0.5889
-2.8618 1.0487 -0.5923
-2.8719 1.0754 -0.5836
-2.8645 1.0910 -0.5908
-2.8698 1.1343 -0.5870
-2.8682 1.1537 -0.5889
-2.8683 1.1739 -0.5893
-2.8676 1.1938 -0.5904
-2.8778 1.2379 -0.5821
-2.8691 1.2953 -0.5916
-2.8766 1.3172 -0.5851
-2.8743 1.3367 -0.5878
-2.8785 1.3574 -0.5844
-2.8813 1.3975 -0.5828
-2.8764 1.4171 -0.5878
-2.8749 1.4370 -0.5897
-2.8791 1.4571 -0.5862
-2.8768 1.4771 -0.5889
-2.8777 1.4970 -0.5885
-2.8820 1.5166 -0.5851
-2.8796 1.5367 -0.5877
-2.8781 1.5570 -0.5897
-2.8774 1.5771 -0.5908
-2.8809 1.6162 -0.5885
-2.8761 1.6376 -0.5935
-2.8737 1.6585 -0.5962
-2.8738 1.6787 -0.5965
-2.8731 1.6992 -0.5977
-2.8741 1.7190 -0.5973
-2.8734 1.7395 -0.5985
-2.8760 1.7584 -0.5965
-2.8720 1.7808 -0.6008
-2.8721 1.8010 -0.6012
-2.8714 1.8217 -0.6023
-2.8740 1.8404 -0.6004
-2.8724 1.8617 -0.6023
-2.8816 1.8754 -0.5942
-2.8776 1.8984 -0.5984
-2.8777 1.9185 -0.5988
-2.8779 1.9386 -0.5992
-2.8772 1.9593 -0.6003
-2.8773 1.9794 -0.6007
-2.8733 2.0033 -0.6050
-2.8734 2.0235 -0.6054
-2.8785 2.0389 -0.6011
-2.8761 2.0614 -0.6038
-2.8762 2.0816 -0.6042
-2.8780 2.0999 -0.6030
-2.8814 2.1163 -0.6002
-2.8807 2.1373 -0.6014
-2.8344 0.9924 -0.5907
-2.8303 1.0107 -0.5947
-2.8321 1.0330 -0.5936
-2.8364 1.0569 -0.5904
-2.8374 1.0785 -0.5901
-2.8368 1.1202 -0.5916
-2.8378 1.1417 -0.5913
-2.8549 1.2115 -0.5778
-2.8498 1.3334 -0.5853
-2.8461 1.4159 -0.5906
-2.8454 1.4367 -0.5917
-2.8523 1.4782 -0.5866
-2.8447 1.6041 -0.5963
-2.8491 1.6447 -0.5934
-2.8509 1.6649 -0.5923
-2.8519 1.6853 -0.5920
-2.8513 1.7271 -0.5935
-2.8474 1.7707 -0.5980
-2.8475 1.7915 -0.5984
-2.8477 1.8333 -0.5992
-2.8487 1.8536 -0.5988
-2.8488 1.8744 -0.5992
-2.8506 1.8941 -0.5981
-2.8491 1.9161 -0.6000
-2.8484 1.9376 -0.6012
-2.8554 1.9944 -0.5964
-2.8530 2.0173 -0.5990
-2.8515 2.0396 -0.6009
-2.8518 2.1020 -0.6021
-2.8545 2.1201 -0.6002
-2.8538 2.1417 -0.6014
-2.8263 0.9910 -0.5724
-2.8188 1.0070 -0.5790
-2.8130 1.0246 -0.5844
-2.8114 1.0453 -0.5862
-2.8115 1.0670 -0.5866
-2.8118 1.1105 -0.5874
-2.8179 1.1351 -0.5829
-2.8154 1.1555 -0.5854
-2.8215 1.1796 -0.5809
-2.8140 1.1981 -0.5876
-2.8201 1.2218 -0.5831
-2.8219 1.2439 -0.5821
-2.8288 1.2673 -0.5769
-2.8248 1.3087 -0.5812
-2.8182 1.3288 -0.5873
-2.8225 1.3510 -0.5841
-2.8210 1.3722 -0.5860
-2.8194 1.3935 -0.5878
-2.8212 1.4152 -0.5868
-2.8154 1.4365 -0.5922
-2.8215 1.4581 -0.5876
-2.8292 1.4793 -0.5816
-2.8192 1.5013 -0.5905
-2.8202 1.5228 -0.5902
-2.8195 1.5444 -0.5914
-2.8162 1.5666 -0.5946
-2.8180 1.5879 -0.5936
-2.8165 1.6099 -0.5954
-2.8200 1.6307 -0.5930
-2.8201 1.6523 -0.5934
-2.8253 1.6721 -0.5895
-2.8153 1.6973 -0.5985
-2.8230 1.7159 -0.5925
-2.8189 1.7393 -0.5965
-2.8216 1.7597 -0.5947
-2.8192 1.7825 -0.5973
-2.8151 1.8064 -0.6013
-2.8178 1.8267 -0.5995
-2.8162 1.8494 -0.6014
-2.8163 1.8711 -0.6018
-2.8198 1.8906 -0.5993
-2.8216 1.9111 -0.5983
-2.8243 1.9308 -0.5965
-2.8244 1.9522 -0.5969
-2.8271 1.9717 -0.5952
-2.8264 1.9938 -0.5963
-2.8248 2.0167 -0.5982
-2.8207 2.0420 -0.6022
-2.8225 2.0620 -0.6011
-2.8227 2.0836 -0.6016
-2.8236 2.1043 -0.6012
-2.8229 2.1267 -0.6024
-2.8231 2.1483 -0.6028
-2.8232 2.1698 -0.6032
-2.8233 2.1914 -0.6036
-2.7997 1.0420 -0.5699
-2.7982 1.0630 -0.5717
-2.7778 1.0737 -0.5883
-2.7754 1.0951 -0.5907
-2.7849 1.1223 -0.5837
-2.7822 1.2334 -0.5886
-2.7811 1.6174 -0.5986
-2.7847 1.6617 -0.5967
-2.7775 1.7324 -0.6042
-2.7793 1.7544 -0.6032
-2.7778 1.7779 -0.6050
-2.7855 1.7969 -0.5992
-2.7874 1.8186 -0.5983
-2.7824 1.8439 -0.6029
-2.7826 1.8666 -0.6033
-2.7912 1.8839 -0.5968
-2.7896 1.9074 -0.5986
-2.7934 1.9721 -0.5971
-2.7918 1.9957 -0.5989
-2.7963 2.0368 -0.5963
-2.7981 2.0576 -0.5953
-2.7941 2.0837 -0.5992
-2.7891 2.1109 -0.6038
-2.7926 2.1300 -0.6014
-2.7961 2.1489 -0.5991
-2.7971 2.1702 -0.5988
-2.8006 2.1888 -0.5964
-2.7932 2.2195 -0.6031
-2.7557 1.0885 -0.5792
-2.7627 1.1150 -0.5744
-2.7491 1.1318 -0.5853
-2.7630 1.1609 -0.5753
-2.7529 1.2032 -0.5840
-2.7548 1.2270 -0.5831
-2.7549 1.2503 -0.5836
-2.7536 1.3197 -0.5862
-2.7590 1.3669 -0.5831
-2.7523 1.3894 -0.5888
-2.7577 1.4362 -0.5858
-2.7613 1.4594 -0.5836
-2.7597 1.4825 -0.5853
-2.7564 1.5059 -0.5884
-2.7532 1.5295 -0.5915
-2.7567 1.5524 -0.5893
-2.7586 1.5753 -0.5884
-2.7570 1.5988 -0.5902
-2.7588 1.6217 -0.5893
-2.7574 1.6686 -0.5915
-2.7593 1.6912 -0.5906
-2.7526 1.7169 -0.5963
-2.7493 1.7417 -0.5994
-2.7530 1.7871 -0.5977
-2.7531 1.8105 -0.5981
-2.7601 1.8303 -0.5932
-2.7474 1.8607 -0.6036
-2.7552 1.8797 -0.5981
-2.7588 1.9009 -0.5959
-2.7555 1.9264 -0.5990
-2.7557 1.9498 -0.5994
-2.7524 1.9756 -0.6025
-2.7559 1.9965 -0.6003
-2.7595 2.0171 -0.5981
-2.7596 2.0404 -0.5985
-2.7666 2.0577 -0.5936
-2.7582 2.0884 -0.6007
-2.7635 2.1069 -0.5971
-2.7602 2.1333 -0.6003
-2.7603 2.1565 -0.6007
-2.7639 2.1763 -0.5985
-2.7589 2.2048 -0.6029
-2.7573 2.2300 -0.6047
-2.7592 2.2514 -0.6038
-2.9026 0.9301 -0.4417
-2.8063 1.0325 -0.5142
-2.7409 1.0846 -0.5630
-2.7393 1.1072 -0.5647
-2.7395 1.1307 -0.5652
-2.7413 1.1549 -0.5644
-2.7233 1.1715 -0.5779
-2.7156 1.1929 -0.5840
-2.7114 1.2158 -0.5876
-2.7163 1.3144 -0.5863
-2.7110 1.4357 -0.5930
-2.7155 1.4602 -0.5903
-2.7080 1.5094 -0.5969
-2.7116 1.5337 -0.5948
-2.7139 1.6312 -0.5954
-2.7123 1.6561 -0.5971
-2.7142 1.6801 -0.5963
-2.7145 1.7290 -0.5973
-2.7146 1.7534 -0.5977
-2.7208 1.7753 -0.5937
-2.7227 1.7987 -0.5929
-2.7228 1.8229 -0.5934
-2.7057 1.8561 -0.6066
-2.7197 1.8732 -0.5968
-2.7233 1.8954 -0.5947
-2.7158 1.9489 -0.6014
-2.7159 1.9733 -0.6019
-2.7161 1.9978 -0.6024
-2.7128 2.0248 -0.6054
-2.7164 2.0466 -0.6033
-2.7165 2.0711 -0.6037
-2.7210 2.0919 -0.6010
-2.7228 2.1146 -0.6002
-2.7230 2.1389 -0.6006
-2.7214 2.1647 -0.6024
-2.7267 2.1840 -0.5989
-2.7311 2.2038 -0.5962
-2.7296 2.2295 -0.5979
-2.7271 2.2564 -0.6003
-2.9030 0.9173 -0.4202
-2.9014 0.9337 -0.4217
-2.8944 0.9456 -0.4268
-2.8779 0.9498 -0.4383
-2.8684 0.9608 -0.4452
-2.8588 0.9724 -0.4520
-2.8370 0.9753 -0.4672
-2.7946 1.0291 -0.4977
-2.7556 1.0727 -0.5257
-2.7400 1.0876 -0.5368
-2.6794 1.1580 -0.5804
-2.6708 1.1802 -0.5868
-2.6814 1.2090 -0.5801
-2.6685 1.2305 -0.5896
-2.6730 1.2572 -0.5871
-2.6714 1.2823 -0.5887
-2.6823 1.3601 -0.5830
-2.6682 1.4867 -0.5956
-2.6745 1.5119 -0.5919
-2.6732 1.5886 -0.5945
-2.6782 1.6894 -0.5934
-2.6801 1.7142 -0.5927
-2.6802 1.7395 -0.5932
-2.6830 1.7638 -0.5918
-2.6805 1.7902 -0.5941
-2.6894 1.8115 -0.5885
-2.6852 1.8387 -0.5920
-2.6836 1.8648 -0.5937
-2.6794 1.8924 -0.5973
-2.6708 1.9229 -0.6039
-2.6840 1.9405 -0.5952
-2.6798 1.9686 -0.5987
-2.6756 1.9969 -0.6023
-2.6801 2.0194 -0.5997
-2.6803 2.0447 -0.6002
-2.6778 2.0721 -0.6025
-2.6823 2.0941 -0.5999
-2.6825 2.1194 -0.6004
-2.6870 2.1409 -0.5978
-2.6854 2.1677 -0.5995
-2.6873 2.1913 -0.5987
