ply
format ascii 1.0
element vertex 2106
property float x
property float y
property float z
end_header
2.1260 -1.1981 -0.3130
2.2643 -1.2915 -0.3540
2.1843 -1.2336 -0.4091
2.1194 -1.1863 -0.4611
2.1365 -1.1956 -0.5124
2.2157 -1.2475 -0.5685
2.4700 -1.4193 -0.6429
1.8457 -0.9777 0.0855
1.8323 -0.9666 0.0470
2.0165 -1.0890 0.0649
2.1073 -1.1479 0.0497
2.1024 -1.1421 0.0068
2.1385 -1.1639 -0.0274
2.1114 -1.1431 -0.0766
2.0547 -1.1025 -0.1306
2.0588 -1.1027 -0.1733
2.0323 -1.0824 -0.2210
2.0464 -1.0891 -0.2638
2.1147 -1.1317 -0.3034
2.5380 -1.4093 -0.3259
2.5840 -1.4362 -0.3835
2.4040 -1.3138 -0.4467
2.5412 -1.4007 -0.5067
1.8458 -0.9320 0.0918
1.8628 -0.9406 0.0628
1.9709 -1.0082 0.0590
2.1699 -1.1344 0.0745
2.1427 -1.1138 0.0250
2.1266 -1.1004 -0.0215
2.1428 -1.1078 -0.0614
2.1371 -1.1010 -0.1068
2.1206 -1.0873 -0.1543
2.0724 -1.0534 -0.2062
2.0666 -1.0466 -0.2518
2.1135 -1.0731 -0.2932
2.6183 -1.3891 -0.3076
2.7241 -1.4517 -0.3640
2.9946 -1.6071 -0.5704
1.8710 -0.8995 0.0718
1.9123 -0.9224 0.0489
2.0096 -0.9797 0.0389
2.1635 -1.0717 0.0385
2.1582 -1.0649 -0.0057
2.1418 -1.0513 -0.0528
2.1470 -1.0510 -0.0958
2.1519 -1.0503 -0.1398
2.1246 -1.0300 -0.1894
2.0975 -1.0098 -0.2384
2.1018 -1.0087 -0.2840
2.4990 -1.2446 -0.3028
2.7377 -1.3835 -0.3491
1.6074 -0.6853 -0.6291
1.8791 -0.8584 0.0809
1.8971 -0.8659 0.0512
1.9481 -0.8929 0.0293
2.4755 -1.1576 -0.3484
2.3200 -1.0588 -0.4646
3.0485 -1.4586 -0.6124
1.5901 -0.6306 -0.6176
1.5518 -0.6057 -0.6523
1.9101 -0.8303 0.0972
1.8964 -0.8189 0.0576
1.8444 -0.7859 0.0073
1.4868 -0.5807 -0.1208
1.4440 -0.5538 -0.1593
1.4336 -0.5451 -0.1893
1.4318 -0.5413 -0.2177
1.4256 -0.5350 -0.2472
1.4247 -0.5315 -0.2761
1.4268 -0.5297 -0.3051
1.4867 -0.5563 -0.3603
1.5166 -0.5692 -0.3908
1.5151 -0.5650 -0.4244
1.5134 -0.5606 -0.4585
1.5347 -0.5685 -0.4935
1.6702 -0.6371 -0.5351
1.6497 -0.6221 -0.5737
1.5980 -0.5907 -0.6089
1.5780 -0.5762 -0.6459
0.7407 -0.1263 -0.6465
1.7120 -0.6833 0.1004
1.8279 -0.7395 0.0769
1.8899 -0.7693 0.0623
1.4518 -0.5260 -0.1246
1.4459 -0.5198 -0.1534
1.4399 -0.5135 -0.1824
1.4338 -0.5071 -0.2116
1.4277 -0.5007 -0.2410
1.4397 -0.5038 -0.2677
1.4333 -0.4972 -0.2979
1.4648 -0.5103 -0.3242
1.4883 -0.5189 -0.3531
1.5175 -0.5303 -0.3833
1.5223 -0.5290 -0.4165
1.5206 -0.5244 -0.4505
1.5309 -0.5257 -0.4852
1.5469 -0.5298 -0.5212
1.5693 -0.5369 -0.5591
1.6118 -0.5538 -0.6007
1.6181 -0.5525 -0.6410
1.8288 -0.6964 0.0833
1.4490 -0.4900 -0.1202
1.4432 -0.4837 -0.1487
1.4373 -0.4774 -0.1775
1.4357 -0.4732 -0.2055
1.4438 -0.4738 -0.2322
1.4505 -0.4736 -0.2599
1.4537 -0.4716 -0.2889
1.4673 -0.4746 -0.3173
1.4847 -0.4793 -0.3465
1.5413 -0.5029 -0.3744
1.5294 -0.4931 -0.4086
1.5278 -0.4882 -0.4426
1.5494 -0.4943 -0.4772
1.6200 -0.5186 -0.5531
1.6458 -0.5211 -0.6342
1.5690 -0.4806 -0.6646
1.3158 -0.3599 -0.6624
0.6203 -0.0295 -0.6473
0.5248 0.0163 -0.6491
1.7029 -0.5991 0.1076
1.7855 -0.6361 0.1068
1.5031 -0.4857 -0.0727
1.4507 -0.4566 -0.1146
1.4539 -0.4546 -0.1407
1.4346 -0.4417 -0.1726
1.4332 -0.4374 -0.2004
1.4545 -0.4438 -0.2243
1.4624 -0.4436 -0.2519
1.4796 -0.4478 -0.2789
1.6230 -0.5011 -0.3610
1.5803 -0.4677 -0.4690
1.7025 -0.5065 -0.5888
0.6258 -0.0164 -0.6452
0.5192 0.0311 -0.6429
1.6510 -0.5356 0.0934
1.8234 -0.6032 0.0607
1.4900 -0.4446 -0.0714
1.4511 -0.4191 -0.1361
1.4498 -0.4146 -0.1637
1.4671 -0.4184 -0.1876
1.4741 -0.4175 -0.2147
1.4874 -0.4192 -0.2416
2.2919 -0.7620 -0.2012
2.3784 -0.7925 -0.2417
2.3334 -0.7656 -0.2975
0.9197 -0.1227 -0.6522
0.7006 -0.0312 -0.6505
0.5071 0.0493 -0.6461
1.6862 -0.5140 0.1116
1.6747 -0.5044 0.0784
1.7425 -0.5299 0.0720
1.4963 -0.4130 -0.0645
1.4722 -0.3984 -0.0984
1.4664 -0.3918 -0.1269
1.4650 -0.3870 -0.1546
1.4501 -0.3764 -0.1857
1.4950 -0.3910 -0.2048
1.4841 -0.3820 -0.2360
2.4036 -0.7417 -0.2279
1.1942 -0.2057 -0.6496
1.0604 -0.1531 -0.6523
0.5433 0.0476 -0.6466
1.7170 -0.4891 0.1284
1.7242 -0.4873 0.1014
1.7440 -0.4906 0.0781
1.5026 -0.3814 -0.0575
1.4658 -0.3620 -0.0951
1.4635 -0.3567 -0.1224
1.4623 -0.3518 -0.1499
1.4608 -0.3467 -0.1778
1.4637 -0.3433 -0.2051
1.5105 -0.3569 -0.2253
1.5093 -0.3515 -0.2554
2.4100 -0.6745 -0.2682
2.4344 -0.6749 -0.3197
1.2342 -0.1881 -0.6488
1.0684 -0.1285 -0.6473
0.7155 -0.0014 -0.6460
0.6323 0.0294 -0.6504
0.4973 0.0774 -0.6464
0.4181 0.1059 -0.6454
0.4027 0.1114 -0.6451
1.7551 -0.4659 0.1481
1.7004 -0.4391 0.0981
1.7135 -0.4391 0.0731
1.6105 -0.3939 0.0093
1.5042 -0.3480 -0.0520
1.4754 -0.3323 -0.0873
1.4652 -0.3238 -0.1168
1.4515 -0.3140 -0.1472
1.4446 -0.3067 -0.1759
1.4310 -0.2970 -0.2061
1.4783 -0.3094 -0.2250
2.4564 -0.5813 -0.5307
1.1455 -0.1245 -0.6550
0.9897 -0.0736 -0.6500
0.8873 -0.0397 -0.6494
0.7431 0.0083 -0.6497
1.6395 -0.3786 0.0808
1.5964 -0.3577 0.0376
1.5397 -0.3319 -0.0089
1.5105 -0.3165 -0.0451
1.4816 -0.3012 -0.0804
1.4633 -0.2899 -0.1122
1.4440 -0.2782 -0.1438
1.4169 -0.2639 -0.1769
1.5323 -0.2820 -0.2696
1.6546 -0.3162 -0.2858
1.6929 -0.3222 -0.3163
1.9120 -0.3776 -0.3770
1.1794 -0.1045 -0.6540
0.8332 0.0000 -0.6511
0.6904 0.0424 -0.6459
0.4460 0.1166 -0.6460
1.5708 -0.3084 0.0063
1.5121 -0.2834 -0.0397
1.4924 -0.2717 -0.0723
1.4821 -0.2631 -0.1019
1.4455 -0.2460 -0.1383
1.3820 -0.2206 -0.1798
1.3532 -0.2065 -0.2118
1.4197 -0.2223 -0.2246
1.4306 -0.2204 -0.2501
1.5977 -0.2595 -0.2857
1.6313 -0.2631 -0.3150
1.9325 -0.3278 -0.4089
1.9352 -0.3203 -0.4521
1.4775 -0.1539 -0.6616
1.2677 -0.0961 -0.6620
1.0693 -0.0431 -0.6536
0.9198 -0.0035 -0.6457
1.6529 -0.3112 0.0956
1.5334 -0.2621 -0.0013
1.5230 -0.2534 -0.0313
1.5079 -0.2434 -0.0626
1.4756 -0.2281 -0.0986
1.4343 -0.2103 -0.1360
1.3685 -0.1855 -0.1780
1.3476 -0.1743 -0.2079
1.3921 -0.1819 -0.2245
1.5404 -0.2123 -0.2555
1.6333 -0.2315 -0.2741
1.6637 -0.2329 -0.3042
1.6890 -0.2325 -0.3366
1.9150 -0.2755 -0.4000
1.9349 -0.2719 -0.4421
1.9031 -0.2552 -0.4855
0.8861 0.0300 -0.6538
0.5947 0.1010 -0.6492
0.5540 0.1104 -0.6460
0.4213 0.1431 -0.6455
1.5129 -0.2282 0.0222
1.5171 -0.2240 -0.0021
1.5068 -0.2155 -0.0316
1.5142 -0.2119 -0.0557
1.4817 -0.1972 -0.0918
1.4496 -0.1827 -0.1270
1.3559 -0.1517 -0.1761
1.3533 -0.1457 -0.2016
1.3630 -0.1429 -0.2249
1.3926 -0.1450 -0.2455
1.5260 -0.1665 -0.2817
1.7227 -0.2002 -0.3258
1.9154 -0.2287 -0.3905
1.9006 -0.2164 -0.4330
1.8691 -0.2005 -0.4754
0.4424 0.1479 -0.6451
1.5708 -0.2116 0.0477
1.5459 -0.1990 0.0125
1.5355 -0.1904 -0.0174
1.5063 -0.1769 -0.0532
1.4656 -0.1606 -0.0914
1.4335 -0.1468 -0.1262
1.3385 -0.1176 -0.1756
1.3258 -0.1092 -0.2028
1.3529 -0.1101 -0.2218
1.3862 -0.1122 -0.2412
1.4088 -0.1114 -0.2642
1.4740 -0.1198 -0.2825
1.5369 -0.1269 -0.3045
1.6181 -0.1297 -0.3617
1.6114 -0.1207 -0.3963
1.8948 -0.1595 -0.4656
1.7292 -0.0832 -0.6665
1.3901 -0.0205 -0.6575
0.5138 0.1444 -0.6459
1.5822 -0.1749 0.0299
1.5227 -0.1543 -0.0168
1.5089 -0.1450 -0.0474
1.4846 -0.1332 -0.0810
1.4033 -0.1087 -0.1294
1.3128 -0.0828 -0.1773
1.2969 -0.0739 -0.2047
1.4715 -0.0857 -0.2767
1.5183 -0.0879 -0.3001
1.5368 -0.0843 -0.3290
1.5679 -0.0826 -0.3582
1.6015 -0.0809 -0.3892
1.6012 -0.0729 -0.4234
1.5486 -0.0483 -0.4927
1.5263 -0.0368 -0.5264
1.5197 -0.0278 -0.5607
1.5294 -0.0210 -0.5967
1.7305 -0.0401 -0.6564
1.0634 0.0679 -0.6519
1.5886 -0.1427 0.0369
1.5109 -0.1194 -0.0159
1.5151 -0.1140 -0.0406
1.5048 -0.1055 -0.0701
1.2775 -0.0477 -0.1816
1.2723 -0.0411 -0.2057
1.2968 -0.0402 -0.2237
1.3185 -0.0383 -0.2435
1.4455 -0.0481 -0.2745
1.4762 -0.0463 -0.2990
1.4941 -0.0421 -0.3267
1.5409 -0.0265 -0.4179
1.5570 -0.0207 -0.4507
1.5083 -0.0060 -0.4843
1.5010 0.0030 -0.5174
1.5050 0.0107 -0.5515
1.7908 -0.0037 -0.6530
1.6167 0.0246 -0.6722
0.6750 0.1465 -0.6471
1.3255 -0.0347 -0.1415
1.2804 -0.0210 -0.1765
1.2810 -0.0154 -0.1991
1.2654 -0.0071 -0.2257
1.2967 -0.0062 -0.2428
1.4169 -0.0116 -0.2731
1.4503 -0.0095 -0.2962
1.4576 -0.0032 -0.3242
1.4942 -0.0006 -0.3504
1.5539 -0.0004 -0.3773
1.5079 0.0378 -0.5098
1.4568 0.0512 -0.5408
1.7923 0.0403 -0.6427
0.7485 0.1552 -0.6491
0.5988 0.1705 -0.6455
0.4586 0.1848 -0.6420
0.4440 0.1870 -0.6443
0.5166 0.2710 -1.0106
1.3007 -0.0146 -0.0996
1.2921 -0.0075 -0.1242
1.2836 -0.0004 -0.1489
1.2785 0.0062 -0.1726
1.2769 0.0123 -0.1956
1.2902 0.0164 -0.2156
1.3238 0.0245 -0.2571
1.4229 0.0188 -0.2664
1.4431 0.0236 -0.2912
1.4550 0.0297 -0.3183
1.4721 0.0355 -0.3458
1.2020 0.1312 -0.6292
1.1707 0.1397 -0.6519
1.0163 0.1512 -0.6482
0.9188 0.1596 -0.6497
0.7692 0.1719 -0.6504
0.7117 0.1766 -0.6504
0.6561 0.1804 -0.6478
0.6193 0.1838 -0.6494
1.3487 -0.0127 -0.0135
1.3572 -0.0081 -0.0323
1.3593 -0.0024 -0.0539
1.3396 0.0065 -0.0830
1.3248 0.0146 -0.1102
1.3053 0.0233 -0.1385
1.2872 0.0317 -0.1659
1.2915 0.0373 -0.1876
1.2955 0.0431 -0.2098
1.3213 0.0466 -0.2280
1.3556 0.0496 -0.2461
1.4006 0.0521 -0.2643
1.4189 0.0576 -0.2886
1.4345 0.0638 -0.3145
1.4697 0.0686 -0.3396
1.8006 0.0519 -0.3444
2.0851 0.0671 -0.4581
1.2810 0.1423 -0.5747
1.2137 0.1592 -0.6239
1.1822 0.1671 -0.6469
0.9438 0.1808 -0.6498
0.7216 0.1926 -0.6490
0.5535 0.2011 -0.6464
0.5220 0.2024 -0.6448
0.5011 0.2040 -0.6466
0.4232 0.2080 -0.6459
1.3327 0.0105 0.0053
1.3676 0.0117 -0.0025
1.3883 0.0152 -0.0171
1.3866 0.0218 -0.0404
1.3630 0.0310 -0.0712
1.3613 0.0376 -0.0947
1.3054 0.0565 -0.1567
1.3061 0.0628 -0.1794
1.3253 0.0675 -0.1983
1.3371 0.0732 -0.2198
1.3762 0.0769 -0.2370
1.3826 0.0836 -0.2618
1.4001 0.0898 -0.2856
1.4116 0.0967 -0.3113
1.1283 0.2010 -0.6575
0.6313 0.2114 -0.6459
0.6004 0.2130 -0.6485
0.5381 0.2147 -0.6487
0.4429 0.2163 -0.6448
0.4293 0.2172 -0.6467
1.3611 0.0588 -0.0677
1.3739 0.0642 -0.0865
1.3685 0.0714 -0.1115
1.3380 0.0807 -0.1435
1.3670 0.0923 -0.1838
1.3764 0.0988 -0.2065
1.3900 0.1053 -0.2292
1.4159 0.1115 -0.2506
1.4060 0.1197 -0.2790
1.4176 0.1270 -0.3047
3.1553 0.1186 -0.2801
3.3624 0.1359 -0.3408
1.1537 0.2283 -0.6555
0.8985 0.2269 -0.6497
0.6513 0.2269 -0.6490
0.6067 0.2264 -0.6472
1.3957 0.0836 -0.0520
1.4097 0.0895 -0.0709
1.4233 0.0958 -0.0908
1.4174 0.1035 -0.1170
1.3736 0.1131 -0.1531
1.3761 0.1202 -0.1768
1.3855 0.1272 -0.1995
1.4074 0.1340 -0.2205
1.3977 0.1420 -0.2484
1.3960 0.1499 -0.2750
3.1457 0.1921 -0.2656
3.4066 0.2156 -0.3221
4.2329 0.2539 -0.3794
4.2912 0.2840 -0.4757
0.9096 0.2479 -0.6468
0.5766 0.2389 -0.6452
0.4337 0.2347 -0.6435
1.4384 0.1166 -0.0574
1.4253 0.1245 -0.0857
1.4279 0.1320 -0.1094
1.4065 0.1402 -0.1398
1.3935 0.1481 -0.1678
1.3994 0.1556 -0.1914
1.3783 0.1636 -0.2211
1.4035 0.1713 -0.2419
1.4179 0.1794 -0.2659
3.3112 0.2696 -0.2385
3.3123 0.2916 -0.3101
4.5069 0.3974 -0.4522
1.5752 0.2800 -0.5674
1.5569 0.2895 -0.6014
1.5730 0.3019 -0.6392
1.5062 0.3068 -0.6664
0.7689 0.2617 -0.6446
0.5281 0.2496 -0.6460
3.3518 0.3253 -0.1488
3.2997 0.3449 -0.2238
3.4097 0.3739 -0.2886
3.5295 0.4056 -0.3592
0.8000 0.2833 -0.6484
0.5987 0.2669 -0.6465
1.4903 0.1818 -0.0567
1.4641 0.2147 -0.1666
1.4589 0.2231 -0.1941
3.1658 0.3878 -0.1530
3.3955 0.4272 -0.2004
3.5133 0.4607 -0.2659
3.7745 0.5096 -0.3324
3.8225 0.5695 -0.5016
3.8667 0.6030 -0.5906
3.7270 0.6151 -0.6728
0.5809 0.2793 -0.6491
0.5428 0.2742 -0.6457
0.5204 0.2725 -0.6476
0.4702 0.2664 -0.6449
0.4507 0.2642 -0.6445
1.6576 0.1792 0.1095
1.5208 0.1953 0.0080
3.0268 0.3646 0.0881
3.1804 0.3955 0.0555
3.3014 0.4262 0.0107
3.0448 0.4263 -0.0897
2.7349 0.4181 -0.1860
2.6977 0.4332 -0.2458
2.8576 0.4694 -0.2920
3.6297 0.6059 -0.3998
3.7685 0.6512 -0.4813
3.8473 0.6907 -0.5692
3.6086 0.6853 -0.6460
2.7464 0.5796 -0.6657
1.3610 0.3951 -0.6534
0.4589 0.2753 -0.6462
0.4413 0.2731 -0.6463
2.4789 0.3033 0.2194
2.5140 0.3206 0.1849
2.4834 0.3341 0.1315
3.1046 0.4365 0.1154
3.2411 0.4702 0.0792
3.1712 0.4850 0.0042
2.8387 0.4704 -0.1045
2.6798 0.4716 -0.1802
2.6114 0.4819 -0.2415
2.6729 0.5086 -0.2915
2.6863 0.5299 -0.3475
2.8076 0.5675 -0.4022
3.2195 0.6773 -0.5352
2.9408 0.6547 -0.5960
2.7594 0.6453 -0.6512
0.5108 0.2937 -0.6481
0.4330 0.2816 -0.6482
2.8606 0.4567 0.1326
3.0129 0.4926 0.1090
3.1849 0.5332 0.0821
3.0303 0.5359 -0.0053
2.7795 0.5240 -0.1007
2.6584 0.5267 -0.1710
2.6549 0.5452 -0.2256
2.6522 0.5641 -0.2807
2.6481 0.5830 -0.3367
2.8738 0.6859 -0.5127
2.8897 0.7350 -0.6443
0.5420 0.3100 -0.6474
0.5110 0.3035 -0.6449
0.4842 0.2980 -0.6429
0.4301 0.2884 -0.6436
2.8022 0.5092 0.1301
2.9653 0.5498 0.1109
3.0444 0.5814 0.0688
2.6583 0.5646 -0.1065
2.5619 0.5681 -0.1714
2.6998 0.6102 -0.2092
2.8857 0.7760 -0.5626
2.9239 0.8083 -0.6304
0.8961 0.3950 -0.6476
0.4774 0.3082 -0.6470
2.4586 0.4999 0.1066
2.6507 0.5448 0.1057
2.8468 0.5934 0.0974
2.7568 0.5988 0.0262
2.7044 0.6095 -0.0358
2.6069 0.6118 -0.1031
2.5881 0.6273 -0.1571
2.6784 0.6639 -0.1995
2.8664 0.7663 -0.3588
2.8070 0.7757 -0.4215
2.8608 0.8109 -0.4831
2.8203 0.8246 -0.5455
2.9376 0.8775 -0.6152
0.7059 0.3705 -0.6451
0.6772 0.3661 -0.6513
0.5551 0.3359 -0.6462
0.5237 0.3279 -0.6443
0.5023 0.3234 -0.6456
0.4802 0.3182 -0.6454
0.4567 0.3119 -0.6432
2.4723 0.5352 0.1631
2.5624 0.5665 0.1415
2.6618 0.6010 0.1180
2.7715 0.6390 0.0921
2.7032 0.6462 0.0266
2.5921 0.6444 -0.0445
2.5584 0.6567 -0.0998
2.5552 0.6750 -0.1505
2.6902 0.7233 -0.1865
2.7725 0.7623 -0.2338
2.8039 0.8135 -0.3479
2.9139 0.8874 -0.4685
2.5847 0.8459 -0.5830
2.5497 0.8581 -0.6391
2.6084 0.5907 0.2550
2.5489 0.5980 0.1926
2.5315 0.6124 0.1426
2.7170 0.6848 0.0906
2.6825 0.6974 0.0329
2.6032 0.7002 -0.0322
2.5694 0.7121 -0.0877
2.5231 0.7209 -0.1442
2.6383 0.7675 -0.1808
2.6502 0.7910 -0.2329
2.7130 0.8280 -0.2827
2.7802 0.8675 -0.3358
3.2437 1.0432 -0.4520
2.7005 0.9139 -0.5141
2.9858 1.0483 -0.6534
2.4954 0.9196 -0.6786
1.8319 0.7256 -0.6611
0.6037 0.3730 -0.6457
2.7908 0.6576 0.3663
2.5916 0.6390 0.2586
2.5742 0.6535 0.2083
2.6425 0.6855 0.1803
2.7158 0.7199 0.1503
2.6970 0.7355 0.0963
2.5702 0.7456 -0.0280
2.5663 0.7641 -0.0778
2.5340 0.7757 -0.1322
2.6335 0.8212 -0.1701
2.5845 0.8289 -0.2277
2.5955 0.8527 -0.2794
3.0925 1.0415 -0.3709
2.8812 1.0038 -0.4397
2.6747 0.9875 -0.5589
1.5266 0.6719 -0.6524
0.5504 0.3697 -0.6461
-0.1812 1.0469 -0.4487
-0.1888 1.0533 -0.4571
-0.1822 1.0478 -0.4569
-0.1758 1.0398 -0.4568
-0.1693 1.0344 -0.4567
-0.1629 1.0277 -0.4566
-0.1562 1.0235 -0.4564
-0.1431 1.0127 -0.4562
-0.1368 1.0061 -0.4561
-0.1303 1.0007 -0.4559
-0.1833 1.0487 -0.4652
-0.1768 1.0420 -0.4651
-0.1704 1.0340 -0.4649
-0.1637 1.0298 -0.4648
-0.1573 1.0231 -0.4647
-0.1505 1.0189 -0.4645
-0.1440 1.0134 -0.4644
-0.1374 1.0080 -0.4642
-0.1313 1.0002 -0.4641
-0.1250 0.9937 -0.4640
-0.1185 0.9883 -0.4639
-0.1119 0.9829 -0.4637
-0.1054 0.9775 -0.4636
-0.0989 0.9721 -0.4634
-0.1911 1.0552 -0.4737
-0.1845 1.0471 -0.4736
-0.1777 1.0441 -0.4735
-0.1712 1.0373 -0.4733
-0.1647 1.0306 -0.4731
-0.1579 1.0263 -0.4730
-0.1514 1.0196 -0.4729
-0.1448 1.0141 -0.4727
-0.1384 1.0075 -0.4726
-0.1320 1.0009 -0.4724
-0.1249 0.9977 -0.4723
-0.1191 0.9888 -0.4721
-0.1125 0.9834 -0.4720
-0.1057 0.9790 -0.4719
-0.0994 0.9725 -0.4717
-0.0932 0.9661 -0.4715
-0.0871 0.9596 -0.4714
-0.0806 0.9542 -0.4713
-0.0740 0.9488 -0.4711
-0.0610 0.9380 -0.4708
-0.1511 1.0287 -0.4816
-0.1445 1.0218 -0.4814
-0.1377 1.0162 -0.4813
-0.1309 1.0106 -0.4811
-0.1241 1.0049 -0.4810
-0.1176 0.9982 -0.4808
-0.1111 0.9915 -0.4806
-0.1043 0.9859 -0.4805
-0.0976 0.9803 -0.4803
-0.0915 0.9726 -0.4801
-0.0848 0.9671 -0.4800
-0.0647 0.9504 -0.4796
-0.0486 0.9265 -0.4788
-0.0405 0.9237 -0.4788
-0.0361 0.9148 -0.4785
-0.0166 0.8986 -0.4781
-0.1398 1.0099 -0.4896
-0.1330 1.0043 -0.4894
-0.1263 0.9988 -0.4893
-0.1196 0.9932 -0.4892
-0.1132 0.9866 -0.4889
-0.0998 0.9755 -0.4887
-0.0931 0.9699 -0.4885
-0.0868 0.9634 -0.4883
-0.0735 0.9523 -0.4880
-0.0664 0.9478 -0.4880
-0.0601 0.9413 -0.4877
-0.0540 0.9348 -0.4875
-0.0468 0.9302 -0.4875
-0.0401 0.9247 -0.4873
-0.0335 0.9192 -0.4872
-0.0268 0.9136 -0.4870
-0.0219 0.9056 -0.4867
-0.0141 0.9018 -0.4867
-0.0074 0.8963 -0.4866
-0.0001 0.8915 -0.4865
0.0059 0.8853 -0.4863
0.0118 0.8790 -0.4861
0.0177 0.8728 -0.4859
0.0228 0.8659 -0.4856
0.0317 0.8626 -0.4857
0.0441 0.8509 -0.4853
0.0499 0.8448 -0.4851
0.0565 0.8394 -0.4850
0.0622 0.8333 -0.4848
0.0706 0.8290 -0.4848
0.0819 0.8170 -0.4844
0.0884 0.8116 -0.4842
0.0950 0.8061 -0.4841
0.1006 0.8002 -0.4839
0.1071 0.7948 -0.4838
0.1126 0.7889 -0.4836
0.1191 0.7835 -0.4834
0.1256 0.7781 -0.4833
0.1321 0.7727 -0.4832
0.1387 0.7673 -0.4830
-0.1675 1.0341 -0.4989
-0.1607 1.0285 -0.4988
-0.1539 1.0228 -0.4986
-0.1473 1.0161 -0.4984
-0.1406 1.0105 -0.4982
-0.1343 1.0026 -0.4979
-0.1150 0.9827 -0.4972
-0.1087 0.9762 -0.4969
-0.1020 0.9707 -0.4968
-0.0954 0.9652 -0.4967
-0.0892 0.9587 -0.4964
-0.0825 0.9532 -0.4963
-0.0759 0.9477 -0.4961
-0.0698 0.9413 -0.4959
-0.0627 0.9368 -0.4959
-0.0556 0.9322 -0.4958
-0.0495 0.9259 -0.4956
-0.0434 0.9195 -0.4954
-0.0369 0.9141 -0.4952
-0.0308 0.9078 -0.4950
-0.0249 0.9015 -0.4948
-0.0183 0.8961 -0.4946
-0.0124 0.8899 -0.4944
0.0006 0.8791 -0.4941
0.0071 0.8737 -0.4940
0.0136 0.8683 -0.4938
0.0202 0.8629 -0.4937
0.0332 0.8521 -0.4934
0.0919 0.8035 -0.4922
0.0984 0.7981 -0.4921
0.1049 0.7927 -0.4919
0.1114 0.7873 -0.4918
0.1244 0.7765 -0.4915
-0.1618 1.0279 -0.5074
-0.1550 1.0223 -0.5073
-0.1482 1.0167 -0.5072
-0.1414 1.0110 -0.5070
-0.1349 1.0043 -0.5067
-0.1283 0.9976 -0.5065
-0.1026 0.9711 -0.5054
-0.0959 0.9655 -0.5053
-0.0896 0.9590 -0.5050
-0.0834 0.9525 -0.5047
-0.0763 0.9480 -0.5047
-0.0697 0.9425 -0.5046
-0.0630 0.9370 -0.5044
-0.0564 0.9315 -0.5043
-0.0507 0.9242 -0.5039
-0.0375 0.9132 -0.5036
-0.0255 0.9007 -0.5031
-0.0183 0.8960 -0.5031
-0.0124 0.8898 -0.5028
-0.0058 0.8844 -0.5027
0.0001 0.8782 -0.5025
0.0066 0.8728 -0.5023
0.0132 0.8674 -0.5022
0.0255 0.8558 -0.5018
0.0320 0.8504 -0.5016
-0.1359 1.0037 -0.5154
-0.1291 0.9981 -0.5153
-0.1225 0.9913 -0.5150
-0.1158 0.9857 -0.5149
-0.1093 0.9791 -0.5146
-0.1032 0.9714 -0.5141
-0.0705 0.9417 -0.5131
-0.0642 0.9353 -0.5128
-0.0576 0.9298 -0.5127
-0.0509 0.9243 -0.5125
-0.0443 0.9188 -0.5124
-0.0377 0.9133 -0.5123
-0.0304 0.9086 -0.5123
-0.0249 0.9014 -0.5118
-0.0189 0.8952 -0.5115
-0.0129 0.8889 -0.5113
-0.0064 0.8835 -0.5111
0.0002 0.8780 -0.5110
0.0141 0.8678 -0.5109
0.0200 0.8617 -0.5106
0.0250 0.8549 -0.5101
0.0308 0.8488 -0.5099
0.0373 0.8434 -0.5097
0.0512 0.8332 -0.5096
0.0634 0.8218 -0.5092
0.0699 0.8164 -0.5090
0.0764 0.8110 -0.5089
0.0830 0.8056 -0.5088
0.0895 0.8002 -0.5086
-0.1435 1.0099 -0.5245
-0.1369 1.0031 -0.5242
-0.1303 0.9963 -0.5239
-0.1235 0.9907 -0.5237
-0.1167 0.9851 -0.5236
-0.1099 0.9794 -0.5234
-0.1031 0.9738 -0.5233
-0.0963 0.9682 -0.5232
-0.0895 0.9625 -0.5230
-0.0827 0.9569 -0.5229
-0.0767 0.9494 -0.5224
-0.0569 0.9317 -0.5218
-0.0507 0.9252 -0.5214
-0.0378 0.9133 -0.5210
-0.0306 0.9086 -0.5210
-0.0244 0.9022 -0.5207
-0.0123 0.8896 -0.5201
0.0010 0.8785 -0.5198
0.0077 0.8730 -0.5197
0.0136 0.8668 -0.5193
0.0195 0.8607 -0.5190
0.0261 0.8552 -0.5189
0.0319 0.8491 -0.5186
0.0459 0.8388 -0.5185
0.0517 0.8327 -0.5182
0.0591 0.8278 -0.5182
0.0640 0.8213 -0.5177
0.0705 0.8158 -0.5176
0.0771 0.8104 -0.5175
0.0827 0.8045 -0.5171
0.0892 0.7990 -0.5170
0.0958 0.7936 -0.5169
0.1013 0.7878 -0.5166
0.1209 0.7716 -0.5162
0.1274 0.7662 -0.5160
0.1339 0.7608 -0.5159
0.1404 0.7554 -0.5157
-0.1307 0.9990 -0.5333
-0.1238 0.9933 -0.5331
-0.1172 0.9865 -0.5328
-0.1109 0.9788 -0.5322
-0.1041 0.9731 -0.5321
-0.0969 0.9684 -0.5321
-0.0901 0.9628 -0.5320
-0.0832 0.9571 -0.5318
-0.0768 0.9505 -0.5315
-0.0699 0.9448 -0.5314
-0.0636 0.9383 -0.5310
-0.0572 0.9318 -0.5307
-0.0509 0.9253 -0.5303
-0.0442 0.9197 -0.5302
-0.0312 0.9077 -0.5297
-0.0245 0.9021 -0.5295
-0.0184 0.8957 -0.5292
-0.0123 0.8894 -0.5289
0.0005 0.8776 -0.5284
0.0131 0.8659 -0.5279
0.0197 0.8603 -0.5278
0.0256 0.8542 -0.5274
0.0323 0.8487 -0.5273
0.0397 0.8438 -0.5273
0.0455 0.8377 -0.5270
0.0513 0.8316 -0.5267
0.0588 0.8267 -0.5267
0.0654 0.8212 -0.5266
0.0702 0.8147 -0.5261
0.0777 0.8098 -0.5261
0.0834 0.8038 -0.5258
0.0900 0.7983 -0.5256
0.0975 0.7933 -0.5257
0.1031 0.7874 -0.5254
0.1087 0.7815 -0.5250
0.1163 0.7765 -0.5251
0.1218 0.7707 -0.5248
0.1273 0.7649 -0.5244
0.1338 0.7595 -0.5243
0.1415 0.7544 -0.5243
0.1469 0.7486 -0.5240
0.1523 0.7429 -0.5237
-0.1658 1.0316 -0.5439
-0.1451 1.0120 -0.5430
-0.1382 1.0062 -0.5428
-0.1315 0.9994 -0.5424
-0.1248 0.9926 -0.5420
-0.1181 0.9858 -0.5417
-0.1115 0.9791 -0.5413
-0.1050 0.9724 -0.5409
-0.0981 0.9667 -0.5408
-0.0913 0.9611 -0.5406
-0.0848 0.9544 -0.5402
-0.0780 0.9488 -0.5401
-0.0708 0.9440 -0.5402
-0.0576 0.9318 -0.5397
-0.0502 0.9270 -0.5397
-0.0444 0.9197 -0.5391
-0.0376 0.9140 -0.5390
-0.0308 0.9084 -0.5389
-0.0246 0.9020 -0.5385
-0.0184 0.8956 -0.5381
-0.0116 0.8900 -0.5380
0.0073 0.8718 -0.5371
0.0193 0.8593 -0.5364
0.0326 0.8483 -0.5361
0.0400 0.8434 -0.5362
0.0467 0.8378 -0.5360
0.0526 0.8317 -0.5357
0.0593 0.8262 -0.5355
0.0651 0.8201 -0.5352
0.0717 0.8146 -0.5350
0.0784 0.8091 -0.5349
0.0850 0.8036 -0.5347
0.0907 0.7976 -0.5344
0.0973 0.7921 -0.5342
0.1039 0.7866 -0.5341
0.1106 0.7811 -0.5340
0.1162 0.7753 -0.5336
0.1228 0.7698 -0.5335
0.1294 0.7643 -0.5333
0.1360 0.7588 -0.5332
0.1426 0.7534 -0.5330
0.1480 0.7476 -0.5327
0.1534 0.7418 -0.5323
0.1600 0.7364 -0.5322
0.1653 0.7307 -0.5318
0.1719 0.7253 -0.5317
0.1784 0.7199 -0.5316
-0.1529 1.0194 -0.5527
-0.1459 1.0136 -0.5525
-0.1389 1.0078 -0.5524
-0.1321 1.0009 -0.5519
-0.1253 0.9940 -0.5515
-0.1186 0.9872 -0.5511
-0.1119 0.9804 -0.5507
-0.1053 0.9737 -0.5503
-0.0984 0.9679 -0.5502
-0.0919 0.9613 -0.5498
-0.0785 0.9489 -0.5492
-0.0588 0.9301 -0.5483
-0.0383 0.9131 -0.5478
-0.0315 0.9075 -0.5477
-0.0247 0.9018 -0.5475
-0.0185 0.8954 -0.5471
-0.0111 0.8905 -0.5473
-0.0049 0.8842 -0.5469
0.0019 0.8785 -0.5467
0.0081 0.8722 -0.5463
0.0141 0.8659 -0.5459
0.0202 0.8596 -0.5455
0.0329 0.8479 -0.5450
0.0396 0.8423 -0.5449
0.0463 0.8367 -0.5447
0.0597 0.8256 -0.5444
0.0790 0.8084 -0.5438
0.0857 0.8029 -0.5436
0.0914 0.7969 -0.5432
0.0971 0.7909 -0.5428
0.1037 0.7854 -0.5427
0.1104 0.7799 -0.5426
0.1170 0.7744 -0.5424
0.1226 0.7685 -0.5420
0.1292 0.7630 -0.5419
0.1359 0.7575 -0.5418
0.1425 0.7520 -0.5416
0.1491 0.7465 -0.5415
0.1546 0.7408 -0.5411
0.1600 0.7350 -0.5407
0.1678 0.7298 -0.5408
0.1744 0.7243 -0.5407
0.1797 0.7187 -0.5403
0.1863 0.7132 -0.5402
0.1916 0.7076 -0.5398
-0.1611 1.0246 -0.5619
-0.1540 1.0187 -0.5618
-0.1470 1.0129 -0.5616
-0.1402 1.0060 -0.5612
-0.1334 0.9991 -0.5608
-0.1264 0.9933 -0.5606
-0.1194 0.9875 -0.5605
-0.1124 0.9817 -0.5603
-0.1054 0.9759 -0.5602
-0.0984 0.9701 -0.5600
-0.0917 0.9634 -0.5596
-0.0851 0.9566 -0.5592
-0.0254 0.9009 -0.5564
-0.0117 0.8896 -0.5561
-0.0055 0.8832 -0.5557
0.0013 0.8775 -0.5556
0.0088 0.8726 -0.5557
0.0136 0.8649 -0.5547
0.0218 0.8606 -0.5551
0.0272 0.8536 -0.5544
0.0339 0.8480 -0.5543
0.0399 0.8418 -0.5539
0.0475 0.8368 -0.5540
0.0534 0.8306 -0.5536
0.0602 0.8250 -0.5534
0.0670 0.8194 -0.5533
0.0746 0.8143 -0.5534
0.0814 0.8087 -0.5533
0.0872 0.8026 -0.5529
0.0921 0.7961 -0.5522
0.1055 0.7850 -0.5519
0.1122 0.7794 -0.5518
0.1291 0.7617 -0.5505
0.1358 0.7562 -0.5504
0.1491 0.7452 -0.5501
0.1557 0.7396 -0.5500
0.1612 0.7339 -0.5495
0.1690 0.7286 -0.5497
0.1744 0.7229 -0.5493
0.1810 0.7174 -0.5491
0.1864 0.7117 -0.5487
0.1930 0.7063 -0.5486
0.1996 0.7008 -0.5484
0.2049 0.6952 -0.5480
-0.1480 1.0133 -0.5711
-0.1409 1.0075 -0.5710
-0.1338 1.0016 -0.5708
-0.1269 0.9947 -0.5704
-0.1201 0.9878 -0.5699
-0.1131 0.9820 -0.5698
-0.1061 0.9761 -0.5696
-0.0993 0.9693 -0.5692
-0.0923 0.9635 -0.5690
-0.0853 0.9577 -0.5689
-0.0787 0.9510 -0.5684
-0.0721 0.9443 -0.5679
-0.0651 0.9385 -0.5678
-0.0377 0.9146 -0.5669
0.0014 0.8772 -0.5648
0.0082 0.8715 -0.5646
0.0137 0.8645 -0.5639
0.0206 0.8588 -0.5637
0.0266 0.8526 -0.5633
0.0334 0.8469 -0.5631
0.0402 0.8413 -0.5630
0.0470 0.8357 -0.5629
0.0530 0.8295 -0.5624
0.0606 0.8244 -0.5626
0.0674 0.8188 -0.5624
0.0742 0.8131 -0.5623
0.0810 0.8075 -0.5621
0.0878 0.8019 -0.5620
0.0937 0.7958 -0.5616
0.1005 0.7902 -0.5614
0.1072 0.7845 -0.5613
0.1140 0.7789 -0.5611
0.1198 0.7729 -0.5607
0.1255 0.7670 -0.5602
0.1931 0.7048 -0.5572
0.1997 0.6993 -0.5571
0.2063 0.6938 -0.5569
-0.1484 1.0170 -0.5818
-0.1414 1.0100 -0.5813
-0.1347 1.0019 -0.5805
-0.1278 0.9950 -0.5800
-0.1209 0.9881 -0.5795
-0.1141 0.9812 -0.5790
-0.1073 0.9744 -0.5785
-0.1003 0.9685 -0.5783
-0.0933 0.9627 -0.5782
-0.0862 0.9569 -0.5780
-0.0796 0.9501 -0.5776
-0.0726 0.9443 -0.5774
-0.0655 0.9385 -0.5773
-0.0585 0.9327 -0.5771
-0.0515 0.9269 -0.5770
-0.0450 0.9202 -0.5765
-0.0380 0.9144 -0.5763
-0.0315 0.9079 -0.5758
-0.0240 0.9028 -0.5760
-0.0170 0.8971 -0.5759
-0.0106 0.8905 -0.5754
0.0269 0.8521 -0.5725
0.0337 0.8464 -0.5724
0.0398 0.8402 -0.5719
0.0474 0.8351 -0.5721
0.0542 0.8294 -0.5719
0.0611 0.8237 -0.5718
0.0679 0.8181 -0.5717
0.0748 0.8124 -0.5715
0.0816 0.8067 -0.5714
0.0875 0.8006 -0.5709
0.0934 0.7945 -0.5704
0.1002 0.7889 -0.5703
0.1070 0.7832 -0.5701
0.1138 0.7776 -0.5700
0.1206 0.7720 -0.5699
0.1274 0.7663 -0.5697
0.1342 0.7607 -0.5696
0.1410 0.7551 -0.5694
0.1478 0.7494 -0.5693
0.1535 0.7435 -0.5688
0.1602 0.7379 -0.5687
0.1658 0.7320 -0.5682
0.1714 0.7262 -0.5677
0.1781 0.7206 -0.5676
0.1944 0.7034 -0.5662
-0.1711 1.0353 -0.5921
-0.1639 1.0294 -0.5919
-0.1567 1.0234 -0.5918
-0.1496 1.0163 -0.5912
-0.1424 1.0103 -0.5911
-0.1354 1.0033 -0.5906
-0.1282 0.9973 -0.5904
-0.1215 0.9893 -0.5895
-0.1149 0.9814 -0.5886
-0.1081 0.9745 -0.5881
-0.1010 0.9687 -0.5880
-0.0801 0.9502 -0.5871
-0.0664 0.9376 -0.5865
-0.0594 0.9318 -0.5863
-0.0523 0.9259 -0.5862
-0.0458 0.9193 -0.5857
-0.0388 0.9135 -0.5855
-0.0318 0.9077 -0.5854
-0.0247 0.9018 -0.5852
-0.0037 0.8844 -0.5848
0.0097 0.8721 -0.5841
0.0153 0.8650 -0.5832
0.0538 0.8282 -0.5809
0.0598 0.8220 -0.5804
0.0667 0.8164 -0.5803
0.0735 0.8107 -0.5801
0.0803 0.8050 -0.5800
0.0872 0.7993 -0.5799
0.0940 0.7937 -0.5797
0.0999 0.7876 -0.5792
0.1067 0.7819 -0.5791
0.1146 0.7767 -0.5793
0.1214 0.7710 -0.5791
0.1272 0.7650 -0.5786
0.1340 0.7593 -0.5785
0.1408 0.7537 -0.5783
0.1477 0.7480 -0.5782
0.1545 0.7424 -0.5781
0.1601 0.7365 -0.5776
0.1669 0.7308 -0.5774
0.1793 0.7193 -0.5768
-0.1723 1.0347 -0.6016
-0.1651 1.0286 -0.6014
-0.1578 1.0226 -0.6013
-0.1506 1.0166 -0.6011
-0.1433 1.0106 -0.6010
-0.1363 1.0036 -0.6004
-0.1293 0.9965 -0.5999
-0.1221 0.9906 -0.5997
-0.1148 0.9846 -0.5996
-0.1079 0.9776 -0.5990
-0.1007 0.9717 -0.5989
-0.0942 0.9638 -0.5979
-0.0184 0.8950 -0.5943
-0.0114 0.8892 -0.5942
-0.0050 0.8826 -0.5936
0.0014 0.8761 -0.5931
0.0091 0.8710 -0.5933
0.0161 0.8652 -0.5932
0.0224 0.8588 -0.5926
0.0287 0.8523 -0.5921
0.0356 0.8466 -0.5920
0.0434 0.8414 -0.5922
0.0504 0.8356 -0.5921
0.0558 0.8287 -0.5911
0.0859 0.7976 -0.5885
0.0996 0.7863 -0.5882
0.1065 0.7806 -0.5880
0.1133 0.7749 -0.5879
0.1396 0.7520 -0.5869
0.1475 0.7466 -0.5872
0.1544 0.7409 -0.5870
0.1680 0.7296 -0.5867
0.1805 0.7180 -0.5861
0.1873 0.7124 -0.5859
-0.1447 1.0088 -0.6101
-0.1372 1.0038 -0.6104
-0.1302 0.9968 -0.6098
-0.1229 0.9908 -0.6097
-0.1156 0.9847 -0.6095
-0.1084 0.9787 -0.6094
-0.1011 0.9727 -0.6092
-0.0939 0.9667 -0.6090
-0.0873 0.9589 -0.6081
-0.0805 0.9520 -0.6075
-0.0661 0.9401 -0.6072
-0.0593 0.9333 -0.6066
0.0020 0.8764 -0.6032
0.0091 0.8706 -0.6030
0.0155 0.8641 -0.6024
0.0281 0.8512 -0.6013
0.0351 0.8454 -0.6012
0.0421 0.8396 -0.6010
0.0569 0.8286 -0.6011
0.0639 0.8227 -0.6010
0.0701 0.8164 -0.6004
0.0762 0.8101 -0.5999
0.0814 0.8034 -0.5989
0.1022 0.7862 -0.5985
0.1209 0.7683 -0.5972
0.1347 0.7569 -0.5969
-0.1596 1.0266 -0.6228
-0.1524 1.0194 -0.6221
-0.1310 0.9970 -0.6199
-0.1240 0.9899 -0.6193
-0.0454 0.9212 -0.6162
-0.0382 0.9152 -0.6161
0.0078 0.8688 -0.6119
0.0290 0.8512 -0.6115
0.0353 0.8448 -0.6109
0.0423 0.8390 -0.6107
0.0494 0.8331 -0.6106
0.0564 0.8273 -0.6104
0.0626 0.8210 -0.6098
0.0696 0.8152 -0.6097
0.0767 0.8093 -0.6095
0.0837 0.8035 -0.6094
0.0907 0.7977 -0.6092
0.0977 0.7919 -0.6091
0.1038 0.7857 -0.6085
0.1117 0.7803 -0.6088
0.1187 0.7745 -0.6086
0.1258 0.7687 -0.6085
0.1317 0.7625 -0.6079
0.1387 0.7567 -0.6078
0.1447 0.7506 -0.6072
0.1505 0.7446 -0.6066
0.1586 0.7391 -0.6069
-0.2128 1.0677 -0.6332
-0.2054 1.0604 -0.6325
-0.1904 1.0539 -0.6347
-0.1829 1.0477 -0.6345
-0.1756 1.0392 -0.6334
-0.1681 1.0342 -0.6337
-0.1607 1.0269 -0.6331
-0.1531 1.0218 -0.6334
-0.1457 1.0156 -0.6332
-0.1387 1.0063 -0.6316
-0.1320 0.9971 -0.6300
-0.1249 0.9901 -0.6294
-0.1168 0.9869 -0.6307
-0.1088 0.9827 -0.6315
-0.1014 0.9766 -0.6313
-0.0943 0.9695 -0.6307
-0.0740 0.9468 -0.6278
-0.0667 0.9407 -0.6277
-0.0603 0.9330 -0.6266
-0.0530 0.9270 -0.6264
-0.0453 0.9218 -0.6267
-0.0380 0.9157 -0.6266
-0.0312 0.9090 -0.6260
-0.0251 0.9015 -0.6249
-0.0173 0.8962 -0.6252
-0.0101 0.8902 -0.6250
-0.0028 0.8842 -0.6249
0.0025 0.8762 -0.6233
0.0162 0.8637 -0.6225
0.0355 0.8442 -0.6207
0.0418 0.8378 -0.6201
0.0630 0.8202 -0.6196
0.0700 0.8144 -0.6195
0.0771 0.8085 -0.6193
0.0833 0.8022 -0.6187
0.0903 0.7964 -0.6186
0.0964 0.7901 -0.6179
0.1034 0.7843 -0.6178
0.1105 0.7785 -0.6176
0.1185 0.7731 -0.6180
0.1315 0.7611 -0.6172
0.1445 0.7491 -0.6164
0.1514 0.7434 -0.6163
0.1584 0.7376 -0.6161
0.1643 0.7315 -0.6155
-0.2210 1.0597 -0.6376
-0.2137 1.0489 -0.6353
-0.2066 1.0478 -0.6372
-0.1995 1.0372 -0.6350
-0.1923 1.0324 -0.6354
-0.1853 1.0243 -0.6342
-0.1704 1.0213 -0.6380
-0.1630 1.0164 -0.6384
-0.1559 1.0093 -0.6377
-0.1488 1.0022 -0.6371
-0.1414 0.9973 -0.6374
-0.1335 0.9943 -0.6388
-0.1264 0.9872 -0.6381
-0.1191 0.9812 -0.6380
-0.1113 0.9771 -0.6388
-0.1048 0.9682 -0.6371
-0.0966 0.9649 -0.6385
-0.0896 0.9579 -0.6378
-0.0816 0.9536 -0.6387
-0.0757 0.9440 -0.6365
-0.0680 0.9389 -0.6369
-0.0599 0.9345 -0.6377
-0.0534 0.9268 -0.6366
-0.0457 0.9215 -0.6369
-0.0384 0.9155 -0.6368
-0.0310 0.9094 -0.6366
-0.0237 0.9033 -0.6365
-0.0175 0.8958 -0.6353
-0.0102 0.8898 -0.6351
-0.0024 0.8845 -0.6355
0.0043 0.8777 -0.6348
0.0110 0.8711 -0.6342
0.0189 0.8657 -0.6345
0.0234 0.8572 -0.6324
0.0299 0.8507 -0.6317
0.0371 0.8447 -0.6316
0.0442 0.8388 -0.6314
0.0522 0.8334 -0.6318
0.0594 0.8274 -0.6316
0.0674 0.8220 -0.6320
0.0737 0.8155 -0.6313
0.0801 0.8091 -0.6307
0.0988 0.7900 -0.6288
0.1059 0.7841 -0.6286
0.1121 0.7779 -0.6280
0.1252 0.7658 -0.6272
0.1583 0.7360 -0.6255
0.1664 0.7305 -0.6258
-0.2143 1.0255 -0.6346
-0.1941 1.0112 -0.6352
-0.1873 1.0067 -0.6356
-0.1734 0.9998 -0.6375
-0.1601 0.9853 -0.6356
-0.1456 0.9791 -0.6380
-0.1318 0.9677 -0.6377
-0.1244 0.9639 -0.6386
-0.1174 0.9581 -0.6385
-0.1096 0.9552 -0.6399
-0.0956 0.9435 -0.6396
-0.0882 0.9386 -0.6400
-0.0819 0.9310 -0.6388
-0.0733 0.9286 -0.6408
-0.0671 0.9211 -0.6396
-0.0583 0.9185 -0.6415
-0.0516 0.9118 -0.6409
-0.0455 0.9044 -0.6396
-0.0379 0.8993 -0.6400
-0.0298 0.8949 -0.6409
-0.0232 0.8883 -0.6403
-0.0161 0.8824 -0.6401
-0.0090 0.8765 -0.6400
-0.0001 0.8726 -0.6414
0.0065 0.8660 -0.6407
0.0136 0.8601 -0.6406
0.0265 0.8471 -0.6392
0.0343 0.8418 -0.6396
0.0422 0.8364 -0.6400
0.0486 0.8300 -0.6393
0.0549 0.8235 -0.6386
0.0644 0.8192 -0.6400
0.0699 0.8122 -0.6388
0.0779 0.8068 -0.6392
0.0851 0.8009 -0.6390
0.0913 0.7945 -0.6384
0.0993 0.7891 -0.6387
0.1074 0.7835 -0.6391
0.1146 0.7776 -0.6390
0.1198 0.7709 -0.6378
0.1279 0.7654 -0.6381
0.1361 0.7598 -0.6385
0.1412 0.7532 -0.6373
0.1472 0.7470 -0.6367
0.1522 0.7406 -0.6355
0.1581 0.7345 -0.6348
-0.1825 0.9872 -0.6378
-0.1563 0.9655 -0.6373
-0.1498 0.9601 -0.6371
-0.1421 0.9607 -0.6404
-0.1359 0.9532 -0.6391
-0.1285 0.9506 -0.6406
-0.1221 0.9441 -0.6399
-0.1165 0.9349 -0.6376
-0.1087 0.9331 -0.6397
-0.1014 0.9293 -0.6406
-0.0951 0.9229 -0.6399
-0.0887 0.9165 -0.6392
-0.0821 0.9110 -0.6391
-0.0670 0.9031 -0.6410
-0.0535 0.8919 -0.6408
-0.0477 0.8848 -0.6395
-0.0415 0.8785 -0.6388
-0.0332 0.8751 -0.6403
-0.0242 0.8723 -0.6424
-0.0111 0.8603 -0.6416
-0.0001 0.8465 -0.6391
0.0114 0.8451 -0.6428
0.0189 0.8400 -0.6432
0.0223 0.8315 -0.6403
0.0305 0.8269 -0.6413
0.0374 0.8213 -0.6411
0.0450 0.8161 -0.6415
0.0511 0.8099 -0.6408
0.0596 0.8052 -0.6418
0.0681 0.8004 -0.6427
0.0742 0.7942 -0.6420
0.0776 0.7868 -0.6397
0.0862 0.7820 -0.6406
0.0940 0.7767 -0.6410
0.1009 0.7710 -0.6409
0.1097 0.7660 -0.6418
0.1186 0.7609 -0.6428
0.1246 0.7548 -0.6421
0.1305 0.7488 -0.6414
0.1374 0.7430 -0.6413
0.1444 0.7373 -0.6411
0.1524 0.7318 -0.6415
0.1593 0.7260 -0.6414
0.1640 0.7198 -0.6401
0.0125 0.8230 -0.6419
0.0190 0.8176 -0.6418
0.0386 0.8013 -0.6414
0.0509 0.7901 -0.6405
0.0574 0.7847 -0.6404
0.0692 0.7818 -0.6437
0.0731 0.7751 -0.6418
0.0825 0.7707 -0.6434
0.0844 0.7634 -0.6404
0.0919 0.7583 -0.6408
0.1040 0.7472 -0.6400
0.1158 0.7432 -0.6427
0.1192 0.7369 -0.6409
0.1280 0.7319 -0.6419
0.1368 0.7269 -0.6429
0.1524 0.7163 -0.6437
-0.3444 0.1488 -0.6422
-0.3379 0.1411 -0.6432
-0.3315 0.1369 -0.6425
-0.6936 0.4374 -0.6425
-0.6807 0.4267 -0.6422
-0.6614 0.4105 -0.6417
-0.6580 0.4043 -0.6433
-0.6505 0.3992 -0.6426
-0.6441 0.3938 -0.6424
-0.6385 0.3880 -0.6428
-0.6302 0.3833 -0.6415
-0.6003 0.3550 -0.6424
-0.5922 0.3505 -0.6412
-0.5857 0.3451 -0.6410
-0.5808 0.3386 -0.6420
-0.5684 0.3272 -0.6422
-0.5619 0.3217 -0.6421
-0.5488 0.3108 -0.6417
-0.5292 0.2944 -0.6413
-0.5226 0.2889 -0.6411
-0.5166 0.2828 -0.6415
-0.5025 0.2733 -0.6401
-0.4969 0.2663 -0.6410
-0.4913 0.2593 -0.6420
-0.4842 0.2546 -0.6413
-0.4781 0.2483 -0.6417
-0.4711 0.2436 -0.6410
-0.4652 0.2364 -0.6419
-0.4565 0.2360 -0.6384
-0.4523 0.2245 -0.6421
-0.4463 0.2171 -0.6431
-0.4393 0.2124 -0.6424
-0.4318 0.2096 -0.6406
-0.4122 0.1921 -0.6406
-0.3994 0.1780 -0.6420
-0.3927 0.1724 -0.6418
-0.3861 0.1658 -0.6422
-0.3794 0.1602 -0.6420
-0.3726 0.1556 -0.6413
-0.3659 0.1501 -0.6412
-0.3593 0.1411 -0.6426
-0.3525 0.1377 -0.6414
-0.3458 0.1298 -0.6423
-0.7169 0.4388 -0.6417
-0.7046 0.4274 -0.6419
-0.6967 0.4220 -0.6412
-0.6900 0.4164 -0.6410
-0.6844 0.4105 -0.6414
-0.6807 0.4040 -0.6429
-0.6729 0.3986 -0.6422
-0.6631 0.3940 -0.6404
-0.6594 0.3873 -0.6418
-0.6507 0.3824 -0.6406
-0.6458 0.3760 -0.6415
-0.6381 0.3707 -0.6408
-0.6304 0.3655 -0.6401
-0.6263 0.3586 -0.6415
-0.6187 0.3534 -0.6409
-0.6111 0.3482 -0.6402
-0.5863 0.3240 -0.6411
-0.5794 0.3183 -0.6409
-0.5678 0.3051 -0.6422
-0.5596 0.3006 -0.6410
-0.5541 0.2936 -0.6419
-0.5472 0.2879 -0.6417
-0.5063 0.2526 -0.6412
-0.4994 0.2468 -0.6411
-0.4795 0.2279 -0.6416
-0.4741 0.2187 -0.6436
-0.4656 0.2163 -0.6413
-0.4583 0.2114 -0.6406
-0.4445 0.1998 -0.6403
-0.4375 0.1940 -0.6401
-0.4306 0.1882 -0.6399
-0.4255 0.1747 -0.6439
-0.4180 0.1707 -0.6427
-0.4109 0.1648 -0.6426
-0.4030 0.1641 -0.6398
-0.3961 0.1583 -0.6396
-0.3825 0.1434 -0.6409
-0.3757 0.1343 -0.6422
-0.3688 0.1262 -0.6431
-0.3616 0.1225 -0.6419
-0.3545 0.1166 -0.6417
-0.3474 0.1095 -0.6421
-0.7266 0.4217 -0.6427
-0.7124 0.4098 -0.6424
-0.6939 0.3991 -0.6400
-0.6900 0.3922 -0.6414
-0.6829 0.3863 -0.6412
-0.6748 0.3807 -0.6405
-0.6677 0.3748 -0.6403
-0.6554 0.3622 -0.6410
-0.6412 0.3503 -0.6407
-0.6269 0.3384 -0.6403
-0.6214 0.3315 -0.6412
-0.6150 0.3250 -0.6415
-0.6079 0.3190 -0.6413
-0.5992 0.3141 -0.6401
-0.5942 0.3064 -0.6415
-0.5877 0.2998 -0.6418
-0.5798 0.2944 -0.6411
-0.5713 0.2896 -0.6400
-0.5628 0.2849 -0.6388
-0.5588 0.2757 -0.6411
-0.5388 0.2555 -0.6421
-0.5304 0.2508 -0.6409
-0.5257 0.2411 -0.6433
-0.4963 0.2165 -0.6426
-0.4889 0.2104 -0.6424
-0.4676 0.1902 -0.6429
-0.4598 0.1849 -0.6422
-0.4522 0.1797 -0.6415
-0.4448 0.1735 -0.6413
-0.4380 0.1655 -0.6421
-0.4306 0.1593 -0.6420
-0.4227 0.1551 -0.6408
-0.4158 0.1469 -0.6416
-0.4011 0.1335 -0.6417
-0.3860 0.1233 -0.6404
-0.3790 0.1127 -0.6422
-0.3718 0.1021 -0.6440
-0.3640 0.1025 -0.6409
-0.3566 0.0940 -0.6417
-0.3492 0.0843 -0.6429
-0.7639 0.4283 -0.6430
-0.7529 0.4227 -0.6413
-0.7478 0.4160 -0.6421
-0.7391 0.4100 -0.6414
-0.7350 0.4030 -0.6427
-0.7178 0.3910 -0.6414
-0.7083 0.3854 -0.6402
-0.7028 0.3785 -0.6410
-0.6983 0.3712 -0.6423
-0.6823 0.3590 -0.6415
-0.6775 0.3515 -0.6427
-0.6690 0.3455 -0.6421
-0.6488 0.3251 -0.6430
-0.6396 0.3198 -0.6418
-0.6320 0.3134 -0.6416
-0.6213 0.3092 -0.6395
-0.6099 0.2938 -0.6416
-0.6023 0.2875 -0.6414
-0.5940 0.2817 -0.6407
-0.5877 0.2741 -0.6415
-0.5801 0.2678 -0.6413
-0.5654 0.2543 -0.6414
-0.5484 0.2437 -0.6396
-0.5425 0.2352 -0.6409
-0.5348 0.2288 -0.6407
-0.5195 0.2160 -0.6403
-0.5137 0.2064 -0.6420
-0.5059 0.1999 -0.6418
-0.4982 0.1935 -0.6416
-0.4827 0.1805 -0.6413
-0.4746 0.1750 -0.6406
-0.4688 0.1631 -0.6433
-0.4610 0.1565 -0.6431
-0.4215 0.1248 -0.6417
-0.4146 0.1131 -0.6438
-0.4060 0.1107 -0.6417
-0.3979 0.1062 -0.6406
-0.3902 0.0986 -0.6409
-0.3825 0.0910 -0.6412
-0.3668 0.0779 -0.6408
-0.3590 0.0667 -0.6425
-0.7816 0.4158 -0.6426
-0.7634 0.4031 -0.6413
-0.7555 0.3965 -0.6411
-0.7455 0.3905 -0.6400
-0.7461 0.3815 -0.6435
-0.7319 0.3767 -0.6405
-0.7250 0.3698 -0.6408
-0.7191 0.3625 -0.6415
-0.7101 0.3562 -0.6409
-0.6984 0.3511 -0.6389
-0.6924 0.3438 -0.6396
-0.6900 0.3346 -0.6422
-0.6820 0.3279 -0.6420
-0.6562 0.3088 -0.6405
-0.6491 0.3016 -0.6407
-0.6353 0.2866 -0.6417
-0.6288 0.2787 -0.6424
-0.6132 0.2646 -0.6425
-0.6031 0.2597 -0.6409
-0.5970 0.2510 -0.6421
-0.5889 0.2442 -0.6419
-0.5813 0.2368 -0.6422
-0.5726 0.2307 -0.6415
-0.5645 0.2239 -0.6413
-0.5569 0.2164 -0.6416
-0.5482 0.2103 -0.6409
-0.5411 0.2020 -0.6416
-0.5252 0.1875 -0.6417
-0.5161 0.1823 -0.6406
-0.5084 0.1747 -0.6408
-0.5006 0.1670 -0.6411
-0.4921 0.1611 -0.6404
-0.4843 0.1533 -0.6407
-0.4685 0.1378 -0.6412
-0.4594 0.1338 -0.6397
-0.4518 0.1250 -0.6403
-0.4450 0.1123 -0.6428
-0.4362 0.1073 -0.6417
-0.3785 0.0532 -0.6425
-0.3700 0.0484 -0.6414
-0.3617 0.0380 -0.6425
-0.3533 0.0345 -0.6410
-0.8020 0.4017 -0.6425
-0.7936 0.3947 -0.6423
-0.7778 0.3803 -0.6423
-0.7672 0.3739 -0.6412
-0.7545 0.3584 -0.6426
-0.7420 0.3528 -0.6406
-0.7326 0.3462 -0.6400
-0.7281 0.3376 -0.6415
-0.7196 0.3305 -0.6413
-0.7111 0.3234 -0.6411
-0.6857 0.3022 -0.6405
-0.6764 0.2956 -0.6399
-0.6720 0.2860 -0.6418
-0.6580 0.2695 -0.6431
-0.6364 0.2586 -0.6401
-0.6307 0.2490 -0.6416
-0.6023 0.2302 -0.6393
-0.5912 0.2089 -0.6431
-0.5762 0.2096 -0.6383
-0.5743 0.1936 -0.6431
-0.5481 0.1717 -0.6425
-0.5301 0.1579 -0.6417
-0.5214 0.1506 -0.6415
-0.5043 0.1352 -0.6415
-0.4963 0.1261 -0.6421
-0.4865 0.1215 -0.6406
-0.4778 0.1142 -0.6404
-0.4685 0.1088 -0.6394
-0.4601 0.1006 -0.6396
-0.4431 0.0841 -0.6400
-0.4352 0.0727 -0.6414
-0.4273 0.0601 -0.6433
-0.4172 0.0600 -0.6402
-0.4094 0.0452 -0.6428
-0.3999 0.0432 -0.6406
-0.3914 0.0313 -0.6420
-0.3820 0.0307 -0.6393
-0.3737 0.0141 -0.6424
-0.3647 0.0090 -0.6414
-0.3558 0.0004 -0.6416
-0.8599 0.4159 -0.6428
-0.8437 0.4097 -0.6401
-0.8263 0.3854 -0.6427
-0.8095 0.3799 -0.6397
-0.8050 0.3713 -0.6411
-0.7907 0.3654 -0.6388
-0.7843 0.3468 -0.6429
-0.7753 0.3392 -0.6427
-0.7504 0.3269 -0.6394
-0.7481 0.3165 -0.6420
-0.7272 0.3027 -0.6404
-0.7126 0.2857 -0.6415
-0.6822 0.2652 -0.6393
-0.6763 0.2554 -0.6407
-0.6724 0.2437 -0.6432
-0.6595 0.2390 -0.6410
-0.6392 0.2257 -0.6394
-0.6321 0.2161 -0.6404
-0.6157 0.1988 -0.6411
-0.5968 0.1842 -0.6403
-0.5893 0.1743 -0.6412
-0.5773 0.1704 -0.6390
-0.5677 0.1635 -0.6384
-0.5601 0.1535 -0.6394
-0.5449 0.1324 -0.6417
-0.5317 0.1323 -0.6379
-0.5266 0.1159 -0.6416
-0.5177 0.1072 -0.6418
-0.5094 0.0967 -0.6427
-0.4905 0.0810 -0.6423
-0.4811 0.0731 -0.6421
-0.4714 0.0662 -0.6414
-0.4614 0.0603 -0.6404
-0.4521 0.0525 -0.6402
-0.4427 0.0447 -0.6400
-0.4339 0.0337 -0.6409
-0.4245 0.0258 -0.6407
-0.4152 0.0169 -0.6409
-0.4055 0.0112 -0.6399
-0.3870 -0.0091 -0.6409
-0.3774 -0.0147 -0.6400
-0.3681 -0.0273 -0.6413
-0.3585 -0.0329 -0.6403
-0.3490 -0.0468 -0.6419
-0.3395 -0.0475 -0.6394
-0.8713 0.3933 -0.6399
-0.8688 0.3839 -0.6420
-0.8558 0.3767 -0.6406
-0.8412 0.3596 -0.6417
-0.8283 0.3526 -0.6403
-0.8167 0.3453 -0.6393
-0.8093 0.3367 -0.6398
-0.8098 0.3249 -0.6434
-0.8001 0.3168 -0.6431
-0.7835 0.3115 -0.6403
-0.7662 0.2946 -0.6406
-0.7487 0.2775 -0.6408
-0.7398 0.2689 -0.6410
-0.7293 0.2614 -0.6404
-0.7220 0.2517 -0.6413
-0.7107 0.2446 -0.6403
-0.7064 0.2325 -0.6427
-0.6740 0.2103 -0.6405
-0.6518 0.1966 -0.6385
-0.6177 0.1584 -0.6405
-0.6084 0.1495 -0.6407
-0.5907 0.1298 -0.6417
-0.5797 0.1231 -0.6407
-0.5703 0.1140 -0.6408
-0.5599 0.1065 -0.6402
-0.5517 0.0948 -0.6414
-0.5388 0.0926 -0.6386
-0.5293 0.0835 -0.6388
-0.5003 0.0568 -0.6388
-0.4808 0.0393 -0.6387
-0.4706 0.0320 -0.6381
-0.4623 0.0166 -0.6403
-0.4516 0.0112 -0.6390
-0.4330 -0.0140 -0.6414
-0.4234 -0.0269 -0.6426
-0.4132 -0.0355 -0.6424
-0.3818 -0.0519 -0.6388
-0.3618 -0.0795 -0.6415
-0.3515 -0.0845 -0.6402
-0.3414 -0.0881 -0.6385
-0.9187 0.3819 -0.6416
-0.8717 0.3378 -0.6417
-0.8303 0.3032 -0.6407
-0.8219 0.2937 -0.6412
-0.7935 0.2663 -0.6415
-0.7578 0.2427 -0.6390
-0.7387 0.2243 -0.6392
-0.7323 0.2127 -0.6407
-0.7195 0.2057 -0.6394
-0.7090 0.1970 -0.6391
-0.6979 0.1889 -0.6385
-0.6937 0.1744 -0.6414
-0.6831 0.1656 -0.6411
-0.6613 0.1486 -0.6403
-0.6568 0.1325 -0.6434
-0.6261 0.1266 -0.6375
-0.6115 0.0996 -0.6410
-0.5993 0.0931 -0.6398
-0.5886 0.0842 -0.6395
-0.5591 0.0522 -0.6408
-0.5480 0.0441 -0.6402
-0.5376 0.0342 -0.6402
-0.5268 0.0252 -0.6400
-0.5167 0.0143 -0.6404
-0.5052 0.0072 -0.6395
-0.4948 -0.0027 -0.6395
-0.4744 -0.0259 -0.6407
-0.4515 -0.0388 -0.6385
-0.4420 -0.0554 -0.6406
-0.4200 -0.0725 -0.6397
-0.4098 -0.0884 -0.6414
-0.3980 -0.0896 -0.6389
-0.3876 -0.1069 -0.6409
-0.3764 -0.1114 -0.6393
-0.3654 -0.1206 -0.6391
-0.3545 -0.1334 -0.6398
-0.3435 -0.1377 -0.6382
-0.9642 0.3706 -0.6405
-0.9433 0.3519 -0.6403
-0.9345 0.3421 -0.6407
-0.9177 0.3219 -0.6418
-0.8861 0.2930 -0.6416
-0.8718 0.2848 -0.6404
-0.8448 0.2536 -0.6418
-0.8344 0.2437 -0.6419
-0.8091 0.2263 -0.6404
-0.7736 0.1991 -0.6389
-0.7436 0.1678 -0.6397
-0.7329 0.1577 -0.6398
-0.7173 0.1521 -0.6376
-0.7102 0.1387 -0.6392
-0.7001 0.1278 -0.6396
-0.6912 0.1155 -0.6406
-0.6809 0.1044 -0.6409
-0.6641 0.1015 -0.6378
-0.6556 0.0882 -0.6391
-0.6446 0.0778 -0.6391
-0.6212 0.0595 -0.6383
-0.6131 0.0441 -0.6402
-0.5992 0.0386 -0.6383
-0.5859 0.0325 -0.6368
-0.5783 0.0150 -0.6393
-0.5683 0.0017 -0.6403
-0.5569 -0.0090 -0.6403
-0.5348 -0.0324 -0.6410
-0.4983 -0.0579 -0.6389
-0.4866 -0.0677 -0.6386
-0.4753 -0.0796 -0.6390
-0.4399 -0.1080 -0.6378
-0.4290 -0.1245 -0.6394
-0.4171 -0.1344 -0.6391
-0.3934 -0.1542 -0.6385
-0.3816 -0.1665 -0.6388
-0.3579 -0.1901 -0.6392
-0.3339 -0.2113 -0.6389
-0.3222 -0.2124 -0.6365
-1.0060 0.3343 -0.6421
-0.9870 0.3260 -0.6400
-0.9573 0.2937 -0.6409
-0.9350 0.2726 -0.6409
-0.9168 0.2648 -0.6388
-0.8984 0.2420 -0.6400
-0.8557 0.1976 -0.6409
-0.8433 0.1873 -0.6406
-0.8268 0.1797 -0.6389
-0.7954 0.1448 -0.6400
-0.7838 0.1338 -0.6400
-0.7706 0.1241 -0.6394
-0.7216 0.0819 -0.6385
-0.7010 0.0559 -0.6399
-0.6890 0.0447 -0.6399
-0.6797 0.0295 -0.6413
-0.6255 -0.0071 -0.6381
-0.5947 -0.0540 -0.6420
-0.5790 -0.0583 -0.6398
-0.5666 -0.0699 -0.6397
-0.5511 -0.0729 -0.6372
-0.5391 -0.0855 -0.6374
-0.5264 -0.0960 -0.6371
-0.5028 -0.1245 -0.6385
-0.4902 -0.1362 -0.6384
-0.4767 -0.1437 -0.6373
-0.4645 -0.1577 -0.6378
-0.4525 -0.1739 -0.6389
-0.4395 -0.1848 -0.6386
-0.4263 -0.1933 -0.6377
-0.4124 -0.1937 -0.6349
-0.4012 -0.2243 -0.6393
-0.3488 -0.2730 -0.6391
-0.3224 -0.2976 -0.6390
-0.3090 -0.3112 -0.6393
-0.2955 -0.3262 -0.6398
-0.2818 -0.3427 -0.6405
-1.0205 0.2704 -0.6409
-1.0071 0.2593 -0.6406
-0.9498 0.2164 -0.6382
-0.9431 0.2020 -0.6398
-0.9352 0.1879 -0.6410
-0.8768 0.1454 -0.6384
-0.8571 0.1176 -0.6402
-0.8411 0.1081 -0.6390
-0.8191 0.0809 -0.6402
-0.7826 0.0668 -0.6362
-0.7732 0.0514 -0.6374
-0.7200 0.0045 -0.6366
-0.7114 -0.0140 -0.6386
-0.6976 -0.0255 -0.6383
-0.6828 -0.0354 -0.6374
-0.6680 -0.0452 -0.6366
-0.6590 -0.0653 -0.6388
-0.6197 -0.1057 -0.6394
-0.6060 -0.1184 -0.6393
-0.5653 -0.1586 -0.6396
-0.5358 -0.1783 -0.6379
-0.5071 -0.1997 -0.6367
-0.4823 -0.2418 -0.6403
-0.4682 -0.2561 -0.6404
-0.4519 -0.2546 -0.6371
-0.4387 -0.2757 -0.6387
-0.4236 -0.2807 -0.6369
-0.4102 -0.3032 -0.6388
-0.3955 -0.3117 -0.6377
-0.3816 -0.3359 -0.6398
-0.3667 -0.3333 -0.6365
-0.3524 -0.3553 -0.6381
-0.3379 -0.3585 -0.6361
-0.3234 -0.3770 -0.6369
-0.3089 -0.3890 -0.6366
-0.2784 -0.4334 -0.6396
-1.1507 0.2931 -0.6410
-1.1474 0.2777 -0.6431
-1.1223 0.2682 -0.6405
-1.0624 0.2194 -0.6389
-1.0517 0.2054 -0.6395
-1.0409 0.1913 -0.6401
-1.0168 0.1636 -0.6408
-0.9709 0.1266 -0.6395
-0.9576 0.1129 -0.6396
-0.9384 0.1032 -0.6381
-0.9259 0.0890 -0.6384
-0.9141 0.0741 -0.6390
-0.8763 0.0298 -0.6403
-0.8560 0.0217 -0.6383
-0.8223 -0.0000 -0.6364
-0.8092 -0.0148 -0.6367
-0.7973 -0.0311 -0.6375
-0.7616 -0.0495 -0.6347
-0.7452 -0.0948 -0.6398
-0.7075 -0.1098 -0.6360
-0.6923 -0.1225 -0.6357
-0.6756 -0.1326 -0.6346
-0.6635 -0.1516 -0.6358
-0.6527 -0.1746 -0.6380
-0.6059 -0.2136 -0.6369
-0.5916 -0.2306 -0.6374
-0.5473 -0.2803 -0.6385
-0.5294 -0.2851 -0.6364
-0.5151 -0.3047 -0.6373
-0.5012 -0.3289 -0.6392
-0.4848 -0.3401 -0.6384
-0.4515 -0.3565 -0.6356
-0.3733 -0.4573 -0.6398
-0.3567 -0.4559 -0.6368
-0.2905 -0.5365 -0.6396
-0.2744 -0.5436 -0.6381
-1.2643 0.2791 -0.6405
-1.2315 0.2696 -0.6371
-1.2246 0.2536 -0.6384
-1.1993 0.2427 -0.6363
-1.1942 0.2257 -0.6381
-1.2028 0.2035 -0.6427
-1.1892 0.1883 -0.6430
-1.1577 0.1798 -0.6395
-1.1360 0.1681 -0.6380
-1.1375 0.1464 -0.6415
-1.1010 0.1415 -0.6368
-1.0932 0.1235 -0.6384
-1.0831 0.1061 -0.6395
-1.0618 0.0946 -0.6380
-1.0433 0.0818 -0.6372
-1.0284 0.0668 -0.6372
-1.0083 0.0551 -0.6359
-0.9585 0.0136 -0.6347
-0.9320 -0.0201 -0.6358
-0.9181 -0.0368 -0.6363
-0.8925 -0.0735 -0.6380
-0.8325 -0.1057 -0.6338
-0.7858 -0.1536 -0.6340
-0.7726 -0.1736 -0.6351
-0.7249 -0.2236 -0.6355
-0.6983 -0.2701 -0.6385
-0.6758 -0.2736 -0.6356
-0.6572 -0.2853 -0.6346
-0.6423 -0.3066 -0.6356
-0.5212 -0.4180 -0.6342
-0.4889 -0.4692 -0.6371
-0.4550 -0.5217 -0.6399
-0.3438 -0.6248 -0.6388
-0.2704 -0.6669 -0.6342
-1.3725 0.2692 -0.6343
-1.3593 0.2531 -0.6347
-1.3448 0.2371 -0.6348
-1.2628 0.1583 -0.6342
-1.2283 0.1269 -0.6337
-1.2140 0.1098 -0.6340
-1.1504 0.0426 -0.6343
-1.0369 -0.0496 -0.6312
-0.9716 -0.1208 -0.6318
-0.8560 -0.2122 -0.6284
-0.7897 -0.2907 -0.6298
-0.7504 -0.3209 -0.6285
-0.6851 -0.4154 -0.6320
-0.6636 -0.4269 -0.6307
-0.6445 -0.4454 -0.6306
-0.6064 -0.4836 -0.6305
-1.2184 0.0558 -0.6162
-1.0919 -0.0627 -0.6145
-1.0685 -0.0758 -0.6133
-1.0437 -0.0874 -0.6117
-1.0120 -0.1256 -0.6122
-0.9005 -0.2290 -0.6106
-0.6642 -0.4198 -0.6042
-1.3494 0.1433 -0.5962
-1.3267 0.1283 -0.5953
-1.3000 0.1151 -0.5939
-1.2766 0.1008 -0.5929
-1.2333 0.0712 -0.5913
-1.2019 0.0358 -0.5913
-1.1809 0.0209 -0.5906
-1.0967 -0.0677 -0.5901
-0.9572 -0.1776 -0.5862
-0.9198 -0.2114 -0.5855
-0.9004 -0.2276 -0.5851
-0.8787 -0.2405 -0.5841
-0.8466 -0.2830 -0.5847
-0.8075 -0.3156 -0.5837
-0.7889 -0.3337 -0.5835
-0.7670 -0.3455 -0.5824
-1.4200 0.2065 -0.5725
-1.3331 0.1458 -0.5697
-1.2812 0.0959 -0.5689
-1.2429 0.0640 -0.5679
-1.2277 0.0460 -0.5679
-1.2066 0.0310 -0.5672
-1.0392 -0.1180 -0.5638
-1.0162 -0.1306 -0.5628
-0.9991 -0.1488 -0.5627
-0.9826 -0.1679 -0.5626
-0.9632 -0.1840 -0.5622
-0.9426 -0.1987 -0.5615
-0.9277 -0.2203 -0.5617
-0.9082 -0.2366 -0.5613
-0.8692 -0.2691 -0.5603
-0.8497 -0.2854 -0.5599
-0.7903 -0.3324 -0.5583
-0.7708 -0.3486 -0.5578
-0.7125 -0.3973 -0.5564
-0.6338 -0.4591 -0.5542
-0.6159 -0.4806 -0.5542
-1.2667 0.0750 -0.5444
-1.1537 -0.0220 -0.5418
-1.1136 -0.0528 -0.5407
-1.0886 -0.0644 -0.5397
-1.0696 -0.0802 -0.5393
-1.0577 -0.1021 -0.5395
-1.0439 -0.1229 -0.5396
-1.0246 -0.1390 -0.5391
-0.9965 -0.1465 -0.5377
-0.9845 -0.1698 -0.5380
-0.9652 -0.1860 -0.5376
-0.9459 -0.2021 -0.5371
-0.9266 -0.2182 -0.5366
-0.9129 -0.2416 -0.5368
-0.8934 -0.2578 -0.5364
-0.8699 -0.2682 -0.5354
-0.8467 -0.2783 -0.5344
-0.8286 -0.2961 -0.5341
-0.8083 -0.3103 -0.5335
-0.7723 -0.3470 -0.5329
-0.7561 -0.3698 -0.5329
-1.3912 0.1862 -0.5229
-1.3717 0.1485 -0.5229
-1.2140 0.0222 -0.5190
-1.1105 -0.0521 -0.5162
-1.0949 -0.0705 -0.5160
-1.0775 -0.0877 -0.5156
-1.0608 -0.1056 -0.5153
-1.0448 -0.1244 -0.5151
-1.0293 -0.1440 -0.5148
-1.0085 -0.1587 -0.5143
-0.9857 -0.1711 -0.5136
-0.9617 -0.1817 -0.5128
-0.9473 -0.2031 -0.5127
-0.9281 -0.2191 -0.5122
-0.9089 -0.2351 -0.5117
-0.8897 -0.2511 -0.5113
-0.8514 -0.2832 -0.5104
-0.8332 -0.3010 -0.5100
-0.7973 -0.3377 -0.5093
-0.7779 -0.3538 -0.5088
-0.7577 -0.3681 -0.5083
-0.7207 -0.4042 -0.5075
-0.6998 -0.4164 -0.5069
-0.6812 -0.4345 -0.5065
-0.6636 -0.4559 -0.5062
-0.6449 -0.4743 -0.5058
-0.6263 -0.4938 -0.5055
-0.6053 -0.5046 -0.5048
-0.5840 -0.5130 -0.5041
-0.5648 -0.5291 -0.5036
-0.5470 -0.5533 -0.5034
-1.3804 0.1645 -0.4988
-1.3581 0.1499 -0.4983
-1.3258 0.1162 -0.4975
-1.3111 0.0986 -0.4972
-1.2952 0.0813 -0.4968
-1.2761 0.0653 -0.4964
-1.2258 0.0395 -0.4951
-1.1909 0.0063 -0.4943
-1.1720 -0.0095 -0.4938
-1.1503 -0.0236 -0.4933
-1.1186 -0.0595 -0.4926
-1.0904 -0.0992 -0.4919
-1.0671 -0.1119 -0.4914
-1.0479 -0.1279 -0.4909
-1.0058 -0.1563 -0.4899
-0.9711 -0.1920 -0.4891
-0.9520 -0.2080 -0.4886
-0.9328 -0.2240 -0.4881
-0.9104 -0.2359 -0.4876
-0.8956 -0.2577 -0.4872
-0.8723 -0.2678 -0.4867
-0.8560 -0.2881 -0.4863
